# .PCD v0.7 - Point Cloud Data file format
VERSION 0.7
FIELDS x y z intensity
SIZE 4 4 4 4
TYPE F F F F
COUNT 1 1 1 1
WIDTH 1438
HEIGHT 1
VIEWPOINT 0 0 0 1 0 0 0
POINTS 1438
DATA ascii
-5.6959119 -0.59564978 1.1047453 11
-5.7652988 -0.6018886 0.91100788 9
-5.6453342 -0.58836848 0.69221783 13
-5.8047681 -0.60396087 0.50724643 12
-5.7693038 -0.59925318 0.30197847 9
-5.8261251 -0.60412741 0.101573 9
-1.9789886 -0.2034615 -0.52281469 2
-2.2625437 -0.23221499 -0.51626295 2
-2.6893787 -0.27554867 -0.51758158 2
-3.2706809 -0.33453095 -0.51466984 2
-4.2641768 -0.43539545 -0.52160138 2
-5.8952155 -0.60089368 -0.51509124 14
-5.8103385 -0.59121764 -0.30306005 12
-5.8821058 -0.59748292 -0.10150848 9
-5.7418447 -0.58222324 1.5350904 4
-5.8450928 -0.59166199 1.3464381 12
-5.8102756 -0.58711314 1.1266686 17
-5.8852921 -0.59365577 0.92975926 11
-5.7707977 -0.58108914 0.70745152 13
-5.9307404 -0.59614897 0.51814085 12
-5.9005337 -0.59207243 0.30878213 8
-5.9625058 -0.59723979 0.10392907 9
-1.9748807 -0.19607514 -0.52152056 2
-2.2536442 -0.22335486 -0.51401347 2
-2.6854398 -0.26567608 -0.51662844 2
-3.2718287 -0.3231121 -0.51466984 2
-4.2607322 -0.42002121 -0.52099204 2
-5.9270191 -0.58323866 -0.51770592 6
-5.9415684 -0.58362329 -0.3098411 12
-6.0135155 -0.58963072 -0.10375462 9
-5.8880482 -0.57629108 1.5738881 4
-5.9731956 -0.58357233 1.3756596 12
-5.9099922 -0.57635617 1.1457323 6
-6.0298734 -0.58698487 0.95241725 10
-5.8863988 -0.57198101 0.72146648 13
-6.0666437 -0.58842665 0.52990693 12
-6.0466919 -0.58542615 0.31637084 8
-6.0989079 -0.58940721 0.10628515 8
-1.9755532 -0.18918033 -0.52152056 2
-2.2350111 -0.21363257 -0.50951445 2
-2.6863508 -0.25630054 -0.51662844 2
-3.2729366 -0.31168935 -0.51466984 2
-4.2572317 -0.40467629 -0.5203827 2
-5.9389362 -0.56348681 -0.51857746 4
-6.0877271 -0.57653207 -0.31740457 12
-6.1548958 -0.58180934 -0.10617355 8
-6.0294704 -0.56889147 1.6113924 4
-6.1110125 -0.57550901 1.4071289 14
-6.0878916 -0.57225966 1.1800472 8
-6.1695609 -0.57885027 0.97429395 15
-6.031652 -0.5648492 0.73913753 13
-6.1976042 -0.57929909 0.54123718 12
-6.1829305 -0.57683897 0.3234362 7
-6.2353263 -0.58062953 0.10864122 8
-1.9762014 -0.18228321 -0.52152056 2
-2.245446 -0.20672287 -0.51176393 2
-2.6823413 -0.24647273 -0.51567525 2
-3.2740047 -0.30026275 -0.51466984 3
-4.2586184 -0.3898133 -0.5203827 2
-5.9755888 -0.54592478 -0.5216279 5
-6.2289343 -0.56797403 -0.32470721 12
-6.3162069 -0.57482028 -0.10893804 8
-6.166101 -0.56007451 1.6476034 4
-6.1809144 -0.56033236 1.4228636 16
-6.1827297 -0.55940896 1.1981577 13
-6.2059746 -0.56042016 0.97976315 10
-6.1522112 -0.55448264 0.75376189 13
-6.3682604 -0.57283407 0.55605364 9
-6.3440466 -0.56953984 0.33180994 7
-6.4016314 -0.5735833 0.11152087 8
-1.9768257 -0.17538387 -0.52152056 2
-2.2558596 -0.19974293 -0.51401347 2
-2.6880746 -0.23754017 -0.51662844 3
-3.275033 -0.28883252 -0.51466984 2
-4.2599535 -0.37494558 -0.5203827 2
-5.9724965 -0.52462697 -0.52119213 5
-6.3801022 -0.55930912 -0.33253148 12
-6.452641 -0.56453335 -0.11127058 7
-6.3941617 -0.55829257 1.7083862 8
-6.2362227 -0.54340577 1.4352266 7
-6.385129 -0.55525815 1.2372384 7
-6.5818186 -0.57120514 1.0391427 15
-6.2134399 -0.53814262 0.76107401 9
-6.5190954 -0.56346899 0.56912696 9
-6.4952369 -0.56026465 0.33966035 7
-6.5829043 -0.56666923 0.1146623 8
-1.9774258 -0.16848239 -0.52152056 2
-2.2613978 -0.19228007 -0.51513821 2
-2.6888874 -0.22815558 -0.51662844 2
-3.280942 -0.2778154 -0.51545197 2
-4.2612357 -0.36007327 -0.5203827 2
-5.9742913 -0.50377584 -0.52119213 5
-6.5362597 -0.55001432 -0.34061655 12
-6.648859 -0.5583207 -0.11463979 9
-6.6655989 -0.55855489 1.7808083 22
nan nan nan 0
-6.6462674 -0.55459875 1.2877574 15
-6.7560272 -0.56257027 1.0664886 12
-6.6059899 -0.54891586 0.80921239 15
-6.6997247 -0.55552727 0.58481503 11
-6.6812701 -0.55282295 0.3493425 9
-6.7642045 -0.55849648 0.11780374 12
-1.9731884 -0.16118565 -0.52022654 2
-2.2717667 -0.18517675 -0.51738775 2
-2.6945596 -0.21916611 -0.51758158 2
-3.2818916 -0.26636112 -0.51545197 2
-4.2624669 -0.3451966 -0.5203827 2
-5.9710488 -0.48251742 -0.52075636 5
-6.7073588 -0.54084003 -0.34948406 13
-6.8152113 -0.54833937 -0.11749066 18
-6.7926812 -0.54533339 1.8144329 15
-6.7935047 -0.5442062 1.5633518 18
-6.8145142 -0.54469222 1.3201658 17
-6.8465629 -0.54605132 1.0805522 32
-6.7760668 -0.53923875 0.82993019 18
-6.8456173 -0.54357129 0.59745264 26
-6.8324852 -0.54132855 0.35719287 23
-6.8458524 -0.5411852 0.11919993 31
-1.9689239 -0.15392055 -0.5189324 2
-2.2675419 -0.1768668 -0.51626295 2
-2.700202 -0.21013989 -0.51853484 2
-3.287725 -0.25528586 -0.51623416 2
-4.258698 -0.32993239 -0.5197733 2
-5.9726963 -0.46167162 -0.52075636 6
-6.8436232 -0.52779013 -0.35652593 28
-6.8420062 -0.52646416 -0.11792262 23
-6.9582772 -0.53418905 1.8584034 15
-6.8536563 -0.52495408 1.5768386 31
-6.8506327 -0.52351981 1.3268381 21
-6.9124427 -0.52702981 1.0907092 9
-6.862031 -0.52198166 0.84028912 32
-6.8623738 -0.52080309 0.59875995 17
-6.8492699 -0.51860636 0.35797793 19
-6.8975496 -0.52105123 0.12007254 15
-1.9694493 -0.14704677 -0.5189324 2
-2.2535703 -0.16786486 -0.51288873 2
-2.7009189 -0.20071313 -0.51853484 2
-3.2885959 -0.24380799 -0.51623416 2
-4.2598238 -0.31506476 -0.5197733 2
-5.9693041 -0.44045368 -0.52032059 6
-6.8553834 -0.50463134 -0.35704753 15
nan nan nan 0
-7.1575937 -0.52436537 1.9114268 10
-6.9137559 -0.50528866 1.5903255 7
nan nan nan 0
-7.7909908 -0.56666696 1.2297825 16
-6.9232078 -0.50233525 0.84760123 11
nan nan nan 0
nan nan nan 0
-7.7769189 -0.56018567 0.13543066 23
-1.9603157 -0.13948566 -0.51634425 2
-2.2298443 -0.15827274 -0.50726491 2
-2.6967068 -0.19093727 -0.51758158 2
-3.289427 -0.23232718 -0.51623416 2
-4.2559466 -0.29984447 -0.51916397 2
-5.9658365 -0.41926506 -0.51988477 6
nan nan nan 0
-7.7980461 -0.54529309 -0.13442315 20
-7.3858337 -0.51517296 1.9722097 9
-7.0953088 -0.493664 1.63191 3
-7.8138394 -0.54228622 1.5136631 32
-7.8126287 -0.5408321 1.2329077 17
-7.8061867 -0.5390172 0.95606494 20
-7.8149595 -0.53825253 0.68199366 18
-7.804172 -0.53614098 0.40795875 15
-7.7888017 -0.5337193 0.13560519 27
-1.9607908 -0.13264203 -0.51634425 2
-2.2449658 -0.15147208 -0.51063919 2
-2.6875625 -0.18086372 -0.51567525 3
-3.2902179 -0.22084351 -0.51623416 2
-4.2619195 -0.28531814 -0.5197733 2
-5.9672637 -0.39843783 -0.51988477 4
-7.8003669 -0.51946777 -0.40634042 23
-7.7949138 -0.51773816 -0.13433675 20
-7.6237316 -0.50503176 2.035579 10
-7.4859047 -0.49458921 1.7218224 6
-7.8107872 -0.51468486 1.5127099 24
-7.799685 -0.51258612 1.2305638 17
-7.8080211 -0.5117653 0.95606494 19
-7.81182 -0.51064497 0.68155789 18
-7.8059959 -0.50889611 0.40795875 16
-7.7906175 -0.50652802 0.13560519 27
-1.9660615 -0.12610593 -0.51763833 2
-2.2552049 -0.14425677 -0.51288873 2
-2.6881776 -0.17148128 -0.51567525 2
-3.2909687 -0.20935717 -0.51623416 2
-4.252984 -0.26981109 -0.51855469 2
-5.9636474 -0.37729129 -0.51944906 5
-7.7971497 -0.49192184 -0.40607962 17
-7.8016634 -0.4908396 -0.13442315 22
-7.8520064 -0.49263105 2.0963619 9
-7.8863134 -0.49340165 1.8139825 16
-7.8027382 -0.48680568 1.5108035 15
-7.8162141 -0.48627695 1.2329077 13
-7.8048062 -0.48419976 0.9554556 18
-7.8135548 -0.48337358 0.68155789 18
-7.8027415 -0.48133758 0.40769708 16
-7.7923374 -0.47933063 0.13560519 24
-1.9713104 -0.11953463 -0.5189324 2
-2.2702832 -0.1372658 -0.51626295 2
-2.6985583 -0.16268747 -0.51758158 2
-3.2867501 -0.19757193 -0.51545197 2
-4.2885766 -0.2570422 -0.52282006 1
-5.9649282 -0.35647199 -0.51944906 4
-7.7938342 -0.46440473 -0.40581879 16
-7.8582244 -0.46686512 -0.13537344 14
-8.0995693 -0.479785 2.1623178 9
-8.1311655 -0.48023257 1.8701777 12
-7.8925862 -0.46475956 1.5279608 6
-8.2517118 -0.48446169 1.301663 4
-7.8312201 -0.45840293 0.95850235 14
-7.9444804 -0.46364135 0.69288814 8
-7.8940988 -0.45931864 0.41240731 9
-8.2331581 -0.47760504 0.14328425 5
-1.9717157 -0.11265276 -0.5189324 2
-2.2804766 -0.12989432 -0.51851249 2
-2.7040105 -0.15354504 -0.51853484 2
-3.2874196 -0.18609785 -0.51545197 2
-4.2200794 -0.23815598 -0.5142892 2
-5.9611626 -0.33536854 -0.51901323 3
-7.9649105 -0.44670266 -0.41468632 5
-8.3589525 -0.46733859 -0.14401247 4
-8.3712473 -0.46656039 2.2347398 10
-8.3906136 -0.46617076 1.9297448 14
-8.4185457 -0.46624875 1.6299521 11
-8.5935965 -0.47443923 1.3555735 13
-8.2985649 -0.45669821 1.0157809 5
-8.4483728 -0.46346372 0.73690182 5
-8.3892393 -0.45875111 0.43831363 4
-8.5991793 -0.46872604 0.14965437 67
-1.9769197 -0.10602816 -0.52022654 2
-2.2809162 -0.12193318 -0.51851249 2
-2.7241352 -0.14514996 -0.52234757 2
-3.2831178 -0.17435957 -0.51466984 2
-4.2357531 -0.22421069 -0.51611727 1
-5.9622974 -0.31455815 -0.51901323 3
-8.4201746 -0.44275689 -0.43841994 12
-8.6900311 -0.45542583 -0.14971422 14
-8.628459 -0.45068893 2.3032823 9
-8.6549244 -0.45055661 1.9904356 13
-8.6946182 -0.45110133 1.6833305 11
-8.891119 -0.45974043 1.402452 12
-8.6024332 -0.44330767 1.052951 12
-8.7533798 -0.44955459 0.76348436 14
-8.7448378 -0.44758564 0.45689288 13
-8.8803558 -0.45296788 0.15454105 27
-1.9772776 -0.099126771 -0.52022654 2
-2.2764621 -0.11372747 -0.51738775 2
-2.6952121 -0.13417579 -0.51662844 2
-3.2837064 -0.16289829 -0.51466984 2
nan nan nan 0
-5.958384 -0.29349887 -0.51857746 3
-8.7059383 -0.42731515 -0.45328602 7
-9.0011501 -0.44023034 -0.15507039 14
-8.8615379 -0.4318518 2.3653584 15
-8.95329 -0.43475685 2.0589938 14
-9.009903 -0.43592966 1.7443346 11
-9.2083721 -0.44392136 1.452456 14
-8.9112635 -0.42803928 1.0907305 11
-9.0633621 -0.43375966 0.79050255 15
-9.0406094 -0.43108925 0.47233197 13
-9.1864929 -0.43643853 0.15986404 27
-1.9776118 -0.092224188 -0.52022654 2
-2.2719784 -0.10555433 -0.51626295 2
-2.6907609 -0.12453999 -0.51567525 2
-3.2793219 -0.15120755 -0.51388764 2
nan nan nan 0
-5.9543962 -0.27247074 -0.51814169 3
-9.0315981 -0.41170263 -0.4702386 8
-9.3322439 -0.42377537 -0.16077214 12
-8.8967657 -0.40244439 2.3744109 13
-9.2759829 -0.41797599 2.1331716 14
-9.3104763 -0.41790202 1.8024791 11
-9.5206852 -0.42567226 1.5016785 12
-9.2349615 -0.41128242 1.1303381 11
-9.3584099 -0.4151437 0.81621355 9
-9.3513317 -0.41319445 0.48855615 11
-9.537569 -0.41975555 0.16597238 24
-1.9779216 -0.085320465 -0.52022654 2
-2.2723331 -0.097622998 -0.51626295 2
-2.6617563 -0.11388781 -0.50995612 2
-3.2798295 -0.13975966 -0.51388764 2
nan nan nan 0
-5.9553108 -0.2516844 -0.51814169 3
-9.3273182 -0.39256188 -0.48562634 7
-9.688302 -0.40606084 -0.16690587 11
-8.8981161 -0.37138644 2.3744109 13
-9.5986633 -0.39894745 2.2073493 12
-9.6404533 -0.39899889 1.8663427 9
-9.8872576 -0.40748501 1.5594953 10
-9.5685644 -0.39267781 1.1711643 11
-9.7032032 -0.39650679 0.8462823 8
-9.6969585 -0.39455637 0.506612 10
-9.8786449 -0.40022197 0.17190619 21
-1.9830331 -0.078607008 -0.52152056 3
-2.27266 -0.089690484 -0.51626295 2
-2.6817555 -0.10536665 -0.51376885 2
-3.2852323 -0.12850308 -0.51466984 2
nan nan nan 0
-5.9511766 -0.23070201 -0.51770592 3
-9.6878738 -0.37386462 -0.5044046 5
-10.02936 -0.38528985 -0.17278039 10
-8.8993578 -0.34032395 2.3744109 13
-9.9846096 -0.38008031 2.2961378 13
-10.034169 -0.38021302 1.9425977 8
-10.283426 -0.38786051 1.6220003 11
-9.9170227 -0.37230757 1.2138187 11
-10.087795 -0.3769556 0.87983716 9
-10.077495 -0.37480941 0.52649969 9
-10.274652 -0.38034651 0.1787999 23
-1.9832954 -0.07168445 -0.52152056 3
-2.2729592 -0.081756867 -0.51626295 2
-2.6870122 -0.096180521 -0.51472205 2
-3.2856607 -0.11703471 -0.51466984 2
nan nan nan 0
-5.9519453 -0.20992711 -0.51770592 2
-10.09332 -0.35423097 -0.52553016 14
-10.415352 -0.36371282 -0.17943245 11
-8.9004917 -0.30925733 2.3744109 10
-10.278024 -0.35532516 2.3635719 16
-10.422962 -0.35851458 2.0178998 9
-10.704249 -0.36631951 1.6884116 10
-10.305131 -0.35086021 1.2613477 10
-10.4873 -0.35523 0.91469955 9
-10.487947 -0.35341939 0.54795742 10
-10.680628 -0.35804605 0.18586811 24
-1.9835335 -0.06476102 -0.52152056 3
-2.2781003 -0.073980406 -0.51738775 2
-2.6922374 -0.08695896 -0.51567525 2
-3.2860494 -0.1055649 -0.51466984 2
-4.274241 -0.13656397 -0.5203827 2
-5.952642 -0.18914966 -0.51770592 3
-10.149392 -0.3207314 -0.52839905 5
-10.806307 -0.33960262 -0.18617088 14
-8.9015169 -0.27818695 2.3744109 7
-10.28894 -0.31974867 2.3658199 13
-10.890216 -0.33653194 2.1084526 8
-11.199088 -0.34412032 1.7665426 9
-10.767612 -0.32898104 1.3180169 13
-10.906684 -0.33132476 0.95130497 17
-10.893378 -0.32901755 0.56915349 17
-10.931662 -0.32826418 0.19023122 42
-1.9885751 -0.05797755 -0.52281469 2
-2.2783446 -0.066027895 -0.51738775 2
-2.6974308 -0.077702105 -0.51662844 2
-3.2913342 -0.094235137 -0.51545197 2
-4.2498879 -0.12093742 -0.51733595 2
-5.9532661 -0.16836992 -0.51770592 2
-10.170415 -0.28586259 -0.52944225 4
-10.942354 -0.30564839 -0.18850341 6
-8.9024334 -0.24711315 2.3744109 10
-10.299734 -0.28410029 2.3680677 13
-11.401596 -0.31250179 2.2075841 7
-11.738328 -0.31968087 1.8517054 9
-10.942327 -0.29609144 1.339344 8
-11.316067 -0.30422807 0.98703879 3
-10.949366 -0.29245704 0.57203197 2
nan nan nan 0
-1.9887742 -0.050688673 -0.52281469 2
-2.2785714 -0.0576769 -0.51738775 2
-2.6976976 -0.067815006 -0.51662844 3
-3.2916574 -0.082171164 -0.51545197 3
-4.2602253 -0.10560596 -0.51855469 2
-5.9538431 -0.14654899 -0.51770592 2
-10.21632 -0.2496822 -0.53178954 5
nan nan nan 0
-8.9032803 -0.21448243 2.3744109 11
-10.290965 -0.246115 2.3658199 12
-11.88845 -0.28224376 2.3019497 8
-12.247952 -0.28863987 1.9321804 8
-11.598239 -0.27130309 1.4197778 2
-11.994336 -0.27847394 1.0463047 3
-11.883834 -0.27383316 0.62096608 2
-12.298166 -0.28123283 0.21405375 51
-1.9937674 -0.043852445 -0.52410877 2
-2.2787588 -0.049722854 -0.51738775 2
-2.6979177 -0.058397867 -0.51662844 2
-3.2968614 -0.07078664 -0.51623416 4
-4.2704911 -0.090945676 -0.5197733 2
-5.9543185 -0.12576529 -0.51770592 2
-10.222121 -0.21412365 -0.53205037 6
-12.428719 -0.25817522 -0.21416129 27
-8.9088039 -0.18350236 2.3757043 13
-10.286891 -0.21009186 2.364696 6
nan nan nan 0
-12.806832 -0.25708503 2.0204685 7
-12.402919 -0.24681126 1.518492 17
-12.498215 -0.24652539 1.0903183 13
nan nan nan 0
-12.479012 -0.24178228 0.21719518 34
-1.9939084 -0.03689263 -0.52410877 2
-2.2740471 -0.041678917 -0.51626295 2
-2.6882901 -0.048801843 -0.51472205 2
-3.2970884 -0.059278019 -0.51623416 3
nan nan nan 0
-5.9497404 -0.10489227 -0.51727015 2
-10.207829 -0.17817904 -0.53126794 6
-12.61449 -0.21798529 -0.21735774 2
-8.9093895 -0.15240371 2.3757043 12
-10.287561 -0.17418261 2.364696 12
-12.19931 -0.20442139 2.3620005 10
-13.380447 -0.22187749 2.1111004 8
-12.795708 -0.20994733 1.5666304 6
nan nan nan 0
nan nan nan 0
-13.384528 -0.21259852 0.23298961 22
-1.9891959 -0.029859878 -0.52281469 2
-2.2693079 -0.033668485 -0.51513821 2
-2.6835363 -0.039345704 -0.51376885 2
-3.2972753 -0.047768667 -0.51623416 3
nan nan nan 0
-5.9500704 -0.084123157 -0.51727015 2
-10.208389 -0.14254597 -0.53126794 5
-13.579937 -0.18725437 -0.23403105 4
-8.9098673 -0.12130321 2.3757043 13
-10.283235 -0.1382058 2.3635719 12
-12.190134 -0.1617064 2.3600943 10
-14.141618 -0.18512489 2.2314224 7
-13.441465 -0.17361298 1.6458454 9
-13.909132 -0.17722547 1.2136437 5
-13.713397 -0.17233767 0.71674091 3
-14.115023 -0.17492101 0.24572988 52
-1.9844588 -0.022860473 -0.52152056 2
-2.2645397 -0.025691647 -0.51401347 2
-2.6836574 -0.029978175 -0.51376885 2
-3.2875459 -0.036150139 -0.51466984 3
nan nan nan 0
-5.9453468 -0.063299999 -0.51683432 2
-10.203831 -0.10685889 -0.53100711 5
-14.395343 -0.14824148 -0.24811265 12
-8.9102364 -0.090201229 2.3757043 14
-10.283655 -0.10230976 2.3635719 12
-12.190625 -0.11915391 2.3600943 5
-14.813792 -0.14220759 2.3376806 8
-14.19629 -0.13380185 1.738466 9
-14.646819 -0.13549156 1.278139 10
-14.477837 -0.1314013 0.75677794 6
-14.895396 -0.13259113 0.25934273 49
-1.9845264 -0.015933281 -0.52152056 2
-2.274359 -0.0178633 -0.51626295 2
-2.6739292 -0.020534893 -0.51186246 2
-3.2777753 -0.024600118 -0.51310545 2
nan nan nan 0
-5.9405508 -0.042510834 -0.51639855 2
-10.204142 -0.071240224 -0.53100711 3
-15.245626 -0.10377637 -0.26279899 11
-8.9104977 -0.059098147 2.3757043 15
-10.279078 -0.06638103 2.3624482 12
-12.195874 -0.076630794 2.3610473 9
nan nan nan 0
-14.990694 -0.088958658 1.8359616 10
-15.439165 -0.088925272 1.3474278 8
-15.421896 -0.086134091 0.80623537 8
-15.795617 -0.085464463 0.2750499 47
-1.98457 -0.009005894 -0.52152056 2
-2.2744074 -0.0099241976 -0.51626295 2
-2.6739848 -0.011201014 -0.51186246 2
-3.2679644 -0.013118749 -0.51154113 2
nan nan nan 0
-5.9356823 -0.021755926 -0.51596278 2
-10.194343 -0.035585828 -0.53048551 3
-16.25074 -0.053890832 -0.28016341 14
-8.9106493 -0.027994348 2.3757043 16
-10.279246 -0.03049995 2.3624482 12
-12.186252 -0.034031376 2.3591411 9
-14.883565 -0.038966216 2.348619 8
-16.067822 -0.039262298 1.9681898 10
-16.355877 -0.037111521 1.427611 20
-16.270935 -0.034078959 0.85072088 13
-16.450718 -0.031584304 0.28648123 32
-1.9845893 -0.0020783972 -0.52152056 2
-2.2841723 -0.0019934771 -0.51851249 2
-2.6789157 -0.0018704244 -0.51281571 2
-3.2729285 -0.0017139313 -0.51232326 2
nan nan nan 0
-5.9357224 -0.0010363958 -0.51596278 2
-10.189411 -7.1550113e-07 -0.53022474 3
-16.805748 0.002931976 -0.28975272 3
-8.9058619 0.003108107 2.3744109 16
-10.274419 0.0053789513 2.3613243 13
-12.181387 0.0085033588 2.3581879 9
-14.863854 0.01297012 2.3454936 6
-16.951225 0.017750097 2.0766535 5
nan nan nan 0
-17.389421 0.024279008 0.90933722 2
-18.120472 0.028462322 0.31562674 31
-1.9845846 0.0048491252 -0.52152056 2
-2.2841654 0.0059797834 -0.51851249 2
-2.6838145 0.0074944543 -0.51376885 2
-3.2827914 0.009740036 -0.51388764 2
nan nan nan 0
-5.9307089 0.019666631 -0.51552701 2
-10.179363 0.035532109 -0.52970308 3
-18.580357 0.068099566 -0.32042125 7
-8.905797 0.034195349 2.3744109 12
-10.274337 0.041243333 2.3613243 13
-12.176374 0.051003721 2.3572347 9
-14.868657 0.064876124 2.3462749 7
-18.057737 0.081942707 2.2125378 8
-18.168791 0.085617773 1.5862345 12
-18.138195 0.088639364 0.94858921 12
-19.300068 0.097685903 0.33622059 41
-1.9845556 0.011776588 -0.52152056 2
-2.2695153 0.013863691 -0.51513821 2
-2.6886802 0.016893508 -0.51472205 2
-3.2876759 0.021230949 -0.51466984 2
nan nan nan 0
-5.930604 0.04036855 -0.51552701 2
-10.16919 0.070994779 -0.52918148 2
-19.799791 0.14168537 -0.34150046 6
-8.900795 0.065246776 2.3731179 12
-10.274131 0.077107206 2.3613243 13
-12.171214 0.093469195 2.3562815 9
-14.858465 0.11669946 2.3447125 8
nan nan nan 0
-20.076031 0.16468692 1.7531378 5
-19.680601 0.16487829 1.0294483 6
-20.794327 0.17783831 0.36231196 35
-1.9845023 0.018703908 -0.52152056 2
-2.2499664 0.021598633 -0.51063919 2
-2.698421 0.026374593 -0.51662844 3
-3.29252 0.032756075 -0.51545197 2
nan nan nan 0
-5.9254465 0.061018683 -0.51509124 2
-10.153902 0.10633459 -0.52839905 2
-21.343859 0.22724466 -0.36819503 5
-8.9005136 0.09631595 2.3731179 12
-10.273799 0.11297014 2.3613243 12
-12.175721 0.13600892 2.3572347 9
-14.857966 0.16856448 2.3447125 7
-19.257627 0.22184041 2.3599997 10
-21.639252 0.25305307 1.8899723 4
-21.492289 0.25508609 1.1244379 3
-22.363226 0.26932669 0.38971221 30
-1.9892542 0.025693374 -0.52281469 3
-2.2742343 0.029771198 -0.51626295 2
-2.6934044 0.035728578 -0.51567525 3
-3.2923856 0.044248916 -0.51545197 2
nan nan nan 0
-5.9251971 0.081701972 -0.51509124 2
-10.143484 0.14163825 -0.52787745 3
-23.072504 0.32619995 -0.39808601 5
-8.9001226 0.12738395 2.3731179 12
-10.278214 0.14890228 2.3624482 13
-12.175173 0.17850929 2.3572347 9
-14.857288 0.22042744 2.3447125 7
-19.246811 0.28891173 2.3587811 7
-23.550713 0.35762841 2.0573113 3
-23.318544 0.35817364 1.2202127 3
nan nan nan 0
-1.9939812 0.032716241 -0.52410877 3
-2.235147 0.037063379 -0.50726491 2
-2.6932633 0.045130096 -0.51567525 3
-3.2872734 0.055657618 -0.51466984 2
nan nan nan 0
-5.9198956 0.10229822 -0.51465541 2
-10.147921 0.17713189 -0.52813822 3
-24.470798 0.43140996 -0.42227527 4
-8.8996239 0.15845041 2.3731179 12
-10.277631 0.18477903 2.3624482 13
-12.174476 0.22100748 2.3572347 10
-14.861364 0.27237818 2.3454936 6
-19.260572 0.35636929 2.3606091 10
-25.536379 0.47694612 2.2311869 3
-25.478804 0.4803192 1.3335202 4
-26.909286 0.51198453 0.46912065 70
-1.9938549 0.039676331 -0.52410877 3
-2.2447457 0.045060828 -0.50951445 2
-2.6881821 0.054431695 -0.51472205 3
-3.2870591 0.067132004 -0.51466984 2
nan nan nan 0
-5.9195023 0.12296188 -0.51465541 3
-10.152232 0.21265823 -0.52839905 2
-24.34919 0.51429272 -0.42020193 51
-8.9038439 0.18961774 2.3744109 12
-10.281794 0.22075811 2.3635719 12
-12.178537 0.2636092 2.3581879 9
-14.865261 0.32436007 2.3462749 6
-19.249287 0.42338079 2.3593903 10
-26.500631 0.5874989 2.3157282 3
-27.962938 0.62480003 1.4638367 24
-27.931919 0.62898439 0.48700938 86
-1.9792196 0.046297126 -0.52022654 2
nan nan nan 0
nan nan nan 0
-3.2818675 0.078487493 -0.51388764 2
nan nan nan 0
-5.9090781 0.1433824 -0.51378393 4
nan nan nan 0
-24.372234 0.59989917 -0.42063388 43
-8.9031277 0.22069678 2.3744109 12
-10.285831 0.25676852 2.364696 12
-12.187357 0.30636531 2.3600943 9
-14.873913 0.37649751 2.3478374 6
-19.247692 0.49057081 2.3593903 11
-26.503399 0.68012756 2.3161638 3
-27.945612 0.72201812 1.4630517 19
-27.899567 0.72570121 0.48648581 29
-1.9790459 0.053205606 -0.52022654 2
-2.2735968 0.06152156 -0.51626295 2
-2.7122688 0.073865376 -0.51948798 2
-3.2815735 0.089942873 -0.51388764 2
nan nan nan 0
-5.9284577 0.16456088 -0.51552701 2
nan nan nan 0
nan nan nan 0
-8.9023027 0.25177315 2.3744109 11
-10.289742 0.29280978 2.3658199 12
-12.191119 0.34904572 2.3610473 9
-14.877444 0.42855704 2.348619 6
-19.240902 0.55761099 2.3587811 10
-26.396307 0.76958919 2.3070126 3
nan nan nan 0
nan nan nan 0
nan nan nan 0
nan nan nan 0
nan nan nan 0
-3.2713673 0.10109208 -0.51232326 2
nan nan nan 0
-5.9178901 0.18494289 -0.51465541 2
-10.139467 0.31864485 -0.52787745 2
nan nan nan 0
-8.90137 0.28284645 2.3744109 11
-10.293528 0.3288815 2.3669438 11
-12.199638 0.39191374 2.3629537 9
-14.88573 0.48080531 2.3501816 7
-19.238836 0.62477088 2.3587811 10
-26.433287 0.86302519 2.3104987 3
nan nan nan 0
-41.594276 1.3725538 0.72575825 13
nan nan nan 0
nan nan nan 0
nan nan nan 0
-3.2660592 0.1123409 -0.51154113 2
nan nan nan 0
-5.9072528 0.20525314 -0.51378393 3
nan nan nan 0
nan nan nan 0
-8.9003286 0.3139163 2.3744109 7
-10.297186 0.36498317 2.3680677 11
-12.208006 0.43484548 2.3648601 9
-14.888895 0.53293991 2.3509629 6
-19.23654 0.6919232 2.3587811 10
nan nan nan 0
nan nan nan 0
-41.624199 1.5190127 0.72636908 25
nan nan nan 0
nan nan nan 0
-2.6573937 0.10022867 -0.50900286 3
-3.2557776 0.12336692 -0.5099768 2
nan nan nan 0
nan nan nan 0
-10.127016 0.38903999 -0.52735579 2
nan nan nan 0
-8.8991785 0.34498236 2.3744109 9
-10.325058 0.40206227 2.3748112 4
-12.216223 0.47784045 2.3667667 7
-14.891879 0.58510244 2.3517439 6
-19.238966 0.75926274 2.3593903 9
-26.446524 1.0483309 2.3122418 3
nan nan nan 0
-41.568691 1.6623015 0.72549653 5
-1.9829355 0.0810294 -0.52152056 3
nan nan nan 0
-2.6864526 0.11071679 -0.51472205 3
-3.2454584 0.13432251 -0.50841242 2
nan nan nan 0
nan nan nan 0
nan nan nan 0
nan nan nan 0
-8.8979197 0.37604418 2.3744109 11
-10.343063 0.43892735 2.3793068 6
-12.209577 0.52027112 2.3658133 8
-14.899614 0.63750345 2.3533068 7
-19.236198 0.82641459 2.3593903 9
-26.49247 1.1427867 2.3165996 3
nan nan nan 0
nan nan nan 0
-1.9681509 0.087652057 -0.51763833 3
nan nan nan 0
-2.6615119 0.11946195 -0.50995612 3
-3.2548113 0.14666142 -0.5099768 3
nan nan nan 0
nan nan nan 0
nan nan nan 0
nan nan nan 0
-8.8964825 0.40865415 2.3744109 12
-10.375454 0.47840449 2.3871741 6
-12.197782 0.56456411 2.3639069 8
-14.897178 0.69210899 2.3533068 7
-19.237999 0.89714444 2.3599997 6
-26.478151 1.239413 2.3157282 3
nan nan nan 0
nan nan nan 0
-1.9388883 0.093131348 -0.50987375 3
nan nan nan 0
-2.6855915 0.12993765 -0.51472205 2
-3.2690771 0.15874049 -0.51232326 2
nan nan nan 0
-5.9137106 0.28922829 -0.51465541 2
-10.032531 0.49242711 -0.52266121 3
nan nan nan 0
-8.8950014 0.43970618 2.3744109 11
-10.373721 0.51461864 2.3871741 6
-12.190835 0.60689485 2.3629537 8
-14.89467 0.74410564 2.3533068 6
-19.234749 0.96429211 2.3599997 9
-26.56321 1.3363363 2.3235722 3
nan nan nan 0
-41.86319 2.1207013 0.73099399 7
-1.9578444 0.10089298 -0.51505011 3
nan nan nan 0
-2.6361043 0.13676816 -0.50519013 2
-3.2832987 0.17092094 -0.51466984 2
nan nan nan 0
nan nan nan 0
-10.105545 0.53137708 -0.52657336 2
nan nan nan 0
-8.8934126 0.47075287 2.3744109 11
-10.36213 0.55030978 2.3849263 6
-12.183741 0.64918393 2.3620005 8
-14.891983 0.79609323 2.3533068 7
-19.231266 1.0314281 2.3599997 9
-26.518589 1.4269098 2.3200858 3
nan nan nan 0
-41.905449 2.269515 0.7318666 12
nan nan nan 0
nan nan nan 0
nan nan nan 0
-3.2974744 0.18320259 -0.51701629 2
nan nan nan 0
-5.921494 0.3310625 -0.51552701 2
-10.078703 0.56525081 -0.52526933 2
nan nan nan 0
-8.8868942 0.50152171 2.3731179 11
-10.360147 0.58647698 2.3849263 6
-12.176499 0.69143087 2.3610473 9
-14.889113 0.84807104 2.3533068 6
-19.227549 1.0985514 2.3599997 9
-26.538313 1.5208933 2.3222647 3
nan nan nan 0
-41.957161 2.4192319 0.73291373 13
nan nan nan 0
nan nan nan 0
nan nan nan 0
-3.3116047 0.19558531 -0.51936287 2
nan nan nan 0
-5.9153299 0.35143492 -0.51509124 2
nan nan nan 0
-34.501541 2.0618527 -0.59661067 4
-8.8850899 0.53253973 2.3731179 11
-10.353172 0.62234473 2.3838024 6
-12.174012 0.73393059 2.3610473 8
-14.886062 0.90003866 2.3533068 7
-19.218643 1.165361 2.3593903 10
-26.503012 1.6117059 2.3196502 3
nan nan nan 0
-41.978401 2.5675061 0.7334373 10
-1.975962 0.12258577 -0.52022654 2
-2.2408655 0.13941261 -0.50951445 2
nan nan nan 0
-3.2813289 0.20529357 -0.51466984 2
nan nan nan 0
nan nan nan 0
-10.054579 0.63434154 -0.52422613 2
-34.489143 2.1819572 -0.5965243 3
-8.8831758 0.56355125 2.3731179 11
-10.350937 0.65848023 2.3838024 6
-12.171375 0.77642131 2.3610473 9
-14.88283 0.95199519 2.3533068 6
-19.214458 1.2324394 2.3593903 9
nan nan nan 0
nan nan nan 0
-44.179234 2.8569396 0.77209437 11
-1.9658835 0.12885067 -0.51763833 2
-2.2695334 0.14915073 -0.51626295 2
-2.6388357 0.17388335 -0.50614333 2
-3.2756643 0.2164207 -0.51388764 2
nan nan nan 0
nan nan nan 0
-10.166892 0.67706579 -0.53022474 2
nan nan nan 0
-8.881155 0.59455585 2.3731179 11
-10.348576 0.69460773 2.3838024 6
-12.168591 0.81890261 2.3610473 9
-14.884343 1.0042726 2.3540881 6
-19.210039 1.2995028 2.3593903 10
-26.496082 1.7970281 2.3200858 4
nan nan nan 0
-44.109142 3.0070562 0.77104729 6
nan nan nan 0
-2.2592785 0.15639907 -0.51401347 2
-2.6920745 0.18683158 -0.51662844 2
-3.2650359 0.22716807 -0.51232326 2
nan nan nan 0
nan nan nan 0
-10.104694 0.70836061 -0.52709496 2
-34.488033 2.4237337 -0.59678352 3
-8.8790255 0.62555331 2.3731179 11
-10.346087 0.73072678 2.3838024 6
-12.165659 0.86137396 2.3610473 9
-14.885674 1.0565722 2.3548694 8
-19.205385 1.3665506 2.3593903 9
-26.494617 1.8898602 2.3205216 3
nan nan nan 0
-44.1632 3.1656544 0.77218169 6
nan nan nan 0
nan nan nan 0
nan nan nan 0
-3.2642229 0.23856376 -0.51232326 3
nan nan nan 0
nan nan nan 0
-10.047384 0.73959613 -0.52422613 3
-34.489334 2.5448399 -0.59695625 3
-8.8767881 0.65654302 2.3731179 11
-10.343474 0.76683688 2.3838024 6
-12.167473 0.90419859 2.3620005 9
-14.88682 1.1088933 2.3556507 7
-19.200499 1.4335816 2.3593903 9
-26.522631 1.9849343 2.3235722 3
nan nan nan 0
nan nan nan 0
nan nan nan 0
-2.2824206 0.17401975 -0.51963723 2
nan nan nan 0
-3.2682946 0.25033376 -0.51310545 2
nan nan nan 0
nan nan nan 0
-10.074612 0.77696717 -0.52579093 2
-34.495193 2.6663706 -0.59721541 3
-8.8792562 0.6878978 2.3744109 10
-10.340734 0.80293769 2.3838024 6
-12.169136 0.94704628 2.3629537 10
-14.882858 1.1608514 2.3556507 7
-19.195377 1.5005951 2.3593903 7
-26.490711 2.0755582 2.3213933 4
nan nan nan 0
-43.566883 3.4287848 0.76214653 12
-1.9590783 0.155903 -0.51634425 2
-2.2575169 0.18004917 -0.51401347 2
-2.6899705 0.21501215 -0.51662844 2
-3.2674007 0.26174068 -0.51310545 2
nan nan nan 0
-5.8818479 0.47324181 -0.51291233 2
-10.071838 0.81212944 -0.52579093 2
-29.701986 2.4001982 -0.51428086 2
-8.8768005 0.71888793 2.3744109 11
-10.342725 0.83942288 2.3849263 6
-12.170648 0.9899165 2.3639069 9
-14.883638 1.2131964 2.356432 5
-19.190022 1.5675902 2.3593903 9
-26.498198 2.1692345 2.3227005 4
nan nan nan 0
-38.54731 3.1691628 0.67444825 2
-1.9585223 0.16274051 -0.51634425 2
-2.2228897 0.18509838 -0.50614017 2
nan nan nan 0
-3.2664671 0.27314445 -0.51310545 2
nan nan nan 0
-5.8801599 0.49377039 -0.51291233 2
-10.073917 0.84770042 -0.52605176 2
-29.70837 2.5051229 -0.51454002 22
-8.8742371 0.74986941 2.3744109 11
-10.339731 0.87552059 2.3849263 6
-12.172009 1.032809 2.3648601 9
-14.879313 1.2651426 2.356432 8
-19.184433 1.6345664 2.3593903 9
-26.490465 2.2617173 2.3227005 4
nan nan nan 0
-35.567352 3.0491953 0.62244004 9
-1.9675654 0.17040949 -0.5189324 2
-2.2562048 0.19580509 -0.51401347 2
-2.6786239 0.23293586 -0.51472205 2
-3.2654939 0.28454489 -0.51310545 2
nan nan nan 0
-5.8833632 0.51472718 -0.5133481 2
-10.070897 0.88285977 -0.52605176 2
-29.569963 2.5974357 -0.51229388 13
-8.8715658 0.78084165 2.3744109 11
-10.341466 0.91203564 2.3860502 7
-12.178108 1.0761552 2.3667667 8
-14.879725 1.3175088 2.3572133 8
-19.183556 1.7019612 2.3599997 10
-26.487368 2.3546135 2.3231363 4
-33.748192 3.0060062 1.7736655 11
-33.624466 3.0009015 0.58858234 12
-1.9717689 0.17771007 -0.52022654 2
-2.2506557 0.20324138 -0.51288873 2
-2.682683 0.24272688 -0.51567525 2
-3.2644808 0.29594186 -0.51310545 2
nan nan nan 0
-5.8914518 0.53616369 -0.5142197 2
-10.072727 0.91846186 -0.52631259 2
-27.823212 2.5419016 -0.48214367 12
-8.8687859 0.81180453 2.3744109 11
-10.347922 0.94901842 2.388298 7
-12.174277 1.1186582 2.3667667 6
-14.875035 1.3694408 2.3572133 8
-19.177498 1.7689139 2.3599997 9
-26.488907 2.447974 2.3240077 3
-27.860731 2.5796554 1.46436 12
-27.834486 2.5821254 0.48727116 82
-1.9711366 0.18459174 -0.52022654 2
-2.2499325 0.21109639 -0.51288873 2
-2.6427255 0.24841487 -0.50804973 2
-3.2634277 0.30733523 -0.51310545 2
nan nan nan 0
-5.8796263 0.55578786 -0.5133481 3
-10.0794 0.95455807 -0.52683419 2
-27.819147 2.6394794 -0.4822301 38
-8.8707066 0.84321445 2.3757043 11
-10.329996 0.98374802 2.3849263 6
-12.165413 1.1606812 2.3658133 9
-14.87508 1.4218259 2.3579946 8
-19.176146 1.8363183 2.3606091 10
-26.475243 2.5399473 2.3235722 4
-27.831676 2.6749811 1.4633132 8
-27.815351 2.6783116 0.48709664 69
-1.9656731 0.19100405 -0.5189324 2
-2.249182 0.21894886 -0.51288873 2
-2.6711528 0.26049665 -0.51376885 2
-3.2623353 0.31872484 -0.51310545 2
-4.2709022 0.41801277 -0.52221072 2
-5.8776503 0.57630819 -0.5133481 2
-10.085945 0.99071217 -0.52735579 2
-27.789865 2.7346122 -0.48188451 32
-8.8677101 0.87417382 2.3757043 11
-10.311954 1.018364 2.3815544 11
-12.156402 1.2026561 2.3648601 9
-14.870027 1.4737409 2.3579946 8
-19.174559 1.9037346 2.3612185 9
-26.46126 2.6318543 2.3231363 4
-27.767513 2.7666698 1.4604348 4
-27.810804 2.7758853 0.4871839 72
-1.9649943 0.19786438 -0.5189324 2
-2.248404 0.22679864 -0.51288873 2
-2.6604602 0.26883221 -0.51186246 2
-3.256289 0.32961321 -0.51232326 2
-4.2496676 0.43091583 -0.5197733 2
-5.8756032 0.59682155 -0.5133481 2
-10.052622 1.02288 -0.52579093 2
-27.790096 2.8326139 -0.4820573 32
-8.8694086 0.90561324 2.3769975 13
-10.293797 1.0528661 2.3781829 20
-12.147247 1.2445823 2.3639069 9
-14.869703 1.5261421 2.3587759 8
-19.172733 1.9711622 2.3618276 10
nan nan nan 0
-27.792456 2.8671665 1.4622666 4
-27.771112 2.8698633 0.48666033 35
-1.9642917 0.20472229 -0.5189324 2
-2.252444 0.23515147 -0.51401347 2
-2.6643875 0.27862781 -0.51281571 2
-3.2600305 0.34149227 -0.51310545 2
-4.2728157 0.44833675 -0.52282006 1
-5.8734841 0.61732757 -0.5133481 2
-10.044024 1.0574411 -0.52553016 2
-22.743723 2.3984869 -0.39454404 2
-8.8709965 0.93707508 2.3782909 4
-10.280368 1.0877663 2.3759351 14
-12.137948 1.2864592 2.3629537 9
-14.869197 1.5785593 2.3595572 8
-19.175604 2.039125 2.3630464 10
-23.173288 2.4683273 2.0355225 3
-22.87689 2.4407945 1.203727 3
-22.675659 2.4233272 0.39739126 44
-1.96833 0.21243866 -0.52022654 2
-2.2564108 0.24392916 -0.51513821 2
-2.6633482 0.28839141 -0.51281571 2
-3.2587571 0.35343859 -0.51310545 3
-4.2810111 0.46506631 -0.52403873 2
-5.871182 0.63885087 -0.5133481 2
-10.030152 1.093165 -0.5250085 2
-22.173199 2.420526 -0.38478193 6
-8.8675032 0.96958268 2.3782909 22
-10.261783 1.1238472 2.3725631 14
-12.128272 1.3304032 2.3620005 9
-14.87313 1.6341257 2.3611197 8
-19.163069 2.1088507 2.3624372 8
-21.723349 2.3944409 1.9087107 5
-21.92482 2.420521 1.1540078 3
-21.205753 2.3448818 0.37173623 34
-1.9675765 0.21930812 -0.52022654 2
-2.2603872 0.25234452 -0.51626295 2
-2.6623254 0.29768646 -0.51281571 2
-3.2575033 0.36481163 -0.51310545 3
nan nan nan 0
-5.868916 0.65934122 -0.5133481 2
-10.021313 1.1276119 -0.52474767 2
-20.79847 2.3439484 -0.36102465 6
-8.8688641 1.0010719 2.3795841 16
-10.248116 1.1585662 2.3703156 15
-12.123555 1.3727306 2.3620005 9
-14.872243 1.6865892 2.361901 8
-19.190107 2.1796498 2.3667026 9
-20.541933 2.3368244 1.8054312 4
-20.760313 2.3653374 1.0930364 5
-19.975557 2.2794642 0.35026976 39
-1.971597 0.22672665 -0.52152056 2
-2.254653 0.2596758 -0.51513821 2
-2.666146 0.30754033 -0.51376885 2
-3.2562101 0.3761802 -0.51310545 3
nan nan nan 0
-5.8665786 0.67982352 -0.5133481 2
-10.012356 1.1620103 -0.5244869 2
-19.643055 2.283201 -0.34106851 7
-8.8605175 1.0314653 2.3782909 13
-10.234329 1.1932032 2.3680677 15
-12.118689 1.4150413 2.3620005 9
-14.871169 1.7390664 2.3626826 8
-19.177454 2.2460454 2.3660932 9
-19.361197 2.2709908 1.7021515 6
-19.482414 2.2886562 1.0260464 4
-18.969513 2.231761 0.33273008 42
-1.9659976 0.23303895 -0.52022654 3
-2.2537327 0.26754445 -0.51513821 2
-2.6601822 0.31626558 -0.51281571 2
-3.2548771 0.38754421 -0.51310545 3
nan nan nan 0
-5.8641701 0.70029753 -0.5133481 2
-10.003283 1.1963601 -0.52422613 2
-18.607464 2.2286863 -0.32318574 9
-8.852067 1.0618128 2.3769975 12
-10.225266 1.2283394 2.3669438 11
-12.118549 1.4579211 2.3629537 10
-14.865009 1.7909658 2.3626826 8
-18.711285 2.2576861 2.3094239 8
-18.359207 2.2184556 1.6145601 5
-18.463081 2.234277 0.9726637 4
-18.023613 2.1842875 0.31623757 41
-1.9651721 0.23990013 -0.52022654 2
-2.2479491 0.27481857 -0.51401347 2
-2.6590621 0.32554942 -0.51281571 3
-3.2584062 0.39950448 -0.51388764 3
nan nan nan 0
-5.8567452 0.72015512 -0.51291233 2
-9.9940901 1.2306604 -0.5239653 3
-17.726316 2.1859386 -0.30798104 4
-8.8483067 1.0927058 2.3769975 12
-10.220916 1.2640247 2.3669438 12
-12.118257 1.5008171 2.3639069 10
-14.858666 1.8428434 2.3626826 5
-17.757713 2.2055442 2.1924293 9
-17.590147 2.1878498 1.5474502 2
-17.523659 2.1826859 0.92346793 2
nan nan nan 0
-1.9595306 0.24615641 -0.5189324 3
-2.2469761 0.2826637 -0.51401347 2
-2.6579096 0.3348293 -0.51281571 3
-3.2618916 0.41149414 -0.51466984 3
nan nan nan 0
-5.8541961 0.74059457 -0.51291233 2
-9.979825 1.2642837 -0.5234437 3
-16.349756 2.074151 -0.28413737 5
-8.8396482 1.1229768 2.3757043 12
-10.216441 1.2996948 2.3669438 11
-12.117813 1.5437289 2.3648601 9
-14.886436 1.8990734 2.3681517 8
-16.977037 2.1687844 2.0967619 8
-16.376871 2.0950193 1.4411203 6
-16.352053 2.0947452 0.86197317 2
-16.252583 2.0848858 0.28534684 51
-1.9538697 0.25237629 -0.51763833 3
-2.2459757 0.29050541 -0.51401347 2
-2.6567247 0.34410509 -0.51281571 3
-3.2604353 0.42287773 -0.51466984 3
nan nan nan 0
-5.8466358 0.76038259 -0.51247656 2
-9.9753513 1.2991121 -0.5234437 3
-16.173868 2.1092296 -0.28120008 16
-8.8356743 1.1538261 2.3757043 13
-10.211842 1.3353488 2.3669438 11
-12.122086 1.587293 2.3667667 9
-14.904199 1.9542354 2.3720582 8
-16.187004 2.1253102 1.9998759 11
-15.905241 2.0911396 1.4001571 8
-15.928805 2.0970659 0.83999205 7
-15.576096 2.0533965 0.27356645 52
-1.9529767 0.25919503 -0.51763833 3
-2.2449479 0.29834357 -0.51401347 2
-2.6555071 0.35337672 -0.51281571 3
-3.2638345 0.43490845 -0.51545197 3
nan nan nan 0
-5.8390093 0.78012699 -0.51204079 2
-9.9707556 1.3339247 -0.5234437 3
-15.329013 2.0534954 -0.26660013 8
-8.8315926 1.1846614 2.3757043 12
-10.207119 1.3709867 2.3669438 12
-12.1262 1.630906 2.3686731 9
-14.794504 1.9924068 2.3556507 7
-15.431919 2.080991 1.9072552 11
-15.191971 2.0513341 1.3378407 7
-15.258339 2.0630074 0.80492699 8
-14.914899 2.0192232 0.26204786 56
-1.9520601 0.26601058 -0.51763833 2
-2.2390661 0.30551943 -0.51288873 2
-2.6493943 0.36197957 -0.51186246 3
-3.2622964 0.44629875 -0.51545197 3
nan nan nan 0
-5.8313155 0.79982728 -0.51160502 2
-9.9660387 1.3687209 -0.5234437 3
-14.682861 2.0191336 -0.25545582 9
-8.827404 1.2154821 2.3757043 12
-10.207096 1.4072732 2.3680677 11
-12.135018 1.6752379 2.3715324 9
-14.210196 1.9642435 2.2634561 7
-14.790414 2.0470765 1.8286495 14
-14.582792 2.0209346 1.2846756 10
-14.632824 2.0304711 0.77221704 10
-14.303657 1.9873399 0.2514019 55
-1.9511198 0.27282295 -0.51763833 2
-2.2428105 0.31400883 -0.51401347 2
-2.6481147 0.37122548 -0.51186246 3
-3.2656093 0.45837 -0.51623416 3
nan nan nan 0
-5.8334208 0.82087159 -0.51204079 2
-9.9611998 1.4035007 -0.5234437 3
-14.071795 1.9851749 -0.2449162 11
-8.8231068 1.2462881 2.3757043 12
-10.206946 1.4435763 2.3691916 12
-12.114518 1.7155224 2.3686731 5
-13.684948 1.9403455 2.1806371 9
-14.208302 2.0170798 1.7573559 17
-14.003606 1.9905137 1.2341254 11
-14.022561 1.9957049 0.74029207 9
-13.633433 1.9427515 0.23970878 69
-1.9501555 0.27963197 -0.51763833 2
-2.2417006 0.32183582 -0.51401347 2
-2.6419444 0.37976846 -0.51090926 3
-3.2591012 0.46906281 -0.51545197 4
-4.2130532 0.6071099 -0.51794529 2
-5.8305197 0.84122908 -0.51204079 2
-9.9562397 1.4382631 -0.5234437 3
-13.411674 1.9398193 -0.2335127 31
-8.8187027 1.2770789 2.3757043 12
-10.201845 1.4791964 2.3691916 11
-12.186174 1.7690818 2.383924 17
-13.199144 1.9184883 2.1040688 10
-13.621676 1.9823309 1.6854529 13
-13.405101 1.9532024 1.1818318 22
-13.417666 1.9574249 0.70862883 19
-13.339658 1.9484224 0.23464759 54
-1.9539458 0.28713974 -0.5189324 2
-2.2405636 0.32965884 -0.51401347 2
-2.6406026 0.38898829 -0.51090926 2
-3.2574439 0.48043633 -0.51545197 3
-4.2059989 0.62108749 -0.51733595 2
-5.8324747 0.86230469 -0.51247656 2
-9.9462194 1.4722769 -0.52318287 3
-13.083381 1.938985 -0.22789733 6
-8.8141918 1.3078542 2.3757043 12
-10.206259 1.5162305 2.3714395 11
-12.150794 1.807276 2.3782048 13
-12.718549 1.8939912 2.0282817 8
-13.138552 1.9588802 1.6263462 14
-13.053354 1.9485068 1.1513274 3
-12.986058 1.9407784 0.68612438 4
-12.472485 1.86625 0.219464 41
-1.9529315 0.29395854 -0.5189324 2
-2.2393992 0.33747786 -0.51401347 2
-2.6343753 0.39747107 -0.50995612 2
-3.2557471 0.491804 -0.51545197 3
-4.2234325 0.6387338 -0.5197733 2
-5.8294291 0.88265854 -0.51247656 2
-9.9360828 1.5062383 -0.52292204 4
-12.404331 1.8826218 -0.21614827 32
-8.8095722 1.3386135 2.3757043 11
-10.20572 1.5525802 2.3725631 11
-12.144412 1.8496794 2.3782048 11
-12.23341 1.8654191 1.9517132 9
-12.47915 1.9051195 1.5453031 15
-12.411304 1.8969785 1.0951118 26
-12.421472 1.9007512 0.65655458 24
-12.327529 1.8885782 0.21702066 77
-1.9518934 0.30077374 -0.5189324 2
-2.2382076 0.34529275 -0.51401347 2
-2.6329718 0.40666434 -0.50995612 2
-3.2540107 0.50316572 -0.51545197 3
-4.2064648 0.65119481 -0.51794529 2
-5.8312349 0.90376455 -0.51291233 2
-9.9258299 1.5401469 -0.52266121 4
-12.200084 1.8952135 -0.21269266 12
-8.8048458 1.3693565 2.3757043 11
-10.205052 1.588945 2.3736873 10
-12.011788 1.8724043 2.3534219 8
-11.816945 1.8441447 1.8860831 10
-12.222359 1.9095986 1.5142266 18
-12.020758 1.8802502 1.0611212 7
-12.108912 1.8962041 0.64033037 7
-11.836849 1.8557169 0.20846899 48
-1.9556025 0.30833751 -0.52022654 3
-2.2369885 0.35310343 -0.51401347 2
-2.626688 0.41508651 -0.50900286 2
-3.2473569 0.5137496 -0.51466984 3
-4.2041659 0.66587412 -0.51794529 2
-5.8329649 0.92489403 -0.5133481 2
-9.910532 1.5732198 -0.52213967 5
-11.793474 1.8742323 -0.20569506 13
-8.8000126 1.4000828 2.3757043 11
-10.209066 1.6260903 2.3759351 6
-11.612566 1.8517169 2.2762136 12
-11.434919 1.825436 1.8259223 11
-11.705962 1.8707997 1.4508544 3
-11.768201 1.8828529 1.0393323 4
-11.766958 1.8847605 0.62253618 8
-11.563746 1.8542812 0.20375684 24
-1.9545143 0.31516194 -0.52022654 3
-2.2357423 0.36090982 -0.51401347 2
-2.6300685 0.42503586 -0.50995612 2
-3.2455435 0.52508181 -0.51466984 3
-4.2018161 0.68054539 -0.51794529 2
-5.8346176 0.94604647 -0.51378393 2
-9.9000511 1.6070042 -0.52187884 6
-11.352622 1.8448235 -0.19809273 4
-8.7950716 1.4307921 2.3757043 11
-10.208137 1.6624999 2.377059 11
-11.281462 1.8393232 2.2123499 11
-11.058047 1.8048791 1.7665426 10
-11.405494 1.8636326 1.4142936 3
-11.343727 1.8555728 1.0022911 7
-11.341469 1.8572359 0.6002934 3
-10.965195 1.7975906 0.19328539 64
-1.953346 0.32232347 -0.52022654 3
-2.2344046 0.36910182 -0.51401347 2
-2.6284931 0.43467268 -0.50995612 2
-3.2387249 0.5361672 -0.51388764 2
-4.1943974 0.69512981 -0.51733595 2
-5.831111 0.96742505 -0.51378393 2
-9.8842421 1.6416427 -0.52135718 6
-10.857559 1.8052452 -0.18954009 30
-8.7897682 1.4630179 2.3757043 11
-10.211587 1.7015049 2.3793068 12
-10.91638 1.8208995 2.141814 11
-10.681152 1.7835786 1.7071631 12
-10.894422 1.8211454 1.351531 22
-10.860321 1.8173935 0.96002048 22
-10.87168 1.8212452 0.57569551 16
-10.712014 1.7964197 0.18892229 71
-1.952209 0.32913998 -0.52022654 2
-2.2331026 0.37689909 -0.51401347 2
-2.6317997 0.4446629 -0.51090926 2
-3.2368338 0.5474692 -0.51388764 3
-4.1968384 0.71059525 -0.51794529 2
-5.8276982 0.98777354 -0.51378393 2
-9.8636837 1.6736293 -0.52057475 7
-10.609688 1.8021133 -0.18530697 12
-8.7893696 1.4945005 2.3769975 12
-10.210389 1.7379574 2.3804307 12
-10.556743 1.7988079 2.0722313 12
-10.319477 1.7602327 1.6501274 12
-10.633617 1.8157266 1.319845 15
-10.500407 1.7948668 0.92864442 9
-10.56996 1.8086543 0.5599947 10
-10.385391 1.7789448 0.18325026 59
-1.9510483 0.33595243 -0.52022654 2
-2.2269726 0.38386428 -0.51288873 2
-2.6302314 0.45384687 -0.51090926 2
-3.2349029 0.55876452 -0.51388764 3
-4.1943326 0.72524065 -0.51794529 2
-5.8143983 1.0064108 -0.51291233 2
-9.8528614 1.7071973 -0.52031392 7
-10.293014 1.7853125 -0.17986439 13
-8.7840986 1.5251721 2.3769975 11
-10.170658 1.7677475 2.3725631 9
-10.22641 1.7792764 2.0083678 13
-10.035946 1.7479424 1.6055927 14
-10.299653 1.7957242 1.2790188 11
-10.175137 1.7758449 0.90031886 10
-10.263545 1.7931205 0.54403222 11
-10.08365 1.7635052 0.17801453 60
-1.9498637 0.34276083 -0.52022654 3
-2.2256191 0.39163554 -0.51288873 2
-2.6334651 0.46387681 -0.51186246 2
-3.2329328 0.57005304 -0.51388764 3
-4.1966624 0.74073976 -0.51855469 2
-5.8010402 1.0249676 -0.51204079 2
-9.8370085 1.7398406 -0.51979238 9
-10.006124 1.7715526 -0.17494015 12
-8.7834778 1.5566679 2.3782909 8
-9.943758 1.7640909 2.3208637 9
-9.9301758 1.7634691 1.9511764 12
-9.7672176 1.7362883 1.5634021 14
-10.000164 1.7794989 1.2424579 11
-9.8942642 1.7624362 0.87591523 11
-9.9770327 1.7789761 0.52911651 10
-9.816596 1.7521369 0.17338964 60
-1.9439623 0.348373 -0.5189324 3
-2.2243776 0.39862558 -0.51288873 2
-2.6319947 0.47214779 -0.51186246 2
-3.2311261 0.58020675 -0.51388764 3
-4.1943145 0.75392026 -0.51855469 2
-5.797792 1.0431869 -0.51204079 2
-9.7872677 1.7627701 -0.51744509 15
-9.7446728 1.7568545 -0.17044786 13
-8.7832975 1.5851122 2.3795841 12
-9.6648827 1.7459528 2.2568011 9
-9.6347885 1.7422527 1.893985 14
-9.5138741 1.7221029 1.5235552 13
-9.7161798 1.7604735 1.2077252 11
-9.6485281 1.7499549 0.85456204 10
-9.6962767 1.7603631 0.51446241 10
-9.545435 1.7346988 0.16867749 63
-1.9427963 0.35481748 -0.5189324 2
-2.2181802 0.40551153 -0.51176393 2
-2.6255023 0.48044878 -0.51090926 2
-3.2290809 0.59148198 -0.51388764 3
-4.1965384 0.7694515 -0.51916397 2
-5.7941146 1.0634186 -0.51204079 2
-9.5453253 1.7536165 -0.5049262 8
-9.477891 1.7429378 -0.16586918 14
-8.7872114 1.6175108 2.3821707 11
-9.4191608 1.7355369 2.2006059 11
-9.3776503 1.7295808 1.8444195 15
-9.2552671 1.7086791 1.482927 15
-9.4708509 1.7501889 1.1778672 13
-9.3729773 1.733794 0.83059424 10
-9.4200392 1.7441996 0.50007004 11
-9.2787981 1.7197227 0.16405261 64
-1.9414197 0.36227462 -0.5189324 2
-2.2166066 0.41402569 -0.51176393 2
-2.6236382 0.49052641 -0.51090926 2
-3.2267861 0.60387635 -0.51388764 2
-4.193553 0.78555936 -0.51916397 2
-5.789989 1.0856586 -0.51204079 2
-9.2882404 1.7432803 -0.49162498 8
-9.1959829 1.7276266 -0.16103132 14
-8.7904291 1.6530244 2.3847573 11
-9.1730289 1.7266293 2.1444106 11
-9.1394138 1.7219537 1.7986662 14
-9.0059862 1.6984423 1.4438615 12
-9.215354 1.7395927 1.1467905 13
-9.1313219 1.7253805 0.80967689 12
-9.1630573 1.7330335 0.48672441 11
-9.0265265 1.7088428 0.1596895 64
-1.9401431 0.36904925 -0.5189324 3
-2.215148 0.42176059 -0.51176393 2
-2.6219101 0.49968165 -0.51090926 2
-3.2246585 0.61513627 -0.51388764 2
-4.1907854 0.80019277 -0.51916397 2
-5.7910562 1.1067977 -0.51247656 2
-9.0417891 1.7297198 -0.4788453 9
-8.9394836 1.711766 -0.15662542 14
-8.784605 1.6836988 2.3847573 10
-8.9468451 1.7164133 2.092711 11
-8.9164381 1.7121934 1.7557728 13
-8.7866106 1.6888533 1.4094838 11
-8.9655571 1.7248708 1.1163231 14
-8.89536 1.7129756 0.78919518 11
-8.9265156 1.7205912 0.47442541 11
-8.7897959 1.6958362 0.15558819 65
-1.9388431 0.37581936 -0.5189324 2
-2.2136621 0.4294903 -0.51176393 2
-2.6153316 0.50789505 -0.50995612 2
-3.217644 0.62544638 -0.51310545 2
-4.1879668 0.81481647 -0.51916397 2
-5.7871571 1.1270056 -0.51247656 3
-8.7906475 1.7135053 -0.46580485 8
-8.6979322 1.6970086 -0.15247869 12
-8.7217903 1.7032439 2.3692381 12
-8.7208481 1.7046399 2.0410113 10
-8.6936426 1.7008975 1.7128793 11
-8.5674162 1.677754 1.3751062 11
-8.7354593 1.712245 1.0882931 13
-8.6644888 1.6999044 0.76914942 12
-8.685276 1.7055571 0.4618648 12
-8.558176 1.6821493 0.15157413 67
-1.9327815 0.38164932 -0.51763833 2
-2.2121494 0.43721482 -0.51176393 2
-2.6183577 0.51797372 -0.51090926 2
-3.2154412 0.63667428 -0.51310545 2
-4.1850967 0.82943022 -0.51916397 2
-5.7831879 1.1471996 -0.51247656 3
-8.5789146 1.7033387 -0.45485091 9
-8.4811106 1.6854583 -0.14876391 13
-8.5120993 1.6931611 2.3136282 10
-8.5237131 1.6970179 1.9960552 10
-8.4758511 1.6890268 1.670939 13
-8.362937 1.6680435 1.3430725 13
-8.5201616 1.7009492 1.0620914 14
-8.4533567 1.6891466 0.75084674 12
-8.4834223 1.6966943 0.45139763 12
-8.3659773 1.6747236 0.14825818 67
-1.9314375 0.38839367 -0.51763833 2
-2.2106099 0.44493401 -0.51176393 2
-2.6165338 0.52711034 -0.51090926 3
-3.2083578 0.64691824 -0.51232326 2
-4.1821761 0.8440339 -0.51916397 2
-5.7791486 1.1673797 -0.51247656 3
-8.3722553 1.6927047 -0.44415772 9
-8.2938776 1.6783649 -0.14556749 12
-8.3167868 1.684512 2.2618983 11
-8.3171911 1.686105 1.9488512 11
-8.2823038 1.6805375 1.6337647 12
-8.173151 1.6598749 1.3133826 12
-8.3196402 1.6911372 1.0377173 15
-8.2570515 1.6799154 0.73385137 12
-8.2964172 1.6894324 0.44171545 12
-8.1641388 1.6639802 0.1447677 14
-1.93007 0.39513329 -0.51763833 2
-2.2090433 0.45264775 -0.51176393 2
-2.6146777 0.53624052 -0.51090926 3
-3.2060802 0.65811354 -0.51232326 2
-4.1792045 0.85862726 -0.51916397 2
-5.7750382 1.1875457 -0.51247656 3
-8.1511068 1.6776295 -0.43268216 9
-8.0970068 1.667968 -0.14219826 13
-8.1216421 1.6745205 2.2101681 10
-8.1203957 1.675741 1.903895 11
-8.0793066 1.668732 1.594684 12
-7.9835281 1.6504025 1.283693 11
-8.1435938 1.6849746 1.0163903 13
-8.060914 1.6693344 0.71685594 13
-8.0949011 1.6778461 0.43124825 13
-7.9673758 1.6528642 0.14136447 14
-1.928679 0.40186805 -0.51763833 2
-2.2074497 0.46035603 -0.51176393 2
-2.6127899 0.54536414 -0.51090926 2
-3.2037635 0.66930085 -0.51232326 2
-4.1761818 0.87321025 -0.51916397 2
-5.7708578 1.207697 -0.51247656 3
-7.9399409 1.6630787 -0.42172816 11
-7.8954196 1.6551919 -0.13874266 11
-7.931397 1.6641794 2.1597311 11
-7.933311 1.6660265 1.8611865 12
-7.8668876 1.653511 1.5536969 14
-7.8085704 1.6426767 1.2563471 14
-7.9434118 1.672491 0.99201638 13
-7.8454599 1.6532972 0.69811755 12
-7.8202829 1.6494169 0.41685587 11
-7.7903571 1.6445254 0.13831031 16
-1.9272645 0.40859795 -0.51763833 2
-2.2058294 0.46805862 -0.51176393 2
-2.6156716 0.55550081 -0.51186246 2
-3.2062385 0.68150675 -0.51310545 2
-4.1731081 0.88778251 -0.51916397 2
-5.7617354 1.2267965 -0.51204079 3
-7.8071151 1.6637259 -0.41494712 17
-7.7624726 1.6556288 -0.13649651 13
