# .PCD v0.7 - Point Cloud Data file format
VERSION 0.7
FIELDS x y z intensity
SIZE 4 4 4 4
TYPE F F F F
COUNT 1 1 1 1
WIDTH 1440
HEIGHT 1
VIEWPOINT 0 0 0 1 0 0 0
POINTS 1440
DATA ascii
1.9713781 2.0478499 0.2453434 8
1.983417 2.0596364 0.14784908 12
1.9757589 2.0509672 0.04904126 13
1.3110392 1.3585699 -0.4956387 3
1.4883068 1.5417256 -0.48589453 3
1.755234 1.8175986 -0.4832668 4
1.9891927 2.0591505 -0.44740292 11
2.0026555 2.0723629 -0.34915608 10
1.9895108 2.0580416 -0.24708691 9
1.9703889 2.0375493 -0.14605305 7
1.9765799 2.0432377 -0.048464898 7
1.9813833 2.047488 0.75267279 11
1.9852653 2.0507827 0.64961702 11
1.9762998 2.0408084 0.54427052 8
1.9886843 2.0528803 0.44612822 10
1.9675573 2.0303619 0.34245285 8
1.9854486 2.0481093 0.24621499 8
1.9940704 2.0562847 0.14811075 12
1.989868 2.0512347 0.049215782 13
1.3157736 1.3539853 -0.4956387 3
1.4902835 1.5330278 -0.48476982 3
1.761568 1.8114606 -0.4832668 3
2.0032554 2.0592742 -0.44896728 12
2.0167994 2.072473 -0.35037476 10
2.0036314 2.0582228 -0.24795848 9
1.9844564 2.0378134 -0.14657466 7
1.9871888 2.0399067 -0.048551291 8
1.9952599 2.047477 0.75525928 11
1.9992135 2.050818 0.65186483 12
1.9868382 2.0374115 0.54522371 8
2.0027351 2.0529962 0.44769084 9
1.9815646 2.0305851 0.34367153 8
1.9995445 2.0482945 0.24708654 8
2.008213 2.0564563 0.14863411 12
2.0005095 2.0478525 0.049303047 12
1.3171139 1.3459324 -0.49434459 3
1.4956256 1.5278163 -0.48476982 3
1.7678804 1.8053005 -0.4832668 4
2.0138874 2.0557969 -0.44974947 11
2.0309684 2.0725095 -0.35159346 11
2.0142906 2.0547729 -0.24839425 9
1.9985497 2.0380042 -0.14709628 8
2.0012991 2.0400956 -0.04872407 7
2.0091605 2.0473943 0.75784576 11
2.013186 2.0507803 0.65411264 11
2.0008159 2.0374677 0.54713005 8
2.0168109 2.0530388 0.44925344 9
1.9955976 2.0307353 0.34489024 8
2.010174 2.0448544 0.24752231 8
2.0188801 2.052994 0.1488958 12
2.0146573 2.0479846 0.04947757 13
1.321804 1.3413266 -0.49434459 3
1.5009496 1.5225862 -0.48476982 3
1.7741712 1.7991184 -0.4832668 3
2.0279875 2.0557857 -0.45131379 12
2.045162 2.0724719 -0.35281214 11
2.0284491 2.0548186 -0.2492658 9
2.0126684 2.038121 -0.14761789 7
2.0119216 2.0366538 -0.048810463 7
2.0230849 2.0472395 0.7604323 11
2.0271826 2.0506701 0.65636045 12
2.0148184 2.0374513 0.54903644 8
2.0309114 2.0530083 0.45081607 10
2.0096552 2.030812 0.34610891 8
2.0243082 2.0449049 0.24839386 8
2.033061 2.0530303 0.14941916 12
2.0288305 2.0480428 0.049652096 13
1.3264781 1.3367044 -0.49434459 3
1.502823 1.5138801 -0.48364502 3
1.7838993 1.7963974 -0.48422 4
2.0386314 2.0521977 -0.45209596 10
2.0593803 2.072361 -0.35403085 10
2.0391212 2.0512581 -0.24970159 8
2.0232913 2.0346239 -0.14787871 7
2.0260699 2.0367069 -0.048983242 7
2.0370326 2.0470123 0.76301885 11
2.0412028 2.050487 0.65860826 11
2.0288451 2.0373619 0.55094284 8
2.0415506 2.0494053 0.45159736 10
2.0237379 2.0308151 0.34732762 8
2.0384667 2.0448816 0.24926542 8
2.0472665 2.0529921 0.14994252 12
2.0430284 2.048027 0.049826618 13
1.331136 1.3320659 -0.49434459 3
1.5080982 1.5086251 -0.48364502 3
1.7901591 1.7901596 -0.48422 4
2.0492754 2.0485606 -0.45287815 9
2.0701118 2.0686674 -0.35464019 10
2.0533168 2.0511682 -0.25057316 8
2.0374477 2.0346053 -0.14840032 7
2.0402434 2.0366859 -0.049156025 7
2.051003 2.0467126 0.76560533 11
2.0552466 2.0502312 0.66085607 11
2.0394199 2.0337334 0.55189604 8
2.0556872 2.0492396 0.45315999 9
2.0378451 2.0307446 0.3485463 8
2.05265 2.0447841 0.25013697 8
2.0614965 2.0528798 0.15046588 12
2.057251 2.0479369 0.050001144 13
1.3357776 1.3274113 -0.49434459 3
1.5133553 1.5033517 -0.48364502 3
1.7998796 1.7873582 -0.48517317 4
2.0599184 2.044874 -0.45366031 7
2.0843654 2.0684204 -0.35585886 11
2.0675366 2.0510042 -0.2514447 8
2.0516281 2.0345128 -0.14892195 7
2.054441 2.0365911 -0.049328804 7
2.0649965 2.0463402 0.76819187 11
2.0658519 2.0464735 0.66198003 11
2.0534818 2.0335093 0.55380243 8
2.0698473 2.0490003 0.45472261 10
2.0519764 2.0306003 0.349765 7
2.0668573 2.0446124 0.25100854 8
2.0757504 2.0526931 0.15098923 12
2.0750527 2.0512869 0.050262928 12
1.3438407 1.3261328 -0.4956387 3
1.5151253 1.4946386 -0.48252031 3
1.8026129 1.7776183 -0.48422 3
2.0846283 2.0550058 -0.45757118 5
2.0986426 2.0680985 -0.35707757 10
2.0817802 2.0507658 -0.25231627 9
2.0658331 2.0343456 -0.14944357 7
2.0686629 2.0364215 -0.049501583 7
2.0790119 2.0458949 0.77077836 10
2.0799294 2.0460832 0.66422778 11
2.0675669 2.0332119 0.55570877 8
2.0840306 2.0486867 0.45628521 9
2.0661311 2.0303822 0.35098368 7
2.0810883 2.0443664 0.25188008 8
2.0900283 2.0524321 0.15151259 12
2.0893357 2.0510354 0.05043745 13
1.3484616 1.3214339 -0.4956387 3
1.5203333 1.4893407 -0.48252031 3
1.8053 1.7678808 -0.4832668 3
2.1059048 2.0615349 -0.46069989 10
2.1093957 2.0642316 -0.35768694 10
2.0960472 2.0504527 -0.25318784 9
2.0800614 2.0341043 -0.14996518 7
2.0864832 2.0396719 -0.049760751 7
2.0930495 2.0453765 0.77336484 10
2.0940289 2.0456195 0.66647559 11
2.0816748 2.032841 0.55761516 8
2.098237 2.0482993 0.45784783 10
2.0803096 2.0300899 0.35220239 7
2.0953429 2.0440462 0.25275165 7
2.1043293 2.0520961 0.15203595 12
2.103642 2.0507092 0.050611973 13
1.353066 1.3167188 -0.4956387 3
1.5290149 1.4874218 -0.48364502 3
1.8079414 1.7581466 -0.48231363 3
2.1307933 2.071383 -0.46461076 7
2.1237063 2.0637729 -0.35890561 10
2.1103373 2.050065 -0.25405937 9
2.0943134 2.0337884 -0.1504868 7
2.1007643 2.0393407 -0.049933534 7
2.1036425 2.0414217 0.77465808 10
2.1081507 2.0450821 0.6687234 11
2.0922816 2.0289791 0.5585683 8
2.1124661 2.0478375 0.45941046 10
2.094511 2.0297229 0.35342106 7
2.1096201 2.0436509 0.25362322 8
2.1186535 2.0516851 0.15255931 12
2.1179709 2.050308 0.050786499 12
1.357654 1.3119878 -0.4956387 3
1.5341978 1.4820755 -0.48364502 3
1.8105367 1.7484155 -0.48136041 3
2.14867 2.0742221 -0.46695724 7
2.1380396 2.0632396 -0.36012432 10
2.12465 2.0496025 -0.25493094 9
2.1049938 2.0299315 -0.1507476 7
2.1150687 2.0389345 -0.050106313 7
2.1177111 2.0407689 0.77724457 10
2.1222939 2.044471 0.67097121 11
2.1064224 2.0284727 0.56047469 7
2.1231594 2.0438762 0.46019179 10
2.1051593 2.0258408 0.35403043 7
2.1239202 2.0431807 0.25449476 7
2.1330004 2.051199 0.15308267 11
2.1287193 2.0463669 0.050873764 12
1.3587408 1.3038965 -0.49434459 3
1.5393617 1.476711 -0.48364502 3
1.8130862 1.7386875 -0.48040724 3
2.1523321 2.0632918 -0.46617511 6
2.152395 2.0626311 -0.361343 10
2.1389854 2.0490649 -0.25580251 8
2.1192796 2.0294781 -0.15126921 7
2.1293955 2.0384531 -0.050279092 7
2.1318007 2.0400429 0.77983105 10
2.1364589 2.0437863 0.67321903 11
2.1241324 2.0312843 0.56333429 7
2.1374204 2.0432777 0.46175441 9
2.1193938 2.0253372 0.35524914 7
2.1346412 2.0391953 0.25493056 7
2.1473696 2.050638 0.15360603 11
2.1430817 2.0458279 0.051048286 12
1.3632839 1.2991458 -0.49434459 3
1.5409796 1.4679683 -0.48252031 3
1.8191442 1.7323482 -0.48040724 3
2.1595213 2.0557663 -0.46617511 5
2.1667717 2.0619476 -0.3625617 10
2.1533427 2.0484521 -0.25667405 9
2.1335876 2.02895 -0.15179083 7
2.1437445 2.0378966 -0.050451875 7
2.1459112 2.0392432 0.7824176 10
2.1506445 2.0430272 0.67546684 11
2.1383281 2.0306172 0.56524068 7
2.1517034 2.0426047 0.46331704 9
2.1336503 2.0247591 0.35646781 7
2.1489737 2.0385876 0.25580209 7
2.1617608 2.0500011 0.15412939 11
2.1538377 2.0417738 0.051135547 12
1.3643025 1.2910594 -0.49305049 3
1.5425552 1.4592323 -0.48139551 3
1.8251803 1.7259876 -0.48040724 3
2.1666839 2.0482156 -0.46617511 5
2.1811702 2.0611887 -0.36378038 10
2.1677217 2.0477641 -0.25754562 8
2.1479175 2.0283465 -0.15231246 7
2.1581159 2.0372646 -0.050624654 7
2.160042 2.0383701 0.78500408 10
2.1613071 2.038851 0.6765908 11
2.1525452 2.0298758 0.56714702 7
2.1660075 2.0418565 0.46487963 9
2.1479285 2.024106 0.35768652 7
2.1633275 2.0379045 0.25667366 7
2.1761737 2.049289 0.15465274 11
2.168232 2.0410964 0.05131007 12
1.3688009 1.2862893 -0.49305049 4
1.5405378 1.4471678 -0.479146 3
1.8311939 1.7196059 -0.48040724 3
2.1774211 2.0440199 -0.46695724 4
2.1955893 2.0603542 -0.36499909 10
2.1821218 2.0470004 -0.25841716 8
2.1622694 2.0276675 -0.15283407 6
2.1725087 2.0365572 -0.050797433 7
2.1741924 2.0374227 0.78759056 10
2.1755221 2.0379558 0.67883861 10
2.1667831 2.0290594 0.56905341 7
2.1803322 2.0410333 0.46644226 10
2.1622281 2.0233777 0.3589052 7
2.1777031 2.0371463 0.25754523 7
2.1906078 2.048501 0.1551761 11
2.1826477 2.0403438 0.051484596 12
1.3732826 1.2815034 -0.49305049 4
1.5455799 1.4417814 -0.479146 3
1.8371854 1.7132034 -0.48040724 3
2.1881549 2.0397742 -0.46773943 6
2.2063987 2.0560613 -0.36560845 10
2.2001882 2.0495563 -0.25972453 9
2.1766424 2.0269129 -0.15335569 6
2.1832635 2.0323675 -0.050883826 6
2.1883626 2.0364015 0.79017711 10
2.1897571 2.0369861 0.68108642 11
2.1810412 2.0281684 0.57095981 7
2.1982951 2.0434973 0.46878621 9
2.1765487 2.0225744 0.3601239 7
2.1920996 2.0363121 0.25841677 7
2.2050629 2.0476375 0.15569946 11
2.1970844 2.0395145 0.051659122 12
1.3777474 1.2767019 -0.49305049 4
1.5577513 1.442999 -0.48139551 3
1.8431543 1.7067801 -0.48040724 3
2.1952617 2.0321236 -0.46773943 5
2.2208471 2.055088 -0.36682713 10
2.2146418 2.0486283 -0.26059607 8
2.1910362 2.0260828 -0.15387732 7
2.1976867 2.0315211 -0.051056605 6
2.2025521 2.035306 0.79276359 10
2.2075903 2.0392475 0.68445808 10
2.1953197 2.0272026 0.57286614 7
2.2126725 2.042511 0.47034883 9
2.1908898 2.0216954 0.36134258 7
2.2065167 2.0354025 0.25928834 8
2.2158675 2.0433125 0.15596114 11
2.2115419 2.0386097 0.051833645 12
1.3821956 1.271885 -0.49305049 3
1.5663644 1.440851 -0.48252031 3
1.8491008 1.7003359 -0.48040724 3
2.2023418 2.0244484 -0.46773943 5
2.2353158 2.054039 -0.36804584 9
2.229116 2.0476246 -0.26146764 8
2.2054508 2.0251768 -0.15439893 7
2.2121305 2.0305986 -0.051229388 7
2.2203195 2.0374019 0.79664338 10
2.2218759 2.038116 0.68670589 10
2.2132354 2.0294788 0.57572573 7
2.23071 2.044786 0.47269273 9
2.2089105 2.0240939 0.36317062 7
2.224627 2.0377812 0.26059568 7
2.2303517 2.0423095 0.1564845 11
2.2260199 2.0376287 0.052008171 12
1.3866268 1.2670524 -0.49305049 3
1.5749816 1.4386603 -0.48364502 3
1.8550248 1.6938708 -0.48040724 3
2.2057478 2.0134192 -0.46695724 5
2.249804 2.0529141 -0.36926451 9
2.2436097 2.0465446 -0.2623392 8
2.2235756 2.027559 -0.15518135 6
2.2265944 2.0296001 -0.051402166 7
2.2345576 2.036145 0.79922986 10
2.2361803 2.0369093 0.6889537 10
2.2275646 2.0283501 0.57763213 7
2.2451384 2.0436356 0.47425535 9
2.2233033 2.023051 0.36438933 7
2.2390959 2.0367067 0.26146722 7
2.2448556 2.04123 0.15700787 11
2.2405176 2.036571 0.052182693 12
1.3910413 1.2622045 -0.49305049 3
1.5836023 1.436427 -0.48476982 3
1.8609263 1.6873853 -0.48040724 3
2.2127624 2.0057075 -0.46695724 5
2.2679887 2.0550451 -0.37109256 10
2.2581232 2.0453882 -0.26321074 8
2.2417436 2.0298393 -0.15596379 6
2.2410781 2.0285254 -0.051574945 6
2.2488143 2.0348139 0.8018164 10
2.2505035 2.0356278 0.69120157 10
2.2455533 2.0304377 0.58049166 8
2.2595859 2.0424094 0.47581798 9
2.2377162 2.0219321 0.36560804 7
2.2535844 2.0355558 0.26233879 7
2.2593791 2.0400741 0.15753123 11
2.2550349 2.0354371 0.052357219 11
1.3954386 1.2573413 -0.49305049 3
1.5849868 1.4276298 -0.48364502 3
1.8631574 1.6775949 -0.47945404 4
2.2197502 1.9979712 -0.46695724 5
2.2825267 2.0537546 -0.37231123 9
2.272656 2.0441554 -0.26408231 8
2.259954 2.0320172 -0.15674621 6
2.2555816 2.027374 -0.051747728 6
2.2666814 2.0366356 0.80569619 10
2.2648449 2.034271 0.69344938 10
2.2599313 2.0291455 0.58239806 8
2.2777271 2.0444059 0.47816193 9
2.2484539 2.0174229 0.36621734 7
2.2680922 2.0343287 0.26321036 7
2.2739215 2.0388415 0.15805459 11
2.2695715 2.0342267 0.052531742 12
1.399819 1.2524625 -0.49305049 3
1.5899606 1.4220885 -0.48364502 3
1.8690019 1.6710811 -0.47945404 3
2.2267108 1.9902107 -0.46695724 5
2.2970834 2.0523877 -0.37352994 9
2.2872074 2.042846 -0.26495388 8
2.2782073 2.0340929 -0.15752864 16
2.273834 2.029475 -0.0520069 7
2.2809846 2.0351419 0.80828267 10
2.2828395 2.0360816 0.69682103 10
2.274328 2.0277774 0.58430439 7
2.2922235 2.0430148 0.47972456 9
2.2628932 2.0161648 0.36743605 7
2.2826185 2.0330248 0.2640819 7
2.2922125 2.0408525 0.15883961 11
2.2841275 2.0329394 0.052706264 11
1.4005721 1.2443609 -0.49175641 3
1.5912722 1.4132948 -0.48252031 3
1.8711534 1.661288 -0.47850087 3
2.2336445 1.9824258 -0.46695724 5
2.3153706 2.0542378 -0.37535799 9
2.3017771 2.0414598 -0.26582542 8
2.2965024 2.0360656 -0.15831105 11
2.2883868 2.028157 -0.052179679 6
2.295305 2.0335734 0.81086916 10
2.2972274 2.0345609 0.69906884 10
2.2887423 2.0263333 0.58621085 7
2.3067372 2.0415471 0.48128715 9
2.2773509 2.0148304 0.36865473 7
2.3008943 2.0349441 0.26538923 7
2.3068039 2.039453 0.15936297 11
2.3024473 2.0348856 0.052968048 12
1.4049071 1.2394644 -0.49175641 3
1.5961958 1.4077315 -0.48252031 3
1.8732591 1.6515006 -0.47754765 3
2.2405508 1.9746169 -0.46695724 5
2.3299744 2.0527043 -0.37657669 9
2.3163652 2.0399966 -0.26669699 8
2.3110912 2.0346355 -0.15883268 11
2.3029583 2.0267622 -0.052352462 7
2.3096421 2.0319293 0.81345564 10
2.3116324 2.0329647 0.70131665 10
2.3031743 2.0248134 0.58811718 7
2.3212686 2.0400028 0.48284978 9
2.2955551 2.0166948 0.3704828 7
2.315469 2.0334737 0.26626077 7
2.325166 2.041271 0.16014802 10
2.3170514 2.0334313 0.053142574 11
1.4092252 1.2345529 -0.49175641 3
1.6047651 1.4053608 -0.48364502 3
1.8753196 1.6417186 -0.47659451 3
2.2511461 1.9700361 -0.46773943 5
2.3445959 2.0510938 -0.37779537 9
2.330971 2.0384564 -0.26756853 8
2.329457 2.0364151 -0.15961511 11
2.3175478 2.0252907 -0.052525241 6
2.3276329 2.0333877 0.81733537 10
2.3260541 2.0312924 0.70356447 10
2.3176234 2.0232174 0.59002358 7
2.3358173 2.0383818 0.4844124 9
2.3100603 2.0151944 0.37170148 7
2.330061 2.0319262 0.26713234 7
2.3398046 2.0397043 0.16067138 10
2.3316731 2.0318999 0.053317096 11
1.4135259 1.2296262 -0.49175641 3
1.609661 1.3997506 -0.48364502 3
1.884743 1.6383826 -0.47754765 3
2.2580092 1.9621662 -0.46773943 5
2.3592343 2.0494063 -0.37901407 9
2.3493552 2.0401049 -0.2688759 8
2.3440926 2.0348177 -0.16013673 11
2.3359308 2.0270181 -0.052784409 6
2.3420134 2.0315797 0.81992191 10
2.3441732 2.0327363 0.70693624 10
2.3320892 2.0215449 0.59192997 7
2.350383 2.0366843 0.48597503 9
2.3245828 2.0136173 0.37292019 7
2.3446705 2.0303016 0.26800391 7
2.3544607 2.0380602 0.16119474 11
2.3463123 2.0302906 0.053491622 12
1.4178096 1.2246846 -0.49175641 3
1.6145372 1.3941233 -0.48364502 3
1.8941661 1.6350007 -0.47850087 3
2.2648447 1.9542722 -0.46773943 5
2.3776474 2.0508828 -0.38084212 9
2.3640065 2.0383971 -0.26974744 8
2.3587453 2.033143 -0.16065834 11
2.3505666 2.0253782 -0.052957188 6
2.3564095 2.0296962 0.82250839 10
2.3586385 2.0308993 0.70918405 10
2.3465717 2.0197961 0.59383631 7
2.364965 2.0349097 0.48753765 9
2.3428845 2.0151992 0.37474823 7
2.359297 2.0285997 0.26887548 7
2.3691337 2.0363388 0.1617181 11
2.3609691 2.0286045 0.053666148 11
1.4220759 1.219728 -0.49175641 3
1.6193938 1.388479 -0.48364502 3
1.8998617 1.6283789 -0.47850087 3
2.2754025 1.9495677 -0.4685216 4
2.3923302 2.0490274 -0.38206083 9
2.3786747 2.036612 -0.270619 8
2.373415 2.0313907 -0.16117996 11
2.3652196 2.0236614 -0.053129975 7
2.3708212 2.0277374 0.82509488 10
2.3731196 2.028986 0.7114318 10
2.3648012 2.0211594 0.59669584 7
2.3795633 2.0330579 0.48910025 8
2.3574522 2.0134547 0.37596691 6
2.37394 2.0268202 0.26974702 7
2.3876214 2.037781 0.16250314 11
2.3756418 2.02684 0.053840671 11
1.4263248 1.2147566 -0.49175641 3
1.6242305 1.3828179 -0.48364502 3
1.9092722 1.6249183 -0.47945404 3
2.2821941 1.9416131 -0.4685216 4
2.4070292 2.0470946 -0.38327953 9
2.3933592 2.0347488 -0.27149057 8
2.3881009 2.0295606 -0.16170157 12
2.379889 2.0218663 -0.053302754 7
2.3889291 2.0288289 0.82897466 10
2.3913295 2.0301492 0.71480352 10
2.3793266 2.0192444 0.59860224 7
2.3941774 2.0311289 0.49066287 9
2.3720357 2.0116332 0.37718561 6
2.3885994 2.0249634 0.27061859 7
2.4023385 2.0358903 0.1630265 11
2.3941457 2.0282295 0.054102458 11
1.4342442 1.212889 -0.49305049 3
1.6290476 1.3771398 -0.48364502 3
1.9111837 1.6150758 -0.47850087 3
2.2889576 1.933635 -0.4685216 5
2.425535 2.0482855 -0.38510755 9
2.4118655 2.0360212 -0.27279788 7
2.4028029 2.0276527 -0.1622232 11
2.3945746 2.0199938 -0.053475533 6
2.4033811 2.0267045 0.83156121 10
2.4058516 2.0280697 0.71705133 10
2.3976207 2.0204155 0.60146183 7
2.4125841 2.0323048 0.49300683 9
2.3904314 2.0129309 0.37901363 6
2.4070847 2.0262363 0.27192593 7
2.4170716 2.0339222 0.16354986 11
2.4088624 2.0262964 0.05427698 11
1.4384692 1.2078751 -0.49305049 3
1.6338447 1.3714449 -0.48364502 3
1.9130497 1.6052396 -0.47754765 3
2.2956934 1.9256332 -0.4685216 5
2.4402754 2.0461836 -0.38632622 8
2.4265926 2.033989 -0.27366945 8
2.4213479 2.0288737 -0.16300564 12
2.4131083 2.0212529 -0.053734701 6
2.4178472 2.0245044 0.83414769 9
2.4241247 2.0290408 0.72042304 10
2.4121873 2.0183332 0.60336822 7
2.4310279 2.0333762 0.49535075 8
2.4050577 2.010941 0.38023233 7
2.4217865 2.0242105 0.27279747 6
2.4318199 2.0318756 0.16407321 10
2.4235947 2.0242851 0.054451503 11
1.4426767 1.2028466 -0.49305049 3
1.6386222 1.3657334 -0.48364502 3
1.9186413 1.5985521 -0.47754765 3
2.3024011 1.9176079 -0.4685216 4
2.4550307 2.0440035 -0.38754493 8
2.4451632 2.0350657 -0.27497679 7
2.4360921 2.0267963 -0.16352725 11
2.4278364 2.0192108 -0.053907484 6
2.4360411 2.0253153 0.83802748 9
2.4386864 2.0267949 0.72267085 10
2.4305441 2.0193105 0.60622776 7
2.4457092 2.0311885 0.49691334 9
2.4235177 2.0120435 0.38206038 7
2.4403365 2.0252874 0.2741048 6
2.4504259 2.032939 0.16485825 10
2.4421904 2.025387 0.05471329 11
1.4468666 1.1978034 -0.49305049 3
1.6433794 1.3600053 -0.48364502 3
1.9242097 1.5918452 -0.47754765 3
2.3090806 1.9095594 -0.4685216 4
2.4736257 2.0449078 -0.38937297 9
2.4599309 2.0328639 -0.27584836 8
2.4508512 2.0246406 -0.16404887 11
2.4425795 2.0170903 -0.054080263 6
2.4505453 2.0229492 0.84061396 9
2.4532621 2.0244718 0.72491866 10
2.4451501 2.0170608 0.60813409 7
2.464215 2.0320652 0.4992573 8
2.438185 2.0098851 0.38327909 7
2.4550793 2.0230923 0.27497637 7
2.4652152 2.0307224 0.16538161 10
2.4569638 2.0232053 0.054887816 10
1.451039 1.1927456 -0.49305049 3
1.6481167 1.3542604 -0.48364502 3
1.9297545 1.5851187 -0.47754765 3
2.3195491 1.9046217 -0.46930379 4
2.4884207 2.042558 -0.39059168 9
2.4785638 2.0337434 -0.27715567 7
2.4694853 2.0255728 -0.16483128 11
2.4612031 2.0180612 -0.054339435 6
2.4687979 2.0235682 0.84449369 10
2.4716194 2.0251598 0.72829044 10
2.4597707 2.0147338 0.61004049 7
2.4789355 2.0297084 0.50081992 8
2.4528666 2.0076485 0.38449776 7
2.469836 2.0208182 0.27584794 7
2.4838839 2.0315883 0.16616665 11
2.4756219 2.0241098 0.0551496 11
1.4551935 1.1876732 -0.49305049 3
1.6528339 1.3484993 -0.48364502 3
1.9352759 1.5783728 -0.47754765 3
2.3261833 1.8965132 -0.46930379 3
2.5032291 2.0401299 -0.39181039 8
2.493371 2.0313714 -0.27802724 7
2.4842839 2.0232468 -0.1653529 11
2.4759862 2.0157704 -0.054512214 6
2.4833386 2.0210354 0.84708017 9
2.486232 2.0226691 0.73053825 10
2.4744046 2.0123291 0.61194688 7
2.4936695 2.0272734 0.50238252 9
2.4714136 2.0084639 0.38632578 6
2.4884732 2.0216067 0.27715525 6
2.4987125 2.029201 0.16669002 10
2.4904346 2.0217576 0.055324122 11
1.4593304 1.1825864 -0.49305049 3
1.6613165 1.3457881 -0.48476982 3
1.9407735 1.5716079 -0.47754765 3
2.3366275 1.891489 -0.47008595 4
2.521909 2.040745 -0.39363843 9
2.5081918 2.0289207 -0.27889881 7
2.5029793 2.0239818 -0.16613534 11
2.4946713 2.0165434 -0.054771382 7
2.5016484 2.0214615 0.85095996 10
2.5046473 2.0231624 0.7339099 10
2.4928701 2.0129302 0.61480647 7
2.5084164 2.0247602 0.50394517 8
2.4861336 2.0060575 0.38754448 7
2.5032685 2.0191624 0.27802682 7
2.5174413 2.0298691 0.16747504 10
2.5091538 2.0224643 0.05558591 11
1.4672124 1.1805129 -0.49434459 3
1.6660042 1.3399808 -0.48476982 3
1.9462477 1.5648237 -0.47754765 3
2.3432159 1.8833212 -0.47008595 4
2.5367546 2.038146 -0.39485711 9
2.5269094 2.0295105 -0.28020614 7
2.5217097 2.0246103 -0.16691776 11
2.5172904 2.0203397 -0.055116944 6
2.5162239 2.0187616 0.8535465 9
2.5192957 2.0205035 0.73615772 9
2.5075402 2.0103567 0.61671281 7
2.52703 2.0252576 0.50628912 8
2.5047402 2.006676 0.38937253 6
2.5219653 2.019753 0.27933416 6
2.5323074 2.0273104 0.16799842 10
2.5279076 2.0230644 0.055847697 11
1.4713242 1.1753842 -0.49434459 3
1.6706713 1.3341573 -0.48476982 3
1.9516981 1.5580205 -0.47754765 3
2.3497756 1.8751303 -0.47008595 3
2.5554922 2.038563 -0.39668515 8
2.5417671 2.0268886 -0.28107771 7
2.5365708 2.0220206 -0.16743939 11
2.5360568 2.0208869 -0.055376116 6
2.5345886 2.0189939 0.85742623 9
2.5377672 2.0208023 0.73952943 9
2.526063 2.010762 0.6195724 7
2.5418129 2.0225742 0.50785172 8
2.5194974 2.0040991 0.39059123 6
2.5367973 2.0171373 0.2802057 7
2.5510948 2.0277793 0.16878346 10
2.5427823 2.0204482 0.056022223 11
1.4716343 1.1672398 -0.49305049 3
1.6753182 1.3283174 -0.48476982 3
1.9532783 1.5481497 -0.47659451 3
2.3563068 1.8669165 -0.47008595 4
2.5742638 2.0388741 -0.3985132 8
2.5605423 2.0272791 -0.28238505 7
2.5553591 2.02245 -0.1682218 11
2.5587776 2.0244296 -0.055721678 16
2.5491972 2.0161264 0.86001271 9
2.5524495 2.0179746 0.74177724 9
2.5407684 2.008019 0.6214788 7
2.560483 2.0228739 0.51019561 9
2.5381615 2.0045197 0.39241928 7
2.5555515 2.0175295 0.28151307 6
2.5659964 2.0250485 0.16930681 11
2.5615942 2.0208488 0.056284007 10
1.4719054 1.1591078 -0.49175641 3
1.6799449 1.3224614 -0.48476982 3
1.9586705 1.5413221 -0.47659451 3
2.3628089 1.8586802 -0.47008595 4
2.5891671 2.036011 -0.3997319 8
2.5754352 2.0244856 -0.28325659 7
2.5702555 2.0196881 -0.16874342 11
2.5776231 2.02475 -0.05598085 11
2.5676153 2.0161643 0.8638925 9
2.5709748 2.0180771 0.74514896 10
2.5593464 2.0082276 0.62433833 7
2.5791862 2.0230677 0.51253957 9
2.5568593 2.0048342 0.39424729 7
2.5704188 2.0147421 0.2823846 7
2.5848408 2.0253181 0.17009185 10
2.576504 2.0180602 0.056458529 11
1.4759425 1.1539627 -0.49175641 3
1.6807122 1.3135891 -0.48364502 3
1.9640387 1.5344756 -0.47659451 3
2.3653908 1.8473815 -0.46930379 4
2.6079934 2.0361228 -0.40155992 8
2.5942662 2.0246766 -0.28456393 7
2.5891004 2.0199182 -0.16952586 11
2.5925593 2.021889 -0.056153629 11
2.5822556 2.0131285 0.86647898 10
2.5895326 2.018075 0.74852067 10
2.5779569 2.0083308 0.62719792 7
2.5979214 2.0231555 0.51488352 9
2.5716739 2.0019939 0.395466 7
2.5892289 2.0149345 0.28369194 6
2.5997772 2.0224147 0.17061521 10
2.595372 2.018261 0.05672032 10
1.4761465 1.1458423 -0.4904623 3
1.6852872 1.3077143 -0.48364502 3
1.9693831 1.5276105 -0.47659451 3
2.3679221 1.8360872 -0.4685216 3
2.6268523 2.0361278 -0.40338799 8
2.6131299 2.0247612 -0.28587127 7
2.6040306 2.0169833 -0.17004748 11
2.6114595 2.0220087 -0.056412797 11
2.6007254 2.0129714 0.87035877 10
2.6081212 2.0179679 0.75189245 9
2.5927167 2.0053258 0.62910426 7
2.6127815 2.0201163 0.51644611 8
2.5904264 2.0021095 0.39729404 7
2.6080713 2.0150201 0.28499928 7
2.6186757 2.0224836 0.17140025 9
2.6103156 2.0152993 0.056894843 11
1.4801371 1.1406826 -0.4904623 3
1.6859823 1.2988504 -0.48252031 3
1.9747034 1.5207268 -0.47659451 3
2.3743167 1.8278105 -0.4685216 4
2.6457424 2.0360255 -0.40521601 8
2.6320252 2.0247383 -0.28717861 7
2.6229296 2.0170128 -0.17082989 11
2.6264288 2.0189743 -0.056585576 11
2.6153958 2.0097666 0.87294525 9
2.6267405 2.0177553 0.7552641 10
2.6113796 2.0052311 0.63196379 7
2.6315699 2.020005 0.51879007 9
2.6092107 2.0021183 0.39912206 7
2.6229935 2.0119669 0.28587085 6
2.6336443 2.0194068 0.17192361 10
2.6292374 2.0152991 0.057156626 10
1.4841099 1.135509 -0.4904623 3
1.6866363 1.2899976 -0.48139551 3
1.9799997 1.5138245 -0.47659451 3
2.3767591 1.8165126 -0.46773943 4
2.6607206 2.0328035 -0.40643471 9
2.6469941 2.021585 -0.28805017 7
2.6418607 2.0169346 -0.17161232 11
2.6453829 2.018893 -0.056844749 11
2.6339149 2.0094135 0.87682498 9
2.6415157 2.0144827 0.75751191 10
2.6300733 2.0050309 0.63482338 7
2.6503887 2.0197868 0.52113402 9
2.6280267 2.0020204 0.40095013 7
2.6418886 2.011852 0.28717816 6
2.6525965 2.0192747 0.17270865 10
2.644213 2.0121639 0.057331149 10
1.4880645 1.1303216 -0.4904623 3
1.691129 1.2841023 -0.48139551 3
1.9891813 1.5098712 -0.47754765 3
2.3830853 1.8082051 -0.46773943 4
2.679662 2.0325007 -0.40826276 9
2.6659417 2.0213614 -0.28935751 7
2.6568437 2.0137329 -0.17213394 11
2.6603835 2.0156846 -0.057017531 11
2.6524637 2.0089555 0.88070476 9
2.6601846 2.0140727 0.76088363 10
2.6448836 2.0017622 0.63672978 7
2.6692383 2.0194621 0.52347791 8
2.6429157 1.9988219 0.40216881 7
2.6608155 2.0116296 0.2884855 6
2.6675959 2.0160241 0.173232 10
2.6631873 2.0119622 0.05759294 11
1.4920009 1.1251204 -0.4904623 3
1.695601 1.2781913 -0.48139551 3
1.9944396 1.5029184 -0.47754765 3
2.3893824 1.7998756 -0.46773943 3
2.6986339 2.0320907 -0.4100908 9
2.6849203 2.0210297 -0.29066485 7
2.6758263 2.013453 -0.17291637 12
2.6793888 2.0154014 -0.0572767 12
2.6710408 2.0083923 0.88458449 10
2.674988 2.0106294 0.76313144 10
2.6636274 2.0013628 0.63958937 7
2.6881177 2.0190301 0.52582186 9
2.6617825 1.9985234 0.40399686 6
2.6797719 2.0112991 0.28979284 7
2.6865985 2.0156898 0.17401704 10
2.6821923 2.0116522 0.057854723 10
1.4959192 1.1199056 -0.4904623 3
1.7000524 1.2722648 -0.48139551 3
1.9996737 1.4959474 -0.47754765 3
2.3956506 1.7915241 -0.46773943 4
2.7136605 2.0286009 -0.41130951 9
2.7039282 2.0205903 -0.29197219 7
2.6948392 2.0130651 -0.1736988 11
2.6984246 2.0150096 -0.057535872 11
2.6896467 2.0077238 0.88846427 9
2.6897993 2.007107 0.76537925 10
2.6824002 2.0008571 0.6424489 7
2.7030673 2.0155387 0.52738446 9
2.6767004 1.9951514 0.40521553 7
2.6987591 2.0108609 0.29110017 6
2.7056317 2.0152476 0.17480208 10
2.7012274 2.011234 0.058116511 10
1.4998193 1.114677 -0.4904623 3
1.704483 1.2663227 -0.48139551 3
2.0048833 1.4889581 -0.47754765 3
2.3979247 1.7802072 -0.46695724 3
2.7326808 2.0279887 -0.41313753 8
2.7229664 2.0200424 -0.29327953 7
2.7138817 2.012569 -0.17448123 12
2.713474 2.0115325 -0.057708651 11
2.7121606 2.0098255 0.8936373 9
2.7085338 2.0064056 0.76875097 10
2.6972573 1.9973232 0.6443553 7
2.7219944 2.0149057 0.52972841 9
2.691627 1.9916998 0.40643427 6
2.7137706 2.0073524 0.29197174 7
2.7246945 2.0146968 0.17558713 10
2.7162719 2.007736 0.058291033 11
1.4998149 1.1065675 -0.48916823 3
1.7088929 1.2603652 -0.48139551 3
2.0100687 1.4819508 -0.47754765 3
2.404124 1.771826 -0.46695724 4
2.7477338 2.0243247 -0.41435623 8
2.742033 2.0193865 -0.29458687 7
2.7329535 2.0119641 -0.17526364 11
2.7285321 2.0079746 -0.057881434 11
2.7347217 2.0117943 0.89881027 9
2.731221 2.0084844 0.77324659 10
2.7200317 1.9995246 0.64816803 7
2.7409501 2.0141652 0.53207237 8
2.7145615 1.9940442 0.40887165 7
2.7328057 2.0067117 0.29327908 6
2.7397606 2.0110826 0.17611049 10
2.7434165 2.0130298 0.058727346 11
1.5036684 1.1013254 -0.48916823 3
1.7132821 1.2543924 -0.48139551 3
2.0112686 1.4720266 -0.47659451 3
2.4102941 1.7634232 -0.46695724 3
2.762795 2.0205803 -0.41557491 8
2.7611284 2.0186214 -0.29589421 8
2.7480228 2.0083044 -0.17578526 12
2.7557085 2.0131836 -0.058313385 12
2.76123 2.0164785 0.9052766 9
2.761826 2.0161746 0.77999008 10
2.7388892 1.9986979 0.65102762 7
2.7838721 2.0307794 0.5391041 14
2.7295251 1.9904044 0.41009033 6
2.7558942 2.0088964 0.29502219 7
2.7629056 2.0132692 0.17715721 10
2.7908356 2.0328753 0.059599966 19
1.5114099 1.0989101 -0.4904623 3
1.7176502 1.2484044 -0.48139551 3
2.0163949 1.4649969 -0.47659451 3
2.416435 1.754999 -0.46695724 3
2.8140068 2.0429957 -0.42227775 9
2.8165324 2.0440788 -0.30112356 12
2.7913909 2.0250888 -0.17813255 15
2.8072362 2.0358365 -0.059263673 25
2.7956247 2.0266714 0.91432929 17
2.7964621 2.0265338 0.78785735 19
2.7855985 2.01792 0.66055948 17
2.8189437 2.0413253 0.54457331 17
2.7846966 2.0157845 0.41740248 14
2.8072779 2.0313842 0.29981574 15
2.8063276 2.0299504 0.17951232 23
2.8303232 2.0465553 0.060298059 27
1.5191526 1.096454 -0.49175641 3
1.7180467 1.2395506 -0.4802708 3
2.0214963 1.4579494 -0.47659451 3
2.4225464 1.7465534 -0.46695724 4
2.8533299 2.0563734 -0.42715251 13
2.8559816 2.0575271 -0.30460978 13
2.8268056 2.0357585 -0.17995821 24
2.8589556 2.0581541 -0.060213968 13
2.8262038 2.0338273 0.9220888 17
2.8272491 2.0338306 0.79460078 14
2.8245051 2.0311086 0.668185 14
2.8541226 2.051651 0.55004251 11
2.8279874 2.0321157 0.42288661 16
2.8548067 2.0506318 0.30417356 15
2.8458433 2.0434406 0.18160577 13
2.8658793 2.0570693 0.060908895 24
1.5268966 1.0939573 -0.49305049 3
1.7184021 1.2307091 -0.479146 3
2.0225821 1.4480269 -0.47564128 3
2.4286282 1.7380863 -0.46695724 3
2.9008524 2.0752757 -0.43324599 12
2.8915076 2.0678272 -0.30766025 14
2.8704526 2.0520132 -0.18230549 13
2.8783247 2.0568817 -0.06047314 12
2.8568668 2.0407946 0.92984837 15
2.8581209 2.0409372 0.80134422 14
2.8555474 2.038347 0.67390412 15
2.877347 2.0531499 0.5531677 11
2.8633451 2.0424049 0.42715204 14
2.882225 2.0551128 0.30635244 13
2.8773551 2.0508828 0.18317585 12
2.8852565 2.0557556 0.061170679 25
1.5346419 1.0914198 -0.49434459 3
1.7226876 1.2247033 -0.479146 3
2.0276241 1.4409579 -0.47564128 3
2.4387064 1.7324584 -0.46773943 4
2.9283104 2.0795045 -0.43629274 12
2.9190161 2.0721378 -0.30983913 14
2.8979583 2.0564289 -0.18360955 12
2.9017973 2.0583916 -0.060818698 12
2.8797324 2.0419846 0.9350214 14
2.8811269 2.0422177 0.80583984 14
2.8826692 2.0425553 0.67867005 16
2.9006166 2.0545118 0.55629295 12
2.8907082 2.0467362 0.43019876 15
2.9015782 2.0536723 0.30765978 13
2.9048767 2.0552459 0.18448423 12
2.90466 2.054332 0.06143247 23
1.5344967 1.0832709 -0.49305049 3
1.7269522 1.2186825 -0.479146 3
2.0326416 1.4338714 -0.47564128 3
2.4447389 1.7239351 -0.46773943 4
2.9517765 2.0807071 -0.43873012 12
2.9384463 2.0705431 -0.31114647 14
2.9173653 2.0549269 -0.18439196 12
2.9212275 2.0568845 -0.061077867 13
2.9026413 2.0430398 0.94019437 13
2.9041762 2.0433624 0.81033546 13
2.9058406 2.0437753 0.68248284 15
2.9239304 2.0557358 0.5594182 12
2.9140761 2.0480475 0.43263614 14
2.9209561 2.0521214 0.30896711 13
2.9202056 2.0508327 0.18500759 12
2.924088 2.0527976 0.061694253 23
1.5382687 1.0779079 -0.49305049 3
1.7311957 1.212647 -0.479146 3
2.0336142 1.4239523 -0.47468811 3
2.4507418 1.7153909 -0.46773943 4
2.9712203 2.0789261 -0.44055817 13
2.957901 2.0688379 -0.31245384 15
2.9367974 2.0533144 -0.18517439 12
2.9406826 2.0552669 -0.061337039 12
2.9216328 2.0411937 0.94407409 13
2.9272687 2.0443711 0.81483108 13
2.9290552 2.0448582 0.68629557 8
2.947288 2.0568221 0.56254345 4
2.9374881 2.0492208 0.43507352 14
2.9444442 2.0533094 0.31071022 13
2.9437311 2.0520484 0.18605432 12
2.9476421 2.0540106 0.062043298 22
1.5420218 1.0725318 -0.49305049 3
1.7354181 1.2065966 -0.479146 3
2.046633 1.4224474 -0.47659451 3
2.4567146 1.7068257 -0.46773943 4
2.9906874 2.0770345 -0.44238621 14
2.9773793 2.0670218 -0.31376114 15
2.9603555 2.0544374 -0.18621762 13
2.9601617 2.0535378 -0.061596207 12
2.9446158 2.0419919 0.94924712 13
2.9504035 2.045243 0.8193267 13
2.9644158 2.0541906 0.69296789 3
2.9747486 2.0605824 0.56645 4
2.9527836 2.0446048 0.43629223 15
2.9638805 2.0515234 0.31201756 13
2.9631944 2.0502837 0.18683936 13
2.9712403 2.055084 0.062392347 22
1.5338329 1.0589111 -0.48916823 3
1.7396193 1.2005315 -0.479146 3
2.0475454 1.4125074 -0.47564128 3
2.4585922 1.6954362 -0.46695724 3
3.0101774 2.0750325 -0.44421425 14
3.0009825 2.0679214 -0.31550428 14
2.979845 2.0525889 -0.18700007 12
2.9796646 2.0516982 -0.061855379 13
2.9676397 2.0426548 0.95442015 14
2.9695656 2.0432167 0.82269841 13
2.9958329 2.0605195 0.69868702 3
2.9982011 2.0613778 0.56957525 3
2.9558127 2.0314744 0.43568286 14
2.9874454 2.0524471 0.31376067 13
2.9867971 2.0512347 0.18788607 13
2.9948821 2.0560181 0.062741399 23
1.5534559 1.0644704 -0.49434459 3
1.7437993 1.1944517 -0.479146 3
2.0605633 1.4108975 -0.47754765 3
2.4604201 1.6840546 -0.46617511 3
3.0337851 2.0757215 -0.44665164 13
3.0205166 2.0658693 -0.31681162 14
3.0034792 2.0534475 -0.1880433 12
2.9991908 2.0497472 -0.062114555 14
2.9907041 2.0431814 0.95959312 13
2.9927731 2.043829 0.82719404 13
3.0394909 2.0749557 0.70726568 6
3.0257747 2.0648181 0.5734818 22
2.9669855 2.0239408 0.43629223 8
3.0110526 2.0532315 0.31550378 14
3.0104423 2.0520456 0.18893279 12
3.0185659 2.0568116 0.063090444 21
nan nan nan 0
1.7479581 1.1883575 -0.479146 3
nan nan nan 0
2.4621985 1.6726807 -0.46539292 3
3.0492234 2.0706952 -0.44787034 11
3.044194 2.0665033 -0.31855473 14
3.0271556 2.0541656 -0.18908653 13
3.0270133 2.0532973 -0.062546499 12
3.013808 2.0435719 0.9647662 14
3.016021 2.0443041 0.83168966 12
3.0589056 2.072593 0.71012527 26
3.0452306 2.062552 0.57582569 17
2.9493759 1.996878 0.43263614 3
3.0305765 2.0510838 0.31681114 13
3.0341291 2.0527163 0.18997951 13
3.0422916 2.0574646 0.063439496 22
nan nan nan 0
1.7480572 1.1795237 -0.47802129 3
nan nan nan 0
2.4639275 1.661315 -0.46461076 3
3.0646634 2.0655861 -0.44908902 8
3.0637815 2.064214 -0.31986207 14
3.0508738 2.0547433 -0.19012977 10
3.0548973 2.0566781 -0.062978454 15
3.0329437 2.0411291 0.96864593 12
3.0393085 2.044642 0.83618528 12
3.0620489 2.0591638 0.70917213 22
3.0606091 2.05742 0.57738835 18
3.009877 2.0225539 0.44055766 26
3.0542564 2.0516021 0.31855425 13
3.0578575 2.0532465 0.19102623 16
3.0660586 2.0579767 0.063788541 30
nan nan nan 0
1.7683557 1.1842583 -0.48252031 3
2.062989 1.3810511 -0.47468811 3
2.4656072 1.6499575 -0.46382856 4
3.0801048 2.0603943 -0.45030773 6
3.0875306 2.0645816 -0.32160518 15
3.0704811 2.0524056 -0.19091219 16
3.0828414 2.0598896 -0.063410401 15
3.0561156 2.0412602 0.9738189 17
3.0626347 2.0448418 0.8406809 15
3.0773833 2.0539124 0.71107846 17
3.0759885 2.0522058 0.57895094 15
3.0416913 2.0285566 0.44421375 25
3.0738325 2.049217 0.31986156 14
3.0816259 2.0536358 0.19207294 14
3.0857053 2.0555768 0.064050324 30
nan nan nan 0
1.7846509 1.1861686 -0.48589453 3
nan nan nan 0
2.4754658 1.6440732 -0.46461076 4
3.0748744 2.0413957 -0.44847968 4
3.1071689 2.0620544 -0.32291251 14
3.09427 2.0527163 -0.19195542 15
3.1025121 2.0574043 -0.063669577 14
3.0752993 2.0385859 0.97769868 17
3.0819376 2.042212 0.84405261 15
3.0886257 2.0458682 0.71203166 12
3.0954866 2.0496354 0.58129489 12
3.0777218 2.0371003 0.44847915 17
3.0975831 2.0494688 0.32160467 13
3.10127 2.0511301 0.192858 13
3.1053724 2.0530643 0.064312115 25
nan nan nan 0
1.7887806 1.1799318 -0.48589453 3
2.0602872 1.3585094 -0.47182852 3
2.4894361 1.6408578 -0.46617511 3
3.1358547 2.0661454 -0.4564012 8
3.1309872 2.0621548 -0.32465565 15
3.1139281 2.0501401 -0.19273785 13
3.118027 2.0520589 -0.063842356 12
3.0985367 2.0384567 0.98287171 15
3.1053302 2.0421495 0.84854823 14
3.1039512 2.0404668 0.713938 11
3.1108768 2.0442419 0.58285755 13
3.1014054 2.0372431 0.45091653 17
3.1172092 2.0468457 0.32291204 14
3.125108 2.0512516 0.19390471 10
3.1250596 2.0504396 0.064573899 22
nan nan nan 0
nan nan nan 0
nan nan nan 0
2.5075469 1.6402682 -0.4685216 4
3.1845834 2.0823464 -0.46249467 7
3.1506746 2.0593889 -0.32596299 15
3.1336052 2.0474513 -0.19352028 13
3.1377277 2.0493636 -0.064101525 12
3.1177659 2.0355494 0.98675144 15
3.1287599 2.0419486 0.85304385 14
3.1233876 2.0376654 0.71679759 10
3.1304033 2.0414636 0.58520144 11
3.1251276 2.0372455 0.45335394 17
3.1410277 2.0468295 0.32465515 15
3.1448007 2.0485065 0.19468975 13
3.1447661 2.0477023 0.064835683 21
nan nan nan 0
nan nan nan 0
2.0491388 1.3307267 -0.46706262 3
2.5132573 1.6315053 -0.4685216 3
3.195996 2.0739188 -0.46310404 8
3.1745594 2.059221 -0.3277061 15
3.1574917 2.0473669 -0.19456352 12
3.1574476 2.0465558 -0.064360693 13
3.1410656 2.0351591 0.99192441 14
3.1481364 2.0389605 0.85641557 13
3.1469622 2.03742 0.72061038 10
3.1540945 2.0412567 0.58832669 13
3.1488872 2.037107 0.45579132 16
3.1690662 2.049377 0.32683405 12
3.1645117 2.0456483 0.19547479 13
3.1686902 2.0475655 0.065184735 19
nan nan nan 0
nan nan nan 0
2.0826514 1.3421776 -0.47373492 2
2.5147853 1.6200479 -0.46773943 4
3.2157333 2.0708108 -0.46493205 7
3.1984806 2.0589111 -0.32944921 15
3.1814151 2.0471406 -0.19560675 12
3.1813905 2.0463395 -0.064706258 13
3.1644011 2.0346313 0.99709749 14
3.1716285 2.0384958 0.86091119 13
3.1664429 2.0343821 0.72346991 10
3.1778224 2.0409095 0.59145188 13
3.1726835 2.0368271 0.45822871 14
3.1929686 2.0490632 0.32857716 13
3.1884439 2.0453739 0.19652151 12
3.1968601 2.0499852 0.065621048 23
nan nan nan 0
nan nan nan 0
2.0955939 1.3401886 -0.47564128 3
2.5204251 1.6112599 -0.46773943 3
3.2354875 2.0675902 -0.4667601 6
3.2182412 2.0557783 -0.33075655 15
3.2011666 2.0440845 -0.19638918 14
3.2053699 2.0459812 -0.065051816 14
3.1877706 2.0339646 1.0022705 15
3.1951554 2.0378919 0.86540681 13
3.1900797 2.0338714 0.72728264 11
3.2015858 2.0404212 0.59457713 10
3.196516 2.0364058 0.46066609 14
3.2169073 2.0486073 0.33032027 12
3.2124126 2.0449572 0.19756822 11
3.2166493 2.0468652 0.065882832 18
nan nan nan 0
nan nan nan 0
nan nan nan 0
2.4759927 1.570707 -0.45835334 4
3.2510672 2.061599 -0.46797881 6
3.2422254 2.0551987 -0.33249965 15
3.2251532 2.0435882 -0.19743241 11
3.2293856 2.0454803 -0.065397382 11
3.2111735 2.0331595 1.0074435 13
3.2187169 2.0371487 0.86990243 10
3.2137516 2.0332203 0.73109537 8
3.2253842 2.0397921 0.59770238 13
3.2203841 2.0358431 0.4631035 14
3.2366705 2.0453482 0.33162761 11
3.2364171 2.0443976 0.19861494 9
3.2533641 2.0543084 0.066493668 33
nan nan nan 0
nan nan nan 0
2.1256659 1.3386037 -0.48040724 4
2.5483298 1.6041483 -0.47086814 3
3.2792456 2.0634534 -0.47102556 5
3.2662446 2.054477 -0.33424279 15
3.2491751 2.042949 -0.19847564 14
3.2534366 2.044836 -0.06574294 17
3.2305202 2.0296462 1.0113232 16
3.2423115 2.0362654 0.87439805 16
3.2333002 2.029819 0.73395497 15
3.2492175 2.0390213 0.60082763 13
3.244287 2.0351381 0.46554089 15
3.2606702 2.0446222 0.33337072 14
3.2562261 2.0410438 0.19939999 17
3.2647514 2.045594 0.066580921 29
nan nan nan 0
nan nan nan 0
2.072051 1.2947617 -0.46706262 3
2.516217 1.5716968 -0.46382856 4
3.2864285 2.0519943 -0.47102556 6
3.2902982 2.0536125 -0.3359859 15
3.2732317 2.0421669 -0.19951887 17
3.2775223 2.044049 -0.066088498 15
3.2539797 2.0285778 1.0164962 20
3.2618043 2.0326655 0.87776977 17
3.2570305 2.0289011 0.73776776 13
3.268892 2.0354984 0.60317159 11
3.268224 2.034291 0.46797827 19
3.2804749 2.0411222 0.33467805 13
3.2802904 2.0402131 0.20044671 13
3.2761176 2.0368252 0.06666819 28
nan nan nan 0
nan nan nan 0
2.1057584 1.3056259 -0.47373492 4
nan nan nan 0
3.3188834 2.0561919 -0.47468162 4
3.3143852 2.0526047 -0.33772904 15
3.2973228 2.0412416 -0.20056213 14
3.3016422 2.0431185 -0.066434063 15
3.2692559 2.0222886 1.0190828 11
3.2854552 2.0315163 0.88226539 15
3.2807932 2.027842 0.74158049 12
3.2927828 2.0344584 0.60629684 13
3.2879725 2.0306935 0.46980631 10
3.304533 2.0401251 0.33642116 14
3.3001397 2.0366173 0.20123175 14
3.2874625 2.0280015 0.066755451 25
nan nan nan 0
nan nan nan 0
nan nan nan 0
nan nan nan 0
3.2960923 2.0269771 -0.47041619 4
3.3381469 2.0520365 -0.33947214 15
3.3168361 2.0381384 -0.20134455 14
3.3211784 2.0400083 -0.066693231 11
3.2965238 2.0240722 1.0255491 9
3.3087833 2.0308044 0.88676101 14
3.3042345 2.0272186 0.74539322 11
3.3121409 2.0312738 0.60864073 13
3.3116121 2.0301542 0.4722437 12
3.3240213 2.0369635 0.3377285 15
3.3239064 2.0360951 0.20227847 14
3.2941694 2.0170887 0.066755451 30
nan nan nan 0
nan nan nan 0
nan nan nan 0
nan nan nan 0
3.286202 2.0051196 -0.46797881 4
3.3622992 2.0507464 -0.34121525 15
3.3409834 2.0369453 -0.20238778 14
3.345355 2.0388095 -0.067038789 13
3.3283176 2.0276296 1.0333085 3
3.3324969 2.0293782 0.89125663 14
3.3280613 2.0258811 0.74920601 12
3.3403058 2.0325358 0.61254728 13
3.3356388 2.028898 0.47468108 12
3.3481355 2.0356989 0.33947161 14
3.3480611 2.0348535 0.20332518 13
3.3310981 2.0237477 0.067366287 28
1.6061538 0.97387147 -0.49305049 3
nan nan nan 0
nan nan nan 0
nan nan nan 0
3.2974265 1.9962066 -0.46858817 4
3.386483 2.0493124 -0.34295839 15
3.3694351 2.0381925 -0.20369184 14
3.3695633 2.0374668 -0.067384355 15
3.3601758 2.0309896 1.0410681 27
3.3604102 2.0303307 0.89687616 14
3.3561199 2.0269392 0.75397193 12
3.3642914 2.0310729 0.61567253 12
3.3596961 2.0274987 0.47711846 12
3.3722813 2.0342908 0.34121475 14
3.3722472 2.0334675 0.2043719 13
3.3638315 2.0275924 0.067889854 25
nan nan nan 0
1.8322541 1.1018002 -0.48476982 3
nan nan nan 0
nan nan nan 0
3.3171377 1.9923501 -0.47041619 4
3.4106975 2.0477343 -0.3447015 14
3.3936546 2.0366964 -0.20473507 12
3.3938029 2.0359797 -0.067729913 15
3.3920977 2.0341518 1.0488275 21
3.3841922 2.0286081 0.90137172 13
3.3800161 2.0253029 0.75778466 11
3.3925445 2.0320053 0.61957908 15
3.3880424 2.0285056 0.48016518 11
3.3964574 2.0327384 0.34295785 14
3.4007492 2.0345011 0.2056803 14
3.396632 2.0312331 0.068413429 34
1.6129136 0.96263474 -0.49305049 3
1.8193535 1.0854136 -0.4802708 3
2.1280026 1.2690481 -0.47373492 2
2.5440738 1.5165728 -0.4630464 3
3.3453882 1.9934608 -0.47346294 4
3.4392214 2.0485613 -0.34688041 15
3.422195 2.0376103 -0.2060391 17
3.4223688 2.0369048 -0.068161868 18
3.4157805 2.0321765 1.0540005 18
3.4080026 2.0267439 0.90586734 17
3.4039416 2.0235245 0.76159745 14
3.416599 2.0302422 0.62270433 15
3.4121697 2.0268042 0.48260257 13
3.4249468 2.0335853 0.34513673 14
3.4250054 2.0328116 0.20672701 16
3.425199 2.0321183 0.068849742 36
1.6079525 0.95207751 -0.4904623 3
1.8273237 1.0815377 -0.48139551 3
2.1324196 1.2616122 -0.47373492 2
2.566355 1.5177386 -0.46617511 3
3.3694146 1.991873 -0.47590032 4
3.4635041 2.0466797 -0.34862351 15
3.4464834 2.0358102 -0.20708236 15
3.4466774 2.0351136 -0.068507425 15
3.439491 2.0300605 1.0591736 17
3.4318409 2.0247381 0.91036296 17
3.4321234 2.024097 0.76636338 14
3.4449368 2.0308435 0.62661088 13
3.4406018 2.0274787 0.48564932 13
3.4491916 2.0317299 0.34687987 14
3.453594 2.0335109 0.20803542 14
3.4451969 2.0277572 0.069111526 29
1.6112661 0.94645888 -0.4904623 3
1.8394903 1.0800861 -0.48364502 3
2.1325774 1.2516766 -0.47278175 3
2.563118 1.503773 -0.46461076 3
3.3934705 1.9901419 -0.47833771 3
3.4921126 2.0471728 -0.35080242 16
3.4751086 2.0363898 -0.20838639 14
3.471015 2.0331769 -0.068852983 15
3.463228 2.0278039 1.0643466 12
3.4599121 2.0250514 0.91598248 14
3.4561141 2.0220187 0.77017617 11
3.4690571 2.0287788 0.62973613 12
3.4647958 2.025475 0.48808673 13
3.473465 2.0297296 0.34862298 15
3.4779172 2.031517 0.20908214 13
3.469523 2.0258019 0.069460578 27
1.6103871 0.93839711 -0.48916823 3
1.8432492 1.0736585 -0.48364502 3
2.1411753 1.2466944 -0.47373492 3
2.5726197 1.4973009 -0.46539292 3
3.4175551 1.9882666 -0.48077509 3
3.5164604 2.0449865 -0.35254553 16
3.4994631 2.0342846 -0.20942962 14
3.4953809 2.0310953 -0.069198549 15
3.4869912 2.0254061 1.0695195 13
3.483813 2.022747 0.92047811 15
3.4801316 2.0197978 0.7739889 11
3.4974766 2.0290482 0.63364267 12
3.4933097 2.0258162 0.49113342 13
3.5020752 2.0300827 0.35080189 15
3.5022681 2.0293777 0.21012886 13
3.4938769 2.0237012 0.069809623 27
1.6178343 0.9351871 -0.4904623 3
1.8469857 1.0672178 -0.48364502 3
2.145514 1.2392128 -0.47373492 3
2.5778306 1.4883116 -0.46539292 3
3.4373693 1.9837669 -0.48260313 4
3.5408354 2.0426552 -0.35428864 15
3.5281703 2.0345285 -0.21073368 14
3.5241055 2.0313649 -0.069630496 14
3.5149643 2.0252786 1.0759858 13
3.5119619 2.022732 0.92609763 14
3.5084295 2.0198822 0.77875489 11
3.5216596 2.0266807 0.63676792 12
3.5175672 2.0235083 0.4935708 13
3.5264125 2.0277777 0.35254499 14
3.5266466 2.0270936 0.21117558 13
3.5225935 2.0239458 0.070245937 28
1.6210889 0.92953414 -0.4904623 3
1.8506998 1.0607642 -0.48364502 3
2.1498265 1.2317159 -0.47373492 3
2.58301 1.4793043 -0.46539292 3
3.4571939 1.979153 -0.48443118 3
3.5695596 2.0426524 -0.35646752 16
3.5525877 2.0321174 -0.21177691 13
3.5485344 2.0289767 -0.069976054 14
3.5387855 2.022583 1.0811589 13
3.5359225 2.0201283 0.93059325 14
3.5325079 2.0173597 0.78256762 12
3.5501573 2.0266173 0.64067447 12
3.5418501 2.0210557 0.49600819 12
3.5551016 2.0277948 0.35472384 15
3.5510516 2.0246634 0.21222229 13
3.5513535 2.0240142 0.070682235 25
1.6243236 0.92386979 -0.4904623 3
1.8543913 1.0542976 -0.48364502 3
2.1541131 1.2242041 -0.47373492 3
2.5881581 1.4702789 -0.46539292 3
3.481343 1.9768751 -0.48686856 3
3.5939958 2.0400152 -0.35821068 16
3.5770309 2.0295603 -0.21282014 13
3.5729895 2.026443 -0.07032162 12
3.5626304 2.0197461 1.0863318 16
3.564146 2.0197835 0.93621284 13
3.5608816 2.0171125 0.78733355 10
3.5786974 2.0263796 0.64458102 14
3.570478 2.0209026 0.49905494 12
3.5794995 2.0251842 0.35646698 14
3.579829 2.0245457 0.21353069 10
3.5801568 2.0239065 0.071118549 38
1.6275387 0.91819429 -0.4904623 3
1.8538165 1.0454251 -0.48252031 3
2.1583731 1.2166774 -0.47373492 3
2.5932746 1.4612355 -0.46539292 3
3.5011942 1.9720173 -0.4886966 4
3.6227961 2.0396755 -0.36038953 16
3.6014996 2.0268576 -0.21386339 16
3.5974698 2.0237632 -0.070667177 22
3.5864987 2.0167673 1.0915048 17
3.5881634 2.0168791 0.94070846 18
3.5892963 2.0166917 0.79209942 17
3.6072788 2.0259671 0.64848763 17
3.5948205 2.0181448 0.50149232 16
3.6082654 2.0248649 0.35864586 15
3.6042929 2.0218084 0.21457741 18
3.6046419 2.0211771 0.071467601 34
1.6308931 0.91222286 -0.4904623 3
1.8576357 1.0386233 -0.48252031 3
2.162818 1.2087585 -0.47373492 3
2.5943017 1.4493124 -0.46461076 3
3.5170648 1.9640108 -0.48991531 3
3.6519942 2.0385225 -0.36256844 16
3.621985 2.0209424 -0.2146458 19
3.622328 2.0203049 -0.071012743 10
3.6107407 2.0130162 1.0966779 23
3.6125546 2.0132008 0.94520408 18
3.6138151 2.0130768 0.79591221 14
3.6319389 2.0223422 0.65161282 14
3.6195381 2.0146098 0.50392967 16
3.6330738 2.0213132 0.36038899 15
3.6291344 2.018292 0.21562412 10
3.6338727 2.020097 0.071903907 29
1.6340674 0.90652442 -0.4904623 3
1.8569894 1.02977 -0.48139551 3
2.1670241 1.2012014 -0.47373492 3
2.5993447 1.4402478 -0.46461076 3
3.5195577 1.9493175 -0.48930594 3
3.6765184 2.0354123 -0.36431155 16
3.6464927 2.0179579 -0.21568903 10
3.6424816 2.0149078 -0.071271911 10
3.6346521 2.0097485 1.1018509 11
3.6408801 2.0123625 0.95082361 10
3.6423013 2.0123181 0.80067813 13
3.6562686 2.019202 0.65473807 13
3.6439273 2.0115566 0.50636709 13
3.6619124 2.0206511 0.36256787 15
3.6536458 2.0152578 0.21667084 10
3.6584172 2.0170493 0.072252959 30
1.6372218 0.90081495 -0.4904623 3
1.8605727 1.0232816 -0.48139551 3
2.1669028 1.1912653 -0.47278175 3
2.6043565 1.4311656 -0.46461076 3
3.5263407 1.9370202 -0.48930594 3
3.7010651 2.0321558 -0.36605468 16
3.6710229 2.0148265 -0.21673228 9
3.6670246 2.0117993 -0.071617477 9
3.6585848 2.0063384 1.1070238 12
3.6649716 2.0090089 0.95531923 11
3.6665215 2.0090263 0.80449092 13
3.6849515 2.0182886 0.65864456 13
3.668339 2.0083575 0.50880444 14
3.6907914 2.0198126 0.36474678 15
3.6781805 2.0120771 0.21771757 10
3.6873643 2.0162649 0.072689272 29
1.6403563 0.89509451 -0.4904623 3
1.8641331 1.0167809 -0.48139551 3
2.1710479 1.1836941 -0.47278175 3
2.6093361 1.422066 -0.46461076 3
3.5287223 1.9223249 -0.4886966 3
3.7300088 2.0311346 -0.36823359 16
3.6955762 2.0115485 -0.21777551 10
3.6959817 2.0109329 -0.072049424 10
3.6867809 2.0050933 1.1134901 11
3.6890838 2.0055115 0.95981485 10
3.6907623 2.0055895 0.80830365 12
3.7093337 2.0148427 0.66176987 13
3.6971335 2.0073805 0.51185119 13
3.7153301 2.0164208 0.36648989 15
3.7071259 2.0111306 0.21902597 9
3.7119582 2.0129137 0.073038317 30
1.6434708 0.88936311 -0.4904623 3
1.867671 1.0102676 -0.48139551 3
2.1751666 1.1761086 -0.47278175 3
2.6142843 1.4129491 -0.46461076 3
3.561609 1.9241489 -0.49235269 3
3.7546067 2.0275691 -0.3699767 16
3.724545 2.0104954 -0.21907955 10
3.7249765 2.0098889 -0.072481371 10
3.7107615 2.0013828 1.1186632 11
3.7175045 2.0041821 0.96543437 10
3.715024 2.002008 0.81211638 12
3.7380831 2.0135927 0.66567636 13
3.7215965 2.0038738 0.5142886 12
3.7442768 2.0152431 0.36866879 15
3.7317119 2.0076406 0.22007269 10
3.7409768 2.0117831 0.073474631 34
1.6465652 0.88362092 -0.4904623 3
1.8668929 1.0014391 -0.4802708 3
2.1792586 1.1685086 -0.47278175 3
2.6192005 1.4038149 -0.46461076 3
3.6120486 1.9351411 -0.49844614 4
3.7748346 2.0215051 -0.37128401 19
3.7535515 2.0092647 -0.2203836 12
3.754009 2.0086668 -0.072913326 14
3.7390201 1.9998071 1.1251295 12
3.7416639 2.0003815 0.96992999 11
3.7436349 2.0005951 0.81688237 14
3.7625136 2.0098398 0.66880161 16
3.7504578 2.0025585 0.51733536 14
