# .PCD v0.7 - Point Cloud Data file format
VERSION 0.7
FIELDS x y z intensity
SIZE 4 4 4 4
TYPE F F F F
COUNT 1 1 1 1
WIDTH 1413
HEIGHT 1
VIEWPOINT 0 0 0 1 0 0 0
POINTS 1413
DATA ascii
3.6011057 -2.0473757 0.50392967 25
3.6008735 -2.0480754 0.35908166 20
3.6092348 -2.0536649 0.21562412 18
3.6045489 -2.0518315 0.071729392 18
1.6441697 -0.93781781 -0.49693277 6
1.8696587 -1.066867 -0.48814404 4
2.1943853 -1.2526706 -0.4832668 4
2.6705837 -1.5251279 -0.48103639 3
3.5278649 -2.0155241 -0.49418074 4
3.6052251 -2.0605559 -0.35995379 8
3.609293 -2.0637167 -0.21516743 21
3.6045938 -2.0618646 -0.071099132 24
3.6006067 -2.0604181 1.1005577 23
3.5933537 -2.0571001 0.94632798 21
3.5896699 -2.0558233 0.79591221 18
3.5941057 -2.0591967 0.64926887 18
3.5982428 -2.0624015 0.50453907 26
3.602345 -2.065588 0.35995322 20
3.6107068 -2.0712199 0.2161475 18
3.6017008 -2.0668895 0.071816646 17
1.6408861 -0.9435513 -0.49693277 7
1.8659232 -1.0733868 -0.48814404 4
2.1899993 -1.2603228 -0.4832668 3
2.6695237 -1.5369047 -0.48181856 3
3.5294087 -2.0327799 -0.49539945 3
3.6066418 -2.0781012 -0.36082533 7
3.6063936 -2.0787966 -0.21542825 21
3.6060364 -2.0794294 -0.071271911 23
3.5975759 -2.0753872 1.1018509 23
3.5945902 -2.0745013 0.94857574 22
3.5909736 -2.0732496 0.7978186 17
3.595449 -2.0766702 0.65083152 17
3.5996161 -2.079915 0.50575775 27
3.5994248 -2.0806425 0.36038899 19
3.6077766 -2.0863104 0.21640916 17
3.6031187 -2.084456 0.071991175 17
1.6375824 -0.94927335 -0.49693277 7
1.8621651 -1.0798936 -0.48814404 3
2.1813412 -1.2654967 -0.48231363 3
2.6641426 -1.5462137 -0.48181856 3
3.5265832 -2.0475793 -0.49600875 3
3.603673 -2.0931797 -0.36126113 8
3.6077492 -2.0963898 -0.21594985 21
3.6030779 -2.0945165 -0.071358308 23
3.5986602 -2.0927889 1.1044375 22
3.5915384 -2.0894861 0.94969964 23
3.5879567 -2.0882406 0.7987718 18
3.5924461 -2.0916929 0.65161282 17
3.5966218 -2.094965 0.50636709 26
3.6007473 -2.0982096 0.36126056 20
3.6047862 -2.1014061 0.21667084 17
3.6001391 -2.099539 0.072078437 17
1.6342589 -0.95498377 -0.49693277 7
1.8583841 -1.0863872 -0.48814404 3
2.1769106 -1.2731035 -0.48231363 3
2.6544666 -1.55301 -0.48103639 3
3.5236974 -2.0623837 -0.49661812 3
3.6049416 -2.1107798 -0.36213264 7
3.6047182 -2.1114941 -0.21621066 21
3.6043711 -2.1121359 -0.07153108 24
3.5955 -2.1077805 1.1057307 23
3.5926282 -2.1069396 0.95194751 22
3.5891125 -2.1057198 0.80067813 18
3.593641 -2.1092198 0.65317541 18
3.5935667 -2.1100194 0.50697643 25
3.5976963 -2.1132886 0.36169636 20
3.6060388 -2.1190357 0.21719421 17
3.5970976 -2.1146262 0.07216569 17
1.6309154 -0.96068263 -0.49693277 6
1.8503833 -1.090394 -0.48701933 3
2.1724532 -1.2806945 -0.48231363 3
2.6490295 -1.5622663 -0.48103639 3
3.5164769 -2.0746713 -0.49661812 3
3.601841 -2.1258824 -0.36256844 7
3.6059246 -2.1291413 -0.21673228 18
3.6012812 -2.1272473 -0.071617477 24
3.5964363 -2.1252322 1.1083171 24
3.5894456 -2.1219466 0.95307136 20
3.5901899 -2.1232324 0.80258459 18
3.590507 -2.1242659 0.65395677 17
3.5947211 -2.1276062 0.50819516 25
3.5988691 -2.1309097 0.36256787 19
3.6029158 -2.1341548 0.21745588 17
3.5982964 -2.132267 0.07234022 17
1.627552 -0.96636969 -0.49693277 6
1.8465658 -1.0968465 -0.48701933 3
2.1637502 -1.2857625 -0.48136041 3
2.6435599 -1.5715038 -0.48103639 3
3.513479 -2.0894701 -0.49722749 3
3.6029599 -2.1435359 -0.36344001 7
3.6027615 -2.1442692 -0.21699309 21
3.6024241 -2.1449201 -0.071790248 23
3.5931456 -2.140245 1.1096104 24
3.5903876 -2.139451 0.95531923 24
3.5869725 -2.1382647 0.80353767 17
3.591553 -2.141845 0.65551931 17
3.5915341 -2.1426835 0.50880444 26
3.5999634 -2.1485643 0.36343947 19
3.6040187 -2.1518378 0.21797925 16
3.5951238 -2.1473782 0.072427489 17
1.6200247 -0.96956474 -0.4956387 6
1.8427259 -1.1032856 -0.48701933 4
2.1592488 -1.2933075 -0.48136041 3
2.6380582 -1.580722 -0.48103639 3
3.5061641 -2.1017218 -0.49722749 3
3.5997269 -2.1586609 -0.36387578 7
3.6038187 -2.1619699 -0.21751472 20
3.5992017 -2.1600544 -0.071876645 24
3.5939345 -2.1577466 1.1121969 24
3.5870743 -2.1544797 0.95644313 22
3.5879011 -2.1558285 0.80544412 18
3.5882878 -2.1569133 0.65630066 17
3.5925393 -2.1603224 0.51002318 28
3.5967095 -2.1636848 0.36387521 20
3.6007638 -2.1669798 0.21824093 16
3.5961714 -2.165071 0.072602004 17
1.6166304 -0.97521383 -0.4956387 5
1.8388635 -1.1097112 -0.48701933 4
2.1505191 -1.2983001 -0.48040724 3
2.6325245 -1.5899209 -0.48103639 3
3.4988062 -2.1139476 -0.49722749 3
3.6006956 -2.1763663 -0.36474735 7
3.6005223 -2.1771195 -0.21777551 21
3.6001954 -2.1777802 -0.072049424 23
3.594645 -2.1752799 1.1147834 23
3.5878673 -2.1720338 0.95869088 21
3.5845528 -2.1708822 0.80639732 18
3.5891848 -2.1745436 0.65786332 17
3.5934639 -2.177994 0.51124185 26
3.5976536 -2.181392 0.36474678 20
3.6017156 -2.1847146 0.21876429 16
3.5928662 -2.1802046 0.072689272 17
1.6173432 -0.98336005 -0.49693277 6
1.8349787 -1.1161232 -0.48701933 4
2.1459742 -1.305799 -0.48040724 3
2.6269586 -1.5991004 -0.48103639 3
3.4871671 -2.1235666 -0.49661812 3
3.5973306 -2.1915133 -0.36518314 7
3.6014287 -2.1948717 -0.21829714 21
3.6011083 -2.1955385 -0.072222203 23
3.5952771 -2.1928442 1.1173699 23
3.5885818 -2.1896198 0.96093875 22
3.5853317 -2.1884956 0.80830365 18
3.5900016 -2.1922064 0.65942591 17
3.5943098 -2.1956985 0.51246059 27
3.5942676 -2.1965344 0.36518258 18
3.5983279 -2.1998782 0.21902597 17
3.5937636 -2.1979494 0.072863787 17
1.6139008 -0.98899966 -0.49693277 5
1.8310715 -1.1225218 -0.48701933 3
2.137219 -1.3107158 -0.47945404 3
2.6213605 -1.6082604 -0.48103639 3
3.4797332 -2.1357265 -0.49661812 3
3.5981481 -2.2092693 -0.36605468 7
3.598 -2.2100432 -0.21855795 19
3.5976818 -2.2107127 -0.072308592 23
3.59583 -2.2104392 1.1199565 21
3.5892167 -2.2072372 0.9631865 20
3.5818512 -2.2035697 0.80925685 17
3.5865333 -2.2073128 0.66020721 17
3.5908496 -2.2108335 0.51306993 24
3.5950601 -2.2142913 0.36605412 20
3.5991287 -2.2176638 0.21954931 17
3.5903249 -2.2131038 0.072951056 16
1.6104387 -0.99462718 -0.49693277 5
1.827142 -1.1289065 -0.48701933 3
2.1326306 -1.318168 -0.47945404 3
2.6157308 -1.6174009 -0.48103639 3
3.4722571 -2.1478598 -0.49661812 4
3.5946503 -2.224437 -0.36649045 7
3.5987544 -2.2278452 -0.21907955 19
3.5984433 -2.2285216 -0.072481371 24
3.5921979 -2.2255213 1.1212497 23
3.5856311 -2.2223191 0.96431047 21
3.5824809 -2.2212324 0.81116331 18
3.5872006 -2.2250257 0.66176987 17
3.5915437 -2.2285876 0.5142886 24
3.5957727 -2.2320812 0.36692569 18
3.5956078 -2.2328477 0.21981101 17
3.5910711 -2.2308993 0.073125578 16
1.606957 -1.0002426 -0.49693277 4
1.8231903 -1.1352775 -0.48701933 3
2.1238501 -1.323009 -0.47850087 3
2.610069 -1.6265217 -0.48103639 3
3.4605269 -2.1573417 -0.49600875 3
3.5953162 -2.2422426 -0.36736199 7
3.5994284 -2.2456799 -0.21960118 20
3.5991244 -2.2463632 -0.072654158 21
3.5926008 -2.2431626 1.1238362 23
3.5861166 -2.239984 0.96655822 22
3.5788674 -2.2363245 0.81211638 18
3.5877869 -2.242769 0.66333246 17
3.5921586 -2.2463737 0.51550734 25
3.5964048 -2.2499022 0.36779723 19
3.596257 -2.2506833 0.22033437 17
3.5874987 -2.2460735 0.07321284 17
1.6034558 -1.0058459 -0.49693277 4
1.8233429 -1.1442243 -0.48814404 3
2.1233761 -1.3330244 -0.47945404 3
2.6043756 -1.6356225 -0.48103639 3
3.4529753 -2.1694078 -0.49600875 4
3.5916846 -2.2574296 -0.36779779 7
3.5957944 -2.2608883 -0.21986198 21
3.5954931 -2.2615745 -0.072740547 24
3.5888369 -2.2582622 1.1251295 21
3.5823987 -2.2550836 0.96768212 22
3.5793469 -2.2540348 0.81402284 19
3.584115 -2.2579114 0.66411382 17
3.5884941 -2.2615449 0.51611668 25
3.5927429 -2.2650988 0.36823303 21
3.592602 -2.2658863 0.22059603 17
3.5880928 -2.2639179 0.073387362 16
1.5999348 -1.0114368 -0.49693277 4
1.8193377 -1.1505821 -0.48814404 3
2.122858 -1.3430524 -0.48040724 3
2.5986502 -1.6447036 -0.48103639 3
3.4411888 -2.1787934 -0.49539945 4
3.5921988 -2.2752838 -0.36866936 8
3.5963166 -2.2787714 -0.2203836 20
3.5960214 -2.279464 -0.072913326 24
3.5890901 -2.2759488 1.1277159 22
3.5827336 -2.2727947 0.96992999 21
3.5756009 -2.2691453 0.81497604 19
3.5845504 -2.2757025 0.66567636 17
3.5889561 -2.2793787 0.51733536 26
3.5932231 -2.2829685 0.36910459 18
3.5930986 -2.2837701 0.2211194 17
3.5886059 -2.2817936 0.073561884 17
1.5923214 -1.0144205 -0.4956387 4
1.8112019 -1.1543074 -0.48701933 3
2.1222956 -1.3530931 -0.48136041 3
2.5970571 -1.6564201 -0.48181856 3
3.4335625 -2.1907921 -0.49539945 4
3.5884335 -2.290489 -0.36910516 7
3.5967569 -2.2966855 -0.22090523 20
3.5964692 -2.2973855 -0.073086105 23
3.5851932 -2.2910635 1.1290091 22
3.5829878 -2.2905352 0.97217774 20
3.5759284 -2.2869017 0.81688237 18
3.5849049 -2.2935238 0.66723901 17
3.5851581 -2.2945678 0.51794469 25
3.5936215 -2.3008687 0.36997613 20
3.5935142 -2.3016846 0.22164278 17
3.5848279 -2.2970033 0.073649146 17
1.5887705 -1.0199726 -0.4956387 4
1.8071616 -1.1606225 -0.48701933 3
2.1216891 -1.3631462 -0.48231363 3
2.5912592 -1.6654754 -0.48181856 3
3.4300683 -2.2054479 -0.49600875 4
3.5887942 -2.3083899 -0.3699767 7
3.592917 -2.3119285 -0.22116603 20
3.5968347 -2.3153372 -0.073258884 24
3.5852954 -2.3087943 1.1315957 23
3.5790665 -2.3056669 0.97330165 20
3.5761755 -2.3046875 0.81878877 18
3.5851786 -2.3113759 0.66880161 17
3.5854671 -2.3124478 0.51916337 25
3.5939391 -2.3187997 0.3708477 20
3.593848 -2.3196297 0.22216612 16
3.5851882 -2.3149266 0.073823676 16
1.5852005 -1.0255122 -0.4956387 5
1.8030993 -1.1669236 -0.48701933 3
2.1169178 -1.3705438 -0.48231363 3
2.5854297 -1.6745104 -0.48181856 3
3.422349 -2.2174075 -0.49600875 4
3.5890746 -2.3263218 -0.37084827 8
3.593204 -2.3298891 -0.22168766 19
3.5929251 -2.3305991 -0.073345274 22
3.5853176 -2.3265536 1.1341822 22
3.579169 -2.3234515 0.97554946 20
3.5722249 -2.3198302 0.8197419 17
3.5853713 -2.329257 0.67036426 16
3.5856962 -2.3303583 0.52038211 24
3.5899987 -2.3340459 0.37128344 18
3.594101 -2.3376052 0.22268949 16
3.5854661 -2.33288 0.073998198 17
1.5816112 -1.0310392 -0.4956387 4
1.799015 -1.1732105 -0.48701933 3
2.1121209 -1.377925 -0.48231363 3
2.5712976 -1.6781269 -0.4802542 3
3.414588 -2.2293403 -0.49600875 4
3.5892727 -2.3442833 -0.37171981 7
3.5934095 -2.3478799 -0.22220926 20
3.5931373 -2.3485968 -0.07351806 23
3.5812173 -2.3416977 1.1354754 22
3.5791914 -2.3412652 0.97779727 20
3.5723197 -2.3376603 0.8216483 18
3.5813508 -2.3444631 0.67114562 16
3.5858431 -2.3482981 0.52160072 24
3.5901625 -2.3520222 0.37215504 20
3.590095 -2.3528736 0.22295116 16
3.5856631 -2.3508637 0.074172728 16
1.5780026 -1.0365539 -0.4956387 4
1.7949088 -1.1794831 -0.48701933 3
2.1072981 -1.3852892 -0.48231363 3
2.5654242 -1.6870922 -0.4802542 3
3.4067855 -2.241246 -0.49600875 4
3.5893893 -2.3622746 -0.37259138 7
3.5935328 -2.3659005 -0.22273089 20
3.5932672 -2.3666246 -0.073690839 23
3.5810876 -2.359499 1.138062 23
3.5791333 -2.3591073 0.98004514 20
3.5723333 -2.3555198 0.82355464 17
3.5813904 -2.3623888 0.67270821 17
3.5859084 -2.3662672 0.52281946 24
3.5902443 -2.3700283 0.37302655 19
3.5901933 -2.370894 0.22347453 16
3.5816061 -2.3661211 0.074259989 17
1.5745566 -1.0417811 -0.4956387 4
1.7952576 -1.1878045 -0.48814404 3
2.1070285 -1.3946117 -0.4832668 3
2.5436409 -1.6842376 -0.4771255 3
3.4038649 -2.2546782 -0.49661812 4
3.586102 -2.3762903 -0.37302715 7
3.5902445 -2.3799372 -0.2229917 18
3.5941477 -2.3834274 -0.073863626 23
3.5817068 -2.3760777 1.1406485 24
3.5757632 -2.3730335 0.98116899 20
3.5690048 -2.3694456 0.82450783 17
3.5780652 -2.3763607 0.67348951 17
3.5825906 -2.3802674 0.5234288 24
3.5869296 -2.3840525 0.37346235 18
3.5910432 -2.3876905 0.22399788 17
3.58248 -2.3828988 0.074434511 16
1.5710932 -1.0469967 -0.4956387 4
1.7911004 -1.1940638 -0.48814404 3
2.1021476 -1.4019581 -0.4832668 3
2.5582869 -1.7068105 -0.48103639 3
3.3959739 -2.266546 -0.49661812 4
3.5860705 -2.3943255 -0.37389871 7
3.590219 -2.3980014 -0.22351331 19
3.589962 -2.398736 -0.073950008 23
3.5774064 -2.3912497 1.1419418 21
3.5755584 -2.3909173 0.98341686 20
3.5688717 -2.3873477 0.82641429 17
3.5779567 -2.3943288 0.67505211 17
3.5825078 -2.3982801 0.52464747 23
3.586863 -2.4021022 0.37433392 18
3.5868347 -2.4029899 0.22425956 16
3.5824463 -2.4009562 0.074609034 16
1.5712543 -1.055441 -0.49693277 4
1.7826682 -1.1979033 -0.48701933 3
2.1010687 -1.4123918 -0.48422 3
2.5561118 -1.7189312 -0.48181856 3
3.3876438 -2.2789779 -0.49661812 4
3.585535 -2.4130147 -0.37477025 8
3.58969 -2.4167216 -0.22403494 20
3.5894396 -2.4174631 -0.074122787 22
3.5766287 -2.4097428 1.1445282 22
3.5748513 -2.4094522 0.98566461 21
3.5682368 -2.4059 0.82832062 18
3.5773456 -2.41295 0.67661476 17
3.5819213 -2.4169459 0.52586621 24
3.5862916 -2.4208059 0.37520546 18
3.5862799 -2.4217093 0.22478293 16
3.5819073 -2.4196668 0.074783556 16
1.5675607 -1.0609193 -0.49693277 4
1.7784758 -1.2041186 -0.48701933 3
2.1001894 -1.4224697 -0.48517317 3
2.5541847 -1.7306135 -0.48260072 3
3.379668 -2.2907889 -0.49661812 4
3.585336 -2.431107 -0.37564182 7
3.5853643 -2.4320397 -0.22429574 19
3.5892525 -2.4355919 -0.074295565 22
3.5761878 -2.4276383 1.1471148 22
3.5744798 -2.4273903 0.98791248 20
3.5679369 -2.4238572 0.83022702 17
3.5770702 -2.4309742 0.67817736 17
3.5816708 -2.435015 0.52708489 24
3.5860569 -2.4389119 0.37607706 19
3.5819323 -2.4370213 0.22504459 15
3.5817049 -2.4377811 0.074958086 16
1.5638478 -1.0663847 -0.49693277 4
1.7742618 -1.2103193 -0.48701933 3
2.0952113 -1.4297922 -0.48517317 3
2.5522065 -1.7423028 -0.48338288 3
3.3716512 -2.3025723 -0.49661812 4
3.5850534 -2.4492269 -0.37651336 7
3.585098 -2.450175 -0.22481737 19
3.584856 -2.450928 -0.074381955 22
3.5756652 -2.44556 1.1497012 22
3.5740268 -2.4453552 0.99016023 20
3.5675552 -2.4418414 0.83213335 18
3.5767126 -2.4490261 0.67974001 16
3.5772438 -2.4503069 0.52769423 22
3.5816302 -2.4542301 0.3765128 19
3.5816412 -2.4551563 0.22556797 17
3.5772965 -2.4530959 0.07504534 16
1.5561352 -1.0691022 -0.4956387 3
1.7660111 -1.2137458 -0.48589453 3
2.0902076 -1.4370971 -0.48517317 3
2.546109 -1.751201 -0.48338288 3
3.3676817 -2.3171406 -0.49722749 4
3.5846884 -2.4673743 -0.37738496 7
3.584748 -2.4683378 -0.22533897 19
3.5845127 -2.4690983 -0.074554741 22
3.5750608 -2.4635074 1.1522877 23
3.5734918 -2.4633462 0.9924081 20
3.5670912 -2.4598527 0.83403975 17
3.5762727 -2.4671052 0.68130267 16
3.5768378 -2.4684165 0.5289129 23
3.5812399 -2.4723775 0.37738436 17
3.5812662 -2.4733186 0.22609131 17
3.5769377 -2.4712515 0.07521987 16
1.5523938 -1.0745276 -0.4956387 4
1.7617637 -1.2199029 -0.48589453 3
2.0851784 -1.4443846 -0.48517317 3
2.5399809 -1.7600782 -0.48338288 3
3.3595731 -2.328882 -0.49722749 4
3.5801468 -2.4827108 -0.37782073 7
3.5843158 -2.4865284 -0.2258606 18
3.5840864 -2.4872956 -0.07472752 22
3.5743747 -2.4814806 1.1548742 21
3.5728743 -2.4813631 0.99465585 20
3.566545 -2.4778903 0.83594608 18
3.5757494 -2.4852107 0.6828652 17
3.5763485 -2.486553 0.53013164 25
3.5807662 -2.4905512 0.3782559 18
3.5808079 -2.491508 0.22661468 16
3.5764959 -2.489434 0.075394385 16
1.544672 -1.0771773 -0.49434459 3
1.7574947 -1.2260453 -0.48589453 3
2.0801239 -1.4516543 -0.48517317 3
2.5338216 -1.7689335 -0.48338288 3
3.3554919 -2.3434365 -0.49783683 4
3.5796249 -2.5008979 -0.37869227 7
3.5837994 -2.5047455 -0.2263822 17
3.5835769 -2.5055208 -0.074900307 22
3.573607 -2.4994788 1.1574607 20
3.5721753 -2.4994063 0.99690366 20
3.5618947 -2.4931393 0.83689934 17
3.5751436 -2.5033424 0.68442786 16
3.5757771 -2.5047162 0.53135031 24
3.580209 -2.5087521 0.37912747 19
3.5802662 -2.5097241 0.22713803 16
3.5718777 -2.5047739 0.075481653 16
1.5409025 -1.0825627 -0.49434459 3
1.7492185 -1.2293712 -0.48476982 2
2.0750442 -1.4589065 -0.48517317 3
2.5276313 -1.7777674 -0.48338288 3
3.3513501 -2.3579907 -0.49844614 4
3.5790195 -2.5191119 -0.37956384 7
3.5832002 -2.5229895 -0.22690383 17
3.578896 -2.5208933 -0.074986689 21
3.5727565 -2.5175018 1.1600473 24
3.5713933 -2.5174739 0.99915147 20
3.5611932 -2.5112147 0.83880574 18
3.5744545 -2.5215001 0.68599045 17
3.5710666 -2.5200438 0.53195965 25
3.5795686 -2.5269794 0.37999907 18
3.5796416 -2.5279672 0.2276614 16
3.5712793 -2.5229959 0.075656183 16
1.5371144 -1.0879349 -0.49434459 3
1.7488925 -1.2382849 -0.48589453 2
2.0699387 -1.4661409 -0.48517317 3
2.52544 -1.7894349 -0.48416507 3
3.3430986 -2.3696747 -0.49844614 4
3.578331 -2.5373518 -0.38043538 7
3.5825167 -2.5412595 -0.22742546 18
3.5782287 -2.5391567 -0.075159475 23
3.5718238 -2.5355494 1.1626338 20
3.5665562 -2.5327463 1.0002754 21
3.5604081 -2.5293152 0.84071207 18
3.5736823 -2.5396836 0.68755311 17
3.5703382 -2.5382452 0.53317839 24
3.5788438 -2.5452325 0.38087058 19
3.5789328 -2.5462363 0.22818477 16
3.570596 -2.541244 0.075830698 16
1.5334982 -1.093026 -0.49434459 3
1.7447766 -1.2440777 -0.48589453 2
2.0650656 -1.472997 -0.48517317 3
2.5194919 -1.7977996 -0.48416507 2
3.335222 -2.3807478 -0.49844614 3
3.5780044 -2.5549934 -0.38130698 7
3.5821958 -2.5589306 -0.22794707 17
3.577924 -2.5568221 -0.075332254 22
3.5712543 -2.5529978 1.1652203 22
3.5660636 -2.5502276 1.0025232 20
3.5599852 -2.5468197 0.84261847 17
3.5732727 -2.5572686 0.6891157 17
3.5699713 -2.5558486 0.53439701 24
3.5784833 -2.5628872 0.38174218 18
3.5785868 -2.5639064 0.22870812 16
3.5702765 -2.5588953 0.076005228 16
1.5296733 -1.0983723 -0.49434459 3
1.7404233 -1.2501605 -0.48589453 2
2.0599113 -1.4801964 -0.48517317 3
2.5172112 -1.809466 -0.48494723 2
3.3268914 -2.3923752 -0.49844614 4
3.5771506 -2.5732846 -0.38217852 7
3.5813475 -2.5772521 -0.2284687 18
3.5770915 -2.5751374 -0.075505033 21
3.5701597 -2.5710933 1.1678067 21
3.5650458 -2.5683556 1.004771 18
3.5630195 -2.5678406 0.845478 18
3.5723367 -2.5755026 0.69067836 16
3.5690784 -2.5741005 0.53561574 24
3.577594 -2.5811915 0.38261372 18
3.5777128 -2.5822268 0.22923149 16
3.5694287 -2.5771954 0.07617975 16
1.52583 -1.1037053 -0.49434459 3
1.7360489 -1.256228 -0.48589453 2
2.0547318 -1.4873776 -0.48517317 3
2.5108795 -1.8182415 -0.48494723 2
3.3225391 -2.4068851 -0.4990555 4
3.5762131 -2.5916011 -0.38305008 8
3.5804145 -2.5955992 -0.2289903 18
3.5761752 -2.593478 -0.07567782 22
3.5689819 -2.5892122 1.1703933 20
3.5678883 -2.5893693 1.0081428 19
3.5619776 -2.5860291 0.84738433 17
3.5713162 -2.5937607 0.69224095 16
3.5681012 -2.5923772 0.53683442 25
3.5766208 -2.5995209 0.38348529 18
3.5767546 -2.6005723 0.22975484 16
3.5684969 -2.5955203 0.076354273 16
1.5219681 -1.1090246 -0.49434459 3
1.7316532 -1.2622803 -0.48589453 2
2.0495274 -1.494541 -0.48517317 3
2.5085073 -1.8299055 -0.48572943 2
3.3141172 -2.4184682 -0.4990555 4
3.5751905 -2.6099424 -0.38392162 7
3.5793974 -2.613971 -0.22951193 18
3.5792105 -2.6147926 -0.075936988 23
3.5677209 -2.6073539 1.1729797 22
3.566694 -2.6075587 1.0103905 19
3.560853 -2.6042418 0.84929079 17
3.5702124 -2.6120436 0.69380361 17
3.56704 -2.6106784 0.53805315 23
3.5795815 -2.6208169 0.3847926 17
3.5797393 -2.6218925 0.23053987 15
3.5674803 -2.6138704 0.076528795 15
1.5141943 -1.1114726 -0.49305049 3
1.7311633 -1.2712008 -0.48701933 2
2.0442979 -1.5016862 -0.48517317 3
2.4981246 -1.8357265 -0.48494723 2
3.3096535 -2.4329615 -0.49966487 4
3.5740845 -2.6283083 -0.38479319 7
3.578295 -2.6323669 -0.23003353 18
3.578114 -2.6331966 -0.07610976 21
3.5663772 -2.6255188 1.1755663 21
3.5654163 -2.625771 1.0126384 20
3.559644 -2.6224782 0.85119712 18
3.5690236 -2.6303499 0.6953662 17
3.5658939 -2.6290038 0.53927177 24
3.578428 -2.6392088 0.38566414 18
3.5786018 -2.6403015 0.23106325 16
3.5663786 -2.6322446 0.076703325 16
1.5103053 -1.1167514 -0.49305049 3
1.7306323 -1.280133 -0.48814404 2
2.0390437 -1.5088129 -0.48517317 3
2.5075786 -1.8561879 -0.48807591 2
3.3051293 -2.4474528 -0.50027424 3
3.5768952 -2.6496625 -0.38610053 7
3.5771081 -2.6507874 -0.23055516 18
3.5769331 -2.6516252 -0.076282546 23
3.5649493 -2.6437056 1.1781528 22
3.5640545 -2.6440063 1.0148861 18
3.558351 -2.640738 0.85310352 17
3.5677509 -2.6486795 0.69692886 16
3.5646639 -2.6473529 0.54049051 23
3.5771909 -2.6576252 0.38653573 18
3.5733712 -2.6557553 0.23132493 17
3.5651927 -2.6506429 0.07687784 16
1.5025246 -1.1191317 -0.49175641 3
1.7261533 -1.2861663 -0.48814404 2
2.0298293 -1.5129881 -0.48422 3
2.4733713 -1.8442658 -0.48260072 2
3.3005443 -2.4619424 -0.50088358 3
3.5756087 -2.6680901 -0.3869721 7
3.5758357 -2.6692314 -0.23107678 18
3.5756667 -2.6700768 -0.076455325 23
3.5634382 -2.6619143 1.1807393 20
3.5626094 -2.6622641 1.017134 19
3.5609055 -2.6619592 0.85596305 16
3.5663936 -2.6670325 0.69849139 16
3.5633483 -2.665725 0.54170918 24
3.5758679 -2.6760645 0.38740724 19
3.5720732 -2.6741974 0.23184827 16
3.5639215 -2.6690655 0.07705237 16
1.4986091 -1.1243697 -0.49175641 3
1.7216531 -1.2921839 -0.48814404 2
2.0245357 -1.5200644 -0.48422 3
2.4866619 -1.8677173 -0.48651159 2
3.2919302 -2.4734483 -0.50088358 3
3.5742366 -2.6865404 -0.38784364 7
3.5744789 -2.6876988 -0.23159841 17
3.5743153 -2.6885526 -0.076628104 22
3.5618434 -2.680145 1.1833258 18
3.5610793 -2.6805432 1.0193818 19
3.5594339 -2.6802783 0.85786951 17
3.5649517 -2.6854081 0.70005405 17
3.5619488 -2.6841207 0.54292792 24
3.5744598 -2.6945269 0.38827884 18
3.5706902 -2.6926627 0.23237164 16
3.5625648 -2.687511 0.077226892 16
1.5100874 -1.1412417 -0.49693277 3
1.7171321 -1.2981857 -0.48814404 2
1.9918138 -1.5063969 -0.47754765 3
2.4840655 -1.8793657 -0.48729378 2
3.279319 -2.4819293 -0.50027424 3
3.5727799 -2.705014 -0.38871521 7
3.5730357 -2.7061889 -0.23212001 17
3.5728779 -2.7070508 -0.076800883 23
3.5601647 -2.6983967 1.1859124 22
3.5633476 -2.7017882 1.0227535 20
3.5578773 -2.6986187 0.85977584 17
3.5634246 -2.7038062 0.70161664 17
3.5604637 -2.702539 0.54414654 23
3.5729661 -2.7130117 0.38915038 18
3.5692213 -2.7111506 0.23289499 15
3.5651038 -2.7090042 0.077488683 15
1.5099373 -1.1494312 -0.49822688 3
1.7125901 -1.3041718 -0.48814404 2
2.0177786 -1.5371354 -0.48517317 3
nan nan nan 0
3.2824755 -2.5023873 -0.50210226 3
3.5712368 -2.7235098 -0.38958675 7
3.5715077 -2.7247021 -0.23264164 18
3.5713551 -2.7255721 -0.076973669 20
3.5622408 -2.7196 1.189792 22
3.5616388 -2.7201247 1.0250013 18
3.5601368 -2.7199612 0.86263543 17
3.5657361 -2.725225 0.70396066 15
3.5628357 -2.7239933 0.54597467 26
3.5713871 -2.7315192 0.39002195 17
3.567667 -2.7296612 0.23341836 15
3.5635653 -2.7275093 0.077663206 16
nan nan nan 0
1.7041616 -1.3071767 -0.48701933 3
2.0007188 -1.5352055 -0.48231363 3
2.4512975 -1.8816265 -0.48338288 2
3.2461677 -2.4926727 -0.49783683 3
3.5696084 -2.7420278 -0.39045835 7
3.5698929 -2.743237 -0.23316324 17
3.569746 -2.7441151 -0.077146441 21
3.5603833 -2.7379067 1.1923786 21
3.5637069 -2.7414522 1.028373 20
3.5584004 -2.7383587 0.86454177 17
3.5640278 -2.74368 0.70552325 15
3.5611694 -2.7424695 0.54719329 23
3.5736682 -2.7530887 0.39132926 15
3.562072 -2.7451458 0.23368002 16
3.5619416 -2.7460365 0.077837728 15
1.4980537 -1.1569924 -0.49693277 3
1.7034436 -1.3160959 -0.48814404 3
2.0108821 -1.5541862 -0.48612636 2
nan nan nan 0
3.2649257 -2.5252421 -0.50210226 3
3.5639548 -2.7575192 -0.39089411 7
3.568193 -2.7617943 -0.23368487 17
3.5680516 -2.7626805 -0.077319227 20
3.5584412 -2.7562327 1.194965 22
3.5618186 -2.7598436 1.0306208 19
3.5565786 -2.7567773 0.86644816 17
3.5622349 -2.762157 0.70708591 16
3.5633385 -2.7640088 0.54902142 23
3.571907 -2.7716534 0.39220086 19
3.5603564 -2.7636867 0.2342034 16
3.5602312 -2.7645853 0.07801225 14
nan nan nan 0
1.6949944 -1.3190421 -0.48701933 2
nan nan nan 0
nan nan nan 0
nan nan nan 0
3.5621648 -2.7760665 -0.39176565 7
3.5664062 -2.7803724 -0.23420648 15
3.5662708 -2.7812674 -0.077492014 18
3.5602226 -2.7775502 1.1988448 21
3.5598445 -2.778255 1.0328686 17
3.5546715 -2.7752161 0.8683545 17
3.5642476 -2.7836938 0.7094298 15
3.5614901 -2.7825408 0.55024004 23
3.5739837 -2.7933068 0.39350817 16
3.5624883 -2.7853241 0.23498842 16
3.5584352 -2.7831559 0.07818678 16
nan nan nan 0
1.6980485 -1.3309616 -0.48926884 2
nan nan nan 0
nan nan nan 0
3.2315996 -2.5357196 -0.49966487 3
3.5563712 -2.7915592 -0.39220145 6
3.5645337 -2.7989721 -0.23472811 19
3.5683348 -2.8029637 -0.077751182 21
3.5581007 -2.7959292 1.2014314 22
3.5577857 -2.7966859 1.0351164 18
3.5526795 -2.7936754 0.87026095 17
3.5622723 -2.8022251 0.7109924 16
3.5634556 -2.804163 0.55206805 22
3.5720391 -2.8119271 0.39437976 17
3.56059 -2.803921 0.23551179 14
3.5565526 -2.8017473 0.078361295 17
nan nan nan 0
1.6857444 -1.3308431 -0.48701933 3
nan nan nan 0
nan nan nan 0
nan nan nan 0
3.5505126 -2.8070455 -0.39263725 8
3.5625744 -2.8175924 -0.23524971 17
3.5663698 -2.8216057 -0.077923954 18
3.5558941 -2.814327 1.2040178 21
3.5556407 -2.815136 1.0373642 19
3.550601 -2.8121543 0.87216729 16
3.5602107 -2.8207765 0.71255505 16
3.561424 -2.8227496 0.55328679 24
3.5700083 -2.8305681 0.39525127 17
3.5586047 -2.8225384 0.23603514 17
3.5584998 -2.823467 0.078623094 15
nan nan nan 0
1.6963419 -1.3488479 -0.49151835 2
nan nan nan 0
nan nan nan 0
3.1905212 -2.539674 -0.49600875 3
3.5484855 -2.8256278 -0.39350879 7
3.5605288 -2.8362329 -0.23577134 17
3.5682285 -2.8433845 -0.078183129 18
3.553602 -2.8327434 1.2066044 20
3.5572205 -2.8366435 1.040736 17
3.5484374 -2.8306527 0.87407368 17
3.558063 -2.8393476 0.71411759 16
3.5593059 -2.8413565 0.55450547 18
3.5678904 -2.8492291 0.39612287 16
3.5565329 -2.841176 0.23655851 14
3.5564332 -2.842113 0.078797609 15
nan nan nan 0
nan nan nan 0
nan nan nan 0
nan nan nan 0
3.173893 -2.5445874 -0.49479008 4
3.5502574 -2.8473458 -0.3948161 8
3.5583959 -2.8548934 -0.23629294 14
3.5660791 -2.8620808 -0.078355908 23
3.5549905 -2.8542018 1.210484 22
3.5548942 -2.855145 1.0429838 17
3.5500138 -2.8522449 0.87693322 16
3.5596783 -2.861032 0.7164616 15
3.5571017 -2.859983 0.5557242 19
3.5618041 -2.8647873 0.39655861 17
3.5582645 -2.8629637 0.23734355 16
3.5581737 -2.8639138 0.079059392 15
nan nan nan 0
nan nan nan 0
nan nan nan 0
nan nan nan 0
nan nan nan 0
3.5557957 -2.8722408 -0.39655921 7
3.5561762 -2.8735738 -0.23681457 18
3.5677302 -2.8839395 -0.078615077 21
3.5525177 -2.8726678 1.2130706 21
3.5524819 -2.8736649 1.0452316 18
3.5476675 -2.8707943 0.87883967 16
3.5573463 -2.8796544 0.71802419 15
3.5548098 -2.878628 0.55694282 22
3.5595231 -2.8834736 0.39743018 16
3.5560081 -2.8816543 0.23786692 17
3.5598059 -2.8857613 0.079321183 14
nan nan nan 0
nan nan nan 0
nan nan nan 0
nan nan nan 0
3.2176545 -2.6167824 -0.50453967 2
3.5573399 -2.8940659 -0.39786658 6
3.5538695 -2.8922734 -0.23733619 7
3.5653956 -2.9026883 -0.078787863 21
3.5537031 -2.8942006 1.2169503 21
3.5499837 -2.8922019 1.0474794 19
3.5490389 -2.892463 0.8816992 17
3.5587564 -2.9014168 0.72036815 17
3.5524318 -2.8972926 0.55816156 21
3.5571547 -2.9021785 0.39830172 19
3.5536637 -2.9003637 0.23839027 14
3.5613284 -2.907655 0.079582967 16
1.4427339 -1.1800232 -0.48916823 4
nan nan nan 0
nan nan nan 0
nan nan nan 0
3.2085006 -2.6279981 -0.50453967 3
3.5626273 -2.9190931 -0.39960971 5
3.5514755 -2.9109917 -0.23785782 4
3.566839 -2.9246254 -0.079047032 21
3.5510473 -2.9127138 1.2195368 21
3.5511653 -2.9138474 1.0508511 20
3.5503023 -2.9141762 0.88455874 16
3.5562401 -2.920089 0.72193074 17
3.5538013 -2.9191253 0.55998957 24
3.5585482 -2.9240646 0.39960909 16
3.5550895 -2.9222622 0.2391753 14
3.5627413 -2.929594 0.07984475 13
1.4050564 -1.1574155 -0.47752133 4
nan nan nan 0
nan nan nan 0
nan nan nan 0
3.1763384 -2.620234 -0.50088358 3
3.5600994 -2.9378514 -0.40048125 7
3.5528443 -2.9329071 -0.23864023 16
3.5643182 -2.9434249 -0.079219811 17
3.5520294 -2.9343197 1.2234167 20
3.5484841 -2.9324331 1.0530989 19
3.5476744 -2.9328063 0.88646513 16
3.5536375 -2.9387798 0.7234934 16
3.5512376 -2.9378393 0.56120831 21
3.5559943 -2.9428198 0.40048063 16
3.5564063 -2.9442067 0.23996036 14
3.5563436 -2.9452012 0.079932019 12
1.4270267 -1.1838992 -0.48658001 4
nan nan nan 0
nan nan nan 0
nan nan nan 0
nan nan nan 0
3.5574841 -2.9566281 -0.40135282 7
3.5502644 -2.9516757 -0.23916186 12
3.5617092 -2.9622421 -0.07939259 21
3.549191 -2.952879 1.2260031 19
3.5494604 -2.9541516 1.0564706 20
3.5487316 -2.9545934 0.88932467 16
3.5509467 -2.9574873 0.72505599 15
3.5523996 -2.9597476 0.56303632 23
3.557179 -2.9647818 0.401788 15
3.553777 -2.9629977 0.2404837 14
3.5498807 -2.9607995 0.08001928 15
1.4228854 -1.1888732 -0.48658001 4
nan nan nan 0
nan nan nan 0
nan nan nan 0
nan nan nan 0
3.5547812 -2.9754224 -0.40222436 6
3.5514243 -2.9736669 -0.23994428 12
3.5590124 -2.9810772 -0.079565376 19
3.549968 -2.9745557 1.229883 22
3.5465946 -2.9727833 1.0587184 18
3.5459185 -2.9732699 0.891231 16
3.5481691 -2.9762123 0.72661865 16
3.5534511 -2.9816995 0.56486434 20
3.5544384 -2.9835851 0.40265954 16
3.5548844 -2.9850175 0.24126875 15
3.5433517 -2.9763877 0.080106534 15
nan nan nan 0
nan nan nan 0
nan nan nan 0
nan nan nan 0
nan nan nan 0
3.5519903 -2.9942334 -0.40309593 7
3.5486569 -2.9924834 -0.24046591 11
3.556227 -2.9999292 -0.079738148 22
3.5469456 -2.9931593 1.2324693 21
3.5473647 -2.9945731 1.0620902 18
3.5467684 -2.9951301 0.89409065 16
3.5453038 -2.9949532 0.72818124 16
3.5506027 -3.0004919 0.56608307 24
3.555414 -3.0056214 0.40396684 15
3.5520685 -3.0038564 0.24179211 14
3.5405741 -2.9951961 0.080281064 14
nan nan nan 0
nan nan nan 0
nan nan nan 0
nan nan nan 0
nan nan nan 0
3.5496366 -3.0124414 -0.40396747 7
3.5501337 -3.0139294 -0.24124834 11
3.5538805 -3.0181777 -0.079910934 19
3.5480428 -3.014286 1.2363491 21
3.5448396 -3.01263 1.064338 17
3.5442955 -3.0132332 0.89599699 16
3.5428767 -3.0130925 0.7297439 17
3.5519724 -3.0218966 0.56791109 25
3.5530138 -3.0238516 0.40483844 14
3.5534933 -3.0253291 0.24257714 12
3.5458457 -3.0198863 0.080630116 15
nan nan nan 0
nan nan nan 0
nan nan nan 0
nan nan nan 0
nan nan nan 0
3.5504589 -3.0345225 -0.40527484 6
3.5471814 -3.0327926 -0.24176994 12
3.5547209 -3.040313 -0.080170102 21
3.5448391 -3.0329325 1.2389357 21
3.5454063 -3.0344899 1.0677097 19
3.5449412 -3.0351636 0.89885652 16
3.5435898 -3.0350788 0.73208779 15
3.5489399 -3.0407352 0.56912982 22
3.5537825 -3.0459597 0.40614575 15
3.5504928 -3.0442154 0.24310051 16
3.5466671 -3.0420094 0.0808919 13
1.4320004 -1.2304107 -0.4956387 3
nan nan nan 0
nan nan nan 0
2.3618665 -2.0308084 -0.48729378 2
nan nan nan 0
3.5592549 -3.0625229 -0.40745372 8
3.5484581 -3.054311 -0.24255238 11
3.5521965 -3.0586083 -0.080342889 19
3.5457408 -3.0541275 1.2428154 19
3.546397 -3.0557709 1.0710814 19
3.5422924 -3.0533116 0.90076292 18
3.5447261 -3.056488 0.73443168 16
3.5463529 -3.0589702 0.5703485 21
3.5549755 -3.0674899 0.40745309 16
3.5517178 -3.0657601 0.24388555 15
3.5479114 -3.0635557 0.081153691 15
nan nan nan 0
1.6241288 -1.4053767 -0.48701933 2
1.9141482 -1.656918 -0.48422 2
nan nan nan 0
nan nan nan 0
3.53725 -3.0651426 -0.40614638 7
3.545321 -3.07322 -0.24307398 12
3.552829 -3.0808144 -0.080602057 18
3.5423551 -3.0728154 1.245402 22
3.5430684 -3.0745182 1.0733292 18
3.5427325 -3.0753105 0.90362251 16
3.545222 -3.078557 0.73677564 15
3.5468929 -3.0810938 0.57217652 21
3.555526 -3.0896823 0.40876046 18
3.5485313 -3.084691 0.24440892 15
3.5485132 -3.085763 0.081415474 15
1.4160936 -1.2340319 -0.49305049 3
1.6226393 -1.4145212 -0.48814404 2
1.9117615 -1.6671484 -0.48517317 2
2.3547168 -2.0541503 -0.4888581 2
3.1211069 -2.7236743 -0.50393027 3
3.514735 -3.06826 -0.40483907 6
3.545316 -3.0960464 -0.2438564 11
3.552808 -3.1036825 -0.080861226 18
3.5419796 -3.0953128 1.2492816 21
3.5427802 -3.0971034 1.0767009 19
3.5388265 -3.0947368 0.9055289 16
3.5450661 -3.1012855 0.73911959 16
3.5430458 -3.1006098 0.57339525 21
3.5516732 -3.1092546 0.40963197 17
3.5484705 -3.1075451 0.24519394 15
3.5446999 -3.1053364 0.081589989 14
1.4081475 -1.2357819 -0.49175641 3
1.6140306 -1.4169626 -0.48701933 2
1.9022425 -1.6705728 -0.48422 2
2.3623724 -2.0753946 -0.49198681 2
3.1190362 -2.7411048 -0.50514901 3
3.4965217 -3.0739322 -0.40396747 5
3.541986 -3.1149981 -0.24437803 11
3.5494597 -3.1226697 -0.081034005 18
3.5384042 -3.1140392 1.2518681 19
3.5392609 -3.1158893 1.0789487 18
3.539053 -3.1168029 0.90838844 16
3.5453358 -3.1234348 0.74146348 16
3.5433707 -3.1228023 0.57522327 22
3.552007 -3.1315153 0.41093931 17
3.548836 -3.1298206 0.24597898 14
3.5450854 -3.1276131 0.08185178 14
1.4219193 -1.2566813 -0.49822688 3
1.6054248 -1.4193611 -0.48589453 2
1.8963996 -1.6772026 -0.48422 2
2.3514149 -2.0803559 -0.49120462 2
3.1020162 -2.7453971 -0.50393027 3
3.4783118 -3.0795155 -0.40309593 11
3.5423052 -3.1372747 -0.24516046 11
3.5422795 -3.1383553 -0.081120394 16
3.5383568 -3.1359828 1.2557479 22
3.5393 -3.1379216 1.0823205 18
3.5391681 -3.1389081 0.91124797 17
3.5417998 -3.1423466 0.74302614 16
3.5435832 -3.1450343 0.57705128 22
3.5485036 -3.1505089 0.41181087 17
3.549089 -3.1521366 0.24676402 14
3.5453579 -3.1499298 0.082113571 14
1.4103087 -1.2552153 -0.4956387 3
1.604099 -1.4281961 -0.48701933 3
1.8978642 -1.6903412 -0.48612636 2
2.3367641 -2.0819809 -0.48964027 2
3.1072333 -2.7694166 -0.50636768 2
3.4638233 -3.0883234 -0.40266016 10
3.5387852 -3.1562676 -0.24568209 11
3.5350337 -3.1540298 -0.081206784 6
3.534595 -3.1547465 1.2583344 20
3.5392275 -3.1599913 1.0856922 18
3.5391722 -3.161052 0.91410762 16
3.5418575 -3.1645622 0.74537009 16
3.5436845 -3.1673067 0.57887936 22
3.5486245 -3.1728363 0.41311821 16
3.5492294 -3.1744921 0.24754907 15
3.5417924 -3.1689529 0.082288086 14
1.4059187 -1.2601305 -0.4956387 3
1.599104 -1.4337866 -0.48701933 3
1.8919522 -1.6969556 -0.48612636 2
2.3331585 -2.0934231 -0.49042246 2
3.1012404 -2.7835608 -0.50697702 2
3.4419029 -3.0904121 -0.40135282 10
3.5388901 -3.1786108 -0.24646451 11
3.5277212 -3.1696911 -0.081293173 5
3.534338 -3.1767519 1.2622142 20
3.5390441 -3.1820986 1.0890639 17
3.5354147 -3.1799512 0.91601396 17
3.5381315 -3.1835124 0.74693263 15
3.5399837 -3.1862967 0.58009803 21
3.5449307 -3.1918702 0.41398978 16
3.545547 -3.1935451 0.24807242 13
3.5418513 -3.1913364 0.082549877 14
1.4015114 -1.2650304 -0.4956387 3
1.5977054 -1.4426248 -0.48814404 3
1.8896594 -1.7068393 -0.48707953 2
2.3221724 -2.0982437 -0.48964027 2
3.0988686 -2.8010249 -0.50819576 3
3.4163163 -3.0890455 -0.39960971 10
3.5351794 -3.1976435 -0.24698611 10
3.5166352 -3.1819859 -0.081293173 5
3.5339699 -3.1987929 1.266094 20
3.5387497 -3.2042432 1.0924356 18
3.5352063 -3.202158 0.91887349 17
3.537977 -3.205792 0.74927664 15
3.5398712 -3.2086334 0.58192611 22
3.5448372 -3.214262 0.41529712 16
3.5454731 -3.2159662 0.24885747 14
3.5417967 -3.2137587 0.082811661 15
1.3970871 -1.2699149 -0.4956387 3
1.5926598 -1.4481931 -0.48814404 2
1.8836899 -1.713425 -0.48707953 2
2.3148341 -2.1063368 -0.48964027 2
3.092742 -2.8151655 -0.50880504 3
3.3907812 -3.0875375 -0.39786658 10
3.5350704 -3.2200515 -0.24776855 10
3.5313733 -3.2178116 -0.081897907 17
3.5334909 -3.2208705 1.2699736 21
3.5383437 -3.2264247 1.0958073 18
3.5348864 -3.2244022 0.92173308 16
3.5377095 -3.2281086 0.75162053 15
3.5359795 -3.2276614 0.58314478 23
3.5446303 -3.2366922 0.41660443 17
3.5415986 -3.2350576 0.24938083 15
3.5416284 -3.2362192 0.083073445 14
1.3926457 -1.2747838 -0.4956387 3
1.5875951 -1.4537436 -0.48814404 2
1.8776975 -1.71999 -0.48707953 2
2.3038263 -2.111068 -0.4888581 2
3.086555 -2.8292975 -0.50941443 3
3.365298 -3.0858891 -0.39612347 11
3.5348475 -3.2424974 -0.24855098 10
3.5311704 -3.2402594 -0.082157083 10
3.5329003 -3.2429831 1.2738534 19
3.5378253 -3.2486417 1.099179 18
3.5344534 -3.2466826 0.92459267 16
3.5373287 -3.2504625 0.75396448 15
3.5356524 -3.2500603 0.5849728 22
3.5443103 -3.2591603 0.4179118 16
3.5413091 -3.2575414 0.25016585 13
3.537668 -3.2553322 0.083247975 13
1.3881875 -1.2796373 -0.4956387 3
1.5860925 -1.4625791 -0.48926884 3
1.8716823 -1.7265339 -0.48707953 2
2.2964435 -2.119097 -0.4888581 2
3.0766599 -2.8400545 -0.50941443 3
3.3398683 -3.0841007 -0.39438036 10
3.5345106 -3.2649806 -0.2493334 10
3.5345247 -3.2661369 -0.082502641 11
3.5321994 -3.2651312 1.2777332 18
3.5371952 -3.2708945 1.1025507 17
3.5339081 -3.2689993 0.92745221 16
3.5368352 -3.2728529 0.75630838 16
3.535212 -3.2724965 0.58680087 21
3.5438762 -3.2816651 0.41921914 17
3.540906 -3.2800629 0.2509509 14
3.5372839 -3.2778552 0.083509758 14
1.3837123 -1.2844752 -0.4956387 3
1.5809773 -1.4681067 -0.48926884 3
1.8656441 -1.7330568 -0.48707953 2
2.2890325 -2.1271002 -0.4888581 2
3.0630927 -2.8473978 -0.50880504 3
3.3181393 -3.0855644 -0.39307299 10
3.5304043 -3.2841005 -0.24985503 11
3.5340817 -3.288672 -0.082761809 11
3.5313857 -3.2873135 1.281613 18
3.5364525 -3.2931826 1.1059225 17
3.529659 -3.2880065 0.9293586 17
3.5362284 -3.2952793 0.75865233 15
3.5346575 -3.2949681 0.58862889 21
3.5433276 -3.3042066 0.42052644 17
3.5403879 -3.3026204 0.25173596 14
3.5367854 -3.3004146 0.083771542 14
1.3792201 -1.2892975 -0.4956387 3
1.5758431 -1.4736165 -0.48926884 3
1.8631676 -1.7429116 -0.48803276 2
2.2815936 -2.1350772 -0.4888581 2
3.0495119 -2.854681 -0.50819576 3
3.2928054 -3.0835094 -0.39132988 10
3.5298514 -3.3066447 -0.25063744 11
3.5335238 -3.3112433 -0.083020978 11
3.5304604 -3.3095298 1.2854927 19
3.5320432 -3.3121719 1.1081703 17
3.5288994 -3.3103814 0.93221813 16
3.5355082 -3.3177414 0.76099628 15
3.5339894 -3.3174763 0.5904569 20
3.5426652 -3.3267839 0.42183378 17
3.5361168 -3.3217962 0.25225928 15
3.5325298 -3.3195875 0.083946072 14
1.3747113 -1.294104 -0.4956387 3
1.567143 -1.4757683 -0.48814404 3
1.8606453 -1.7527703 -0.48898596 2
2.2741268 -2.1430285 -0.4888581 2
3.0359175 -2.8619041 -0.50758636 3
3.2711508 -3.084733 -0.39002255 10
3.5291839 -3.3292248 -0.25141987 11
3.5328515 -3.3338506 -0.083280146 10
3.5294225 -3.3317792 1.2893724 19
3.5310867 -3.334516 1.111542 17
3.5280263 -3.3327911 0.93507767 16
3.5346732 -3.3402381 0.76334018 15
3.5296001 -3.3366103 0.59167564 21
3.5382693 -3.3459747 0.42270535 16
3.535382 -3.3444135 0.25304434 14
3.5318139 -3.3422065 0.084207855 14
1.3701856 -1.2988948 -0.4956387 3
1.5619819 -1.4812295 -0.48814404 3
1.8545157 -1.7592546 -0.48898596 3
2.2702146 -2.1543531 -0.48964027 2
3.0223095 -2.8690672 -0.50697702 3
3.2459154 -3.0824127 -0.38827944 11
3.5320215 -3.3552799 -0.2524631 12
3.5320649 -3.3564937 -0.083539322 10
3.5282731 -3.3540626 1.2932522 18
3.5300174 -3.356894 1.1149137 17
3.52704 -3.3552351 0.93793732 16
3.5337255 -3.3627698 0.76568419 15
3.5287154 -3.3591757 0.59350365 22
3.5373893 -3.3686101 0.42401269 16
3.5345316 -3.3670654 0.25382939 14
3.5309832 -3.3648605 0.084469639 14
1.3656433 -1.3036697 -0.4956387 3
1.5568019 -1.486673 -0.48814404 3
1.8483634 -1.7657173 -0.48898596 3
2.2626805 -2.1622643 -0.48964027 2
3.0086892 -2.8761706 -0.50636768 3
3.2243364 -3.0833967 -0.3869721 11
3.523896 -3.3710403 -0.25272393 15
3.5311625 -3.3791716 -0.08379849 10
3.5270104 -3.3763781 1.297132 18
3.5288346 -3.3793046 1.1182854 17
3.5259397 -3.3777122 0.94079685 16
3.5326626 -3.3853352 0.76802808 15
3.5277152 -3.3817756 0.59533167 21
3.5363941 -3.3912799 0.42532003 16
3.533567 -3.3897529 0.25461441 14
3.5300372 -3.3875499 0.08473143 13
1.3610842 -1.3084288 -0.4956387 3
1.5516031 -1.4920982 -0.48814404 3
1.8421887 -1.7721585 -0.48898596 2
2.2515609 -2.1667254 -0.4888581 2
3.0022061 -2.8900969 -0.50697702 3
3.1992025 -3.0808129 -0.38522899 11
3.5013194 -3.3729274 -0.2519415 12
3.5301447 -3.4018841 -0.084057659 10
3.5256345 -3.3987248 1.3010117 19
3.5310454 -3.4051299 1.122781 16
3.5247254 -3.4002228 0.94365638 16
3.5314851 -3.4079337 0.77037197 15
3.5266011 -3.4044096 0.5971598 20
3.5317011 -3.4105239 0.42619157 16
3.5324864 -3.4124739 0.25539947 12
3.5289762 -3.4102738 0.084993213 14
1.3530387 -1.3098125 -0.49434459 3
1.5463852 -1.4975052 -0.48814404 3
1.8359915 -1.7785782 -0.48898596 2
2.2439837 -2.1745715 -0.4888581 2
2.9956629 -2.9040134 -0.50758636 3
3.1777012 -3.0815582 -0.38392162 10
3.4716048 -3.3677456 -0.25063744 8
3.529012 -3.4246309 -0.084316835 10
3.5241463 -3.421104 1.3048916 18
3.529623 -3.4276171 1.1261528 17
3.5233965 -3.4227657 0.94651592 17
3.5301926 -3.4305656 0.77271587 15
3.5253711 -3.4270766 0.59898782 22
3.5304871 -3.4332485 0.42749891 16
3.5312903 -3.4352288 0.25618449 13
3.5242159 -3.4295444 0.085167743 15
1.3484583 -1.3145275 -0.49434459 3
1.5411484 -1.5028939 -0.48814404 3
1.8262583 -1.7815485 -0.48803276 2
2.2363794 -2.1823912 -0.4888581 2
2.9890594 -2.9179192 -0.50819576 3
3.1526709 -3.078712 -0.38217852 9
3.4419692 -3.362397 -0.2493334 8
3.5241868 -3.4439163 -0.084489614 9
3.5225439 -3.4435132 1.3087713 18
3.5280874 -3.4501367 1.1295245 17
3.5219536 -3.4453409 0.94937557 16
3.5323148 -3.4566836 0.77584112 15
3.5240259 -3.4497764 0.60081583 20
3.5291579 -3.4560068 0.42880628 16
3.5299783 -3.4580171 0.25696954 13
3.5229349 -3.4523225 0.085429527 6
1.3438616 -1.3192266 -0.49434459 3
1.5358931 -1.5082643 -0.48814404 3
1.8200283 -1.7879125 -0.48803276 2
2.2287478 -2.1901844 -0.4888581 2
2.9823942 -2.931814 -0.50880504 3
3.1276994 -3.0757282 -0.38043538 10
3.4159727 -3.3603847 -0.24829017 9
3.5228338 -3.4667168 -0.084748782 10
3.5208285 -3.4659529 1.312651 18
3.5264366 -3.4726863 1.1328962 17
3.5203955 -3.4679477 0.9522351 16
3.5307803 -3.4793923 0.77818513 15
3.5225649 -3.4725082 0.60264385 20
3.5312593 -3.4822943 0.43054938 16
3.5285499 -3.4808376 0.25775456 13
3.5215375 -3.4751329 0.08569131 10
1.3392484 -1.3239095 -0.49434459 3
1.5306189 -1.5136164 -0.48814404 2
1.8137763 -1.7942547 -0.48803276 2
2.2245994 -2.2014244 -0.48964027 2
2.9721425 -2.9422069 -0.50880504 3
3.1063259 -3.0761127 -0.37912807 11
3.3900328 -3.358232 -0.24724692 6
3.5213645 -3.4895494 -0.085007958 9
3.5224285 -3.4918227 1.317824 17
3.5246716 -3.4952662 1.1362679 17
3.5187225 -3.4905851 0.95509464 16
3.5291302 -3.5021317 0.78052902 15
3.5245104 -3.4987683 0.60508126 20
3.5296853 -3.5051286 0.43185672 15
3.5270052 -3.5036905 0.25853962 13
3.5164781 -3.4944525 0.08586584 9
1.3346189 -1.3285763 -0.49434459 3
1.525326 -1.5189501 -0.48814404 2
1.8040247 -1.797111 -0.48707953 2
2.2169013 -2.2091763 -0.48964027 2
2.961854 -2.9525635 -0.50880504 3
3.0814617 -3.0728683 -0.37738496 11
3.3641496 -3.3559391 -0.24620369 7
3.519778 -3.5124137 -0.085267127 9
3.520473 -3.514334 1.3217037 18
3.5227916 -3.5178761 1.1396396 16
3.5169344 -3.5132535 0.95795429 16
3.5273635 -3.5249016 0.78287292 15
3.5228055 -3.5215757 0.60690933 20
3.5279944 -3.5279944 0.43316403 15
3.5253439 -3.5265744 0.25932464 12
3.5148599 -3.5173144 0.086127624 9
1.3299732 -1.3332269 -0.49434459 3
1.5202806 -1.5239999 -0.48814404 2
1.8015213 -1.8065591 -0.48803276 2
2.2130499 -2.2200131 -0.49042246 2
2.9520466 -2.9623692 -0.50880504 3
3.060709 -3.0724838 -0.37607762 11
3.3389094 -3.3529246 -0.24516046 7
3.5186923 -3.5346956 -0.085526295 9
3.5190208 -3.5362599 1.3255836 19
3.521415 -3.5399013 1.1430113 16
3.5156476 -3.5353374 0.96081382 15
3.5261006 -3.5470872 0.78521693 15
3.5216024 -3.5437989 0.60873735 22
3.5268066 -3.5502753 0.43447137 15
3.5241849 -3.5488744 0.26010969 13
3.5137427 -3.5395942 0.086389408 9
1.3255448 -1.3376299 -0.49434459 3
1.5149516 -1.5292972 -0.48814404 2
1.7952043 -1.8128365 -0.48803276 3
2.205287 -2.2277248 -0.49042246 2
2.9416881 -2.9726555 -0.50880504 3
3.0359533 -3.0689845 -0.37433451 11
3.3131413 -3.3503578 -0.24411722 7
3.5168757 -3.5576222 -0.085785463 9
3.5168397 -3.5588281 1.3294632 17
3.5193086 -3.5625699 1.146383 17
3.5136321 -3.5580652 0.96367335 16
3.5241058 -3.5699174 0.78756082 14
3.5196681 -3.5666671 0.61056536 20
3.5283849 -3.5767486 0.43621451 15
3.5257993 -3.5753756 0.26115641 12
3.5118945 -3.5625184 0.086651191 9
1.3208675 -1.3422488 -0.49434459 3
1.509872 -1.5343127 -0.48814404 2
1.7891828 -1.8187797 -0.48803276 2
2.1978877 -2.2350254 -0.49042246 3
2.9318142 -2.9823942 -0.50880504 3
3.0117946 -3.0648246 -0.37259138 10
3.2880163 -3.3470781 -0.24307398 6
3.5190704 -3.583533 -0.086131021 10
3.5151694 -3.5808108 1.333343 17
3.5211248 -3.5881298 1.1508787 17
3.512125 -3.5802085 0.96653289 16
3.5226216 -3.5921624 0.78990471 15
3.518244 -3.5889511 0.61239344 19
3.5269635 -3.5991023 0.43752185 16
3.524406 -3.5977485 0.26194146 12
3.5140524 -3.5884321 0.087000236 9
1.3164091 -1.3466215 -0.49434459 3
1.5045069 -1.5395738 -0.48814404 2
1.7828232 -1.8250139 -0.48803276 2
2.1935227 -2.246217 -0.49120462 3
2.921386 -2.99261 -0.50880504 3
2.9906416 -3.0646241 -0.37128401 9
3.2623658 -3.344238 -0.24203075 8
3.5205011 -3.6101117 -0.086476594 10
3.5161343 -3.6068928 1.338516 18
3.5187793 -3.6108668 1.1542504 16
3.5098815 -3.602994 0.96939254 16
3.5203972 -3.6150508 0.79224867 15
3.5160797 -3.6118782 0.61422145 20
3.5248001 -3.6221004 0.43882915 15
3.5222712 -3.6207659 0.26272649 13
3.5119612 -3.611429 0.087262027 9
1.3114647 -1.3514374 -0.49434459 3
1.498854 -1.5450778 -0.48814404 2
1.7795392 -1.83506 -0.48898596 2
2.1852753 -2.2542417 -0.49120462 3
2.9103978 -3.0032976 -0.50880504 4
2.968992 -3.064832 -0.3699767 11
3.2361925 -3.341825 -0.24098752 6
3.5142002 -3.6301744 -0.086649366 12
3.5129671 -3.6301687 1.3423959 17
3.5156837 -3.6342449 1.1576221 16
3.5103006 -3.6299479 0.97320527 16
3.5174215 -3.638582 0.79459262 15
3.5131638 -3.635447 0.61604947 20
3.5218828 -3.6457427 0.44013649 16
3.5193822 -3.6444268 0.26351154 13
3.5091174 -3.6350667 0.087523811 9
1.3067393 -1.356007 -0.49434459 3
1.4900717 -1.5467917 -0.48701933 2
1.773123 -1.8412604 -0.48898596 2
2.1773932 -2.2618561 -0.49120462 3
2.9033377 -3.0170143 -0.50941443 4
2.947916 -3.0644085 -0.36866936 10
3.2106636 -3.3387046 -0.23994428 6
3.4980423 -3.6388152 -0.086562976 8
3.5136607 -3.6563389 1.3475689 18
3.5164776 -3.6605489 1.1621177 16
3.5078075 -3.6527994 0.9760648 16
3.5183794 -3.6650887 0.79771787 14
3.5141969 -3.6620109 0.61848688 19
3.51948 -3.6687975 0.44144386 15
3.5170074 -3.667501 0.26429656 12
3.5067861 -3.6581206 0.087785594 8
1.3053372 -1.3640496 -0.4956387 3
1.4846632 -1.5519836 -0.48701933 2
1.766685 -1.8474386 -0.48898596 2
2.1694844 -2.2694428 -0.49120462 3
2.8927889 -3.0271306 -0.50941443 4
2.9268796 -3.0638747 -0.36736199 10
3.1886444 -3.3390584 -0.23916186 5
3.4715111 -3.636539 -0.086217418 7
3.5108793 -3.679064 1.3514485 18
3.513767 -3.683377 1.1654894 16
3.5085847 -3.6792302 0.97987759 15
3.5157871 -3.6880713 0.80006176 14
3.5116637 -3.6850333 0.6203149 19
3.5203943 -3.6954863 0.44318697 15
3.5145142 -3.6906035 0.26508161 12
3.5043366 -3.6812022 0.088047385 8
1.3005677 -1.3685976 -0.4956387 3
1.4825921 -1.5606887 -0.48814404 2
1.7602254 -1.8535942 -0.48898596 2
2.1615493 -2.2770016 -0.49120462 3
2.8822045 -3.0372097 -0.50941443 4
2.9058824 -3.0632317 -0.36605468 9
3.1632264 -3.335676 -0.23811863 6
3.4415994 -3.6304939 -0.085785463 6
3.5113046 -3.7053199 1.3566216 17
3.5109401 -3.7062309 1.1688612 16
3.5058451 -3.7021465 0.98273712 15
3.5164723 -3.7146673 0.80318701 14
3.5124233 -3.7116871 0.62275231 19
3.5177422 -3.7186079 0.44449428 15
3.5153329 -3.7173603 0.26612833 12
3.5017679 -3.7043107 0.088309169 8
1.2957826 -1.3731291 -0.4956387 3
1.4804783 -1.5693982 -0.48926884 2
1.7537444 -1.8597273 -0.48898596 2
2.1535881 -2.284533 -0.49120462 3
2.8681815 -3.0436404 -0.50880504 5
2.8849261 -3.0624797 -0.36474735 9
3.1447167 -3.3394268 -0.237597 5
3.4186258 -3.6315651 -0.085526295 5
3.5082786 -3.7281058 1.3605013 19
3.5113344 -3.7326584 1.1733568 16
3.5063508 -3.7286644 0.98654985 16
3.5170147 -3.7413127 0.80631226 15
3.5096414 -3.7347751 0.62458038 19
3.5183816 -3.7453856 0.44623742 14
3.5091712 -3.7368877 0.26665169 12
3.5025027 -3.731091 0.088658221 9
1.294284 -1.381168 -0.49693277 3
1.4749911 -1.5745565 -0.48926884 2
1.7472421 -1.8658377 -0.48898596 2
2.1456006 -2.2920365 -0.49120462 3
2.8575397 -3.0536335 -0.50880504 5
2.8674128 -3.0652564 -0.36387578 8
3.1330407 -3.3503838 -0.237597 4
3.3922725 -3.6288681 -0.085180737 6
3.505137 -3.7509165 1.3643812 17
3.508261 -3.7555733 1.1767284 15
3.5033641 -3.7516434 0.98940951 16
3.5140433 -3.7643964 0.80865616 15
3.5067406 -3.7578881 0.6264084 19
3.5154791 -3.7685711 0.44754472 14
3.5165379 -3.7710252 0.26822177 12
3.4996836 -3.7542648 0.088920005 8
1.2894549 -1.3856775 -0.49693277 3
1.4761224 -1.5868298 -0.49151835 2
1.7440608 -1.8755195 -0.48993912 2
2.1375866 -2.2995121 -0.49120462 3
2.8434851 -3.0599542 -0.50819576 5
2.8465257 -3.0642986 -0.36256844 7
3.1179292 -3.3576407 -0.23733619 12
3.3693814 -3.6296954 -0.084921569 5
3.501878 -3.7737496 1.3682609 17
3.508384 -3.7820842 1.1812241 16
3.5035965 -3.7782454 0.99322224 15
3.5143116 -3.7911272 0.81178141 14
3.5037212 -3.7810261 0.62823641 18
3.5124583 -3.7917821 0.44885209 15
3.4931753 -3.7722859 0.26743671 5
3.5001416 -3.7811327 0.089269049 9
1.2846102 -1.3901701 -0.49693277 3
