# .PCD v0.7 - Point Cloud Data file format
VERSION 0.7
FIELDS x y z intensity
SIZE 4 4 4 4
TYPE F F F F
COUNT 1 1 1 1
WIDTH 1361
HEIGHT 1
VIEWPOINT 0 0 0 1 0 0 0
POINTS 1361
DATA ascii
-3.2029839 0.84447062 -0.51858068 2
-4.1781125 1.1023445 -0.52586681 2
-5.8353786 1.5406836 -0.52467841 13
-5.9458847 1.5709701 -0.31923023 12
-5.8851175 1.5560136 -0.10453214 12
-5.8267679 1.541674 1.6036328 12
-5.8252664 1.5423648 1.3812792 12
-5.8016448 1.5371941 1.1581237 13
-5.7748756 1.5311801 0.93913502 12
-5.8842139 1.5612698 0.74279362 13
-5.8524785 1.5539429 0.52642071 10
-5.8760719 1.5613052 0.31663251 13
-5.8007884 1.5423859 0.1041036 11
-1.9175041 0.51164192 -0.52152056 2
-2.206857 0.58926165 -0.51851249 2
-2.6070859 0.69661593 -0.51662844 2
-3.2047875 0.85692173 -0.51936287 2
-4.1694455 1.1156393 -0.52525747 2
-5.7577929 1.5417185 -0.51814169 14
-5.8342576 1.5632842 -0.31349242 12
-5.7782478 1.5493573 -0.10271794 12
-5.7280545 1.5369704 1.5777677 11
-5.7304454 1.538684 1.3599249 11
-5.7109203 1.5345101 1.1409663 14
-5.6788812 1.5269639 0.92429012 12
-5.77809 1.5547212 0.72999734 13
-5.7412057 1.5458714 0.51683354 10
-5.7741623 1.5558259 0.31139892 14
-5.694005 1.5352939 0.10227109 11
-1.9110445 0.51707077 -0.52022654 2
-2.200084 0.59568822 -0.51738775 2
-2.6046386 0.70571208 -0.51662844 2
-3.2017767 0.86810333 -0.51936287 3
-4.1655259 1.1301867 -0.52525747 2
-5.6322021 1.5291796 -0.50724721 13
-5.7227583 1.5548385 -0.30775464 12
-5.6763225 1.5432861 -0.10099014 12
-5.6387658 1.5341321 1.5544891 11
-5.6404223 1.5356402 1.3396947 10
-5.6202874 1.5312119 1.123809 13
-5.5829878 1.5220968 0.90944523 13
-5.6768727 1.5487573 0.71781039 14
-5.6492825 1.5422894 0.50898951 10
-5.6723633 1.5496545 0.30616534 13
-5.5921655 1.5287939 0.10052586 12
-1.9045702 0.52246076 -0.5189324 2
-2.1979911 0.60336429 -0.51738775 2
-2.6021593 0.71479976 -0.51662844 2
-3.1939652 0.87796533 -0.51858068 2
-4.1615553 1.1447203 -0.52525747 2
-5.5403881 1.5250363 -0.49940318 9
-5.6258316 1.5496117 -0.30279925 13
-5.5793295 1.5378506 -0.099348731 13
-5.5495691 1.5306898 1.5312107 12
-5.5504918 1.5319868 1.3194644 10
-5.5344782 1.5286065 1.1076049 14
-5.4919586 1.5178944 0.89538169 13
-5.5757689 1.5421059 0.70562345 14
-5.557456 1.5380852 0.50114554 11
-5.575491 1.5441242 0.30119342 14
-5.5000777 1.5242723 0.09895514 12
-1.898082 0.52781188 -0.51763833 2
-2.1958718 0.61103308 -0.51738775 2
-2.5949199 0.72256196 -0.51567525 2
-3.1861238 0.88778341 -0.51779848 2
-4.1527534 1.1579069 -0.52464807 2
-5.4294806 1.5149164 -0.48981604 9
-5.5290122 1.5437275 -0.2978439 13
-5.4824448 1.5317572 -0.097707309 13
-5.4604654 1.5266438 1.5079321 12
-5.4606562 1.5277246 1.299234 11
-5.4440308 1.524098 1.0904474 13
-5.4010277 1.5130756 0.88131803 12
-5.4843383 1.5374471 0.69465524 14
-5.4657278 1.5332588 0.49330151 12
-5.4835353 1.5392867 0.29648319 14
-5.4129033 1.5204787 0.097471684 12
-1.8915794 0.53312403 -0.51634425 2
-2.1937253 0.61869442 -0.51738775 2
-2.5923817 0.73161554 -0.51567525 2
-3.1830056 0.89889967 -0.51779848 2
-4.1486864 1.1723956 -0.52464807 2
-5.3522649 1.5135288 -0.48327935 10
-5.437108 1.5385462 -0.29314932 13
-5.3856726 1.5250067 -0.096065901 13
-5.3714585 1.5219945 1.4846536 13
-5.3662319 1.5215254 1.27788 12
-5.353682 1.5189767 1.07329 14
-5.3149495 1.5089896 0.86803579 13
-5.3930097 1.532169 0.68368697 15
-5.3788929 1.529173 0.48589325 11
-5.3916817 1.533826 0.29177293 15
-5.3258228 1.5160952 0.095988229 13
-1.889707 0.53972358 -0.51634425 2
-2.1915524 0.62634808 -0.51738775 2
-2.585093 0.7393105 -0.51472205 2
-3.1798484 0.91000503 -0.51779848 2
-4.1397977 1.1855037 -0.52403873 2
-5.2703362 1.5102488 -0.47630686 10
-5.3453083 1.532742 -0.28845474 13
-5.2938199 1.518978 -0.094510876 13
-5.2871943 1.5180756 1.4626682 13
-5.2812839 1.5173764 1.2587736 12
-5.2634377 1.5132436 1.0561327 14
-5.2289662 1.504321 0.85475349 13
-5.3017859 1.5262725 0.67271876 15
-5.2921543 1.5245001 0.47848502 12
-5.3047323 1.529126 0.28732437 14
-5.2436442 1.5125082 0.094592042 13
-1.8923551 0.54798949 -0.51763833 2
-2.1939213 0.63573229 -0.51851249 2
-2.582366 0.74878043 -0.51472205 2
-3.1764917 0.92165357 -0.51779848 2
-4.1354246 1.2006689 -0.52403873 2
-5.1882348 1.5073211 -0.46933439 11
-5.2581453 1.5286272 -0.28402099 13
-5.2114129 1.5160279 -0.093128629 14
-5.198122 1.5131456 1.4393898 13
-5.196167 1.5135603 1.2396672 12
-5.1777487 1.5091757 1.0399284 15
-5.1475611 1.5013515 0.84225255 14
-5.2151685 1.5220579 0.66235983 15
-5.2100315 1.5215454 0.47151256 11
-5.2176166 1.5247488 0.28287584 15
-5.1612921 1.5092671 0.093195841 13
-1.8950649 0.55595124 -0.5189324 2
-2.1916888 0.64338666 -0.51851249 2
-2.5797365 0.75778997 -0.51472205 3
-3.1732552 0.93273604 -0.51779848 2
-4.1359696 1.2164974 -0.52464807 3
-5.1064882 1.5029209 -0.46236193 10
-5.1713505 1.5229917 -0.27958724 14
-5.1341586 1.5130122 -0.091832779 15
-5.1140537 1.5080576 1.4174045 13
-5.111413 1.5082486 1.2205608 12
-5.0971303 1.5050014 1.0246774 14
-5.0712466 1.4983209 0.83053291 13
-5.1336784 1.517741 0.6526103 16
-5.1234903 1.5157014 0.46410432 12
-5.1308703 1.5188586 0.27842727 15
-5.0792966 1.5045627 0.091799647 14
-1.8977425 0.56393862 -0.52022654 2
-2.1894295 0.65103316 -0.51851249 2
-2.5817802 0.76819009 -0.51567525 3
-3.1699798 0.94380701 -0.51779848 2
-4.1316977 1.2309271 -0.52464807 3
-5.0200634 1.4965454 -0.45495367 10
-5.0894456 1.5181966 -0.27541429 15
-5.0569901 1.5094761 -0.090536922 15
-5.0347128 1.5037836 1.3967124 14
-5.0360975 1.5051545 1.2037022 12
-5.0166059 1.5002829 1.0094265 15
-4.9950161 1.494776 0.8188132 14
-5.0522828 1.512874 0.64286077 15
-5.0418267 1.5107019 0.45713186 12
-5.0490122 1.5138154 0.2742404 11
-5.0021901 1.5007286 0.090490721 14
-1.8957624 0.57055956 -0.52022654 2
-2.1918087 0.66007656 -0.51963723 2
-2.5790827 0.77719754 -0.51567525 3
-3.166666 0.95486659 -0.51779848 2
-4.1321273 1.2467756 -0.52525747 3
-4.9432836 1.4924648 -0.44841701 11
-5.007638 1.5128484 -0.27124137 14
-4.9799094 1.50542 -0.089241073 14
-4.9554653 1.4989744 1.3760203 13
-4.9608655 1.5015532 1.1868436 12
-4.9408751 1.4964437 0.99512857 14
-4.9188738 1.4907173 0.80709356 13
-4.9757333 1.5088975 0.63372058 15
-4.9602604 1.5051509 0.45015943 12
-4.9672537 1.5082196 0.27005354 11
-4.9203882 1.4949278 0.089094535 14
-1.898379 0.57858151 -0.52152056 2
-2.1894913 0.66772342 -0.51963723 2
-2.5716596 0.78476286 -0.51472205 2
-3.1633136 0.96591455 -0.51779848 2
-4.1277504 1.2611917 -0.52525747 3
-4.8713574 1.4893229 -0.44231606 11
-4.9307051 1.5084084 -0.26732925 15
-4.9029198 1.5008441 -0.087945215 15
-4.8855495 1.4964597 1.3579149 14
-4.8857217 1.497445 1.1699851 12
-4.869925 1.4935335 0.98178399 14
-4.8428206 1.4861455 0.79537386 14
-4.8992748 1.5044057 0.62458038 15
-4.8835568 1.500512 0.44362271 12
-4.8855953 1.5020716 0.26586664 12
-4.8482437 1.4915142 0.087872863 13
-1.8963478 0.58520454 -0.52152056 2
-2.182492 0.67392468 -0.51851249 2
-2.5689046 0.79373485 -0.51472205 2
-3.1552045 0.97549194 -0.51701629 2
-4.1185813 1.2741259 -0.52464807 3
-4.7995138 1.4856973 -0.43621519 11
-4.8586349 1.5049275 -0.2636779 15
-4.8260236 1.4957496 -0.086649366 14
-4.8110995 1.4920446 1.338516 13
-4.8106675 1.4928311 1.1531265 12
-4.7990565 1.4901463 0.96843934 14
-4.7762938 1.4839922 0.78521693 14
-4.8276472 1.5008718 0.61604947 15
-4.8069472 1.4953563 0.43708605 12
-4.8135772 1.4983404 0.26220313 11
-4.776185 1.4876156 0.086651191 13
-1.8942935 0.59182048 -0.52152056 3
-2.1801264 0.68153894 -0.51851249 2
-2.5661182 0.80269718 -0.51472205 2
-3.1517804 0.98649967 -0.51701629 3
-4.114109 1.2884947 -0.52464807 3
-4.7277555 1.4815884 -0.43011427 10
-4.7866497 1.5009623 -0.26002657 14
-4.753993 1.4916334 -0.085439898 14
-4.7413492 1.4885752 1.3204106 13
-4.7403536 1.4891715 1.1373918 12
-4.732954 1.4877546 0.95604783 14
-4.7098408 1.4813924 0.77505988 14
-4.760839 1.4983463 0.60812795 15
-4.7399359 1.4926767 0.43142092 12
-4.7416458 1.4941249 0.25853962 11
-4.7042136 1.4832324 0.085429527 13
-1.8922161 0.59842926 -0.52152056 2
-2.1730893 0.68767494 -0.51738775 2
-2.5633006 0.81164968 -0.51472205 2
-3.1436098 0.99600387 -0.51623416 2
-4.1095858 1.3028477 -0.52464807 4
-4.6655817 1.4800092 -0.42488492 11
-4.7195115 1.4980236 -0.25663605 14
-4.6820517 1.4870329 -0.084230445 15
-4.6716819 1.484637 1.302305 13
-4.6747684 1.4865164 1.122781 12
-4.6669278 1.4849201 0.94365638 14
-4.643465 1.4783472 0.76490283 13
-4.6893797 1.4938666 0.59959716 16
-4.6730018 1.4895475 0.4257558 12
-4.6745596 1.490943 0.25513777 12
-4.6323309 1.4783649 0.084207855 14
-1.8855159 0.6035583 -0.52022654 2
-2.1706758 0.69525623 -0.51738775 2
-2.560452 0.82059234 -0.51472205 2
-3.1401138 1.006971 -0.51623416 2
-4.1144643 1.3202175 -0.52586681 4
-4.5987339 1.4764915 -0.41921976 10
-4.6476994 1.4931074 -0.25298473 15
-4.6149602 1.4834783 -0.083107367 15
-4.6112967 1.4831887 1.286786 13
-4.6138978 1.4849139 1.1092942 12
-4.6009798 1.4816428 0.93126494 15
-4.5771685 1.4748567 0.75474578 13
-4.6227336 1.4904293 0.59167564 15
-4.6061487 1.4859697 0.42009068 12
-4.607554 1.487311 0.25173596 12
-4.5652981 1.4745506 0.083073445 14
-1.8833977 0.61013627 -0.52022654 2
-2.1636009 0.70132679 -0.51626295 2
-2.5529029 0.82801074 -0.51376885 2
-3.1365798 1.017926 -0.51623416 3
-4.1192708 1.3376369 -0.52708548 3
-4.5319686 1.4725254 -0.41355464 11
-4.5807281 1.4892524 -0.24959421 14
-4.5527053 1.4810205 -0.082070686 14
-4.5463862 1.4798423 1.2699736 13
-4.5484633 1.4813963 1.0946834 12
-4.5351119 1.4779235 0.91887349 13
-4.5156493 1.4724529 0.74537009 13
-4.556169 1.4865453 0.58375412 15
-4.5441132 1.4834893 0.41486132 12
-4.5453787 1.4847803 0.24859579 12
-4.5031009 1.4718399 0.082026303 14
-1.876667 0.61520231 -0.5189324 3
-2.1611395 0.70887488 -0.51626295 2
-2.5499971 0.83691698 -0.51376885 2
-3.1330075 1.0288684 -0.51623416 2
-4.1240063 1.3551064 -0.52830422 3
-4.4700193 1.4696672 -0.40832528 11
-4.5138412 1.484948 -0.24620369 14
-4.4857764 1.4765831 -0.080947615 15
-4.4815559 1.476061 1.2531614 13
-4.4877377 1.478965 1.0811965 11
-4.473989 1.4752998 0.90743524 14
-4.4495139 1.4680903 0.73521304 13
-4.4944019 1.4837707 0.576442 15
-4.482152 1.4805942 0.40963197 12
-4.4832773 1.4818338 0.24545564 12
-4.440979 1.4687129 0.080979161 14
-1.8745081 0.6217494 -0.5189324 2
-2.1586518 0.71641433 -0.51626295 2
-2.5470603 0.84581298 -0.51376885 2
-3.1293969 1.0397984 -0.51623416 2
-4.1239595 1.3710592 -0.5289135 3
-4.4081464 1.4663948 -0.40309593 11
-4.4517789 1.4817722 -0.24307398 14
-4.423677 1.4732764 -0.079910934 15
-4.421391 1.4733722 1.2376424 13
-4.4270849 1.4761282 1.0677097 11
-4.4129395 1.4722675 0.89599699 14
-4.3881483 1.4648478 0.72583729 13
-4.4280028 1.4790109 0.56852049 15
-4.4249911 1.4788637 0.40483844 13
-4.4212527 1.4784721 0.24231547 13
-4.3789339 1.4651705 0.079932019 15
-1.8723265 0.62828887 -0.5189324 2
-2.1561382 0.72394514 -0.51626295 2
-2.5394394 0.85313559 -0.51281571 2
-3.1257484 1.0507157 -0.51623416 3
-4.1191487 1.3854461 -0.5289135 3
-4.3510718 1.4642971 -0.39830235 11
-4.3897939 1.4781814 -0.23994428 15
-4.366394 1.4711505 -0.078960635 15
-4.3567228 1.4687389 1.2208301 12
-4.3665075 1.4728861 1.0542228 11
-4.3519669 1.4688274 0.88455874 14
-4.3315392 1.4627751 0.71724284 14
-4.366394 1.4753947 0.56120831 16
-4.3631792 1.475157 0.39960909 13
-4.3593063 1.4746954 0.2391753 13
-4.3217049 1.462816 0.078972138 14
-1.8655486 0.63326824 -0.51763833 2
-2.1535978 0.73146701 -0.51626295 2
-2.5364461 0.86199474 -0.51281571 2
-3.1173861 1.0600303 -0.51545197 3
-4.1189861 1.4014148 -0.5295229 4
-4.2893515 1.4602139 -0.39307299 11
-4.3373418 1.4773961 -0.23733619 15
-4.3044481 1.4670302 -0.077923954 16
-4.2967134 1.4652311 1.2053111 13
-4.3060074 1.4692395 1.040736 11
-4.2910724 1.4649796 0.87312049 14
-4.2703257 1.4587289 0.70786715 13
-4.3048654 1.4713668 0.55389619 16
-4.30616 1.4726486 0.3948155 13
-4.302166 1.4721215 0.23629683 13
-4.264545 1.4600798 0.07801225 15
-1.8633267 0.63977635 -0.51763833 3
-2.1510315 0.73898 -0.51626295 2
-2.52878 0.86924779 -0.51186246 2
-3.1136668 1.0709057 -0.51545197 3
-4.1046839 1.4125544 -0.52830422 4
-4.2371321 1.4589612 -0.38871521 12
-4.2802286 1.4746363 -0.2344673 14
-4.2473121 1.464125 -0.076973669 15
-4.2413478 1.4628973 1.1910853 13
-4.2501917 1.4667778 1.028373 11
-4.2348981 1.462327 0.86263543 14
-4.2138619 1.4558864 0.69927275 14
-4.2481089 1.4685487 0.54719329 15
-4.2492127 1.4697605 0.39002195 13
-4.2403784 1.4675336 0.23315668 13
-4.2074585 1.4569627 0.07705237 14
-1.8610822 0.64627671 -0.51763833 3
-2.1484389 0.74648398 -0.51626295 2
-2.5210943 0.87645781 -0.51090926 2
-3.1099098 1.0817678 -0.51545197 3
-4.0856667 1.4219798 -0.52647614 4
-4.1802697 1.4557236 -0.38392162 12
-4.2231889 1.4714961 -0.23159841 15
-4.190249 1.460839 -0.076023377 15
-4.1814914 1.4586042 1.1755663 14
-4.194447 1.4639448 1.01601 12
-4.1787949 1.4593002 0.85215032 14
-4.1574702 1.4526675 0.69067836 14
-4.1961098 1.4669904 0.54109991 15
-4.1923389 1.4664931 0.3852284 13
-4.1881013 1.4658314 0.23053987 14
-4.1551642 1.4551173 0.07617975 14
-1.8632573 0.65469462 -0.5189324 3
-2.1456883 0.7543534 -0.51626295 2
-2.5178649 0.88569218 -0.51090926 2
-3.1059241 1.093159 -0.51545197 3
-4.0663848 1.4319999 -0.52464807 4
-4.1279278 1.4544823 -0.37956384 12
-4.1706758 1.470363 -0.2289903 15
-4.1377206 1.4595568 -0.075159475 15
-4.1260171 1.4562382 1.1613405 14
-4.1385188 1.4614629 1.0036471 12
-4.1225114 1.4566195 0.84166527 15
-4.1055565 1.4514345 0.6828652 13
-4.1392398 1.4641556 0.53439701 16
-4.1352844 1.4635683 0.38043481 12
-4.1356335 1.4645044 0.22792308 13
-4.0979686 1.4519714 0.07521987 15
-1.8609607 0.66119462 -0.5189324 3
-2.1430421 0.76183867 -0.51626295 2
-2.5147579 0.89447582 -0.51090926 2
-3.1020894 1.103994 -0.51545197 3
-4.0473361 1.4411911 -0.52282006 5
-4.0712123 1.4504938 -0.37477025 12
-4.1137819 1.4664698 -0.22612141 15
-4.0808053 1.4555172 -0.074209183 15
-4.0754204 1.4543983 1.1484081 14
-4.0829206 1.4578782 0.99128413 13
-4.0711799 1.4544873 0.83213335 15
-4.0493107 1.4474711 0.67427087 13
-4.0873756 1.4618826 0.52830362 16
-4.0832529 1.4612119 0.37607706 13
-4.0834875 1.4620997 0.22530627 13
-4.0505161 1.4510992 0.074434511 15
-1.8586414 0.66768652 -0.5189324 3
-2.1357853 0.76766682 -0.51513821 2
-2.5116203 0.90324843 -0.51090926 2
-3.0982168 1.1148156 -0.51545197 3
-4.0329418 1.451948 -0.52160138 6
-4.0192628 1.4478158 -0.37041247 10
-4.0616632 1.4638902 -0.22351331 15
-4.0286713 1.4527938 -0.073345274 16
-4.0203433 1.4505837 1.1341822 14
-4.0319815 1.4555781 0.98004514 13
-4.0152979 1.4503475 0.8216483 15
-3.9977872 1.4448113 0.66645771 14
-4.0355773 1.4592652 0.52221012 11
-4.0266051 1.4568155 0.37128344 14
-4.0314093 1.4593494 0.22268949 13
-3.9984243 1.4481982 0.073561884 15
-1.8608391 0.67581904 -0.52022654 3
-2.1330926 0.77511746 -0.51513821 2
-2.5084522 0.91201013 -0.51090926 2
-3.0943065 1.1256236 -0.51545197 3
-4.0185223 1.4626222 -0.5203827 11
-3.9720621 1.4464972 -0.36649045 10
-4.0096145 1.4609652 -0.22090523 15
-3.9813035 1.4514369 -0.072567761 16
-3.9698815 1.4480578 1.1212497 14
-3.981108 1.4529401 0.96880609 13
-3.9641051 1.4475188 0.81211638 15
-3.9463327 1.4418098 0.65864456 14
-3.9838488 1.4563046 0.51611668 12
-3.9747167 1.4537529 0.36692569 14
-3.9793997 1.4562531 0.22007269 14
-3.9510946 1.446677 0.072776534 15
-1.8584687 0.68231046 -0.52022654 3
-2.1258006 0.78087866 -0.51401347 2
-2.5052533 0.92076069 -0.51090926 2
-3.0903583 1.1364179 -0.51545197 3
-3.9901052 1.4680723 -0.51733595 13
-3.9249198 1.4448667 -0.36256844 11
-3.9623208 1.4594204 -0.21855795 15
-3.9293046 1.4480386 -0.071703866 15
-3.9240177 1.4468682 1.1096104 13
-3.9303024 1.4499649 0.95756698 13
-3.912982 1.444351 0.80258459 15
-3.8949487 1.4384669 0.65083152 14
-3.9321904 1.4530008 0.51002318 11
-3.9275703 1.4520729 0.36300367 14
-3.9321454 1.4545443 0.21771757 14
-3.9038253 1.4448431 0.071991175 15
-1.8560756 0.6887936 -0.52022654 3
-2.1230619 0.78829437 -0.51401347 2
-2.5020239 0.9295001 -0.51090926 2
-3.0910017 1.1489189 -0.51623416 3
-3.9291384 1.4612331 -0.51002377 11
-3.8778379 1.442925 -0.35864642 16
-3.910408 1.4558213 -0.21594985 15
-3.8820629 1.44604 -0.070926353 15
-3.8736858 1.4436897 1.0966779 14
-3.8795676 1.446653 0.94632798 12
-3.8665285 1.4425597 0.79400587 14
-3.8482633 1.4365102 0.64379972 14
-3.8852525 1.4510906 0.50453907 12
-3.8758192 1.4483382 0.35864586 14
-3.8849511 1.4525234 0.21536244 14
-3.8519342 1.4409453 0.071118549 15
-1.858182 0.69696438 -0.52152056 3
-2.1202974 0.79570043 -0.51401347 2
-2.498764 0.93822813 -0.51090926 2
-3.0915952 1.1614382 -0.51701629 3
-3.8868504 1.4609706 -0.50514901 13
-3.8308177 1.4406725 -0.35472441 14
-3.8632426 1.4536363 -0.21360257 16
-3.8348835 1.4437296 -0.070148841 15
-3.8279443 1.44188 1.0850385 15
-3.833463 1.4447229 0.93621284 13
-3.8201358 1.4404618 0.78542715 15
-3.8016393 1.4342452 0.63676792 14
-3.833734 1.4471179 0.49844557 12
-3.8288023 1.4460199 0.35472384 13
-3.8378198 1.4501909 0.21300732 13
-3.804795 1.4384707 0.07033319 15
-1.8557377 0.70344633 -0.52152056 3
-2.1220624 0.80482447 -0.51513821 2
-2.4954739 0.94694471 -0.51090926 2
-3.0921392 1.1739757 -0.51779848 3
-3.8399732 1.4586686 -0.49966487 11
-3.7885172 1.4398789 -0.35123816 15
-3.8161402 1.4511399 -0.21125528 15
-3.7877676 1.4411075 -0.069371328 15
-3.782263 1.4397689 1.0733994 14
-3.7828665 1.4407545 0.92497373 13
-3.7738047 1.4380575 0.77684844 15
-3.7550783 1.4316723 0.62973613 14
-3.7869279 1.4445724 0.4929615 11
-3.7818499 1.4433913 0.35080189 13
-3.7907534 1.4475476 0.21065222 14
-3.7577207 1.4356852 0.069547832 15
-1.853271 0.70991981 -0.52152056 3
-2.11924 0.81222701 -0.51513821 2
-2.4921532 0.95564979 -0.51090926 2
-3.0926332 1.1865312 -0.51858068 3
-3.7931604 1.4560575 -0.49418074 11
-3.7462695 1.4388081 -0.34775195 15
-3.7691035 1.4483328 -0.20890802 14
-3.7407184 1.4381746 -0.068593815 15
-3.7366438 1.4373567 1.0617601 14
-3.736892 1.438201 0.91485858 13
-3.7275379 1.4353479 0.76826972 15
-3.7085829 1.4287921 0.62270433 14
-3.7401869 1.4417179 0.48747736 12
-3.7396095 1.4422451 0.34731564 14
-3.74841 1.4463907 0.20855878 14
-3.7153764 1.4343891 0.068849742 15
-1.8507816 0.71638465 -0.52152056 3
-2.1163919 0.8196196 -0.51513821 2
-2.4888022 0.96434319 -0.51090926 3
-3.0930774 1.1991043 -0.51936287 3
-3.7510395 1.4549321 -0.48930594 10
-3.7040756 1.4374597 -0.3442657 14
-3.7221332 1.4452149 -0.20656073 15
-3.6983953 1.4367409 -0.067902692 15
-3.6910875 1.4346435 1.0501208 14
-3.6909823 1.4353441 0.90474349 13
-3.6813369 1.432333 0.75969106 15
-3.6667554 1.4273967 0.61645383 14
-3.6981366 1.4403559 0.48260257 13
-3.6974244 1.4408219 0.34382939 13
-3.7014697 1.4431424 0.20620365 14
-3.6684301 1.4309983 0.068064377 15
-1.8482696 0.72284067 -0.52152056 3
-2.1180546 0.82877731 -0.51626295 2
-2.4854207 0.97302485 -0.51090926 3
-3.0888727 1.2098938 -0.51936287 3
-3.7089736 1.4535306 -0.48443118 10
-3.6619372 1.4358345 -0.34077948 14
-3.6798792 1.4436105 -0.20447426 15
-3.6514752 1.4332031 -0.067125186 15
-3.6455967 1.4316301 1.0384815 15
-3.645138 1.4321845 0.89462835 12
-3.6397705 1.4308089 0.75206554 14
-3.6249835 1.4257265 0.61020339 15
-3.6561415 1.4387182 0.4777278 13
-3.6552947 1.4391216 0.34034318 14
-3.6592441 1.4414142 0.20411022 14
-3.626204 1.4291306 0.067366287 15
-1.8457351 0.72928792 -0.52152056 3
-2.1151488 0.83616567 -0.51626295 2
-2.4820092 0.9816947 -0.51090926 3
-3.0754466 1.2170343 -0.51779848 3
-3.6669631 1.4518532 -0.47955641 10
-3.6198561 1.433933 -0.33729324 14
-3.6330409 1.4398894 -0.20212698 15
-3.609272 1.4311981 -0.066434063 15
-3.6001723 1.4283168 1.0268424 15
-3.6038895 1.4305197 0.88563704 13
-3.593698 1.4272006 0.74348688 15
-3.5832684 1.4237825 0.60395288 15
-3.6142042 1.436805 0.47285303 13
-3.6132226 1.4371451 0.33685696 14
-3.6170759 1.439409 0.20201679 14
-3.5840361 1.4269856 0.06666819 15
-1.8385648 0.7342568 -0.52022654 3
-2.1120701 0.84391242 -0.51626295 2
-2.4783945 0.99078512 -0.51090926 3
-3.06638 1.2264642 -0.51701629 4
-3.6247573 1.4505332 -0.47468162 10
-3.5775833 1.4323797 -0.33380702 15
-3.5906575 1.4383415 -0.2000405 15
-3.5668786 1.4295386 -0.06574294 16
-3.5590498 1.4271219 1.0164962 15
-3.5624485 1.4292066 0.87664586 13
-3.5520027 1.4257357 0.73586136 15
-3.541363 1.4221827 0.59770238 15
-3.5674694 1.4333899 0.4673689 13
-3.5755801 1.4373736 0.33380648 13
-3.5747159 1.4377511 0.19992335 14
-3.5463171 1.4270481 0.066057354 15
-1.8359905 0.74067014 -0.52022654 3
-2.1045938 0.84945643 -0.51513821 2
-2.4749207 0.9994303 -0.51090926 3
-3.0620799 1.2371603 -0.51701629 4
-3.5828636 1.448298 -0.46980685 11
-3.5356209 1.429919 -0.33032078 15
-3.5485859 1.4358833 -0.19795403 15
-3.5294297 1.4288489 -0.065138213 15
-3.5182338 1.4250311 1.0061502 14
-3.5213149 1.4269946 0.86765462 13
-3.5151637 1.4252161 0.72918904 16
-3.5043426 1.4215409 0.59223324 15
-3.5302551 1.43277 0.4631035 13
-3.5336208 1.4348544 0.33032027 14
-3.5326679 1.4351857 0.1978299 14
-3.5042615 1.424365 0.065359257 15
-1.8289212 0.74525189 -0.5189324 3
-2.1016159 0.85679764 -0.51513821 2
-2.4759619 1.009917 -0.51186246 3
-3.0531707 1.2459756 -0.51623416 5
-3.5410302 1.4457883 -0.46493205 10
-3.4937193 1.4271829 -0.32683456 15
-3.5111978 1.435038 -0.19612837 15
-3.4874017 1.4260229 -0.06444709 15
-3.4774761 1.4226727 0.99580419 14
-3.4802406 1.4245129 0.85866338 13
-3.4738297 1.4225968 0.72156352 16
-3.4628 1.4187857 0.58598274 15
-3.4884973 1.4300253 0.45822871 12
-3.4963317 1.4339497 0.32726982 14
-3.4906814 1.4323443 0.19573647 14
-3.466898 1.423292 0.064748421 15
-1.8218426 0.74979341 -0.51763833 3
-2.0986123 0.86412847 -0.51513821 2
-2.4724216 1.0185536 -0.51186246 3
-3.0488029 1.2566255 -0.51623416 5
-3.5038462 1.4448963 -0.46066663 10
-3.4564846 1.4260716 -0.32378408 14
-3.4692438 1.4320443 -0.19404191 14
-3.4500577 1.4248295 -0.063842356 15
-3.4367785 1.4200475 0.9854582 15
-3.4437294 1.4236233 0.85079604 13
-3.4370935 1.4215823 0.71489125 16
-3.4258831 1.4176462 0.5805136 15
-3.4468019 1.4270071 0.45335394 13
-3.4544904 1.4308965 0.32378358 14
-3.4533713 1.4311391 0.19390471 14
-3.4249644 1.4200673 0.064050324 15
-1.8147544 0.75429457 -0.51634425 3
-2.095583 0.87144876 -0.51513821 2
-2.4688511 1.0271778 -0.51186246 3
-3.0443978 1.2672602 -0.51623416 5
-3.4621308 1.4418546 -0.45579186 11
-3.4147031 1.4228021 -0.32029784 15
-3.4319625 1.4306966 -0.19221623 15
-3.4081511 1.4214685 -0.063151233 16
-3.3961418 1.4171555 0.9751122 15
-3.4072678 1.4224966 0.84292871 13
-3.3958774 1.4184372 0.70726568 15
-3.3890169 1.4162663 0.57504439 14
-3.4051702 1.423715 0.44847915 13
-3.4173083 1.4294908 0.32073313 14
-3.4115064 1.4277633 0.19181128 15
-3.3877075 1.418498 0.063439496 15
-1.8121104 0.76062465 -0.51634425 3
-2.0970199 0.88064462 -0.51626295 2
-2.4652505 1.0357894 -0.51186246 3
-3.0445082 1.2797931 -0.51701629 5
-3.4250543 1.4404634 -0.45152643 10
-3.377578 1.4211904 -0.31724739 15
-3.3901312 1.4271688 -0.19012977 14
-3.3709176 1.419773 -0.062546499 16
-3.3600185 1.4158731 0.96605939 15
-3.3663661 1.4192396 0.83393741 13
-3.3592482 1.4169295 0.70059341 15
-3.3522027 1.4146467 0.56957525 15
-3.3681765 1.4220805 0.44421375 13
-3.3801792 1.4278433 0.31768268 14
-3.3743067 1.4260567 0.18997951 15
-3.3505034 1.4166862 0.06282866 15
-1.8049977 0.76506066 -0.51505011 3
-2.0939333 0.88795918 -0.51626295 2
-2.4616199 1.0443884 -0.51186246 3
-3.0400221 1.2904127 -0.51701629 5
-3.3880301 1.438831 -0.44726098 10
-3.3405063 1.4193368 -0.31419694 15
-3.3529623 1.42532 -0.1883041 15
-3.3337379 1.417835 -0.061941773 16
-3.3239458 1.4143556 0.95700663 15
-3.3300126 1.4176234 0.82607013 13
-3.3226714 1.4151833 0.69392109 15
-3.3154411 1.4127876 0.56410605 15
-3.3312359 1.4202051 0.43994832 13
-3.3431032 1.4259541 0.31463224 14
-3.3371611 1.424108 0.18814775 14
-3.3133538 1.414632 0.062217824 16
-1.8067561 0.7732569 -0.51634425 3
-2.113214 0.90485138 -0.52188677 2
-2.4579594 1.0529747 -0.51186246 3
-3.0354993 1.3010164 -0.51701629 4
-3.3510594 1.436958 -0.44299558 10
-3.3034892 1.4172421 -0.31114647 15
-3.3158476 1.4232293 -0.18647844 15
-3.296613 1.4156549 -0.061337039 16
-3.2879255 1.4126039 0.94795388 15
-3.2937114 1.4157708 0.81820279 13
-3.2816391 1.4112602 0.68629557 15
-3.2787337 1.410689 0.55863684 14
-3.2943494 1.4180892 0.43568286 13
-3.3060818 1.4238235 0.31158176 13
-3.3046558 1.4238932 0.18657768 15
-3.2762597 1.412336 0.061606992 16
-1.8040459 0.77955902 -0.51634425 3
-2.0921552 0.90448922 -0.51738775 2
-2.4542687 1.0615482 -0.51186246 3
-3.0309396 1.3116043 -0.51701629 5
-3.3141437 1.4348445 -0.43873012 11
-3.2665274 1.4149064 -0.30809602 15
-3.2787893 1.4208972 -0.18465278 16
-3.2641311 1.4152217 -0.060818698 15
-3.2519577 1.4106181 0.93890113 15
-3.2574642 1.4136821 0.81033546 13
-3.245177 1.4090229 0.67962325 14
-3.2420821 1.4083517 0.5531677 14
-3.2575192 1.4157333 0.43141747 13
-3.2691169 1.4214522 0.30853134 14
-3.2676153 1.4214773 0.18474592 14
-3.2438064 1.4117935 0.061083421 16
-1.8013138 0.78585148 -0.51634425 3
-2.080055 0.90788895 -0.51513821 2
-2.4550464 1.072073 -0.51281571 3
-3.0308683 1.3241535 -0.51779848 5
-3.2772834 1.4324908 -0.43446469 11
-3.2341866 1.4143257 -0.30548134 16
-3.2463622 1.4203252 -0.18308793 15
-3.227113 1.4125744 -0.060213968 15
-3.2160447 1.4083986 0.92984837 15
-3.221272 1.4113579 0.80246812 13
-3.2087712 1.4065485 0.67295092 15
-3.2100098 1.4077592 0.54847986 15
-3.2252903 1.4151318 0.42776138 13
-3.2322087 1.4188402 0.30548087 14
-3.2306314 1.4188203 0.18291415 14
-3.2068202 1.4090307 0.060472585 16
-1.7985597 0.79213452 -0.51634425 3
-2.0679567 0.91121525 -0.51288873 2
-2.4557805 1.0826161 -0.51376885 3
-3.0262277 1.3347251 -0.51779848 5
-3.2450213 1.4319012 -0.4308086 11
-3.1973331 1.4115251 -0.3024309 16
-3.2094119 1.4175268 -0.18126225 15
-3.1947262 1.4117069 -0.059695628 16
-3.1801865 1.4059455 0.92079562 14
-3.1851361 1.4087982 0.79460078 13
-3.1769114 1.4058235 0.6672318 15
-3.1734653 1.4049609 0.54301065 15
-3.1885681 1.4123129 0.42349595 13
-3.1953595 1.4159881 0.30243042 13
-3.198271 1.4179462 0.18134408 15
-3.174463 1.408054 0.059949014 16
-1.7913705 0.79644579 -0.51505011 2
-2.0603118 0.91644818 -0.51176393 2
-2.4519866 1.0911818 -0.51376885 3
-3.0215502 1.3452805 -0.51779848 4
-3.2082701 1.4290844 -0.42654318 11
-3.1650887 1.410512 -0.29981622 16
-3.1770816 1.4165213 -0.17969741 16
-3.1623852 1.4106306 -0.059177287 16
-3.1443856 1.4032596 0.91174281 14
-3.1535068 1.4079901 0.78785735 13
-3.140614 1.4028913 0.66055948 14
-3.141489 1.4039398 0.53832281 15
-3.1564357 1.4112805 0.41983986 13
-3.1631165 1.41493 0.29981574 14
-3.1613994 1.4148241 0.17951232 15
-3.1375892 1.4048257 0.059338178 16
-1.7885796 0.8026939 -0.51505011 3
-2.0571003 0.92363441 -0.51176393 2
-2.4526401 1.1017454 -0.51472205 3
-3.0123312 1.3537951 -0.51701629 5
-3.1761045 1.428064 -0.42288712 11
-3.1328905 1.4092913 -0.29720154 16
-3.1447978 1.4153074 -0.17813255 15
-3.1300912 1.4093459 -0.058658946 15
-3.1130462 1.4023247 0.90398329 15
-3.1219218 1.4069785 0.78111392 13
-3.108851 1.4017406 0.65484035 15
-3.1095588 1.4027128 0.53363496 15
-3.1198266 1.4079999 0.41557443 14
-3.1309199 1.4136642 0.29720107 14
-3.1291387 1.4135176 0.17794225 15
-3.1053326 1.4034163 0.058814604 16
-1.790166 0.81092519 -0.51634425 3
-2.0538638 0.93080938 -0.51176393 2
-2.4532495 1.1123269 -0.51567525 3
-3.0030899 1.3622618 -0.51623416 5
-3.1394663 1.4247855 -0.41862166 11
-3.10074 1.407863 -0.29458687 16
-3.1080151 1.4118205 -0.17630689 15
-3.0978451 1.407853 -0.058140606 16
-3.0773551 1.3991892 0.8949306 14
-3.085948 1.4037462 0.77324659 13
-3.0771344 1.4003853 0.64912122 15
-3.0776758 1.4012802 0.52894711 15
-3.087795 1.4065382 0.41191834 13
-3.0987713 1.4121913 0.29458642 14
-3.0969265 1.4120032 0.17637217 15
-3.0731249 1.4017991 0.058291033 17
-1.7917168 0.81917733 -0.51763833 3
-2.050602 0.93797308 -0.51176393 2
-2.453815 1.122926 -0.51662844 3
-2.9938264 1.3706805 -0.51545197 5
-3.1074021 1.4233357 -0.41496557 11
-3.0686376 1.4062276 -0.29197219 16
-3.0758348 1.4101754 -0.17474203 15
-3.0656474 1.4061522 -0.057622265 16
-3.046114 1.3978362 0.88717103 14
-3.0544629 1.402313 0.76650316 13
-3.0454655 1.3988259 0.6434021 15
-3.0458407 1.399642 0.52425927 15
-3.0558121 1.4048702 0.40826228 13
-3.0666714 1.410511 0.29197174 15
-3.0647631 1.4102813 0.17480208 15
-3.0364249 1.3978834 0.057680197 24
-1.797617 0.82947356 -0.52022654 3
-2.0473154 0.94512528 -0.51176393 2
-2.4498804 1.1314845 -0.51662844 3
-2.9845405 1.3790511 -0.51466984 5
-3.0753868 1.4216793 -0.41130951 11
-3.041106 1.4064764 -0.28979328 16
-3.043704 1.4083228 -0.17317718 15
-3.0334997 1.4042441 -0.057103917 16
-3.01492 1.3962823 0.87941152 15
-3.0230258 1.4006772 0.75975972 13
-3.0182984 1.3991268 0.63863617 15
-3.014055 1.3977989 0.51957136 15
-3.0238791 1.4029962 0.40460619 13
-3.0346215 1.4086241 0.28935707 16
-3.0326498 1.4083523 0.173232 15
-3.004324 1.3958354 0.057156626 25
-1.7945647 0.83605659 -0.52022654 3
-2.0438375 0.95262265 -0.51176393 2
-2.450165 1.1425304 -0.51758158 3
-2.9749904 1.3878928 -0.51388764 6
-3.0431733 1.4203482 -0.40765342 12
-3.0088513 1.4049685 -0.28717861 16
-3.0113783 1.4067887 -0.17161232 15
-3.0011585 1.4026526 -0.056585576 16
-2.983531 1.3950486 0.87165201 15
-2.9913933 1.3993613 0.75301629 13
-2.9864771 1.3976969 0.63291705 15
-2.9820762 1.3962717 0.51488352 15
-2.9917519 1.4014387 0.40095013 14
-3.0023768 1.4070548 0.28674239 15
-3.0003424 1.4067401 0.17166193 16
-2.9720316 1.3940991 0.056633055 24
-1.7872646 0.8402608 -0.5189324 3
-2.0360916 0.95767778 -0.51063919 2
-2.4461617 1.1510762 -0.51758158 3
-2.9656596 1.3961656 -0.51310545 6
-3.0112586 1.4182745 -0.4039973 12
-2.9768939 1.402724 -0.28456393 16
-2.9793503 1.4045169 -0.17004748 16
-2.9691143 1.4003249 -0.056067236 16
-2.952435 1.3930883 0.8638925 15
-2.9644613 1.3993956 0.74739677 13
-2.9549506 1.3955367 0.62719792 15
-2.9503927 1.394014 0.51019561 15
-2.9644082 1.4012691 0.39790338 13
-2.9749327 1.4068792 0.28456348 15
-2.9728458 1.4065273 0.17035353 16
-2.9400327 1.391638 0.056109484 23
-1.7799573 0.84442437 -0.51763833 3
-2.0327363 0.9647792 -0.51063919 2
-2.4421289 1.1596079 -0.51758158 3
-2.9563074 1.40439 -0.51232326 8
-2.9838781 1.4181259 -0.40095058 12
-2.9494877 1.4024124 -0.28238505 17
-2.9518843 1.4041837 -0.16874342 16
-2.9416375 1.3999391 -0.055635288 16
-2.9213893 1.3909283 0.85613298 15
-2.9331672 1.3971639 0.74065334 14
-2.9279065 1.3952851 0.62243193 15
-2.9232194 1.3936777 0.50628912 16
-2.9326231 1.3987892 0.39424729 13
-2.9430313 1.4043843 0.28194883 15
-2.9408824 1.403989 0.16878346 16
-2.9126043 1.3911132 0.055673171 24
-1.7726425 0.84854716 -0.51634425 3
-2.0293562 0.97186893 -0.51063919 2
-2.43364 1.1660047 -0.51662844 3
-2.9469337 1.4125663 -0.51154113 11
-2.9520609 1.4156575 -0.39729452 12
-2.9176292 1.3997722 -0.27977037 16
-2.9199557 1.4015154 -0.16717857 16
-2.9096932 1.3972145 -0.055116944 16
-2.8947487 1.39066 0.84966671 15
-2.9063165 1.3968418 0.73503381 14
-2.8964772 1.3927351 0.61671281 15
-2.8916342 1.3910278 0.50160128 16
-2.9008918 1.3961047 0.39059123 13
-2.9156721 1.4038447 0.27976996 15
-2.9134712 1.4034115 0.16747504 16
-2.8807096 1.3882498 0.0551496 25
-1.7653208 0.85262918 -0.51505011 3
-2.0259514 0.97894675 -0.51063919 2
-2.4251361 1.1723564 -0.51567525 3
-2.9197559 1.4120936 -0.50763023 17
-2.9247651 1.4151461 -0.39424777 13
-2.8903086 1.399097 -0.27759147 16
-2.892576 1.4008178 -0.16587453 16
-2.8823035 1.396464 -0.054684997 16
-2.8637993 1.3881161 0.8419072 15
-2.8751202 1.3942232 0.72829044 13
-2.869518 1.3921251 0.61194688 15
-2.8645465 1.3903309 0.49769467 15
-2.8692153 1.3932158 0.38693514 13
-2.883872 1.4009547 0.27715525 15
-2.8816094 1.4004773 0.16590497 16
-2.8533666 1.3873668 0.05471329 25
-1.7623339 0.85878611 -0.51505011 3
-2.022522 0.9860127 -0.51063919 2
-2.4210289 1.1808145 -0.51567525 3
-2.8793032 1.4049518 -0.50137287 12
-2.8975089 1.4144615 -0.39120105 12
-2.8630283 1.3982481 -0.27541256 16
-2.865237 1.3999462 -0.16457048 16
-2.8549542 1.3955393 -0.054253042 16
-2.8372426 1.3874953 0.83544099 14
-2.8483541 1.3935452 0.72267085 14
-2.8381898 1.3891863 0.60622776 15
-2.8374989 1.3894621 0.49378812 15
-2.842051 1.3923062 0.38388839 14
-2.856601 1.4000523 0.27497637 15
-2.8542874 1.3995364 0.16459657 16
-2.8260643 1.3863097 0.05427698 25
-1.7593254 0.86493254 -0.51505011 3
-2.0234392 0.99521667 -0.51176393 2
-2.4124885 1.1870912 -0.51472205 5
-2.8477974 1.4019072 -0.49667984 11
-2.8702936 1.4136039 -0.3881543 13
-2.831322 1.3950247 -0.27279788 17
-2.8379397 1.398901 -0.16326644 17
-2.827647 1.3944409 -0.053821094 16
-2.810725 1.3867059 0.82897466 15
-2.8172591 1.390541 0.71592742 13
-2.8113184 1.388219 0.60146183 15
-2.8060648 1.386234 0.48910025 15
-2.8104794 1.3890252 0.38023233 12
-2.8293715 1.3989767 0.27279747 15
-2.8225315 1.3962078 0.1630265 15
-2.7943249 1.382862 0.05375341 23
-1.7562954 0.87106848 -0.51505011 3
-2.0199528 1.0022738 -0.51176393 2
-2.40833 1.1955051 -0.51472205 4
-2.8163481 1.3986598 -0.49198681 11
-2.8431194 1.4125737 -0.38510755 13
-2.8041334 1.3938141 -0.270619 13
-2.8106847 1.3976823 -0.16196239 17
-2.8003826 1.393169 -0.053389143 16
-2.7842476 1.3857483 0.82250839 15
-2.7905815 1.3895085 0.7103079 14
-2.7844887 1.3870811 0.59669584 15
-2.7791088 1.3850065 0.48519373 15
-2.7834074 1.3877555 0.37718561 14
-2.7977271 1.3955048 0.27018279 15
-2.7953019 1.3949044 0.1617181 16
-2.7671165 1.3814425 0.053317096 24
-1.7530911 0.87749976 -0.51505011 3
-2.0162656 1.0096705 -0.51176393 2
-2.4039321 1.2043241 -0.51472205 4
-2.7891281 1.3979089 -0.48807591 10
-2.8157418 1.4118626 -0.38206083 13
-2.7722929 1.3906822 -0.26800433 12
-2.7832294 1.3967763 -0.16065834 16
-2.7684507 1.3899647 -0.052870803 15
-2.75757 1.3851044 0.81604218 15
-2.7593501 1.3866016 0.70356447 14
-2.7530739 1.3840497 0.59097672 15
-2.7519538 1.3840883 0.48128715 15
-2.7561362 1.3867946 0.37413886 13
-2.7703483 1.3945516 0.26800391 15
-2.7678726 1.393911 0.16040969 15
-2.7397118 1.3803285 0.05288079 24
-1.7500174 0.88361388 -0.51505011 3
-2.0127292 1.0167024 -0.51176393 3
-2.3997135 1.212708 -0.51472205 4
-2.7621956 1.3964956 -0.48416507 11
-2.7886539 1.4104832 -0.37901407 13
-2.7451994 1.3891062 -0.26582542 12
-2.7516077 1.392952 -0.1590935 15
-2.7412827 1.3883263 -0.052438848 15
-2.7311764 1.3838069 0.80957586 16
-2.7327652 1.3852113 0.697945 13
-2.7263381 1.3825517 0.58621085 15
-2.7250845 1.382514 0.4773806 15
-2.7291517 1.3851765 0.37109211 13
-2.7432573 1.3929379 0.265825 16
-2.7407317 1.3922571 0.15910131 16
-2.7125902 1.3785647 0.052444477 26
-1.7469224 0.88971722 -0.51505011 3
-2.013509 1.0259339 -0.51288873 2
-2.3954659 1.2210772 -0.51472205 4
-2.735307 1.3949112 -0.4802542 11
-2.76161 1.4089322 -0.37596735 13
-2.7181513 1.3873581 -0.26364651 12
-2.7244933 1.3911946 -0.15778944 16
-2.71416 1.3865154 -0.0520069 15
-2.7005248 1.3801444 0.8018164 16
-2.7062232 1.3836523 0.69232541 14
-2.6996462 1.3808841 0.58144486 15
-2.6982603 1.3807693 0.47347406 16
-2.70663 1.3856484 0.36865473 14
-2.7162116 1.391152 0.26364613 15
-2.7136362 1.3904309 0.1577929 16
-2.6855206 1.3766167 0.052008171 25
-1.7438059 0.89580965 -0.51505011 3
-2.0099154 1.032956 -0.51288873 2
-2.3955541 1.2316759 -0.51567525 4
-2.7040718 1.3908973 -0.47556117 11
-2.7346115 1.4072096 -0.3729206 13
-2.6911492 1.3854384 -0.26146764 12
-2.6974256 1.3892652 -0.15648541 16
-2.6870832 1.384532 -0.051574945 16
-2.6742256 1.3784977 0.79535013 15
-2.6840565 1.3841583 0.68782979 14
-2.6729996 1.3790469 0.57667893 15
-2.6714814 1.3788542 0.46956751 16
-2.6797292 1.3837035 0.36560804 13
-2.6936376 1.3914808 0.26190299 15
-2.6865873 1.3884327 0.1564845 16
-2.6584947 1.3745023 0.051571857 26
-1.7406683 0.90189117 -0.51505011 3
-2.0106227 1.0422076 -0.51401347 3
-2.3912399 1.2400304 -0.51567525 4
-2.6772821 1.3889568 -0.47165027 11
-2.7076585 1.4053159 -0.36987385 14
-2.6641939 1.3833473 -0.25928873 13
-2.6704047 1.3871639 -0.15518135 16
-2.6600542 1.3823769 -0.051142998 16
-2.6479709 1.3766845 0.78888386 15
-2.6575966 1.3822781 0.68221027 14
-2.6507533 1.3793064 0.57286614 15
-2.6491296 1.3790494 0.46644226 16
-2.6528747 1.3815873 0.36256129 13
-2.6666775 1.3893673 0.25972411 15
-2.6595855 1.3862627 0.1551761 17
-2.6315167 1.3722165 0.051135547 27
-1.7332293 0.90572506 -0.51375604 3
-2.0069723 1.0492196 -0.51401347 3
-2.3912463 1.2506446 -0.51662844 4
-2.6549146 1.3891358 -0.4685216 11
-2.6807528 1.4032512 -0.36682713 13
-2.6372862 1.3810849 -0.25710985 13
-2.6434314 1.3848909 -0.15387732 16
-2.6330731 1.3800499 -0.050711047 16
-2.6260393 1.3769478 0.78371084 15
-2.6311831 1.3802304 0.6765908 14
-2.6241915 1.3771468 0.56810021 16
-2.622437 1.3768098 0.46253574 16
-2.6260681 1.3793011 0.35951456 14
-2.6441741 1.3893998 0.257981 16
-2.6370513 1.3862445 0.15412939 17
-2.6090121 1.372086 0.050786499 28
-1.7300571 0.91176963 -0.51375604 3
-2.0076075 1.0584911 -0.51513821 3
-2.3912075 1.2612739 -0.51758158 4
-2.6282115 1.3868711 -0.46461076 12
-2.6538947 1.401016 -0.36378038 14
-2.6148312 1.3809776 -0.25536671 13
-2.6209216 1.3847793 -0.15283407 16
-2.6105604 1.3798877 -0.050365485 16
-2.5998685 1.3748169 0.77724457 15
-2.609123 1.3802934 0.67209518 14
-2.5976772 1.3748187 0.56333429 15
-2.6001568 1.3767118 0.45941046 16
-2.5993102 1.3768444 0.35646781 14
-2.6173019 1.3869597 0.25580209 16
-2.6101389 1.3837473 0.15282097 17
-2.5821242 1.369473 0.050350189 26
-1.726864 0.91780305 -0.51375604 3
-2.0082018 1.0677797 -0.51626295 3
-2.3911238 1.2719182 -0.51853484 4
-2.6015565 1.384437 -0.46069989 12
-2.627085 1.3986105 -0.36073366 13
-2.5880134 1.3783894 -0.25318784 13
-2.5940385 1.3821795 -0.15153003 16
-2.5836697 1.3772337 -0.049933534 16
-2.5737453 1.3725203 0.77077836 16
-2.5827961 1.3779261 0.66647559 14
-2.575542 1.3746333 0.55952156 15
-2.5779095 1.3764752 0.45628521 16
-2.5769787 1.3765563 0.35403043 14
-2.5948725 1.3866968 0.25405899 16
-2.5876794 1.3834335 0.15177426 17
-2.5596948 1.3690469 0.050001144 27
-1.7193928 0.92154384 -0.5124619 3
-2.0087562 1.0770854 -0.51738775 3
-2.3866694 1.280257 -0.51853484 4
-2.5793023 1.384169 -0.45757118 12
-2.6003246 1.3960351 -0.35768694 14
-2.5656338 1.3779874 -0.2514447 13
-2.5716043 1.3817725 -0.1504868 16
-2.5612328 1.376776 -0.049587972 17
-2.5519235 1.3723458 0.76560533 16
-2.5608084 1.3777001 0.66198003 14
-2.5491173 1.3719842 0.55475557 15
-2.5513475 1.3737589 0.45237869 17
-2.550312 1.3737754 0.35098368 14
-2.5680921 1.3839314 0.25188008 17
-2.5608592 1.3806103 0.15046588 17
-2.5329001 1.3661077 0.049564831 26
-1.7161654 0.92754 -0.5124619 3
-2.0092697 1.0864079 -0.51851249 2
-2.3821859 1.2885802 -0.51853484 4
-2.5527384 1.381412 -0.45366031 12
-2.5736144 1.3932898 -0.35464019 16
-2.5389085 1.375074 -0.2492658 13
-2.5448143 1.378847 -0.14918275 17
-2.538831 1.3761785 -0.049242411 16
-2.5258887 1.3697333 0.75913906 16
-2.5345716 1.3750144 0.65636045 14
-2.5270572 1.3715088 0.55094284 15
-2.5291762 1.3732305 0.44925344 15
-2.5280576 1.3731943 0.3485463 13
-2.5457394 1.3833742 0.25013697 16
-2.5384769 1.3800018 0.14941916 18
-2.5105491 1.365387 0.049215782 27
-1.7171582 0.93583608 -0.51375604 3
-2.0097425 1.095747 -0.51963723 2
-2.3776734 1.2968878 -0.51853484 4
-2.5305607 1.3808525 -0.4505316 12
-2.5469558 1.3903755 -0.35159346 14
-2.516607 1.3743784 -0.24752268 13
-2.5224586 1.3781457 -0.14813951 16
-2.5120783 1.3730439 -0.048810463 17
-2.5041411 1.3692733 0.75396603 15
-2.5126593 1.3745008 0.65186483 14
-2.500726 1.3685399 0.54617691 16
-2.502708 1.3701923 0.44534689 16
-2.5014856 1.3700906 0.34549958 14
-2.5234222 1.3826782 0.24839386 17
-2.5117519 1.3768536 0.14811075 13
-2.4882343 1.3645269 0.048866734 28
-1.7138811 0.94182438 -0.51375604 3
-2.0101745 1.1051027 -0.52076203 2
-2.3688309 1.302814 -0.51758158 4
-2.5040917 1.3777742 -0.44662076 12
-2.5203488 1.3872921 -0.34854671 17
-2.4899783 1.3711414 -0.24534379 14
-2.4957647 1.3748956 -0.14683546 16
-2.4897566 1.3721521 -0.048464898 17
-2.4781983 1.3663461 0.74749976 16
-2.4865155 1.3714978 0.64624536 14
-2.4787438 1.3677754 0.54236418 16
-2.4806159 1.3693732 0.44222164 16
-2.4793108 1.3692174 0.34306216 13
-2.5011413 1.3818432 0.24665076 17
-2.4894502 1.3759513 0.14706403 14
-2.470331 1.3659468 0.048604947 28
-1.7148075 0.95014191 -0.51505011 3
-2.0063047 1.1121128 -0.52076203 2
-2.364269 1.3110749 -0.51758158 4
-2.4819932 1.3769238 -0.44349208 12
-2.4981339 1.3864484 -0.34610933 15
-2.4677579 1.3701533 -0.24360067 14
-2.4734905 1.3739009 -0.14579223 17
-2.4674721 1.3711218 -0.04811934 17
-2.4565279 1.3656014 0.7423268 16
-2.4646814 1.3706971 0.64174974 15
-2.4525084 1.3644878 0.53759819 16
-2.45856 1.3684165 0.43909642 16
-2.4571726 1.3682063 0.34062478 15
-2.4788969 1.3808696 0.24490763 17
-2.4671857 1.3749102 0.14601731 14
-2.4480817 1.3648241 0.048255898 31
-1.7114804 0.95612192 -0.51505011 3
-2.0024107 1.1191093 -0.52076203 3
-2.3553939 1.3169245 -0.51662844 4
-2.4556215 1.3735254 -0.43958122 12
-2.4759557 1.3854665 -0.34367192 15
-2.445575 1.3690269 -0.24185754 14
-2.4512534 1.3727676 -0.14474899 17
-2.4452252 1.3699523 -0.047773778 17
-2.4348934 1.3647223 0.73715377 16
-2.4428833 1.3697609 0.63725412 15
-2.4306073 1.3634351 0.53378546 16
-2.4322343 1.364906 0.43518984 17
-2.4350719 1.3670573 0.3381874 14
-2.452347 1.3773185 0.24272874 17
-2.4449589 1.3737305 0.1449706 14
-2.4258711 1.3635628 0.047906853 30
-1.7081324 0.96209025 -0.51505011 3
-2.0027366 1.1284838 -0.52188677 3
-2.3507826 1.3251383 -0.51662844 4
-2.4336057 1.3723855 -0.43645251 13
-2.4538155 1.3843468 -0.34123453 16
-2.427768 1.3702106 -0.24055022 15
-2.4290545 1.3714958 -0.14370576 17
-2.423017 1.3686447 -0.047428217 17
-2.413295 1.3637089 0.73198074 16
-2.4211218 1.3686891 0.63275844 15
-2.4087436 1.3622464 0.52997267 17
-2.4102619 1.3636602 0.43206459 13
-2.4130096 1.3657708 0.33575001 14
-2.4345212 1.3785076 0.24142142 17
-2.4227707 1.3724127 0.14392388 14
-2.4080484 1.3646281 0.04764507 29
-1.7047638 0.9680469 -0.51505011 3
-1.994549 1.1330613 -0.52076203 3
-2.3418753 1.3309108 -0.51567525 5
-2.411628 1.3711089 -0.43332383 14
-2.4317129 1.3830895 -0.33879715 15
-2.4056535 1.3688235 -0.23880711 15
-2.4068947 1.3700858 -0.14266253 18
-2.4008479 1.3671987 -0.047082655 17
-2.3917336 1.3625612 0.72680777 16
-2.3993981 1.3674824 0.62826282 15
-2.3869183 1.3609219 0.52615994 16
-2.3840382 1.3598311 0.42815807 13
-2.3909862 1.3643473 0.33331263 15
-2.4123917 1.3771199 0.23967829 17
-2.4006219 1.3709567 0.14287716 14
-2.3859072 1.3631057 0.047296021 30
-1.7053952 0.97668886 -0.51634425 3
-1.9903828 1.1403641 -0.52076203 3
-2.3369818 1.3394853 -0.51567525 5
-2.3894501 1.3701127 -0.43019515 14
-2.413713 1.3845848 -0.33696911 16
-2.3876598 1.3701938 -0.23749976 16
-2.3888662 1.3714404 -0.1418801 18
-2.3784802 1.3660299 -0.046737097 17
-2.3699722 1.3616936 0.72163475 16
-2.37325 1.3641279 0.62264335 16
-2.369149 1.3623209 0.52330035 17
-2.3619149 1.3587096 0.42503282 13
-2.3687642 1.3632001 0.33087525 14
-2.3900614 1.3760116 0.23793519 18
-2.3782737 1.369778 0.14183044 14
-2.3635685 1.3618579 0.046946973 30
-1.7019756 0.98263586 -0.51634425 2
-1.9863901 1.147305 -0.52076203 3
-2.3280418 1.3451791 -0.51472205 5
-2.3718262 1.3710304 -0.42784861 15
-2.3916807 1.3830643 -0.33453172 16
-2.3656166 1.3685429 -0.23575665 15
-2.3667777 1.3697661 -0.14083686 17
-2.360718 1.3668094 -0.046477929 18
-2.3484869 1.360275 0.71646172 17
-2.3516121 1.3626332 0.61814773 15
-2.3473935 1.3607363 0.51948762 17
-2.3400691 1.357036 0.4219076 14
-2.3468208 1.3614988 0.32843786 15
-2.3680115 1.3743451 0.23619208 18
-2.3562055 1.3680428 0.14078373 16
-2.3415053 1.3600619 0.04659792 32
-1.6987076 0.9882744 -0.51634425 3
-1.9827758 1.1535397 -0.52076203 3
-2.3238044 1.3524861 -0.51472205 6
-2.3504364 1.3685356 -0.4247199 14
-2.3701706 1.3805798 -0.33209434 16
-2.3440909 1.3659368 -0.23401353 15
-2.3495216 1.3696508 -0.14005443 17
-2.3391385 1.3641449 -0.046132363 19
-2.3275149 1.3579108 0.71128875 16
-2.3346961 1.3626466 0.61477602 16
-2.3261523 1.3582045 0.51567489 17
-2.3230009 1.3569081 0.41956365 14
-2.3253925 1.3588495 0.32600048 16
-2.3464818 1.3717225 0.23444895 18
-2.3389654 1.3678763 0.13999867 15
-2.3242793 1.3598319 0.046336137 31
-1.695421 0.99390209 -0.51634425 3
-1.9787371 1.1604538 -0.52076203 3
-2.3190691 1.3605896 -0.51472205 7
-2.3328681 1.3692327 -0.42237341 14
-2.3482189 1.3787937 -0.32965693 16
-2.3264241 1.3665426 -0.23270617 15
-2.3275065 1.3677249 -0.1390112 18
-2.3214333 1.364701 -0.045873195 17
-2.3061078 1.3562334 0.70611572 16
-2.3131285 1.3609056 0.61028039 16
-2.3087075 1.358847 0.5128153 17
-2.3012276 1.3549854 0.4164384 14
-2.307807 1.3594021 0.32417244 16
-2.3245139 1.3697895 0.23270582 18
-2.3169708 1.3658895 0.13895196 15
-2.302294 1.3577787 0.045987088 31
-1.6915923 1.0004047 -0.51634425 3
-1.9742668 1.168043 -0.52076203 3
-2.313828 1.3694841 -0.51472205 8
-2.3105953 1.3681155 -0.41924468 13
-2.3300982 1.3802124 -0.32782891 16
-2.3040192 1.3653082 -0.23096307 14
-2.305057 1.3664668 -0.13796796 17
-2.2989762 1.3634043 -0.045527633 17
-2.2884216 1.357685 0.70223594 17
-2.2911274 1.3598309 0.60578477 16
-2.2865911 1.3576782 0.50900251 18
-2.2832699 1.3562452 0.41409445 15
-2.2855051 1.3581127 0.32173505 16
-2.3063924 1.3710693 0.23139849 18
-2.2988346 1.3671194 0.13816692 15
-2.2841742 1.3589405 0.045725301 31
-1.6880898 1.0063034 -0.51634425 3
-1.9743619 1.1774228 -0.52188677 3
-2.3090334 1.3775524 -0.51472205 13
-2.2930839 1.36858 -0.41689819 14
-2.3082218 1.378161 -0.3253915 16
-2.2864108 1.3656799 -0.22965574 15
-2.2874143 1.3668209 -0.13718553 18
-2.2813299 1.3637255 -0.045268461 18
-2.2670879 1.3557492 0.69706297 16
-2.2738235 1.3603163 0.602413 16
-2.2649913 1.355569 0.50518978 18
-2.2615731 1.3540596 0.41096923 15
-2.2679784 1.3584322 0.31990701 15
-2.284502 1.3688711 0.22965539 18
-2.2769179 1.3648667 0.1371202 15
-2.2622635 1.3566271 0.045376252 31
-1.6887069 1.0146773 -0.51763833 3
-1.9702398 1.1843075 -0.52188677 2
-2.2831788 1.3729569 -0.50995612 19
-2.2713659 1.3663932 -0.41376951 13
-2.2906408 1.378533 -0.32356349 16
-2.2645609 1.3633761 -0.22791262 15
-2.2655201 1.3644925 -0.1361423 17
-2.2594273 1.3613604 -0.044922903 17
-2.2499321 1.3561745 0.69318318 16
-2.2565448 1.3606976 0.59904134 17
-2.2434344 1.3533258 0.50137705 18
-2.244148 1.3542905 0.4086253 14
-2.2462285 1.356081 0.31746963 16
-2.2669184 1.3691119 0.22834805 18
-2.2593188 1.3650601 0.13633516 15
-2.2404041 1.3541658 0.045027204 31
-1.6975479 1.0280713 -0.52152056 3
-1.9660939 1.1911775 -0.52188677 3
-2.2615826 1.3707421 -0.50614333 14
-2.2539139 1.3666321 -0.41142297 14
-2.2730854 1.378799 -0.32173541 17
-2.2470129 1.3635206 -0.22660528 15
-2.2479386 1.3646193 -0.13535988 17
-2.2418427 1.3614542 -0.044663735 17
-2.2286732 1.353989 0.68801016 17
-2.2351279 1.3584446 0.59454572 16
-2.226115 1.3534988 0.49851748 18
-2.2267487 1.3544165 0.40628135 15
-2.2287626 1.3561745 0.31564158 15
-2.2451069 1.3666569 0.22660492 18
-2.2374816 1.3625503 0.13528845 16
-2.2228556 1.3541754 0.04476542 30
-1.7021935 1.0390232 -0.52410877 3
-1.9619238 1.1980332 -0.52188677 3
-2.2400296 1.3683931 -0.5023306 16
-2.2322743 1.3641907 -0.40829429 15
-2.251322 1.3763708 -0.31929803 18
-2.2252426 1.3609604 -0.22486216 16
-2.2261245 1.3620337 -0.13431664 18
-2.220021 1.358832 -0.044318173 18
-2.2115762 1.3541937 0.68413043 18
-2.2179086 1.3586035 0.59117401 16
-2.2046368 1.3510029 0.49470475 14
-2.2093763 1.3544378 0.40393746 15
-2.2113235 1.3561625 0.31381357 17
-2.227586 1.3666711 0.2252976 21
-2.219945 1.3625165 0.13450339 15
-2.2010736 1.3514628 0.044416368 30
-1.727351 1.0626732 -0.53316748 3
-1.9577301 1.2048743 -0.52188677 3
-2.2227004 1.3684839 -0.49947101 15
-2.2148845 1.3642049 -0.40594777 15
-2.2338288 1.376411 -0.31747001 17
-2.2077582 1.3608788 -0.22355483 16
-2.204356 1.3593128 -0.13327339 18
-2.2024999 1.3586988 -0.044059001 17
-2.1903951 1.3517593 0.67895746 17
-2.1965704 1.3560997 0.58667839 17
-2.1873794 1.3509527 0.49184516 14
-2.1878297 1.3517585 0.40081221 15
-2.1896901 1.353436 0.31137615 16
-2.2058558 1.3639601 0.22355449 15
-2.1981897 1.3597503 0.13345668 15
-2.1835897 1.3512459 0.044154584 31
-1.7072124 1.0585164 -0.52799106 3
-1.9535123 1.2117008 -0.52188677 3
-2.2053981 1.3684705 -0.49661148 13
-2.1975214 1.3641143 -0.40360126 15
