# .PCD v0.7 - Point Cloud Data file format
VERSION 0.7
FIELDS x y z intensity
SIZE 4 4 4 4
TYPE F F F F
COUNT 1 1 1 1
WIDTH 1314
HEIGHT 1
VIEWPOINT 0 0 0 1 0 0 0
POINTS 1314
DATA ascii
-2.3765013 -0.75204515 -0.38873994 10
-2.4165328 -0.76424915 -0.30650172 14
-2.4301651 -0.76809394 -0.21963282 15
-2.3980813 -0.75749302 -0.12936127 16
-2.424917 -0.76550418 -0.043281488 13
-2.4454474 -0.77151603 0.67637092 13
-2.4387479 -0.76893437 0.58105886 17
-2.4286711 -0.76529127 0.4870792 13
-2.4576926 -0.77396464 0.40159351 14
-2.4223313 -0.76236415 0.30711073 15
-2.4502411 -0.77067804 0.22137558 15
-2.4372218 -0.76611561 0.1318866 17
-2.4355149 -0.76511198 0.043892797 14
-1.9399687 -0.60757762 -0.53446156 3
-2.2449801 -0.70267379 -0.53425908 3
-2.4021618 -0.75141096 -0.48136041 7
-2.407393 -0.75258607 -0.39343297 9
-2.4570813 -0.76764858 -0.31137651 14
-2.4661133 -0.76999807 -0.22268325 15
-2.4340763 -0.75952893 -0.13118692 16
-2.4562094 -0.76596487 -0.043799829 13
-2.4711812 -0.7701605 0.68283719 14
-2.469327 -0.76910985 0.58780229 13
-2.4641333 -0.7670204 0.49375153 14
-2.4886732 -0.77418274 0.40628135 13
-2.4534118 -0.76274377 0.31076682 15
-2.4814565 -0.77098781 0.22399026 14
-2.4684927 -0.76648754 0.13345668 16
-2.4668186 -0.76549566 0.044416368 14
-1.9420778 -0.60080218 -0.53446156 3
-2.2427647 -0.69339401 -0.53313428 3
-2.4329073 -0.75171506 -0.48707953 7
-2.4383171 -0.75292033 -0.39812601 8
-2.4929404 -0.76931083 -0.31564194 13
-2.4925852 -0.76872474 -0.22486216 14
-2.465343 -0.75985193 -0.13275178 16
-2.4827571 -0.7647447 -0.04423178 12
-2.4969349 -0.76863474 0.68930346 14
-2.4999366 -0.76908106 0.59454572 13
-2.4902537 -0.76562649 0.49851748 13
-2.5196853 -0.77419394 0.41096923 13
-2.484524 -0.76291573 0.31442288 14
-2.5127034 -0.7710889 0.22660492 15
-2.4997954 -0.76665038 0.13502677 16
-2.4981544 -0.76567012 0.044939946 14
-1.9349253 -0.59119695 -0.5318734 3
-2.2451715 -0.68556112 -0.53313428 3
-2.4636841 -0.75181365 -0.49279872 6
-2.4692726 -0.75304788 -0.4028191 8
-2.5193465 -0.7678383 -0.31868869 13
-2.5238423 -0.76872706 -0.22747684 13
-2.4966414 -0.75996596 -0.13431664 16
-2.5141084 -0.76480341 -0.04475012 12
-2.5227079 -0.76693845 0.69576973 13
-2.525914 -0.76743156 0.60016519 13
-2.5210905 -0.76548541 0.50423664 13
-2.5460012 -0.77256387 0.41487581 12
-2.515667 -0.76287961 0.31807896 14
-2.5439808 -0.77098113 0.2292196 14
-2.5311289 -0.76660383 0.13659684 16
-2.5247359 -0.76418656 0.045376252 13
-1.9462248 -0.58722937 -0.53446156 3
-2.2428865 -0.67631328 -0.5320096 3
-2.4991901 -0.75312251 -0.49947101 6
-2.5049863 -0.75439233 -0.40829429 9
-2.5505242 -0.76762086 -0.32234478 12
-2.5503597 -0.76708591 -0.22965574 13
-2.5279698 -0.75987053 -0.1358815 15
-2.5407023 -0.76321423 -0.045182075 12
-2.5484991 -0.76507139 0.70223594 14
-2.5519102 -0.76560992 0.60578477 13
-2.5519564 -0.76513833 0.50995576 12
-2.5770671 -0.77217704 0.41956365 13
-2.5420854 -0.76121175 0.32112572 14
-2.5752878 -0.77066422 0.23183426 14
-2.5577085 -0.76491719 0.13790524 15
-2.5561273 -0.76395839 0.045899823 13
-1.9112338 -0.56940049 -0.52410877 3
-2.2452338 -0.6684801 -0.5320096 3
-2.5347352 -0.75419271 -0.50614333 7
-2.5360062 -0.75408906 -0.41298732 9
-2.5769739 -0.7657814 -0.3253915 13
-2.5816712 -0.76668692 -0.23227042 13
-2.5593278 -0.75956553 -0.13744634 15
-2.5673153 -0.76144844 -0.045614023 11
-2.5789387 -0.76440626 0.70999545 13
-2.5825956 -0.76499987 0.6125282 11
-2.5781438 -0.7631917 0.51472169 12
-2.6034257 -0.7701816 0.42347023 12
-2.5732815 -0.76077557 0.32478178 13
-2.6018465 -0.76872689 0.23401317 14
-2.5890956 -0.76446819 0.13947532 15
-2.5827529 -0.76210541 0.046336137 13
-1.9363767 -0.56953955 -0.53057927 3
-2.2428792 -0.6592648 -0.5308848 3
-2.5608988 -0.75225693 -0.51090926 8
-2.5670538 -0.75357825 -0.41768035 9
-2.6082036 -0.7651636 -0.32904762 12
-2.6130104 -0.76607853 -0.23488508 13
-2.5907145 -0.75905079 -0.1390112 14
-2.5987446 -0.76091105 -0.046132363 12
-2.6094038 -0.7635377 0.71775496 12
-2.6133075 -0.76418477 0.61927158 11
-2.6090596 -0.76244831 0.52044082 11
-2.6345415 -0.76939589 0.42815807 13
-2.6045053 -0.76013076 0.32843786 14
-2.6332045 -0.76800793 0.23662783 14
-2.6205101 -0.76380926 0.14104539 14
-2.6141961 -0.76147383 0.046859708 13
-1.9383529 -0.56277686 -0.53057927 2
-2.2451668 -0.65143168 -0.5308848 2
-2.5776517 -0.74741381 -0.51376885 8
-2.5981288 -0.75285989 -0.42237341 9
-2.6394598 -0.76433706 -0.33270368 13
-2.6491611 -0.76664519 -0.23793554 13
-2.622128 -0.75832605 -0.14057605 14
-2.6302011 -0.76016343 -0.046650708 11
-2.6398945 -0.76246572 0.72551447 12
-2.6440449 -0.76316452 0.62601501 11
-2.6400015 -0.76149833 0.52615994 12
-2.665683 -0.76840222 0.43284592 12
-2.6357555 -0.75927705 0.33209395 13
-2.6645887 -0.76707941 0.23924251 13
-2.6519516 -0.76294023 0.14261547 14
-2.6456659 -0.76063198 0.047383279 13
nan nan nan 0
-2.247427 -0.64359057 -0.5308848 3
-2.6085579 -0.7465142 -0.51948798 6
-2.6292293 -0.75193352 -0.42706645 8
-2.6707418 -0.76330143 -0.33635977 12
-2.6805577 -0.7656008 -0.24055022 13
-2.6583693 -0.75876164 -0.14240173 14
-2.6616836 -0.75920528 -0.047169048 11
-2.6750536 -0.76251405 0.73456728 11
-2.6748066 -0.76193887 0.63275844 11
-2.6709678 -0.76034147 0.53187907 12
-2.6968498 -0.76720035 0.4375338 12
-2.6670313 -0.75821447 0.33575001 13
-2.6959984 -0.76594108 0.24185717 12
-2.6834185 -0.76186091 0.14418554 15
-2.6771612 -0.75957954 0.047906853 12
-1.9423304 -0.54889202 -0.53057927 3
-2.2497709 -0.63534904 -0.5308848 3
-2.6301718 -0.74228102 -0.52330071 4
-2.6604857 -0.75033474 -0.43175948 9
-2.6974046 -0.76023877 -0.33940649 12
-2.7169068 -0.7652235 -0.24360067 13
-2.6899707 -0.75713015 -0.14396657 13
-2.6933231 -0.75756645 -0.047687389 11
-2.7057285 -0.76054615 0.7423268 11
-2.7104146 -0.76135302 0.64062583 11
-2.7068164 -0.75983256 0.53855139 11
-2.732929 -0.76664811 0.44300297 12
-2.6984634 -0.75647175 0.3394061 12
-2.7275655 -0.76411659 0.24447185 13
-2.7150421 -0.76009721 0.14575563 13
-2.7088134 -0.75784361 0.048430424 13
nan nan nan 0
-2.2472818 -0.62618434 -0.52976006 3
-2.6705742 -0.7436285 -0.53092623 7
-2.6916347 -0.74898672 -0.43645251 8
-2.72873 -0.75879586 -0.34306258 12
-2.7483563 -0.76373678 -0.24621536 13
-2.7214639 -0.75575209 -0.14553143 13
-2.7296715 -0.75751817 -0.048292119 11
-2.7409463 -0.76013184 0.75137955 11
-2.7412264 -0.75969428 0.64736921 11
-2.7378335 -0.75823957 0.54427052 11
-2.7641461 -0.76500738 0.44769084 12
-2.7345698 -0.75630796 0.34367153 13
-2.759022 -0.7625525 0.24708654 13
-2.7465568 -0.75859129 0.14732571 15
-2.7403584 -0.75635761 0.048953995 13
nan nan nan 0
-2.249454 -0.61833602 -0.52976006 3
-2.6920855 -0.73950243 -0.53473902 5
-2.7228065 -0.74743026 -0.44114554 7
-2.7600777 -0.7571435 -0.34671867 12
-2.7798281 -0.76203978 -0.24883004 13
-2.757796 -0.75548249 -0.14735709 14
-2.7612305 -0.75590539 -0.048810463 11
-2.7761936 -0.75948077 0.7604323 12
-2.7767587 -0.7591145 0.6552366 11
-2.7783418 -0.75902617 0.55189604 11
-2.8001492 -0.76445872 0.45315999 13
-2.7659197 -0.7545951 0.34732762 14
-2.7905004 -0.76077795 0.2497012 13
-2.7780933 -0.7568745 0.1488958 14
-2.7767458 -0.75598675 0.049564831 13
nan nan nan 0
-2.2515986 -0.61048019 -0.52976006 3
-2.699388 -0.73138446 -0.53569221 5
-2.7587667 -0.74695593 -0.44662076 8
-2.7962368 -0.75657743 -0.3509841 12
-2.8113208 -0.76013213 -0.2514447 13
-2.7893384 -0.7536661 -0.14892195 14
-2.7976372 -0.75538445 -0.049415193 11
-2.8114693 -0.75859284 0.76948506 13
-2.8123202 -0.75829589 0.66310394 11
-2.8094103 -0.75698531 0.55761516 11
-2.831413 -0.76238376 0.45784783 11
-2.802083 -0.75396192 0.35159305 13
-2.8268099 -0.76008624 0.25275165 13
-2.8144732 -0.75624228 0.15072754 14
-2.808337 -0.75406802 0.050088402 13
-1.8984843 -0.50798726 -0.51634425 3
-2.253716 -0.60261697 -0.52976006 3
-2.6924405 -0.71942323 -0.53378582 4
-2.7899847 -0.74496543 -0.45131379 8
-2.8276305 -0.75448877 -0.35464019 12
-2.842834 -0.7580139 -0.25405937 13
-2.8257258 -0.75292397 -0.1507476 14
-2.8340735 -0.75461847 -0.050019924 11
-2.8467727 -0.75746781 0.77853787 12
-2.847909 -0.75723791 0.67097121 11
-2.8547289 -0.75851792 0.56619388 11
-2.8674695 -0.76136726 0.46331704 12
-2.838275 -0.75308537 0.35585845 13
-2.8631482 -0.75915015 0.25580209 13
-2.8460555 -0.75408649 0.15229762 14
-2.8447809 -0.75321746 0.050699238 14
-1.9189253 -0.50628555 -0.52152056 3
-2.2558057 -0.59474635 -0.52976006 2
-2.6901894 -0.70876998 -0.53283262 4
-2.8212223 -0.74276608 -0.45600685 8
-2.8590436 -0.75218993 -0.35829625 12
-2.8791835 -0.75695145 -0.25710985 13
-2.8621421 -0.75193709 -0.15257327 14
-2.8657024 -0.75233775 -0.050538264 10
-2.8821015 -0.75610536 0.78759056 11
-2.8835244 -0.75594074 0.67883861 11
-2.8716033 -0.75227994 0.56905341 12
-2.9035525 -0.76010829 0.46878621 11
-2.8696935 -0.7507093 0.35951456 13
-2.899514 -0.75796956 0.25885257 13
-2.8824873 -0.75298119 0.15412939 14
-2.881253 -0.75212157 0.05131007 12
-1.9440515 -0.50566298 -0.52799106 2
-2.2672985 -0.58931959 -0.5320096 3
-2.6878963 -0.69814122 -0.53187943 3
-2.8572586 -0.74159831 -0.46148208 8
-2.8904746 -0.74968106 -0.36195236 13
-2.9107382 -0.75439447 -0.25972453 14
-2.8937519 -0.74945301 -0.15413812 14
-2.9021897 -0.75109798 -0.051142998 10
-2.9221315 -0.75571477 0.79793668 14
-2.9191651 -0.75440407 0.68670589 13
-2.9169834 -0.75329721 0.57763213 13
-2.9396615 -0.75860643 0.47425535 11
-2.905935 -0.74936205 0.36377996 12
-2.9359059 -0.75654429 0.26190299 13
-2.9141109 -0.75038564 0.15569946 14
-2.9177516 -0.75078017 0.051920906 12
nan nan nan 0
-2.2740612 -0.58261079 -0.53313428 2
-2.6903169 -0.6887545 -0.53187943 4
-2.8885357 -0.73896384 -0.46617511 8
-2.9171143 -0.74573255 -0.36499909 13
-2.9471357 -0.75285923 -0.26277497 14
-2.9302166 -0.7479924 -0.15596379 14
-2.9387028 -0.74961239 -0.051747728 11
-2.938792 -0.74908888 0.8018164 13
-2.9359446 -0.7478174 0.6900776 12
-2.9100816 -0.74068904 0.57572573 11
-2.9757953 -0.75686175 0.47972456 12
-2.9422019 -0.74777091 0.36804542 13
-2.9723227 -0.75487405 0.26495346 12
-2.9505906 -0.7488066 0.15753123 14
-2.9542754 -0.74919289 0.052531742 12
-1.9475342 -0.49207878 -0.52799106 2
-2.2996988 -0.58063239 -0.5387581 3
-2.7022231 -0.68176079 -0.53378582 3
-2.9246178 -0.73732722 -0.47165027 8
-2.9485738 -0.74281949 -0.36865517 10
-2.9835577 -0.75107908 -0.26582542 13
-2.9667058 -0.74628621 -0.15778944 15
-2.9752405 -0.74788105 -0.052352462 12
-2.927336 -0.73529619 0.79793668 8
-2.9385371 -0.7375645 0.6900776 8
-2.9269319 -0.73410863 0.57858527 8
-3.0119519 -0.75487387 0.48519373 12
-2.9784923 -0.74593562 0.37231082 13
-3.0135956 -0.75416791 0.26843968 13
-2.9870942 -0.74698186 0.15936297 14
-2.9956734 -0.74857175 0.053229839 12
-1.9773595 -0.49227813 -0.53575563 2
-2.2638898 -0.56319237 -0.52976006 3
-2.714113 -0.67469233 -0.53569221 4
-2.9559302 -0.73425716 -0.4763433 8
-2.9752319 -0.7385003 -0.37170193 8
-3.0200026 -0.74905366 -0.2688759 13
-3.0032187 -0.74433434 -0.15961511 15
-3.0166543 -0.74710542 -0.053043582 11
-2.9392619 -0.72739393 0.80052316 7
-2.9316344 -0.72496343 0.68782979 6
-2.9247119 -0.72270983 0.57763213 4
-3.0529251 -0.75382662 0.4914442 12
-3.0148058 -0.74385595 0.37657624 14
-3.0500629 -0.75199038 0.27149016 12
-3.0284691 -0.74610579 0.16145642 13
-3.0322485 -0.74647552 0.053840671 13
-1.9603032 -0.48077127 -0.53057927 2
-2.2563782 -0.55296725 -0.52751052 2
-2.7164516 -0.66521418 -0.53569221 3
-2.992054 -0.73215115 -0.48181856 7
-3.0067158 -0.7351827 -0.37535799 7
-3.0613081 -0.74796504 -0.27236211 13
-3.0397539 -0.74213654 -0.16144077 15
-3.0532415 -0.74486482 -0.053648315 11
-2.941783 -0.71712959 0.80052316 5
-2.9483483 -0.71818489 0.69120157 5
-2.9892144 -0.72758681 0.59002358 9
-3.0891285 -0.75133526 0.49691334 11
-3.0559626 -0.74270374 0.38145101 14
-3.0913913 -0.75074279 0.27497637 12
-3.0698736 -0.74494982 0.16354986 14
-3.0737033 -0.74531108 0.054538768 12
-1.9384964 -0.46825558 -0.52410877 3
-2.2440872 -0.54165834 -0.52413625 3
-2.7139857 -0.65457708 -0.53473902 3
-3.0329993 -0.73095882 -0.48807591 7
-3.0430372 -0.7328161 -0.37962344 5
-3.0977993 -0.74543178 -0.27541256 12
-3.0763097 -0.73969263 -0.16326644 14
-3.0947104 -0.74354571 -0.054339435 11
-2.9959285 -0.71925902 0.81474888 6
-3.0219016 -0.72493678 0.70806009 7
-3.0251477 -0.72515714 0.59669584 7
-3.1301544 -0.74975061 0.50316387 11
-3.0923216 -0.74011803 0.38571647 14
-3.1327481 -0.74921566 0.27846259 12
-3.1113064 -0.7435137 0.16564329 13
-3.1103239 -0.74270505 0.0551496 11
nan nan nan 0
-2.2364845 -0.53156865 -0.52188677 2
-2.7067029 -0.64283127 -0.53283262 3
-3.0691674 -0.72834927 -0.49355114 7
-3.0986936 -0.7347849 -0.38632622 6
-3.1391568 -0.74380118 -0.27889881 12
-3.112885 -0.73700243 -0.1650921 15
-3.1313415 -0.74079508 -0.054944165 11
-3.0830266 -0.72879684 0.83802748 11
-3.0907955 -0.7300638 0.72379482 11
-3.0658767 -0.72361284 0.60432136 5
-3.1663995 -0.74675494 0.50863302 11
-3.1335297 -0.73842579 0.39059123 13
-3.1692829 -0.74626732 0.28151307 13
-3.1479058 -0.74065375 0.16747504 14
-3.1518297 -0.74099648 0.055847697 11
-1.9417182 -0.45471099 -0.52410877 2
-2.2478139 -0.52597862 -0.52413625 2
-2.6993716 -0.63114417 -0.53092623 3
-3.1101625 -0.72661942 -0.49980852 7
-3.1254036 -0.7296049 -0.38937297 5
-3.1805403 -0.74189085 -0.28238505 12
-3.1543412 -0.73519921 -0.16717857 14
-3.1728601 -0.73893172 -0.055635288 10
-3.1608186 -0.73554569 0.85871947 10
-3.1645067 -0.73582184 0.74065334 12
-3.1018507 -0.7206822 0.61099368 5
-3.2074718 -0.74463212 0.51488352 10
-3.174763 -0.73645467 0.395466 13
-3.2106872 -0.74419755 0.28499928 12
-3.1893873 -0.73867393 0.16956849 14
-3.193361 -0.73900712 0.056545794 11
-1.9668248 -0.45335433 -0.53057927 2
-2.2496364 -0.51812905 -0.52413625 2
-2.6919916 -0.61951619 -0.52901983 3
-3.1511827 -0.72461218 -0.50606591 7
-3.2053187 -0.73647171 -0.39912254 12
-3.2219479 -0.7397005 -0.28587127 12
-3.1958225 -0.73311549 -0.16926505 14
-3.2144032 -0.73678732 -0.056326408 11
-3.2151544 -0.73636883 0.87294525 11
-3.2003009 -0.73237914 0.74852067 13
-3.137841 -0.71750909 0.61766601 5
-3.2485678 -0.74223167 0.52113402 11
-3.2160206 -0.73420465 0.40034077 13
-3.252115 -0.74184775 0.2884855 12
-3.2308924 -0.73641336 0.17166193 13
-3.2349169 -0.73673671 0.057243891 12
-1.9542654 -0.44328099 -0.52669698 2
-2.2561824 -0.5113501 -0.52526104 2
-2.6893508 -0.60903156 -0.52806669 4
-3.1874096 -0.72123736 -0.51154113 9
-3.2562754 -0.73622268 -0.40521601 12
-3.2682371 -0.73832762 -0.28979328 12
-3.2373276 -0.73075104 -0.17135151 14
-3.2559695 -0.73436177 -0.057017531 11
-3.2506871 -0.73257416 0.881998 11
-3.2408621 -0.72976571 0.75751191 14
-3.1834238 -0.71624821 0.62624466 5
-3.2945037 -0.74063629 0.52816576 11
-3.2573004 -0.73167539 0.40521553 13
-3.2935653 -0.73921764 0.29197174 12
-3.2772923 -0.73496449 0.17401704 13
-3.2813733 -0.73527819 0.058029246 11
-1.9652281 -0.43856043 -0.52928513 2
-2.2579536 -0.50347143 -0.52526104 2
-2.6914604 -0.59964025 -0.52806669 4
-3.21401 -0.71547228 -0.51545197 7
-3.3169577 -0.73778194 -0.41252819 12
-3.3145554 -0.73664045 -0.2937153 12
-3.2788539 -0.72810555 -0.17343798 14
-3.2975576 -0.731655 -0.057708651 10
-3.2956626 -0.73063105 0.8936373 11
-3.2814438 -0.72687799 0.76650316 10
-3.2721665 -0.72422385 0.6434021 8
-3.3356454 -0.73766285 0.53441626 10
-3.303447 -0.72993755 0.41069967 12
-3.3350363 -0.73630714 0.29545796 11
-3.3188453 -0.7321251 0.17611049 13
-3.3229764 -0.73242825 0.058727346 11
-1.9573123 -0.42962694 -0.52669698 2
-2.2596974 -0.49558663 -0.52526104 3
-2.6887424 -0.58919102 -0.5271135 4
-3.2357845 -0.70847386 -0.51858068 5
-3.3679936 -0.73680502 -0.41862166 11
-3.3609014 -0.73463887 -0.29763731 12
-3.3252795 -0.72624439 -0.17578526 14
-3.3440502 -0.72973251 -0.058486164 10
-3.3406637 -0.72838277 0.9052766 10
-3.3268049 -0.72475272 0.7766183 11
-3.3562069 -0.73054451 0.65960634 12
-3.3816321 -0.7354607 0.54144806 10
-3.3496208 -0.72788644 0.4161838 12
-3.3813944 -0.73417294 0.29937997 11
-3.3652973 -0.7300629 0.1784656 12
-3.3694847 -0.73035556 0.059512701 11
-1.9588001 -0.42279205 -0.52669698 2
-2.2614136 -0.48769581 -0.52526104 3
-2.6907825 -0.57980192 -0.5271135 4
-3.267205 -0.70341104 -0.52327371 4
-3.4142108 -0.73443705 -0.42410579 12
-3.4072733 -0.73232257 -0.30155933 11
-3.3717315 -0.72406799 -0.17813255 13
-3.3856812 -0.72644544 -0.059177287 10
-3.3856888 -0.72582901 0.91691583 10
-3.3674262 -0.72129911 0.78560954 11
-3.4067326 -0.72909665 0.66913819 13
-3.4324725 -0.73397899 0.54926115 10
-3.3958201 -0.72552168 0.42166793 12
-3.4277773 -0.73172385 0.30330199 11
-3.4117754 -0.72768527 0.18082072 12
-3.4160187 -0.72796702 0.060298059 11
-1.9555396 -0.41494951 -0.5254029 2
-2.2583363 -0.47878861 -0.52413625 3
-2.6879885 -0.56938869 -0.5261603 4
-3.3179545 -0.70222753 -0.53109545 5
-3.4653072 -0.73278207 -0.43019927 11
-3.4536693 -0.72969133 -0.30548134 11
-3.4182081 -0.72157592 -0.18047984 13
-3.4322209 -0.72390836 -0.0599548 10
-3.4354625 -0.72396576 0.92984837 10
-3.4175985 -0.71957827 0.7968486 10
-3.4524851 -0.7262944 0.67771685 13
-3.4833434 -0.73215115 0.55707425 10
-3.4420431 -0.72284317 0.42715204 12
-3.474184 -0.7289598 0.30722398 11
-3.4582767 -0.72499198 0.18317585 12
-3.4625764 -0.72526246 0.061083421 10
-1.9569762 -0.40812087 -0.5254029 2
-2.2599938 -0.47090262 -0.52413625 2
-2.6899598 -0.56000245 -0.5261603 3
-3.3203855 -0.6906414 -0.53109545 5
-3.511574 -0.72976929 -0.43568337 11
-3.5049648 -0.72775769 -0.30983913 11
-3.4695971 -0.71978241 -0.18308793 13
-3.4836788 -0.72206956 -0.060818698 10
-3.4852636 -0.72176361 0.94278091 10
-3.4677997 -0.71751589 0.80808765 10
-3.488646 -0.72119421 0.68438917 11
-3.5342431 -0.72997707 0.5648874 11
-3.4931483 -0.72085357 0.43324548 12
-3.525491 -0.72688639 0.31158176 11
-3.509691 -0.72299021 0.18579264 12
-3.5140529 -0.72324944 0.061956041 11
-1.9583888 -0.40128726 -0.5254029 2
-2.256851 -0.46203378 -0.52301151 2
-2.6918981 -0.55060929 -0.5261603 3
-3.3179376 -0.67805809 -0.53031325 4
-3.5627244 -0.72743529 -0.44177687 11
-3.5514078 -0.72447902 -0.31376114 11
-3.5161219 -0.71664155 -0.18543519 14
-3.5351653 -0.71988034 -0.061682601 10
-3.5350907 -0.71922261 0.95571339 10
-3.5180271 -0.71511155 0.8193267 10
-3.5248132 -0.71585035 0.69106156 11
-3.5900087 -0.72843844 0.5734818 12
-3.5394175 -0.71752995 0.43872961 12
-3.5768254 -0.72446358 0.31593958 11
-3.5611327 -0.72063816 0.18840943 12
-3.565557 -0.72088569 0.06282866 11
-1.9645813 -0.39505884 -0.52669698 2
-2.2585292 -0.4537589 -0.52301151 2
-2.6938982 -0.5407393 -0.5261603 3
-3.3446107 -0.67074794 -0.53422415 4
-3.6140268 -0.72412217 -0.44787034 11
-3.60288 -0.72123468 -0.31811893 11
-3.5676873 -0.71354204 -0.1880433 14
-3.5868037 -0.71671432 -0.062546499 11
-3.585067 -0.71571672 0.96864593 10
-3.5684037 -0.7117424 0.83056575 9
-3.5755496 -0.71251887 0.70059341 11
-3.6168723 -0.72009712 0.57738835 6
-3.5906973 -0.71423429 0.44482309 13
-3.6283109 -0.72105789 0.32029736 12
-3.6127257 -0.71730518 0.19102623 12
-3.6172123 -0.71753979 0.063701279 11
-1.9659482 -0.38819876 -0.52669698 2
-2.2553196 -0.44492945 -0.52188677 2
-2.6957693 -0.53133255 -0.5261603 3
-3.3323953 -0.65620649 -0.53187758 4
-3.6652262 -0.72108227 -0.45396382 11
-3.6591377 -0.71922106 -0.32291251 11
-3.6191523 -0.7107057 -0.19065139 14
-3.6432467 -0.71477681 -0.063496798 10
-3.6349399 -0.71248829 0.98157841 11
-3.6234601 -0.70958143 0.84292871 9
-3.6261847 -0.70945781 0.71012527 12
-3.6484449 -0.71315187 0.58207619 3
-3.6467466 -0.71215916 0.4515259 13
-3.6845827 -0.71888041 0.32509091 11
-3.6642165 -0.71424305 0.19364302 12
-3.6736736 -0.71541417 0.06466116 11
-1.9672914 -0.38133395 -0.52669698 2
-2.261642 -0.43798047 -0.52301151 2
-2.6976075 -0.52191931 -0.5261603 3
-3.3395143 -0.64550751 -0.53265977 4
-3.7164478 -0.71769357 -0.46005729 11
-3.7105339 -0.7158798 -0.3272703 11
-3.6706405 -0.70751864 -0.19325948 13
-3.6997192 -0.7124539 -0.06444709 10
-3.6895766 -0.70983291 0.99580419 10
-3.6737597 -0.70612496 0.85416776 9
-3.6816618 -0.70697761 0.72061038 12
-3.6800129 -0.70599496 0.58676404 6
-3.6979504 -0.70876712 0.45761937 12
-3.7359903 -0.71538204 0.3294487 12
-3.7206337 -0.71176833 0.19652151 11
-3.7301614 -0.71291614 0.065621048 11
-1.9686105 -0.37446451 -0.52669698 2
-2.2631571 -0.43008319 -0.52301151 2
-2.6945906 -0.51158422 -0.5252071 3
-3.3368952 -0.63292617 -0.53187758 4
-3.7676902 -0.71395606 -0.46615076 11
-3.7668447 -0.71311486 -0.33206388 11
-3.7319624 -0.70583653 -0.19638918 14
-3.7562191 -0.70974523 -0.065397382 11
-3.7442384 -0.70680463 1.01003 11
-3.7288663 -0.70322883 0.86653072 9
-3.7323415 -0.7032097 0.73014224 13
-3.7212818 -0.7004534 0.59301454 5
-3.7540517 -0.70594323 0.46432218 12
-3.7874181 -0.71153337 0.33380648 11
-3.7721701 -0.70798719 0.1991383 12
-3.7866766 -0.71002567 0.066580921 11
-1.9699056 -0.36759049 -0.52669698 2
-2.2694337 -0.4230735 -0.52413625 2
-2.6963599 -0.50217521 -0.5252071 3
-3.3342292 -0.6203711 -0.53109545 3
-3.8238301 -0.71077645 -0.47285357 11
-3.8231809 -0.70996541 -0.33685747 10
-3.7884073 -0.702824 -0.19925807 14
-3.8127446 -0.70665067 -0.066347674 10
-3.798923 -0.70340329 1.0242558 11
-3.7839966 -0.69995642 0.87889361 9
-3.7878659 -0.69998842 0.74062735 14
-3.7382736 -0.69014919 0.59535849 5
-3.8101778 -0.70273632 0.47102499 12
-3.8437624 -0.70823687 0.33860007 11
-3.8335464 -0.70566273 0.20227847 12
-3.848134 -0.70765358 0.067628071 11
-1.966426 -0.35984266 -0.5254029 2
-2.2708969 -0.41514912 -0.52413625 2
-2.6932681 -0.49187827 -0.52425396 3
-3.3363745 -0.60872871 -0.53109545 4
-3.8799932 -0.70721334 -0.47955641 10
-3.8795397 -0.70643115 -0.34165102 11
-3.8448758 -0.69942588 -0.20212698 13
-3.8692939 -0.70317012 -0.067297965 10
-3.8583815 -0.70049137 1.0397748 11
-3.8439431 -0.69717705 0.89238054 8
-3.8434122 -0.69638795 0.75111234 11
-3.7941155 -0.68677199 0.60395288 4
-3.8712096 -0.70002908 0.47833717 12
-3.905031 -0.70544112 0.34382939 10
-3.8949513 -0.70291823 0.20541862 12
-3.9046996 -0.70397383 0.068587951 10
-1.9676702 -0.35297638 -0.5254029 2
-2.2771275 -0.40807909 -0.52526104 2
-2.6949685 -0.48247403 -0.52425396 3
-3.3336174 -0.59620941 -0.53031325 4
-3.9361775 -0.7032668 -0.48625922 10
-3.940824 -0.70338726 -0.34688041 10
-3.9062817 -0.69651842 -0.20525669 14
-3.925864 -0.69930315 -0.068248257 12
-3.9178653 -0.69717288 1.0552938 11
-3.9039149 -0.69398761 0.90586734 9
-3.8989797 -0.6924082 0.76159745 12
-3.859704 -0.68473858 0.61410993 4
-3.9371555 -0.69777018 0.48625866 12
-3.9712303 -0.70309436 0.34949452 10
-3.9563835 -0.69975358 0.20855878 11
-3.9662089 -0.70077753 0.069635101 11
-1.9688903 -0.34610575 -0.5254029 2
-2.2785382 -0.40012792 -0.52526104 2
-2.6918018 -0.47221577 -0.52330071 3
-3.3356786 -0.58456928 -0.53031325 3
-3.9972684 -0.69979221 -0.49357137 10
-4.0021334 -0.69992399 -0.35210976 11
-3.9627948 -0.69233143 -0.20812559 14
-3.9873791 -0.69590932 -0.069284938 11
-3.9773717 -0.69344747 1.0708128 10
-3.9639113 -0.69038785 0.9193542 9
-3.9545648 -0.68804884 0.77208251 13
-3.9350553 -0.68394685 0.62582964 4
-3.9982417 -0.69421029 0.4935708 12
-4.0325527 -0.69944268 0.35472384 11
-4.0178399 -0.69616842 0.21169895 12
-4.0277429 -0.69716024 0.070682235 11
-1.9700865 -0.33923095 -0.5254029 2
-2.2751198 -0.39134604 -0.52413625 2
-2.6934338 -0.46281675 -0.52330071 2
-3.3376987 -0.57292205 -0.53031325 4
-4.0632744 -0.69673836 -0.50149292 9
-4.0634656 -0.69604111 -0.35733908 11
-4.0242467 -0.6886003 -0.21125528 13
-4.0489173 -0.69209433 -0.07032162 11
-4.0416603 -0.69012791 1.0876251 10
-4.0287323 -0.68719673 0.93396497 8
-4.0198436 -0.68495864 0.78447396 12
-4.1029491 -0.6983825 0.65239412 11
-4.0642433 -0.6910643 0.50149232 12
-4.0988083 -0.69620556 0.36038899 11
-4.0793195 -0.69216269 0.2148391 12
-4.0942283 -0.69395721 0.071816646 10
-1.9712586 -0.33235198 -0.5254029 2
-2.2716677 -0.38259289 -0.52301151 2
-2.6950331 -0.45341212 -0.52330071 2
-3.3348081 -0.5604493 -0.52953112 4
-4.1293068 -0.69323206 -0.50941443 8
-4.1248193 -0.69173849 -0.36256844 11
-4.0807967 -0.68362367 -0.2141242 13
-4.1154075 -0.68868333 -0.07144469 10
-4.1107373 -0.68716425 1.1057307 10
-4.0935779 -0.68356138 0.94857574 8
-4.0851483 -0.68142098 0.7968654 11
-4.1686907 -0.69460839 0.66255116 13
-4.130271 -0.68746585 0.50941384 12
-4.1601758 -0.69169718 0.36561832 12
-4.1408181 -0.68773603 0.21797925 12
-4.1607389 -0.69029844 0.072951056 10
-1.9724067 -0.32546899 -0.5254029 2
-2.2729893 -0.37466097 -0.52301151 2
-2.6965992 -0.44400191 -0.52330071 2
-3.3367441 -0.5488053 -0.52953112 5
-4.2002606 -0.69007784 -0.51794529 9
-4.1861911 -0.68701589 -0.36779779 11
-4.1570692 -0.68149149 -0.21803632 13
-4.1868563 -0.68562424 -0.072654158 11
-4.1798415 -0.68372655 1.1238362 10
-4.1632547 -0.68026727 0.96431047 8
-4.1553216 -0.67822641 0.81021005 11
-4.2149577 -0.68720496 0.66958296 10
-4.196322 -0.6834147 0.51733536 12
-4.2264771 -0.6875686 0.37128344 10
-4.2072639 -0.6836893 0.2213811 12
-4.2322087 -0.68698472 0.074172728 10
-1.9735308 -0.31858203 -0.5254029 2
-2.2694736 -0.36594892 -0.52188677 2
-2.6981328 -0.43458632 -0.52330071 2
-3.3337636 -0.53637004 -0.52874893 4
-4.2614422 -0.68486148 -0.52525747 11
-4.242662 -0.68108374 -0.37259138 9
-4.233376 -0.67883515 -0.22194847 13
-4.2632685 -0.68286526 -0.073950008 10
-4.2537413 -0.68057781 1.143235 10
-4.2377687 -0.67726374 0.98116899 9
-4.2303672 -0.67532361 0.82450783 10
-4.2904859 -0.68415296 0.68130267 11
-4.2623944 -0.67891073 0.52525687 11
-4.2927995 -0.68298542 0.37694857 10
-4.2786627 -0.67997056 0.22504459 11
-4.3037043 -0.68318009 0.075394385 10
-1.9746308 -0.31169119 -0.5254029 2
-2.2659247 -0.35726595 -0.52076203 2
-2.7044816 -0.42592904 -0.52425396 2
-3.3307374 -0.52396232 -0.52796674 3
-4.30793 -0.67691523 -0.53074157 8
-4.2942209 -0.67399311 -0.37694916 7
-4.3097143 -0.67565411 -0.2258606 13
-4.3397126 -0.67958117 -0.075245865 11
-4.3228965 -0.67617488 1.1613405 10
-4.3123121 -0.67374825 0.99802762 8
-4.3005934 -0.67114842 0.83785254 10
-4.3611622 -0.67982107 0.69224095 11
-4.3382926 -0.6754806 0.53439701 11
-4.3739066 -0.68024391 0.38392103 9
-4.3500857 -0.67576164 0.22870812 10
-4.3801646 -0.67965132 0.076703325 9
-1.9804798 -0.30553287 -0.52669698 2
-2.267158 -0.34935421 -0.52076203 2
-2.7108033 -0.41723272 -0.5252071 2
-3.332546 -0.51233274 -0.52796674 3
-4.3151722 -0.66262692 -0.53135097 5
-4.355628 -0.66806114 -0.38217852 6
-4.3860803 -0.67194837 -0.22977272 13
-4.4161839 -0.67577136 -0.076541714 10
-4.3968468 -0.67202705 1.1807393 10
-4.3868814 -0.66972041 1.0148861 9
-4.3756928 -0.66723078 0.85215032 10
-4.4367433 -0.67574781 0.70396066 13
-4.4142189 -0.67152888 0.54353726 11
-4.4599705 -0.67769259 0.39132926 10
-4.4363408 -0.67330992 0.23315668 10
-4.4615951 -0.67634624 0.078099512 10
-1.9815344 -0.29861784 -0.52669698 2
-2.2731814 -0.34216338 -0.52188677 2
-2.7122431 -0.40776771 -0.5252071 2
-3.3294303 -0.49996349 -0.52718455 3
-4.33709 -0.65050453 -0.53378832 4
-4.4416757 -0.66539836 -0.38958675 5
-4.4674106 -0.66845644 -0.23394568 13
-4.4976254 -0.67217487 -0.077923954 10
-4.4803734 -0.66879719 1.2027246 14
-4.4614739 -0.66517997 1.0317447 13
-4.4556718 -0.66352004 0.8674013 13
-4.4830384 -0.66679555 0.7109924 18
-4.4950771 -0.66778433 0.55328679 11
-4.5411406 -0.6738174 0.39830172 11
-4.5176911 -0.66953212 0.23734355 10
-4.5430541 -0.67248064 0.079495706 10
-1.9825646 -0.29169917 -0.52669698 2
-2.2743618 -0.33422643 -0.52188677 2
-2.7087936 -0.39758494 -0.52425396 2
-3.3311553 -0.48833856 -0.52718455 3
-4.3540654 -0.63751823 -0.5356164 4
-4.5277562 -0.66214275 -0.39699501 5
-4.543828 -0.66368312 -0.23785782 13
-4.5790944 -0.66801792 -0.0793062 11
-4.4826808 -0.65315372 1.2027246 15
-4.4878745 -0.65311056 1.0373642 16
-4.4773893 -0.6507867 0.87121403 15
-4.4706764 -0.64901429 0.70864844 7
-4.575963 -0.66348338 0.56303632 12
-4.6272678 -0.67009771 0.40570998 11
-4.6040101 -0.66590923 0.24179211 10
-4.6245399 -0.66805458 0.0808919 9
-1.9787903 -0.28409064 -0.5254029 2
-2.2803371 -0.3269769 -0.52301151 2
-2.7150238 -0.38882291 -0.5252071 2
-3.3328395 -0.47670767 -0.52718455 3
-4.3562641 -0.62231582 -0.5356164 3
-4.648385 -0.66321903 -0.40745372 11
-4.6252093 -0.65908873 -0.24203075 12
-4.6605887 -0.66330034 -0.080688447 9
nan nan nan 0
-4.5431886 -0.64497387 1.0497272 5
-4.576828 -0.6489346 0.89027792 5
-4.7467437 -0.67218131 0.75240189 11
-4.6617861 -0.65932065 0.57339525 12
-4.7134233 -0.66578466 0.41311821 12
-4.6903577 -0.66169167 0.24624066 10
-4.711 -0.66376519 0.082375355 9
-1.9797698 -0.27718166 -0.5254029 2
-2.2814646 -0.31901503 -0.52301151 2
-2.7115033 -0.37866446 -0.52425396 2
-3.3393743 -0.46575317 -0.52796674 3
-4.3633251 -0.60779053 -0.53622574 3
-4.7542744 -0.66140199 -0.41660509 11
-4.7066126 -0.65393406 -0.24620369 12
-4.747057 -0.65870887 -0.082157083 10
-4.8220205 -0.66825318 1.2932522 25
-4.8060184 -0.66518062 1.1104181 24
-4.8027205 -0.66386998 0.93412459 23
-4.8420119 -0.66843987 0.76724672 13
-4.7427187 -0.65388894 0.58314478 12
-4.7996035 -0.66087812 0.42052644 11
-4.776731 -0.65687931 0.25068924 10
-4.7974844 -0.65888005 0.08385881 9
-1.9759399 -0.26961631 -0.52410877 2
-2.2777371 -0.31039149 -0.52188677 2
-2.7128086 -0.36919722 -0.52425396 2
-3.3360865 -0.45342863 -0.52718455 3
-4.3801732 -0.59455848 -0.53805375 3
-4.8552713 -0.65818465 -0.42532068 12
-4.7880354 -0.64821905 -0.25037664 12
-4.8335476 -0.6535216 -0.083625704 9
-4.8817606 -0.65917271 1.3087713 16
-4.8710794 -0.6568647 1.1250288 15
-4.877975 -0.65692782 0.94842237 16
-4.9373116 -0.66404158 0.78209168 13
-4.828588 -0.64856076 0.59350365 11
-4.8907428 -0.65604025 0.42837048 10
-4.8680758 -0.65213484 0.25539947 11
-4.8839917 -0.65339923 0.085342258 9
-1.9768691 -0.26271734 -0.52410877 2
-2.2691476 -0.30115688 -0.51963723 2
-2.7140808 -0.35972551 -0.52425396 2
-3.3376489 -0.44178078 -0.52718455 2
-4.3576221 -0.57601345 -0.535007 3
-4.9464254 -0.6529662 -0.43316469 12
-4.8744249 -0.64259607 -0.25481039 12
-4.9250159 -0.64839101 -0.085180737 10
-4.9558616 -0.65157193 1.3281701 13
-4.955462 -0.65063953 1.1441351 13
-4.9532375 -0.64946812 0.96272016 12
-4.9640832 -0.65000898 0.78599817 14
-4.9046345 -0.64135396 0.60264385 12
-4.9769669 -0.64992899 0.43577874 11
-4.954493 -0.64611471 0.259848 10
-4.9754763 -0.64796799 0.086912982 9
-1.977774 -0.25581518 -0.52410877 2
-2.2605217 -0.29198605 -0.51738775 2
-2.7201879 -0.35087734 -0.5252071 2
-3.3342726 -0.42949659 -0.52640241 2
-4.3546839 -0.56016582 -0.53439766 3
-5.037601 -0.64711934 -0.44100875 12
-4.9657855 -0.63701308 -0.25950494 13
-5.0214658 -0.64326495 -0.086822152 9
-4.98206 -0.63733315 1.3346363 12
-4.9818668 -0.63642478 1.1497548 12
-4.9652123 -0.63341647 0.96462655 11
-4.985918 -0.63517356 0.78912342 11
-4.9708433 -0.63237149 0.61056536 14
-5.0681477 -0.64385134 0.44362271 10
-5.0458803 -0.6401276 0.26455826 10
-5.0669799 -0.64190584 0.088483691 9
-1.9786549 -0.24890989 -0.52410877 2
-2.2470253 -0.28227186 -0.51401347 2
-2.7213962 -0.34137997 -0.5252071 2
-3.3357515 -0.41785517 -0.52640241 2
-4.3467646 -0.54372984 -0.53317899 3
-5.1287956 -0.64064378 -0.44885278 12
-5.06212 -0.63141793 -0.26446033 13
-5.1228986 -0.63809115 -0.088549957 10
-4.9698758 -0.61815023 1.3307565 9
-4.9840584 -0.61903095 1.1497548 9
-4.9722643 -0.61668491 0.96557975 8
-5.0224128 -0.62201452 0.79459262 5
-4.9680953 -0.61440706 0.60995609 11
-5.1642895 -0.63775533 0.45190254 9
-5.1372852 -0.63351029 0.26926848 10
-5.1684251 -0.63643456 0.090228938 9
-1.9795539 -0.24165609 -0.52410877 2
-2.2625532 -0.27580273 -0.51738775 2
-2.7226291 -0.33140329 -0.5252071 2
-3.3323584 -0.40503037 -0.52562022 2
-4.3438015 -0.52719659 -0.53256965 3
-5.2300048 -0.63382673 -0.45756835 12
-5.1585841 -0.62425762 -0.26941571 12
-5.2244663 -0.6313051 -0.090277754 10
nan nan nan 0
-5.1120572 -0.6159116 1.1789763 4
-5.1353054 -0.61780328 0.99703497 4
-5.2600183 -0.63187557 0.8320955 12
-4.9752412 -0.59678495 0.61056536 3
-5.2704501 -0.63126248 0.46105388 9
-5.2337708 -0.62594277 0.2742404 9
-5.2749662 -0.6299358 0.092061445 9
-1.9803854 -0.23474468 -0.52410877 2
-2.2731783 -0.26904851 -0.51963723 2
-2.7237694 -0.32189748 -0.5252071 2
-3.3337517 -0.39339578 -0.52562022 3
-4.3456149 -0.51203066 -0.53256965 3
-5.3311224 -0.62720662 -0.46628395 12
-5.2499952 -0.61673307 -0.27411029 12
-5.325942 -0.62471241 -0.092005558 10
-5.2955751 -0.62021351 1.4174045 6
-5.3125777 -0.62126499 1.2250564 11
-5.3226876 -0.62150556 1.0332562 13
-5.3799205 -0.6272366 0.85084695 11
-5.2779908 -0.61441904 0.64773554 23
-5.3765225 -0.62493831 0.47020525 10
-5.3549604 -0.62148482 0.28052071 9
-5.3863859 -0.62417245 0.093981199 8
-1.9859909 -0.2283822 -0.5254029 2
-2.2886238 -0.26277924 -0.52301151 2
-2.7248764 -0.31238779 -0.5252071 2
-3.3351047 -0.38175645 -0.52562022 2
-4.3424454 -0.49629498 -0.53196025 3
-5.4372058 -0.620453 -0.47543532 12
-5.3711824 -0.61196929 -0.28036967 12
-5.4274344 -0.61741889 -0.093733363 9
-5.3313007 -0.60554034 1.4264572 5
-5.4115343 -0.61369675 1.2475344 12
-5.4077363 -0.61231005 1.0494604 10
-5.5047598 -0.62232286 0.87037969 11
-5.354074 -0.60434115 0.65687573 17
-5.4925127 -0.61899662 0.48022813 11
-5.4712195 -0.61562991 0.28653935 9
-5.4978266 -0.61765212 0.095900968 8
-1.986776 -0.22144841 -0.5254029 2
-2.294369 -0.25532767 -0.52413625 2
-2.7259502 -0.3028743 -0.5252071 2
-3.3364167 -0.37011242 -0.52562022 2
-4.344151 -0.48113397 -0.53196025 3
-5.5433049 -0.61296624 -0.48458669 12
-5.4824724 -0.60527098 -0.28610745 12
-5.5339088 -0.609972 -0.095547557 9
-5.4101958 -0.59538007 1.4471493 4
-5.5540881 -0.61023402 1.2801276 12
-5.526937 -0.60627466 1.0723369 10
-5.6149015 -0.61493212 0.88756853 11
-5.4597507 -0.59697604 0.66967201 13
-5.5986228 -0.6111716 0.4893795 11
-5.5825381 -0.60842979 0.29229632 10
-5.6142569 -0.61089528 0.09790799 8
-1.982735 -0.21399365 -0.52410877 2
-2.2952461 -0.24731727 -0.52413625 2
-2.7318711 -0.2938821 -0.5261603 2
-3.3376887 -0.35846391 -0.52562022 2
-4.3458042 -0.46596712 -0.53196025 3
-5.6593223 -0.60580647 -0.49460959 11
-5.5987453 -0.59833366 -0.29210609 12
-5.6652513 -0.60444105 -0.097793706 9
-5.565927 -0.59286141 1.4885333 5
-5.6724582 -0.60320741 1.3071015 12
-5.651042 -0.59993261 1.0961666 10
-5.7397909 -0.60834146 0.90710127 10
-5.5654407 -0.58888036 0.6824683 12
-5.7245574 -0.60470623 0.50027394 11
-5.693871 -0.60045987 0.29805323 9
-5.7307062 -0.60333318 0.09991502 8
-1.98347 -0.2070713 -0.52410877 2
-2.2960956 -0.23930386 -0.52413625 2
-2.7279983 -0.28383636 -0.5252071 2
-3.3389194 -0.346811 -0.52562022 2
-4.347404 -0.45079461 -0.53196025 3
-5.770402 -0.59733129 -0.50419676 9
-5.715035 -0.59059179 -0.29810467 12
-5.7866759 -0.59697443 -0.099867068 9
-5.7457275 -0.59173656 1.5363837 24
-5.795692 -0.59586 1.3351991 11
-5.7654023 -0.59172904 1.1180898 10
-5.8597884 -0.6003828 0.92585272 11
-5.6810122 -0.58106387 0.69648325 12
-5.860424 -0.59838092 0.51204002 12
-5.820118 -0.59323901 0.30459523 10
-5.8571162 -0.59597737 0.10209657 8
-1.9841807 -0.20014644 -0.52410877 2
-2.2920697 -0.23079942 -0.52301151 2
-2.7240887 -0.27382123 -0.52425396 2
-3.3401096 -0.33515388 -0.52562022 2
-4.3489513 -0.43561661 -0.53196025 3
-5.9013143 -0.59007013 -0.51552701 9
-5.8412738 -0.58303708 -0.30462492 11
-5.9130898 -0.58916295 -0.10202682 9
-5.7477584 -0.57167667 1.5363837 19
-5.9189415 -0.58765948 1.3632967 12
-5.8993111 -0.58467072 1.143826 10
-5.9847126 -0.59207988 0.94538546 12
-5.8114123 -0.57391077 0.71232629 12
-5.9913573 -0.59062552 0.52337021 12
-5.9414124 -0.58465499 0.31087556 10
-5.9885182 -0.58823502 0.10436539 8
-1.9800605 -0.19275123 -0.52281469 2
-2.2928612 -0.2227972 -0.52301151 2
-2.7201424 -0.26383686 -0.52330071 2
-3.3412592 -0.32349268 -0.52562022 2
-4.3504453 -0.42043328 -0.53196025 2
-6.0322452 -0.58190221 -0.52685732 13
-5.9625587 -0.57412952 -0.31088433 11
-6.0544477 -0.58191091 -0.10444576 8
-5.8314509 -0.55945086 1.558369 3
-6.0228043 -0.57674789 1.3868988 12
-6.0332379 -0.57668442 1.169562 11
-6.1194816 -0.5838502 0.96648091 19
-5.9418306 -0.56585425 0.72816932 10
-6.1272655 -0.58243459 0.53513628 11
-6.0826001 -0.57711768 0.31820261 10
-6.1398439 -0.58146775 0.10698324 9
-1.9855295 -0.18628949 -0.52410877 2
-2.2936249 -0.21479227 -0.52301151 2
-2.7161598 -0.25388342 -0.52234757 2
-3.3423681 -0.31182757 -0.52562022 3
-4.3469453 -0.40478471 -0.53135097 2
-6.0937548 -0.56637371 -0.53208661 9
-6.1037383 -0.56622708 -0.318187 11
-6.1958246 -0.57367903 -0.10686468 10
-6.1123109 -0.56487048 1.6333777 4
-6.1509175 -0.56735563 1.4161202 5
-6.1574059 -0.56687027 1.1933917 15
-6.1706605 -0.5670045 0.97429395 8
-6.062377 -0.5559876 0.74279362 7
-6.2582278 -0.57284784 0.54646653 12
-6.2287788 -0.56905597 0.32579133 10
-6.276258 -0.57228917 0.10933932 9
-1.9957879 -0.1802263 -0.52669698 2
-2.2943609 -0.20678471 -0.52301151 2
-2.7170296 -0.24440068 -0.52234757 2
-3.3434362 -0.30015862 -0.52562022 3
-4.3483319 -0.38960856 -0.53135097 2
-6.1155391 -0.54687363 -0.53382975 6
-6.2548804 -0.55823362 -0.32601127 11
-6.322278 -0.56313652 -0.10902443 9
-6.3355465 -0.56320381 1.6928673 7
-6.2013907 -0.55018705 1.4273592 4
-6.3060222 -0.5583607 1.2219874 7
-6.4038148 -0.56589323 1.0110155 9
-6.2175307 -0.548338 0.7616834 5
-6.4090433 -0.56410068 0.55953991 11
-6.3898945 -0.56129146 0.33416507 10
-6.4226418 -0.56303835 0.11186992 7
-2.0012164 -0.17367618 -0.52799106 2
-2.290215 -0.19835427 -0.52188677 2
-2.712976 -0.23449233 -0.52139437 2
-3.3444636 -0.288486 -0.52562022 2
-4.3447208 -0.37400204 -0.53074157 2
-6.127336 -0.52637571 -0.53470129 5
-6.3960891 -0.54833871 -0.33331391 11
-6.4835987 -0.55470109 -0.11178891 9
-6.6117773 -0.56450486 1.7665826 20
-6.3586164 -0.54177248 1.4633242 4
-6.4644337 -0.54965198 1.2524893 9
-6.504169 -0.55188715 1.0266417 15
-6.3776479 -0.5400306 0.78118247 5
-6.495348 -0.54885513 0.56694806 3
-6.5311284 -0.55073053 0.34149209 8
-6.6138701 -0.55654514 0.11518588 8
-2.0114365 -0.16749111 -0.53057927 2
-2.2860384 -0.18995529 -0.52076203 2
-2.713778 -0.22502083 -0.52139437 2
-3.3405287 -0.27640268 -0.52483809 2
-4.3410535 -0.35842547 -0.53013223 2
-6.1192079 -0.50416613 -0.53382975 4
-6.5522332 -0.53869206 -0.34139898 11
-6.6598835 -0.54637235 -0.11481258 9
-6.7292371 -0.55087972 1.7976205 14
-6.6178298 -0.54059672 1.5228912 14
-6.5201259 -0.53146994 1.2629745 13
-6.727561 -0.54719651 1.0618007 6
-6.4932623 -0.5269987 0.79519743 12
-6.6660256 -0.53984922 0.58176458 4
-6.6922727 -0.5407992 0.34986585 7
-6.7752299 -0.54631269 0.11797826 7
-2.0023804 -0.15970093 -0.52799106 2
-2.2866874 -0.18197438 -0.52076203 2
-2.7194397 -0.21593514 -0.52234757 2
-3.3414731 -0.26474038 -0.52483809 2
-4.3373313 -0.34287909 -0.5295229 2
-6.1209307 -0.48280305 -0.53382975 4
-6.7133627 -0.52835357 -0.34974489 11
-6.8262191 -0.53603679 -0.11766345 8
-6.9189081 -0.54210031 1.8480575 15
-6.8868237 -0.53837717 1.5847059 16
nan nan nan 0
-7.0100799 -0.54555082 1.1063354 12
-6.7869854 -0.52699703 0.83114886 7
-6.9807329 -0.54081553 0.60921866 19
-6.9032083 -0.53359741 0.36085641 9
-6.9764738 -0.53803575 0.12146875 8
-1.9884784 -0.15160885 -0.52410877 2
-2.2824509 -0.17362171 -0.51963723 2
-2.7152829 -0.20606977 -0.52139437 2
-3.3423767 -0.25307485 -0.52483809 2
-4.3335528 -0.32736307 -0.5289135 2
-6.1225786 -0.46143407 -0.53382975 5
-6.8944149 -0.51839417 -0.35913399 10
-7.0424142 -0.52828622 -0.12137822 11
-7.0893316 -0.53056145 1.8933213 12
-7.097578 -0.52993292 1.6330339 16
-7.1012564 -0.5289613 1.3754507 18
-7.1695414 -0.53278941 1.1313374 29
-7.0164437 -0.520181 0.85917884 14
-7.1365681 -0.5278343 0.62272781 19
-7.0892744 -0.52309227 0.37053856 12
-7.1478248 -0.52615821 0.12443565 23
-1.9552773 -0.14221439 -0.51505011 2
-2.2879021 -0.16600597 -0.52076203 2
-2.7159855 -0.19659041 -0.52139437 2
-3.3383141 -0.24105056 -0.5240559 2
-4.3198195 -0.3111645 -0.52708548 2
-6.119184 -0.43970248 -0.53339398 4
-7.0854383 -0.50789106 -0.36904475 14
-7.1688781 -0.51261449 -0.12353798 30
-7.2549396 -0.51749563 1.9372919 11
-7.1868606 -0.51137882 1.6532642 33
-7.1716037 -0.50903523 1.3887954 29
-7.1910625 -0.50915504 1.1344626 12
-7.166729 -0.5061751 0.87745923 31
-7.1880531 -0.50642031 0.62708557 29
-7.1707511 -0.50394362 0.37472543 30
-7.1595922 -0.50190365 0.12461018 60
-1.9750342 -0.13672248 -0.52022654 2
-2.2884676 -0.15801869 -0.52076203 2
-2.7166553 -0.18710864 -0.52139437 2
-3.3391352 -0.22939618 -0.5240559 2
-4.3357325 -0.29710144 -0.5289135 2
-6.1206813 -0.41833985 -0.53339398 5
-7.1718559 -0.48892856 -0.3734785 31
-7.1905756 -0.48894396 -0.12388355 14
-7.4928217 -0.50818229 2.0006611 10
-7.1983232 -0.48694652 1.655512 4
-7.2663832 -0.49027658 1.4069059 8
-8.1142254 -0.54605949 1.2805676 16
-7.2031131 -0.48348188 0.88172466 16
-7.2891741 -0.48798048 0.63580114 11
-7.2322512 -0.48290181 0.37786558 12
nan nan nan 0
-1.9803185 -0.13014419 -0.52152056 2
-2.2987282 -0.15066676 -0.52301151 2
-2.7172918 -0.17762461 -0.52139437 2
-3.3448439 -0.21806033 -0.52483809 2
-4.3218865 -0.28099912 -0.52708548 2
-6.1171341 -0.39664981 -0.53295815 5
-7.243278 -0.46840227 -0.37712982 10
-8.0902386 -0.52175486 -0.13943377 17
-7.7307253 -0.49721435 2.0640306 9
-7.6181154 -0.48863658 1.7521677 9
-8.139946 -0.52068102 1.5765734 19
-8.1357975 -0.51898992 1.283693 18
-8.1160574 -0.51630837 0.99384445 19
-8.1259584 -0.51551419 0.70901197 16
-8.1208992 -0.51377022 0.42444459 16
-8.1208706 -0.51234537 0.14136447 62
-1.9904013 -0.12383058 -0.52410877 2
-2.2992401 -0.14264178 -0.52301151 2
-2.7178953 -0.16813841 -0.52139437 2
-3.3455844 -0.2063833 -0.52483809 2
-4.3426547 -0.26713002 -0.5295229 2
-6.1135092 -0.37498969 -0.53252238 5
-8.1270151 -0.49707013 -0.42329299 20
-8.1169605 -0.49503317 -0.13986574 19
-7.9927454 -0.4860574 2.1338663 10
-8.0088243 -0.48563224 1.8420801 13
-8.1417141 -0.49226409 1.5765734 21
-8.1276989 -0.48999307 1.2821302 17
-8.1326723 -0.48886827 0.99567252 21
-8.1376514 -0.48774219 0.70988351 17
-8.1326122 -0.48601565 0.42496794 17
-8.1176186 -0.4836978 0.14127722 61
-1.995643 -0.1171651 -0.5254029 2
-2.2997239 -0.13461506 -0.52301151 2
-2.7184656 -0.15865016 -0.52139437 2
-3.3462846 -0.19470379 -0.52483809 2
nan nan nan 0
-6.1147809 -0.35364726 -0.53252238 4
-8.1187305 -0.46812361 -0.42277136 21
-8.118639 -0.46669668 -0.13986574 22
-8.2258463 -0.47141904 2.1959422 9
-8.2634048 -0.47212455 1.9005233 14
-8.1384821 -0.4635621 1.5756202 19
-8.1638756 -0.463579 1.2875994 12
-8.1244192 -0.45991597 0.99445379 22
-8.1343317 -0.45905286 0.70944768 16
-8.1242876 -0.45706359 0.42444459 17
-8.1192579 -0.45535907 0.14127722 59
-1.9912174 -0.10993205 -0.52410877 2
-2.2953153 -0.12631901 -0.52188677 2
-2.719003 -0.14915998 -0.52139437 2
-3.3518748 -0.18329152 -0.52562022 2
nan nan nan 0
-6.1110053 -0.33203033 -0.53208661 4
-8.1253014 -0.44005114 -0.42303219 20
-8.1451778 -0.43970188 -0.14029768 16
-8.5312824 -0.45905167 2.2774169 9
-8.5520411 -0.45867175 1.9668337 14
-8.306695 -0.44405916 1.6080285 5
-8.638876 -0.4603048 1.3626053 5
-8.1656208 -0.43365917 0.99932855 12
-8.275157 -0.43802807 0.72164953 6
-8.1906557 -0.4321216 0.42784643 9
-8.5301704 -0.44854078 0.14843272 21
-1.991589 -0.10298073 -0.52410877 2
-2.2957423 -0.11830609 -0.52188677 2
-2.7244089 -0.13991973 -0.52234757 2
-3.3475623 -0.17133775 -0.52483809 2
-4.3452139 -0.22164002 -0.5295229 2
-6.1121268 -0.31069693 -0.53208661 2
-8.2065763 -0.41572782 -0.42720515 8
-8.6409607 -0.43622077 -0.14885031 4
-8.7836685 -0.44188818 2.3446662 14
-8.8066187 -0.4415018 2.0252769 14
-8.8327303 -0.44126537 1.7100199 12
-9.0004997 -0.44807205 1.4196409 12
-8.6577911 -0.42949617 1.0596539 4
-8.8238745 -0.43619144 0.76958519 12
-8.7257338 -0.42981336 0.45584616 4
-8.9261484 -0.43812376 0.15532641 64
-1.9919362 -0.096028164 -0.52410877 2
-2.291275 -0.11005799 -0.52076203 2
-2.7297833 -0.13064355 -0.52330071 2
-3.3432071 -0.1594163 -0.5240559 2
-4.3360472 -0.20600004 -0.52830422 2
-6.1081986 -0.28912422 -0.53165084 2
-8.6668415 -0.40871847 -0.45119956 4
-9.0169611 -0.42365247 -0.15532957 15
-8.8237534 -0.4130314 2.3550122 15
-9.1049776 -0.42460266 2.0938349 14
-9.1431055 -0.42478147 1.7700707 12
-9.3325405 -0.43195012 1.4719887 13
-9.0013037 -0.41504467 1.1016989 13
-9.1238871 -0.41910115 0.79573196 11
-9.1012745 -0.41647065 0.47547215 13
-9.2522364 -0.42176041 0.16099843 59
-1.9922593 -0.089074425 -0.52410877 2
-2.2916453 -0.10205927 -0.52076203 2
-2.7106087 -0.12024395 -0.51948798 2
-3.3388097 -0.14752738 -0.52327371 2
-4.3565712 -0.19173595 -0.53074157 2
-6.1091709 -0.26780087 -0.53165084 3
-9.0623026 -0.39566931 -0.47180349 11
-9.343029 -0.40629235 -0.16094494 10
-8.8347931 -0.38264626 2.3575988 15
-9.42766 -0.40667555 2.1680126 15
-9.4681816 -0.40676796 1.8329811 13
-9.6399031 -0.41245979 1.5204298 13
-9.3398581 -0.39798877 1.1431345 12
-9.4587193 -0.40139982 0.82492912 11
-9.4269381 -0.3984029 0.49248132 12
-9.5883055 -0.40354612 0.16684499 58
-1.9925581 -0.082119599 -0.52410877 2
-2.2919874 -0.094059326 -0.52076203 2
-2.6962996 -0.11018022 -0.51662844 2
-3.3393044 -0.13587186 -0.52327371 2
nan nan nan 0
-6.1050911 -0.24627349 -0.53121507 3
-9.3979034 -0.37745947 -0.48927769 11
-9.6940584 -0.38765964 -0.16699225 9
-8.8312483 -0.3516126 2.3563056 15
-9.7795343 -0.38765869 2.2489338 10
-9.7932396 -0.38649002 1.8958915 12
-10.011391 -0.39334932 1.5790281 11
-9.6883144 -0.37896207 1.1857886 13
-9.8184214 -0.38233501 0.85630518 9
-9.7725401 -0.37884015 0.51053727 11
-9.9643202 -0.38453293 0.17338964 56
-1.997659 -0.075345807 -0.5254029 2
-2.2923019 -0.086058214 -0.52076203 2
-2.6868579 -0.10040114 -0.51472205 2
-3.3397584 -0.12421469 -0.52327371 2
nan nan nan 0
-6.1009359 -0.22477783 -0.53077924 3
-9.7035437 -0.35581344 -0.50518703 10
-10.050064 -0.36676341 -0.17312595 9
-8.8324223 -0.32078362 2.3563056 15
-10.136256 -0.36636597 2.3309789 12
-10.201654 -0.36694691 1.9750061 10
-10.451956 -0.37412354 1.6485648 11
-10.041709 -0.35768408 1.2290523 12
-10.178102 -0.3607637 0.88768119 8
-10.133086 -0.35739735 0.52937818 10
-10.335317 -0.36272398 0.17984703 56
-1.9979098 -0.06837222 -0.5254029 2
-2.2877192 -0.077890292 -0.51963723 2
-2.6724756 -0.090523161 -0.51186246 2
-3.3352358 -0.11238968 -0.52249151 2
nan nan nan 0
-6.0967054 -0.20331421 -0.53034353 3
-10.118933 -0.33568028 -0.52683419 6
-10.436017 -0.34437564 -0.17977799 8
-8.82866 -0.2897923 2.3550122 7
-10.205646 -0.3332074 2.3467135 13
-10.610048 -0.34455711 2.0541208 11
-10.877694 -0.35134825 1.7157575 11
-10.43475 -0.33521816 1.2771907 12
-10.607444 -0.33891273 0.9251582 9
-10.563466 -0.33566207 0.55188262 8
-10.756247 -0.3399086 0.18717705 55
-1.9981363 -0.061397791 -0.5254029 2
-2.2879772 -0.069904186 -0.51963723 2
-2.6874933 -0.081641048 -0.51472205 2
-3.3356078 -0.10074685 -0.52249151 2
nan nan nan 0
-6.0973778 -0.18203151 -0.53034353 2
-10.479396 -0.31102192 -0.54561245 10
-10.866903 -0.32062462 -0.18720756 8
-8.8296175 -0.25897276 2.3550122 14
-10.221356 -0.29800695 2.3500853 13
-11.042935 -0.32003137 2.1380014 10
-11.362635 -0.32731166 1.7923259 9
-10.847594 -0.31058061 1.3277664 12
-11.056668 -0.31463534 0.9643783 9
-11.003795 -0.31120867 0.57491046 9
-11.202125 -0.31486112 0.19494337 71
-1.9983385 -0.054422621 -0.5254029 2
-2.2833371 -0.061785452 -0.51851249 2
-2.7024813 -0.072655171 -0.51758158 2
-3.3408761 -0.08923465 -0.52327371 2
-4.3195662 -0.11462098 -0.52586681 2
-6.0929966 -0.16061532 -0.52990776 2
-10.565272 -0.27666214 -0.55004621 5
-11.227781 -0.29204965 -0.19342765 16
-8.8256407 -0.22802533 2.353719 14
-10.227204 -0.26245093 2.3512092 14
-11.613164 -0.2959893 2.2485712 8
-11.911714 -0.3015182 1.8790513 8
-11.255428 -0.28294012 1.3777329 26
-11.276793 -0.28150779 0.98355258 8
-11.284344 -0.27972558 0.5895645 18
-11.253132 -0.27698663 0.19581598 2
-1.9936879 -0.047332156 -0.52410877 2
-2.2835391 -0.053814739 -0.51851249 2
-2.7125325 -0.063450873 -0.51948798 2
-3.3411672 -0.077572279 -0.52327371 2
nan nan nan 0
-6.0885406 -0.13923194 -0.52947193 2
-10.596126 -0.24046046 -0.55161107 4
nan nan nan 0
-8.8263826 -0.1972167 2.353719 14
-10.223187 -0.22664176 2.3500853 8
-12.045952 -0.26494786 2.3324518 10
-12.445933 -0.27157211 1.9634328 9
nan nan nan 0
nan nan nan 0
nan nan nan 0
-12.253655 -0.25881794 0.21326838 30
-1.9938409 -0.040372595 -0.52410877 2
-2.2983255 -0.046136707 -0.52188677 2
-2.7176449 -0.054079641 -0.52044117 2
-3.3414176 -0.065908954 -0.52327371 2
-4.3004141 -0.084074154 -0.52342945 2
