# .PCD v0.7 - Point Cloud Data file format
VERSION 0.7
FIELDS x y z intensity
SIZE 4 4 4 4
TYPE F F F F
COUNT 1 1 1 1
WIDTH 1552
HEIGHT 1
VIEWPOINT 0 0 0 1 0 0 0
POINTS 1552
DATA ascii
0.87943262 -2.0657959 -0.50951445 2
1.054653 -2.4785905 -0.51567525 5
3.1151428 -7.324594 -1.2546054 14
3.1155152 -7.3290219 -0.97312778 4
1.2966245 -3.0516934 -0.28674284 3
1.287524 -3.031745 -0.17004748 4
nan nan nan 0
3.0784509 -7.2558956 2.1002417 10
1.6621473 -3.9195769 0.97330165 3
1.6603079 -3.917141 0.81878877 5
1.6948134 -4.0004926 0.68130267 4
nan nan nan 0
1.8456666 -4.3608088 0.41093931 8
1.7268207 -4.0819926 0.23027821 7
1.6308491 -3.8570039 0.072427489 59
0.75095803 -1.7794991 -0.50728554 2
0.87293839 -2.0685484 -0.50951445 2
1.0544913 -2.4999814 -0.51948798 5
3.1017091 -7.3570976 -1.2585163 3
nan nan nan 0
1.2966979 -3.0787036 -0.28892171 3
1.28768 -3.0587852 -0.17135151 4
1.2983849 -3.0857198 -0.05719031 6
3.0781097 -7.3189569 2.1157606 11
1.6611534 -3.9517276 0.98004514 4
1.6594009 -3.9494882 0.82450783 5
1.691798 -4.028564 0.68520916 12
1.668561 -3.9751747 0.52464747 6
nan nan nan 0
nan nan nan 0
1.6264538 -3.8805504 0.072776534 57
0.74318987 -1.7775238 -0.50599146 2
0.86571252 -2.071583 -0.50951445 2
1.0438666 -2.4991181 -0.51853484 4
1.331331 -3.1889005 -0.5412637 11
nan nan nan 0
1.2955303 -3.1061971 -0.29110062 3
1.2866013 -3.0863051 -0.17265557 4
1.6356328 -3.9254923 -0.072826929 15
3.0729685 -7.3787022 2.1299863 11
1.6510937 -3.9664977 0.98229289 4
1.6588027 -3.9869788 0.83118021 5
2.2048914 -5.3021274 0.90241349 9
1.6622938 -3.9993052 0.52708489 6
1.8358139 -4.418952 0.41529712 11
1.7054545 -4.1071897 0.23106325 7
1.6263125 -3.9185255 0.073387362 57
0.73666996 -1.7802358 -0.50599146 3
0.85811394 -2.0747421 -0.50951445 2
1.0422006 -2.5210712 -0.52234757 3
1.3139764 -3.1800659 -0.53891718 4
1.33307 -3.2278719 -0.42410579 6
1.2936393 -3.1339457 -0.29327953 3
1.286707 -3.1186948 -0.17422041 4
1.6250459 -3.9407043 -0.072999716 12
3.0698304 -7.4479661 2.1467988 10
1.653247 -4.0130653 0.9924081 4
1.6553915 -4.0202632 0.83689934 4
2.1854434 -5.310173 0.90241349 11
nan nan nan 0
1.8309699 -4.4532924 0.4179118 11
1.6941851 -4.1226492 0.23158659 8
1.623336 -3.9522064 0.073910944 59
0.73228228 -1.7872653 -0.50728554 2
0.8508665 -2.0777247 -0.50951445 2
nan nan nan 0
1.2860384 -3.1434965 -0.53187758 2
1.3217945 -3.2325056 -0.42410579 5
1.2939985 -3.1661065 -0.29589421 4
1.2871423 -3.1509013 -0.17578526 4
1.6245085 -3.9787509 -0.073604442 13
3.0675373 -7.5167704 2.1636109 11
1.6521091 -4.0503902 1.0002754 4
1.6561719 -4.0623779 0.8445248 4
2.1631668 -5.3086224 0.90085083 12
1.987425 -4.8797712 0.64225143 7
1.8229258 -4.4781098 0.41965491 11
1.6797841 -4.1285381 0.23158659 10
1.6208299 -3.9856343 0.074434511 58
0.72603911 -1.7898107 -0.50728554 2
0.84360868 -2.0806823 -0.50951445 2
1.00061 -2.4691489 -0.50995612 2
3.0993621 -7.651958 -1.3015358 26
1.3067783 -3.2278998 -0.42288712 3
1.2922804 -3.1936905 -0.29807308 4
1.2873684 -3.1831489 -0.17735012 4
1.6237252 -4.0168419 -0.074209183 13
3.064801 -7.5856481 2.1804233 11
1.6507308 -4.0877557 1.0081428 6
1.6530042 -4.0954437 0.85024399 4
2.1390803 -5.3024006 0.89850688 15
1.9648117 -4.8728704 0.64042342 6
1.8016975 -4.4705858 0.41834754 12
1.6653625 -4.1343765 0.23158659 11
1.6199771 -4.0237303 0.07504534 58
0.72158694 -1.7968158 -0.50857961 3
0.83634061 -2.0836143 -0.50951445 2
3.0973303 -7.7204208 -1.6080297 23
3.0818231 -7.6856489 -1.3054467 34
1.2955029 -3.2324417 -0.42288712 3
1.2922376 -3.2259247 -0.30068776 3
1.285529 -3.2108006 -0.17865416 5
1.6226954 -4.054975 -0.07481391 14
3.0634148 -7.6590824 2.1985288 12
1.6491116 -4.1251607 1.01601 4
1.655089 -4.14221 0.8588227 4
nan nan nan 0
1.9220333 -4.8151722 0.6318925 8
1.780544 -4.4629688 0.41704023 15
1.6490713 -4.1355267 0.23132493 12
1.6170272 -4.0572243 0.075568914 56
0.71709466 -1.8038117 -0.50987375 2
0.8290624 -2.0865211 -0.50951445 2
3.0594926 -7.7038159 -1.6023107 15
3.0476882 -7.6779985 -1.302318 17
1.3006827 -3.2784605 -0.42837122 3
1.2901495 -3.253567 -0.30286667 4
1.2779928 -3.2245522 -0.17917578 5
1.6158955 -4.079206 -0.075159475 11
3.0562186 -7.7191267 2.2127545 34
1.6454583 -4.1580729 1.0227535 4
1.6514516 -4.1753478 0.86454177 4
2.0911169 -5.2896485 0.89381903 11
1.890624 -4.7849278 0.62701774 7
1.7484883 -4.4274616 0.41311821 10
1.6327925 -4.1366134 0.23106325 12
1.6156975 -4.095397 0.07617975 57
0.71256232 -1.810798 -0.51116782 3
0.82177401 -2.0894022 -0.50951445 2
3.0236042 -7.6916084 -1.5975448 17
3.0172565 -7.6793971 -1.3007536 17
1.2964869 -3.3014581 -0.4308086 3
1.2897037 -3.2858706 -0.30548134 4
nan nan nan 0
1.616246 -4.122056 -0.075850591 10
3.0239685 -7.7162576 2.2088749 27
1.6433724 -4.1955471 1.0306208 4
1.644024 -4.199369 0.8683545 4
nan nan nan 0
1.8395663 -4.7036829 0.61544013 7
1.687688 -4.3175592 0.40222374 8
1.6147088 -4.1329856 0.23053987 9
1.6141212 -4.1336098 0.076790586 61
0.70623708 -1.8132743 -0.51116782 3
0.8144756 -2.092258 -0.50951445 2
2.996737 -7.7021165 -1.5975448 9
nan nan nan 0
1.295742 -3.3337171 -0.43446469 3
1.2872444 -3.3135672 -0.30766025 4
3.0103252 -7.7530532 -0.43242133 3
1.6090823 -4.1463146 -0.076196156 9
2.9935222 -7.7177606 2.2062883 27
1.6410445 -4.2330561 1.0384881 4
nan nan nan 0
nan nan nan 0
nan nan nan 0
1.6905786 -4.3698783 0.40658155 8
1.6056745 -4.1525683 0.23132493 8
1.6122974 -4.1718607 0.077401422 57
0.70164037 -1.8202349 -0.5124619 2
0.80716729 -2.0950882 -0.50951445 2
nan nan nan 0
nan nan nan 0
1.2930058 -3.3613791 -0.43751144 3
1.2881823 -3.3505845 -0.3107107 3
2.9796615 -7.7541919 -0.4318997 28
nan nan nan 0
nan nan nan 0
1.6384747 -4.2705998 1.0463555 4
1.6392704 -4.2749047 0.8816992 4
nan nan nan 0
1.7871561 -4.6654334 0.60873735 8
1.6913433 -4.4176183 0.41050357 10
1.5983077 -4.1768017 0.23237164 8
1.6102258 -4.2101483 0.07801225 58
0.69528228 -1.822673 -0.5124619 3
0.79984915 -2.0978932 -0.50951445 2
1.2877493 -3.379359 -0.69487476 3
1.3231028 -3.4739573 -0.58271885 13
1.2900923 -3.3890626 -0.44055817 3
1.2853348 -3.3783379 -0.31288961 3
2.9703238 -7.8112178 -0.43450782 24
1.6067379 -4.2275443 -0.077492014 6
nan nan nan 0
1.6373918 -4.3127317 1.0553467 4
nan nan nan 0
2.0030477 -5.2813883 0.88756853 10
1.776137 -4.6855645 0.61056536 8
1.6759126 -4.4234953 0.41050357 10
1.5960956 -4.2150421 0.2342034 8
1.6079069 -4.2484732 0.078623094 60
0.68891573 -1.825089 -0.5124619 2
0.7925213 -2.1006722 -0.50951445 2
1.3140438 -3.4848719 -0.71584493 8
1.3109684 -3.4785547 -0.58271885 10
1.2887504 -3.4214103 -0.44421425 3
1.2893291 -3.4247582 -0.31681162 4
2.9588656 -7.8635979 -0.43685508 16
2.9733846 -7.9063711 -0.14530832 27
nan nan nan 0
1.6360347 -4.3549075 1.064338 4
2.9637792 -7.8933711 1.6299521 24
1.9793946 -5.274477 0.88522464 11
1.7527992 -4.6731496 0.60812795 8
1.6587131 -4.4246545 0.41006777 9
1.5953878 -4.2579937 0.23629683 7
1.6070929 -4.2915134 0.079321183 62
0.68254083 -1.8274825 -0.5124619 3
0.78518379 -2.103426 -0.50951445 2
1.2915771 -3.4618454 -0.7101258 3
1.3022689 -3.4923639 -0.58428317 6
1.2871983 -3.4537897 -0.44787034 3
1.2860597 -3.4525762 -0.3189905 3
2.9557881 -7.9393902 -0.4405064 16
2.9632025 -7.9635558 -0.14617221 16
1.6430116 -4.4179244 1.2518681 2
1.6344033 -4.3971267 1.0733292 4
2.9567194 -7.9588809 1.6413902 15
1.9626901 -5.285984 0.88600594 11
1.7364761 -4.6792393 0.60812795 8
1.6415259 -4.4257474 0.40963197 11
1.5943995 -4.3009911 0.23839027 8
1.605998 -4.3346 0.08001928 60
0.67448354 -1.8253237 -0.51116782 3
0.77783662 -2.106154 -0.50951445 2
nan nan nan 0
1.2849425 -3.4829891 -0.58193672 4
1.2854358 -3.4861996 -0.45152643 3
1.277445 -3.4663916 -0.31986207 4
2.9504917 -8.0105715 -0.44389695 16
2.956111 -8.0301485 -0.14720888 16
1.6309159 -4.4326992 1.2544546 3
1.6341779 -4.4439588 1.0834444 4
2.935693 -7.9875822 1.645203 12
1.9408209 -5.2835317 0.88444328 11
1.7150007 -4.6712961 0.60629994 7
1.6226356 -4.4220982 0.40876046 10
1.5931302 -4.3440332 0.2404837 8
1.6046215 -4.3777304 0.080717377 60
0.66810787 -1.827667 -0.51116782 3
0.77048004 -2.1088562 -0.50951445 2
2.9745147 -8.1458597 -1.6766595 13
1.2812423 -3.5106485 -0.58584756 4
1.285163 -3.5233011 -0.45579186 3
nan nan nan 0
2.9447336 -8.08181 -0.44728744 16
2.9554329 -8.1155767 -0.14859113 16
1.6203885 -4.4519806 1.2583344 3
1.6319799 -4.4862638 1.0924356 4
nan nan nan 0
nan nan nan 0
1.6919081 -4.658596 0.60386258 7
1.6071897 -4.4277353 0.40876046 10
1.5915797 -4.3871179 0.24257714 7
1.6012594 -4.4162035 0.081328206 58
0.66172403 -1.8299879 -0.51116782 2
0.76311409 -2.1115329 -0.50951445 2
2.9710743 -8.2254391 -1.6909572 18
1.2807183 -3.5476148 -0.59132278 3
1.2846469 -3.5604424 -0.46005729 3
1.2599728 -3.4939678 -0.32160518 2
2.9419003 -8.1625004 -0.45119956 15
2.9508061 -8.1916924 -0.14980061 17
1.6179267 -4.4939642 1.2686805 4
1.6295065 -4.5286078 1.1014268 4
1.6374179 -4.5530891 0.93221813 4
1.711786 -4.7624912 0.79459262 6
nan nan nan 0
1.5934072 -4.4380064 0.4091962 7
1.5897477 -4.4302444 0.24467057 8
1.5959603 -4.4500008 0.08185178 56
0.65533215 -1.8322867 -0.51116782 3
0.75573874 -2.1141839 -0.50951445 2
2.945647 -8.2450047 -1.6928637 9
1.278291 -3.5799687 -0.59601581 3
1.2822188 -3.5929492 -0.46371335 3
2.7788675 -7.7910547 -0.72034329 33
2.9335093 -8.2291594 -0.45432928 27
2.9372945 -8.2443266 -0.15057813 16
1.6200522 -4.5496345 1.2829063 4
1.6267573 -4.5709887 1.1104181 4
1.6363187 -4.6003971 0.94079685 3
1.8721527 -5.2663393 0.87819284 10
1.6543597 -4.6562653 0.60203457 6
1.592907 -4.485786 0.41311821 8
1.5876338 -4.473412 0.24676402 7
nan nan nan 0
0.64893228 -1.834563 -0.51116782 3
0.74835432 -2.1168089 -0.50951445 2
nan nan nan 0
1.2756532 -3.6123486 -0.60070884 3
1.2795796 -3.6254821 -0.46736944 3
2.7466843 -7.7866163 -0.71903598 28
2.8997858 -8.2252226 -0.45354685 4
2.8952074 -8.2168083 -0.149887 5
1.6202039 -4.6008177 1.2958387 7
1.6253489 -4.6180005 1.1205331 4
2.9085767 -8.2685614 1.6947687 18
1.8537583 -5.2728424 0.87819284 10
1.6413864 -4.6713753 0.60325319 9
1.5887918 -4.5242162 0.41616869 7
1.5852381 -4.5166183 0.24885747 7
1.5665095 -4.4657512 0.081939042 27
0.6441192 -1.8413758 -0.5124619 3
0.74096066 -2.1194084 -0.50951445 2
nan nan nan 0
1.272805 -3.6447535 -0.60540187 3
1.2734579 -3.6486688 -0.46980685 3
2.7162061 -7.7867503 -0.71816444 18
2.8842068 -8.2730131 -0.45563331 22
2.879667 -8.2646313 -0.15057813 12
1.6184295 -4.6474962 1.307478 4
1.6172265 -4.6466522 1.1261528 4
2.8684084 -8.246213 1.6880964 8
1.8337197 -5.2746162 0.87741148 11
1.6250702 -4.6770763 0.60325319 8
1.5893291 -4.5767875 0.42052644 7
1.5841966 -4.5645776 0.25121257 8
2.8533711 -8.2261114 0.15131237 5
0.63768768 -1.843613 -0.5124619 2
0.73355806 -2.1219819 -0.50951445 2
nan nan nan 0
1.2697459 -3.6771822 -0.6100949 3
1.2785227 -3.7046952 -0.47650966 3
2.6825125 -7.7773499 -0.71642137 18
2.8406653 -8.2405453 -0.45328602 6
2.8573141 -8.293539 -0.15092367 9
1.616349 -4.6942182 1.3191173 4
1.6231921 -4.7167654 1.1418874 4
2.8380096 -8.2515335 1.6871432 4
1.812086 -5.2716446 0.87584889 11
1.6055096 -4.6733341 0.60203457 8
1.5862839 -4.6199956 0.42401269 7
1.5812188 -4.607862 0.253306 7
2.8408575 -8.2833099 0.15218498 2
0.63157052 -1.8457175 -0.5124619 2
0.72688806 -2.1242759 -0.50951445 2
1.2877529 -3.7655065 -0.76541072 6
1.2693679 -3.7138643 -0.61557013 3
1.2797116 -3.7462635 -0.48138443 3
2.6548474 -7.7763114 -0.71554977 18
2.8244376 -8.2777834 -0.45485091 3
2.8619027 -8.3923769 -0.15256509 3
1.6171746 -4.7449889 1.3320498 3
1.6193622 -4.7541246 1.1497548 3
2.6586406 -7.8097048 1.594684 9
nan nan nan 0
1.5876245 -4.6689572 0.60081583 9
1.5861865 -4.6674013 0.42793471 9
1.5811875 -4.6553583 0.25566113 9
2.9289143 -8.6283026 0.15838058 40
0.62389803 -1.843227 -0.51116782 3
0.72102976 -2.1314154 -0.51063919 2
1.274601 -3.7699788 -0.76541072 5
1.2658817 -3.7463439 -0.62026316 3
1.2698026 -3.7601118 -0.48260313 3
2.6245008 -7.7760911 -0.71467817 18
2.9056449 -8.6140499 -0.47284672 4
2.931607 -8.6960287 -0.15792127 5
1.6144809 -4.7917981 1.343689 4
nan nan nan 0
1.6388053 -4.8696108 0.99036258 13
1.7471701 -5.1946092 0.86100399 9
1.5697359 -4.6697664 0.60020649 7
1.5841608 -4.7154045 0.43185672 8
1.5776421 -4.6987166 0.25775456 7
2.9274054 -8.7237844 0.1599513 38
0.61713809 -1.8455014 -0.51116782 2
0.71321291 -2.1340437 -0.51063919 2
1.2592198 -3.7699695 -0.76445752 3
1.2630881 -3.7837486 -0.62573838 3
nan nan nan 0
2.5928311 -7.7762079 -0.71380663 18
2.9119387 -8.7383318 -0.47910613 4
2.9281487 -8.7920914 -0.1594763 5
1.6106353 -4.8389277 1.3553283 4
1.6345128 -4.9135261 1.1857197 9
1.6132041 -4.8522973 0.98559672 2
1.7514775 -5.2712779 0.87272364 11
1.6120423 -4.8544626 0.62336165 6
1.580988 -4.7637258 0.43577874 7
1.5761292 -4.7518601 0.26037139 7
2.9205804 -8.8103809 0.16134749 38
0.61069226 -1.8476443 -0.51116782 2
0.70728737 -2.1411462 -0.51176393 2
1.2660558 -3.8349333 -0.77684897 3
1.2607042 -3.8209631 -0.63121355 3
nan nan nan 0
2.5609946 -7.7710195 -0.71249932 19
2.9048493 -8.819582 -0.48301831 3
2.9287028 -8.8972311 -0.16120411 5
1.6073183 -4.8858118 1.3669676 4
2.7358086 -8.3210077 2.0117898 8
2.9047725 -8.8401146 1.7996194 4
1.7315258 -5.2726674 0.87194234 9
1.6260386 -4.9543653 0.63554859 8
1.5783218 -4.8118114 0.43970072 8
1.5750867 -4.8047805 0.26298818 7
2.914712 -8.896534 0.16274369 39
0.60273939 -1.8451738 -0.50987375 2
0.70132113 -2.1482334 -0.51288873 2
1.2587516 -3.8579946 -0.78066176 3
1.2580757 -3.8582065 -0.63668877 3
nan nan nan 0
2.5307679 -7.7704391 -0.71162772 19
2.9065001 -8.9293756 -0.48849526 3
2.9254651 -8.9929733 -0.16275914 5
1.6051871 -4.937325 1.3799002 3
2.7022293 -8.3166056 2.0084181 11
2.9042161 -8.9435682 1.8186833 4
1.7115856 -5.2739816 0.87116098 14
1.6056725 -4.9505701 0.63432992 7
1.5768746 -4.8646736 0.44405851 9
1.5567664 -4.8054991 0.26272649 2
2.9128971 -8.9970217 0.16440167 39
0.59629488 -1.8472666 -0.50987375 3
0.69531381 -2.1553049 -0.51401347 2
1.2588325 -3.9044085 -0.78924048 3
1.2582316 -3.9048784 -0.64372832 3
2.512588 -7.8023958 -1.0017672 25
2.5005767 -7.769743 -0.71075618 19
2.9028332 -9.0250282 -0.49318984 4
2.9108849 -9.0554819 -0.16370942 4
1.6012383 -4.9842839 1.3915395 4
2.6672251 -8.3074322 2.0039225 11
2.8969736 -9.028429 1.8339343 4
1.6811012 -5.2423029 0.86491054 8
1.5853528 -4.9466925 0.63311118 7
1.5735583 -4.9128408 0.44798052 8
2.9023805 -9.0670338 0.49692988 2
nan nan nan 0
0.58984309 -1.8493367 -0.50987375 2
0.68926585 -2.1623607 -0.51513821 2
1.2571145 -3.9461925 -0.79686594 3
1.2535825 -3.9374809 -0.64842141 3
2.4823279 -7.8016601 -1.0005485 17
2.4704211 -7.7689304 -0.70988458 20
2.8939965 -9.1064854 -0.49710196 5
nan nan nan 0
1.598442 -5.0358772 1.4044719 4
2.6411572 -8.3259811 2.0061705 10
1.6313298 -5.1457186 1.0408816 4
nan nan nan 0
1.566578 -4.9474659 0.6325019 9
1.5714275 -4.9657927 0.45233831 12
nan nan nan 0
nan nan nan 0
0.5833841 -1.8513844 -0.50987375 2
0.68171358 -2.1647534 -0.51513821 2
1.25512 -3.9880118 -0.80449146 3
1.2590929 -4.0030746 -0.65858966 3
2.4521034 -7.8008084 -0.99932975 17
2.4403019 -7.768003 -0.7090131 19
2.8696697 -9.1403513 -0.49840599 4
nan nan nan 0
1.5953051 -5.0875125 1.4174045 3
1.6242718 -5.1830568 1.2441628 13
1.6250937 -5.1888533 1.0485071 12
1.6400367 -5.2397718 0.86256665 7
1.5552248 -4.9718494 0.63493925 8
1.5689459 -5.0187879 0.45669609 7
nan nan nan 0
nan nan nan 0
0.5783534 -1.858021 -0.51116782 2
0.67270577 -2.162468 -0.51401347 2
1.2528489 -4.0298648 -0.81211698 3
1.2524383 -4.0310254 -0.66250056 3
2.418972 -7.7903624 -0.99689227 17
2.4102192 -7.7669601 -0.70814151 20
3.0596004 -9.8656797 -0.53752732 2
7.5429759 -24.337337 -0.43963972 2
1.5918269 -5.1391859 1.430337 4
1.6004069 -5.1700788 1.2396672 2
nan nan nan 0
1.6217365 -5.2454648 0.86256665 8
1.5481156 -5.0104384 0.63920468 8
1.5661135 -5.0718265 0.46105388 11
nan nan nan 0
nan nan nan 0
0.57328349 -1.8646448 -0.5124619 2
0.6637224 -2.160146 -0.51288873 2
1.2517414 -4.0764422 -0.8206957 3
1.2456037 -4.0589786 -0.66641134 3
2.3903091 -7.7940149 -0.99628305 17
2.3801734 -7.765801 -0.70726991 21
3.0558536 -9.9765596 -0.54300433 3
7.43749 -24.296595 -0.43843025 2
1.5865945 -5.1862783 1.4419762 3
2.5367308 -8.2972717 1.9926834 9
nan nan nan 0
1.6034166 -5.2510939 0.86256665 10
1.5436528 -5.0585313 0.64468879 9
1.5629295 -5.1249056 0.46541163 7
nan nan nan 0
nan nan nan 0
0.56957752 -1.8758773 -0.51505011 2
0.6533488 -2.153126 -0.51063919 2
1.2488996 -4.1183639 -0.82832116 3
nan nan nan 0
2.3602111 -7.7928114 -0.99506432 17
2.3501654 -7.7645273 -0.70639837 20
3.0484786 -10.077973 -0.54795974 3
7.3555274 -24.33198 -0.43860304 2
1.583846 -5.2426429 1.4562019 3
2.5007119 -8.2827559 1.987064 9
nan nan nan 0
1.5836512 -5.2519307 0.86178529 10
1.5403047 -5.1114058 0.65078223 9
1.5593942 -5.1780238 0.46976945 9
nan nan nan 0
nan nan nan 0
0.56302601 -1.8778541 -0.51505011 3
0.64443064 -2.1507263 -0.50951445 2
1.2471882 -4.1650162 -0.83689988 3
nan nan nan 0
2.3301508 -7.7914929 -0.99384558 18
2.320195 -7.7631388 -0.70552689 22
3.0432901 -10.189024 -0.5534367 3
7.2548194 -24.304813 -0.43765274 2
1.5834844 -5.3083081 1.4730142 3
2.4690003 -8.2820959 1.9848162 8
1.6225588 -5.4462366 1.0961666 2
1.5624907 -5.2479606 0.8602227 8
1.5380217 -5.1690745 0.65748507 9
1.54131 -5.1834359 0.46976945 2
nan nan nan 0
nan nan nan 0
0.55235499 -1.8659149 -0.51116782 3
0.63277322 -2.1389477 -0.50614017 2
1.2451661 -4.2117062 -0.84547859 3
nan nan nan 0
2.298723 -7.7852998 -0.99201751 17
2.2902629 -7.7616358 -0.70465529 21
3.0430126 -10.319317 -0.55995691 3
7.1614561 -24.301214 -0.43713439 2
1.5881413 -5.3925662 1.4949995 4
1.6023467 -5.4443064 1.3003581 8
1.610463 -5.4754114 1.1009325 12
1.5483402 -5.2675962 0.86256665 7
1.5353544 -5.2267885 0.66418791 11
nan nan nan 0
nan nan nan 0
nan nan nan 0
0.54854786 -1.8771032 -0.51375604 3
0.63213158 -2.1645257 -0.51176393 2
1.242833 -4.2584329 -0.85405731 2
nan nan nan 0
2.2687559 -7.7837481 -0.99079889 17
2.2603698 -7.7600183 -0.70378369 20
3.032093 -10.416172 -0.56465149 3
7.0723958 -24.311665 -0.43687522 2
1.5908809 -5.4722819 1.5156915 5
1.5778956 -5.4311519 1.2958624 2
nan nan nan 0
1.5450813 -5.3251414 0.87116098 7
1.5323029 -5.2845469 0.67089075 8
nan nan nan 0
nan nan nan 0
nan nan nan 0
nan nan nan 0
0.6110782 -2.1199067 -0.50051636 2
1.2374713 -4.2957602 -0.86072963 2
nan nan nan 0
2.2388277 -7.7820821 -0.98958015 17
2.2318923 -7.7630739 -0.70334792 20
3.0108826 -10.479483 -0.56752038 3
nan nan nan 0
nan nan nan 0
2.3633358 -8.241931 1.9690815 10
nan nan nan 0
1.5427989 -5.3874755 0.88053674 7
1.5315973 -5.3518882 0.67881221 11
nan nan nan 0
nan nan nan 0
nan nan nan 0
nan nan nan 0
nan nan nan 0
1.2399175 -4.3614297 -0.87312108 3
nan nan nan 0
2.210294 -7.7850752 -0.98897082 16
2.2020614 -7.7612338 -0.70247632 22
nan nan nan 0
nan nan nan 0
nan nan nan 0
2.3478172 -8.2970095 1.9803205 12
nan nan nan 0
1.5400999 -5.4498577 0.88991243 8
1.5250452 -5.4001861 0.68429631 11
nan nan nan 0
nan nan nan 0
nan nan nan 0
nan nan nan 0
nan nan nan 0
1.2339656 -4.3988123 -0.87979341 3
nan nan nan 0
2.180428 -7.7831855 -0.98775208 19
2.1722708 -7.7592807 -0.70160484 20
nan nan nan 0
nan nan nan 0
nan nan nan 0
1.5969263 -5.7195463 1.3610488 2
1.5984939 -5.7290215 1.1476387 8
1.536984 -5.5122852 0.89928818 8
1.5248349 -5.472405 0.69282717 10
nan nan nan 0
nan nan nan 0
nan nan nan 0
nan nan nan 0
nan nan nan 0
1.2225312 -4.4172845 -0.882653 3
nan nan nan 0
2.1506026 -7.7811832 -0.98653346 16
2.1425204 -7.7572131 -0.70073324 20
nan nan nan 0
nan nan nan 0
1.5913255 -5.773334 1.5932868 12
1.5860083 -5.757966 1.3689162 11
1.5771836 -5.7298346 1.1466855 5
1.5347607 -5.5795197 0.90944523 7
1.5162463 -5.5159764 0.69770199 9
nan nan nan 0
nan nan nan 0
nan nan nan 0
nan nan nan 0
nan nan nan 0
nan nan nan 0
nan nan nan 0
2.1208172 -7.7790661 -0.98531479 17
2.1128111 -7.755033 -0.69986171 22
nan nan nan 0
nan nan nan 0
nan nan nan 0
2.2556944 -8.3023338 1.975825 11
nan nan nan 0
1.5307932 -5.6420379 0.91882092 8
nan nan nan 0
nan nan nan 0
nan nan nan 0
nan nan nan 0
nan nan nan 0
nan nan nan 0
nan nan nan 0
nan nan nan 0
2.0910728 -7.7768364 -0.98409605 16
2.0831428 -7.7527399 -0.69899011 20
nan nan nan 0
nan nan nan 0
nan nan nan 0
2.2203951 -8.2866268 1.9702053 12
nan nan nan 0
1.5289612 -5.7141376 0.92975926 8
1.559745 -5.8332624 0.73670018 32
nan nan nan 0
nan nan nan 0
nan nan nan 0
nan nan nan 0
nan nan nan 0
nan nan nan 0
nan nan nan 0
2.0640836 -7.7737741 -0.98287731 16
2.056222 -7.7496181 -0.69811863 20
nan nan nan 0
nan nan nan 0
nan nan nan 0
2.085933 -7.8837943 1.8724257 10
1.5868514 -6.001749 1.1981577 2
1.5261406 -5.7762098 0.93913502 8
1.537611 -5.8237386 0.7348721 23
nan nan nan 0
nan nan nan 0
nan nan nan 0
nan nan nan 0
nan nan nan 0
nan nan nan 0
nan nan nan 0
2.0344217 -7.7713299 -0.98165858 17
2.0278976 -7.7519293 -0.6976828 22
nan nan nan 0
nan nan nan 0
1.5784596 -6.0468178 1.6631224 11
nan nan nan 0
1.57332 -6.0357494 1.2038769 13
1.5196621 -5.8340721 0.94772947 15
1.5135226 -5.8146625 0.73304409 27
nan nan nan 0
nan nan nan 0
nan nan nan 0
nan nan nan 0
nan nan nan 0
nan nan nan 0
6.257216 -24.247225 -3.9601417 3
2.0046859 -7.7739296 -0.98104936 16
1.9969858 -7.7496634 -0.69681126 18
nan nan nan 0
nan nan nan 0
1.5514753 -6.0338516 1.6579493 2
nan nan nan 0
nan nan nan 0
1.4945868 -5.8252511 0.94538546 9
1.4909681 -5.8153629 0.73243469 23
nan nan nan 0
nan nan nan 0
nan nan nan 0
nan nan nan 0
nan nan nan 0
nan nan nan 0
6.1664529 -24.244987 -3.9562309 2
1.9750928 -7.7712598 -0.97983062 17
1.96747 -7.7469311 -0.69593966 19
nan nan nan 0
nan nan nan 0
1.2622697 -4.9811287 1.3656744 2
2.0987551 -8.2881155 1.9634619 12
nan nan nan 0
1.4718226 -5.8208575 0.94382292 8
1.4694439 -5.815721 0.73182535 26
nan nan nan 0
nan nan nan 0
nan nan nan 0
nan nan nan 0
nan nan nan 0
nan nan nan 0
nan nan nan 0
1.9467483 -7.773293 -0.97922128 16
1.9392071 -7.74892 -0.69550389 18
nan nan nan 0
nan nan nan 0
1.2460448 -4.9901905 1.3669676 33
2.0591962 -8.2528467 1.9533467 9
nan nan nan 0
1.4491072 -5.8163753 0.94226027 7
1.4479355 -5.8159995 0.73121607 25
nan nan nan 0
nan nan nan 0
nan nan nan 0
nan nan nan 0
nan nan nan 0
nan nan nan 0
nan nan nan 0
1.9172248 -7.7704039 -0.97800255 17
1.9097617 -7.7459688 -0.69463235 18
nan nan nan 0
nan nan nan 0
1.2274644 -4.98982 1.3656744 31
2.0292127 -8.2552538 1.9522228 10
nan nan nan 0
1.4264411 -5.8118057 0.94069767 8
1.4264429 -5.8161979 0.73060668 25
nan nan nan 0
nan nan nan 0
nan nan nan 0
nan nan nan 0
nan nan nan 0
nan nan nan 0
nan nan nan 0
1.8877454 -7.7674041 -0.97678381 18
1.8803607 -7.742908 -0.69376081 20
nan nan nan 0
nan nan nan 0
1.2077646 -4.9846859 1.3630879 24
nan nan nan 0
1.8764069 -7.7561359 1.5422587 3
1.404985 -5.8119493 0.93991631 9
1.4049666 -5.816318 0.72999734 25
nan nan nan 0
nan nan nan 0
nan nan nan 0
nan nan nan 0
nan nan nan 0
nan nan nan 0
nan nan nan 0
1.8583105 -7.7642941 -0.9755652 17
1.8510044 -7.7397356 -0.69288921 20
nan nan nan 0
nan nan nan 0
1.1903574 -4.9888721 1.3630879 16
nan nan nan 0
1.8572838 -7.7960606 1.548931 6
1.3824016 -5.8072095 0.93835366 9
1.3823586 -5.8115306 0.72877866 23
nan nan nan 0
nan nan nan 0
nan nan nan 0
nan nan nan 0
nan nan nan 0
1.9379154 -8.2107592 -1.6309062 2
nan nan nan 0
1.8300582 -7.7659035 -0.97495586 18
1.8228347 -7.7413011 -0.69245344 20
nan nan nan 0
nan nan nan 0
1.1718313 -4.9882946 1.3617946 21
nan nan nan 0
nan nan nan 0
1.3609953 -5.8071914 0.93757242 9
1.3609326 -5.8114886 0.72816932 26
nan nan nan 0
nan nan nan 0
1.8978115 -8.1232395 0.14494222 35
0.44214758 -1.9000158 -0.5124619 2
nan nan nan 0
1.9203507 -8.2652826 -1.6404382 9
1.9172367 -8.2584181 -1.3367336 9
1.800696 -7.7625747 -0.97373712 17
1.793552 -7.7379122 -0.6915819 20
1.9047328 -8.2241039 -0.43894157 3
1.9078512 -8.2441139 -0.14556749 13
1.1533235 -4.9876485 1.3605013 17
1.20193 -5.2019882 1.2228086 17
nan nan nan 0
1.339606 -5.8070941 0.93679106 9
1.3384089 -5.8065314 0.72695059 26
1.9012474 -8.2549238 0.73777342 7
1.8943505 -8.2315464 0.44066873 4
1.8929716 -8.2321291 0.14677472 54
0.43766904 -1.9109631 -0.51505011 2
nan nan nan 0
1.8892998 -8.2623663 -1.6385319 5
1.8861977 -8.2554312 -1.3351692 6
1.7713798 -7.7591372 -0.97251844 16
1.7654229 -7.7392697 -0.69114608 21
1.880452 -8.2501745 -0.43998477 13
1.876842 -8.2409754 -0.1453947 8
1.1359063 -4.9916439 1.3605013 18
1.1837645 -5.206152 1.2228086 20
nan nan nan 0
1.3182341 -5.8069191 0.93600976 9
1.3170345 -5.8063288 0.72634125 24
1.8768245 -8.2809401 0.73951644 4
1.8689138 -8.252717 0.44145375 6
1.8664312 -8.2484379 0.14694926 29
0.43311942 -1.9219022 -0.51763833 2
0.50177795 -2.2283773 -0.51851249 2
nan nan nan 0
nan nan nan 0
1.7431968 -7.7604308 -0.97190911 18
1.7362155 -7.7356644 -0.69027454 20
1.8472718 -8.2372007 -0.43894157 2
nan nan nan 0
1.1174202 -4.9908657 1.3592081 18
1.1698389 -5.22927 1.2273042 24
nan nan nan 0
1.2968795 -5.8066654 0.93522841 8
1.2956777 -5.806047 0.72573191 24
nan nan nan 0
nan nan nan 0
nan nan nan 0
0.43197447 -1.9469026 -0.52410877 2
0.48949835 -2.2061617 -0.51288873 2
nan nan nan 0
nan nan nan 0
1.7166632 -7.7561774 -0.97069037 17
1.710829 -7.7362175 -0.68983877 19
5.3496122 -24.210512 -1.2930911 2
nan nan nan 0
1.100695 -4.9896355 1.3579149 17
1.1492101 -5.2138882 1.2228086 14
1.2011218 -5.4539361 1.0771028 28
1.2765085 -5.801065 0.93366587 8
1.2763653 -5.8052416 0.72512257 24
nan nan nan 0
5.3360939 -24.310402 1.3023802 2
nan nan nan 0
0.41933295 -1.920014 -0.51634425 2
0.48283306 -2.2126164 -0.51401347 2
nan nan nan 0
nan nan nan 0
1.6874676 -7.7524242 -0.96947169 17
1.6816971 -7.732408 -0.68896717 19
nan nan nan 0
5.2534266 -24.195812 -0.42719954 2
1.0822473 -4.9887266 1.3566216 17
1.1310033 -5.2178683 1.2228086 14
1.1779209 -5.4389067 1.07329 16
1.2447618 -5.7523894 0.92507148 16
1.2539961 -5.7999606 0.72390389 25
nan nan nan 0
5.2290792 -24.226383 1.2968849 2
5.2269993 -24.237259 0.43212157 19
0.41229293 -1.921538 -0.51634425 2
0.47676265 -2.2238986 -0.51626295 2
5.1821051 -24.192957 -4.7974 2
5.1703548 -24.158689 -3.9069541 2
1.6569667 -7.7488513 -0.96825302 17
1.6523044 -7.7336488 -0.6885314 20
5.1751876 -24.243292 -1.2928302 2
5.1657519 -24.219793 -0.42728591 3
1.0629487 -4.987936 1.3553283 18
1.1098419 -5.2124476 1.2205608 14
1.1600211 -5.4527893 1.0751964 18
1.2123752 -5.7037754 0.91647702 17
1.2316988 -5.7996631 0.72329456 24
nan nan nan 0
5.154748 -24.313772 1.3005486 3
5.1391659 -24.261145 0.43220881 19
0.40358958 -1.9135143 -0.51375604 3
0.46799234 -2.2207823 -0.51513821 2
5.0945902 -24.196489 -4.7945404 2
5.0859938 -24.17659 -3.9069541 2
1.6278665 -7.744875 -0.96703434 17
1.6232516 -7.72962 -0.68765986 21
5.0741253 -24.18302 -1.2886573 2
5.0729713 -24.198532 -0.42659479 3
1.045531 -4.9916162 1.3553283 18
1.0906423 -5.2115211 1.2194368 15
1.1409802 -5.4568052 1.0751964 17
1.191448 -5.7031388 0.91569567 20
1.2104325 -5.7990689 0.72268516 24
nan nan nan 0
5.0586419 -24.277847 1.29767 2
5.0452771 -24.234886 0.43142346 20
0.39788789 -1.9196404 -0.51505011 3
0.46122539 -2.2271729 -0.51626295 2
5.0091028 -24.209318 -4.7935872 2
5.0005713 -24.18936 -3.9061718 2
1.5998181 -7.7456498 -0.966425 17
1.5952536 -7.730361 -0.68722409 19
4.9886713 -24.195692 -1.2883965 2
4.9834285 -24.191612 -0.42616284 3
1.0271269 -4.9905043 1.354035 17
1.0714629 -5.2105246 1.218313 14
1.1209377 -5.4559469 1.0742432 16
1.171533 -5.707263 0.91569567 14
1.1891856 -5.7983971 0.72207582 25
nan nan nan 0
4.9718628 -24.285574 1.2971467 3
nan nan nan 0
0.39118469 -1.9210175 -0.51505011 2
0.45247707 -2.2239954 -0.51513821 2
4.9138117 -24.173748 -4.7831025 2
4.9052925 -24.153431 -3.8975677 2
1.5707972 -7.7414594 -0.96520627 17
1.5662806 -7.726119 -0.68635255 21
4.900218 -24.193386 -1.2873533 2
4.8949876 -24.18926 -0.42581728 2
1.0087435 -4.9893255 1.3527418 18
1.0523034 -5.2094569 1.2171891 14
1.100915 -5.4550152 1.07329 17
1.1516038 -5.7113175 0.91569567 14
1.1679581 -5.7976484 0.72146648 24
nan nan nan 0
nan nan nan 0
nan nan nan 0
0.3854239 -1.9271073 -0.51634425 2
0.44605497 -2.2302606 -0.51626295 2
4.8316979 -24.180283 -4.7811961 2
4.8232355 -24.159878 -3.8960035 2
1.5441463 -7.7417593 -0.96459693 17
1.5396777 -7.7263851 -0.68591678 21
4.8150873 -24.185015 -1.2860491 2
4.8098693 -24.180841 -0.42538533 2
0.99125135 -4.987906 1.3514485 17
1.0340737 -5.2081394 1.2160652 14
1.0818645 -5.4538217 1.0723369 17
1.131698 -5.7102609 0.91491443 12
1.1477621 -5.7966208 0.72085714 27
nan nan nan 0
4.7986975 -24.279665 1.2950531 2
nan nan nan 0
0.37903124 -1.9283748 -0.51634425 2
0.43826717 -2.2318041 -0.51626295 2
4.7415938 -24.168104 -4.7754765 2
4.7341237 -24.152336 -3.8920927 2
1.5161594 -7.7422318 -0.96398759 17
1.5107855 -7.7219362 -0.68504518 19
4.7268057 -24.182076 -1.285006 2
4.721601 -24.17786 -0.4250398 2
0.97290939 -4.9865952 1.3501554 17
1.0149554 -5.2069349 1.2149411 13
1.0618823 -5.4527473 1.0713836 16
1.1117586 -5.7141767 0.91491443 12
1.1265743 -5.7957211 0.72024781 26
nan nan nan 0
nan nan nan 0
nan nan nan 0
0.37229764 -1.9296861 -0.51634425 2
0.4308638 -2.2332451 -0.51626295 2
4.6577077 -24.164413 -4.7716637 2
4.65027 -24.148504 -3.8889639 2
1.4895393 -7.7423439 -0.96337825 17
1.4842302 -7.7220125 -0.68460941 19
4.6418805 -24.173098 -1.2837019 2
4.6376309 -24.173746 -0.42469421 2
0.95545876 -4.9850507 1.3488621 17
0.99768299 -5.2102723 1.2149411 14
1.0437945 -5.4562387 1.0713836 16
1.0918765 -5.7129812 0.91413307 13
1.1064179 -5.7945499 0.71963841 27
nan nan nan 0
nan nan nan 0
nan nan nan 0
0.36589652 -1.9309101 -0.51634425 2
0.42306572 -2.2347357 -0.51626295 2
4.5696812 -24.161236 -4.7678514 2
4.5622802 -24.145182 -3.8858354 2
1.4606632 -7.7377424 -0.96215957 18
1.4554201 -7.7173567 -0.68373787 20
4.5537748 -24.169527 -1.2826587 2
4.5485964 -24.165224 -0.42426229 3
0.93805188 -4.9883552 1.3488621 17
0.97859019 -5.2089348 1.2138174 14
1.0238369 -5.4550242 1.0704304 16
1.0710177 -5.7119036 0.91335177 12
1.0852708 -5.7934995 0.71902913 26
nan nan nan 0
nan nan nan 0
4.5111656 -24.151819 0.42819476 19
0.35881695 -1.9322382 -0.51634425 2
0.41309485 -2.226691 -0.51401347 2
4.4766226 -24.15369 -4.7630849 2
4.4692569 -24.137459 -3.8819244 2
1.4313905 -7.7381649 -0.96155018 18
1.4262197 -7.717741 -0.68330204 20
4.4606256 -24.161503 -1.2813545 2
4.4563689 -24.162066 -0.4239167 2
0.9188872 -4.9870105 1.3475689 17
0.95860994 -5.207695 1.2126935 14
1.0029485 -5.4539132 1.0694772 16
1.0491829 -5.7109332 0.91257042 12
1.0631334 -5.7925568 0.71841973 24
nan nan nan 0
nan nan nan 0
4.4226146 -24.16819 0.42819476 22
0.35206997 -1.933479 -0.51634425 2
0.40444782 -2.2233264 -0.51288873 2
4.3878956 -24.145023 -4.7583194 2
4.3814459 -24.133478 -3.8787959 2
1.4034849 -7.7382307 -0.96094084 17
1.3974949 -7.7128706 -0.68243051 19
4.3727016 -24.157274 -1.2803115 2
4.3684421 -24.157797 -0.42357114 2
0.90061492 -4.9854341 1.3462756 17
0.94042587 -5.2110095 1.2126935 13
0.98303384 -5.4525504 1.0685241 16
1.0283663 -5.7097006 0.91178918 12
1.0420282 -5.791348 0.71781039 27
nan nan nan 0
4.3459878 -24.202452 1.2866794 2
4.3399901 -24.193323 0.42836931 21
0.34447011 -1.9299415 -0.51505011 2
0.39497411 -2.2151322 -0.51063919 2
4.3001437 -24.140863 -4.7545066 2
4.2928514 -24.124315 -3.8748846 2
1.3755963 -7.7381964 -0.9603315 17
1.3696926 -7.7127976 -0.68199474 20
4.2848616 -24.152723 -1.2792681 3
4.2805991 -24.153208 -0.42322558 3
0.88320702 -4.9885473 1.3462756 17
0.92138171 -5.2094626 1.2115695 13
0.96314096 -5.4511151 1.0675709 16
1.0075711 -5.7083921 0.91100788 12
1.0209445 -5.7900624 0.71720105 27
nan nan nan 0
4.2658057 -24.242062 1.2879878 2
nan nan nan 0
0.33773127 -1.9311322 -0.51505011 2
0.38472408 -2.2020998 -0.50726491 2
4.2116308 -24.131552 -4.7497406 2
4.2052236 -24.119694 -3.8717563 2
1.3468735 -7.7331729 -0.95911282 17
1.3419076 -7.7126241 -0.68155897 20
4.1962519 -24.142939 -1.2779641 3
4.192842 -24.148302 -0.42288002 2
0.864963 -4.9868412 1.3449823 17
0.90235996 -5.2078471 1.2104456 14
0.94326997 -5.4496074 1.0666177 16
0.98679745 -5.7070079 0.91022652 13
0.99988246 -5.7887011 0.71659166 26
nan nan nan 0
nan nan nan 0
nan nan nan 0
0.33098829 -1.9322994 -0.51505011 2
0.37950009 -2.2178357 -0.51063919 2
4.1240621 -24.126753 -4.7459278 2
4.1185107 -24.119621 -3.8694096 2
1.3190371 -7.732935 -0.95850343 17
1.3141408 -7.7123513 -0.6811232 19
4.1085997 -24.137747 -1.2769209 3
4.1051707 -24.143074 -0.42253447 3
0.84674156 -4.9850683 1.343689 17
0.88417566 -5.2109647 1.2104456 14
0.92342126 -5.4480276 1.0656645 17
0.96687031 -5.7104177 0.91022652 13
0.97884244 -5.7872629 0.71598238 27
nan nan nan 0
nan nan nan 0
nan nan nan 0
0.32504007 -1.9382061 -0.51634425 2
0.37336591 -2.2287567 -0.51288873 2
4.0365787 -24.121637 -4.742115 2
4.0318494 -24.119238 -3.867063 2
1.2912186 -7.7325969 -0.95789409 16
1.2863921 -7.7119784 -0.68068743 19
4.0210357 -24.132242 -1.2758776 3
4.0175877 -24.137533 -0.42218891 3
0.82854319 -4.9832296 1.3423959 17
0.8651824 -5.2092133 1.2093217 13
0.9043985 -5.4512177 1.0656645 16
0.94612384 -5.7088861 0.90944523 12
0.95782459 -5.785748 0.71537304 27
nan nan nan 0
3.9938109 -24.177025 1.2822309 2
nan nan nan 0
0.3182725 -1.9393289 -0.51634425 2
0.36794826 -2.2444692 -0.51626295 2
3.9499743 -24.12105 -4.7392554 2
3.9444444 -24.11367 -3.8639343 2
1.2626184 -7.727262 -0.95667541 17
1.2578597 -7.7065897 -0.67981583 20
3.9343634 -24.131346 -1.2750952 3
3.9300931 -24.131672 -0.42184332 3
0.8111434 -4.9860916 1.3423959 17
0.84699363 -5.2122021 1.2093217 14
0.88457835 -5.4494972 1.0647113 16
0.92540002 -5.7072792 0.90866393 13
0.93762273 -5.7890563 0.71537304 27
nan nan nan 0
3.8998337 -24.131666 1.2790906 2
nan nan nan 0
0.31226653 -1.9451966 -0.51763833 3
0.3616541 -2.2553608 -0.51851249 2
3.8626468 -24.115307 -4.7354431 2
3.8579071 -24.112661 -3.861588 2
1.2348543 -7.7267218 -0.95606607 17
1.2301658 -7.7060146 -0.67938006 20
3.8469605 -24.12521 -1.274052 3
3.8426883 -24.125494 -0.42149776 3
0.79297489 -4.9841228 1.3411026 17
0.82802969 -5.2103148 1.2081978 14
0.86478114 -5.4477038 1.0637581 17
0.90547228 -5.7104745 0.90866393 12
0.91663307 -5.7873926 0.71476364 27
nan nan nan 0
3.8280451 -24.224045 1.2832775 2
nan nan nan 0
0.30622348 -1.951046 -0.5189324 2
0.35604292 -2.2710488 -0.52188677 2
3.7761669 -24.114094 -4.732583 2
3.7706623 -24.106466 -3.8584592 2
1.2071095 -7.7260814 -0.95545667 18
1.2024913 -7.7053409 -0.67894429 20
3.7596478 -24.118755 -1.2730087 3
3.7561438 -24.123941 -0.4212386 3
0.77482998 -4.9820871 1.3398093 17
0.80908942 -5.2083592 1.2070739 14
0.84575981 -5.4506893 1.0637581 16
0.88477695 -5.7087202 0.90788263 12
0.89566648 -5.7856522 0.7141543 26
nan nan nan 0
3.7289827 -24.143501 1.2783056 2
nan nan nan 0
0.30014342 -1.956877 -0.52022654 3
0.34590003 -2.2578306 -0.51851249 2
3.6897428 -24.112572 -4.7297235 2
3.6835074 -24.099953 -3.8553305 2
1.1793841 -7.7253423 -0.9548474 17
1.1748365 -7.7045674 -0.67850852 20
3.6731796 -24.116924 -1.2722263 3
3.668905 -24.117138 -0.42089301 3
0.75743449 -4.9847617 1.3398093 17
0.79017287 -5.2063346 1.20595 14
0.82599252 -5.4487553 1.0628049 17
0.86410511 -5.7068906 0.90710127 13
0.87472326 -5.7838368 0.71354496 27
nan nan nan 0
nan nan nan 0
nan nan nan 0
0.29331082 -1.9579127 -0.52022654 3
0.3365747 -2.2493877 -0.51626295 2
3.6033757 -24.110744 -4.7268643 2
3.5964444 -24.093128 -3.8522019 2
1.1509469 -7.7195954 -0.95362866 17
1.1472017 -7.7036943 -0.67807269 20
3.5867696 -24.114782 -1.271444 3
3.5817599 -24.110016 -0.42054749 3
0.73932087 -4.9825974 1.338516 18
0.77199453 -5.2090611 1.20595 14
0.80624908 -5.4467502 1.0618517 16
0.84345675 -5.7049866 0.90631998 13
0.85380363 -5.7819457 0.71293563 25
nan nan nan 0
nan nan nan 0
nan nan nan 0
0.28507692 -1.9493669 -0.51763833 3
0.32660851 -2.2360871 -0.51288873 2
3.5163572 -24.103746 -4.7230515 2
3.5094733 -24.085987 -3.8490732 2
1.1232786 -7.7186546 -0.95301932 16
1.1203038 -7.7076521 -0.67807269 23
3.5004191 -24.112331 -1.2706615 3
3.494709 -24.102583 -0.42020193 3
0.72192383 -4.985148 1.338516 18
0.75310934 -5.2069016 1.204826 14
0.78652972 -5.4446735 1.0608987 16
0.82283235 -5.7030087 0.90553868 12
0.83290786 -5.7799788 0.71232629 28
nan nan nan 0
nan nan nan 0
nan nan nan 0
0.27758846 -1.9455689 -0.51634425 2
0.3153646 -2.2130978 -0.50726491 2
3.4294314 -24.096436 -4.7192383 2
3.4232914 -24.083424 -3.8467267 2
1.0956311 -7.7176156 -0.95240998 17
1.092693 -7.706584 -0.67763692 20
3.41413 -24.109571 -1.269879 2
3.4084539 -24.099785 -0.41994277 3
0.70384258 -4.9828558 1.3372228 17
0.73492932 -5.2094989 1.204826 14
0.76683468 -5.4425254 1.0599453 16
0.80292004 -5.7058458 0.90553868 13
0.81203616 -5.777936 0.71171689 27
nan nan nan 0
nan nan nan 0
3.3803356 -24.144054 0.42487881 23
0.27012998 -1.9417424 -0.51505011 3
0.31098983 -2.2383127 -0.51288873 2
3.3419251 -24.083952 -4.7144728 2
3.3364918 -24.075659 -3.8435979 2
1.0680046 -7.7164769 -0.95180064 17
1.0651033 -7.7054172 -0.67720115 21
3.3279026 -24.106503 -1.2690966 3
3.3195293 -24.076868 -0.41933799 3
0.68644488 -4.9852824 1.3372228 18
0.71607661 -5.2072067 1.2037022 14
0.747832 -5.445169 1.0599453 16
0.782327 -5.703721 0.90475738 12
0.79186243 -5.7807355 0.71171689 27
nan nan nan 0
3.3016458 -24.165327 1.2762123 3
3.2946851 -24.1458 0.42470428 24
0.2627016 -1.9378878 -0.51375604 3
0.30448195 -2.2490404 -0.51513821 2
3.2558634 -24.080879 -4.7116132 2
3.2497885 -24.067583 -3.8404691 2
1.0403993 -7.7152395 -0.95119131 17
1.0375351 -7.7041516 -0.67676538 20
3.2424037 -24.108076 -1.268575 3
3.2361307 -24.093264 -0.41942441 3
0.66839671 -4.982861 1.3359296 18
0.69724876 -5.2048454 1.2025783 14
0.72816944 -5.4428816 1.0589921 16
0.76241255 -5.7064176 0.90475738 13
0.77102274 -5.7785454 0.71110761 27
nan nan nan 0
3.2192485 -24.191553 1.2769973 2
3.2116976 -24.167067 0.42487881 19
0.25593555 -1.9387931 -0.51375604 3
0.29790297 -2.2597494 -0.51738775 2
3.1698635 -24.077497 -4.7087536 2
3.1644695 -24.068985 -3.8389049 2
1.0128157 -7.7139034 -0.95058191 18
1.0099887 -7.7027874 -0.67632961 21
3.1549895 -24.094492 -1.2672709 2
3.1500654 -24.089544 -0.41916525 3
0.65037382 -4.9803748 1.3346363 17
0.67907625 -5.2072477 1.2025783 14
0.70916581 -5.4453902 1.0589921 17
0.74185175 -5.7041459 0.90397602 12
0.75020796 -5.7762799 0.71049827 26
nan nan nan 0
3.1309361 -24.172928 1.2754272 2
3.1247542 -24.158297 0.42452976 21
0.24978167 -1.9444648 -0.51505011 3
0.29125291 -2.2704401 -0.51963723 2
3.086422 -24.093285 -4.7097068 2
3.0766742 -24.050497 -3.8342121 2
0.98525423 -7.7124691 -0.94997257 17
0.98246443 -7.7013249 -0.67589378 21
3.0677099 -24.080589 -1.2659669 3
3.0646961 -24.090473 -0.41899246 3
0.63298506 -4.9826145 1.3346363 17
0.66028219 -5.2047524 1.2014544 14
0.68953663 -5.4429626 1.0580389 16
0.72193605 -5.7067008 0.90397602 13
0.7294184 -5.7739401 0.70988888 27
nan nan nan 0
nan nan nan 0
3.0385349 -24.154177 0.42426798 21
0.24359131 -1.9501172 -0.51634425 3
0.28272283 -2.2666085 -0.51851249 2
nan nan nan 0
2.9927034 -24.06109 -3.8342121 2
0.95771497 -7.710937 -0.94936323 17
0.95496279 -7.6997652 -0.67545807 20
2.9830208 -24.086199 -1.2657061 2
1.0177249 -8.2293253 -0.14263022 2
0.61499673 -4.98 1.333343 17
0.64211023 -5.2070255 1.2014544 14
0.67053294 -5.4453363 1.0580389 17
0.70140886 -5.7042842 0.90319473 13
0.70925915 -5.7764506 0.70988888 26
nan nan nan 0
2.9627094 -24.199158 1.2756889 2
nan nan nan 0
0.23678264 -1.9509556 -0.51634425 3
0.27480918 -2.2675817 -0.51851249 2
2.9151967 -24.08988 -4.7049408 2
2.9086964 -24.07139 -3.8342121 2
0.93079293 -7.7142334 -0.94936323 17
0.92688811 -7.693161 -0.67458647 20
0.99042749 -8.2326355 -0.43111727 2
0.98720407 -8.2179365 -0.14237104 2
0.59760952 -4.9821167 1.333343 18
0.62335104 -5.2043982 1.2003304 14
0.65093821 -5.4427705 1.0570859 17
0.68149292 -5.7066979 0.90319473 13
0.68850362 -5.7739635 0.70927954 27
0.98092508 -8.238512 0.72252113 2
nan nan nan 0
nan nan nan 0
0.23053625 -1.9565667 -0.51763833 3
0.26575366 -2.2588499 -0.51626295 2
0.96652365 -8.2276211 -1.6013575 7
0.96580857 -8.2339363 -1.307011 6
0.90328228 -7.7125063 -0.94875389 18
0.89944983 -7.691402 -0.67415071 19
0.95936775 -8.2162046 -0.43007404 2
0.95735425 -8.211401 -0.14219826 3
0.57965654 -4.9793749 1.3320498 18
0.6051805 -5.206542 1.2003304 14
0.63193548 -5.4450097 1.0570859 17
0.66100019 -5.7041368 0.90241349 13
0.66777426 -5.7714024 0.7086702 27
0.95044643 -8.2270422 0.72121376 2
nan nan nan 0
0.93959337 -8.1580763 0.14267342 46
0.22404678 -1.9573205 -0.51763833 3
0.25660199 -2.245198 -0.51288873 2
0.93589562 -8.2015219 -1.5956384 11
0.93402606 -8.1978397 -1.3007536 13
0.8771407 -7.7105279 -0.94814456 17
0.8733772 -7.689394 -0.67371494 22
0.92874074 -8.1895723 -0.42850921 9
nan nan nan 0
0.56314117 -4.9812698 1.3320498 17
0.58736521 -5.2036796 1.1992066 14
0.61332595 -5.4421973 1.0561327 16
0.64208102 -5.7062974 0.90241349 13
0.64807779 -5.7686529 0.70806086 27
0.92093849 -8.2103491 0.71947068 12
nan nan nan 0
0.91086835 -8.1462412 0.14241163 73
0.21721309 -1.9580905 -0.51763833 3
0.2482269 -2.2412376 -0.51176393 2
nan nan nan 0
nan nan nan 0
0.84967691 -7.7086096 -0.94753516 18
0.84598595 -7.6874442 -0.67327917 19
0.89578551 -8.1530581 -0.42642274 23
0.854559 -7.7903557 -0.13476871 97
0.54522407 -4.9784036 1.3307565 18
0.56919742 -5.205698 1.1992066 14
0.59432542 -5.4443049 1.0561327 16
0.62162328 -5.7035942 0.90163213 13
0.6274007 -5.7659464 0.70745152 27
nan nan nan 0
nan nan nan 0
0.83345276 -7.697084 0.13447079 86
0.21037675 -1.9588369 -0.51763833 3
0.23728564 -2.2130258 -0.50501537 2
0.82480586 -7.7051725 -1.4974599 32
0.82219511 -7.693471 -1.2194076 26
0.82171071 -7.7016592 -0.94631654 18
0.81861907 -7.6853976 -0.67284334 21
0.81874478 -7.699337 -0.40242827 37
0.81891602 -7.7137504 -0.13338646 34
0.52784282 -4.9802766 1.3307565 18
0.55102265 -5.207653 1.1992066 14
0.5748021 -5.4414659 1.0551795 16
0.60171032 -5.7057295 0.90163213 13
0.60675031 -5.7631655 0.70684212 27
0.81153202 -7.721209 0.67589277 36
0.80902851 -7.7103338 0.40429524 32
0.80710071 -7.7049189 0.13455805 31
0.20353785 -1.9595593 -0.51763833 3
0.23257419 -2.2429159 -0.51176393 2
0.79638851 -7.6933579 -1.4946003 27
0.79381198 -7.6815572 -1.2170612 17
0.79431266 -7.6995444 -0.94570714 18
0.79127675 -7.6832533 -0.67240757 20
0.79084277 -7.692214 -0.40190667 33
0.79096419 -7.7066159 -0.13321368 28
0.51045519 -4.982089 1.3307565 18
0.53234541 -5.2046981 1.1980827 14
0.55580431 -5.443439 1.0551795 16
0.58128911 -5.7028818 0.90085083 13
0.58662939 -5.7652483 0.70684212 27
0.78356832 -7.7140841 0.67502123 30
0.78059828 -7.6982083 0.40351021 27
0.77869016 -7.6927671 0.13429625 31
0.19669648 -1.9602578 -0.51763833 3
0.22571467 -2.2534091 -0.51401347 2
0.76806384 -7.6814389 -1.4917407 16
0.76699352 -7.6842813 -1.2170612 18
0.76693928 -7.6973319 -0.9450978 18
0.76445234 -7.6859684 -0.67240757 20
0.76349384 -7.6899586 -0.40164587 23
0.76356518 -7.7043543 -0.1331273 28
0.4925859 -4.9790339 1.3294632 19
0.5141744 -5.2065244 1.1980827 14
0.53631824 -5.4404612 1.0542263 16
0.56137878 -5.7048764 0.90085083 13
0.56601626 -5.7623224 0.70623285 28
0.75517821 -7.701901 0.67371392 21
0.75323546 -7.6959167 0.40324852 18
0.7518326 -7.6954384 0.13429625 34
0.1898527 -1.9609326 -0.51763833 3
0.21925336 -2.2687314 -0.51738775 2
0.74124593 -7.6840734 -1.4917407 17
0.73969239 -7.6819959 -1.2162789 18
0.74006593 -7.6999617 -0.9450978 19
0.73714304 -7.6836319 -0.6719718 22
0.73617023 -7.6876068 -0.40138504 23
0.73619163 -7.7019968 -0.1330409 27
0.4752028 -4.9807229 1.3294632 18
0.4959971 -5.2082877 1.1980827 13
0.51732421 -5.4422998 1.0542263 16
0.54146165 -5.7068009 0.90085083 12
0.54589856 -5.7642632 0.70623285 28
0.72828895 -7.7044902 0.67371392 23
0.72636706 -7.6984992 0.40324852 18
0.72449732 -7.6930389 0.13420901 33
0.18300661 -1.9615834 -0.51763833 3
0.21178439 -2.2743337 -0.51851249 2
0.71396476 -7.6817265 -1.4907875 16
0.71241653 -7.6796141 -1.2154968 19
0.712726 -7.697557 -0.94448847 18
0.70985931 -7.6811986 -0.67153603 21
0.70887238 -7.6851573 -0.40112427 24
0.70884389 -7.6995406 -0.13295451 28
0.45737201 -4.9775414 1.3281701 17
0.4773688 -5.2051358 1.1969588 14
0.4978765 -5.4391851 1.0532731 16
0.52108854 -5.7037377 0.90006948 12
0.52532351 -5.7611914 0.70562345 28
0.70093942 -7.7020249 0.67327809 22
0.69903815 -7.6960149 0.40298685 18
0.69718784 -7.6905422 0.13412173 33
0.17659013 -1.9670204 -0.5189324 3
0.20384419 -2.275059 -0.51851249 2
0.68670899 -7.6792831 -1.4898344 16
0.68516636 -7.6771355 -1.2147146 20
0.68541187 -7.6950545 -0.94387913 18
0.68260151 -7.6786685 -0.67110026 22
0.68160057 -7.6826115 -0.40086344 25
0.68196309 -7.7019682 -0.13295451 28
0.43999434 -4.9791079 1.3281701 17
0.45919657 -5.2067704 1.1969588 14
0.47888711 -5.4408898 1.0532731 16
0.50117558 -5.7055221 0.90006948 13
0.50520998 -5.7629895 0.70562345 28
0.67405003 -7.7044249 0.67327809 22
0.6721698 -7.6984081 0.40298685 18
0.66990453 -7.6879487 0.13403447 33
0.16972288 -1.9676248 -0.5189324 3
0.19590151 -2.2757568 -0.51851249 2
0.65947902 -7.6767435 -1.4888812 16
0.65794218 -7.6745601 -1.2139324 19
0.65854692 -7.6974001 -0.94387913 18
0.65579379 -7.681004 -0.67110026 22
0.65477914 -7.6849437 -0.40086344 24
0.65465057 -7.6993213 -0.13286813 29
0.422203 -4.9758015 1.3268769 18
0.4406077 -5.2034864 1.1958348 14
0.45947874 -5.4376378 1.0523199 16
0.48125654 -5.7072368 0.90006948 12
0.48467425 -5.7597733 0.70501411 28
0.64673561 -7.7017665 0.67284232 22
0.6448763 -7.6957321 0.40272516 17
0.64264792 -7.6852584 0.13394721 34
0.16285354 -1.9682052 -0.5189324 3
0.18755557 -2.2715714 -0.51738775 2
0.63267815 -7.6789985 -1.4888812 17
0.63074428 -7.6718879 -1.2131503 18
0.6312682 -7.6947055 -0.94326979 19
0.62857169 -7.6782823 -0.67066443 22
0.62754315 -7.6822057 -0.40060264 24
0.62736481 -7.6965766 -0.13278173 28
0.40483168 -4.9772449 1.3268769 18
0.42244145 -5.2049928 1.1958348 14
0.44049501 -5.4392085 1.0523199 16
0.46093386 -5.7039595 0.89928818 12
0.46456593 -5.7614298 0.70501411 28
0.61944807 -7.6990123 0.67240655 23
0.61760974 -7.6929593 0.4024635 18
0.61581743 -7.6874547 0.13394721 32
0.15632585 -1.9687344 -0.5189324 3
0.18041828 -2.2721493 -0.51738775 2
0.60816312 -7.6760554 -1.487928 15
0.60625011 -7.6689091 -1.2123681 18
0.60709149 -7.696651 -0.94326979 18
0.60405582 -7.6752534 -0.67022872 22
0.60301483 -7.6791615 -0.40034181 24
0.60318226 -7.6985097 -0.13278173 28
0.3888168 -4.9736767 1.3255836 18
0.40608743 -5.2062941 1.1958348 14
0.42302424 -5.4356718 1.0513667 17
0.44301209 -5.705379 0.89928818 13
0.44608027 -5.7579126 0.70440477 27
0.59525788 -7.7009201 0.67240655 22
0.59305459 -7.6898828 0.4022018 17
0.59128004 -7.6843667 0.13385995 32
0.14943011 -1.9644264 -0.51763833 3
0.1724859 -2.2727654 -0.51738775 2
0.58099443 -7.6732368 -1.4869747 16
0.57947689 -7.6709781 -1.2123681 17
0.57984847 -7.6937747 -0.94266039 18
0.57688701 -7.672348 -0.66979295 22
0.57583231 -7.6762404 -0.40008101 25
0.57593262 -7.6955824 -0.13269535 29
0.37145305 -4.9750037 1.3255836 18
0.38791162 -5.2076797 1.1958348 14
0.40404764 -5.4371152 1.0513667 17
0.42272884 -5.7019658 0.89850688 12
0.42597866 -5.7594352 0.70440477 28
0.56800652 -7.6979837 0.67197078 21
0.56584173 -7.6869268 0.40194014 17
0.56408691 -7.6813984 0.13377269 32
0.14222914 -1.9649609 -0.51763833 2
0.16450551 -2.2782414 -0.51851249 2
0.55286664 -7.6753149 -1.4869747 16
0.55100352 -7.6681247 -1.2115859 18
0.55129075 -7.6908984 -0.94205111 18
0.54840732 -7.6694431 -0.66935712 22
0.54769367 -7.678299 -0.40008101 24
0.54736823 -7.6926551 -0.13260895 28
0.35321626 -4.9763317 1.3255836 18
0.36847779 -5.2042069 1.194711 14
0.38411689 -5.4385595 1.0513667 16
0.40182725 -5.7034769 0.89850688 13
0.40451854 -5.7560072 0.70379543 28
0.53943986 -7.6950455 0.67153502 20
0.53731561 -7.6839681 0.40167844 17
0.53592938 -7.6834145 0.13377269 34
0.13536927 -1.9654454 -0.51763833 2
0.15655197 -2.2788019 -0.51851249 2
0.52573591 -7.6723008 -1.4860215 17
0.52389663 -7.6650743 -1.2108037 19
0.52444112 -7.6927762 -0.94205111 18
0.52163261 -7.6713109 -0.66935712 22
0.52055013 -7.6751828 -0.39982021 24
0.5201751 -7.6895308 -0.13252255 28
0.33551827 -4.9727149 1.3242903 18
0.35030949 -5.2054615 1.194711 15
0.3648017 -5.4349694 1.0504135 17
0.38158602 -5.6999173 0.89772558 13
0.38442385 -5.7573843 0.70379543 28
0.51224488 -7.6919112 0.67109919 21
0.5104903 -7.6857967 0.40167844 17
0.50877559 -7.6802502 0.13368542 34
0.1288228 -1.9707252 -0.5189324 3
