# .PCD v0.7 - Point Cloud Data file format
VERSION 0.7
FIELDS x y z intensity
SIZE 4 4 4 4
TYPE F F F F
COUNT 1 1 1 1
WIDTH 1446
HEIGHT 1
VIEWPOINT 0 0 0 1 0 0 0
POINTS 1446
DATA ascii
2.2947445 2.0195336 0.58621085 10
2.3239083 2.0444801 0.4836311 10
2.3019521 2.0244515 0.37170148 11
2.306922 2.0281081 0.26538923 8
2.2940919 2.0161192 0.15805459 8
2.3197422 2.0379438 0.053229839 9
1.4049474 1.2321062 -0.4904623 3
1.5930388 1.3965662 -0.4802708 3
1.8744597 1.6427003 -0.47659451 3
2.253829 1.9744687 -0.4685216 5
2.3435216 2.0523212 -0.37779537 10
2.3561378 2.0626433 -0.270619 15
2.3283904 2.0376346 -0.15961511 11
2.3353002 2.0429618 -0.052957188 10
2.3156607 2.0250676 0.81345564 9
2.3176541 2.0260971 0.70131665 9
2.3239555 2.0308902 0.59192997 11
2.3496268 2.0526011 0.48753765 16
2.3276949 2.0327253 0.37474823 10
2.3402538 2.042973 0.26843968 10
2.32745 2.03108 0.15988633 9
2.3456781 2.0462661 0.053666148 19
1.4092396 1.2271944 -0.4904623 3
1.5979041 1.3909969 -0.4802708 3
1.8801824 1.6361473 -0.47659451 3
2.2644334 1.9698306 -0.46930379 5
2.3843751 2.0734367 -0.38327953 13
2.3858783 2.074013 -0.27323368 22
2.3543339 2.0458705 -0.16091916 18
2.3575141 2.0479119 -0.053302754 26
2.3445964 2.0359726 0.82121515 13
2.3467877 2.0371573 0.70806009 15
2.3532734 2.0420671 0.5976491 22
2.3716998 2.0573311 0.49066287 17
2.353523 2.040844 0.37779495 23
2.3661897 2.0511045 0.27061859 21
2.357167 2.042563 0.16145642 19
2.375479 2.0577049 0.054189719 62
1.4135149 1.2222677 -0.4904623 3
1.6027498 1.3854107 -0.4802708 3
1.8858821 1.6295743 -0.47659451 3
2.2750328 1.9651424 -0.47008595 5
2.4178913 2.0878048 -0.38754493 14
2.4119563 2.0819454 -0.27541256 16
2.3803627 2.0539496 -0.1622232 16
2.3911469 2.0625269 -0.053907484 15
2.3736358 2.0467002 0.82897466 26
2.3760264 2.0480385 0.71480352 24
2.3789787 2.0498598 0.60241497 14
2.3975759 2.065155 0.49456945 17
2.3794363 2.0488074 0.3808417 16
2.3959856 2.0623288 0.27323326 16
2.3869917 2.0538623 0.1630265 15
2.3978074 2.0624402 0.054538768 62
1.4177728 1.2173263 -0.4904623 3
1.607576 1.3798076 -0.4802708 3
1.891559 1.6229813 -0.47659451 3
2.2856271 1.9604043 -0.47086814 5
2.4477696 2.0987339 -0.39120105 16
2.4343364 2.0864792 -0.27715567 14
2.4102685 2.0651209 -0.16378805 17
2.4097228 2.0639241 -0.054166656 12
2.3991098 2.0541084 0.83544099 15
2.4016681 2.0555723 0.72042304 14
2.4010377 2.054307 0.60622776 13
2.4160292 2.0664034 0.49691334 16
2.4016616 2.0533891 0.38327909 15
2.422102 2.0701337 0.27541214 14
2.4131277 2.0617347 0.16433489 14
2.4163964 2.063798 0.054800551 59
1.4220133 1.2123699 -0.4904623 3
1.6160905 1.3773478 -0.48139551 3
1.8972126 1.6163685 -0.47659451 3
2.2999756 1.9588178 -0.47243246 4
2.4664166 2.099828 -0.39302906 15
2.4491911 2.0844257 -0.27802724 13
2.4326746 2.0696368 -0.16483128 16
2.4283371 2.0652163 -0.054425824 12
2.4136248 2.0519781 0.83802748 12
2.419966 2.0566416 0.72379482 12
2.4231565 2.0586247 0.61004049 13
2.4345205 2.0675478 0.4992573 15
2.4201641 2.0546286 0.3851071 13
2.4407063 2.0713351 0.27671948 13
2.4317327 2.0629895 0.16511993 13
2.435024 2.0650508 0.055062339 57
1.4225506 1.2042782 -0.48916823 3
1.6208885 1.3716983 -0.48139551 3
1.8990959 1.6065661 -0.47564128 3
2.3143408 1.9571553 -0.47399682 4
2.4813113 2.0976136 -0.39424777 18
2.4678659 2.0855088 -0.27933457 13
2.4551415 2.0740216 -0.16587453 15
2.44699 2.0664036 -0.054684997 12
2.4318447 2.052887 0.8419072 11
2.4383006 2.0576081 0.72716647 11
2.4378312 2.0564837 0.61194688 13
2.4530492 2.0685883 0.50160128 15
2.4424989 2.0589623 0.38754448 13
2.4593484 2.072432 0.27802682 13
2.4503753 2.0641394 0.16590497 13
2.4536893 2.0661988 0.055324122 56
1.4267455 1.1993053 -0.48916823 3
1.6256669 1.3660319 -0.48139551 3
1.9046922 1.5999272 -0.47564128 3
2.3249404 1.9522406 -0.47477898 4
2.4962204 2.0953207 -0.39546645 13
2.4827619 2.0832851 -0.28020614 14
2.4738433 2.0750659 -0.16665696 15
2.4656804 2.0674856 -0.054944165 12
2.4501004 2.0536935 0.84578699 13
2.4566712 2.0584717 0.73053825 12
2.4562829 2.0574167 0.61480647 13
2.4716141 2.0695243 0.50394517 15
2.4610882 2.0599799 0.38937253 13
2.4780283 2.0734239 0.27933416 13
2.4690559 2.0651839 0.16669002 12
2.4723928 2.0672419 0.05558591 57
1.4309233 1.1943177 -0.48916823 3
1.6304252 1.3603489 -0.48139551 3
1.9064962 1.5901251 -0.47468811 3
2.3393269 1.9504379 -0.4763433 4
2.5111437 2.0929492 -0.39668515 13
2.5014992 2.0841711 -0.28151348 14
2.4925816 2.0760043 -0.16743939 15
2.4844081 2.0684626 -0.055203337 11
2.464679 2.0513082 0.84837347 12
2.4750776 2.0592318 0.7339099 13
2.4785445 2.0613842 0.6186192 15
2.4902158 2.0703561 0.50628912 15
2.4720802 2.0545487 0.38998187 15
2.4967446 2.0743103 0.2806415 12
2.4877729 2.066123 0.16747504 13
2.4911327 2.0681787 0.055847697 56
1.438802 1.1923972 -0.4904623 3
1.6389155 1.3577574 -0.48252031 3
1.9120352 1.5834606 -0.47468811 3
2.353729 1.9485587 -0.47790766 4
2.5299044 2.0936632 -0.3985132 13
2.5202727 2.0849514 -0.28282082 14
2.507509 2.0736551 -0.167961 16
2.5031729 2.069334 -0.055462509 12
2.4829931 2.0519223 0.8522532 12
2.4935191 2.0598884 0.73728162 12
2.4932942 2.0589709 0.6205256 8
2.5050447 2.067939 0.50785172 16
2.4830649 2.0490656 0.39059123 15
2.5116546 2.0719218 0.28151307 12
2.5065267 2.0669565 0.1682601 12
2.5060523 2.0658305 0.056022223 59
1.4429556 1.1873677 -0.4904623 3
1.6436449 1.3520284 -0.48252031 3
1.9175508 1.5767766 -0.47468811 4
2.3681464 1.9466025 -0.47947201 4
2.5448656 2.0911207 -0.3997319 13
2.5390823 2.0856261 -0.28412816 14
2.5263088 2.0743957 -0.16874342 16
2.5219734 2.0700989 -0.055721678 12
2.4976084 2.0493701 0.85483968 12
2.5082283 2.0573516 0.73952943 12
2.5194438 2.0658157 0.62529153 3
2.5237062 2.0685742 0.51019561 14
2.4978795 2.0466764 0.39180991 8
2.5304317 2.0726104 0.28282037 12
2.5253165 2.0676844 0.16904514 12
2.5248537 2.0665693 0.056284007 56
1.4470915 1.1823237 -0.4904623 3
1.6483544 1.3462827 -0.48252031 3
1.9230431 1.5700735 -0.47468811 3
2.3825788 1.9445696 -0.48103639 4
2.5636854 2.0916364 -0.40155992 13
2.5540669 2.0830467 -0.28499973 14
2.5412743 2.0718749 -0.16926505 16
2.5369344 2.0675995 -0.055894457 12
2.5159802 2.0497913 0.85871947 12
2.5267274 2.0578134 0.74290115 12
2.5456712 2.0725029 0.63005745 4
2.5424027 2.0691042 0.51253957 11
2.4973094 2.0316811 0.39059123 2
2.5453799 2.0700505 0.28369194 12
2.5441418 2.068306 0.16983017 12
2.5398114 2.0640492 0.056458529 58
1.4512098 1.1772652 -0.4904623 3
1.6530437 1.3405207 -0.48252031 3
1.928512 1.5633513 -0.47468811 3
2.393189 1.9393501 -0.48181856 4
2.5825396 2.0920463 -0.40338799 13
2.5729351 2.0835223 -0.28630704 14
2.5601342 2.0724165 -0.17004748 16
2.5557952 2.068166 -0.056153629 12
2.5343854 2.0501089 0.86259925 11
2.5452604 2.0581715 0.74627286 12
2.5719759 2.0790319 0.63482338 3
2.5688159 2.0757363 0.51644611 4
2.5429916 2.0541356 0.39668468 4
2.5642161 2.0705404 0.28499928 12
2.5630021 2.0688212 0.17061521 12
2.5586727 2.064589 0.05672032 58
1.4553103 1.1721922 -0.4904623 3
1.6577129 1.3347423 -0.48252031 3
1.9339575 1.55661 -0.47468811 3
2.4037917 1.9340806 -0.48260072 4
2.6014276 2.0923498 -0.40521601 13
2.587956 2.0807705 -0.28717861 13
2.5790284 2.0728517 -0.17082989 15
2.5746903 2.0686252 -0.056412797 12
2.5528231 2.0503232 0.86647898 11
2.5638268 2.0584247 0.74964464 11
2.6060131 2.091547 0.64149576 18
2.5876024 2.0760283 0.51879007 7
2.5656321 2.0576661 0.39912206 3
2.5830867 2.070924 0.28630662 12
2.5780005 2.0661073 0.17113857 12
2.5775683 2.0650222 0.056982104 58
1.4593931 1.1671052 -0.4904623 3
1.662362 1.3289477 -0.48252031 3
1.9393792 1.5498497 -0.47468811 3
2.4066696 1.9225956 -0.48181856 4
2.6203492 2.0925469 -0.40704405 13
2.6068819 2.0810468 -0.28848594 14
2.5979567 2.07318 -0.17161232 16
2.5936198 2.0689783 -0.05667197 10
2.5712931 2.0504336 0.87035877 12
2.5824256 2.0585735 0.75301629 12
2.6094594 2.0793788 0.64054251 21
2.6257358 2.0915997 0.52504057 18
2.6038573 2.0734291 0.40399686 28
2.5980937 2.0680988 0.28717816 12
2.5969183 2.0664227 0.17192361 11
2.5964985 2.0653486 0.057243891 56
1.4634582 1.1620038 -0.4904623 3
1.6669908 1.3231368 -0.48252031 3
1.9447774 1.5430706 -0.47468811 3
2.409497 1.9111141 -0.48103639 4
2.6354151 2.0895538 -0.40826276 12
2.6219373 2.0781224 -0.28935751 14
2.6130052 2.0703003 -0.17213394 14
2.6125829 2.0692236 -0.056931138 14
2.5935817 2.0534379 0.87553179 10
2.6010566 2.0586174 0.75638807 9
2.6167018 2.0702574 0.64054251 15
2.6330209 2.0824215 0.52504057 26
2.6149721 2.0674052 0.40460619 27
2.6170208 2.0682828 0.2884855 12
2.6158695 2.0666313 0.17270865 15
2.6154616 2.0655675 0.057505675 64
1.4712982 1.1598784 -0.49175641 3
1.6677727 1.3142945 -0.48139551 3
1.9501518 1.5362726 -0.47468811 3
2.4122734 1.8996364 -0.4802542 4
2.6543915 2.089551 -0.4100908 13
2.6409185 2.0781984 -0.29066485 14
2.631989 2.0704281 -0.17291637 18
2.6276493 2.066272 -0.057103917 13
2.6121249 2.0533266 0.87941152 14
2.619719 2.0585563 0.75975972 13
2.6277723 2.0641427 0.64149576 22
2.6441579 2.0762677 0.52582186 17
2.6299803 2.064393 0.4058249 19
2.6320617 2.0652845 0.28935707 12
2.6348538 2.0667324 0.17349368 14
2.6344583 2.0656798 0.057767462 64
1.475338 1.1547354 -0.49175641 3
1.6723503 1.3084648 -0.48139551 2
1.9555025 1.529456 -0.47468811 3
2.414999 1.8881624 -0.47947201 4
2.6694894 2.0863848 -0.41130951 12
2.6599314 2.0781667 -0.29197219 13
2.651006 2.0704484 -0.1736988 18
2.6466677 2.0663168 -0.057363093 14
2.6306994 2.0531106 0.8832913 13
2.6345713 2.0553927 0.76200753 13
2.6388319 2.057976 0.6424489 13
2.6552842 2.0700614 0.52660316 17
2.6410847 2.0582507 0.40643427 14
2.6510432 2.0652678 0.2906644 12
2.6499307 2.0636582 0.17401704 15
2.653487 2.0656838 0.058029246 60
1.4831733 1.1525419 -0.49305049 3
1.6769075 1.3026192 -0.48139551 3
1.9608294 1.5226207 -0.47468811 4
2.4176745 1.876693 -0.47868985 4
2.6885183 2.0861807 -0.41313753 12
2.6789768 2.078028 -0.29327953 13
2.6661091 2.0673015 -0.17422041 16
2.661767 2.0631909 -0.057535872 12
2.6493034 2.0527899 0.88717103 14
2.6532853 2.0551343 0.76537925 13
2.6537611 2.0547621 0.6443553 12
2.6703045 2.0668259 0.52816576 16
2.6561034 2.0550931 0.40765294 14
2.6700559 2.0651433 0.29197174 13
2.6689687 2.0635583 0.17480208 14
2.6685927 2.0625234 0.058203775 58
1.4833636 1.1444076 -0.49175641 3
1.6814443 1.2967578 -0.48139551 3
1.9661325 1.5157667 -0.47468811 3
2.4242105 1.8682424 -0.47868985 4
2.7036469 2.0828409 -0.41435623 12
2.6980534 2.0777814 -0.29458687 13
2.6851788 2.0671201 -0.17500284 16
2.6808386 2.0630336 -0.057795044 12
2.6641092 2.0494196 0.88975751 12
2.6681671 2.0518 0.76762706 12
2.6687005 2.0514688 0.64626163 11
2.6853349 2.0635104 0.52972841 15
2.6750677 2.0548782 0.40948096 14
2.6851494 2.0618777 0.29284328 12
2.6880381 2.0633502 0.17558713 13
2.6837082 2.0592823 0.058378298 57
1.4873493 1.1392227 -0.49175641 3
1.6820923 1.2879189 -0.4802708 3
1.9675136 1.5059111 -0.47373492 3
2.4307172 1.859769 -0.47868985 3
2.7227268 2.0824354 -0.41618428 12
2.7132034 2.0744011 -0.29545841 13
2.7042794 2.0668304 -0.17578526 15
2.6959686 2.0597334 -0.057967823 12
2.6827621 2.0489023 0.8936373 11
2.6869304 2.0513432 0.77099878 12
2.6875508 2.0510745 0.64912122 11
2.7043006 2.0631108 0.53207237 15
2.6901164 2.0515468 0.41069967 13
2.7042139 2.0615518 0.29415065 12
2.7031667 2.0600076 0.17611049 12
2.7028103 2.0589902 0.058640081 57
1.4874724 1.1311007 -0.4904623 3
1.6865778 1.2820394 -0.4802708 3
1.9727582 1.499034 -0.47373492 3
2.4371943 1.8512729 -0.47868985 3
2.7418365 2.0819221 -0.41801229 12
2.7323306 2.0739524 -0.29676577 13
2.7234108 2.066433 -0.1765677 16
2.715091 2.0593734 -0.058226991 12
2.6975949 2.0453613 0.89622378 11
2.7057228 2.0507805 0.77437049 12
2.7025182 2.0476089 0.65102762 11
2.7232962 2.0626037 0.53441626 16
2.7091312 2.051131 0.41252771 14
2.7193372 2.0581117 0.29502219 12
2.7222869 2.059597 0.17689553 13
2.7219431 2.0585899 0.058901869 57
1.4837024 1.1200817 -0.48787412 3
1.6910427 1.2761443 -0.4802708 3
1.9779788 1.4921387 -0.47373492 3
2.4475842 1.8457274 -0.47947201 3
2.7609758 2.0813007 -0.41984037 12
2.751487 2.0733948 -0.29807308 13
2.7425721 2.0659266 -0.17735012 15
2.7342441 2.0589054 -0.058486164 12
2.716295 2.0446465 0.90010357 12
2.7245443 2.0501113 0.77774227 12
2.7214167 2.0470142 0.65388715 12
2.7423213 2.0619891 0.53676021 16
2.7281756 2.0506072 0.41435575 14
2.738451 2.0575829 0.29632953 13
2.7414372 2.059078 0.17768057 12
2.7411058 2.0580812 0.059163652 57
1.4876033 1.1148958 -0.48787412 3
1.6954869 1.2702336 -0.4802708 3
1.9831753 1.4852252 -0.47373492 3
2.4540122 1.8371725 -0.47947201 3
2.780144 2.0805709 -0.42166841 11
2.7706733 2.0727291 -0.29938045 13
2.7617631 2.0653117 -0.17813255 15
2.7534266 2.0583282 -0.058745332 12
2.7311532 2.0409348 0.90269005 12
2.7433934 2.0493355 0.78111392 12
2.7442768 2.0492494 0.65769988 11
2.761375 2.0612662 0.5391041 16
2.7472491 2.0499756 0.4161838 13
2.7575946 2.056946 0.29763687 13
2.7606163 2.05845 0.1784656 12
2.760298 2.0574632 0.05942544 54
1.4837363 1.1039304 -0.48528594 3
1.6999105 1.2643076 -0.4802708 3
1.9883476 1.4782935 -0.47373492 3
2.4683375 1.834487 -0.48103639 3
2.7993405 2.0797324 -0.42349643 10
2.7898879 2.071954 -0.30068776 13
2.780983 2.0645878 -0.17891496 15
2.7766528 2.0606215 -0.059090894 9
2.753777 2.0428994 0.90786308 11
2.7661839 2.0513554 0.78560954 12
2.7632425 2.0484264 0.66055948 11
2.780457 2.060436 0.54144806 13
2.7663515 2.0492353 0.41801181 13
2.7767665 2.0562 0.29894418 12
2.7798245 2.0577135 0.17925064 10
2.7795188 2.0567362 0.059687223 55
1.4914656 1.1016138 -0.48658001 3
1.7043135 1.2583661 -0.4802708 3
1.997445 1.4742589 -0.47468811 4
2.4787002 1.8287916 -0.48181856 3
2.8185651 2.0787854 -0.4253245 8
2.8091309 2.0710707 -0.3019951 13
2.7962117 2.0607927 -0.17943659 14
2.7959037 2.0598123 -0.059350066 13
2.7764473 2.0447309 0.91303611 9
2.7850981 2.0503523 0.78898126 10
2.7822356 2.0474961 0.66341907 10
2.7995665 2.0594974 0.54379201 18
2.7854819 2.0483868 0.41983986 14
2.7999802 2.0582957 0.30068731 12
2.7990611 2.0568676 0.18003568 13
2.7987685 2.0559006 0.059949014 65
1.4991966 1.0992566 -0.48787412 3
1.7086955 1.2524093 -0.4802708 2
2.002579 1.4672775 -0.47468811 3
2.497021 1.8288825 -0.48416507 3
2.837817 2.077729 -0.42715251 7
2.8284016 2.0700777 -0.30330247 13
2.8154776 2.0598643 -0.18021902 21
2.8151822 2.0588937 -0.059609234 15
2.7952647 2.0435781 0.91691583 12
2.8040388 2.049242 0.79235297 15
2.7972925 2.0435629 0.66532546 15
2.8147149 2.0555377 0.5453546 13
2.8046403 2.0474298 0.42166793 14
2.8192186 2.057318 0.30199465 12
2.8183258 2.0559125 0.18082072 15
2.8180459 2.0549548 0.060210798 61
1.5069294 1.0968591 -0.48916823 3
1.7130569 1.2464372 -0.4802708 3
2.0116577 1.4631652 -0.47564128 4
2.5073841 1.8230591 -0.48494723 3
2.8570955 2.0765641 -0.42898059 8
2.8476994 2.0689752 -0.30460978 13
2.8307312 2.0558925 -0.18074064 13
2.8344886 2.0578656 -0.059868407 13
2.8180168 2.045156 0.9220888 15
2.8230057 2.0480247 0.79572469 15
2.8163288 2.0424304 0.668185 13
2.8338685 2.0543959 0.54769856 11
2.8238254 2.0463634 0.42349595 14
2.838484 2.0562308 0.30330199 12
2.8376176 2.054848 0.18160577 12
2.8373506 2.0538998 0.060472585 58
1.510749 1.0915922 -0.48916823 3
1.7173973 1.2404499 -0.4802708 3
2.016753 1.4561342 -0.47564128 4
2.4816973 1.7911742 -0.47868985 3
2.8723757 2.0723855 -0.43019927 9
2.8670239 2.0677633 -0.30591714 13
2.8459909 2.0518389 -0.18126225 11
2.8497663 2.0538049 -0.060041185 12
2.8329759 2.0409532 0.92467535 13
2.8419979 2.0466995 0.79909641 13
2.8353915 2.0411904 0.67104459 12
2.8490391 2.0502605 0.54926115 11
2.8430374 2.0451884 0.42532399 13
2.8577762 2.0550342 0.30460933 12
2.856936 2.0536733 0.18239079 13
2.8566823 2.0527351 0.060734373 57
1.5145501 1.0863121 -0.48916823 3
1.7217169 1.2344476 -0.4802708 3
2.0218234 1.4490857 -0.47564128 4
2.4598334 1.7623672 -0.47321463 3
2.8916962 2.0710151 -0.43202728 10
2.886374 2.0664415 -0.30722445 13
2.8653171 2.0506098 -0.18204468 11
2.8691156 2.0525711 -0.060300358 12
2.8518691 2.0394802 0.92855507 11
2.8610153 2.0452669 0.80246812 12
2.8544796 2.0398419 0.67390412 12
2.8682346 2.0489151 0.55160511 11
2.8622754 2.0439038 0.42715204 13
2.8770947 2.0537279 0.30591667 12
2.8762808 2.0523891 0.18317585 12
2.8760402 2.05146 0.060996156 57
1.5183328 1.0810187 -0.48916823 3
1.7260154 1.22843 -0.4802708 3
2.0268693 1.4420193 -0.47564128 3
2.4619458 1.7509079 -0.47243246 3
2.911042 2.0695353 -0.43385535 11
2.9057503 2.0650098 -0.30853182 13
2.8846693 2.0492706 -0.18282712 10
2.8884912 2.0512271 -0.060559526 12
2.8668475 2.0351048 0.93114161 11
2.8800571 2.043726 0.80583984 12
2.8735929 2.0383849 0.67676371 11
2.8874547 2.0474603 0.553949 11
2.8815389 2.0425098 0.42898008 14
2.9005024 2.0551913 0.30765978 12
2.8956511 2.0509946 0.18396087 12
2.8995037 2.0529635 0.061345205 57
1.5220971 1.0757121 -0.48916823 4
1.7302929 1.2223977 -0.4802708 3
2.0318906 1.4349355 -0.47564128 3
2.4882147 1.7565439 -0.4763433 3
2.9304125 2.0679452 -0.43568337 11
2.9292214 2.066339 -0.31027493 13
2.9040473 2.0478215 -0.18360955 10
2.9119778 2.0526531 -0.060905088 12
2.8857784 2.0334313 0.9350214 11
2.8991227 2.0420771 0.80921155 12
2.8967435 2.039645 0.68057644 11
2.910738 2.0487387 0.55707425 11
2.9008272 2.0410061 0.4308081 13
2.9198813 2.0536506 0.30896711 12
2.9150467 2.04949 0.18474592 11
2.9189224 2.0514536 0.061606992 57
1.5258428 1.0703925 -0.48916823 4
1.7385381 1.2191476 -0.48139551 3
2.0328681 1.4250169 -0.47468811 3
2.4983754 1.7506818 -0.4771255 3
2.9498074 2.0662453 -0.43751144 11
2.948657 2.0646725 -0.31158224 12
2.9234498 2.0462618 -0.18439196 10
2.9314139 2.051074 -0.06116426 12
2.9086902 2.0344186 0.94019437 11
2.9182122 2.0403202 0.81258327 12
2.915915 2.0379562 0.68343604 11
2.930017 2.0470514 0.5594182 11
2.9242086 2.0422337 0.43324548 14
2.9392846 2.0519996 0.31027445 12
2.9385614 2.0507321 0.18579264 13
2.9424663 2.0526934 0.061956041 53
1.5295697 1.0650598 -0.48916823 3
1.7467817 1.2158546 -0.48252031 3
2.0338008 1.4151087 -0.47373492 3
2.4963627 1.7363104 -0.47556117 3
2.9733007 2.0672681 -0.43994883 11
2.9722066 2.065738 -0.31332538 13
2.9469771 2.0474405 -0.18543519 9
2.9508739 2.0493841 -0.061423428 11
2.9276762 2.032516 0.94407409 11
2.9413269 2.0412321 0.81707889 12
2.9351099 2.0361588 0.68629557 10
2.9493196 2.0452538 0.56176215 12
2.9435554 2.0404959 0.43507352 14
2.9587116 2.0502379 0.31158176 13
2.9580157 2.0489917 0.18657768 11
2.966054 2.0537937 0.062305089 63
1.5253321 1.0542222 -0.48658001 3
1.7550235 1.2125192 -0.48364502 3
2.0346894 1.4052114 -0.47278175 3
2.4983444 1.7247802 -0.47477898 3
2.9927521 2.0653331 -0.44177687 11
2.9916992 2.0638356 -0.31463271 13
2.9664381 2.045645 -0.18621762 14
2.9703577 2.0475833 -0.061682601 14
2.9506614 2.0332463 0.94924712 10
2.9604709 2.0392437 0.8204506 13
2.9583697 2.0370352 0.6901083 14
2.9686449 2.0433466 0.56410605 13
2.9629254 2.0386479 0.4369016 14
2.9781623 2.0483658 0.31288913 12
2.9816082 2.0499694 0.18762439 14
2.9814448 2.0490909 0.062479611 63
1.536968 1.0543555 -0.48916823 3
1.7431737 1.1953646 -0.479146 3
2.0395823 1.3981006 -0.47278175 3
2.5002761 1.7132574 -0.47399682 4
3.0122263 2.0632873 -0.44360489 11
3.0112147 2.0618224 -0.31594005 13
2.9859221 2.0437386 -0.18700007 12
2.9939909 2.0484941 -0.062028162 15
2.9736872 2.0338407 0.95442015 13
2.9836588 2.0398965 0.82494622 14
2.9776194 2.0350046 0.69296789 14
2.9879932 2.0413294 0.56645 12
2.9823184 2.0366893 0.43872961 14
2.9976356 2.0463827 0.31419647 12
3.0011187 2.0479925 0.18840943 14
2.996839 2.0443056 0.062654138 59
1.5486233 1.0544204 -0.49175641 3
1.7473357 1.1892725 -0.479146 2
2.0525663 1.3964946 -0.47468811 3
2.4939904 1.6961875 -0.47165027 4
3.0358264 2.063921 -0.4460423 10
3.0348723 2.0624976 -0.31768319 13
3.0054286 2.0417209 -0.18778248 11
3.0093946 2.0436478 -0.062200941 12
2.996753 2.0342987 0.95959312 15
3.0028558 2.0376761 0.82831794 14
3.0009525 2.0356197 0.69678068 12
3.0114503 2.0419734 0.56957525 11
3.0058415 2.0374043 0.441167 13
3.0171313 2.0442884 0.31550378 12
3.0206516 2.0459044 0.18919449 12
3.0080967 2.0366352 0.062741399 56
1.5522945 1.0490083 -0.49175641 3
nan nan nan 0
2.0574284 1.3893213 -0.47468811 3
2.4876168 1.6791826 -0.46930379 3
3.0553541 2.0616388 -0.44787034 9
3.0544415 2.0602474 -0.3189905 12
3.0249572 2.0395918 -0.18856491 9
3.0289466 2.041513 -0.062460113 13
3.0158525 2.0319221 0.9634729 12
3.0261145 2.0380681 0.83281356 12
3.0202546 2.0333552 0.69964021 11
3.0267541 2.0369635 0.57113785 11
3.0252881 2.0352099 0.44299504 14
3.036649 2.0420828 0.31681114 12
3.0360627 2.0409193 0.18971784 11
3.0193369 2.0289109 0.06282866 60
nan nan nan 0
nan nan nan 0
nan nan nan 0
2.5180798 1.6869811 -0.47399682 3
3.0749023 2.0592456 -0.44969836 6
3.0781708 2.0606561 -0.32073361 13
3.0445075 2.0373514 -0.18934733 11
3.0526755 2.0420458 -0.062805675 12
3.0349717 2.0294363 0.96735269 11
3.0453615 2.035615 0.83618528 11
3.0395772 2.0309813 0.70249981 11
3.0502729 2.0373578 0.5742631 11
3.0488832 2.0356603 0.44543242 12
3.0561874 2.0397658 0.31811845 12
3.0556288 2.0386224 0.19050287 12
3.034719 2.0239065 0.063003182 58
nan nan nan 0
nan nan nan 0
nan nan nan 0
nan nan nan 0
3.0986037 2.0594876 -0.45213574 5
3.0977914 2.0581682 -0.32204098 13
3.064079 2.0349989 -0.19012977 11
3.0722797 2.0396729 -0.063064843 13
3.0581346 2.0295129 0.97252572 12
3.0646284 2.0330522 0.83955699 12
3.0630107 2.0312092 0.70631254 10
3.0738313 2.0376127 0.57738835 9
3.0683811 2.0332289 0.44726047 12
3.0757468 2.0373373 0.31942579 14
3.0710528 2.0334568 0.19102623 14
3.0709467 2.0326159 0.063614018 55
nan nan nan 0
nan nan nan 0
nan nan nan 0
nan nan nan 0
3.1264873 2.0623221 -0.45518249 5
3.1215904 2.05831 -0.32378408 14
3.0836706 2.0325346 -0.19091219 10
3.0960793 2.0399384 -0.063410401 12
3.0813346 2.0294521 0.97769868 11
3.0879834 2.0330586 0.84405261 12
3.0823824 2.0286002 0.70917213 10
3.1056802 2.0431561 0.58207619 8
3.0920455 2.0334132 0.44969785 13
3.0994883 2.037533 0.3211689 11
3.0948236 2.0336928 0.19207294 14
3.1030936 2.038352 0.064137593 53
nan nan nan 0
nan nan nan 0
nan nan nan 0
nan nan nan 0
3.1544278 2.0649867 -0.45822924 9
3.1412597 2.0555832 -0.32509142 11
3.1074612 2.0326917 -0.19195542 11
3.1199176 2.0400624 -0.063755967 12
3.1045713 2.029254 0.98287171 12
3.1072972 2.030262 0.84742433 12
3.1058826 2.0285645 0.71298486 11
3.1376047 2.048502 0.58676404 10
3.1115925 2.0307446 0.4515259 15
3.1190968 2.0348661 0.32247624 13
3.1228154 2.036515 0.19338135 11
3.1353176 2.0438883 0.06466116 53
nan nan nan 0
nan nan nan 0
nan nan nan 0
nan nan nan 0
3.1865864 2.0701847 -0.46188533 6
3.1651256 2.0554574 -0.32683456 11
3.1312902 2.0327075 -0.19299866 8
3.139601 2.0373235 -0.064015135 14
3.1278439 2.0289185 0.98804474 10
3.1307168 2.0300057 0.85191995 9
3.1294198 2.028389 0.71679759 9
3.1737487 2.0563352 0.59223324 11
3.1353238 2.0306621 0.45396328 12
3.1387246 2.0320868 0.32378358 10
3.1508648 2.0391665 0.19468975 14
3.1718154 2.05194 0.065271996 63
nan nan nan 0
nan nan nan 0
nan nan nan 0
nan nan nan 0
3.2146485 2.0724945 -0.46493205 5
3.1848416 2.0524909 -0.32814187 14
3.1551571 2.0325813 -0.19404191 15
3.1635058 2.0371783 -0.064360693 14
3.1552129 2.031059 0.99451101 13
3.1541724 2.0296106 0.85641557 15
3.148865 2.0254185 0.71965712 16
3.1892154 2.050586 0.59379584 10
3.1549175 2.027755 0.45579132 12
3.1583703 2.0291955 0.32509091 10
3.1789701 2.0416465 0.19599815 15
3.1705446 2.035454 0.065097474 60
nan nan nan 0
1.8044757 1.1557864 -0.48589453 3
nan nan nan 0
nan nan nan 0
3.238585 2.0719585 -0.46736944 4
3.2087719 2.0520959 -0.32988498 14
3.1790609 2.0323133 -0.19508514 13
3.1916606 2.0395832 -0.064792648 13
3.1744943 2.0278332 0.99839073 15
3.1735566 2.0264542 0.85978723 14
3.1724651 2.0249782 0.72346991 13
3.2005169 2.0420973 0.59457713 10
3.1745286 2.0247359 0.45761937 15
3.1654344 2.0181584 0.32509091 15
3.2029202 2.0412717 0.19704486 12
3.1944957 2.0351188 0.065446518 58
nan nan nan 0
1.8043875 1.1468673 -0.48476982 3
nan nan nan 0
nan nan nan 0
3.2541773 2.0659611 -0.46858817 4
3.2285321 2.0488894 -0.33119234 12
3.203001 2.0319026 -0.19612837 9
3.2156484 2.0391388 -0.065138213 11
3.189712 2.0219114 1.0009773 12
3.1970725 2.025795 0.86428291 13
3.1919539 2.021771 0.72632951 12
3.2159708 2.0361967 0.59613979 10
3.1983504 2.0242586 0.46005675 13
3.2019248 2.025738 0.32814136 12
3.2184658 2.0354168 0.19756822 11
3.2100313 2.0292983 0.065621048 59
nan nan nan 0
nan nan nan 0
nan nan nan 0
nan nan nan 0
nan nan nan 0
3.2525239 2.0482242 -0.33293545 13
3.2269769 2.0313499 -0.19717161 10
3.2396717 2.0385518 -0.065483771 9
3.204927 2.015908 1.0035638 11
3.2164979 2.0224028 0.86765462 13
3.2156146 2.0210643 0.73014224 12
3.2314224 2.0302129 0.59770238 11
3.2222075 2.0236394 0.46249413 15
3.2342877 2.0304391 0.33075604 11
3.23401 2.0294778 0.19809158 11
3.2340353 2.0287073 0.065970093 58
nan nan nan 0
nan nan nan 0
nan nan nan 0
nan nan nan 0
nan nan nan 0
3.2765501 2.0474164 -0.33467856 12
3.2509875 2.0306542 -0.19821484 10
3.2679703 2.0404694 -0.065915719 12
3.2283335 2.0149376 1.0087367 12
3.2400718 2.0214784 0.87215024 13
3.2393086 2.0202167 0.73395497 11
3.2510622 2.0267591 0.60004634 12
3.2418873 2.0202539 0.46432218 14
3.2709503 2.0375721 0.33380648 10
3.2495518 2.0234554 0.19861494 13
3.258074 2.0279732 0.066319138 58
nan nan nan 0
nan nan nan 0
nan nan nan 0
nan nan nan 0
3.2629809 2.0239232 -0.4667601 5
3.3006101 2.0464656 -0.33642167 13
3.2707884 2.027185 -0.19899726 12
3.2878222 2.0369482 -0.066174895 11
3.2517717 2.0138283 1.0139097 11
3.259536 2.0178494 0.87552196 11
3.263036 2.0192285 0.73776776 12
3.2749169 2.0257902 0.60317159 9
3.2700248 2.021975 0.4673689 14
3.3119383 2.0470927 0.33729273 8
3.273586 2.0225978 0.19966166 13
3.2821467 2.0270956 0.06666819 56
nan nan nan 0
nan nan nan 0
nan nan nan 0
nan nan nan 0
3.2953844 2.0281274 -0.47041619 4
3.3247032 2.0453718 -0.33816481 15
3.294858 2.0262179 -0.2000405 11
3.3076894 2.0333135 -0.066434063 12
3.279357 2.0151081 1.020376 12
3.2831655 2.0166593 0.88001758 12
3.2867954 2.0180988 0.74158049 12
3.2945957 2.0220966 0.60551554 12
3.293983 2.0209291 0.46980631 12
3.3190639 2.0355196 0.33729273 12
3.2976539 2.0215974 0.20070837 11
3.3062527 2.0260749 0.067017235 62
nan nan nan 0
nan nan nan 0
nan nan nan 0
nan nan nan 0
3.3447988 2.0424757 -0.47650966 3
3.3488286 2.0441344 -0.33990791 13
3.3189604 2.0251076 -0.20108375 12
3.323303 2.0269616 -0.066606842 17
3.3028662 2.013706 1.0255491 12
3.3068264 2.0153284 0.8845132 13
3.3105869 2.0168281 0.74539322 13
3.318506 2.0208583 0.60864073 13
3.3137345 2.0171599 0.47163433 14
3.3346591 2.0290999 0.33816427 14
3.3260207 2.0230479 0.20201679 16
3.3303914 2.0249102 0.067366287 57
nan nan nan 0
nan nan nan 0
nan nan nan 0
nan nan nan 0
3.3137078 2.0076437 -0.47102556 5
3.3644645 2.0375929 -0.34077948 18
3.3430948 2.0238535 -0.20212698 10
3.3431892 2.0231133 -0.06686601 16
3.3264058 2.0121639 1.030722 15
3.3305175 2.0138569 0.88900882 15
3.3344092 2.0154154 0.74920601 11
3.3424478 2.0194778 0.61176598 13
3.3377478 2.0158432 0.47407171 13
3.3545144 2.0251703 0.33947161 14
3.3501623 2.0217452 0.2030635 13
3.3545623 2.023602 0.067715332 64
nan nan nan 0
1.8151724 1.0923915 -0.4802708 3
nan nan nan 0
nan nan nan 0
3.3504694 2.0139618 -0.47529095 4
3.3800957 2.030967 -0.34165102 18
3.3672609 2.0224555 -0.20317021 15
3.3630893 2.019151 -0.067125186 19
3.3499744 2.0104818 1.0358951 15
3.3542385 2.0122445 0.89350444 15
3.3582616 2.0138612 0.75301874 16
3.36642 2.0179548 0.61489123 15
3.3617923 2.0143833 0.47650909 18
3.3743823 2.0211267 0.34077895 15
3.3743348 2.0202985 0.20411022 16
3.3787642 2.0221491 0.068064377 69
nan nan nan 0
1.8231574 1.088546 -0.48139551 2
2.1107008 1.2597289 -0.46992216 2
2.5689902 1.5326415 -0.46773943 3
3.3319049 1.9870028 -0.47163489 4
3.3871646 2.019156 -0.34165102 7
3.3914576 2.0209129 -0.20421346 17
3.3872969 2.0176327 -0.067470744 14
3.3735719 2.0086598 1.0410681 16
3.3779888 2.0104911 0.89800006 18
3.382144 2.0121648 0.75683153 18
3.3904223 2.0162888 0.61801648 12
3.3858666 2.0127797 0.47894648 22
3.4028268 2.0220582 0.34295785 14
3.4028311 2.0212572 0.20541862 14
3.4072952 2.0231047 0.06850069 63
nan nan nan 0
1.8311378 1.0846584 -0.48252031 2
2.1193087 1.2548543 -0.47087535 2
nan nan nan 0
3.3302782 1.9703063 -0.47041619 4
3.4199162 2.0225334 -0.3442657 14
3.4156845 2.0192261 -0.20525669 13
3.4158392 2.0185132 -0.067902692 15
3.397197 2.0066972 1.046241 15
3.4017673 2.0085959 0.90249562 14
3.406055 2.0103259 0.76064426 15
3.4187069 2.0169892 0.62192303 14
3.4099708 2.0110326 0.48138386 12
3.4270277 2.0202858 0.34470096 16
3.427073 2.0195067 0.20646533 14
3.4315662 2.0213478 0.068849742 65
1.6192626 0.95191634 -0.49305049 3
1.839113 1.0807282 -0.48364502 2
2.1363726 1.2549067 -0.47373492 2
2.6009202 1.5271719 -0.47165027 2
3.3371356 1.9586694 -0.47041619 3
3.4527323 2.0257068 -0.34688041 14
3.4442477 2.0199206 -0.20656073 14
3.4444284 2.0192189 -0.068334647 15
3.4250162 2.0070357 1.0527073 15
3.4255733 2.0065591 0.90699124 16
3.4342296 2.0108247 0.76541018 15
3.4470379 2.0175164 0.62582964 14
3.4341042 2.0091417 0.48382127 13
3.4555576 2.0208838 0.34687987 15
3.451344 2.0176115 0.20751205 14
3.4601831 2.0219684 0.069286048 64
1.6225755 0.94625837 -0.49305049 3
1.8386655 1.0718483 -0.48252031 2
2.1322584 1.2424995 -0.47182852 2
2.5635622 1.4932275 -0.46382856 2
3.3439524 1.9470087 -0.47041619 3
3.481307 2.0261695 -0.34905931 13
3.4685414 2.0179293 -0.20760398 14
3.4730639 2.0197494 -0.068766601 16
3.4528792 2.0072048 1.0591736 15
3.4536192 2.0068285 0.91261083 15
3.458205 2.0086858 0.76922292 15
3.4754136 2.0178702 0.62973613 14
3.4582653 2.0071068 0.48625866 13
3.4841328 2.021307 0.34905878 14
3.4799628 2.0180759 0.20882046 15
3.4888451 2.0224135 0.069722362 64
1.6175077 0.9357518 -0.4904623 3
1.8381782 1.0629847 -0.48139551 2
2.1365826 1.2350489 -0.47182852 2
2.568759 1.4842699 -0.46382856 2
3.3507283 1.9353244 -0.47041619 3
3.5099263 2.0264575 -0.35123816 13
3.4928627 2.0157931 -0.20864721 13
3.5017445 2.0201042 -0.069198549 16
3.4807849 2.0072033 1.0656399 16
3.4817085 2.0069265 0.91823035 15
3.4864597 2.0088546 0.7739889 15
3.4995542 2.0155859 0.63286132 14
3.4867544 2.0074034 0.48930538 13
3.5084357 2.0190704 0.35080189 16
3.5042984 2.0158756 0.20986716 14
3.5132189 2.0201912 0.070071407 64
1.6207644 0.93009996 -0.4904623 3
1.8418776 1.0565618 -0.48139551 3
2.1408806 1.2275833 -0.47182852 3
2.5996318 1.4900289 -0.4685216 2
3.3574634 1.9236162 -0.47041619 4
3.5385904 2.0265706 -0.35341707 13
3.5215449 2.0159924 -0.20995125 14
3.5261309 2.0178006 -0.069544114 16
3.5087323 2.0070317 1.0721061 16
3.5098405 2.0068524 0.92384988 15
3.5104961 2.0064144 0.77780163 15
3.5280092 2.0156071 0.63676792 14
3.5109782 2.0050645 0.49174276 14
3.5370908 2.0191584 0.35298073 15
3.5329976 2.0160043 0.21117558 14
3.5419617 2.0202999 0.07050772 64
1.624001 0.92443681 -0.4904623 3
1.8455544 1.0501261 -0.48139551 3
2.1451526 1.2201028 -0.47182852 2
2.591938 1.4736232 -0.46617511 3
3.3684726 1.9143369 -0.47102556 3
3.5629666 2.0240474 -0.35516018 13
3.5459285 2.0135498 -0.2109945 13
3.5548909 2.0178187 -0.069976054 15
3.5325201 2.0043054 1.0772791 16
3.5380135 2.0066061 0.92946935 15
3.5388281 2.0062521 0.78256762 15
3.5522099 2.0130193 0.63989311 14
3.5352283 2.0025809 0.49418014 13
3.5614548 2.0166163 0.35472384 15
3.5573945 2.0134974 0.21222229 15
3.5663965 2.0177708 0.070856765 63
1.6314236 0.92113692 -0.49175641 3
1.8449661 1.0412829 -0.4802708 3
2.1451237 1.2101957 -0.47087535 2
2.5970659 1.4645666 -0.46617511 2
3.3794572 1.9050039 -0.47163489 4
3.5917075 2.0238237 -0.35733908 13
3.5746877 2.0134118 -0.21229851 13
3.5793381 2.015208 -0.07032162 16
3.5605404 2.0038066 1.0837454 16
3.5662272 2.0061877 0.93508887 15
3.5629225 2.0035098 0.78638035 15
3.5807407 2.012707 0.64379972 14
3.5638297 2.002383 0.49722689 14
3.5901873 2.0163679 0.35690275 15
3.5861714 2.0132892 0.21353069 15
3.5952165 2.0175421 0.071293078 63
1.6346291 0.91543657 -0.49175641 3
1.8485894 1.0348364 -0.4802708 2
2.1493349 1.2027004 -0.47087535 2
2.5978522 1.4530814 -0.46539292 3
3.3904181 1.8956177 -0.47224423 3
3.6204903 2.0234244 -0.35951799 14
3.6034899 2.0130978 -0.21360257 13
3.6081746 2.0148888 -0.070753567 15
3.5885997 2.0031359 1.0902116 16
3.5902271 2.0032227 0.93958449 16
3.5913279 2.003015 0.79114634 15
3.6049981 2.0098147 0.64692497 14
3.5881376 1.9995939 0.49966428 13
3.614609 2.013519 0.35864586 15
3.6106269 2.0104752 0.21457741 15
3.6240783 2.0171368 0.071729392 65
1.6378145 0.90972501 -0.49175641 3
1.8521906 1.0283773 -0.4802708 2
2.1492283 1.1928086 -0.46992216 3
2.6029088 1.4440043 -0.46539292 3
3.4187145 1.8958051 -0.47529095 3
3.6449571 2.0204332 -0.36126113 14
3.6279652 2.0101869 -0.2146458 13
3.6370523 2.0143924 -0.071185522 16
3.6166978 2.0022941 1.0966779 16
3.6185119 2.0024734 0.94520408 16
3.6197722 2.0023458 0.79591221 15
3.6336014 2.0091674 0.65083152 13
3.6168134 1.9990605 0.50271106 13
3.643415 2.0129335 0.36082476 15
3.6394773 2.0099289 0.21588582 14
3.6529803 2.0165541 0.07216569 64
1.6409802 0.90400243 -0.49175641 3
1.8515013 1.0195557 -0.479146 2
2.1490788 1.1829323 -0.46896899 2
2.6079333 1.4349097 -0.46539292 3
3.4122663 1.8766853 -0.47346294 3
3.6738119 2.019696 -0.36344001 14
3.6568398 2.0095341 -0.21594985 14
3.6615889 2.011312 -0.07153108 16
3.6448331 2.0012803 1.1031442 16
3.6468349 2.0015509 0.95082361 15
3.6439526 1.9991415 0.79972494 15
3.6622436 2.0083449 0.65473807 13
3.6455283 1.9983507 0.50575775 14
3.6678917 2.0097771 0.36256787 15
3.6683676 2.0092056 0.21719421 14
3.6775377 2.0133936 0.072514743 65
1.6483639 0.9005844 -0.49305049 3
1.855049 1.0130866 -0.479146 2
2.1531951 1.1754234 -0.46896899 2
2.6129262 1.4257976 -0.46539292 2
3.4100826 1.8600101 -0.47224423 3
3.6983323 2.0163968 -0.36518314 14
3.6857541 2.0087044 -0.21725391 13
3.6905377 2.0104764 -0.071963035 16
3.6730051 2.0000939 1.1096104 16
3.6709163 1.9981258 0.95531923 16
3.6724663 1.9981387 0.80449092 14
3.6909237 2.0073464 0.65864456 13
3.6742818 1.9974645 0.50880444 14
3.6967678 2.008853 0.36474678 15
3.6929095 2.0059214 0.21824093 14
3.7065103 2.0124717 0.072951056 64
1.6514975 0.8948251 -0.49305049 3
1.8628579 1.0089252 -0.4802708 2
2.1702342 1.1749104 -0.47182852 3
2.6178873 1.4166681 -0.46539292 2
3.4121892 1.8457341 -0.47163489 3
3.7272558 2.0153203 -0.36736199 13
3.710314 2.0053232 -0.21829714 13
3.7195258 2.0094631 -0.072394989 16
3.6969635 1.9964404 1.1147834 16
3.6993051 1.9968711 0.96093875 16
3.6966968 1.99463 0.80830365 14
3.7152953 2.003828 0.66176987 15
3.698705 1.9940468 0.51124185 14
3.7256815 2.0077512 0.36692569 15
3.7218683 2.0048583 0.21954931 15
3.7311199 2.0090015 0.073300101 65
1.654611 0.88905478 -0.49305049 3
1.8663684 1.0024165 -0.4802708 2
2.1829708 1.1719711 -0.47373492 3
2.6271679 1.4098566 -0.46617511 3
3.4142382 1.8314663 -0.47102556 3
3.7562163 2.0140662 -0.3695409 13
3.7392957 2.0041533 -0.21960118 14
3.7441437 2.0059104 -0.072740547 16
3.725199 1.9949242 1.1212497 15
3.7277298 1.9954424 0.96655822 16
3.7252758 1.9932923 0.81306958 15
3.7440414 2.0024927 0.66567636 13
3.7275255 1.9928228 0.5142886 14
3.7546327 2.0064723 0.36910459 15
3.750865 2.0036173 0.22085772 14
3.7601595 2.0077388 0.073736414 65
1.6577042 0.88327372 -0.49305049 3
1.8741561 0.99818569 -0.48139551 3
2.1957135 1.1689571 -0.47564128 3
2.6320734 1.4006773 -0.46617511 2
3.416229 1.8172066 -0.47041619 3
3.7852137 2.0126345 -0.37171981 14
3.7683146 2.0028055 -0.22090523 13
3.7731974 2.0045562 -0.073172502 16
3.7534685 1.993235 1.1277159 16
3.7561893 1.9938394 0.97217774 16
3.7538898 1.9917791 0.81783557 15
3.7728233 2.0009813 0.66958296 15
3.7563829 1.9914219 0.51733536 14
3.7792184 2.0026829 0.3708477 15
3.7754855 1.999861 0.22190444 14
3.7848175 2.0039582 0.074085459 66
1.6607773 0.87748188 -0.49305049 3
1.8733211 0.98936248 -0.4802708 3
2.186759 1.1544113 -0.47278175 2
2.6413143 1.393786 -0.46695724 2
3.4225514 1.8052707 -0.47041619 3
3.8098404 2.0087016 -0.37346292 13
3.7929521 1.9989514 -0.22194847 14
3.7934408 1.9983633 -0.073431671 17
3.7774978 1.9891222 1.132889 15
3.7803714 1.9897928 0.97667336 16
3.7825389 1.9900906 0.8226015 16
3.7972691 1.9969944 0.67270821 16
3.7808824 1.9875342 0.51977271 13
3.803823 1.9987464 0.37259081 15
3.8045459 1.998279 0.22321284 15
3.805068 1.9977061 0.074347243 68
1.6595522 0.86943811 -0.49175641 3
1.8767631 0.98281729 -0.4802708 3
2.1864269 1.1444948 -0.47182852 3
2.6505389 1.386847 -0.46773943 2
3.4244347 1.7910128 -0.46980685 3
3.8389001 2.0069289 -0.37564182 19
3.8131824 1.9926369 -0.22273089 15
3.8136866 1.992053 -0.073690839 23
3.797262 1.9826301 1.1367687 16
3.8045707 1.9856013 0.98116899 16
3.8068695 1.9859558 0.82641429 17
3.821732 1.9928608 0.6758334 19
3.8054001 1.9834996 0.52221012 15
3.824029 1.9923611 0.37389815 25
3.829212 1.9942118 0.22425956 20
3.8297558 1.9936453 0.074696295 69
1.662577 0.86363989 -0.49175641 3
1.8758587 0.97401512 -0.479146 3
2.1860521 1.1345947 -0.47087535 2
2.6597471 1.3798606 -0.4685216 2
3.42626 1.7767637 -0.46919748 4
3.8679926 2.0049777 -0.37782073 12
3.833415 1.9862056 -0.22351331 15
3.8294957 1.983327 -0.073863626 11
3.8213162 1.9782451 1.1419418 25
3.8331141 1.9835044 0.98678851 17
3.8355768 1.9839301 0.83118021 21
3.8418262 1.9863129 0.67817736 10
3.825527 1.9770397 0.52403814 16
3.8398108 1.9835725 0.37476969 9
3.8538964 1.9899968 0.22530627 12
3.8411338 1.9825577 0.074783556 48
1.661288 0.85561979 -0.4904623 4
1.8749156 0.9652313 -0.47802129 3
2.1899991 1.1269569 -0.47087535 2
2.6645477 1.3705679 -0.4685216 2
3.4280276 1.7625239 -0.46858817 3
3.897119 2.0028477 -0.37999964 11
3.8447664 1.975094 -0.22377412 8
3.8541844 1.979082 -0.074209183 6
3.8324952 1.9670997 1.143235 9
3.8573534 1.9790081 0.99128413 10
3.8643157 1.9817282 0.83594608 6
3.8707104 1.9841543 0.6820839 10
3.8412387 1.9682004 0.52525687 7
3.8688781 1.9815099 0.37694857 7
3.8785973 1.9856335 0.22635299 8
3.8791838 1.9850792 0.075394385 51
1.6642644 0.84981561 -0.4904623 4
1.8782735 0.95868075 -0.47802129 2
2.1939197 1.1193056 -0.47087535 3
2.6737151 1.3635021 -0.46930379 2
3.4297373 1.7482932 -0.46797881 3
3.9351528 2.0050611 -0.38305008 9
3.8961306 1.984322 -0.2263822 8
3.9056203 1.9882966 -0.075073078 15
3.8651657 1.9668523 1.1509944 6
3.8859513 1.9765756 0.99690366 9
3.8974614 1.9815742 0.84166527 19
3.9084315 1.9862933 0.68755311 7
3.8790574 1.9705133 0.52952224 8
3.9157424 1.9882891 0.38087058 15
3.9033151 1.981122 0.22739972 6
3.9262142 1.9918828 0.07617975 43
1.6715298 0.84618235 -0.49175641 3
1.8903024 0.95651776 -0.4802708 3
2.1978133 1.1116406 -0.47087535 2
2.6784585 1.3541608 -0.46930379 2
3.43139 1.7340722 -0.46736944 3
3.9732492 2.0070333 -0.38610053 8
3.9342344 1.9864637 -0.22820789 6
3.9482412 1.9926713 -0.075764202 14
3.9151299 1.9751028 1.1639271 15
3.9189284 1.976161 1.0036471 6
3.9306526 1.9812125 0.84738433 8
3.9638557 1.997081 0.6961475 4
3.9169388 1.9725859 0.53378773 5
3.9582515 1.9925253 0.38435683 9
3.9503498 1.9876835 0.22975484 5
3.964407 1.9938896 0.076790586 49
1.6744732 0.84034246 -0.49175641 3
1.8979845 0.95209801 -0.48139551 3
2.2016804 1.1039621 -0.47087535 2
2.6831691 1.3448031 -0.46930379 2
3.4329851 1.7198609 -0.4667601 3
4.0069537 2.0065336 -0.38871521 9
3.9768653 1.9905983 -0.23029435 16
3.9909401 1.9967724 -0.076455325 14
3.9608786 1.9808675 1.1755663 13
3.9519503 1.9755402 1.0103905 6
3.9638886 1.9806435 0.85310352 8
4.0149846 2.0052991 0.70396066 4
3.9548814 1.974418 0.53805315 9
3.9963808 1.9942646 0.38740724 9
3.9885406 1.989483 0.23158659 15
4.0026608 1.9956536 0.077401422 12
1.6817204 0.83664352 -0.49305049 3
1.9100208 0.94980556 -0.48364502 3
2.2055206 1.0962701 -0.47087535 2
2.6922696 1.3376262 -0.47008595 2
3.4345229 1.7056596 -0.46615076 3
4.0407023 2.0058227 -0.39132988 8
4.0285172 1.9988979 -0.23290242 12
4.0292368 1.9983784 -0.077060059 14
4.002387 1.9841914 1.1859124 16
3.9893799 1.9768758 1.0182579 6
4.0015664 1.9820448 0.85977584 9
4.0750699 2.0175667 0.71333635 9
3.9928844 1.976009 0.54231852 16
4.0345702 1.9957619 0.39045775 9
4.0267925 1.9910401 0.23341836 12
4.0364923 1.9949595 0.077924989 13
1.6846306 0.83076817 -0.49305049 3
1.9133247 0.94313252 -0.48364502 3
2.2093337 1.0885646 -0.47087535 2
2.6969223 1.3282202 -0.47008595 2
3.4360032 1.6914687 -0.46554142 3
4.0744948 2.0049007 -0.39394456 8
4.0578737 1.9958423 -0.23420648 13
4.05862 1.9953297 -0.077492014 14
4.026628 1.978729 1.1910853 13
4.0224943 1.9758261 1.0250013 6
4.0348964 1.9810438 0.86549497 9
4.0909548 2.0076814 0.71489894 23
4.0264912 1.9751731 0.54597467 5
4.0638738 1.9926311 0.39263663 10
4.0606194 1.9901565 0.23498842 13
4.0703683 1.9940535 0.078448564 13
1.6875203 0.82488263 -0.49305049 3
1.9122279 0.9343093 -0.48252031 3
2.2131202 1.080846 -0.47087535 3
2.7015421 1.3187982 -0.47008595 2
3.4374266 1.6772882 -0.46493205 3
4.1083293 2.0037668 -0.39655921 8
4.0917449 1.9947941 -0.23577134 13
4.0925245 1.9942901 -0.07801035 14
4.050879 1.9731215 1.1962583 12
4.0512691 1.9724368 1.0306208 6
4.0682669 1.9798341 0.87121403 10
4.1112604 1.9998697 0.71724284 16
4.0646029 1.9762964 0.55024004 13
4.0976839 1.9914969 0.39525127 9
4.0944896 1.9890611 0.23655851 13
4.0997896 1.9907515 0.078884877 11
1.6860431 0.8168813 -0.49175641 3
1.9110928 0.92550522 -0.48139551 3
2.2168794 1.0731142 -0.47087535 3
2.7061293 1.30936 -0.47008595 2
3.434325 1.6609577 -0.46371335 3
4.1422057 2.0024211 -0.39917392 8
4.1211629 1.9913613 -0.23707539 12
4.1264706 1.9930378 -0.078528695 16
4.0794892 1.9694682 1.2027246 9
4.0844564 1.9709872 1.0373642 6
4.0972576 1.9762833 0.87598002 9
4.1315627 1.9919411 0.71958685 11
4.0983009 1.9750233 0.55389619 13
4.1315355 1.9901508 0.39786598 10
4.1284003 1.9877532 0.23812859 13
4.1337419 1.9894363 0.079408444 14
1.6888843 0.81099093 -0.49175641 3
1.9143119 0.91882861 -0.48139551 3
2.2206118 1.0653692 -0.47087535 2
2.7106833 1.2999059 -0.47008595 2
3.4311516 1.6446694 -0.46249467 3
4.1761222 2.0008633 -0.40178862 8
4.1506057 1.9877471 -0.23837942 13
4.1559491 1.9894143 -0.078960635 10
4.1081228 1.9656391 1.2091908 10
4.1176829 1.9693303 1.0441077 7
4.1307015 1.9746708 0.8816992 9
4.1474018 1.9817653 0.72114944 9
4.1320386 1.9735385 0.55755222 13
4.1609321 1.9864466 0.40004483 9
4.1623521 1.9862328 0.23969868 14
4.1677346 1.987908 0.079932019 12
1.6917049 0.80509067 -0.49175641 3
1.913108 0.91004801 -0.4802708 3
2.2243171 1.0576113 -0.47087535 2
2.7107439 1.288316 -0.46930379 2
3.4279065 1.6284235 -0.46127596 2
4.2100778 1.9990927 -0.40440327 7
4.1845841 1.9860924 -0.23994428 13
4.1854515 1.9856092 -0.07939259 10
4.1455078 1.9657733 1.2182436 16
4.1465454 1.9653788 1.0497272 7
4.1641831 1.9728487 0.88741827 10
4.1810751 1.9799581 0.72583729 8
4.1658163 1.9718423 0.56120831 13
4.1948557 1.9846915 0.40265954 9
4.1963434 1.9844992 0.24126875 12
4.201767 1.9861668 0.080455594 12
1.6945047 0.79918063 -0.49175641 3
1.916273 0.90336454 -0.4802708 3
2.2279954 1.0498406 -0.47087535 2
2.7152245 1.2788459 -0.46930379 2
3.4156096 1.6079926 -0.45883858 2
4.2440724 1.9971095 -0.40701795 7
4.2140832 1.9820995 -0.24124834 12
4.2195024 1.983749 -0.079910934 9
4.1785717 1.9636157 1.2260031 14
4.1798391 1.9633206 1.0564706 6
4.1977019 1.9708169 0.89313745 9
4.2147851 1.9779397 0.73052514 7
4.1996317 1.9699341 0.56486434 13
4.2288175 1.9827237 0.40527421 8
4.2303724 1.9825523 0.24283883 12
4.235837 1.9842117 0.080979161 12
1.6972841 0.79326087 -0.49175641 3
1.9194146 0.89666998 -0.4802708 3
2.2316463 1.0420572 -0.47087535 2
2.719672 1.2693603 -0.46930379 2
3.4391916 1.6044527 -0.46127596 2
4.2871318 1.9991231 -0.41050419 4
4.2481308 1.980034 -0.24281317 12
4.2490597 1.9795644 -0.080342889 9
4.2160497 1.9632901 1.2350559 12
4.2131691 1.961054 1.0632141 6
4.2312574 1.9685749 0.89885652 9
4.2530107 1.9777926 0.73599434 9
4.2334847 1.9678137 0.56852049 13
4.2628155 1.9805427 0.40788886 11
4.2644391 1.9803921 0.24440892 11
4.2699447 1.9820431 0.081502736 11
1.7000428 0.78733134 -0.49175641 3
1.9225329 0.88996452 -0.4802708 2
2.2352703 1.0342609 -0.47087535 3
2.7285686 1.2619321 -0.47008595 2
3.4447711 1.5924379 -0.46127596 2
4.3302569 2.0008602 -0.41399044 5
4.2822151 1.977755 -0.24437803 12
4.2831769 1.9772923 -0.080861226 9
4.2491899 1.9607029 1.2428154 13
4.2465334 1.9585782 1.0699575 8
4.2603903 1.9640676 0.90362251 10
4.2867999 1.9753355 0.74068218 8
4.2673731 1.9654807 0.57217652 11
4.2968502 1.9781486 0.41050357 11
4.2985415 1.9780179 0.24597898 13
4.3040881 1.97966 0.082026303 15
1.7027807 0.78139234 -0.49175641 3
1.9256277 0.88324815 -0.4802708 3
2.2477903 1.0305431 -0.47278175 3
2.7329569 1.2523999 -0.47008595 2
3.4593327 1.584537 -0.46249467 2
4.373446 2.0023205 -0.41747665 3
4.3163347 1.9752619 -0.24594288 12
4.3173308 1.9748063 -0.08137957 10
4.2823634 1.9579082 1.2505749 13
4.279932 1.9558935 1.0767009 8
4.2940083 1.9614201 0.90934163 9
4.3251166 1.9747177 0.74615139 9
4.3012972 1.9629351 0.57583261 9
4.3354516 1.9776077 0.41355398 10
4.3326788 1.9754295 0.24754907 12
4.3382668 1.9770628 0.082549877 12
1.7053626 0.7757414 -0.49175641 3
1.928393 0.87719434 -0.4802708 3
2.2554848 1.0255079 -0.47373492 3
2.741374 1.2458512 -0.47086814 2
3.4642935 1.5736613 -0.46249467 2
4.4159975 2.0050449 -0.4209629 2
4.3498001 1.9740731 -0.24750774 12
4.3553824 1.9756899 -0.081984296 9
4.3192849 1.9584062 1.2596277 15
4.3171182 1.9565157 1.0845683 9
4.3269739 1.9600722 0.9150607 9
4.3582921 1.9733422 0.75083923 10
4.3345704 1.9616898 0.57948875 12
4.3688726 1.9762952 0.41616869 9
4.3661618 1.974151 0.24911913 12
4.3763461 1.977836 0.083160713 12
1.7079257 0.77008194 -0.49175641 3
1.9314433 0.87045759 -0.4802708 3
2.2680013 1.0216604 -0.47564128 3
2.7366998 1.2322193 -0.46930379 2
3.4697654 1.5615592 -0.46249467 2
4.4547672 2.0039217 -0.42401332 2
4.3839889 1.971163 -0.24907261 12
4.3896117 1.9727705 -0.082502641 9
4.352529 1.955192 1.2673873 16
4.3505893 1.9534079 1.0913117 8
4.3606582 1.9570146 0.92077988 9
4.3966961 1.972266 0.75630838 11
4.3685613 1.9587295 0.58314478 12
4.4030166 1.9732554 0.41878334 10
4.4003673 1.9711457 0.25068924 12
4.4106002 1.9748055 0.083684288 11
1.7107366 0.76381695 -0.49175641 3
1.9301718 0.86138719 -0.479146 3
2.2672482 1.0113415 -0.47468811 3
2.7411978 1.2221805 -0.46930379 2
3.4754655 1.5488313 -0.46249467 2
4.4984818 2.0037947 -0.42749956 3
4.4231143 1.969298 -0.25089827 12
4.4242172 1.968864 -0.083020978 10
4.3905573 1.9529666 1.27644 14
4.3844304 1.9493248 1.0980551 9
4.3947139 1.9529783 0.92649895 9
4.4309754 1.9681667 0.76099628 11
4.4074616 1.9568012 0.58741021 12
4.4420891 1.971247 0.42183378 9
4.4395123 1.9691759 0.25252098 11
4.4497995 1.9728097 0.084295116 12
1.7178093 0.75979424 -0.49305049 3
1.9331669 0.85464442 -0.479146 3
2.2707646 1.0034211 -0.47468811 3
2.7364125 1.208614 -0.46773943 2
3.4808507 1.5366902 -0.46249467 2
4.5327916 2.000145 -0.43011427 3
4.4573727 1.9659363 -0.2524631 12
4.4630842 1.9675249 -0.083625704 9
4.4238658 1.9493139 1.2841994 14
4.42242 1.947755 1.1059225 9
4.4329505 1.9514692 0.93317133 8
4.469461 1.9666104 0.76646543 11
4.4415221 1.953392 0.5910663 12
4.4763021 1.967756 0.42444846 8
4.4737873 1.9657187 0.25409105 10
4.4841223 1.9693264 0.084818684 11
1.7204509 0.7537933 -0.49305049 3
1.9316757 0.84593683 -0.47802129 2
2.2697568 0.99352026 -0.47373492 2
2.7360904 1.1970754 -0.46695724 2
3.4861937 1.5245305 -0.46249467 2
4.5762582 2.0002699 -0.43360049 4
4.4962373 1.9643584 -0.25428879 12
4.4974141 1.9639379 -0.084144048 8
4.4616299 1.9473845 1.2932522 11
4.4604511 1.9459432 1.1137898 8
4.4667301 1.9477546 0.93889046 9
4.5034618 1.9628366 0.77115333 11
4.4801617 1.9517508 0.59533167 12
4.515111 1.9660387 0.42749891 8
4.51267 1.9640387 0.25592282 12
4.5230594 1.9676217 0.085429527 11
1.7230717 0.74778324 -0.49305049 3
1.9346167 0.83918887 -0.47802129 2
2.2732108 0.98559129 -0.47373492 2
2.7447834 1.1894809 -0.46773943 2
3.496048 1.5143248 -0.46310404 2
4.6152086 1.9981363 -0.43665093 6
4.5351443 1.9625329 -0.25611442 12
4.5363607 1.9621193 -0.084748782 9
4.4949999 1.9432982 1.3010117 11
4.4985228 1.9438895 1.1216571 8
4.505044 1.9457743 0.94556284 8
4.5420251 1.9608063 0.77662247 11
4.5142875 1.9478972 0.59898782 12
4.5539632 1.9640743 0.43054938 10
4.5515947 1.9621108 0.25775456 11
4.557447 1.9636904 0.085953094 11
