# .PCD v0.7 - Point Cloud Data file format
VERSION 0.7
FIELDS x y z intensity
SIZE 4 4 4 4
TYPE F F F F
COUNT 1 1 1 1
WIDTH 1421
HEIGHT 1
VIEWPOINT 0 0 0 1 0 0 0
POINTS 1421
DATA ascii
0.94333565 2.1247525 -0.36214611 13
0.95230073 2.1439364 -0.28334656 13
0.94398308 2.1242113 -0.20002273 13
0.93851846 2.1109214 -0.11866809 15
0.94000757 2.113277 -0.039307538 12
0.93063962 2.0912337 0.60265553 9
0.93503839 2.100131 0.52149189 9
0.93426126 2.0974007 0.43846661 9
0.93828595 2.1054471 0.35862142 10
0.93306339 2.0927455 0.2766434 10
0.94897735 2.1274405 0.20045821 13
0.9414565 2.1095898 0.11906429 13
0.93887812 2.1028264 0.039529696 14
0.77714616 1.7365193 -0.49952096 3
0.88166213 1.9691366 -0.48926884 4
0.95671093 2.1357539 -0.44704565 14
0.9527663 2.1259534 -0.36292824 13
0.96180892 2.1451273 -0.28395587 14
0.95139223 2.1209033 -0.20002273 13
0.94588119 2.1076324 -0.11866809 15
0.94942629 2.1145439 -0.039393932 13
0.93793374 2.0879724 0.60265553 9
0.94436067 2.1012983 0.52261579 9
0.94358975 2.0986032 0.43941984 9
0.94765574 2.1066632 0.35940275 10
0.94036269 2.0894759 0.2766434 10
0.95639771 2.1241148 0.20045821 13
0.95086533 2.1108434 0.11932597 13
0.9482668 2.1040943 0.039616961 14
0.78320301 1.733796 -0.49952096 3
0.88853031 1.966047 -0.48926884 4
0.96618247 2.1368737 -0.44799879 14
0.96018147 2.1226146 -0.36292824 13
0.9713372 2.1462784 -0.28456524 14
0.96084422 2.1221068 -0.20045851 13
0.95529276 2.1088662 -0.11892891 16
0.95680165 2.1112168 -0.039393932 13
0.94721085 2.0890846 0.60394883 9
0.95370239 2.1024258 0.5237397 9
0.95090944 2.0952966 0.43941984 9
0.95704532 2.1078391 0.36018407 10
0.9497031 2.090699 0.27725273 10
0.96586734 2.125298 0.200894 13
0.95822775 2.1075115 0.11932597 13
0.95560569 2.1007712 0.039616961 15
0.78925037 1.7310516 -0.49952096 3
0.89538771 1.9629335 -0.48926884 4
0.97363561 2.1334882 -0.44799879 15
0.96963602 2.1237423 -0.36371043 13
0.97882324 2.1428747 -0.28456524 14
0.96824592 2.1187398 -0.20045851 13
0.96472448 2.1100597 -0.11918971 15
0.96624482 2.1124101 -0.039480317 13
0.9544974 2.0857656 0.60394883 9
0.96103543 2.0990839 0.5237397 8
0.96026158 2.096427 0.440373 9
0.96439719 2.1044858 0.36018407 10
0.95699525 2.0873711 0.27725273 10
0.97328007 2.1219137 0.200894 13
0.96766096 2.1086917 0.11958765 13
0.96501875 2.1019659 0.039704222 14
0.79326916 1.7238988 -0.49822688 3
0.90223414 1.9597961 -0.48926884 4
0.98313034 2.1345346 -0.44895202 14
0.97704333 2.1203446 -0.36371043 12
0.98837495 2.1439517 -0.28517458 14
0.97772193 2.1198704 -0.20089431 13
0.97208405 2.1066794 -0.11918971 15
0.97570789 2.1135633 -0.039566711 13
0.96379727 2.0868056 0.60524201 9
0.97040045 2.1001396 0.5248636 9
0.96757358 2.0930622 0.440373 9
0.97381037 2.1055887 0.36096537 11
0.96635979 2.0885222 0.2778621 9
0.98277342 2.1230233 0.20132977 13
0.97711426 2.1098323 0.11984934 13
0.97445792 2.1031179 0.039791483 14
0.79958224 1.7209797 -0.49822688 3
0.90941113 1.956476 -0.48926884 4
0.99094725 2.1309168 -0.44895202 14
0.98689139 2.1212268 -0.3644926 13
0.99622631 2.1403148 -0.28517458 14
0.98758781 2.1207881 -0.20133008 13
0.98190755 2.1076286 -0.11945052 16
0.98344797 2.109973 -0.039566711 13
0.97143936 2.0832591 0.60524201 9
0.97809136 2.0965688 0.5248636 9
0.97731459 2.0939498 0.4413262 9
0.98152113 2.1020055 0.36096537 10
0.97610843 2.0894623 0.27847141 10
0.99054801 2.1194069 0.20132977 13
0.98484057 2.1062367 0.11984934 14
0.98427176 2.104063 0.039878745 15
0.80353445 1.7138053 -0.49693277 3
0.91623491 1.9532897 -0.48926884 4
1.0004647 2.1318882 -0.44990519 14
0.99428976 2.117769 -0.3644926 12
1.0058013 2.1413162 -0.28578395 14
0.99498475 2.1173277 -0.20133008 13
0.98925853 2.1041882 -0.11945052 15
0.99293494 2.1110511 -0.0396531 13
0.98076195 2.0842259 0.60653532 9
0.98747885 2.0975497 0.52598751 9
0.98461783 2.0905256 0.4413262 9
0.99095774 2.103034 0.3617467 11
0.98551232 2.0905313 0.27908078 9
1.0000648 2.1204417 0.20176555 12
0.99431735 2.1073017 0.12011101 13
0.99375057 2.1051326 0.03996601 14
0.80921316 1.7111312 -0.49693277 3
0.92444974 1.954806 -0.49039361 4
1.0071572 2.1287346 -0.44990519 13
1.0030509 2.1190989 -0.36527479 13
1.0146474 2.1426308 -0.28639328 14
1.0037643 2.1186929 -0.20176587 13
0.99800277 2.105582 -0.11971132 15
0.99956208 2.1079211 -0.0396531 12
0.98730487 2.0811343 0.60653532 9
0.99615264 2.0988386 0.52711141 9
0.99328578 2.0918555 0.44227937 9
0.99967867 2.1043711 0.362528 10
0.99207503 2.087425 0.27908078 10
1.0088603 2.1217878 0.20220132 12
1.0030776 2.1086767 0.1203727 13
1.0025014 2.1065173 0.040053267 14
0.81488305 1.7084384 -0.49693277 3
0.93126762 1.9515672 -0.49039361 4
1.0166965 2.1296356 -0.45085838 13
1.0104418 2.1155846 -0.36527479 13
1.0221204 2.139076 -0.28639328 14
1.0111537 2.1151762 -0.20176587 13
1.0075009 2.10659 -0.11997214 15
1.0090718 2.1089292 -0.03973949 13
0.99664873 2.0820315 0.60782856 8
1.0055773 2.0997427 0.52823532 9
1.0027026 2.0928025 0.44323257 9
1.0070183 2.1008687 0.362528 10
1.0015013 2.088424 0.27969012 9
1.0184153 2.1227441 0.20263711 13
1.0104322 2.1051624 0.1203727 13
1.0120125 2.1075118 0.040140532 14
0.82113934 1.7054403 -0.49693277 4
0.93841428 1.9481407 -0.49039361 4
1.0244951 2.1258948 -0.45085838 13
1.0203338 2.1163154 -0.36605695 12
1.0321097 2.1397855 -0.28700262 13
1.0210642 2.1159418 -0.20220163 13
1.017386 2.1073799 -0.12023295 16
1.0189689 2.1097181 -0.039825883 12
1.0063745 2.0827138 0.6091218 9
1.0132664 2.0960429 0.52823532 9
1.0125033 2.0935318 0.44418573 8
1.0168626 2.1016097 0.36330932 10
1.0113113 2.0892062 0.28029948 9
1.0261887 2.1189973 0.20263711 13
1.0203183 2.1059384 0.12063438 13
1.0197301 2.1037884 0.040140532 14
0.8270874 1.7025635 -0.49693277 3
0.94520885 1.9448533 -0.49039361 4
1.0340557 2.1267197 -0.45181155 13
1.0277148 2.1127408 -0.36605695 13
1.0395726 2.1361697 -0.28700262 13
1.0284439 2.1123648 -0.20220163 13
1.0247359 2.1038158 -0.12023295 15
1.026327 2.1061485 -0.039825883 13
1.0136384 2.0791881 0.6091218 9
1.0227126 2.0968723 0.52935922 9
1.019805 2.0899847 0.44418573 8
1.0263588 2.1024852 0.36409062 10
1.0185978 2.0856633 0.28029948 9
1.0357656 2.1198776 0.20307288 13
1.029856 2.1068499 0.12089606 13
1.0292637 2.1047072 0.040227797 14
0.83332211 1.6995206 -0.49693277 4
0.95447624 1.9457495 -0.49151835 4
1.0418437 2.1229155 -0.45181155 14
1.0376281 2.1133928 -0.36683914 12
1.0473951 2.1323452 -0.28700262 14
1.0383761 2.1130517 -0.20263742 13
1.0346428 2.1045268 -0.12049376 15
1.0362459 2.1068585 -0.039912272 12
1.0233845 2.0797925 0.61041504 8
1.0303912 2.0931096 0.52935922 8
1.0296268 2.0906363 0.44513896 9
1.034058 2.0987091 0.36409062 10
1.0284296 2.0863674 0.28090885 9
1.0435284 2.1160669 0.20307288 13
1.0375711 2.1030612 0.12089606 13
1.036971 2.1009207 0.040227797 14
0.83924943 1.6966015 -0.49693277 4
0.96126235 1.9424059 -0.49151835 4
1.0514256 2.1236646 -0.45276478 14
1.0471907 2.1141832 -0.36762127 13
1.054832 2.1286762 -0.28700262 13
1.047958 2.1138766 -0.20307319 13
1.0442013 2.1053755 -0.12075458 15
1.043594 2.1032286 -0.039912272 12
1.0327855 2.0805337 0.61170834 8
1.0376912 2.0895002 0.52935922 9
1.0391022 2.0914252 0.44609213 8
1.0435756 2.0995092 0.36487195 10
1.0379158 2.0872085 0.28151816 9
1.0531272 2.1168711 0.20350866 12
1.0471306 2.1038966 0.12115774 13
1.0465323 2.1017601 0.040315058 14
0.84487098 1.693809 -0.49693277 3
0.96953452 1.9437363 -0.49264312 4
1.0602835 2.1247427 -0.45371795 14
1.0538274 2.1108828 -0.36762127 12
1.0637317 2.1297915 -0.28761196 13
1.0568202 2.1150298 -0.20350897 13
1.053043 2.1065509 -0.12101538 15
1.0524324 2.1044111 -0.039998662 13
1.0414778 2.0815983 0.61300153 9
1.0464311 2.0905867 0.53048313 9
1.0456674 2.0881503 0.44609213 8
1.0523784 2.1006358 0.36565322 10
1.0466914 2.0883739 0.28212753 9
1.0597724 2.1135521 0.20350866 12
1.0559738 2.1050596 0.12141941 13
1.0531241 2.0984647 0.040315058 14
0.85048318 1.6909981 -0.49693277 3
0.97631347 1.9403402 -0.49264312 3
1.0676938 2.1210287 -0.45371795 14
1.0634106 2.1116023 -0.36840346 12
1.0711596 2.1260653 -0.28761196 14
1.0664384 2.1157756 -0.20394474 12
1.0603899 2.1028624 -0.12101538 15
1.0620234 2.1051879 -0.040085051 12
1.0487376 2.0779502 0.61300153 9
1.0537223 2.086921 0.53048313 9
1.0551631 2.0888686 0.44704533 8
1.0597045 2.0969496 0.36565322 10
1.0539749 2.0847077 0.28212753 9
1.0693916 2.1142845 0.20394443 12
1.0633154 2.1013608 0.12141941 13
1.0627007 2.0992365 0.040402319 14
0.85696989 1.6877199 -0.49693277 3
0.98375666 1.9365771 -0.49264312 3
1.078054 2.1212893 -0.45467114 15
1.0715108 2.1075034 -0.36840346 12
1.081565 2.1263602 -0.28822133 13
1.0768136 2.1161046 -0.20438054 13
1.0707217 2.103225 -0.12127619 14
1.0723679 2.1055493 -0.040171444 12
1.0589013 2.0782115 0.61429483 8
1.0639404 2.0872004 0.53160703 9
1.0654057 2.089174 0.44799849 8
1.0699928 2.0972643 0.36643454 10
1.0642278 2.0850656 0.28273687 9
1.0797672 2.1145992 0.20438023 12
1.0736477 2.1017089 0.1216811 13
1.0730283 2.099592 0.04048958 14
0.86285585 1.6847184 -0.49693277 3
0.99051058 1.9331313 -0.49264312 4
1.0876909 2.121881 -0.45562431 15
1.0811143 2.1081445 -0.36918563 12
1.0912462 2.1269872 -0.28883067 13
1.0841936 2.1123331 -0.20438054 12
1.0803376 2.1039166 -0.12153699 15
1.0797111 2.1017933 -0.040171444 12
1.0683569 2.0787981 0.61558807 9
1.0734472 2.0878067 0.53273094 8
1.0726918 2.0854423 0.44799849 8
1.0773071 2.0935166 0.36643454 10
1.0737712 2.0857506 0.28334624 9
1.0894226 2.1152453 0.20481598 12
1.0809774 2.0979486 0.1216811 12
1.0803567 2.0958304 0.04048958 14
0.86873138 1.6816961 -0.49693277 3
0.99725246 1.929662 -0.49264312 4
1.0973454 2.1224313 -0.45657751 16
1.0884664 2.104358 -0.36918563 13
1.100945 2.127573 -0.28944001 13
1.0938503 2.1129587 -0.20481631 13
1.0876751 2.1001327 -0.12153699 14
1.0893408 2.1024501 -0.04025783 12
1.0756067 2.0750561 0.61558807 9
1.0807285 2.0840471 0.53273094 9
1.0822253 2.0860424 0.44895169 8
1.0868832 2.0941265 0.36721584 10
1.0810454 2.0819898 0.28334624 9
1.0967996 2.1114297 0.20481598 12
1.0905967 2.098593 0.12194277 13
1.0899662 2.0964854 0.040576845 14
0.8745963 1.6786535 -0.49693277 3
1.0017302 1.9218488 -0.49151835 4
1.1070168 2.1229401 -0.45753068 16
1.0980896 2.1049242 -0.36996782 13
1.1106609 2.1281164 -0.29004934 14
1.1035246 2.113543 -0.2052521 13
1.0973111 2.1007488 -0.12179781 15
1.0989885 2.1030657 -0.040344223 12
1.0850812 2.0755694 0.61688131 9
1.0902547 2.084579 0.53385484 9
1.0895004 2.082252 0.44895169 8
1.0964769 2.0946953 0.36799717 9
1.0906085 2.0825996 0.28395554 9
1.1064748 2.1120005 0.20525178 12
1.1002334 2.099196 0.12220446 13
1.0995991 2.0970955 0.040664103 14
0.88269711 1.6798657 -0.49822688 3
1.0084326 1.9183404 -0.49151835 4
1.1144204 2.1190629 -0.45753068 16
1.1077299 2.1054487 -0.37074998 12
1.1203942 2.128618 -0.29065871 13
1.1108955 2.1096783 -0.2052521 13
1.1069647 2.1013234 -0.12205861 15
1.106323 2.0992167 -0.040344223 12
1.0945721 2.0760415 0.61817455 8
1.0997976 2.0850699 0.53497875 9
1.0990527 2.082777 0.44990486 8
1.1037821 2.0908554 0.36799717 9
1.1001891 2.0831685 0.28456491 9
1.1138402 2.1081252 0.20525178 12
1.1098875 2.0997567 0.12246613 13
1.1092497 2.0976639 0.040751368 14
0.88855553 1.6767743 -0.49822688 3
1.0151227 1.9148086 -0.49151835 4
1.1241103 2.1194961 -0.4584839 15
1.1173872 2.1059315 -0.37153217 12
1.1301445 2.1290777 -0.29126805 13
1.120589 2.1101868 -0.20568787 12
1.1166356 2.1018562 -0.12231942 15
1.11599 2.0997565 -0.040430613 12
1.1018122 2.0722079 0.61817455 8
1.1070691 2.0812182 0.53497875 9
1.1086222 2.083261 0.45085809 8
1.1133945 2.0913486 0.36877847 10
1.1074541 2.0793154 0.28456491 9
1.1235343 2.1086202 0.20568755 12
1.119559 2.100276 0.12272782 13
1.1165651 2.0937791 0.040751368 14
0.89440316 1.6736624 -0.49822688 3
1.0218005 1.9112535 -0.49151835 4
1.1315019 2.1155593 -0.4584839 15
1.1270612 2.1063726 -0.3723143 13
1.1399114 2.1294951 -0.29187742 13
1.1279482 2.1062622 -0.20568787 12
1.1263236 2.1023469 -0.12258023 15
1.1256745 2.1002548 -0.040517002 12
1.1113212 2.0726058 0.61946785 8
1.1166302 2.0816345 0.53610265 9
1.1182083 2.0837033 0.45181125 8
1.1230241 2.0918009 0.36955979 10
1.1170536 2.079809 0.28517425 9
1.130888 2.1046853 0.20568755 12
1.1292478 2.1007533 0.12298949 13
1.1262347 2.0942714 0.040838629 13
0.90023988 1.6705301 -0.49822688 3
1.0284657 1.9076751 -0.49151835 4
1.1412097 2.115917 -0.45943707 15
1.1367521 2.1067719 -0.3730965 12
1.1496952 2.1298699 -0.29248673 13
1.1376603 2.1066949 -0.20612365 13
1.1336553 2.0984025 -0.12258023 15
1.1353757 2.1007104 -0.040603392 12
1.1208464 2.0729625 0.62076104 8
1.1262076 2.0820093 0.53722656 8
1.1254749 2.0797875 0.45181125 8
1.1303189 2.087868 0.36955979 10
1.1243067 2.0758972 0.28517425 9
1.1406007 2.1051044 0.20612334 12
1.1365738 2.0967987 0.12298949 13
1.1359214 2.0947223 0.04092589 14
0.90375966 1.663134 -0.49693277 3
1.0351186 1.9040735 -0.49151835 4
1.1509337 2.1162324 -0.46039027 14
1.1464593 2.1071289 -0.37387866 12
1.1571229 2.1258438 -0.29248673 12
1.1473891 2.1070855 -0.20655942 12
1.1433618 2.0988173 -0.12284105 15
1.1427017 2.0967343 -0.040603392 12
1.1303875 2.073278 0.62205434 8
1.1358013 2.0823429 0.53835046 8
1.135079 2.0801547 0.45276445 8
1.1399662 2.0882444 0.37034109 10
1.1339248 2.0763156 0.28578362 9
1.1503302 2.1054814 0.20655911 12
1.1462809 2.0972002 0.12325118 13
1.1456248 2.0951307 0.041013151 14
0.90723878 1.6557336 -0.4956387 3
1.0417587 1.9004487 -0.49151835 4
1.1583138 2.1122019 -0.46039027 14
1.1561831 2.107444 -0.37466085 12
1.1669242 2.1261425 -0.2930961 13
1.1547372 2.1030674 -0.20655942 13
1.1506811 2.0948136 -0.12284105 15
1.1524215 2.0971143 -0.040689785 12
1.1376177 2.0693195 0.62205434 8
1.1430632 2.0783656 0.53835046 8
1.1423331 2.0761797 0.45276445 8
1.1496301 2.0885787 0.37112242 9
1.1435593 2.0766916 0.28639293 9
1.160076 2.1058161 0.20699489 12
1.1535945 2.0931859 0.12325118 12
1.1529311 2.0911188 0.041013151 14
0.91301286 1.6525567 -0.4956387 3
1.0483861 1.8968006 -0.49151835 4
1.1680547 2.1124411 -0.46134344 13
1.1659226 2.1077163 -0.37544301 12
1.1767416 2.1263983 -0.29370543 13
1.1644839 2.1033816 -0.20699522 13
1.1604054 2.0951519 -0.12310185 15
1.1597347 2.0930789 -0.040689785 12
1.1471757 2.0695603 0.62334752 8
1.1526737 2.0786233 0.53947437 8
1.1519544 2.0764718 0.45371762 8
1.1569136 2.0845532 0.37112242 10
1.1508013 2.0726874 0.28639293 8
1.1698382 2.106108 0.20743066 12
1.1633193 2.0935109 0.12351285 12
1.1626526 2.0914512 0.041100416 14
0.91877574 1.6493596 -0.4956387 4
1.0550008 1.8931296 -0.49151835 4
1.1778116 2.112638 -0.46229663 12
1.1732728 2.1036336 -0.37544301 12
1.1841569 2.1222777 -0.29370543 13
1.1742465 2.1036532 -0.20743097 12
1.1677119 2.0910885 -0.12310185 14
1.169472 2.0933821 -0.040776171 12
1.1567491 2.0697594 0.62464082 8
1.1623001 2.0788395 0.54059827 8
1.1615918 2.0767217 0.45467082 8
1.1665946 2.0848119 0.37190372 10
1.1604536 2.072988 0.2870023 9
1.1796167 2.1063576 0.20786645 13
1.1730604 2.0937934 0.12377454 13
1.1723902 2.0917408 0.041187678 13
0.92452753 1.6461425 -0.4956387 4
1.0592164 1.8851883 -0.49039361 4
1.1851789 2.1085138 -0.46229663 12
1.1830293 2.1038301 -0.3762252 13
1.1939912 2.1224568 -0.2943148 13
1.1840256 2.1038826 -0.20786677 12
1.1774538 2.0913508 -0.12336266 14
1.1767721 2.089287 -0.040776171 12
1.1663377 2.0699167 0.62593406 8
1.1695495 2.0747697 0.54059827 8
1.1712447 2.0769298 0.45562398 8
1.1762915 2.0850284 0.37268505 10
1.1701218 2.0732467 0.28761163 9
1.1894109 2.1065643 0.20830221 12
1.180362 2.0896859 0.12377454 13
1.182144 2.0919881 0.041274939 13
0.93026799 1.6429052 -0.4956387 4
1.0657904 1.8814794 -0.49039361 3
1.1949515 2.108634 -0.4632498 11
1.1928014 2.1039836 -0.37700737 12
1.2038409 2.1225927 -0.29492414 13
1.1938202 2.1040685 -0.20830254 12
1.1847467 2.0872281 -0.12336266 15
1.1865265 2.089514 -0.040862564 12
1.1759418 2.0700326 0.62722731 8
1.1791919 2.0749106 0.54172218 8
1.1809134 2.0770957 0.45657721 8
1.1860039 2.0852022 0.37346631 9
1.179806 2.0734627 0.288221 9
1.1967568 2.1023998 0.20830221 12
1.1901201 2.0898919 0.12403621 12
1.1894393 2.0878489 0.041274939 13
0.93599713 1.639648 -0.4956387 4
1.0699354 1.8735168 -0.48926884 4
1.2023048 2.1044502 -0.4632498 9
1.202589 2.104095 -0.37778956 12
1.2137061 2.1226857 -0.29553348 13
1.2036307 2.1042123 -0.20873833 12
1.1945052 2.0874133 -0.12362346 14
1.1962967 2.0896978 -0.040948953 12
1.1855607 2.070106 0.62852055 8
1.1888496 2.0750091 0.54284608 9
1.1905973 2.077219 0.45753035 8
1.1957321 2.0853341 0.37424764 10
1.1895058 2.0736365 0.28883031 9
1.2065678 2.10253 0.208738 12
1.199894 2.0900552 0.12429789 12
1.1992098 2.0880194 0.0413622 14
0.94171488 1.6363708 -0.4956387 4
1.0764687 1.8697706 -0.48926884 4
1.2120932 2.1044941 -0.46420303 9
1.2123917 2.1041632 -0.37857169 12
1.2235866 2.1227357 -0.29614282 13
1.2134566 2.1043129 -0.2091741 12
1.2042795 2.0875566 -0.12388428 14
1.2060828 2.0898395 -0.041035343 12
1.1951944 2.070138 0.62981385 8
1.1985221 2.0750654 0.54396999 9
1.2002968 2.0773005 0.45848358 8
1.2030041 2.0811474 0.37424764 10
1.1992215 2.0737681 0.28943968 9
1.2163936 2.1026165 0.20917377 12
1.2096833 2.0901756 0.12455957 13
1.2089959 2.0881472 0.041449465 13
0.94499749 1.628896 -0.49434459 4
1.0805433 1.8617882 -0.48814404 4
1.2194318 2.1002502 -0.46420303 8
1.2222097 2.1041887 -0.37935388 13
1.2334824 2.1227427 -0.29675218 13
1.223298 2.1043706 -0.20960988 12
1.2140692 2.0876563 -0.12414508 14
1.2158843 2.0899379 -0.041121732 11
1.2048429 2.070128 0.63110709 8
1.2082098 2.0750797 0.54509389 8
1.2100109 2.0773389 0.45943674 8
1.2127477 2.0812023 0.37502894 9
1.2089522 2.0738566 0.29004902 9
1.2262352 2.1026607 0.20960957 12
1.2194881 2.0902531 0.12482125 13
1.2187976 2.088232 0.041536722 13
0.95067769 1.6255875 -0.49434459 4
1.0870357 1.858005 -0.48814404 4
1.2267557 2.0959809 -0.46420303 7
1.2295473 2.0999095 -0.37935388 12
1.2433928 2.1227064 -0.29736155 13
1.2306361 2.1000876 -0.20960988 12
1.2238743 2.0877135 -0.1244059 15
1.2257011 2.0899935 -0.041208126 12
1.2145056 2.0700753 0.63240033 8
1.217912 2.0750511 0.5462178 8
1.2197402 2.0773356 0.46038994 8
1.2225065 2.0812149 0.37581027 9
1.2186981 2.0739028 0.29065838 9
1.2360915 2.1026614 0.21004534 12
1.2293084 2.0902877 0.12508292 13
1.2260795 2.0839648 0.041536722 14
0.95634633 1.622259 -0.49434459 3
1.0935147 1.8541992 -0.48814404 4
1.2315704 2.0874581 -0.4632498 6
1.2393799 2.0998576 -0.38013604 12
1.2533181 2.1226265 -0.29797086 13
1.2404926 2.1000679 -0.21004565 12
1.2336946 2.0877271 -0.1246667 15
1.2355332 2.0900054 -0.041294511 12
1.221724 2.0658233 0.63240033 8
1.2276285 2.0749803 0.5473417 9
1.2294837 2.0772889 0.46134311 8
1.2322798 2.0811841 0.37659156 9
1.2284594 2.0739059 0.29126769 9
1.245963 2.1026189 0.21048112 11
1.2365973 2.0859838 0.12508292 12
1.2358966 2.0839722 0.041623987 13
0.96200317 1.6189109 -0.49434459 3
1.0999802 1.8503708 -0.48814404 4
1.2413583 2.0873654 -0.46420303 6
1.2492273 2.0997629 -0.38091823 12
1.2632581 2.1225033 -0.29858023 13
1.2503638 2.1000047 -0.21048145 12
1.2435299 2.087698 -0.12492751 14
1.2428212 2.08568 -0.041294511 11
1.2314008 2.0656948 0.63369364 8
1.2373596 2.0748672 0.54846561 8
1.2392422 2.0771997 0.46229634 8
1.2420679 2.0811107 0.37737289 9
1.2382352 2.0738661 0.29187706 9
1.2558491 2.1025331 0.21091689 12
1.2464324 2.0859408 0.12534462 12
1.2457283 2.0839365 0.041711248 13
0.96764833 1.615543 -0.49434459 3
1.1089367 1.8506989 -0.48926884 4
1.24359 2.0745997 -0.46229663 5
1.259089 2.0996249 -0.38170043 12
1.2732121 2.1223361 -0.29918957 13
1.2602497 2.0998981 -0.2109172 12
1.2533798 2.0876253 -0.12518832 14
1.252668 2.0856149 -0.041380905 12
1.2410915 2.0655236 0.63498682 8
1.2471046 2.0747111 0.54958951 8
1.2490149 2.0770676 0.46324947 8
1.2518706 2.0809944 0.37815419 10
1.2480257 2.0737834 0.2924864 8
1.2657498 2.1024039 0.21135268 12
1.2562821 2.0858543 0.12560628 13
1.2555751 2.0838573 0.04179851 14
0.9732818 1.6121554 -0.49434459 3
1.1153901 1.8468167 -0.48926884 3
1.2736682 2.1080556 -0.47087535 8
1.268965 2.0994434 -0.38248259 12
1.2831808 2.1221259 -0.29979894 13
1.2701502 2.0997481 -0.211353 12
1.2632444 2.0875094 -0.12544914 14
1.2625296 2.085506 -0.041467294 12
1.250796 2.0653102 0.63628012 8
1.2568637 2.074512 0.55071342 8
1.2562575 2.072695 0.46324947 7
1.2616876 2.0808346 0.37893552 10
1.2578309 2.0736575 0.29309577 9
1.2756647 2.102231 0.21178845 12
1.2661467 2.0857248 0.12586798 12
1.2654363 2.0837348 0.041885771 13
0.97862256 1.6089191 -0.49434459 3
1.1211866 1.8433036 -0.48926884 4
1.3006958 2.137588 -0.47850087 7
1.2781221 2.0996647 -0.38326478 11
1.2924224 2.1223228 -0.30040827 13
1.2793317 2.1000011 -0.21178877 12
1.2723949 2.0877941 -0.12570994 14
1.2716775 2.0857978 -0.041553684 12
1.259793 2.0654936 0.63757336 9
1.2659125 2.0747123 0.55183733 8
1.2653202 2.0729277 0.4642027 7
1.2707922 2.0810754 0.37971681 10
1.2643392 2.0696957 0.29309577 9
1.2822628 2.098213 0.21178845 12
1.2752974 2.0859969 0.12612964 12
1.2745849 2.0840142 0.041973036 13
0.98395258 1.605665 -0.49434459 4
1.127614 1.8393786 -0.48926884 4
1.3055834 2.1288507 -0.47754765 7
1.288026 2.0993998 -0.38404691 12
1.3024188 2.1220284 -0.30101761 13
1.2892609 2.0997677 -0.21222456 12
1.2822883 2.0875947 -0.12597075 15
1.2841852 2.089865 -0.041726466 12
1.2695247 2.0651987 0.6388666 8
1.275699 2.0744309 0.55296123 8
1.2751204 2.0726793 0.4651559 8
1.2806374 2.080833 0.38049814 10
1.2741579 2.0694954 0.29370511 9
1.2921914 2.0979655 0.21222423 12
1.2851903 2.0857835 0.12639134 12
1.2844748 2.0838079 0.042060297 13
0.99011058 1.6018751 -0.49434459 4
1.1346684 1.8350353 -0.48926884 4
1.3189121 2.1321704 -0.47945404 7
1.2986764 2.0986383 -0.3848291 12
1.3131694 2.1212311 -0.30162695 13
1.2973137 2.0948017 -0.21222456 12
1.2929244 2.0869002 -0.12623155 15
1.2948339 2.0891678 -0.041812852 12
1.2799902 2.0644133 0.64015985 8
1.2862228 2.0736573 0.55408514 8
1.2856573 2.071938 0.46610907 8
1.2912223 2.0800962 0.38127947 9
1.2847129 2.068804 0.29431444 9
1.3028659 2.0972195 0.21266001 12
1.2931896 2.0808332 0.12639134 12
1.2951061 2.083106 0.042147558 13
0.99569613 1.5984092 -0.49434459 4
1.1410669 1.8310634 -0.48926884 4
1.3263468 2.1275537 -0.47945404 7
1.3059942 2.0940921 -0.3848291 12
1.3231927 2.1208448 -0.30223632 13
1.3072554 2.094486 -0.21266034 12
1.3028456 2.0866098 -0.12649237 14
1.304767 2.0888755 -0.041899245 12
1.2897481 2.064029 0.64145315 8
1.296036 2.0732865 0.55520904 8
1.2954843 2.0715995 0.46706229 8
1.3010947 2.0797632 0.38206074 9
1.2919265 2.064307 0.29431444 8
1.3154651 2.1011024 0.21353158 11
1.3030956 2.080538 0.126653 12
1.3050296 2.0828054 0.042234819 13
1.0012696 1.5949239 -0.49434459 3
1.1474515 1.8270692 -0.48926884 3
1.3337653 2.1229107 -0.47945404 6
1.3159237 2.0937018 -0.38561127 12
1.3305879 2.1162133 -0.30223632 13
1.3172106 2.0941262 -0.21309611 12
1.3127806 2.0862753 -0.12675317 14
1.3147138 2.0885389 -0.041985635 12
1.2995187 2.0636013 0.64274633 8
1.3058621 2.0728719 0.55633295 9
1.3053247 2.0712171 0.46801546 8
1.3109803 2.0793865 0.38284209 10
1.3017719 2.0639822 0.29492378 8
1.3227912 2.0964978 0.21353158 12
1.3130153 2.0801992 0.12691469 12
1.3149557 2.0824678 0.042322084 13
1.0068308 1.591419 -0.49434459 4
1.1538223 1.8230526 -0.48926884 3
1.3411674 2.1182423 -0.47945404 6
1.3258667 2.0932677 -0.38639346 11
1.340623 2.1157477 -0.30284566 13
1.3245124 2.0895154 -0.21309611 12
1.3227291 2.085897 -0.12701398 14
1.3219962 2.0839369 -0.041985635 12
1.309302 2.0631304 0.64403963 8
1.3157011 2.0724142 0.55745685 8
1.315178 2.0707915 0.46896866 8
1.320879 2.0789659 0.38362336 9
1.3116306 2.0636139 0.29553315 9
1.3327738 2.0960708 0.21396735 12
1.3229483 2.0798163 0.12717636 12
1.3249006 2.082083 0.042409342 13
1.0123798 1.5878948 -0.49434459 3
1.1601788 1.8190141 -0.48926884 3
1.3485533 2.1135478 -0.47945404 6
1.3358223 2.0927894 -0.38717562 12
1.3506711 2.115238 -0.30345502 13
1.3344795 2.0890772 -0.21353191 12
1.332691 2.0854747 -0.1272748 14
1.3319552 2.0835218 -0.042072024 12
1.3190979 2.0626166 0.64533287 8
1.3255528 2.071913 0.55858076 8
1.3223984 2.0661881 0.46896866 8
1.3307909 2.0785017 0.38440469 8
1.3215026 2.0632019 0.29614249 9
1.3427697 2.0955997 0.21440314 12
1.3355894 2.0835931 0.12769973 12
1.334859 2.0816538 0.042496607 13
1.0179164 1.5843513 -0.49434459 3
1.1665213 1.8149532 -0.48926884 3
1.3532683 2.1046989 -0.47850087 6
1.3457911 2.092267 -0.38795781 12
1.3607316 2.1146836 -0.30406433 13
1.3444597 2.0885942 -0.21396768 12
1.3426658 2.0850081 -0.1275356 14
1.3419274 2.0830626 -0.042158417 12
1.3289062 2.0620594 0.64662611 8
1.335417 2.0713682 0.55970466 8
1.332263 2.0656841 0.46992183 8
1.3407155 2.0779934 0.38518599 9
1.3313879 2.062746 0.29675183 8
1.3527783 2.0950842 0.21483891 11
1.3455637 2.0831127 0.12796141 12
1.3448304 2.0811806 0.042583872 13
1.0234406 1.5807885 -0.49434459 3
1.1728497 1.8108702 -0.48926884 3
1.3606067 2.0999622 -0.47850087 6
1.3557724 2.0917008 -0.38873994 12
1.3708051 2.114085 -0.3046737 13
1.3571632 2.0922463 -0.21483923 11
1.3526537 2.0844972 -0.12779641 14
1.3519123 2.0825586 -0.042244807 12
1.3387264 2.0614583 0.64791936 8
1.3452935 2.0707793 0.56082857 8
1.3421402 2.0651367 0.47087502 8
1.3506528 2.0774412 0.38596731 9
1.3412859 2.0622463 0.2973612 8
1.3627999 2.0945246 0.21527469 12
1.3555508 2.082588 0.12822309 12
1.3548149 2.0806627 0.042671129 12
1.0289522 1.5772064 -0.49434459 4
1.1818265 1.8108453 -0.49039361 3
1.3679287 2.0952001 -0.47850087 6
1.3657659 2.0910902 -0.38952214 11
1.3808906 2.1134415 -0.30528304 12
1.3671836 2.0916655 -0.21527502 11
1.3626543 2.0839419 -0.12805721 14
1.3619102 2.0820107 -0.0423312 12
1.3485589 2.0608146 0.64921266 7
1.3551822 2.0701473 0.56195247 8
1.3520297 2.0645452 0.47182819 8
1.3578962 2.0727141 0.38596731 9
1.3511965 2.0617025 0.29797053 8
1.3728337 2.0939202 0.21571046 12
1.3655504 2.0820186 0.12848477 12
1.3648119 2.080101 0.042758394 13
1.0344515 1.5736051 -0.49434459 4
1.1881403 1.8067088 -0.49039361 3
1.375234 2.0904124 -0.47850087 5
1.3784866 2.0945604 -0.39108649 11
1.3909886 2.1127534 -0.30589241 12
1.3772162 2.0910401 -0.21571079 12
1.3726676 2.0833421 -0.12831803 14
1.3719208 2.081418 -0.042417586 12
1.358403 2.0601265 0.65050584 8
1.3650827 2.0694711 0.56307638 8
1.359228 2.059813 0.47182819 8
1.3678437 2.072083 0.38674861 9
1.36112 2.0611148 0.2985799 9
1.3828802 2.0932713 0.21614625 12
1.3755628 2.0814049 0.12874645 12
1.3748217 2.0794942 0.042845655 13
1.0399381 1.5699844 -0.49434459 4
1.1944395 1.8025504 -0.49039361 3
1.3825225 2.0855992 -0.47850087 5
1.388519 2.0938513 -0.39186865 12
1.4010985 2.1120207 -0.30650172 12
1.3872612 2.0903702 -0.21614657 12
1.3826931 2.0826979 -0.12857884 14
1.3847097 2.0849454 -0.042590369 12
1.3682586 2.0593953 0.65179914 7
1.3749951 2.0687511 0.56420028 8
1.3691275 2.0591435 0.47278142 8
1.3778034 2.0714076 0.38752994 9
1.3710552 2.0604825 0.29918921 8
1.3929386 2.0925775 0.21658202 11
1.3855873 2.0807467 0.12900813 12
1.3848438 2.0788434 0.04293292 13
1.0454121 1.5663449 -0.49434459 4
1.2007244 1.79837 -0.49039361 3
1.3897941 2.0807607 -0.47850087 5
1.3985631 2.0930982 -0.39265084 11
1.4112201 2.1112428 -0.30711108 12
1.400087 2.0937963 -0.21701814 12
1.392731 2.0820088 -0.12883966 14
1.3947595 2.0842543 -0.042676758 12
1.3781257 2.0586202 0.65309232 8
1.3849188 2.0679867 0.56532419 8
1.3790388 2.0584292 0.47373459 8
1.3877752 2.070688 0.38831124 9
1.3810031 2.0598061 0.29979858 8
1.4030092 2.0918393 0.2170178 11
1.3956242 2.0800438 0.12926981 12
1.3948778 2.0781474 0.043020178 14
1.0508733 1.5626862 -0.49434459 4
1.2069945 1.7941678 -0.49039361 3
1.397049 2.0758965 -0.47850087 4
1.4086188 2.0922999 -0.39343297 12
1.4213533 2.1104202 -0.30772042 12
1.4101702 2.0930271 -0.21745391 12
1.4055715 2.0854158 -0.12936127 14
1.4048212 2.0835178 -0.042763148 11
1.3880041 2.0578012 0.65438563 8
1.3921291 2.0631399 0.56532419 8
1.3889618 2.0576713 0.47468778 8
1.3977586 2.0699241 0.38909256 9
1.3909627 2.0590851 0.30040792 8
1.4103025 2.0869291 0.2170178 11
1.4056728 2.0792956 0.12953149 12
1.404924 2.0774069 0.043107443 13
1.0563216 1.5590084 -0.49434459 4
1.2105165 1.7859107 -0.48926884 3
1.4042866 2.0710073 -0.47850087 4
1.4186862 2.0914574 -0.39421517 11
1.4314981 2.1095526 -0.30832979 13
1.4202653 2.0922129 -0.2178897 12
1.4156475 2.0846274 -0.12962207 14
1.4120854 2.0786014 -0.042763148 12
1.3978935 2.0569384 0.65567887 7
1.4020616 2.0622971 0.56644809 8
1.4016565 2.0609276 0.47659415 8
1.4077533 2.0691154 0.38987383 9
1.4009343 2.0583203 0.30101728 8
1.4203819 2.0861108 0.21745357 11
1.4157331 2.0785034 0.12979317 12
1.414982 2.0766213 0.043194704 13
1.0644802 1.5593005 -0.4956387 4
1.216743 1.7816743 -0.48926884 3
1.414276 2.0701458 -0.47945404 4
1.4287645 2.0905697 -0.39499733 12
1.4416538 2.1086392 -0.30893913 12
1.4303716 2.0913539 -0.21832547 12
1.4257351 2.0837941 -0.12988289 14
1.4221563 2.0777853 -0.042849541 12
1.4077938 2.0560315 0.65697211 7
1.4120051 2.06141 0.567572 8
1.4116163 2.0600712 0.47754732 8
1.4177598 2.0682626 0.39065516 9
1.410917 2.0575101 0.30162659 9
1.430473 2.0852475 0.21788937 11
1.4258051 2.0776658 0.13005485 11
1.4250517 2.0757911 0.043281965 13
1.0699167 1.5555753 -0.4956387 4
1.2229548 1.7774163 -0.48926884 3
1.4187107 2.0611532 -0.47850087 4
1.4388537 2.0896368 -0.39577952 11
1.4518209 2.1076813 -0.30954847 12
1.4404895 2.0904498 -0.21876125 12
1.4358342 2.0829158 -0.13014369 14
1.4322383 2.0769236 -0.042935926 11
1.4204473 2.059056 0.65955865 7
1.4219594 2.0604784 0.5686959 8
1.4215875 2.0591705 0.47850055 7
1.4277771 2.0673645 0.39143646 9
1.4209114 2.0566556 0.30223596 8
1.4405749 2.0843389 0.21832512 11
1.4358885 2.0767832 0.13031653 12
1.4351325 2.0749156 0.043369226 13
1.0725893 1.5478615 -0.49434459 4
1.2291517 1.7731366 -0.48926884 3
1.4258968 2.0561883 -0.47850087 5
1.4489541 2.0886593 -0.39656168 12
1.4619987 2.1066778 -0.31015781 12
1.4506183 2.0895004 -0.21919702 12
1.4459444 2.0819921 -0.1304045 14
1.4423319 2.0760171 -0.04302232 11
1.4331388 2.0620172 0.66214514 7
1.4319242 2.0595026 0.56981981 8
1.4343719 2.0622547 0.48040691 8
1.4378055 2.066422 0.39221779 9
1.4309171 2.0557563 0.3028453 8
1.4535344 2.0874729 0.21919669 11
1.4459831 2.0758553 0.1305782 11
1.4452249 2.0739951 0.043456491 13
1.0779859 1.5441079 -0.49434459 4
1.2353337 1.7688352 -0.48926884 3
1.4330655 2.0511987 -0.47850087 4
1.4590652 2.0876367 -0.39734387 11
1.4693434 2.1015615 -0.31015781 12
1.4607581 2.0885057 -0.21963282 12
1.4560655 2.0810232 -0.1306653 14
1.4553032 2.0791612 -0.043195099 12
1.4458686 2.0649149 0.66473162 7
1.4418999 2.0584822 0.57094371 8
1.4443783 2.0612547 0.48136008 7
1.4506794 2.0694783 0.39378041 9
1.4409336 2.0548122 0.30345467 8
1.4636729 2.0864644 0.21963248 11
1.4560885 2.0748825 0.13083988 12
1.455328 2.0730293 0.043543749 13
1.0805907 1.5363852 -0.49305049 3
1.2415004 1.7645123 -0.48926884 3
1.4430419 2.0501976 -0.47945404 5
1.4691865 2.0865688 -0.39812601 11
1.4795282 2.100477 -0.31076717 13
1.4709083 2.0874655 -0.22006857 12
1.4633209 2.075928 -0.1306653 14
1.465433 2.0781541 -0.043281488 11
1.4586359 2.0677488 0.66731817 16
1.4546946 2.061398 0.57319152 7
1.4543955 2.0602105 0.48231328 8
1.4607433 2.0684359 0.39456171 9
1.4509609 2.0538232 0.30406398 9
1.4738218 2.0854101 0.22006825 12
1.4662049 2.0738645 0.13110156 12
1.4654422 2.0720181 0.043631013 13
1.0856797 1.5327935 -0.49305049 4
1.2470376 1.7606034 -0.48926884 3
1.4494758 2.0456541 -0.47945404 5
1.4785905 2.0859721 -0.3989082 11
1.4889902 2.0998669 -0.31137651 12
1.480341 2.0868969 -0.22050437 12
1.472725 2.075393 -0.13092612 14
1.4777422 2.0816932 -0.043454267 12
1.4707174 2.0710318 0.66990465 12
1.4639851 2.0607893 0.57431537 8
1.4637039 2.0596318 0.48326644 8
1.4700956 2.0678618 0.39534304 9
1.4602824 2.0532992 0.30467334 8
1.4832535 2.0848284 0.22050403 11
1.4756082 2.0733159 0.13136324 11
1.4748437 2.0714767 0.043718275 13
1.087952 1.5252529 -0.49175641 4
1.2503459 1.7522738 -0.48814404 3
1.4566075 2.0405819 -0.47945404 5
1.4887326 2.0848167 -0.39969036 12
1.4991958 2.0986948 -0.31198588 12
1.4905126 2.0857697 -0.22094014 12
1.4828641 2.0743012 -0.13118692 13
1.4879076 2.0805886 -0.04354066 11
1.4807482 2.0698137 0.67119795 12
1.4740051 2.0596285 0.57543933 8
1.4737415 2.058501 0.48421967 7
1.4801804 2.0667324 0.39612433 9
1.470331 2.0522232 0.30528268 8
1.4934235 2.0836864 0.2209398 12
1.4857457 2.0722103 0.13162492 12
1.4849794 2.0703783 0.04380554 13
1.0935351 1.5212551 -0.49175641 4
1.25676 1.7476794 -0.48814404 3
1.4640769 2.0352294 -0.47945404 5
1.4992485 2.0833547 -0.40047255 12
1.5126767 2.1012411 -0.31320456 12
1.5039688 2.0883763 -0.2218117 11
1.4933757 2.0729039 -0.13144773 14
1.4984462 2.0791769 -0.04362705 11
1.4911489 2.0682902 0.67249113 13
1.4843943 2.0581639 0.57656324 7
1.4841483 2.057066 0.48517281 7
1.493526 2.0693026 0.39768693 9
1.4807481 2.0508442 0.30589205 8
1.5068835 2.0862746 0.22181135 11
1.4962552 2.0707982 0.1318866 12
1.4954864 2.0689733 0.043892797 13
1.1016712 1.5213404 -0.49305049 4
1.2628528 1.7432818 -0.48814404 3
1.4711723 2.0301065 -0.47945404 4
1.5094101 2.0821071 -0.40125474 11
1.5229158 2.0999658 -0.31381392 12
1.5141745 2.0871456 -0.22224748 12
1.5035352 2.0717194 -0.13170855 13
1.5086319 2.0779791 -0.043713439 11
1.5040359 2.0708885 0.67507768 12
1.4972969 2.0608528 0.57881105 7
1.4942055 2.0558434 0.48612604 7
1.5036445 2.0680711 0.39846826 9
1.493736 2.0536897 0.30711073 9
1.5170873 2.0850296 0.22224714 11
1.5064129 2.0695996 0.13214828 12
1.5056419 2.0677819 0.043980062 13
1.106975 1.5174856 -0.49305049 4
1.2689303 1.738863 -0.48814404 3
1.4782495 2.0249588 -0.47945404 4
1.522494 2.0848022 -0.4028191 11
1.5331644 2.098644 -0.31442326 13
1.5243896 2.0858688 -0.22268325 12
1.5137047 2.0704894 -0.13196936 14
1.5188274 2.0767357 -0.043799829 11
1.5141075 2.0695238 0.67637092 12
1.5073589 2.0595455 0.57993495 7
1.5042722 2.0545752 0.4870792 8
1.5137721 2.0667939 0.39924955 9
1.5038288 2.0524662 0.30772007 9
1.5273008 2.0837386 0.22268291 11
1.5195328 2.072382 0.13267164 11
1.5158074 2.0665445 0.044067323 13
1.1122652 1.5136122 -0.49305049 4
1.2749925 1.7344229 -0.48814404 3
1.4853091 2.0197864 -0.47945404 4
1.5326883 2.0834527 -0.40360126 11
1.5463635 2.1012735 -0.31564194 12
1.5346144 2.0845463 -0.22311905 11
1.5268447 2.0732341 -0.13249098 14
1.5290327 2.0754464 -0.043886222 11
1.5241877 2.068114 0.67766416 12
1.5174301 2.0581925 0.58105886 8
1.5143483 2.053262 0.4880324 7
1.5268416 2.0694454 0.40081221 9
1.5139312 2.0511975 0.30832943 8
1.5404823 2.0864086 0.22355449 11
1.5297241 2.0710814 0.13293332 11
1.5259827 2.0652616 0.044154584 13
1.1206796 1.5134068 -0.49434459 4
1.2813408 1.7297382 -0.48814404 3
1.492702 2.014329 -0.47945404 4
1.5432552 2.0817885 -0.40438342 11
1.5570109 2.0995784 -0.31625131 12
1.5452123 2.0829082 -0.22355483 12
1.5374088 2.0716336 -0.13275178 14
1.5396092 2.073842 -0.043972608 11
1.5346372 2.0663912 0.67895746 12
1.527869 2.0565279 0.58218277 8
1.5247915 2.0516374 0.48898563 7
1.5373628 2.0677984 0.40159351 9
1.5244006 2.0496168 0.30893877 8
1.5510924 2.0847449 0.22399026 11
1.5402859 2.0694664 0.133195 12
1.5395132 2.0676744 0.044329111 13
1.1259555 1.5094857 -0.49434459 4
1.2844573 1.7213504 -0.48701933 3
1.4997241 2.0091062 -0.47945404 4
1.5534673 2.0803456 -0.40516558 11
1.5673003 2.0981061 -0.31686065 12
1.5554551 2.0814917 -0.2239906 11
1.5476207 2.0702538 -0.13301259 14
1.5498329 2.072459 -0.044059001 12
1.544734 2.064889 0.68025064 12
1.5379575 2.055083 0.58330667 7
1.5348853 2.0502315 0.4899388 7
1.5475317 2.0663724 0.40237483 9
1.5345215 2.048255 0.30954811 8
1.5613472 2.0833037 0.22442605 11
1.5504956 2.0680723 0.13345668 11
1.5497261 2.0662832 0.044416368 12
1.1312177 1.5055461 -0.49434459 4
1.2933854 1.7207507 -0.48814404 3
1.5067282 2.003859 -0.47945404 4
1.5666568 2.0828037 -0.40672994 11
1.5775983 2.0965881 -0.31747001 12
1.565707 2.0800288 -0.22442639 11
1.5608447 2.0728164 -0.13353421 14
1.5630734 2.0750225 -0.04423178 12
1.5577457 2.067199 0.68283719 12
1.5509871 2.0574827 0.58555448 8
1.5449879 2.0487802 0.49089199 7
1.5577095 2.0649004 0.40315613 9
1.5476407 2.0508087 0.31076682 8
1.5716108 2.0818162 0.22486182 11
1.5637233 2.0706165 0.13398004 11
1.5599375 2.0648541 0.044503633 13
1.1422954 1.5092903 -0.49693277 3
1.2964432 1.7123413 -0.48701933 3
1.5137138 1.9985873 -0.47945404 4
1.5769 2.0812583 -0.40751213 11
1.5879048 2.0950234 -0.31807932 12
1.5789769 2.082489 -0.22529794 12
1.5710883 2.0713339 -0.13379502 14
1.5733291 2.0735364 -0.044318173 11
1.5678722 2.0655961 0.68413043 13
1.5611061 2.0559366 0.58667839 7
1.5550989 2.0472834 0.49184516 7
1.5678958 2.0633826 0.40393746 9
1.557793 2.0493445 0.31137615 8
1.5818831 2.0802824 0.2252976 11
1.5739647 2.0691197 0.13424173 11
1.570163 2.0633745 0.044590894 13
1.1358448 1.4899305 -0.49175641 4
1.3083211 1.7155532 -0.48926884 3
1.5206809 1.9932913 -0.47945404 4
1.5871513 2.0796671 -0.40829429 12
1.5982198 2.0934124 -0.31868869 12
1.5892597 2.0809233 -0.22573371 12
1.5813402 2.0698047 -0.13405582 14
1.586629 2.0759759 -0.044490952 12
1.5809401 2.0677843 0.68671691 12
1.5712329 2.0543447 0.58780229 7
1.5682008 2.0496387 0.49375153 7
1.5780904 2.0618188 0.40471876 9
1.5709711 2.0517752 0.31259486 8
1.5921637 2.0787022 0.22573337 11
1.5842146 2.0675762 0.13450339 11
1.5834389 2.0658169 0.04476542 13
1.14398 1.4897871 -0.49305049 4
1.3113338 1.7071123 -0.48814404 3
1.5276295 1.9879708 -0.47945404 4
1.5974109 2.0780296 -0.40907648 11
1.6115679 2.0956891 -0.3199074 12
1.5995508 2.0793111 -0.22616951 11
1.5916009 2.0682294 -0.13431664 14
1.5969152 2.0743861 -0.044577342 11
1.5910953 2.0660799 0.68801016 12
1.5813675 2.052707 0.5889262 7
1.5783421 2.0480404 0.49470475 7
1.5882932 2.060209 0.40550008 9
1.5841851 2.0541387 0.31381357 8
1.6054953 2.0810194 0.22660492 11
1.5944728 2.0659866 0.13476509 12
1.5936952 2.064234 0.044852681 13
1.1491734 1.4857848 -0.49305049 4
1.3172847 1.7025245 -0.48814404 3
1.5375639 1.9865078 -0.48040724 4
1.6076782 2.0763457 -0.40985861 11
1.6219121 2.0939741 -0.32051674 12
1.60985 2.077652 -0.22660528 11
1.6018695 2.0666075 -0.13457744 14
1.6102735 2.0767007 -0.04475012 12
1.6012578 2.0643299 0.68930346 12
1.5915102 2.051024 0.5900501 7
1.5915008 2.0502727 0.49661112 7
1.5985038 2.0585527 0.40628135 9
1.5913458 2.0485964 0.31381357 8
1.6188622 2.0832686 0.22747648 11
1.6047392 2.0643504 0.13502677 11
1.6039599 2.0626049 0.044939946 12
nan nan nan 0
nan nan nan 0
1.5475066 1.9849995 -0.48136041 4
1.6179533 2.0746155 -0.41064081 12
1.6322644 2.0922127 -0.32112607 12
1.6232216 2.0798731 -0.22747684 11
1.6121464 2.0649393 -0.13483825 14
1.6205897 2.0750072 -0.044836514 11
1.6144011 2.0663397 0.69188994 12
1.6046602 2.0531332 0.59229791 8
1.6077175 2.0563052 0.49947065 7
1.6117649 2.0607405 0.40784398 11
1.598487 2.0430291 0.31381357 8
1.6353344 2.0893722 0.22878383 11
1.6150136 2.0626676 0.13528845 12
1.6173153 2.0648649 0.045114469 14
nan nan nan 0
nan nan nan 0
1.5604885 1.9873064 -0.4832668 5
1.6282356 2.0728385 -0.41142297 12
1.6456902 2.0943065 -0.32234478 11
1.6335503 2.0781107 -0.22791262 11
1.622431 2.0632241 -0.13509907 13
1.6309137 2.0732667 -0.044922903 11
1.6245909 2.0644872 0.69318318 12
1.6148309 2.0513475 0.59342182 7
1.6209587 2.0583928 0.50137705 17
1.6220045 2.0589814 0.4086253 9
1.6056088 2.037437 0.31381357 8
1.6549523 2.0992975 0.23052694 9
1.6252956 2.0609381 0.13555013 9
1.6276095 2.0631318 0.04520173 14
nan nan nan 0
1.335041 1.6886369 -0.48814404 3
1.5643712 1.9779974 -0.48231363 5
1.6415895 2.0748882 -0.41298732 11
1.6560704 2.0924406 -0.32295412 11
1.6469779 2.0802062 -0.22878417 11
1.6327235 2.0614626 -0.13535988 14
1.6412456 2.0714796 -0.045009293 11
1.6377876 2.0663743 0.69576973 12
1.6250086 2.049516 0.59454572 8
1.6372846 2.0642588 0.50423664 12
1.6353211 2.0610442 0.41018793 7
1.6188816 2.0395939 0.31503224 8
1.6684649 2.1013098 0.23139849 8
1.6355853 2.0591621 0.13581181 11
1.6410214 2.0652657 0.045376252 13
nan nan nan 0
1.3409272 1.6839664 -0.48814404 3
1.5957316 2.003238 -0.48993912 4
1.6518999 2.0730076 -0.41376951 11
1.6695511 2.0944083 -0.32417279 10
1.6573344 2.0783386 -0.22921994 12
1.643023 2.059654 -0.13562068 14
1.6515846 2.0696456 -0.045095682 9
1.6480037 2.064419 0.69706297 11
1.6382332 2.0514455 0.59679353 7
1.6506071 2.0662007 0.50614297 11
1.6486717 2.0630395 0.41175056 7
1.6352876 2.0455594 0.31686029 8
1.6664567 2.0838027 0.23009115 10
1.6458824 2.0573394 0.13607349 13
1.6513442 2.0634282 0.045463517 11
nan nan nan 0
nan nan nan 0
1.6027145 1.9976555 -0.48993912 4
1.6653082 2.0749316 -0.41533384 11
1.6799588 2.0924377 -0.32478216 11
1.6676983 2.0764244 -0.22965574 12
1.6564572 2.061691 -0.1361423 15
1.6619309 2.0677645 -0.045182075 12
1.6582264 2.0624182 0.69835621 12
1.651491 2.0533073 0.59904134 7
1.6578094 2.0604265 0.50614297 12
1.6589595 2.0611191 0.41253185 9
1.6517552 2.0514352 0.31868833 8
1.6737205 2.0779731 0.23009115 12
1.6593193 2.0593576 0.13659684 10
1.661674 2.0615435 0.045550779 12
nan nan nan 0
nan nan nan 0
1.5815721 1.9579657 -0.48136041 4
1.6752836 2.0732386 -0.416116 12
1.6931279 2.0945742 -0.32600087 10
1.6777068 2.0747559 -0.23009151 12
1.6664252 2.0600688 -0.13640311 13
1.6719235 2.0661283 -0.045268461 11
1.6680954 2.0606618 0.69964945 12
1.6644232 2.055392 0.60128915 7
1.6677226 2.0587316 0.50709617 12
1.6720039 2.0632803 0.41409445 8
1.661674 2.0498016 0.31929767 7
1.6743274 2.0646739 0.2292196 11
1.6692851 2.0577216 0.13685852 11
1.6748015 2.0637856 0.045725301 13
nan nan nan 0
nan nan nan 0
1.5450313 1.8991286 -0.46801579 5
1.6887448 2.0750389 -0.41768035 12
1.7035623 2.0924997 -0.32661018 11
1.6912296 2.0766113 -0.23096307 9
1.6799138 2.0619817 -0.13692473 14
1.6822839 2.0641549 -0.045354854 11
1.6783302 2.0585701 0.70094275 11
1.6777463 2.0571206 0.60353696 16
1.6780016 2.0567007 0.50804937 13
1.6823184 2.0612574 0.41487581 5
1.6656805 2.0401447 0.31868833 5
1.6846752 2.0626745 0.22965539 10
1.6796168 2.0557489 0.1371202 12
1.6851592 2.0617976 0.045812566 13
nan nan nan 0
1.3915046 1.6994816 -0.49826688 3
1.5855323 1.9357635 -0.47850087 4
1.6987467 2.0732474 -0.41846254 12
1.7136379 2.0906775 -0.32721955 12
1.7012649 2.0748432 -0.23139885 11
1.6930755 2.0641208 -0.13744634 13
1.6954618 2.0662942 -0.045527633 12
1.6882116 2.0567262 0.70223594 12
1.6907421 2.0590763 0.60578477 12
1.6910435 2.0587106 0.50995576 12
1.6954154 2.0632987 0.4164384 10
1.6724367 2.0346098 0.31868833 10
1.6978331 2.0647712 0.23052694 10
1.6895968 2.054024 0.13738188 11
1.6951635 2.0600584 0.045899823 13
nan nan nan 0
1.3726321 1.6645443 -0.48926884 3
1.5954031 1.9340035 -0.47945404 3
1.7122595 2.074923 -0.42002687 11
1.7272439 2.0923371 -0.32843825 11
1.7116685 2.0727327 -0.23183462 11
1.7034504 2.0620477 -0.13770714 12
1.7058486 2.0642171 -0.045614023 11
1.6984581 2.0545437 0.70352924 11
1.7041292 2.0606711 0.60803258 12
1.7044768 2.060359 0.5118621 12
1.7057558 2.0611727 0.4172197 7
1.6731993 2.0211141 0.31746963 8
1.7177383 2.074177 0.23227006 10
1.6999418 2.0519586 0.13764356 12
1.7087241 2.0618272 0.046074349 12
nan nan nan 0
nan nan nan 0
1.6090932 1.9354118 -0.48136041 5
1.7265298 2.075927 -0.42159122 11
1.7384394 2.0895047 -0.32904762 10
1.7259876 2.073802 -0.23270617 11
1.7177453 2.0631664 -0.13822877 12
1.7201608 2.0653346 -0.045786802 10
1.7125179 2.0554283 0.70611572 12
1.7182676 2.0615973 0.61028039 13
1.7186619 2.0613389 0.51376849 10
1.716821 2.0584004 0.41800103 7
1.7000235 2.0375378 0.32112572 9
1.7352648 2.0790381 0.23357739 10
1.7110082 2.0492489 0.13790524 9
1.7198333 2.059088 0.046161614 12
1.1805685 1.4109432 -0.48269776 4
nan nan nan 0
1.6284434 1.9448363 -0.48517317 4
1.7369367 2.0736735 -0.42237341 11
1.7489098 2.0872276 -0.32965693 10
1.7396152 2.0753992 -0.23357774 11
1.7281448 2.0609839 -0.13848959 13
1.7305727 2.0631478 -0.045873195 9
1.7227867 2.0531375 0.70740896 11
1.7317182 2.0630505 0.6125282 12
1.7290032 2.0590861 0.51472169 11
1.7303485 2.0599582 0.41956365 7
1.7167033 2.0429895 0.32295373 7
1.7617418 2.0958457 0.23619208 8
1.7277917 2.0547287 0.13869028 13
1.7302334 2.0568931 0.046248872 12
nan nan nan 0
nan nan nan 0
1.618731 1.920944 -0.48040724 4
1.7498087 2.0757582 -0.42393777 10
1.7618568 2.0893106 -0.33087564 12
1.7493385 2.0737309 -0.23401353 11
1.7378312 2.0593605 -0.13875039 14
1.7434953 2.0653412 -0.046045974 11
1.7354606 2.0550957 0.70999545 11
1.7413349 2.0613217 0.61365211 12
1.7417995 2.061142 0.51662809 11
1.7399998 2.0582833 0.42034498 6
1.7327268 2.0489545 0.32478178 6
1.7522324 2.0712867 0.23401317 8
1.7406893 2.0569136 0.13921364 10
1.743142 2.059083 0.046423398 11
1.2180138 1.4362329 -0.49434459 4
nan nan nan 0
1.6222506 1.9115396 -0.47945404 5
1.7602397 2.0734022 -0.4247199 11
1.7723519 2.0869308 -0.331485 10
1.7597916 2.0714083 -0.23444931 10
1.7514762 2.0608914 -0.139272 12
1.7539322 2.0630515 -0.046132363 10
1.7457528 2.0527043 0.71128875 11
1.7548338 2.0626526 0.61589992 11
1.7521647 2.0587871 0.51758122 12
1.7439725 2.0484369 0.41956365 9
1.7430861 2.0466721 0.32539111 9
1.7626821 2.0689492 0.23444895 10
1.7510976 2.0546253 0.13947532 10
1.7568057 2.0605943 0.04659792 10
nan nan nan 0
nan nan nan 0
1.626388 1.9015665 -0.47850087 4
1.7746092 2.0741329 -0.42628425 10
1.7835786 2.0838799 -0.33209434 12
1.7742113 2.0722032 -0.23532088 10
1.7626247 2.0579433 -0.13953282 12
1.7650936 2.0600979 -0.046218757 11
1.759908 2.0533204 0.71387523 10
1.7659119 2.0595977 0.61702383 12
1.7632526 2.0557699 0.51853442 10
1.7550409 2.0454733 0.42034498 5
1.7509321 2.039964 0.32539111 9
1.7706132 2.0621657 0.23444895 12
1.7654805 2.0554619 0.13999867 10
1.7679629 2.0576251 0.046685185 12
nan nan nan 0
nan nan nan 0
1.636219 1.8995966 -0.47945404 4
1.7850622 2.0716672 -0.42706645 11
1.7940823 2.0814006 -0.33270368 12
1.7846863 2.0697694 -0.23575665 10
1.7730588 2.0555592 -0.13979362 14
1.7788057 2.0614941 -0.046391536 9
1.7702205 2.0508206 0.71516848 11
1.7762749 2.0571086 0.61814773 12
1.7768347 2.0570312 0.52044082 12
1.7492545 2.0243874 0.4172197 10
1.7612875 2.0375938 0.32600048 9
1.7810587 2.0597401 0.23488472 9
1.7759112 2.0530629 0.14026035 12
1.7784108 2.0552173 0.046772443 13
nan nan nan 0
nan nan nan 0
1.6460563 1.8975812 -0.48040724 4
1.7955192 2.0691531 -0.42784861 10
1.8078431 2.0826209 -0.33392239 11
1.7951661 2.0672879 -0.23619244 11
1.7867724 2.0568967 -0.14031525 13
1.78927 2.059046 -0.046477929 10
1.7837058 2.0519192 0.71775496 11
1.7898384 2.0582485 0.62039554 11
1.7872257 2.0545197 0.52139401 12
1.7790039 2.0443475 0.4226889 7
1.7716477 2.0351768 0.32660982 8
1.7947799 2.0610235 0.23575628 10
1.7863467 2.0506165 0.14052203 10
1.792138 2.0565395 0.046946973 12
1.235267 1.4150163 -0.49305049 3
1.4191412 1.625074 -0.48926884 3
1.6526701 1.8918239 -0.48040724 4
1.8059808 2.0665917 -0.4286308 11
1.8216344 2.0837703 -0.33514106 11
1.8089294 2.0685081 -0.23706399 11
1.7972292 2.0544052 -0.14057605 13
1.7997388 2.0565498 -0.046564315 11
1.7972202 2.0529487 0.72034144 11
1.8002222 2.0556536 0.62151939 12
1.7976209 2.0519607 0.52234721 11
1.792639 2.0455534 0.4242515 7
1.7820126 2.032712 0.32721916 8
1.8085316 2.0622356 0.23662783 10
1.8000795 2.0518751 0.14104539 10
1.8026032 2.0540287 0.047034234 12
1.2242548 1.3925596 -0.48658001 4
nan nan nan 0
1.6625057 1.8897288 -0.48136041 4
1.8197087 2.0676897 -0.43019515 12
1.8321762 2.0811236 -0.3357504 11
1.8194308 2.0659192 -0.23749976 11
1.8109907 2.0556123 -0.14109766 13
1.8135175 2.0577562 -0.046737097 11
1.8107632 2.0539083 0.72292799 11
1.8106093 2.0530112 0.62264335 12
1.811267 2.0530345 0.52425355 12
1.8095721 2.0503919 0.42659545 8
1.7956662 2.0339198 0.32843786 7
1.8223138 2.0633769 0.2374994 10
1.8138428 2.0530632 0.14156875 10
1.8130727 2.0514698 0.047121495 12
1.2419143 1.402742 -0.49175641 3
1.4239914 1.6078328 -0.48701933 3
1.6690921 1.8839139 -0.48136041 4
1.8301907 2.0650208 -0.43097728 11
1.8460141 2.0821424 -0.33696911 12
1.833241 2.0670085 -0.23837131 11
1.8247827 2.0567484 -0.14161928 13
1.8240079 2.0551524 -0.04682349 10
1.8211286 2.051187 0.72422123 11
1.8242352 2.0539639 0.62489116 12
1.8216823 2.0503685 0.52520674 12
1.8232799 2.0514455 0.42815807 8
1.8060526 2.0313482 0.32904723 8
1.8361255 2.0644469 0.23837095 10
1.8276364 2.0541801 0.14209211 10
1.8235462 2.0488627 0.047208756 12
