# .PCD v0.7 - Point Cloud Data file format
VERSION 0.7
FIELDS x y z intensity
SIZE 4 4 4 4
TYPE F F F F
COUNT 1 1 1 1
WIDTH 1379
HEIGHT 1
VIEWPOINT 0 0 0 1 0 0 0
POINTS 1379
DATA ascii
3.9324951 -1.1305965 0.93508887 13
3.8952491 -1.1206244 0.77970797 8
3.8713942 -1.1144931 0.63129878 7
3.8804145 -1.1178234 0.49113342 6
3.8704176 -1.1156752 0.34905878 6
3.8747945 -1.1176695 0.20934382 6
3.8216429 -1.1030605 0.068762474 20
1.8413256 -0.53321248 -0.50340325 3
2.1050136 -0.60996968 -0.49714214 3
2.4927974 -0.72280943 -0.49661148 2
3.0484352 -0.88449842 -0.49667984 4
3.8447034 -1.116262 -0.48686856 2
3.7676251 -1.0945963 -0.33990791 6
3.8245332 -1.1118536 -0.2060391 10
3.7809339 -1.0998942 -0.067384355 7
3.8811078 -1.12977 1.0721061 8
3.8677154 -1.1266038 0.92047811 6
3.8206306 -1.1136122 0.76541018 5
3.8105876 -1.1114067 0.62192303 7
3.8145573 -1.1132869 0.48321193 7
3.8091245 -1.1124227 0.34382939 7
3.8037715 -1.11158 0.2056803 6
3.7553918 -1.0981534 0.067628071 35
1.8394531 -0.53963667 -0.50340325 3
2.0983043 -0.61557531 -0.49601737 2
2.490387 -0.73107183 -0.49661148 3
3.0502234 -0.89599431 -0.49746197 4
3.8076515 -1.1192087 -0.48260313 3
3.6970744 -1.0874071 -0.33380702 6
3.7346044 -1.0991539 -0.20134455 11
3.7101271 -1.0926534 -0.066174895 7
3.8171127 -1.1248854 1.0552938 7
3.7985349 -1.1201311 0.90474349 8
3.7510099 -1.1068283 0.75206554 8
3.7310982 -1.1016608 0.60942203 6
3.7537322 -1.1090562 0.47589979 7
3.7385423 -1.1052777 0.3377285 8
3.7330325 -1.1043572 0.20201679 7
3.6846187 -1.0907342 0.066406399 23
1.8422832 -0.54710847 -0.50469732 3
2.0914729 -0.62150836 -0.49489263 2
2.4925244 -0.74115938 -0.49756464 3
3.0518105 -0.90804464 -0.49824417 4
3.7181065 -1.1070026 -0.47163489 5
3.64552 -1.0860839 -0.32944921 7
3.6302581 -1.082227 -0.19586755 13
3.6488028 -1.0884488 -0.065138213 6
3.7483697 -1.1188624 1.0371883 11
3.7292459 -1.113863 0.88900882 9
3.6765821 -1.098832 0.73776776 5
3.6657202 -1.0962827 0.59926498 7
3.6832764 -1.1022335 0.4673689 7
3.6678584 -1.0983171 0.33162761 7
3.666975 -1.0987501 0.19861494 6
3.6233253 -1.0863603 0.065359257 30
1.8403623 -0.55353594 -0.50469732 3
2.0894005 -0.6284405 -0.49489263 2
2.4900529 -0.74942082 -0.49756464 3
3.0535111 -0.91958386 -0.49902633 7
3.6288853 -1.093552 -0.46066663 22
3.536983 -1.0665309 -0.31986207 20
3.5836263 -1.0812781 -0.19352028 35
3.568599 -1.0774236 -0.063755967 17
3.6799102 -1.1117313 1.0190828 7
3.6695683 -1.1093059 0.87552196 7
3.597749 -1.0882802 0.72251672 12
3.5722556 -1.0812494 0.58442014 20
3.6321044 -1.1000564 0.46127543 8
3.5831594 -1.0859152 0.32421938 15
3.5820808 -1.0862709 0.19416638 14
3.5288098 -1.070789 0.063701279 63
1.8385166 -0.55963576 -0.50469732 3
2.0918543 -0.63714945 -0.49601737 2
2.4874218 -0.75810814 -0.49756464 3
3.0550063 -0.93167746 -0.49980852 8
3.5348597 -1.0786915 -0.44908902 24
3.4951277 -1.0672338 -0.31637582 23
3.5273023 -1.0777314 -0.19065139 24
3.4883235 -1.0664874 -0.06237372 20
3.6021101 -1.101963 0.99839073 13
3.5678418 -1.0921607 0.85191995 17
3.5469975 -1.086457 0.71298486 20
3.497633 -1.0720043 0.5727005 22
3.5380948 -1.0850811 0.44969785 25
3.50792 -1.076497 0.31768268 29
3.5066695 -1.0767828 0.1902412 25
3.4868205 -1.0713538 0.063003182 26
1.8364531 -0.56637043 -0.50469732 3
2.0941606 -0.64624882 -0.49714214 3
2.4846263 -0.7672199 -0.49756464 2
3.0562892 -0.94432622 -0.50059068 6
3.5166583 -1.0872425 -0.44726098 14
3.4816756 -1.0770928 -0.31550428 25
3.4803994 -1.0773635 -0.1883041 21
3.4652896 -1.0733491 -0.062028162 18
3.5150068 -1.089421 0.9751122 28
3.4893603 -1.0821398 0.83393741 27
3.4773624 -1.0790843 0.69964021 26
3.4842474 -1.0818876 0.57113785 19
3.481962 -1.0818443 0.44299504 32
3.4944379 -1.0863893 0.31681114 28
3.4836283 -1.0836954 0.18919449 27
3.4637771 -1.0781832 0.062654138 45
1.8344649 -0.57277745 -0.50469732 3
2.0965419 -0.65500766 -0.49826688 3
2.4819331 -0.7758882 -0.49756464 3
3.0529745 -0.9549889 -0.50059068 5
3.493897 -1.0935817 -0.44482359 9
3.4541285 -1.0817962 -0.31332538 23
3.4813821 -1.0909991 -0.18856491 29
3.4567516 -1.0839429 -0.061941773 28
3.4973574 -1.0973462 0.97123241 30
3.4762652 -1.0913947 0.83168966 22
3.4595268 -1.0868028 0.69678068 17
3.4710271 -1.0910814 0.56957525 28
3.4686964 -1.091014 0.44177637 23
3.481122 -1.09559 0.31593958 26
3.4798241 -1.095849 0.18919449 24
3.4409201 -1.0842577 0.062305089 59
1.8370595 -0.58063293 -0.50599146 3
2.0988879 -0.66379112 -0.49939165 3
2.4792097 -0.78454703 -0.49756464 3
3.0543306 -0.96713084 -0.50137287 6
3.4474802 -1.0922807 -0.43933949 5
3.4360869 -1.0893309 -0.31201804 11
3.4680338 -1.1001251 -0.1880433 29
3.462477 -1.0990275 -0.062114555 17
3.4704895 -1.1022376 0.9647662 26
3.4724343 -1.1035225 0.83168966 33
3.4463568 -1.0958974 0.69487429 17
3.4719036 -1.1046883 0.57035655 19
3.4506805 -1.0985987 0.43994832 31
3.4820223 -1.1092465 0.31637534 24
3.4807348 -1.1095057 0.18945615 23
3.4275887 -1.0932238 0.062130563 10
1.8396214 -0.58851343 -0.50728554 3
2.091918 -0.6696282 -0.49826688 3
2.4764559 -0.79319638 -0.49756464 3
3.050936 -0.97778654 -0.50137287 5
3.4105663 -1.0936999 -0.43507403 11
3.394321 -1.0891438 -0.30853182 8
3.4451561 -1.1061186 -0.18700007 11
3.4110224 -1.0958163 -0.061250649 9
3.44363 -1.1069547 0.95829988 23
3.4731994 -1.1171286 0.83281356 24
3.4518549 -1.1109283 0.69678068 12
3.416317 -1.1001489 0.56176215 9
3.4515483 -1.1121594 0.44055766 14
3.4402039 -1.1091666 0.31288913 10
3.4293211 -1.1063187 0.18683936 9
3.3761766 -1.0898246 0.061257944 6
1.8375559 -0.59493136 -0.50728554 3
2.0895677 -0.67692626 -0.49826688 2
2.4783416 -0.80334949 -0.49851784 3
3.0475042 -0.98843032 -0.50137287 5
3.3736851 -1.0948749 -0.4308086 11
3.3431239 -1.0856018 -0.30417401 8
3.3795395 -1.098079 -0.18360955 7
3.3596337 -1.0922594 -0.060386747 7
3.4121876 -1.1100038 0.95054042 9
3.4275832 -1.1156738 0.82269841 9
3.3966188 -1.1062506 0.68629557 7
3.3701961 -1.0982956 0.55473036 6
3.3815897 -1.1026614 0.4320268 8
3.384223 -1.1041735 0.30809554 7
3.3779724 -1.1027865 0.18422256 6
3.3295825 -1.0876321 0.060472585 16
1.8354679 -0.60134202 -0.50728554 3
2.0871921 -0.68421614 -0.49826688 3
2.4801857 -0.81352538 -0.49947101 3
3.0440354 -0.99906206 -0.50137287 5
3.336838 -1.0958059 -0.42654318 12
3.3014576 -1.0848255 -0.30068776 8
3.3424819 -1.0989522 -0.18178387 16
3.3130605 -1.0899197 -0.059609234 19
3.3715904 -1.1098268 0.94019437 7
3.3727653 -1.110866 0.81033546 12
3.3647666 -1.1088824 0.68057644 16
3.3288205 -1.0976803 0.54847986 15
3.3400176 -1.102019 0.42715204 7
3.3425088 -1.1034878 0.30460933 16
3.3361728 -1.1020418 0.18212913 17
3.2830455 -1.0851278 0.059687223 12
1.8287735 -0.60622567 -0.50599146 3
2.0847909 -0.69149756 -0.49826688 3
2.4819894 -0.82372397 -0.50042421 3
3.0405293 -1.0096817 -0.50137287 5
3.295316 -1.0949283 -0.42166841 12
3.2598381 -1.0837719 -0.29720154 8
3.2959843 -1.096428 -0.17943659 16
3.2665453 -1.0872682 -0.058831725 12
3.3310366 -1.10938 0.92984837 15
3.3272676 -1.1087699 0.80022031 11
3.3143125 -1.1050955 0.67104459 11
3.2828059 -1.095227 0.54144806 15
3.2937839 -1.0995283 0.42166793 7
3.2961168 -1.1009465 0.30068731 11
3.2896848 -1.0994364 0.179774 12
3.2413085 -1.0838975 0.05898913 12
1.8266462 -0.61260563 -0.50599146 3
2.0823646 -0.69877064 -0.49826688 2
2.488405 -0.83550727 -0.5023306 3
3.0369864 -1.0202888 -0.50137287 6
3.2538412 -1.0937743 -0.41679361 12
3.2182662 -1.082441 -0.2937153 7
3.2542777 -1.0951854 -0.17735012 16
3.2248275 -1.085901 -0.058140606 11
3.2905273 -1.1086637 0.91950232 15
3.281826 -1.1063699 0.79010516 11
3.2639265 -1.1009699 0.66151267 11
3.2368495 -1.0924656 0.53441626 11
3.252311 -1.0983164 0.41679314 11
3.254503 -1.0996895 0.29720107 12
3.2479861 -1.0981191 0.17768057 12
3.1948848 -1.0807873 0.058203775 12
1.819923 -0.61742646 -0.50469732 3
2.0752995 -0.70446926 -0.49714214 3
2.4854734 -0.84418833 -0.5023306 3
3.0334065 -1.0308838 -0.50137287 6
3.2124152 -1.0923443 -0.41191885 13
3.1767445 -1.0808333 -0.29022908 7
3.2078938 -1.0920562 -0.17500284 16
3.1784267 -1.0826439 -0.057363093 12
3.2500644 -1.1076782 0.90915632 15
3.2364428 -1.1036663 0.77999008 11
3.2182555 -1.0980912 0.65293401 11
3.1909533 -1.0893974 0.52738446 12
3.2108872 -1.0968286 0.41191834 11
3.2082253 -1.0965445 0.29327908 11
3.2016122 -1.0949085 0.17532544 12
3.1532526 -1.0789847 0.057505675 11
1.8177569 -0.62377542 -0.50469732 3
2.0774355 -0.71329117 -0.49826688 3
2.4825115 -0.85285908 -0.5023306 3
3.0344598 -1.0430714 -0.50215507 5
3.1710393 -1.0906384 -0.40704405 12
3.135273 -1.078949 -0.28674284 16
3.1662927 -1.090242 -0.17291637 15
3.1368155 -1.0807046 -0.05667197 12
3.2050827 -1.1048501 0.89751709 15
3.1911185 -1.1006596 0.76987487 11
3.1726446 -1.0949073 0.6443553 11
3.1497862 -1.087634 0.52113402 12
3.1648228 -1.0934443 0.40643427 11
3.1667168 -1.0947174 0.28979284 11
3.1600201 -1.09302 0.173232 12
3.1116726 -1.076905 0.056807578 12
1.8155684 -0.63011676 -0.50469732 3
2.0749331 -0.72053844 -0.49826688 3
2.4841557 -0.86313045 -0.50328374 3
3.0308003 -1.0536573 -0.50215507 6
3.129715 -1.0886573 -0.40216929 12
3.0938542 -1.0767887 -0.28325659 12
3.1247444 -1.0881511 -0.17082989 16
3.095257 -1.0784883 -0.05598085 11
3.164721 -1.1033113 0.88717103 16
3.1504552 -1.0989546 0.76088363 12
3.1270964 -1.0914186 0.63577664 11
3.1040082 -1.0839682 0.51410222 12
3.123507 -1.0913891 0.40155947 11
3.1252611 -1.0926141 0.28630662 13
3.1184807 -1.0908545 0.17113857 12
3.0701458 -1.0745482 0.056109484 12
1.8179148 -0.6380499 -0.50599146 3
2.0724051 -0.72777689 -0.49826688 3
2.4811277 -0.87179655 -0.50328374 3
3.0317628 -1.0658683 -0.5029372 6
3.0931251 -1.0880479 -0.39790383 12
3.0477905 -1.0726986 -0.27933457 12
3.0832493 -1.0857835 -0.16874342 16
3.0537524 -1.0759951 -0.055289723 12
3.1198552 -1.0998987 0.87553179 16
3.1052489 -1.0953586 0.75076848 12
3.0816109 -1.0876253 0.62719792 12
3.0629516 -1.0816408 0.50785172 12
3.0775654 -1.0874057 0.39607537 11
3.083859 -1.0902348 0.28282037 12
3.0769954 -1.0884126 0.16904514 13
3.0333867 -1.0735828 0.055498648 12
1.8156766 -0.64439166 -0.50599146 3
2.0744433 -0.73663682 -0.49939165 3
2.4780695 -0.88045198 -0.50328374 4
3.0280237 -1.0764446 -0.5029372 7
3.0472267 -1.0838702 -0.39241973 18
3.0064862 -1.0699703 -0.27584836 28
3.0418096 -1.0831398 -0.16665696 16
3.0075943 -1.0715476 -0.054512214 14
3.0750515 -1.0961863 0.8638925 16
3.0646954 -1.0930974 0.74177724 12
3.036191 -1.0835279 0.6186192 12
3.0172985 -1.0773795 0.50081992 13
3.0316899 -1.0831149 0.39059123 11
3.0472026 -1.0892566 0.27976996 12
3.0355654 -1.0856944 0.16695169 14
3.0013793 -1.0740584 0.054975078 26
1.8270537 -0.65561926 -0.50987375 3
2.0718594 -0.74387348 -0.49939165 3
2.4749811 -0.88909668 -0.50328374 5
3.0288951 -1.0886781 -0.50371939 9
3.0247447 -1.0877825 -0.38998231 16
2.9980462 -1.0787719 -0.27541256 26
2.9957283 -1.0785285 -0.16430967 29
2.9944289 -1.0786511 -0.054339435 33
3.0257692 -1.0905372 0.85095996 12
3.0241959 -1.0905665 0.73278606 12
2.9954545 -1.0807928 0.61099368 15
2.9949389 -1.0811975 0.49769467 30
2.9998853 -1.0835751 0.38693514 17
3.0059059 -1.0863429 0.27628368 31
3.0035834 -1.0860964 0.16538161 31
2.9835091 -1.0794262 0.05471329 53
1.8020535 -0.65375751 -0.50340325 3
2.0784092 -0.75442564 -0.50164115 3
2.4718623 -0.89773053 -0.50328374 5
3.0297179 -1.1009309 -0.50450158 9
3.0162652 -1.0966384 -0.38937297 15
3.003624 -1.092636 -0.27628413 30
2.977869 -1.0838556 -0.16352725 26
2.9812503 -1.0856756 -0.054166656 27
2.999254 -1.0928249 0.84449369 27
2.9929066 -1.0911039 0.72604263 31
2.9824412 -1.0878783 0.60908735 31
2.9865072 -1.0899521 0.49691334 23
2.9867611 -1.0906355 0.38571647 34
2.9927387 -1.0934103 0.27541214 26
2.9857054 -1.0914314 0.16459657 27
2.9844177 -1.0915512 0.054800551 63
1.8133633 -0.66503257 -0.50728554 3
2.0666158 -0.75831962 -0.49939165 3
2.4733214 -0.90804505 -0.504237 5
3.0304923 -1.1132028 -0.50528377 10
3.0077608 -1.1054486 -0.38876364 15
2.9951169 -1.1013949 -0.27584836 28
2.9834397 -1.0976921 -0.16404887 26
2.9774425 -1.0960755 -0.054166656 31
2.9863565 -1.0999489 0.8419072 29
2.9845083 -1.0998598 0.72491866 27
2.9786258 -1.0982825 0.60908735 25
2.9826844 -1.1003703 0.49691334 28
2.9689686 -1.0958991 0.38388839 33
2.9982488 -1.1073015 0.27628368 27
2.9865608 -1.1035774 0.16485825 31
2.9805892 -1.1019621 0.054800551 23
nan nan nan 0
2.0730917 -0.7689172 -0.50164115 3
2.4701366 -0.91667306 -0.504237 5
3.0312176 -1.1254934 -0.50606591 9
3.0085359 -1.1176691 -0.38937297 14
2.9912541 -1.1118432 -0.27584836 28
2.9795897 -1.1080996 -0.16404887 29
2.9782836 -1.1082056 -0.054253042 30
2.9870255 -1.1120517 0.84320045 32
2.9806507 -1.1102709 0.72491866 33
2.9747739 -1.1086731 0.60908735 27
2.9788251 -1.1107751 0.49691334 29
2.9651253 -1.1062561 0.38388839 34
2.9896989 -1.1160187 0.27584794 35
2.9826903 -1.1139957 0.16485825 27
2.9814076 -1.1141095 0.054887816 23
nan nan nan 0
2.0749567 -0.77785897 -0.50276589 3
2.4669218 -0.92528987 -0.504237 4
3.0272706 -1.1360674 -0.50606591 9
3.004616 -1.1281641 -0.38937297 16
2.9873548 -1.1222777 -0.27584836 26
2.9803777 -1.1202502 -0.16430967 31
2.9743972 -1.1185949 -0.054253042 31
2.9831254 -1.1224717 0.84320045 32
2.9813166 -1.1223851 0.72604263 29
2.9754789 -1.1207803 0.61004049 29
2.9795508 -1.122908 0.49769467 27
2.9658895 -1.1183505 0.38449776 32
2.9857852 -1.1264479 0.27584794 29
2.9834552 -1.1261637 0.16511993 23
2.9775004 -1.1245098 0.054887816 27
nan nan nan 0
nan nan nan 0
2.4590874 -0.93215567 -0.50328374 4
3.027904 -1.148379 -0.5068481 10
3.0052996 -1.1404059 -0.38998231 16
2.9834192 -1.1326988 -0.27584836 30
2.976449 -1.1306469 -0.16430967 26
2.9751477 -1.1307468 -0.054339435 33
2.9837034 -1.1345946 0.84449369 32
2.9819341 -1.1345176 0.72716647 27
2.9761357 -1.1329061 0.61099368 26
2.9802282 -1.1350595 0.49847597 29
2.9712424 -1.132231 0.38571647 31
2.9818349 -1.1368634 0.27584794 32
2.979506 -1.136571 0.16511993 22
2.9782276 -1.1366789 0.054975078 28
nan nan nan 0
nan nan nan 0
2.4558184 -0.94073373 -0.50328374 4
3.0238769 -1.1589414 -0.5068481 9
3.0059342 -1.1526663 -0.39059168 15
2.9840975 -1.1448901 -0.27628413 26
2.9771459 -1.1428192 -0.16457048 28
2.9758494 -1.1429175 -0.054425824 30
2.9797246 -1.1450027 0.84449369 33
2.9779556 -1.1449194 0.72716647 28
2.9721632 -1.1432879 0.61099368 29
2.9808571 -1.1472293 0.4992573 26
2.9719033 -1.1443789 0.38632578 28
2.9778483 -1.147265 0.27584794 34
2.9801793 -1.1487604 0.16538161 22
2.9742417 -1.1470679 0.054975078 24
nan nan nan 0
nan nan nan 0
2.4481075 -0.94710141 -0.5023306 5
3.0200171 -1.1689625 -0.5068481 8
3.0020955 -1.1626281 -0.39059168 16
2.9849291 -1.1565791 -0.2767199 27
2.9733398 -1.1526855 -0.16457048 34
2.972043 -1.1527795 -0.054425824 28
2.9759114 -1.1548775 0.84449369 30
2.9786847 -1.156552 0.72829044 28
2.9729307 -1.154915 0.61194688 28
2.9816394 -1.158897 0.50003856 24
2.9727173 -1.1560265 0.38693514 32
2.9786694 -1.1589396 0.27628368 31
2.9763536 -1.1586368 0.16538161 25
2.97508 -1.158739 0.055062339 24
nan nan nan 0
nan nan nan 0
2.4447868 -0.95564109 -0.5023306 5
3.0205171 -1.1812959 -0.50763023 9
3.0026405 -1.1749086 -0.39120105 16
2.9808736 -1.1669915 -0.2767199 26
2.973947 -1.1648784 -0.16483128 29
2.9726555 -1.164971 -0.054512214 26
2.9718621 -1.1652583 0.84449369 28
2.9746294 -1.1669424 0.72829044 30
2.9734499 -1.1670786 0.61290008 27
2.9821727 -1.171103 0.50081992 25
2.9732828 -1.1682109 0.38754448 28
2.9746056 -1.1693301 0.27628368 27
2.9769378 -1.1708467 0.16564329 26
2.9710147 -1.1691232 0.055062339 26
nan nan nan 0
nan nan nan 0
2.4412677 -0.96459532 -0.5023306 5
3.0161674 -1.1923586 -0.50763023 8
3.0029287 -1.1877311 -0.39181039 15
2.9812078 -1.1797419 -0.27715567 26
2.9696577 -1.1757706 -0.16483128 31
2.9730136 -1.1776996 -0.054598603 28
2.9720612 -1.1779225 0.84578699 29
2.9748611 -1.179633 0.72941428 30
2.9691525 -1.177969 0.61290008 28
2.9778605 -1.1820254 0.50081992 24
2.9735937 -1.1809325 0.38815385 28
2.9703 -1.1802247 0.27628368 26
2.9726264 -1.1817499 0.16564329 27
2.9667122 -1.1799984 0.055062339 26
nan nan nan 0
nan nan nan 0
2.4378858 -0.97311097 -0.5023306 5
3.016573 -1.2047113 -0.50841242 7
2.9987645 -1.1982062 -0.39181039 15
2.9816968 -1.19199 -0.27759147 23
2.9701715 -1.1879839 -0.1650921 31
2.973526 -1.1899276 -0.054684997 30
2.9679315 -1.1882898 0.84578699 28
2.9707253 -1.19001 0.72941428 28
2.9695787 -1.1901523 0.61385328 28
2.9783001 -1.1942508 0.50160128 26
2.9694531 -1.1913052 0.38815385 31
2.9661622 -1.1905857 0.27628368 30
2.9731166 -1.1939799 0.16590497 27
2.9672112 -1.192217 0.0551496 28
nan nan nan 0
nan nan nan 0
2.4393694 -0.98259902 -0.50328374 4
3.0127738 -1.2141823 -0.50841242 8
2.9995883 -1.2094769 -0.39241973 14
2.9779372 -1.2013514 -0.27759147 25
2.9664249 -1.1973091 -0.1650921 29
2.9697733 -1.1992633 -0.054684997 29
2.9686618 -1.1994172 0.84708017 29
2.9714892 -1.2011628 0.73053825 25
2.9703753 -1.2013158 0.61480647 26
2.9745336 -1.2036016 0.50160128 28
2.9702959 -1.2024903 0.38876316 28
2.9624069 -1.1998984 0.27628368 34
2.9739785 -1.2051896 0.16616665 28
2.9634538 -1.2015266 0.0551496 28
nan nan nan 0
nan nan nan 0
2.4404712 -0.99295777 -0.504237 3
3.008517 -1.2246914 -0.50841242 8
2.9999442 -1.221812 -0.39302906 14
2.9783382 -1.2136185 -0.27802724 27
2.966851 -1.2095414 -0.1653529 31
2.9701977 -1.2115105 -0.054771382 27
2.9689288 -1.2115974 0.84837347 30
2.9717886 -1.2133696 0.73166209 30
2.9661636 -1.211677 0.61480647 27
2.9748857 -1.2158458 0.50238252 23
2.9660807 -1.2128513 0.38876316 27
2.9674208 -1.2140039 0.27715525 31
2.9697535 -1.2155633 0.16616665 19
2.9638679 -1.2137582 0.055236865 26
nan nan nan 0
nan nan nan 0
2.4368153 -1.0018959 -0.504237 4
3.008575 -1.2375886 -0.50919461 7
2.9954457 -1.2327992 -0.39302906 14
2.97387 -1.2245265 -0.27802724 24
2.9623978 -1.2204074 -0.1653529 32
2.9703593 -1.2242937 -0.054857776 27
2.9689331 -1.2243122 0.84966671 29
2.9718254 -1.2261118 0.73278606 29
2.9662399 -1.2244132 0.61575967 28
2.9704092 -1.2267411 0.50238252 28
2.9616151 -1.2237144 0.38876316 33
2.9675546 -1.2267749 0.27759105 24
2.9698925 -1.2283483 0.16642833 27
2.9593995 -1.2246132 0.055236865 26
nan nan nan 0
nan nan nan 0
2.4333034 -1.0103959 -0.504237 5
3.0042367 -1.248083 -0.50919461 8
2.995707 -1.2451525 -0.39363843 14
2.9695776 -1.2348998 -0.27802724 26
2.9627299 -1.2326587 -0.16561371 31
2.9706829 -1.236576 -0.054944165 24
2.9691002 -1.2365251 0.85095996 28
2.9720244 -1.2383517 0.7339099 29
2.9664781 -1.2366484 0.61671281 27
2.9706671 -1.2390033 0.50316387 27
2.9619055 -1.235956 0.38937253 32
2.9678507 -1.239045 0.27802682 29
2.9701941 -1.2406322 0.16669002 28
2.9597192 -1.2368636 0.055324122 28
nan nan nan 0
2.0482099 -0.85846531 -0.50389069 5
2.4297614 -1.0188835 -0.504237 4
2.9998617 -1.2585621 -0.50919461 7
2.9959183 -1.2575226 -0.39424777 16
2.9698415 -1.2471867 -0.27846304 29
2.9630125 -1.2449272 -0.16587453 26
2.970957 -1.2488754 -0.055030555 28
2.9647658 -1.2468817 0.85095996 29
2.9721746 -1.2506082 0.73503381 26
2.9621434 -1.2469958 0.61671281 25
2.9708753 -1.2512822 0.50394517 20
2.9575732 -1.2462875 0.38937253 32
2.9680974 -1.2513323 0.27846259 27
2.9658453 -1.2509925 0.16669002 26
2.9599898 -1.2491311 0.055411387 25
nan nan nan 0
2.05866 -0.87130624 -0.50726491 6
2.4261901 -1.0273588 -0.504237 4
2.9954505 -1.2690259 -0.50919461 7
2.9960797 -1.2699094 -0.39485711 14
2.9654698 -1.2575457 -0.27846304 28
2.9632456 -1.2572128 -0.16613534 29
2.9665797 -1.2592384 -0.055030555 26
2.9648407 -1.2591109 0.8522532 30
2.9677911 -1.2609754 0.73503381 26
2.9622896 -1.2592481 0.61766601 27
2.9664896 -1.261645 0.50394517 27
2.9577713 -1.2585467 0.38998187 31
2.9682941 -1.2636361 0.27889836 28
2.966054 -1.2632941 0.16695169 28
2.9602106 -1.2614156 0.055498648 23
nan nan nan 0
2.0466464 -0.87465793 -0.50501537 6
2.4225891 -1.0358216 -0.504237 5
2.9910026 -1.2794743 -0.50919461 7
2.996191 -1.2823125 -0.39546645 13
2.965641 -1.2698501 -0.27889881 27
2.9634285 -1.2695149 -0.16639614 32
2.9667609 -1.2715553 -0.055116944 31
2.9648666 -1.271356 0.8535465 28
2.9678485 -1.273248 0.73615772 28
2.957876 -1.2695808 0.61766601 24
2.9666054 -1.273941 0.50472647 29
2.9579201 -1.2708228 0.39059123 29
2.9684415 -1.2759569 0.27933416 32
2.9662135 -1.2756125 0.16721338 25
2.9603817 -1.2737169 0.05558591 25
1.7691116 -0.76299816 -0.50599146 3
2.0391078 -0.87986666 -0.50389069 5
2.4234648 -1.0462168 -0.50519013 5
2.9865179 -1.2899071 -0.50919461 7
2.9962523 -1.294732 -0.39607581 14
2.9657624 -1.282171 -0.27933457 28
2.963562 -1.2818338 -0.16665696 28
2.9668925 -1.2838891 -0.055203337 28
2.9648428 -1.2836165 0.85483968 28
2.9633861 -1.2836 0.73615772 28
2.9579298 -1.2818497 0.6186192 27
2.9666712 -1.286253 0.50550777 27
2.9580188 -1.2831149 0.3912006 30
2.9639695 -1.2863108 0.27933416 31
2.9663227 -1.2879474 0.16747504 26
2.9605024 -1.2860345 0.055673171 24
1.7575814 -0.76531261 -0.50340325 3
2.0315576 -0.88503325 -0.50276589 4
2.4152987 -1.052709 -0.504237 5
2.9819973 -1.3003241 -0.50919461 7
2.9917147 -1.3051829 -0.39607581 14
2.9658339 -1.2945082 -0.27977037 25
2.9636455 -1.2941688 -0.16691776 29
2.9623928 -1.2942375 -0.055203337 30
2.9647698 -1.2958922 0.85613298 27
2.9633512 -1.2958883 0.73728162 28
2.9579344 -1.2941345 0.6195724 26
2.9666879 -1.2985812 0.50628912 26
2.9580677 -1.2954233 0.39180991 30
2.9640236 -1.2986481 0.27976996 28
2.966382 -1.3002986 0.16773674 25
2.9559953 -1.2963607 0.055673171 24
1.7637419 -0.77533025 -0.50599146 3
2.0195365 -0.88819665 -0.50051636 3
2.4116094 -1.0611335 -0.504237 5
2.9774399 -1.3107252 -0.50919461 8
2.9916821 -1.3176183 -0.39668515 15
2.961297 -1.304853 -0.27977037 26
2.9591098 -1.3045059 -0.16691776 29
2.962431 -1.3065877 -0.055289723 29
2.9602282 -1.3062334 0.85613298 28
2.9632668 -1.3081921 0.73840553 28
2.9578886 -1.3064348 0.6205256 24
2.9666538 -1.310925 0.50707042 26
2.9580669 -1.3077477 0.39241928 31
2.9640276 -1.3110013 0.2802057 28
2.9663911 -1.3126658 0.16799842 26
2.9560237 -1.3086951 0.055760436 25
1.7566102 -0.77952307 -0.50469732 3
2.0164239 -0.89524072 -0.50051636 4
2.4078908 -1.0695451 -0.504237 4
2.9728465 -1.3211105 -0.50919461 7
2.9870644 -1.3280531 -0.39668515 14
2.9612753 -1.3172063 -0.28020614 26
2.9591 -1.3168573 -0.16717857 29
2.9578521 -1.3169206 -0.055289723 28
2.9600625 -1.3185239 0.85742623 27
2.9586825 -1.3185279 0.73840553 27
2.9533103 -1.3167517 0.6205256 27
2.9665701 -1.3232845 0.50785172 27
2.9580157 -1.3200877 0.39302862 31
2.9639816 -1.3233706 0.2806415 27
2.961791 -1.3230125 0.16799842 24
2.9560018 -1.3210453 0.055847697 25
1.7671012 -0.79157323 -0.50857961 3
2.0132866 -0.90227395 -0.50051636 4
2.4041426 -1.0779438 -0.504237 5
2.972723 -1.3335009 -0.5099768 7
2.9869382 -1.3405038 -0.39729452 14
2.9612033 -1.3295752 -0.28064194 25
2.9590402 -1.3292247 -0.16743939 30
2.9577973 -1.3292867 -0.055376116 28
2.9554422 -1.3288484 0.85742623 28
2.9585052 -1.3308463 0.73952943 27
2.953172 -1.329067 0.6214788 26
2.9619327 -1.3336316 0.50785172 27
2.9579148 -1.3324435 0.39363798 30
2.9638851 -1.3357551 0.28107727 30
2.9617064 -1.3353952 0.1682601 24
2.9559295 -1.3334112 0.055934958 24
1.7688676 -0.79941773 -0.50987375 3
2.0148818 -0.91060084 -0.50164115 4
2.4007444 -1.0854913 -0.504237 5
2.968519 -1.3428334 -0.5099768 6
2.9872334 -1.3519272 -0.39790383 14
2.961549 -1.3409261 -0.28107771 27
2.9593978 -1.3405744 -0.16770019 29
2.9581602 -1.3406361 -0.055462509 27
2.9556515 -1.340121 0.85871947 27
2.9587462 -1.3421468 0.74065334 27
2.9534514 -1.3403665 0.62243193 27
2.9622252 -1.3449719 0.50863302 26
2.9537144 -1.3417294 0.39363798 31
2.9642088 -1.3471209 0.28151307 27
2.9620423 -1.3467599 0.16852178 25
2.9562764 -1.344761 0.056022223 25
1.7618124 -0.80327559 -0.50857961 3
2.0116909 -0.91762853 -0.50164115 4
2.3969407 -1.0938648 -0.504237 5
2.9683058 -1.3552383 -0.51075894 6
2.9824963 -1.3623463 -0.39790383 14
2.961381 -1.3533261 -0.28151348 25
2.9592416 -1.3529729 -0.167961 28
2.9580085 -1.3530332 -0.055548895 28
2.9553473 -1.3524398 0.86001271 28
2.9584734 -1.3544948 0.74177724 28
2.9532173 -1.3527119 0.62338513 26
2.962002 -1.3573612 0.50941437 25
2.9535239 -1.3540999 0.39424729 31
2.964016 -1.3595362 0.28194883 28
2.9618609 -1.3591735 0.16878346 26
2.9561076 -1.3571579 0.056109484 25
1.7588565 -0.80972755 -0.50857961 3
2.0127389 -0.9270336 -0.50276589 4
2.3929152 -1.1026427 -0.504237 6
2.9633186 -1.3661085 -0.51075894 6
2.9819896 -1.3753471 -0.3985132 14
2.9609234 -1.3662577 -0.28194925 25
2.958796 -1.3659027 -0.1682218 28
2.9575682 -1.365962 -0.055635288 26
2.9547553 -1.3652885 0.86130601 27
2.957911 -1.3673733 0.74290115 27
2.9526944 -1.3655872 0.62433833 26
2.9614892 -1.3702823 0.51019561 26
2.9530444 -1.3670007 0.39485666 30
2.9635329 -1.372484 0.2823846 28
2.9568596 -1.3700203 0.16878346 24
2.9511135 -1.3679835 0.056109484 24
1.7560194 -0.81586212 -0.50857961 3
2.0094907 -0.93405372 -0.50276589 4
2.3890517 -1.1109889 -0.504237 5
2.9630094 -1.3785273 -0.51154113 7
2.9816694 -1.3878418 -0.39912254 15
2.9606516 -1.3786877 -0.28238505 26
2.9585366 -1.3783312 -0.16848262 29
2.9573133 -1.3783895 -0.055721678 27
2.9499717 -1.3755943 0.86130601 27
2.9575353 -1.3797498 0.74402505 27
2.9523573 -1.3779616 0.62529153 25
2.9611628 -1.3827009 0.51097697 26
2.9527512 -1.3794008 0.395466 29
2.9632361 -1.3849292 0.28282037 28
2.9565823 -1.3824482 0.16904514 24
2.9508486 -1.3803948 0.056196745 24
1.7531607 -0.82198685 -0.50857961 3
2.0062182 -0.94106245 -0.50276589 5
2.3807158 -1.1172361 -0.50328374 5
2.9581795 -1.3888618 -0.51154113 7
2.9768069 -1.3982414 -0.39912254 14
2.955821 -1.3890139 -0.28238505 24
2.9537075 -1.3886499 -0.16848262 27
2.9524837 -1.3887039 -0.055721678 29
2.949522 -1.3879397 0.86259925 26
2.957109 -1.3921403 0.74514896 27
2.9519699 -1.3903502 0.62624466 27
2.9607856 -1.3951339 0.51175827 25
2.9524071 -1.3918157 0.39607537 29
2.9583838 -1.3952644 0.28282037 27
2.9562542 -1.3948908 0.16930681 24
2.9505329 -1.3928208 0.056284007 23
1.7502809 -0.82810146 -0.50857961 3
2.0029209 -0.94805974 -0.50276589 4
2.3768013 -1.1255395 -0.50328374 5
2.9577763 -1.4012936 -0.51232326 7
2.9763927 -1.4107496 -0.3997319 15
2.9554548 -1.4014573 -0.28282082 23
2.9533529 -1.4010919 -0.16874342 29
2.9521346 -1.4011452 -0.055808067 27
2.9490218 -1.4002985 0.8638925 27
2.9566324 -1.4045446 0.74627286 26
2.9515314 -1.402753 0.62719792 27
2.9603579 -1.4075812 0.51253957 26
2.9520121 -1.4042448 0.39668468 29
2.9579933 -1.4077231 0.28325617 26
2.9558756 -1.4073482 0.16956849 24
2.9501667 -1.4052615 0.056371272 25
1.7473794 -0.8342061 -0.50857961 3
1.9995993 -0.95504552 -0.50276589 4
2.372858 -1.1338294 -0.50328374 4
2.9528668 -1.4116096 -0.51232326 6
2.9759269 -1.4232717 -0.40034124 15
2.9550383 -1.4139152 -0.28325659 25
2.9529483 -1.4135486 -0.16900423 29
2.9517345 -1.4136008 -0.055894457 26
2.9441161 -1.4105841 0.8638925 26
2.956105 -1.4169625 0.74739677 26
2.9510429 -1.4151696 0.62815106 24
2.9598789 -1.4200424 0.51332086 26
2.9515667 -1.4166882 0.39729404 29
2.9575515 -1.4201959 0.28369194 27
2.9554458 -1.4198196 0.16983017 26
2.949749 -1.4177166 0.056458529 24
1.7401057 -0.83820456 -0.50728554 3
1.9962535 -0.96201956 -0.50276589 4
2.3688858 -1.1421052 -0.50328374 5
2.9479213 -1.4219085 -0.51232326 6
2.9754105 -1.4358077 -0.40095058 15
2.9545703 -1.426387 -0.28369236 23
2.9524922 -1.4260192 -0.16926505 30
2.9512837 -1.4260708 -0.05598085 28
2.9435229 -1.4229546 0.8651858 24
2.9555268 -1.4293938 0.74852067 26
2.9505033 -1.4275998 0.62910426 25
2.9593492 -1.4325174 0.51410222 25
2.9510698 -1.4291455 0.39790338 29
2.9570587 -1.4326829 0.28412771 24
2.9549649 -1.4323053 0.17009185 24
2.9492805 -1.4301858 0.056545794 23
1.7371693 -0.84427357 -0.50728554 3
1.9928832 -0.96898192 -0.50276589 4
2.3648846 -1.1503673 -0.50328374 5
2.9473805 -1.4343511 -0.51310545 6
2.9748423 -1.4483575 -0.40155992 14
2.9585292 -1.441054 -0.28456393 23
2.9519851 -1.4385039 -0.16952586 29
2.9507813 -1.4385548 -0.056067236 27
2.942879 -1.4353379 0.86647898 25
2.9505193 -1.4397019 0.74852067 26
2.9499128 -1.4400434 0.63005745 25
2.9587684 -1.4450059 0.51488352 26
2.9505224 -1.4416167 0.39851275 27
2.9520397 -1.4429963 0.28412771 27
2.9544325 -1.4448047 0.17035353 23
2.9487607 -1.442669 0.056633055 24
1.738548 -0.85245854 -0.50857961 4
1.9894887 -0.97593248 -0.50276589 4
2.3608546 -1.1586152 -0.50328374 4
2.9423559 -1.4446306 -0.51310545 6
2.9742229 -1.4609208 -0.40216929 14
2.9579515 -1.4535693 -0.28499973 24
2.9469457 -1.4487996 -0.16952586 29
2.950228 -1.4510525 -0.056153629 28
2.9421847 -1.4477342 0.86777228 27
2.9498472 -1.4521443 0.74964464 26
2.9492714 -1.4525005 0.63101065 23
2.9581363 -1.457508 0.51566482 25
2.9499235 -1.4541012 0.39912206 29
2.9514518 -1.4554949 0.28456348 28
2.9538491 -1.4573182 0.17061521 22
2.9437072 -1.4529532 0.056633055 23
1.7355618 -0.858522 -0.50857961 5
1.9860699 -0.98287112 -0.50276589 4
2.356796 -1.1668491 -0.50328374 4
2.9372954 -1.4548925 -0.51310545 6
2.9735518 -1.4734973 -0.40277863 14
2.9573224 -1.466098 -0.2854355 22
2.9463439 -1.461296 -0.16978666 27
2.9496229 -1.4635639 -0.056240018 29
2.9414392 -1.460143 0.86906546 27
2.9491236 -1.4645993 0.75076848 26
2.9485788 -1.4649704 0.63196379 25
2.9530308 -1.4678248 0.51566482 24
2.9492733 -1.4665992 0.39973143 30
2.9508128 -1.4680072 0.28499928 26
2.9487443 -1.4676201 0.17061521 24
2.9430928 -1.4654483 0.05672032 22
1.7368759 -0.86673146 -0.50987375 6
1.9782683 -0.98762184 -0.50164115 4
2.3570995 -1.1772618 -0.504237 4
2.932199 -1.4651366 -0.51310545 6
2.9728293 -1.486087 -0.40338799 14
2.9566414 -1.47864 -0.28587127 26
2.9456904 -1.473806 -0.17004748 29
2.9489667 -1.4760889 -0.056326408 26
2.9449615 -1.4747269 0.87165201 27
2.9483492 -1.477067 0.75189245 25
2.9478354 -1.4774532 0.63291705 26
2.9523036 -1.4803375 0.51644611 24
2.9485719 -1.4791104 0.40034077 30
2.9501224 -1.4805325 0.28543505 25
2.9480655 -1.4801445 0.17087689 25
2.9424267 -1.4779565 0.056807578 22
1.7336875 -0.87309164 -0.50987375 6
1.9746352 -0.99486589 -0.50164115 4
2.3527691 -1.1858932 -0.504237 4
2.9268093 -1.4758739 -0.51310545 6
2.9717934 -1.4992083 -0.4039973 15
2.9556489 -1.4917109 -0.28630704 23
2.9447262 -1.4868431 -0.17030828 28
2.947999 -1.4891413 -0.056412797 28
2.9438474 -1.4876893 0.87294525 25
2.9472637 -1.4900615 0.75301629 24
2.9467802 -1.4904629 0.63387018 25
2.9512649 -1.4933782 0.51722747 27
2.9475586 -1.4921489 0.40095013 29
2.9491198 -1.4935859 0.28587085 27
2.9470747 -1.4931966 0.17113857 23
2.9414492 -1.4909915 0.056894843 23
1.7349352 -0.88132536 -0.51116782 6
1.9711505 -1.0017526 -0.50164115 4
2.3486152 -1.1940986 -0.504237 4
2.9216397 -1.4860814 -0.51310545 6
2.9709649 -1.5118233 -0.40460667 14
2.9504237 -1.5020189 -0.28630704 23
2.9439676 -1.4993792 -0.17056909 27
2.9427829 -1.4994228 -0.056412797 27
2.9429393 -1.5001495 0.87423849 25
2.9463847 -1.5025537 0.75414026 25
2.9459317 -1.5029706 0.63482338 25
2.9504325 -1.505916 0.51800871 26
2.9467518 -1.5046855 0.40155947 28
2.948324 -1.5061371 0.28630662 27
2.9462905 -1.505747 0.17140025 24
2.9406748 -1.5035317 0.056982104 22
1.7320031 -0.88707376 -0.51116782 7
1.9679937 -1.0079402 -0.50164115 4
2.3448522 -1.2014711 -0.504237 4
2.9213512 -1.4975053 -0.51388764 6
2.9706166 -1.5234139 -0.40521601 14
2.9501224 -1.5135542 -0.28674284 23
2.9436848 -1.5109006 -0.17082989 28
2.9425054 -1.5109441 -0.056499191 28
2.9425082 -1.5115947 0.87553179 26
2.9503164 -1.5162567 0.75638807 25
2.9455609 -1.5144625 0.63577664 25
2.950079 -1.5174366 0.51879007 25
2.9464231 -1.5162065 0.40216881 28
2.9480062 -1.5176719 0.28674239 26
2.9459848 -1.5172819 0.17166193 23
2.9403839 -1.5150465 0.057069365 22
1.7290519 -0.89281243 -0.51116782 8
1.9644632 -1.0148036 -0.50164115 4
2.3406439 -1.2096488 -0.504237 4
2.9161062 -1.5076936 -0.51388764 6
2.9696891 -1.5360541 -0.40582538 14
2.9492445 -1.526132 -0.28717861 24
2.942827 -1.5234623 -0.17109071 28
2.9416523 -1.5235051 -0.056585576 26
2.9415021 -1.5240785 0.87682498 26
2.949331 -1.528788 0.75751191 25
2.9446135 -1.5269947 0.63672978 24
2.9535315 -1.5322735 0.52035266 25
2.9455173 -1.5287682 0.40277815 28
2.9471111 -1.5302485 0.28717816 25
2.9451015 -1.5298576 0.17192361 23
2.9395132 -1.5276064 0.057156626 21
1.725768 -0.8991437 -0.51116782 7
1.9607307 -1.021997 -0.50164115 5
2.3361945 -1.2182196 -0.504237 4
2.9149392 -1.5206558 -0.51466984 5
2.9684386 -1.5492245 -0.40643471 14
2.9480469 -1.5392367 -0.28761441 24
2.9416492 -1.5365498 -0.17135151 26
2.9404795 -1.5365921 -0.05667197 27
2.9444568 -1.5393248 0.87941152 27
2.9480252 -1.5418456 0.75863582 26
2.9433463 -1.5400527 0.63768297 25
2.9522712 -1.5453789 0.52113402 25
2.9442909 -1.5418562 0.40338752 30
2.9458947 -1.5433515 0.28761396 26
2.943897 -1.5429597 0.17218529 21
2.9383223 -1.5406916 0.057243891 22
1.7183435 -0.90291578 -0.50987375 6
1.9571514 -1.0288349 -0.50164115 5
2.331928 -1.226367 -0.504237 4
2.9139838 -1.5331209 -0.51545197 5
2.9674044 -1.5618882 -0.40704405 14
2.9470632 -1.5518386 -0.28805017 22
2.9406857 -1.549136 -0.17161232 29
2.943943 -1.5515084 -0.056844749 26
2.9433382 -1.551846 0.88070476 26
2.9469345 -1.5543997 0.75975972 26
2.9422934 -1.552608 0.63863617 25
2.951226 -1.5579803 0.52191532 24
2.943279 -1.5544418 0.40399686 28
2.9492977 -1.558279 0.2884855 25
2.9429076 -1.5555598 0.17244697 23
2.9373455 -1.5532758 0.057331149 23
1.7151814 -0.90890843 -0.50987375 5
1.9535481 -1.0356605 -0.50164115 5
2.3276331 -1.2344996 -0.504237 4
2.9129765 -1.5455979 -0.51623416 5
2.9663179 -1.5745637 -0.40765342 14
2.9460275 -1.5644525 -0.28848594 23
2.9396696 -1.5617341 -0.17187312 27
2.9429238 -1.5641215 -0.056931138 25
2.9421678 -1.5643783 0.881998 25
2.9457922 -1.566965 0.76088363 25
2.9411888 -1.5651749 0.63958937 26
2.950129 -1.5705935 0.52269661 26
2.9422152 -1.5670393 0.40460619 28
2.948236 -1.5709068 0.28892127 25
2.9418659 -1.5681717 0.17270865 23
2.931906 -1.5635196 0.057331149 24
1.7119982 -0.91488999 -0.50987375 5
1.949921 -1.0424733 -0.50164115 5
2.3233097 -1.2426169 -0.504237 4
2.9075637 -1.5557567 -0.51623416 5
2.9651787 -1.5872505 -0.40826276 14
2.9449396 -1.5770779 -0.28892171 22
2.9386017 -1.5743439 -0.17213394 28
2.9418523 -1.5767463 -0.057017531 26
2.9409456 -1.5769212 0.8832913 26
2.9445977 -1.5795411 0.76200753 26
2.9400322 -1.5777531 0.64054251 25
2.9489796 -1.5832176 0.52347791 25
2.9410994 -1.5796481 0.40521553 27
2.9471223 -1.5835459 0.28935707 26
2.9451699 -1.5831594 0.173232 23
2.9264302 -1.5737443 0.057331149 20
1.7045426 -0.91856927 -0.50857961 5
1.9419817 -1.0469614 -0.50051636 4
2.3189578 -1.2507193 -0.504237 4
2.9064615 -1.5682415 -0.51701629 5
2.9639871 -1.5999486 -0.40887213 14
2.9437993 -1.5897149 -0.28935751 19
2.9374812 -1.5869652 -0.17239475 26
2.9407284 -1.5893826 -0.057103917 25
2.9439204 -1.5917718 0.88587779 26
2.9390659 -1.58981 0.76200753 25
2.9345069 -1.588006 0.64054251 25
2.9477782 -1.595853 0.52425927 25
2.9442952 -1.5946318 0.40643427 28
2.950336 -1.5985695 0.29022864 24
2.9440157 -1.5958098 0.17349368 24
2.9384975 -1.5934824 0.057680197 20
1.7013258 -0.92451358 -0.50857961 5
1.9383153 -1.0537338 -0.50051636 4
2.310266 -1.2564613 -0.50328374 4
2.9009697 -1.5783774 -0.51701629 5
2.962743 -1.6126578 -0.40948144 13
2.9426067 -1.6023631 -0.28979328 20
2.9363089 -1.5995981 -0.17265557 23
2.9395525 -1.6020304 -0.05719031 24
2.9425867 -1.6043502 0.88717103 25
2.9463303 -1.6070585 0.76537925 25
2.9332545 -1.6005908 0.64149576 25
2.9465246 -1.6084993 0.52504057 25
2.9343555 -1.6025209 0.4058249 26
2.9447379 -1.6088585 0.29022864 26
2.9384272 -1.6060766 0.17349368 23
2.9329174 -1.60373 0.057680197 19
1.6980882 -0.93044668 -0.50857961 5
1.9346253 -1.0604934 -0.50051636 4
2.305866 -1.2645179 -0.50328374 4
2.8954425 -1.5884941 -0.51701629 5
2.9701476 -1.6301532 -0.41130951 14
2.9806566 -1.636598 -0.2941511 19
2.93946 -1.6146458 -0.17317718 24
2.9689927 -1.6315428 -0.057881434 24
2.9327364 -1.6122854 0.88587779 24
2.9449718 -1.6196812 0.76650316 25
2.9405503 -1.6179183 0.6443553 25
2.9581978 -1.6283004 0.52816576 24
2.937438 -1.6175417 0.40704358 28
2.9478295 -1.6239344 0.29110017 24
2.9415491 -1.6211438 0.17401704 21
2.9754586 -1.6405092 0.058640081 20
1.6990573 -0.93870407 -0.50987375 5
1.9309117 -1.06724 -0.50051636 4
2.3014381 -1.2725592 -0.50328374 4
2.8855586 -1.5962011 -0.51623416 5
2.9687815 -1.6429139 -0.41191885 12
3.0054297 -1.6638803 -0.29720154 20
2.981854 -1.6515082 -0.17604607 23
2.9895165 -1.6564341 -0.058399774 26
2.9439874 -1.6318789 0.89105082 25
2.9691255 -1.6464906 0.77437049 23
2.9778056 -1.6519836 0.65388715 22
2.991359 -1.6601855 0.53519756 23
2.9708233 -1.6494665 0.41252771 25
2.9856863 -1.6584007 0.29545796 23
2.9795182 -1.6556551 0.17663385 21
3.0090394 -1.6727468 0.05942544 19
1.6957704 -0.94462913 -0.50987375 5
1.9314303 -1.0763453 -0.50164115 4
2.296982 -1.2805849 -0.50328374 3
2.8799691 -1.6062636 -0.51623416 4
3.0020323 -1.6750298 -0.41740298 9
3.0256989 -1.6889275 -0.29981622 21
3.019666 -1.6862512 -0.17865416 23
3.0186315 -1.6863647 -0.059090894 23
2.9804339 -1.6657082 0.90398329 25
2.9888752 -1.6711104 0.78111392 22
3.0062909 -1.6815367 0.66151267 24
3.0243335 -1.6923215 0.54222941 22
2.9996908 -1.6792197 0.41740248 26
3.0189922 -1.6907169 0.29937997 24
3.0172813 -1.6904504 0.17925064 20
3.0249867 -1.6954613 0.059861749 21
1.6924627 -0.95054269 -0.50987375 5
1.9276615 -1.0830808 -0.50164115 4
2.2924979 -1.2885951 -0.50328374 3
2.8743448 -1.6163069 -0.51623416 4
3.0221188 -1.7000978 -0.42105904 9
3.0241258 -1.7019218 -0.30025199 19
3.0224633 -1.7016808 -0.17917578 24
3.0214384 -1.7017982 -0.059263673 26
3.0208876 -1.7021828 0.91820908 23
3.0212214 -1.7030654 0.79122907 22
3.0260551 -1.7064863 0.6672318 24
3.0313113 -1.7101477 0.54457331 23
3.0240641 -1.706755 0.42166793 26
3.0260842 -1.7085916 0.30068731 22
3.0244048 -1.7083396 0.18003568 19
3.0190499 -1.7060101 0.059861749 19
1.6891344 -0.95644474 -0.50987375 5
1.9196299 -1.0874016 -0.50051636 4
2.2879858 -1.2965896 -0.50328374 4
2.8729815 -1.6287659 -0.51701629 4
3.0377498 -1.722878 -0.42410579 8
3.0268312 -1.7173837 -0.30112356 20
3.0208473 -1.7146857 -0.17943659 25
3.024174 -1.7172718 -0.059436455 24
3.0233264 -1.7174884 0.92079562 23
3.0237296 -1.7184155 0.79347688 22
3.0243466 -1.7194647 0.668185 23
3.0339088 -1.7256019 0.5461359 23
3.0267146 -1.7222093 0.42288661 25
3.033088 -1.7265365 0.30199465 23
3.0227621 -1.7213572 0.18029736 18
3.0217643 -1.7214875 0.060036272 18
1.6857854 -0.96233511 -0.50987375 5
1.9158224 -1.0940957 -0.50051636 4
2.2834461 -1.3045683 -0.50328374 3
2.8672783 -1.6387846 -0.51701629 4
3.040334 -1.7383981 -0.4253245 8
3.0251415 -1.7304121 -0.30155933 20
3.0235112 -1.7301799 -0.17995821 25
3.0224998 -1.7303014 -0.059522845 24
3.0298865 -1.7352324 0.92467535 23
3.0261674 -1.7338039 0.79572469 21
3.0225847 -1.732452 0.66913819 22
3.0321512 -1.7386383 0.54691726 23
3.0249891 -1.7352332 0.42349595 24
3.031363 -1.7395927 0.30243042 23
3.0253956 -1.7368702 0.18082072 18
3.020072 -1.7345148 0.060123537 18
1.6824161 -0.96821368 -0.50987375 5
1.9119917 -1.1007766 -0.50051636 4
2.2746251 -1.3100812 -0.5023306 3
2.8658195 -1.6512488 -0.51779848 4
3.0385466 -1.7514784 -0.42593384 8
3.0277128 -1.7459376 -0.3024309 21
3.0217786 -1.7432184 -0.18021902 23
3.0251012 -1.7458391 -0.059695628 26
3.0238109 -1.745798 0.92467535 23
3.0243156 -1.7467934 0.7968486 22
3.0207686 -1.7454478 0.67009133 24
3.0303395 -1.7516834 0.54769856 23
3.0232098 -1.7482662 0.42410532 25
3.0295835 -1.7526577 0.30286619 23
3.0236359 -1.7499212 0.18108241 21
3.0183251 -1.7475511 0.060210798 18
1.679026 -0.97408056 -0.50987375 5
1.9081377 -1.1074439 -0.50051636 3
2.2700381 -1.3180132 -0.5023306 3
2.860038 -1.6612422 -0.51779848 4
3.0367053 -1.7645676 -0.42654318 8
3.0259058 -1.7589989 -0.30286667 20
3.024308 -1.7587762 -0.18074064 24
3.0233102 -1.7589021 -0.059782017 24
3.021873 -1.758772 0.92596859 23
3.0224104 -1.7597911 0.7979725 24
3.0188987 -1.7584521 0.67104459 22
3.0327401 -1.7672234 0.54926115 23
3.0213764 -1.7613078 0.42471462 28
3.02775 -1.7657316 0.30330199 23
3.026135 -1.7654976 0.18160577 19
3.0165246 -1.7605964 0.060298059 18
1.6756157 -0.97993553 -0.50987375 5
1.9042603 -1.1140977 -0.50051636 3
2.2654235 -1.325929 -0.5023306 3
2.8542221 -1.6712155 -0.51779848 3
3.0390916 -1.7801735 -0.42776188 7
3.0240452 -1.7720691 -0.30330247 20
3.0224578 -1.7718475 -0.18100145 25
3.0214643 -1.7719737 -0.059868407 25
3.0198812 -1.7717538 0.92726189 23
3.0204506 -1.7727965 0.79909641 23
3.0169749 -1.7714645 0.67199773 22
3.0308115 -1.7803003 0.55004251 22
3.023767 -1.7768723 0.42593333 26
3.025862 -1.7788138 0.30373776 23
3.0242577 -1.778581 0.18186744 18
3.0146694 -1.7736503 0.060385324 18
1.6721848 -0.98577851 -0.50987375 5
1.9003597 -1.120738 -0.50051636 3
2.2565539 -1.3313348 -0.5013774 3
2.8483708 -1.6811684 -0.51779848 3
3.0371325 -1.7932944 -0.42837122 8
3.0264184 -1.7876805 -0.30417401 19
3.0205531 -1.7849272 -0.18126225 26
3.0195642 -1.785054 -0.0599548 23
3.0219927 -1.7872016 0.92984837 24
3.0184371 -1.78581 0.80022031 22
3.0149968 -1.784485 0.67295092 22
3.0288279 -1.7933851 0.55082375 21
3.021816 -1.7899457 0.4265427 25
3.0282044 -1.7944437 0.30460933 23
3.0266211 -1.7942191 0.18239079 19
3.0127597 -1.7867128 0.060472585 17
1.6647543 -0.98885179 -0.50857961 5
1.8924448 -1.1245452 -0.49939165 3
2.2521269 -1.3388104 -0.5013774 3
2.8427804 -1.6906049 -0.51779848 4
3.0396988 -1.8084307 -0.4295899 7
3.0247536 -1.8002541 -0.30460978 19
3.0231981 -1.800043 -0.18178387 22
3.0222182 -1.8001741 -0.060127579 24
3.0201986 -1.7996851 0.93114161 22
3.0208685 -1.8007991 0.80246812 22
3.017494 -1.7995013 0.67485732 22
3.0313466 -1.8084795 0.5523864 22
3.0243866 -1.8050432 0.42776138 25
3.0265141 -1.8070292 0.3050451 21
3.0249414 -1.8068066 0.18265249 19
3.0154009 -1.8018222 0.060647108 19
1.6612924 -0.99465686 -0.50857961 5
1.8885078 -1.1311442 -0.49939165 3
2.2474396 -1.3466637 -0.5013774 4
2.8368616 -1.7005175 -0.51779848 4
3.0376241 -1.8215827 -0.43019927 7
3.026994 -1.8159264 -0.30548134 18
3.0211778 -1.8131543 -0.18204468 23
3.0202017 -1.8132856 -0.060213968 24
3.0180387 -1.8127037 0.93243486 24
3.0187402 -1.8138421 0.80359203 24
3.0154009 -1.812552 0.67581046 23
3.0292478 -1.8215951 0.5531677 22
3.02232 -1.8181474 0.42837071 25
3.0244553 -1.820151 0.30548087 22
3.0271714 -1.8225052 0.18317585 18
3.0133755 -1.8149164 0.060734373 18
1.6578103 -1.0004498 -0.50857961 5
1.8845479 -1.1377294 -0.49939165 3
2.2427251 -1.3545005 -0.5013774 4
2.8351352 -1.7129636 -0.51858068 3
3.0354943 -1.834742 -0.4308086 8
3.024899 -1.8290588 -0.30591714 17
3.0191026 -1.8262737 -0.18230549 23
3.022408 -1.8289937 -0.060386747 24
3.0158243 -1.8257288 0.9337281 22
3.0165579 -1.8268924 0.80471593 22
3.0132535 -1.8256099 0.67676371 24
3.0270941 -1.8347179 0.553949 22
3.0201988 -1.8312595 0.42898008 25
3.0223424 -1.8332807 0.30591667 22
3.0250597 -1.8356513 0.18343751 20
3.015569 -1.8306123 0.060908895 19
1.654308 -1.0062305 -0.50857961 5
1.880565 -1.1443008 -0.49939165 3
2.2421763 -1.3648729 -0.5023306 3
2.8291388 -1.7228496 -0.51858068 3
3.0375476 -1.8504905 -0.43202728 7
3.0270026 -1.8447907 -0.30678868 18
3.0169725 -1.8394004 -0.1825663 23
3.0202734 -1.842136 -0.06047314 25
3.013556 -1.8387604 0.9350214 26
3.0184793 -1.8424877 0.80696374 21
3.0152404 -1.841233 0.67867005 23
3.0248857 -1.8478477 0.55473036 22
3.0180223 -1.8443785 0.42958942 25
3.0201743 -1.8464174 0.30635244 23
3.027153 -1.8514099 0.18396087 19
3.0134251 -1.8437365 0.060996156 18
1.6507856 -1.011999 -0.50857961 5
1.8765594 -1.1508582 -0.49939165 3
2.2373981 -1.3726913 -0.5023306 4
2.8231075 -1.7327148 -0.51858068 4
3.0352991 -1.8636789 -0.43263665 8
3.0247889 -1.8579526 -0.30722445 17
3.019042 -1.8551486 -0.18308793 24
3.0180838 -1.8552855 -0.060559526 24
3.0112333 -1.8517985 0.93631458 21
3.0161796 -1.855566 0.80808765 23
3.012975 -1.8543195 0.67962325 22
3.0226223 -1.8609843 0.55551165 23
3.0157917 -1.8575047 0.43019876 25
3.0179513 -1.8595616 0.30678821 23
3.0249226 -1.8645854 0.18422256 18
3.015481 -1.8594921 0.061170679 18
1.6472429 -1.0177552 -0.50857961 5
1.8683863 -1.15484 -0.49826688 3
2.2325931 -1.3804929 -0.5023306 3
2.8128424 -1.7399607 -0.51779848 4
3.032995 -1.8768741 -0.43324599 7
3.0225203 -1.8711218 -0.30766025 17
3.0167928 -1.8683046 -0.18334873 22
3.0200887 -1.871075 -0.060732309 24
3.0129614 -1.8673872 0.93890113 23
3.0179651 -1.8712177 0.81033546 21
3.0148261 -1.87 0.68152958 22
3.0203044 -1.874128 0.55629295 21
3.0135057 -1.8706379 0.4308081 25
3.0199049 -1.8753402 0.30765978 22
3.0226367 -1.8777678 0.18448423 19
3.0132179 -1.8726456 0.061257944 19
1.6395805 -1.020946 -0.50728554 5
1.8643438 -1.1613548 -0.49826688 3
2.2277606 -1.3882778 -0.5023306 3
2.8025606 -1.7471561 -0.51701629 4
3.0306358 -1.890076 -0.43385535 8
3.0244224 -1.8869342 -0.30853182 17
3.0187244 -1.8841114 -0.18387035 24
3.0177796 -1.8842535 -0.060818698 24
3.0105214 -1.8804518 0.94019437 22
3.0155468 -1.8843228 0.81145936 21
3.0166044 -1.8857157 0.68343604 24
3.0179312 -1.8872778 0.55707425 21
3.015372 -1.8864095 0.4320268 24
3.0175624 -1.8885128 0.30809554 22
3.0202959 -1.8909572 0.18474592 18
3.0108998 -1.8858058 0.061345205 18
1.6360067 -1.0266631 -0.50728554 5
1.8602785 -1.1678555 -0.49826688 3
2.2229011 -1.3960456 -0.5023306 3
2.7964449 -1.7569281 -0.51701629 4
3.0282216 -1.9032843 -0.43446469 7
3.0220337 -1.900131 -0.30896756 18
3.0163562 -1.897296 -0.18413116 23
3.015415 -1.8974384 -0.060905088 23
3.0121138 -1.896095 0.94278091 23
3.0171962 -1.9000298 0.81370717 20
3.0141566 -1.8988504 0.68438917 22
3.0196812 -1.903067 0.55863684 21
3.0129673 -1.8995705 0.43263614 25
3.0151651 -1.9016917 0.30853134 23
3.0178995 -1.9041528 0.18500759 18
3.0127537 -1.9016411 0.061519727 18
1.6283313 -1.0297861 -0.50599146 4
1.8561906 -1.174342 -0.49826688 3
2.2221618 -1.4064214 -0.50328374 3
2.7861226 -1.7640373 -0.51623416 4
3.0257521 -1.9164988 -0.43507403 7
3.0195901 -1.9133343 -0.30940336 18
3.013932 -1.9104863 -0.18439196 22
3.0172172 -1.9133071 -0.061077867 21
3.0095551 -1.9091849 0.94407409 23
3.0146594 -1.913161 0.81483108 24
3.0157976 -1.9146217 0.68629557 21
3.0171888 -1.9162439 0.5594182 22
3.0146956 -1.9153988 0.43385485 23
3.0127122 -1.9148768 0.30896711 21
3.0154481 -1.9173548 0.18526928 19
3.0103157 -1.9148293 0.061606992 17
1.6247268 -1.0354638 -0.50599146 4
1.85208 -1.1808141 -0.49826688 3
2.2131007 -1.4115303 -0.5023306 3
2.779948 -1.7737519 -0.51623416 4
3.023227 -1.929719 -0.43568337 8
3.017091 -1.9265437 -0.30983913 17
3.0156608 -1.9263715 -0.18491358 23
3.0147328 -1.9265195 -0.06116426 23
3.0110114 -1.9248817 0.94666064 24
3.0161717 -1.9289222 0.81707889 22
3.0132303 -1.9277822 0.68724877 22
3.0188007 -1.9320886 0.5609808 21
3.0121706 -1.9285864 0.43446419 22
3.0143981 -1.9307545 0.30983865 22
3.0171452 -1.9332566 0.18579264 18
3.007822 -1.9280235 0.061694253 18
1.6211023 -1.0411288 -0.50599146 4
1.852046 -1.1899055 -0.49939165 3
2.2081602 -1.4192467 -0.5023306 3
2.7695856 -1.7807741 -0.51545197 4
3.0248201 -1.9456296 -0.43690211 7
3.0187252 -1.9424542 -0.3107107 18
3.0131168 -1.939589 -0.18517439 21
3.0121927 -1.9397378 -0.061250649 22
3.0083344 -1.937996 0.94795388 22
3.0135155 -1.942078 0.81820279 21
3.0147336 -1.9436079 0.68915516 20
3.0161881 -1.9452912 0.56176215 20
3.0137603 -1.94447 0.43568286 23
3.0118253 -1.9439664 0.31027445 19
3.0145731 -1.9464852 0.18605432 18
3.0094726 -1.9439359 0.061868776 17
1.6174582 -1.0467812 -0.50599146 4
1.8478811 -1.196363 -0.49939165 3
2.2031925 -1.426946 -0.5023306 3
2.7633526 -1.7904308 -0.51545197 4
3.0221748 -1.9588757 -0.43751144 7
3.0161057 -1.9556895 -0.31114647 17
3.0147061 -1.9555295 -0.18569601 23
3.0095973 -1.9529619 -0.061337039 22
3.0096533 -1.953745 0.95054042 21
3.0148897 -1.9578924 0.8204506 20
3.0120463 -1.9567933 0.6901083 22
3.0176613 -1.9611902 0.56332475 21
3.0111153 -1.9576836 0.43629223 23
3.0133724 -1.9598989 0.31114599 21
3.0161304 -1.9624423 0.18657768 18
3.0068583 -1.9571563 0.061956041 18
1.6137946 -1.0524207 -0.50599146 4
1.8436937 -1.2028061 -0.49939165 3
2.1981981 -1.4346279 -0.5023306 3
2.757086 -1.8000658 -0.51545197 4
3.0236287 -1.9748408 -0.43873012 7
3.0176005 -1.9716549 -0.31201804 17
3.0120411 -1.9687726 -0.18595681 23
3.0111301 -1.9689273 -0.061509822 23
3.0068569 -1.9668825 0.95183361 21
3.012114 -1.9710721 0.82157451 22
3.0093045 -1.9699838 0.69106156 20
3.0149286 -1.9744173 0.56410605 21
