# .PCD v0.7 - Point Cloud Data file format
VERSION 0.7
FIELDS x y z intensity
SIZE 4 4 4 4
TYPE F F F F
COUNT 1 1 1 1
WIDTH 1289
HEIGHT 1
VIEWPOINT 0 0 0 1 0 0 0
POINTS 1289
DATA ascii
-1.1280574 -0.800188 0.023473486 29
-1.1348768 -0.80353773 -0.36234683 11
-1.1367135 -0.80454034 -0.31268215 14
-1.1290989 -0.79885519 -0.26117378 29
-1.1279168 -0.79772341 -0.21275105 30
-1.1577643 -0.81853002 -0.16939858 29
-1.1417103 -0.80688119 -0.11896777 28
-1.1282632 -0.79708248 -0.070157625 29
-1.1419848 -0.80647755 -0.023498135 28
-1.1439408 -0.80755973 0.36469713 28
-1.1458417 -0.80860204 0.31469339 28
-1.1462566 -0.80859512 0.26498634 26
-1.1532761 -0.81324548 0.21720427 27
-1.1467373 -0.80833495 0.16757034 27
-1.1591226 -0.81676257 0.12071071 32
-1.1416115 -0.80412537 0.071176901 30
-1.1390188 -0.80200177 0.023648011 27
-1.1416262 -0.80234843 -0.3636409 10
-1.1514741 -0.80896944 -0.31605643 15
-1.1358974 -0.79772991 -0.26212698 28
-1.1347364 -0.796619 -0.21353322 28
-1.168739 -0.82018524 -0.17061727 28
-1.1485976 -0.8057515 -0.11940356 29
-1.1392151 -0.79887295 -0.07067924 29
-1.144793 -0.80248642 -0.023498135 28
-1.1507082 -0.80633342 0.36599037 28
-1.1566381 -0.8101877 0.3169412 27
-1.1571133 -0.81021965 0.26689273 28
-1.1601539 -0.81204683 0.21798559 25
-1.1536181 -0.80717224 0.16817969 26
-1.1660483 -0.8155663 0.12114649 30
-1.1485035 -0.80299658 0.071438581 29
-1.1459091 -0.8008849 0.023735272 27
-1.1483811 -0.80112183 -0.36493501 10
-1.1662794 -0.81330526 -0.31943068 15
-1.146728 -0.79937375 -0.26403335 27
-1.141562 -0.7954765 -0.2143154 29
-1.175667 -0.81893712 -0.17122662 28
-1.1595784 -0.80742973 -0.12027511 30
-1.1460949 -0.79774398 -0.070940048 29
-1.1516908 -0.80134076 -0.023584524 29
-1.1574808 -0.80506963 0.36728364 27
-1.1634594 -0.80892664 0.31806511 27
-1.163965 -0.80897689 0.2678459 28
-1.167037 -0.81080991 0.2187669 28
-1.1605047 -0.80597126 0.16878903 27
-1.1729796 -0.81433165 0.12158226 30
-1.1595037 -0.80467623 0.071961939 27
-1.1528052 -0.79972959 0.023822535 27
-1.1551411 -0.79985768 -0.36622912 10
-1.1771228 -0.81477475 -0.32168019 12
-1.1535478 -0.79815888 -0.26498654 28
-1.1483934 -0.79429609 -0.21509758 28
-1.1826004 -0.81765056 -0.17183596 26
-1.1664875 -0.80620921 -0.12071089 26
-1.1570888 -0.79941499 -0.07146167 29
-1.1627082 -0.80299759 -0.023757305 32
-1.1682334 -0.80651236 0.36987013 28
-1.1742957 -0.81039494 0.32031292 29
-1.1708219 -0.80769604 0.2687991 26
-1.1739259 -0.80953497 0.21954821 29
-1.167397 -0.80473214 0.16939838 26
-1.1799165 -0.81305856 0.12201804 29
-1.1664176 -0.80345637 0.072223619 23
-1.1597073 -0.79853582 0.023909796 27
-1.1619064 -0.79855621 -0.36752319 10
-1.1879908 -0.81617832 -0.3239297 13
-1.1603729 -0.79690605 -0.26593971 26
-1.1552303 -0.79307759 -0.21587974 30
-1.1936312 -0.81913376 -0.17305467 29
-1.1775094 -0.80776781 -0.12158245 27
-1.1639901 -0.79819494 -0.071722478 27
-1.1696275 -0.80176067 -0.023843694 29
-1.1750257 -0.80515969 0.3711634 28
-1.1811368 -0.80904424 0.32143679 28
-1.1776841 -0.80637717 0.26975229 28
-1.1808199 -0.80822164 0.22032951 26
-1.1742947 -0.80345458 0.17000772 27
-1.1868588 -0.81174684 0.12245382 33
-1.1733369 -0.80219805 0.072485298 28
-1.166615 -0.79730356 0.023997057 27
-1.1686765 -0.79721713 -0.3688173 10
-1.1988828 -0.81751591 -0.32617921 13
-1.1712589 -0.79837984 -0.26784611 27
-1.1661538 -0.79460192 -0.21744409 30
-1.2005848 -0.81775594 -0.173664 27
-1.1844389 -0.80645597 -0.12201823 27
-1.1750249 -0.79974592 -0.072244093 25
-1.1806858 -0.80329734 -0.024016475 31
-1.1858165 -0.80648541 0.37374988 26
-1.192012 -0.81039476 0.3236846 27
-1.1886108 -0.80777919 0.27165866 25
-1.1918041 -0.80964518 0.22189213 29
-1.1811978 -0.80213869 0.17061707 26
-1.1938062 -0.81039649 0.12288959 31
-1.1843933 -0.80370474 0.073008657 24
-1.1776655 -0.79883927 0.024171581 30
-1.1794506 -0.79854816 -0.37140548 10
-1.2057638 -0.81605667 -0.32730398 13
-1.1781039 -0.79703683 -0.26879928 28
-1.1730112 -0.79329294 -0.21822625 27
-1.2075435 -0.81633955 -0.17427336 27
-1.1913738 -0.80510545 -0.12245401 28
-1.1860845 -0.80122954 -0.072765715 31
-1.1917688 -0.80476648 -0.024189256 29
-1.196631 -0.8077457 0.3763364 27
-1.1988721 -0.808954 0.32480851 24
-1.1954925 -0.80636996 0.27261186 27
-1.1987177 -0.80824101 0.22267345 26
-1.192221 -0.80355793 0.17183577 25
-1.2048894 -0.8117907 0.12376115 34
-1.1913329 -0.80235481 0.073270336 28
-1.1845938 -0.79751551 0.024258845 25
-1.1902481 -0.79981363 -0.37399366 10
-1.2166934 -0.81727588 -0.32955348 13
-1.1849538 -0.79565579 -0.26975247 28
-1.1839738 -0.79469794 -0.21979061 27
-1.2186277 -0.81764954 -0.17549205 26
-1.2024503 -0.80649084 -0.12332556 26
-1.1930214 -0.79986501 -0.073026523 26
-1.1987236 -0.80338478 -0.024275646 27
-1.2074684 -0.80894017 0.37892288 26
-1.2097849 -0.81018633 0.32705632 27
-1.2064573 -0.80765283 0.27451822 25
-1.2097404 -0.80954498 0.22423606 23
-1.1991436 -0.80215073 0.17244512 27
-1.2159969 -0.81311733 0.12463271 36
-1.2024288 -0.80374092 0.073793694 26
-1.195684 -0.79893059 0.024433367 26
-1.2010688 -0.80101347 -0.37658185 9
-1.2235924 -0.81572622 -0.33067822 13
-1.1958928 -0.79695851 -0.27165884 26
-1.1908507 -0.79329824 -0.22057277 26
-1.2256051 -0.81614149 -0.17610139 25
-1.2094045 -0.8050487 -0.12376134 27
-1.2041203 -0.80122799 -0.073548138 23
-1.2098455 -0.80473304 -0.024448426 25
-1.2143067 -0.80739468 0.38021615 26
-1.2166631 -0.80865526 0.32818022 26
-1.2133574 -0.80615282 0.27547142 26
-1.2207867 -0.81078172 0.22579868 24
-1.2060709 -0.80070496 0.17305446 27
-1.222978 -0.81162202 0.12506849 29
-1.2093878 -0.80229896 0.074055374 25
-1.2067981 -0.80027771 0.024607891 24
-1.2119123 -0.80214739 -0.37917006 10
-1.2304955 -0.81413847 -0.33180302 13
-1.2027614 -0.79548687 -0.27261204 27
-1.2018516 -0.79458362 -0.22213712 25
-1.2367269 -0.81733078 -0.17732009 25
-1.2163633 -0.80356771 -0.12419713 27
-1.2110764 -0.79977149 -0.073808946 27
-1.2168195 -0.80325919 -0.024534816 29
-1.2251803 -0.80847138 0.38280267 26
-1.2235453 -0.80708605 0.32930413 28
-1.2243593 -0.80731636 0.27737778 24
-1.2277329 -0.80923331 0.22657999 23
-1.2171466 -0.80195099 0.17427315 23
-1.2341232 -0.81282759 0.12594004 27
-1.2205219 -0.80356407 0.074578732 26
-1.2179363 -0.801557 0.024782415 26
-1.2227782 -0.80321527 -0.38175827 9
-1.2414746 -0.81518638 -0.33405253 13
-1.2137375 -0.79667026 -0.27451843 28
-1.2087469 -0.79309279 -0.22291929 29
-1.2437223 -0.81573051 -0.17792943 25
-1.2274919 -0.80477905 -0.12506868 26
-1.2180369 -0.79827619 -0.074069753 28
-1.2237977 -0.80174643 -0.024621205 29
-1.2320354 -0.80683583 0.38409594 26
-1.2304316 -0.80547857 0.33042803 29
-1.231277 -0.80572522 0.27833098 27
-1.2388159 -0.8103497 0.2281426 27
-1.2240921 -0.80041337 0.1748825 27
-1.2411224 -0.81123996 0.12637582 32
-1.2274995 -0.80202985 0.074840412 28
-1.2249124 -0.80003452 0.024869677 24
-1.2296203 -0.80157954 -0.38305238 9
-1.2483943 -0.81350768 -0.33517727 13
-1.2247365 -0.79778665 -0.2764248 26
-1.2197849 -0.794258 -0.22448364 27
-1.2548807 -0.81679869 -0.17914812 26
-1.2344685 -0.80320585 -0.12550446 27
-1.2291874 -0.79946429 -0.074591376 25
-1.2307801 -0.80019468 -0.024707597 29
-1.2429436 -0.80779421 0.38668242 25
-1.2414068 -0.8064872 0.33267587 28
-1.2423151 -0.80676895 0.28023735 23
-1.2457793 -0.80870956 0.22892392 24
-1.2352047 -0.80153853 0.17610119 25
-1.2481253 -0.80961335 0.12681161 28
-1.2386706 -0.80317324 0.07536377 27
-1.2360877 -0.8011921 0.025044201 27
-1.2405211 -0.80252922 -0.38564056 10
-1.2594084 -0.81443608 -0.33742678 13
-1.2357578 -0.79883593 -0.27833116 28
-1.2266977 -0.79267567 -0.2252658 28
-1.2660615 -0.81779879 -0.18036683 26
-1.2456337 -0.80429566 -0.12637602 25
-1.2361659 -0.7978766 -0.074852183 28
-1.2377666 -0.79860377 -0.024793986 25
-1.2498147 -0.80606842 0.38797569 26
-1.2483094 -0.80478895 0.33379978 27
-1.2533752 -0.80774522 0.28214374 25
-1.2527463 -0.80703062 0.22970523 24
-1.2421676 -0.79990888 0.17671053 23
-1.2509439 -0.80525166 0.12681161 32
-1.2456656 -0.80154657 0.075625449 29
-1.2430813 -0.79957688 0.025131464 24
-1.2473791 -0.80080318 -0.38693464 10
-1.2704438 -0.81529748 -0.33967629 13
-1.2468014 -0.79981792 -0.28023756 25
-1.2377714 -0.79372036 -0.22683015 28
-1.2730867 -0.81605268 -0.18097618 25
-1.2568214 -0.8053171 -0.12724757 25
-1.243148 -0.79624981 -0.075112991 25
-1.2447571 -0.796974 -0.024880376 28
-1.2566888 -0.80430442 0.38926893 26
-1.2593188 -0.80567783 0.33604759 23
-1.2603221 -0.80600971 0.28309694 23
-1.2597169 -0.80531293 0.23048656 22
-1.2533158 -0.80091262 0.17792922 24
-1.2579446 -0.80356157 0.12724738 35
-1.2568727 -0.8025679 0.076148808 25
-1.2542928 -0.80061245 0.025305986 26
-1.25424 -0.79903913 -0.38822874 9
-1.2773914 -0.81347477 -0.34080106 13
-1.2578669 -0.80073255 -0.28214395 24
-1.2488674 -0.79469734 -0.22839449 24
-1.2843021 -0.81693089 -0.18219487 24
-1.263828 -0.80359775 -0.12768336 24
-1.2543479 -0.79726243 -0.075634606 24
-1.2559706 -0.79798603 -0.025053157 27
-1.267643 -0.80509162 0.39185542 23
-1.2662367 -0.80388844 0.33717149 25
-1.2714163 -0.80686551 0.2850033 24
-1.2666904 -0.8035562 0.23126787 27
-1.2644861 -0.80184829 0.17914791 24
-1.269156 -0.80449903 0.12811893 31
-1.2681019 -0.80352074 0.076672167 26
-1.2613031 -0.7989043 0.025393249 25
-1.2611039 -0.79723686 -0.38952285 9
-1.28846 -0.81421596 -0.34305057 12
-1.2648039 -0.79895812 -0.28309712 23
-1.2599851 -0.79560649 -0.22995885 25
-1.2955393 -0.81774068 -0.18341357 24
-1.2750506 -0.80449718 -0.12855493 24
-1.2613466 -0.79554278 -0.075895414 26
-1.2629772 -0.79626316 -0.025139546 27
-1.2745315 -0.8032369 0.39314869 25
-1.2772795 -0.80465734 0.33941931 26
-1.2825317 -0.80765343 0.28690967 24
-1.2778466 -0.80439156 0.23283048 28
-1.2714777 -0.80007267 0.17975728 24
-1.2761728 -0.80271614 0.12855473 31
-1.2793531 -0.80440497 0.077195533 21
-1.2725494 -0.7998172 0.025567774 25
-1.2720616 -0.7979629 -0.39211103 9
-1.2995493 -0.81488985 -0.34530008 13
-1.2759027 -0.79975194 -0.28500351 24
-1.2711244 -0.79644781 -0.2315232 24
-1.3025917 -0.81584764 -0.18402292 23
-1.2820729 -0.80268472 -0.12899069 23
-1.2683485 -0.79378402 -0.076156229 28
-1.2742256 -0.79715258 -0.025312327 28
-1.2814227 -0.80134398 0.39444193 26
-1.2883432 -0.80535895 0.34166712 28
-1.2895057 -0.80577272 0.28786287 26
-1.2890238 -0.80515873 0.2343931 24
-1.2826818 -0.80088627 0.18097597 24
-1.2916435 -0.80616844 0.12986206 28
-1.2863895 -0.80257732 0.077457212 24
-1.2795755 -0.79801577 0.025655035 24
-1.2789395 -0.79606986 -0.39340511 9
-1.3106589 -0.81549609 -0.34754959 13
-1.2828547 -0.79788554 -0.28595668 23
-1.2780907 -0.7946133 -0.23230538 26
-1.3138617 -0.81653488 -0.18524161 24
-1.2933289 -0.80346143 -0.12986226 24
-1.2753534 -0.79198593 -0.076417036 29
-1.2854953 -0.79797316 -0.02548511 26
-1.29242 -0.80195916 0.39702845 24
-1.2994272 -0.80599308 0.3439149 24
-1.3006536 -0.80643952 0.28976923 23
-1.3002219 -0.80585772 0.23595573 23
-1.2896883 -0.79901761 0.18158531 25
-1.3029189 -0.80689991 0.13073361 30
-1.2976741 -0.80333841 0.07798057 23
-1.2908555 -0.79880571 0.025829561 22
-1.2899287 -0.79667622 -0.39599332 7
-1.3217885 -0.81603467 -0.3497991 12
-1.2939857 -0.79855812 -0.28786308 24
-1.2892627 -0.79533267 -0.23386972 23
-1.3209281 -0.81454855 -0.18585096 23
-1.3003658 -0.80155557 -0.13029803 25
-1.2866123 -0.79276794 -0.076938659 29
-1.2925296 -0.79610276 -0.025571499 26
-1.2993244 -0.7999751 0.39832169 24
-1.3063818 -0.80400586 0.3450388 25
-1.3118217 -0.80703825 0.29167563 23
-1.3114406 -0.80648822 0.23751834 25
-1.3009251 -0.79970878 0.18280402 23
-1.3142152 -0.80756241 0.13160518 28
-1.3047251 -0.80141717 0.07824225 23
-1.2978963 -0.79691076 0.025916822 24
-1.3009377 -0.7972157 -0.3985815 9
-1.3287833 -0.81396055 -0.35092384 13
-1.3009512 -0.79659951 -0.28881627 25
-1.2962432 -0.79340565 -0.23465189 27
-1.3322297 -0.81511277 -0.18706965 24
-1.3116543 -0.80220926 -0.1311696 26
-1.2936319 -0.79087651 -0.077199467 26
-1.3038322 -0.79680002 -0.02574428 25
-1.3103521 -0.80047041 0.4009082 26
-1.3174965 -0.80451906 0.34728661 26
-1.3230098 -0.80756873 0.29358199 22
-1.3226793 -0.80705011 0.23908097 24
-1.3121824 -0.80033112 0.18402271 24
-1.3255318 -0.80815589 0.13247673 29
-1.3160421 -0.80205494 0.078765616 27
-1.3092089 -0.79757726 0.026091347 23
-1.3119659 -0.79768789 -0.40116969 9
-1.3399429 -0.8143779 -0.35317335 13
-1.3121136 -0.79715055 -0.29072264 24
-1.3074468 -0.79400283 -0.23621623 25
-1.3393092 -0.81303275 -0.18767899 23
-1.3229632 -0.80279386 -0.13204116 25
-1.3049229 -0.7915352 -0.077721082 25
-1.3151551 -0.79742789 -0.025917061 26
-1.3213992 -0.80089849 0.40349469 25
-1.3286306 -0.80496436 0.34953442 26
-1.330019 -0.80548829 0.29453519 23
-1.3339378 -0.8075434 0.24064358 23
-1.3234597 -0.80088454 0.1852414 25
-1.3368685 -0.80868012 0.13334829 28
-1.3231063 -0.80003983 0.079027295 25
-1.3162634 -0.79558843 0.02617861 24
-1.3230132 -0.79809272 -0.40375787 9
-1.3511215 -0.81472719 -0.35542285 13
-1.3190918 -0.79509932 -0.29167584 26
-1.3144404 -0.79198283 -0.23699841 26
-1.3506415 -0.81347364 -0.18889768 23
-1.3342919 -0.8033092 -0.13291271 25
-1.3162345 -0.79212481 -0.078242704 25
-1.3264984 -0.79798627 -0.02608984 24
-1.3324649 -0.80125898 0.4060812 24
-1.3397838 -0.80534172 0.35178223 26
-1.3370297 -0.80336869 0.29548836 23
-1.3452157 -0.80796778 0.2422062 24
-1.3305022 -0.79881442 0.18585074 23
-1.348225 -0.8091349 0.13421984 27
-1.3344544 -0.8005538 0.079550654 25
-1.3276074 -0.79613107 0.026353132 24
-1.3340794 -0.79843009 -0.40634608 9
-1.3623188 -0.81500822 -0.35767236 12
-1.3302844 -0.79552835 -0.2935822 25
-1.3256745 -0.79245746 -0.23856275 24
-1.3619931 -0.81384522 -0.19011639 22
-1.3413641 -0.80120093 -0.13334849 24
-1.3275658 -0.79264486 -0.078764319 23
-1.3378614 -0.79847533 -0.02626262 23
-1.3476971 -0.80402648 0.40996096 24
-1.3551402 -0.80814642 0.35515395 26
-1.3440419 -0.80120999 0.29644156 25
-1.3565129 -0.8083232 0.24376883 24
-1.3418096 -0.79924452 0.18706943 23
-1.3596007 -0.80952024 0.13509139 29
-1.3458222 -0.80099827 0.080074012 26
-1.338971 -0.7966041 0.026527656 24
-1.3451638 -0.79869998 -0.40893427 9
-1.3735344 -0.81522101 -0.35992187 13
-1.3372744 -0.79338437 -0.2945354 23
-1.336928 -0.79286331 -0.2401271 25
-1.3733636 -0.81414741 -0.19133508 21
-1.3527229 -0.80159235 -0.13422005 26
-1.3389168 -0.79309547 -0.079285935 23
-1.3535457 -0.80144167 -0.026521791 23
-1.3629646 -0.80669743 0.41384071 23
-1.3663392 -0.8083728 0.35740176 25
-1.3510553 -0.79901206 0.29739475 24
-1.3763313 -0.81363595 0.24689406 24
-1.357409 -0.80213004 0.18889748 22
-1.3752842 -0.81236923 0.13639873 28
-1.3572091 -0.801373 0.080597371 25
-1.3589647 -0.80208969 0.026876705 22
-1.3604276 -0.80135322 -0.41281655 9
-1.3847681 -0.81536531 -0.36217141 13
-1.3484956 -0.79369086 -0.29644176 24
-1.3482002 -0.79320014 -0.24169144 25
-1.3890305 -0.81689596 -0.19316311 22
-1.3641006 -0.80191416 -0.1350916 23
-1.3545917 -0.79600608 -0.080068365 24
-1.3735774 -0.80684018 -0.026867351 23
-1.3824321 -0.81171703 0.41901374 24
-1.3859597 -0.81346303 0.36189741 25
-1.3750036 -0.80670995 0.30216068 23
-1.3962032 -0.81882012 0.25001928 24
-1.3730445 -0.80491638 0.19072551 23
-1.3867064 -0.81260026 0.13727029 28
-1.3729235 -0.80420166 0.081382409 24
-1.3790126 -0.80744517 0.027225751 23
-1.3715564 -0.80147302 -0.41540477 8
-1.4002261 -0.81789833 -0.36554569 13
-1.3597354 -0.79392874 -0.29834813 24
-1.3594911 -0.79346794 -0.24325579 25
-1.4090197 -0.82204574 -0.19560052 22
-1.3884052 -0.80969417 -0.1372705 24
-1.374617 -0.80133158 -0.081111602 25
-1.393663 -0.81210852 -0.027212912 25
-1.4019511 -0.8166104 0.42418674 24
-1.4056323 -0.81842613 0.36639303 24
-1.3990219 -0.81425023 0.30692664 22
-1.4161278 -0.82387531 0.25314456 23
-1.397296 -0.81259292 0.19377224 24
-1.4110656 -0.82027113 0.13944918 27
-1.3973083 -0.81194758 0.082690805 24
-1.3991144 -0.81267041 0.0275748 22
-1.3868808 -0.80394679 -0.41928706 9
-1.4199338 -0.82277584 -0.37004471 13
-1.3837348 -0.80147797 -0.30311409 23
-1.3836215 -0.80108988 -0.24716665 26
-1.4290617 -0.82706577 -0.19803791 24
-1.4170921 -0.81980824 -0.13988519 21
-1.3990182 -0.80902642 -0.08241564 25
-1.413802 -0.81724638 -0.027558472 25
-1.4215208 -0.82137722 0.42935973 24
-1.4253561 -0.82326162 0.37088862 24
-1.4273598 -0.82408667 0.31264576 23
-1.4403818 -0.83126974 0.25705111 23
-1.4173189 -0.81763005 0.19620964 23
-1.4311802 -0.82529354 0.1411923 26
-1.4174378 -0.81703931 0.083737522 24
-1.4192692 -0.817765 0.027923848 22
-1.4106126 -0.81113827 -0.42575753 9
-1.4396925 -0.82752568 -0.37454373 13
-1.4120592 -0.8113144 -0.30883324 23
-1.4121039 -0.81101227 -0.25185969 24
-1.4491556 -0.83195579 -0.20047529 20
-1.4415457 -0.82725263 -0.14206408 22
-1.4234898 -0.81656063 -0.083719693 23
-1.4339937 -0.82225347 -0.027904034 24
-1.4411407 -0.82601732 0.43453273 22
-1.449358 -0.83039123 0.37650815 23
-1.4472648 -0.82885647 0.31645852 23
-1.4561327 -0.8335976 0.25939503 23
-1.4373938 -0.82253706 0.19864702 21
-1.4556704 -0.83265853 0.14337119 26
-1.4419541 -0.82447875 0.085045926 23
-1.4394765 -0.82272869 0.028272897 21
-1.4302161 -0.81578094 -0.43093389 9
-1.4595014 -0.83214742 -0.37904274 14
-1.4362043 -0.81853229 -0.31359917 24
-1.4406719 -0.82074547 -0.25655273 25
-1.4693007 -0.83671552 -0.20291269 21
-1.4660685 -0.83453614 -0.14424297 23
-1.4567102 -0.82887238 -0.085545354 23
-1.4542373 -0.8271293 -0.028249595 25
-1.4566113 -0.82814318 0.43841249 24
-1.4649551 -0.83254868 0.37987986 26
-1.4629524 -0.83107269 0.31931809 23
-1.4719169 -0.83582556 0.26173896 23
-1.4575199 -0.82731378 0.20108441 22
-1.4715647 -0.83494633 0.14467853 26
-1.4578532 -0.82683027 0.085830964 24
-1.4553864 -0.82509553 0.028534682 22
-1.4498689 -0.82029647 -0.43611029 10
-1.4793599 -0.83664078 -0.38354176 13
-1.4604168 -0.82559133 -0.31836513 23
-1.4693251 -0.83028889 -0.26124576 24
-1.4894966 -0.84134459 -0.20535007 23
-1.4776474 -0.83431143 -0.14511454 23
-1.463943 -0.82623667 -0.085806161 23
-1.4658238 -0.82696086 -0.028422374 24
-1.4721141 -0.83017099 0.44229224 23
-1.4805849 -0.8346073 0.38325158 22
-1.4743968 -0.83078003 0.32122445 22
-1.4791286 -0.83310616 0.26252028 23
-1.4690477 -0.82709044 0.2023031 23
-1.4874924 -0.83713323 0.14598587 26
-1.4737858 -0.8290807 0.086616002 23
-1.4669728 -0.824911 0.028709207 21
-1.4695704 -0.82468456 -0.44128665 9
-1.4992672 -0.84100562 -0.38804078 14
-1.4761335 -0.82769018 -0.32122469 24
-1.4765222 -0.82756943 -0.26202795 24
-1.5054129 -0.84341705 -0.20717812 23
-1.4892423 -0.83401597 -0.1459861 23
-1.4711752 -0.82356054 -0.086066969 22
-1.4774269 -0.82672167 -0.028595155 23
-1.4834336 -0.82974279 0.44487876 23
-1.4919941 -0.83418924 0.38549939 25
-1.4858569 -0.83041745 0.32313082 23
-1.4906504 -0.83275509 0.26408288 23
-1.4805917 -0.82679671 0.20352179 22
-1.4991041 -0.83679128 0.14685743 26
-1.4853915 -0.82879698 0.087139361 24
-1.4785755 -0.82465553 0.028883731 20
-1.4852445 -0.8263371 -0.44516894 9
-1.5108551 -0.84024066 -0.39029032 14
-1.4877371 -0.82704395 -0.32313105 23
-1.4881791 -0.82694966 -0.26359227 25
-1.5215094 -0.84512305 -0.20900615 21
-1.5009987 -0.83338773 -0.14685765 23
-1.4829155 -0.82300895 -0.086588591 23
-1.4935619 -0.82857662 -0.028854325 24
-1.4949125 -0.8289848 0.4474653 22
-1.5035639 -0.83343923 0.3877472 23
-1.4974772 -0.82972366 0.32503721 22
-1.5023332 -0.83207154 0.2656455 22
-1.4922956 -0.82617193 0.20474048 22
-1.5065192 -0.83370298 0.14729321 27
-1.4971577 -0.82818103 0.087662719 22
-1.490338 -0.8240689 0.029058255 21
-1.496577 -0.82581425 -0.44775715 9
-1.5223107 -0.83966768 -0.39253983 14
-1.5035099 -0.82895529 -0.32599062 23
-1.4953816 -0.82413352 -0.26437446 24
-1.5331436 -0.84459609 -0.21022485 22
-1.5082619 -0.8305459 -0.14729343 23
-1.4945281 -0.82264316 -0.087110206 23
-1.5052052 -0.82817805 -0.029027106 24
-1.5062612 -0.82841659 0.45005178 21
-1.515003 -0.83288008 0.38999504 22
-1.5089674 -0.82921904 0.32694358 23
-1.5138854 -0.83157766 0.26720813 22
-1.5038707 -0.82573491 0.20595917 22
-1.5181532 -0.83323222 0.14816476 26
-1.5087947 -0.82775325 0.088186085 23
-1.5019754 -0.82366341 0.02923278 20
-1.507924 -0.82522231 -0.45034534 9
-1.5337808 -0.83902484 -0.39478934 14
-1.5150074 -0.8284117 -0.32789698 22
-1.5069159 -0.82364565 -0.26593879 25
-1.5447929 -0.84399819 -0.21144356 21
-1.5198948 -0.83005071 -0.14816499 24
-1.5061557 -0.82220626 -0.087631822 22
-1.5168636 -0.82770807 -0.029199887 24
-1.517624 -0.82777923 0.4526383 22
-1.5264562 -0.83225101 0.39224282 25
-1.5204724 -0.82864439 0.32884994 21
-1.5254526 -0.83101326 0.26877075 21
-1.5154607 -0.82522702 0.20717788 23
-1.5298023 -0.83269042 0.14903632 27
-1.5204468 -0.82725418 0.088709444 24
-1.5180135 -0.82558686 0.029494565 22
-1.5192848 -0.82456124 -0.45293355 9
-1.5452647 -0.83831215 -0.39703885 14
-1.5265194 -0.82779789 -0.32980341 24
-1.5184652 -0.82308733 -0.26750314 25
-1.5564563 -0.84332919 -0.21266225 21
-1.5315428 -0.82948452 -0.14903654 21
-1.5177987 -0.82169813 -0.088153444 23
-1.5285372 -0.8271668 -0.029372666 22
-1.5290005 -0.8270725 0.45522478 21
-1.5379233 -0.83155215 0.39449063 23
-1.5319917 -0.82799941 0.33075634 20
-1.5413792 -0.83272558 0.27111471 20
-1.5270654 -0.82464826 0.20839657 22
-1.5414659 -0.83207738 0.14990787 26
-1.5321138 -0.82668382 0.089232802 22
-1.5296861 -0.82502925 0.029669089 20
-1.5306593 -0.82383072 -0.45552173 9
-1.5567623 -0.83752942 -0.39928836 14
-1.5380453 -0.82711369 -0.33170977 23
-1.5300287 -0.82245833 -0.2690675 24
-1.5681338 -0.84258878 -0.21388094 21
-1.543205 -0.82884705 -0.14990811 22
-1.5294563 -0.82111871 -0.088675059 23
-1.5402253 -0.826554 -0.029545447 23
-1.5403906 -0.82629651 0.4578113 23
-1.549404 -0.83078325 0.39673844 22
-1.5435249 -0.8272841 0.33266273 21
-1.5529829 -0.83200443 0.2726773 20
-1.5386845 -0.82399851 0.20961526 20
-1.5531439 -0.831393 0.15077944 26
-1.5437952 -0.82604212 0.089756161 22
-1.5413733 -0.82440019 0.029843612 19
-1.5420473 -0.82303089 -0.45810992 9
-1.5639747 -0.83438337 -0.40041313 14
-1.553916 -0.82866871 -0.33456933 22
-1.5416063 -0.82175863 -0.27063185 23
-1.579825 -0.84177727 -0.21509963 22
-1.5548817 -0.82813829 -0.15077966 21
-1.5411282 -0.82046789 -0.089196675 22
-1.5519277 -0.82586968 -0.029718228 23
-1.5517937 -0.8254509 0.46039781 22
-1.5565964 -0.8276571 0.39786234 22
-1.5550716 -0.82649827 0.3345691 22
-1.5646005 -0.83121252 0.27423993 20
-1.5503175 -0.82327765 0.21083397 20
-1.5648355 -0.83063716 0.151651 25
-1.5554907 -0.82532883 0.09027952 22
-1.5530746 -0.82369959 0.030018136 20
-1.5534481 -0.82216144 -0.4606981 9
-1.5754905 -0.83347541 -0.40266263 14
-1.565477 -0.82782835 -0.3364757 22
-1.5531974 -0.82098794 -0.2721962 22
-1.5915297 -0.84089428 -0.21631832 21
-1.5709761 -0.82968402 -0.152087 22
-1.5528141 -0.81974548 -0.089718297 21
-1.5636439 -0.82511371 -0.029891009 22
-1.5632098 -0.82453579 0.46298429 19
-1.5680954 -0.82676303 0.40011016 23
-1.5666314 -0.82564181 0.33647546 21
-1.5762311 -0.8303495 0.27580255 20
-1.5619642 -0.82248551 0.21205266 19
-1.5765409 -0.82980978 0.15252255 24
-1.5671999 -0.82454395 0.090802886 22
-1.5647898 -0.82292718 0.030192662 20
-1.5648615 -0.82122236 -0.46328628 9
-1.5827045 -0.83023393 -0.40378737 13
-1.5770512 -0.82691741 -0.3383821 22
-1.5648019 -0.82014644 -0.27376056 22
-1.6032472 -0.83993977 -0.21753702 21
-1.5826879 -0.82881677 -0.15295857 23
-1.5645137 -0.81895143 -0.09023992 21
-1.5753738 -0.82428592 -0.030063789 21
-1.574638 -0.82355094 0.46557081 21
-1.579607 -0.82579875 0.40235797 22
-1.5782043 -0.82471472 0.33838186 20
-1.5878748 -0.82941532 0.27736518 19
-1.573624 -0.82162201 0.21327135 20
-1.5882595 -0.82891077 0.1533941 26
-1.5789226 -0.82368726 0.091326244 22
-1.5765184 -0.822083 0.030367186 19
-1.5762873 -0.82021368 -0.46587449 8
-1.5942372 -0.82920033 -0.40603688 14
-1.5886377 -0.82593566 -0.34028846 22
-1.5764192 -0.81923378 -0.27532488 23
-1.6149774 -0.83891362 -0.21875572 20
-1.5944126 -0.82787782 -0.15383013 22
-1.5762265 -0.81808567 -0.090761535 22
-1.5871166 -0.82338625 -0.03023657 21
-1.5860784 -0.82249629 0.46815729 21
-1.591131 -0.82476407 0.40460578 21
-1.5897895 -0.82371676 0.34028822 20
-1.5995309 -0.82840997 0.2789278 21
-1.5852969 -0.82068717 0.21449004 20
-1.5999908 -0.82793993 0.15426567 25
-1.5906582 -0.82275867 0.091849603 22
-1.5882599 -0.82116693 0.030541711 19
-1.5834329 -0.81692082 -0.46716857 8
-1.6057819 -0.82809627 -0.40828639 14
-1.6002368 -0.8248831 -0.34219483 23
-1.5880492 -0.81824994 -0.27688923 24
-1.6267197 -0.83781582 -0.21997441 21
-1.6061498 -0.82686692 -0.15470168 20
-1.5879523 -0.81714803 -0.09128315 21
-1.5988722 -0.82241452 -0.030409349 21
-1.593235 -0.81916332 0.46945056 20
-1.607 -0.82588595 0.40797749 21
-1.601387 -0.82264799 0.34219459 20
-1.6111993 -0.82733327 0.2804904 20
-1.6013973 -0.82194686 0.21631807 20
-1.6161662 -0.82917094 0.155573 25
-1.6024064 -0.82175821 0.092372961 21
-1.6000143 -0.82017887 0.030716235 17
-1.5905746 -0.81358796 -0.46846268 8
-1.6173383 -0.8269217 -0.4105359 14
-1.6074769 -0.82152587 -0.34314802 22
-1.6040893 -0.81944144 -0.27923575 24
-1.6428939 -0.83890313 -0.22180244 21
-1.6178992 -0.82578427 -0.15557323 22
-1.5996904 -0.81613845 -0.091804773 22
-1.6106405 -0.82137072 -0.03058213 21
-1.6046909 -0.81798381 0.47203705 20
-1.6185551 -0.82469517 0.4102253 21
-1.6129962 -0.82150817 0.34410098 20
-1.6228796 -0.82618517 0.28205302 20
-1.6131027 -0.82085335 0.21753676 19
-1.62793 -0.8280409 0.15644456 24
-1.6141669 -0.82068568 0.09289632 22
-1.6117809 -0.81911862 0.030890757 19
-1.5977122 -0.81021518 -0.46975675 7
-1.6289059 -0.82567638 -0.41278541 14
-1.6190915 -0.82034642 -0.34505439 22
-1.6157511 -0.81829959 -0.2808001 23
-1.6546677 -0.83764607 -0.22302115 20
-1.6296607 -0.82462949 -0.1564448 21
-1.611441 -0.8150568 -0.092326388 21
-1.6224207 -0.82025474 -0.030754911 20
-1.6204685 -0.81891268 0.4759168 20
-1.6301216 -0.82343376 0.41247311 21
-1.6289985 -0.82250959 0.34696054 21
-1.6345713 -0.82496548 0.28361565 20
-1.6292506 -0.82192338 0.21936481 20
-1.6441531 -0.82908142 0.15775189 24
-1.6259392 -0.81954098 0.093419679 23
-1.6235596 -0.81798619 0.031065281 18
-1.6177908 -0.81331033 -0.47493315 6
-1.6404843 -0.82436043 -0.41503492 14
-1.6307174 -0.81909603 -0.34696078 22
-1.6274245 -0.81708628 -0.28236443 22
-1.6664524 -0.83631706 -0.22423984 18
-1.6458858 -0.82563603 -0.15775214 22
-1.6232032 -0.81390303 -0.092848003 21
-1.6342127 -0.81906652 -0.03092769 21
-1.6319536 -0.8175779 0.47850332 19
-1.6416985 -0.82210153 0.41472092 21
-1.6406379 -0.82121223 0.34886691 19
-1.6462744 -0.82367426 0.28517827 20
-1.6409869 -0.82067072 0.2205835 19
-1.6559478 -0.82779151 0.15862344 23
-1.6377233 -0.81832409 0.093943037 22
-1.6353499 -0.81678152 0.031239806 17
-1.6681683 -0.83135468 -0.48916823 12
-1.6520734 -0.82297361 -0.41728443 13
-1.6423541 -0.81777424 -0.34886715 22
-1.6391089 -0.81580138 -0.28392878 23
-1.6826913 -0.83712637 -0.22606787 19
-1.6576778 -0.82432145 -0.1586237 21
-1.6349769 -0.81267697 -0.093369626 19
-1.646016 -0.81780583 -0.031100471 20
-1.6477751 -0.81832129 0.4823831 20
-1.6576501 -0.82286483 0.41809264 21
-1.6522881 -0.81984365 0.35077327 18
-1.6624124 -0.82450569 0.2875222 19
-1.6527343 -0.81934619 0.22180219 19
-1.6677533 -0.82642937 0.15949501 24
-1.6539928 -0.819251 0.094728075 21
-1.6516316 -0.8177225 0.031501591 18
-1.7143607 -0.84691775 -0.50210917 12
-1.6636727 -0.82151598 -0.41953397 12
-1.6584028 -0.81855363 -0.35172671 22
-1.6508043 -0.8144449 -0.28549314 22
-1.6945051 -0.83563763 -0.22728659 19
-1.6694804 -0.82293457 -0.15949525 21
-1.6467619 -0.81137866 -0.093891241 20
-1.6578304 -0.81647271 -0.03127325 20
-1.6592879 -0.81683075 0.48496959 20
-1.6692554 -0.82137561 0.42034045 20
-1.6639485 -0.8184036 0.35267967 19
-1.6741441 -0.82305545 0.28908482 18
-1.6644922 -0.81794959 0.22302088 19
-1.6840402 -0.82719082 0.16080233 25
-1.6658065 -0.81787366 0.095251434 20
-1.6634518 -0.81635725 0.031676114 18
-1.7259816 -0.84517628 -0.50469732 12
-1.6752819 -0.81998724 -0.42178348 11
-1.6700678 -0.81707382 -0.35363311 21
-1.6669461 -0.81518608 -0.28783965 23
-1.706329 -0.8340764 -0.22850528 20
-1.6812935 -0.82147521 -0.1603668 21
-1.6630441 -0.81219918 -0.094673663 19
-1.6741478 -0.81726015 -0.031532422 20
-1.6751512 -0.81738788 0.48884934 18
-1.6852492 -0.82195109 0.42371216 20
-1.6756191 -0.81689221 0.35458606 19
-1.6903257 -0.82369673 0.29142877 18
-1.6762604 -0.81648082 0.22423957 18
-1.6958741 -0.8256681 0.1616739 24
-1.6821206 -0.81860876 0.096036471 21
-1.6752825 -0.81491941 0.03185064 16
-1.741956 -0.84547281 -0.50857961 12
-1.6912837 -0.8205139 -0.42515776 11
-1.6861591 -0.81766427 -0.35649267 20
-1.6786695 -0.81367046 -0.28940398 22
-1.7226284 -0.83460665 -0.23033331 20
-1.6931167 -0.81994343 -0.16123837 20
-1.6748579 -0.81074017 -0.095195286 18
-1.6859908 -0.8157661 -0.031705201 19
-1.6866902 -0.8157413 0.49143586 18
-1.6968808 -0.82030433 0.42595997 20
-1.6917186 -0.81744462 0.35744563 18
-1.7020847 -0.82208711 0.29299137 20
-1.6925077 -0.81709731 0.22606762 19
-1.712204 -0.82623768 0.16298124 23
-1.6939623 -0.8170706 0.09655983 20
-1.6916262 -0.81557989 0.032112423 17
-1.7579534 -0.84566808 -0.5124619 14
-1.7029188 -0.81882757 -0.42740726 11
-1.6978507 -0.81602585 -0.35839906 16
-1.6904024 -0.81208283 -0.29096836 21
-1.7344787 -0.83288485 -0.23155202 20
-1.7049495 -0.81833911 -0.16210994 20
-1.6911832 -0.81136841 -0.095977709 20
-1.7023512 -0.81636101 -0.031964373 20
-1.7025934 -0.81611168 0.49531561 19
-1.7129152 -0.82069159 0.42933169 20
-1.7034155 -0.8157745 0.35935199 19
-1.7183074 -0.82253772 0.29533532 18
-1.7043031 -0.81546843 0.22728632 18
-1.7240647 -0.82455409 0.1638528 22
-1.7103189 -0.81761324 0.097344875 20
-1.7034844 -0.81398082 0.032286949 17
-1.7608945 -0.83952653 -0.5124619 15
-1.7189605 -0.81916589 -0.43078151 11
-1.7139827 -0.81642663 -0.36125863 14
-1.7066033 -0.81254613 -0.29331487 23
-1.7463375 -0.83109051 -0.23277071 19
-1.7212896 -0.81880164 -0.16341728 20
-1.7075334 -0.81189245 -0.096760139 19
-1.7142211 -0.81470555 -0.032137156 20
-1.7141571 -0.8143084 0.4979021 19
-1.7245718 -0.81888705 0.4315795 19
-1.7195553 -0.81613719 0.36221156 19
-1.730092 -0.82076824 0.29689792 19
-1.7161076 -0.81376702 0.22850502 19
-1.7359343 -0.82279766 0.16472435 23
-1.7221872 -0.81591374 0.097868234 19
-1.7198701 -0.81444842 0.032548737 17
-1.7638143 -0.83337474 -0.5124619 13
-1.7306201 -0.81732154 -0.43303102 11
-1.7256993 -0.8146292 -0.36316499 12
-1.7183617 -0.8107987 -0.2948792 22
-1.7582052 -0.82922351 -0.2339894 20
-1.7331482 -0.81703615 -0.16428883 20
-1.7239076 -0.81231225 -0.097542569 20
-1.7306226 -0.81510729 -0.032396324 19
-1.7300985 -0.81449157 0.50178188 18
-1.7362363 -0.81701094 0.43382731 19
-1.7312766 -0.81430805 0.36411792 18
-1.7463543 -0.82102764 0.29924187 20
-1.7324122 -0.81410372 0.23033305 19
-1.752321 -0.82308602 0.16603169 23
-1.738584 -0.81626332 0.098653272 20
-1.7362796 -0.81481153 0.032810524 17
-1.7667127 -0.82721281 -0.5124619 13
-1.7467 -0.81747085 -0.4364053 11
-1.7418699 -0.81483978 -0.36602455 10
-1.7346021 -0.81107092 -0.29722571 22
-1.7745768 -0.82938492 -0.23581745 20
-1.754041 -0.8194142 -0.16603194 22
-1.7403053 -0.81262749 -0.098324999 19
-1.7470478 -0.81540447 -0.032655496 21
-1.746062 -0.81457329 0.50566161 19
-1.7523245 -0.81712246 0.43719903 22
-1.7474549 -0.81448048 0.36697748 20
-1.7626393 -0.82118338 0.30158579 22
-1.7442411 -0.81224155 0.23155175 19
-1.7642149 -0.82116807 0.16690324 25
-1.7550043 -0.81650829 0.099438317 21
-1.7527124 -0.81506991 0.033072308 20
-1.7695894 -0.82104081 -0.5124619 12
-1.762802 -0.81751782 -0.43977955 11
-1.7536099 -0.81288302 -0.36793095 10
-1.7463844 -0.80916327 -0.29879007 23
-1.7864674 -0.82735658 -0.23703614 21
-1.7704511 -0.81956375 -0.16733928 26
-1.7567263 -0.81283808 -0.099107422 20
-1.7634958 -0.8155967 -0.032914665 23
-1.7620471 -0.81455338 0.50954139 21
-1.7640114 -0.81508785 0.43944681 23
-1.7636554 -0.81454986 0.36983705 21
-1.7789468 -0.82123548 0.30392972 26
-1.7605841 -0.8123858 0.23337978 20
-1.7806398 -0.82126319 0.16821058 28
-1.7714472 -0.81664848 0.10022335 25
-1.769168 -0.8152234 0.033334095 26
-1.7724446 -0.81485873 -0.5124619 9
-1.7833523 -0.81949639 -0.4442786 12
-1.7698176 -0.81290287 -0.37079051 9
-1.7626623 -0.8092438 -0.30113658 26
-1.8028761 -0.82732511 -0.23886417 29
-1.7914107 -0.82168525 -0.1690824 35
-1.7731695 -0.81294388 -0.099889845 26
-1.7799662 -0.81568402 -0.033173837 32
-1.7780532 -0.81443185 0.51342118 26
-1.7801354 -0.81500971 0.44281852 26
-1.7798774 -0.81451589 0.37269661 28
-1.7952756 -0.82118356 0.30627364 39
-1.7769493 -0.81242585 0.23520783 25
-1.7970867 -0.8212536 0.16951792 36
-1.7879122 -0.81668377 0.10100839 34
-1.7901934 -0.81734812 0.033683144 39
-1.7752781 -0.80866683 -0.5124619 7
-1.7995037 -0.81932276 -0.44765288 13
-1.7815793 -0.81078631 -0.37269688 10
-1.7834572 -0.81126517 -0.30426529 32
-1.819306 -0.82718903 -0.24069221 38
-1.8124067 -0.82367039 -0.17082551 70
-1.794181 -0.81500971 -0.10093308 37
-1.8010108 -0.81773305 -0.033519395 56
-1.7940795 -0.81420827 0.5173009 39
-1.7962803 -0.81482899 0.44619027 43
-1.7961204 -0.81437856 0.37555617 39
-1.8161238 -0.82306623 0.30939889 64
-1.793336 -0.81236148 0.23703586 41
-1.813555 -0.82113904 0.17082526 70
-1.804399 -0.81661397 0.10179343 61
-1.8067003 -0.81727552 0.033944927 72
-1.7780901 -0.80246502 -0.5124619 7
-1.8112346 -0.81704289 -0.44990239 15
-1.7978221 -0.81061494 -0.37555644 12
-1.8042874 -0.81315124 -0.30739397 61
-1.8267072 -0.8228718 -0.24130157 65
-1.8107289 -0.81529391 -0.17038974 69
-1.8106749 -0.81488955 -0.10171551 72
-1.8129727 -0.81554317 -0.033692177 69
-1.814531 -0.81586337 0.52247393 55
-1.8168892 -0.81654245 0.45068586 57
-1.8123844 -0.81413782 0.37841576 52
-1.8144807 -0.81469887 0.30861756 37
-1.8142713 -0.81422442 0.23947324 61
-1.8254997 -0.8188808 0.17169681 62
-1.8163508 -0.81439608 0.10231679 61
-1.8049802 -0.80891955 0.033857666 41
-1.7808803 -0.79625338 -0.5124619 6
-1.8229713 -0.81469107 -0.45215189 22
-1.8140855 -0.81034011 -0.37841603 17
-1.8161337 -0.81087488 -0.30895832 56
-1.8341005 -0.81851286 -0.24191092 47
-1.8090148 -0.80693918 -0.16995396 36
-1.8089479 -0.80653083 -0.1014547 61
-1.8112421 -0.80717474 -0.033605788 41
-1.8041319 -0.80362874 0.51859415 32
-1.8152775 -0.80821377 0.44956198 34
-1.8152152 -0.80780643 0.37841576 30
-1.812801 -0.80635303 0.30783626 25
-1.8171024 -0.80788654 0.23947324 34
-1.8192434 -0.80845809 0.17082526 36
-1.810056 -0.80399704 0.10179343 31
-1.8032236 -0.80058539 0.033770405 30
-1.788065 -0.79198807 -0.51375604 7
-1.825804 -0.80832273 -0.45215189 12
-1.8213915 -0.80598897 -0.37936923 16
-1.8099203 -0.80053526 -0.30739397 30
-1.8324074 -0.81009901 -0.24130157 29
-1.8118205 -0.8006196 -0.16995396 27
-1.8117523 -0.80021149 -0.1014547 34
-1.8094752 -0.79882842 -0.033519395 31
-1.8069261 -0.79732621 0.51859415 20
-1.81363 -0.79990619 0.44843808 25
-1.8135326 -0.79948527 0.37746257 19
-1.8110855 -0.79802895 0.30705497 18
-1.810828 -0.7975381 0.23825455 24
-1.8220544 -0.8021028 0.17082526 28
-1.8082813 -0.79566294 0.10153175 26
-1.8014309 -0.79227346 0.033683144 22
-1.7908186 -0.78574181 -0.51375604 6
-1.8286145 -0.80194461 -0.45215189 13
-1.8286892 -0.80159676 -0.3803224 17
-1.8081805 -0.79223067 -0.30661181 23
-1.835224 -0.80369776 -0.24130157 23
-1.8146042 -0.7942903 -0.16995396 24
-1.8099599 -0.79188102 -0.10119389 27
-1.8122526 -0.79250729 -0.033519395 27
-1.8052728 -0.78907967 0.5173009 15
-1.8119465 -0.79162008 0.44731417 15
-1.8118141 -0.79118574 0.37650937 14
-1.8093339 -0.78972661 0.30627364 13
-1.8090522 -0.78922784 0.23764521 16
-1.824843 -0.7957378 0.17082526 22
-1.8110477 -0.78934598 0.10153175 20
-1.8041855 -0.78598052 0.033683144 18
-1.7979797 -0.78141087 -0.51505011 5
-1.835871 -0.79749763 -0.45327663 13
-1.8404804 -0.79911822 -0.38222876 15
-1.8064046 -0.78394812 -0.30582961 19
-1.8334655 -0.79531181 -0.24069221 19
-1.8082259 -0.78398854 -0.1690824 18
-1.8081316 -0.78357279 -0.10093308 25
-1.8150079 -0.7861765 -0.033519395 20
-1.8124484 -0.78469217 0.51859415 11
-1.8057559 -0.78142053 0.44506633 11
-1.8190697 -0.78680503 0.37746257 11
-1.8256787 -0.78928536 0.30861756 10
-1.8072405 -0.78093976 0.23703586 13
-1.8138916 -0.78343815 0.16951792 16
-1.8046235 -0.77906144 0.10100839 16
-1.8160985 -0.78363919 0.033857666 11
-1.8095686 -0.77894914 -0.51763833 5
-1.8431188 -0.79300994 -0.4544014 10
-1.8477678 -0.79462796 -0.38318196 12
-1.8272783 -0.7854386 -0.30895832 13
-1.8362304 -0.78890699 -0.24069221 12
-1.8201052 -0.78160274 -0.16995396 12
-1.8062674 -0.77528703 -0.10067227 17
-1.8223355 -0.78180718 -0.033605788 12
-1.8418101 -0.78978145 0.52635366 13
-1.8353411 -0.78662837 0.45180979 15
-1.8172934 -0.77851766 0.37650937 8
-1.8511223 -0.79262745 0.31252414 12
-1.8099555 -0.77462655 0.23703586 9
-1.8395131 -0.78689677 0.17169681 14
-1.8165141 -0.77668339 0.10153175 11
-1.8188227 -0.77729505 0.033857666 9
-1.8211621 -0.77641594 -0.52022654 6
-1.8548396 -0.79039115 -0.45665091 8
-1.8595618 -0.7920199 -0.38508835 10
-1.8436404 -0.78485864 -0.31130484 11
-1.8663721 -0.79415095 -0.2443483 17
-1.8503242 -0.78694111 -0.17256863 11
-1.8227483 -0.77483749 -0.1014547 13
-1.8250533 -0.77544129 -0.033605788 10
-1.8623383 -0.79089946 0.53152668 12
-1.8604994 -0.78973532 0.45742929 13
-1.8516291 -0.78558868 0.38318169 15
-1.8720645 -0.79387325 0.31564939 11
-1.8354946 -0.77798742 0.24008259 8
-1.8651805 -0.79018605 0.1738757 12
-1.8513995 -0.78396654 0.10336351 14
-1.853752 -0.78458118 0.034468498 11
-1.8327597 -0.77381122 -0.52281469 5
-1.8665643 -0.78770012 -0.45890042 7
-1.8758824 -0.79124671 -0.38794789 10
-1.8600204 -0.78417379 -0.31365135 9
-1.8919994 -0.79726702 -0.24739504 12
-1.8714217 -0.78821117 -0.17431176 13
-1.8484521 -0.77815694 -0.10275874 9
-1.8553966 -0.78069931 -0.034124129 9
-1.8828961 -0.79188353 0.53669971 11
-1.8812104 -0.79078817 0.46192494 12
-1.8769855 -0.78862673 0.38794762 14
-1.8930376 -0.79498243 0.31877461 11
-1.856503 -0.77925855 0.24251999 9
-1.8908931 -0.79330546 0.1760546 11
-1.8725436 -0.78522289 0.10441023 13
-1.874922 -0.78583544 0.03481755 10
-1.8443614 -0.77113503 -0.5254029 5
-1.8827879 -0.78681535 -0.46227473 7
-1.8922201 -0.79036909 -0.39080748 9
-1.8764181 -0.78338408 -0.31599787 9
-1.9130907 -0.79830235 -0.24983244 11
-1.8971472 -0.79126072 -0.17649063 13
-1.8695922 -0.77938497 -0.10380199 9
-1.8811841 -0.78383207 -0.03455608 8
-1.9079419 -0.79459047 0.54316592 11
-1.8974531 -0.78983361 0.46529663 12
-1.9069175 -0.79338276 0.39366677 15
-1.9140412 -0.79595476 0.32189986 12
-1.8729596 -0.77848756 0.24434802 8
-1.91205 -0.79434401 0.17779772 12
-1.8937186 -0.78634089 0.10545694 13
-1.8915057 -0.78503501 0.035079334 11
-1.8559666 -0.7683872 -0.52799106 4
-1.8990279 -0.78582674 -0.46564895 7
-1.9085749 -0.78938723 -0.39366707 9
-1.8928328 -0.78248942 -0.31834438 9
-1.9296255 -0.79730505 -0.2516605 12
-1.9137093 -0.79033762 -0.17779799 14
-1.8861474 -0.77856964 -0.1045844 9
-1.9023941 -0.78488737 -0.034901641 9
-1.9151694 -0.78976703 0.54445922 12
-1.9227206 -0.7924884 0.47091618 13
-1.9187518 -0.79046077 0.39557317 15
-1.9213746 -0.79114902 0.32268119 17
-1.8894335 -0.77761132 0.24617606 9
-1.9332368 -0.79524434 0.17954083 13
-1.9195423 -0.78921944 0.10676534 15
-1.9173546 -0.7879287 0.035515644 16
-1.863106 -0.76373577 -0.52928513 4
-1.9152838 -0.78473437 -0.46902326 9
-1.9249451 -0.78830045 -0.3965266 10
-1.9046932 -0.7796188 -0.31990871 12
-1.9507698 -0.7980811 -0.25409788 15
-1.9395086 -0.79307896 -0.1799769 18
-1.9119642 -0.78142637 -0.10588846 12
-1.9143784 -0.78202313 -0.03507442 14
-1.9358004 -0.79037976 0.54963219 17
-1.9299861 -0.78761292 0.47204006 17
-1.9351336 -0.78931952 0.3984327 20
-1.9515631 -0.79562378 0.32736903 14
-1.9105196 -0.77850205 0.24861345 15
-1.9360009 -0.78849125 0.17954083 16
-1.9222856 -0.78251415 0.10676534 20
-1.924724 -0.78311521 0.035602909 15
-1.8702358 -0.75904393 -0.53057927 4
-1.9270405 -0.78170663 -0.47127277 9
-1.9322337 -0.78342056 -0.3974798 11
-1.9257107 -0.7803846 -0.32303745 12
-1.9581434 -0.79312986 -0.25470722 15
-1.9699669 -0.79751867 -0.18259157 14
-1.9239376 -0.7784934 -0.10641007 16
-1.9680769 -0.79595405 -0.036024712 10
-1.9609367 -0.7926681 0.55609846 11
-1.9778963 -0.7991221 0.48327911 11
-1.9924916 -0.80461448 0.40987095 11
-2.0413411 -0.82392681 0.34221393 17
-1.950044 -0.78668165 0.25348821 10
-2.0172744 -0.81339425 0.18694907 15
-1.9666861 -0.79259723 0.10912047 13
-2.0109146 -0.81001389 0.037173621 16
-1.8683925 -0.75071031 -0.52928513 4
-1.94332 -0.78042197 -0.47464699 8
-1.9577317 -0.7858128 -0.40224573 9
-1.9880066 -0.79756194 -0.33320567 11
-2.0207808 -0.81030113 -0.26262873 15
-2.0189734 -0.80916739 -0.18694936 13
-1.9915349 -0.79776722 -0.1100614 13
-2.0358183 -0.81509387 -0.037234176 11
nan nan nan 0
-2.0937643 -0.83744615 0.51137674 12
-2.0955553 -0.83773828 0.43084112 12
nan nan nan 0
-2.0679979 -0.82588452 0.26872188 11
-2.0617361 -0.82296664 0.19087109 15
-2.0204551 -0.80608004 0.11199894 13
-2.1994767 -0.87705743 0.040664103 10
-1.8665141 -0.74239898 -0.52799106 4
-1.9596142 -0.77903306 -0.47802129 7
-1.9695857 -0.78259915 -0.4041521 7
-2.091753 -0.83071864 -0.3504135 10
-2.1020117 -0.83436811 -0.27298763 12
nan nan nan 0
-2.0964229 -0.8313027 -0.1157992 11
nan nan nan 0
-2.4513834 -0.97106647 0.69576973 8
-2.4228289 -0.95926595 0.59229791 9
-2.4316344 -0.9622615 0.50042385 8
-2.5200613 -0.99674565 0.4226889 10
-2.4031618 -0.95002395 0.31259486 7
nan nan nan 0
nan nan nan 0
-2.4908309 -0.98317385 0.046074349 8
-1.8647283 -0.73378432 -0.52669698 4
-1.9533887 -0.76827914 -0.47577178 4
nan nan nan 0
-2.4578984 -0.96571517 -0.41220516 7
nan nan nan 0
-2.530103 -0.99306518 -0.23444931 7
-2.4666715 -0.96767163 -0.13640311 7
-2.548914 -0.99942195 -0.046650708 17
-2.5268757 -0.99027193 0.71646172 9
-2.521594 -0.98769438 0.61589992 8
-2.531126 -0.99091858 0.52044082 8
-2.5466931 -0.99650037 0.42659545 11
-2.5221739 -0.98639864 0.32782853 7
-2.5500436 -0.99678516 0.23619208 8
-2.5284584 -0.98783904 0.14026035 7
-2.5363288 -0.99040371 0.046859708 8
-1.8627781 -0.72551793 -0.5254029 3
-2.0196183 -0.78619844 -0.49151835 7
-2.2907596 -0.89128816 -0.46992216 4
-2.5717185 -1.0000868 -0.43097728 14
-2.5751157 -1.0008906 -0.33453172 8
-2.5614116 -0.99504942 -0.23706399 7
-2.5258901 -0.98074287 -0.13953282 6
-2.5710294 -0.99775308 -0.046996269 12
-2.5573349 -0.99192506 0.72422123 8
-2.5431967 -0.98593062 0.62039554 7
-2.5528767 -0.98917073 0.52425355 8
-2.5777876 -0.99830562 0.43128332 10
-2.5394859 -0.98296279 0.32965657 7
-2.5860255 -1.000458 0.23924251 9
-2.5458624 -0.98440927 0.14104539 7
-2.5584254 -0.98874658 0.047208756 8
-1.8606673 -0.71759886 -0.52410877 4
-2.062988 -0.7956273 -0.50164115 7
-2.3210275 -0.89467937 -0.47564128 3
-2.5978889 -1.0008796 -0.43488818 13
-2.5921412 -0.99814576 -0.33635977 7
-2.5784702 -0.99236476 -0.23837131 7
-2.5615809 -0.98535138 -0.14135848 7
-2.5834839 -0.99325901 -0.047169048 12
-2.5784724 -0.99081582 0.72939426 9
-2.5781186 -0.99016351 0.62826282 6
-2.5743008 -0.98818165 0.52806634 8
-2.5947437 -0.99550945 0.43362722 11
-2.5657301 -0.98386419 0.33270329 7
-2.5984581 -0.99589401 0.24011406 9
-2.5722566 -0.9853372 0.1423538 7
-2.5755231 -0.9860729 0.047470544 7
-1.8630369 -0.71142477 -0.52410877 4
-2.0885105 -0.79710716 -0.50726491 8
-2.2966206 -0.8760758 -0.46992216 3
-2.624439 -1.0006018 -0.43879902 11
-2.6141593 -0.99616003 -0.33879715 7
-2.6098475 -0.99399531 -0.24098599 7
-2.5836709 -0.98350924 -0.14240173 6
-2.6149702 -0.99490124 -0.047687389 12
-2.6044877 -0.99039274 0.73586053 8
-2.599776 -0.98808169 0.63275844 7
-2.6006763 -0.98790443 0.53283226 8
-2.6212881 -0.99521065 0.4375338 11
-2.5877085 -0.98194492 0.33514068 7
-2.6252048 -0.9956494 0.24229297 9
-2.599025 -0.98520148 0.14366218 8
-2.6069989 -0.98770368 0.047994114 8
-1.8611138 -0.70288527 -0.52281469 4
-2.1187656 -0.79976988 -0.51401347 10
-2.3044086 -0.86938494 -0.47087535 3
-2.6558139 -1.0014304 -0.44349208 10
-2.6503 -0.99882299 -0.34306258 8
-2.632118 -0.99144602 -0.24272911 7
-2.6106231 -0.98282927 -0.14370576 6
-2.6326361 -0.99059194 -0.047946557 12
-2.626183 -0.98764062 0.74103355 9
-2.626183 -0.98711747 0.63837802 8
-2.6272538 -0.98699665 0.53759819 8
-2.648035 -0.99427634 0.44144034 15
-2.6098752 -0.97942847 0.33757806 6
-2.6474915 -0.99301785 0.24403608 10
-2.6259956 -0.98443252 0.1449706 8
-2.6293275 -0.98515821 0.048343163 14
-1.863556 -0.69638449 -0.52281469 3
-2.1306722 -0.79577827 -0.51626295 11
-2.2936342 -0.85618627 -0.46801579 4
-2.6639199 -0.99387991 -0.44427425 7
-2.6723704 -0.99650133 -0.34549999 7
-2.6588995 -0.99094963 -0.24490802 10
-2.6374335 -0.98242521 -0.1450098 9
-2.6548181 -0.98837316 -0.048292119 25
-2.6522477 -0.98688924 0.74749976 12
-2.6478784 -0.98473734 0.64287359 13
-2.6536868 -0.98637033 0.54236418 8
-2.6746366 -0.99362606 0.44534689 13
-2.6365402 -0.97894949 0.34062478 13
-2.6696205 -0.99070215 0.24577919 15
-2.6528234 -0.98394203 0.14627899 14
-2.6561875 -0.98466247 0.048779473 11
-1.8659755 -0.68987519 -0.52281469 3
-2.1380072 -0.79002476 -0.51738775 10
-2.2874 -0.84477377 -0.4661094 4
-2.6859047 -0.99141532 -0.44740292 5
-2.7037685 -0.99747306 -0.34915608 8
-2.690383 -0.99200147 -0.24752268 8
-2.6642723 -0.9818458 -0.14631385 11
-2.6817081 -0.9877395 -0.04872407 8
-2.678339 -0.98596787 0.75396603 11
-2.6787338 -0.98558235 0.64961702 10
-2.7077875 -0.99573547 0.55284917 4
-2.7012661 -0.99280214 0.44925344 13
-2.663233 -0.97829628 0.34367153 8
-2.7011173 -0.9916774 0.24839386 13
-2.6796796 -0.98327613 0.14758739 10
-2.6924634 -0.98743391 0.049390309 11
-1.8683722 -0.68335754 -0.52281469 3
-2.1453276 -0.78422952 -0.51851249 9
-2.2811146 -0.83341545 -0.46420303 3
-2.7079046 -0.98880941 -0.4505316 5
-2.7305436 -0.9965362 -0.35220277 8
-2.7172263 -0.99113852 -0.24970159 8
-2.6958308 -0.98280126 -0.14787871 9
-2.7086253 -0.98693007 -0.049156025 8
-2.7089942 -0.98652887 0.76172554 10
-2.705049 -0.98455757 0.6552366 10
-2.7665977 -1.0064126 0.56428748 7
-2.7279217 -0.9918043 0.45315999 12
-2.6899536 -0.97746855 0.34671828 8
-2.7279716 -0.99074435 0.25057277 12
-2.706563 -0.98243463 0.1488958 10
-2.7193916 -0.98655397 0.049826618 10
-1.8707461 -0.67683154 -0.52281469 3
-2.148052 -0.77673614 -0.51851249 6
-2.2701614 -0.82044291 -0.46134344 3
-2.7299185 -0.98606187 -0.45366031 6
-2.7620127 -0.99710959 -0.35585886 9
-2.7534668 -0.99348122 -0.25275204 12
-2.7227304 -0.98185414 -0.14918275 8
-2.7402725 -0.98763967 -0.049674366 9
-2.7351413 -0.98525095 0.76819187 10
-2.7359734 -0.98501116 0.66198003 10
-2.7839494 -1.0017347 0.56714702 5
-2.7638977 -0.99397492 0.45862916 20
-2.7213705 -0.97814459 0.35037434 7
-2.7595391 -0.99131978 0.25318745 14
-2.7287736 -0.97973007 0.14994252 10
-2.765168 -0.99225205 0.050611973 18
-1.8730974 -0.67029727 -0.52281469 4
-2.1507504 -0.76923335 -0.51851249 5
-2.2591457 -0.80755723 -0.4584839 3
-2.7565968 -0.98483407 -0.45757118 7
-2.7981927 -0.9991442 -0.36012432 19
-2.7850649 -0.99390864 -0.25536671 30
-2.7684681 -0.987441 -0.15153003 12
-2.7813754 -0.99149746 -0.050365485 24
-2.7795112 -0.99028629 0.77983105 18
-2.7715235 -0.98689532 0.66984737 18
-2.8197982 -1.0035307 0.57381934 5
-2.7859623 -0.99094111 0.46175441 35
-2.7575004 -0.98027527 0.35463977 13
-2.7911439 -0.9916867 0.25580209 34
-2.7839351 -0.9885782 0.15282097 28
-2.7827487 -0.9876101 0.050873764 36
-1.8754258 -0.66375488 -0.52281469 4
-2.1534221 -0.76172113 -0.51851249 4
-2.2434406 -0.79312241 -0.45467114 4
-2.7832992 -0.98343199 -0.46148208 11
-2.8016634 -0.98937052 -0.36012432 33
-2.7791235 -0.98086542 -0.25449514 30
-2.7907333 -0.98441529 -0.15257327 31
-2.7895341 -0.98344481 -0.050451875 35
-2.796617 -0.98539323 0.78371084 36
-2.7887378 -0.98206973 0.67321903 35
-2.8186541 -0.99205208 0.57286614 3
-2.7800868 -0.97793269 0.46019179 22
-2.7843146 -0.97887379 0.35768652 34
-2.7992878 -0.98358887 0.25623786 40
-2.7920799 -0.98050892 0.15308267 37
-2.7720277 -0.97292358 0.050611973 22
-1.8777313 -0.65720433 -0.52281469 4
-2.1514695 -0.75259107 -0.51738775 3
-2.2508285 -0.78690624 -0.45562431 5
-2.7913771 -0.97533941 -0.46226421 10
-2.8004146 -0.97794873 -0.35951498 19
-2.7731247 -0.96787572 -0.2536236 15
-2.7847235 -0.97137874 -0.15205164 24
-2.7599058 -0.96218145 -0.049847145 16
