# .PCD v0.7 - Point Cloud Data file format
VERSION 0.7
FIELDS x y z intensity
SIZE 4 4 4 4
TYPE F F F F
COUNT 1 1 1 1
WIDTH 1373
HEIGHT 1
VIEWPOINT 0 0 0 1 0 0 0
POINTS 1373
DATA ascii
3.9260178 -1.1309602 1.0837454 7
3.9129794 -1.127944 0.93059325 6
3.88975 -1.1219833 0.77875489 5
3.8563805 -1.1130869 0.62895483 8
3.8796332 -1.1205322 0.49113342 8
3.8457119 -1.1114621 0.34687987 8
3.8596234 -1.1162126 0.20855878 9
3.7968609 -1.0987798 0.068326168 9
1.8270385 -0.53045797 -0.49952096 3
2.0765169 -0.60328394 -0.49039361 2
2.4498734 -0.71221775 -0.48803276 2
3.0003982 -0.87283206 -0.4888581 4
3.858218 -1.1231068 -0.4886966 9
3.7764242 -1.1000122 -0.34077948 7
3.8141687 -1.1117288 -0.20551749 7
3.7849643 -1.1039332 -0.067470744 7
3.8617725 -1.1270667 1.0669332 9
3.8482211 -1.1238406 0.91598248 9
3.8292747 -1.1190329 0.76731664 18
3.7908504 -1.1085223 0.61879778 6
3.8185422 -1.1173434 0.48382127 8
3.7940059 -1.1108826 0.34252205 7
3.7982032 -1.1128314 0.20541862 8
3.7402318 -1.0965554 0.067366287 6
1.8298092 -0.53819513 -0.50081509 3
2.0743985 -0.61052865 -0.49039361 2
2.4520812 -0.72215176 -0.48898596 2
2.997333 -0.88330013 -0.4888581 4
3.8066733 -1.1225311 -0.48260313 3
3.720011 -1.0976813 -0.3359859 7
3.752799 -1.1080683 -0.20238778 7
3.7283497 -1.1015568 -0.066520452 7
3.7976029 -1.1227386 1.0501208 10
3.7882121 -1.1206813 0.90249562 7
3.768868 -1.115674 0.75587833 7
3.7254004 -1.1035138 0.60864073 7
3.752763 -1.1123315 0.47589979 8
3.7423518 -1.109956 0.33816427 6
3.7416408 -1.1104559 0.20254014 7
3.6788731 -1.0925262 0.066319138 10
1.8280144 -0.54426003 -0.50081509 3
2.0724702 -0.61704254 -0.49039361 2
2.454504 -0.73125297 -0.48993912 2
2.9992759 -0.89412296 -0.48964027 4
3.803128 -1.1344845 -0.48260313 2
3.6640425 -1.0936913 -0.33119234 7
3.6966717 -1.1041335 -0.19951887 8
3.6769717 -1.0989485 -0.06565655 12
3.7385287 -1.1180571 1.0346018 7
3.7286623 -1.1158154 0.88900882 7
3.7136223 -1.1120209 0.74539322 13
3.6698766 -1.0996196 0.60004634 7
3.6969597 -1.1084378 0.46919695 8
3.6911373 -1.1073942 0.33380648 13
3.6855283 -1.1064126 0.19966166 14
3.622756 -1.0882574 0.065359257 6
1.8215753 -0.54892546 -0.49952096 3
2.0703037 -0.624273 -0.49039361 2
2.4566357 -0.74123418 -0.49089235 3
2.9961364 -0.90458697 -0.48964027 4
3.7611394 -1.1362712 -0.47772834 2
3.6125236 -1.0920613 -0.32683456 7
3.6354432 -1.0996823 -0.19638918 7
3.6204798 -1.0958458 -0.064706258 6
3.6791332 -1.1143 1.0190828 14
3.668793 -1.1118674 0.87552196 11
3.653353 -1.1078843 0.73395497 9
3.614032 -1.0966489 0.59145188 7
3.6408327 -1.1054754 0.46249413 9
3.6348248 -1.1043441 0.32901293 7
3.6290944 -1.103295 0.19678319 8
3.566324 -1.0848919 0.064399377 6
1.8195512 -0.5555982 -0.49952096 3
2.0680015 -0.63185692 -0.49039361 2
2.4585962 -0.75166827 -0.49184549 3
2.992801 -0.91556227 -0.48964027 5
3.6667874 -1.1224492 -0.46615076 2
3.5561085 -1.0892477 -0.32204098 7
3.5741003 -1.0954411 -0.19325948 7
3.5590844 -1.0915184 -0.063669577 7
3.624234 -1.1121908 1.0048569 7
3.6088042 -1.108145 0.86203504 6
3.5929663 -1.1039679 0.72251672 8
3.5533423 -1.0924718 0.58207619 7
3.589323 -1.1042199 0.45640066 10
3.5831475 -1.1030047 0.32465515 6
3.572535 -1.1004205 0.19390471 7
3.5097716 -1.0817587 0.063439496 9
1.8176006 -0.56194621 -0.49952096 3
2.0657835 -0.6390717 -0.49039361 2
2.4606462 -0.76169723 -0.49279872 3
2.9943042 -0.92746472 -0.49042246 5
3.591743 -1.1132042 -0.45701057 3
3.4999528 -1.0854248 -0.31724739 7
3.4987218 -1.0857126 -0.18934733 8
3.5027344 -1.087628 -0.062719285 10
3.564981 -1.1076382 0.98933792 7
3.5397806 -1.1004859 0.84630042 7
3.5187893 -1.0946335 0.70821887 12
3.4976375 -1.0887231 0.5734818 7
3.5333264 -1.1005086 0.44969785 10
3.5222108 -1.097721 0.31942579 10
3.516238 -1.0965327 0.19102623 11
3.4487064 -1.0761337 0.062392347 6
1.8156279 -0.56828737 -0.49952096 3
2.0681891 -0.6477347 -0.49151835 2
2.4626563 -0.77174968 -0.49375188 3
3.0004728 -0.94086629 -0.49198681 4
3.5262787 -1.1064206 -0.44908902 7
3.429611 -1.0767473 -0.31114647 8
3.4282196 -1.0769678 -0.18569601 8
3.4416864 -1.0818584 -0.061682601 7
3.5104122 -1.1041349 0.9751122 11
3.4801497 -1.095284 0.83281356 9
3.4540854 -1.0877435 0.69582742 9
3.4372928 -1.0831147 0.56410605 8
3.472667 -1.0949277 0.4423857 9
3.4613557 -1.0920254 0.31419647 7
3.4552505 -1.0907625 0.18788607 8
3.3924916 -1.0716017 0.06143247 6
1.8136333 -0.57462168 -0.49952096 3
2.0659153 -0.65495008 -0.49151835 3
2.4552689 -0.77885711 -0.49279872 3
3.0112913 -0.95581639 -0.4943333 4
3.4609063 -1.0991939 -0.4411675 13
3.3736141 -1.0721179 -0.30635291 13
3.3340294 -1.0601788 -0.18074064 31
3.380722 -1.0756762 -0.060645919 7
3.4513099 -1.0987991 0.95959312 8
3.397388 -1.0822852 0.81370717 7
3.3707674 -1.0744528 0.67962325 9
3.3817353 -1.078599 0.55551165 10
3.4073622 -1.087428 0.43446419 9
3.4005835 -1.0859185 0.30896711 7
3.3991032 -1.0860997 0.18500759 8
3.3220651 -1.0621231 0.060210798 13
1.8116164 -0.58094889 -0.49952096 3
2.0682557 -0.6636461 -0.49264312 3
2.4478617 -0.78592241 -0.49184549 3
3.0220418 -0.97085333 -0.49667984 4
3.3767295 -1.0854496 -0.4308086 27
3.2892418 -1.05796 -0.29894465 23
3.3255553 -1.0702806 -0.18047984 18
3.3150847 -1.0675492 -0.059522845 22
3.3922882 -1.0930645 0.94407409 8
3.3472197 -1.0791873 0.80246812 19
3.3296263 -1.0741566 0.67199773 15
3.3074532 -1.0676408 0.54379201 24
3.3374305 -1.0779607 0.42593333 16
3.3256783 -1.0748059 0.30243042 21
3.3287785 -1.0764495 0.18134408 22
3.2565038 -1.0537053 0.059076395 20
1.8095775 -0.58726907 -0.49952096 3
2.07056 -0.6723662 -0.49376786 3
2.4451034 -0.79446226 -0.49184549 3
3.0374205 -0.98750383 -0.49980852 5
3.2974112 -1.0726665 -0.42105904 17
3.2571104 -1.060185 -0.29632998 26
3.2695739 -1.0648731 -0.17761093 18
3.2447929 -1.0574286 -0.058313385 17
3.3287575 -1.0854341 0.92726189 24
3.2971148 -1.0757527 0.79122907 16
3.2605331 -1.0644469 0.65865314 27
3.2379832 -1.0577105 0.53285366 28
3.2676075 -1.0680188 0.41740248 23
3.2461586 -1.0616353 0.29545796 20
3.2538178 -1.0647688 0.17741889 23
3.2433035 -1.061955 0.058901869 66
1.8121052 -0.59508896 -0.50081509 3
2.0682003 -0.67958969 -0.49376786 3
2.4469781 -0.80452549 -0.49279872 3
3.029264 -0.99655718 -0.49902633 5
3.279505 -1.0795151 -0.419231 14
3.2344658 -1.0653152 -0.29458687 21
3.2421255 -1.0684652 -0.17630689 26
3.241082 -1.0687485 -0.058313385 27
3.2423887 -1.0698069 0.90398329 26
3.2424483 -1.0704541 0.77886611 29
3.2428157 -1.0712031 0.65579355 31
3.2248936 -1.0659071 0.53129101 17
3.235589 -1.0700687 0.41374642 31
3.2424331 -1.07296 0.29545796 19
3.2358615 -1.071412 0.17663385 21
3.2300861 -1.0701253 0.058727346 21
1.8100168 -0.60141075 -0.50081509 4
2.0658157 -0.68680495 -0.49376786 3
2.444155 -0.81306207 -0.49279872 3
3.0163951 -1.0040059 -0.49746197 5
3.2427576 -1.0799792 -0.41496557 10
3.2165513 -1.071875 -0.29327953 27
3.2336395 -1.0781965 -0.17604607 23
3.2183626 -1.073727 -0.057967823 23
3.2248907 -1.0765305 0.90010357 23
3.2294502 -1.078679 0.7766183 22
3.2297463 -1.0794045 0.65388715 20
3.2211533 -1.0771576 0.53129101 25
3.2177153 -1.0766324 0.41191834 27
3.2339447 -1.0826905 0.29502219 30
3.2321017 -1.0827007 0.17663385 30
3.2263308 -1.081394 0.058727346 28
1.8124843 -0.60926414 -0.50210917 5
2.0587881 -0.69245881 -0.49264312 3
2.4459538 -0.82315439 -0.49375188 3
3.0035117 -1.011377 -0.49589765 5
3.2107503 -1.0817847 -0.41130951 7
3.20807 -1.0815051 -0.29284373 12
3.2298563 -1.0894774 -0.17604607 33
3.2193317 -1.0865532 -0.058054212 17
3.2165372 -1.0862354 0.89881027 34
3.2210493 -1.0883855 0.7754944 23
3.2166593 -1.0875279 0.65198076 29
3.2267296 -1.09156 0.53285366 21
3.2186382 -1.0894489 0.41252771 35
3.2301457 -1.0939724 0.29502219 25
3.2330315 -1.0955787 0.17689553 27
3.198864 -1.0846229 0.058291033 12
1.8149191 -0.61714202 -0.50340325 4
2.0609705 -0.7012102 -0.49376786 3
2.4477119 -0.83326912 -0.49470508 3
2.9906137 -1.0186704 -0.4943333 6
3.1787703 -1.08338 -0.40765342 5
3.1665602 -1.0798354 -0.28935751 9
3.1976795 -1.0910705 -0.17448123 13
3.1682081 -1.0816321 -0.05719031 9
3.1990144 -1.0927728 0.8949306 26
3.2264512 -1.102774 0.77774227 20
3.2081995 -1.0971612 0.65102762 16
3.1948643 -1.0932236 0.52816576 9
3.2148156 -1.1006774 0.41252771 17
3.2027469 -1.0971698 0.29284328 11
3.1961241 -1.0955243 0.17506377 11
3.1477699 -1.0795642 0.057418413 8
1.8173209 -0.62504429 -0.50469732 3
2.0262632 -0.69730288 -0.48589453 3
2.449429 -0.84340602 -0.49565825 3
2.9870398 -1.0291034 -0.4943333 6
3.1468184 -1.0847652 -0.4039973 12
3.1203928 -1.0762653 -0.2854355 9
3.151371 -1.0875655 -0.17213394 7
3.1266093 -1.0796309 -0.056499191 8
3.1723549 -1.0960467 0.88846427 10
3.1765351 -1.0981116 0.76650316 9
3.1626024 -1.0939131 0.6424489 9
3.135025 -1.0849869 0.51879007 7
3.1593692 -1.0940297 0.4058249 10
3.1518326 -1.0920359 0.2884855 7
3.149821 -1.0919548 0.17270865 6
3.1061966 -1.0774388 0.05672032 7
1.8242509 -0.63455749 -0.50728554 3
2.0698285 -0.72038555 -0.49714214 3
2.4511056 -0.85356528 -0.49661148 3
2.9834292 -1.039524 -0.4943333 6
3.1148958 -1.0859408 -0.40034124 12
3.0836954 -1.0756671 -0.28238505 8
3.1098411 -1.0853962 -0.17004748 15
3.0897834 -1.0790007 -0.055894457 16
3.1320333 -1.0943683 0.87811828 8
3.13589 -1.09633 0.75751191 8
3.1217003 -1.0919807 0.63482338 6
3.0939281 -1.082872 0.51253957 7
3.1133766 -1.0902889 0.40034077 7
3.1150959 -1.0915015 0.28543505 18
3.1082947 -1.0897275 0.17061521 17
3.0599601 -1.0733818 0.055934958 16
1.8039118 -0.63419616 -0.50210917 3
2.0537667 -0.72203696 -0.49376786 3
2.453042 -0.86289012 -0.49756464 3
2.9801488 -1.0488914 -0.4943333 8
3.0833831 -1.0858306 -0.39668515 12
3.0427179 -1.0721071 -0.27889881 8
3.073452 -1.0835394 -0.1682218 15
3.0533767 -1.0770609 -0.055289723 12
3.0966983 -1.0929502 0.86906546 15
3.0956781 -1.0931978 0.74852067 7
3.0812311 -1.0887009 0.62719792 19
3.034637 -1.0728334 0.50316387 6
3.0678282 -1.0851699 0.39485666 7
3.0740871 -1.0879875 0.28194883 12
3.0672019 -1.0861531 0.16852178 13
3.0235872 -1.0713024 0.055324122 12
1.7790443 -0.63208997 -0.4956387 3
2.0512338 -0.7292015 -0.49376786 3
2.4500151 -0.87144756 -0.49756464 3
2.9764693 -1.0592877 -0.4943333 8
3.051523 -1.0865985 -0.39302906 13
3.0061126 -1.0710196 -0.27584836 8
3.0320249 -1.0808482 -0.16613534 14
3.0119288 -1.0742769 -0.054598603 12
3.0564735 -1.0907662 0.85871947 14
3.0551369 -1.0908904 0.73952943 17
3.0404346 -1.0862391 0.6195724 12
3.0122719 -1.0767703 0.50003856 17
3.0126202 -1.0774879 0.38815385 7
3.0374424 -1.0869638 0.27889836 12
3.0257845 -1.0833877 0.16642833 13
2.9868853 -1.070048 0.05471329 13
1.8039852 -0.64840782 -0.50340325 3
nan nan nan 0
2.4514234 -0.88208336 -0.49851784 4
2.9586275 -1.0651714 -0.49198681 12
3.0148368 -1.0860023 -0.38876364 14
2.9693654 -1.0702083 -0.27279788 8
2.9951632 -1.080097 -0.16430967 15
2.9750538 -1.073432 -0.053993873 11
3.0206549 -1.0904813 0.84966671 15
3.0144598 -1.0888395 0.73053825 12
2.9995043 -1.0840294 0.61194688 11
2.9804392 -1.0777273 0.49535075 11
2.9853175 -1.0800804 0.3851071 11
2.9959698 -1.0845258 0.27541214 11
2.9889305 -1.0825678 0.16459657 14
2.9500422 -1.0690652 0.054102458 12
1.7563187 -0.63820648 -0.4904623 3
2.0413849 -0.74219644 -0.49264312 3
2.4483292 -0.89063507 -0.49851784 5
2.9456103 -1.0721143 -0.49042246 17
2.9830487 -1.0863305 -0.38510755 13
2.9328518 -1.0686302 -0.26974744 8
2.9585364 -1.0785738 -0.16248401 15
2.9384124 -1.0718184 -0.053389143 11
2.9850702 -1.0894276 0.84061396 14
2.9786055 -1.0876575 0.72267085 13
2.9634304 -1.0827024 0.60527456 11
2.9441907 -1.0762557 0.48988158 11
2.9535642 -1.0802665 0.38145101 10
2.9594226 -1.0829948 0.2723617 14
2.9523122 -1.0809771 0.16276482 14
2.9087393 -1.0655988 0.053404361 12
nan nan nan 0
nan nan nan 0
2.4452055 -0.89917588 -0.49851784 5
2.9001374 -1.0670428 -0.48338288 11
2.9466383 -1.0847358 -0.38084212 14
2.9010594 -1.0685319 -0.26713276 8
2.9219573 -1.0768083 -0.16065834 13
2.9018192 -1.0699623 -0.052784409 13
2.9449985 -1.0864673 0.83026797 15
2.9382255 -1.0845512 0.71367961 12
2.9274027 -1.0811369 0.59860224 12
2.9126213 -1.0762557 0.48519373 12
2.9218466 -1.0802442 0.37779495 12
2.9229228 -1.0812219 0.26931125 13
2.9157419 -1.0791442 0.16093306 13
2.8721852 -1.0635934 0.052793525 12
nan nan nan 0
2.0178859 -0.74964333 -0.48814404 3
2.4420519 -0.90770584 -0.49851784 4
2.868623 -1.0668314 -0.47868985 11
2.9102755 -1.0828999 -0.37657669 13
2.8646364 -1.0664871 -0.26408231 17
2.8854268 -1.0748006 -0.15883268 13
2.8652754 -1.0678638 -0.052179679 12
2.9095099 -1.0849282 0.82121515 15
2.9024689 -1.0828797 0.70581228 13
2.8868239 -1.0776167 0.59097672 12
2.871835 -1.0725926 0.47894323 12
2.8855169 -1.0782765 0.37352949 10
2.8818066 -1.0774634 0.265825 11
2.8792207 -1.0770693 0.15910131 13
2.8356807 -1.0613459 0.052182693 13
nan nan nan 0
2.0699885 -0.77723289 -0.50164115 3
2.4388685 -0.9162246 -0.49851784 5
2.8325226 -1.0646752 -0.47321463 10
2.8739619 -1.0808237 -0.37231123 14
2.8329251 -1.0659552 -0.26146764 13
2.8489466 -1.0725514 -0.15700702 15
2.8334601 -1.0672858 -0.051661339 9
2.874068 -1.0831544 0.8121624 15
2.8667605 -1.080972 0.697945 13
2.8508983 -1.0755591 0.58430439 11
2.8264904 -1.0669143 0.47191146 13
2.8492367 -1.0760686 0.3692641 11
2.8454123 -1.0751916 0.26277456 14
2.8427501 -1.0747527 0.15726954 13
2.8039033 -1.0606253 0.051659122 13
nan nan nan 0
nan nan nan 0
2.4494214 -0.9299587 -0.5013774 4
2.8010895 -1.0640341 -0.4685216 12
2.8376987 -1.0785074 -0.36804584 13
2.7965965 -1.0634446 -0.25841716 14
2.8125174 -1.0700606 -0.15518135 14
2.7829955 -1.0593846 -0.050797433 12
2.8341608 -1.0794278 0.8018164 15
2.8356535 -1.0805631 0.69120157 13
2.8150227 -1.0732641 0.57763213 12
2.7950635 -1.0662131 0.46722358 12
2.8130076 -1.0736206 0.36499867 11
2.7997625 -1.0691253 0.25885257 14
2.8063309 -1.0721949 0.15543778 14
2.7768354 -1.0614811 0.051222809 11
nan nan nan 0
2.055414 -0.78817642 -0.49939165 4
2.4553256 -0.94201946 -0.50328374 4
2.7696958 -1.0631865 -0.46382856 15
2.8014872 -1.0759512 -0.36378038 20
2.7603209 -1.0606935 -0.25536671 29
2.7901225 -1.0727042 -0.15413812 13
2.7512846 -1.0583235 -0.050279092 20
2.7988231 -1.0771707 0.79276359 15
2.8000381 -1.0781994 0.68333423 12
2.7746179 -1.0689672 0.57000661 12
2.7498517 -1.0599768 0.46019179 17
2.7722006 -1.0691472 0.3601239 11
2.7727783 -1.069926 0.25667366 15
2.7746227 -1.0711942 0.15386769 17
2.7544596 -1.0639623 0.050873764 27
nan nan nan 0
2.039022 -0.79006571 -0.49601737 4
2.4749048 -0.95945531 -0.50804973 4
2.7475507 -1.0657047 -0.46069989 16
2.7745817 -1.0767465 -0.36073366 17
2.7566013 -1.0703224 -0.25536671 25
2.7537808 -1.0697803 -0.15231246 32
2.7475736 -1.0679209 -0.050279092 25
2.7680371 -1.0764308 0.78500408 18
2.7417717 -1.0667676 0.66984737 16
2.738852 -1.066182 0.56333429 27
2.7277277 -1.0623997 0.45706654 25
2.7499552 -1.0716099 0.35768652 23
2.750464 -1.072361 0.25493056 31
2.7569113 -1.0754292 0.15308267 28
2.7367575 -1.0681179 0.050611973 56
nan nan nan 0
2.0861542 -0.81671494 -0.50838971 3
2.4532595 -0.9609279 -0.504237 4
2.7484121 -1.0770909 -0.46148208 19
2.7754264 -1.0882365 -0.361343 19
2.7528486 -1.0799382 -0.25536671 30
2.7407339 -1.0757376 -0.15179083 28
2.7484827 -1.0793326 -0.050365485 28
2.7462816 -1.0790215 0.77983105 29
2.7425652 -1.078114 0.67097121 32
2.7168427 -1.0685499 0.55952156 23
2.7469804 -1.0809569 0.46097311 28
2.7277272 -1.0739303 0.35524914 29
2.7467041 -1.0819554 0.25493056 27
2.74385 -1.0813844 0.15255931 33
2.737663 -1.0794982 0.050699238 52
nan nan nan 0
2.0606387 -0.8150326 -0.50276589 3
2.4361985 -0.96406734 -0.5013774 4
2.7446356 -1.0866781 -0.46148208 14
2.771611 -1.0979179 -0.361343 13
2.7490621 -1.0895408 -0.25536671 29
2.7462454 -1.0889791 -0.15231246 30
2.7446983 -1.08892 -0.050365485 26
2.7335198 -1.0850375 0.77724457 30
2.7387853 -1.0876808 0.67097121 28
2.7267807 -1.0834643 0.56238109 28
2.738601 -1.0887145 0.46019179 26
2.7239616 -1.0834453 0.35524914 31
2.7429106 -1.0915366 0.25493056 29
2.7400587 -1.0909557 0.15255931 30
2.7385225 -1.0908979 0.050786499 61
nan nan nan 0
nan nan nan 0
2.4191458 -0.96709949 -0.49851784 4
2.7408257 -1.0962521 -0.46148208 15
2.7677617 -1.107586 -0.361343 13
2.7452421 -1.0991303 -0.25536671 28
2.7424273 -1.0985587 -0.15231246 35
2.7455208 -1.100354 -0.050451875 27
2.7297158 -1.0945725 0.77724457 31
2.7349718 -1.0972344 0.67097121 32
2.7275369 -1.0948042 0.56333429 30
2.7347841 -1.0982674 0.46019179 26
2.7247679 -1.0947974 0.35585845 36
2.7390835 -1.1011045 0.25493056 36
2.7408659 -1.1023767 0.15282097 26
2.7346978 -1.1004505 0.050786499 30
nan nan nan 0
2.0503809 -0.82757527 -0.50164115 3
2.3975501 -0.96818638 -0.49470508 5
2.7415612 -1.1076626 -0.46226421 14
2.7638786 -1.1172405 -0.361343 15
2.7413888 -1.1087061 -0.25536671 29
2.7385759 -1.1081249 -0.15231246 33
2.7370293 -1.108055 -0.050365485 29
2.7303553 -1.1059077 0.77853787 30
2.7356405 -1.1086043 0.67209518 31
2.7236989 -1.1043184 0.56333429 29
2.7309337 -1.1078068 0.46019179 29
2.7255285 -1.1061683 0.35646781 29
2.7352233 -1.110659 0.25493056 35
2.7370012 -1.1119374 0.15282097 26
2.73084 -1.1099896 0.050786499 24
nan nan nan 0
2.0519907 -0.83656645 -0.50276589 4
2.4168797 -0.98581827 -0.49947101 5
2.7376781 -1.1172256 -0.46226421 13
2.7599616 -1.1268815 -0.361343 16
2.7375019 -1.1182686 -0.25536671 26
2.7346914 -1.1176776 -0.15231246 24
2.7377722 -1.1194944 -0.050451875 34
2.7309482 -1.1172605 0.77983105 31
2.7317541 -1.1181467 0.67209518 31
2.7243698 -1.1156793 0.56428748 29
2.7316203 -1.1192054 0.46097311 22
2.7216506 -1.1156753 0.35646781 31
2.7359381 -1.12209 0.25536633 30
2.7331033 -1.1214846 0.15282097 33
2.7315736 -1.1214141 0.050873764 29
nan nan nan 0
1.9995044 -0.82331985 -0.49039361 4
2.4179621 -0.99611837 -0.50042421 5
2.7383275 -1.1286571 -0.4630464 13
2.7560112 -1.1365087 -0.361343 16
2.7381864 -1.1297172 -0.25580251 31
2.7353885 -1.1291217 -0.15257327 29
2.7338476 -1.1290442 -0.050451875 25
2.7314954 -1.1286308 0.78112435 32
2.732337 -1.1295369 0.67321903 29
2.7204585 -1.1251823 0.56428748 28
2.7276969 -1.1287336 0.46097311 21
2.7223246 -1.1270671 0.35707715 29
2.7320046 -1.1316333 0.25536633 33
2.7337847 -1.1329297 0.15308267 33
2.7276423 -1.1309421 0.050873764 26
nan nan nan 0
2.0281069 -0.84338892 -0.49826688 4
2.4235337 -1.0083234 -0.5023306 5
2.7343709 -1.1382087 -0.4630464 13
2.756609 -1.14803 -0.36195236 15
2.7342262 -1.1392685 -0.25580251 30
2.7360392 -1.1405843 -0.15283407 30
2.7298899 -1.1385801 -0.050451875 30
2.7275393 -1.1381587 0.78112435 29
2.7328734 -1.1409446 0.67434299 30
2.7210436 -1.1365634 0.56524068 25
2.7282968 -1.1401525 0.46175441 26
2.718374 -1.1365629 0.35707715 37
2.7326331 -1.1430851 0.25580209 33
2.7344196 -1.1443932 0.15334433 27
2.7282894 -1.1423873 0.050961021 26
nan nan nan 0
2.020659 -0.84857696 -0.49714214 4
2.4245245 -1.0186783 -0.50328374 4
2.7349334 -1.1496601 -0.46382856 15
2.7525847 -1.1576455 -0.36195236 16
2.7348237 -1.1507375 -0.25623828 28
2.7320414 -1.150128 -0.15283407 24
2.725899 -1.1481023 -0.050451875 29
2.7280006 -1.1495482 0.7824176 30
2.7288742 -1.1504772 0.67434299 30
2.7170596 -1.1460547 0.56524068 27
2.7243001 -1.1496689 0.46175441 30
2.7189622 -1.1479753 0.35768652 36
2.7286263 -1.1526169 0.25580209 33
2.7304082 -1.1539311 0.15334433 27
2.7242851 -1.1519039 0.050961021 25
1.7649773 -0.74809802 -0.50340325 3
2.0176845 -0.85562515 -0.49714214 3
2.4254723 -1.0290524 -0.504237 4
2.7354498 -1.1611295 -0.46461076 14
2.7530947 -1.1691865 -0.3625617 14
2.7307901 -1.1602768 -0.25623828 29
2.732605 -1.161611 -0.15309489 31
2.7264752 -1.1595671 -0.050538264 30
2.7284155 -1.1609547 0.78371084 30
2.7248418 -1.1599957 0.67434299 33
2.7175581 -1.1574554 0.56619388 25
2.7248139 -1.1611075 0.46253574 26
2.7195034 -1.1594056 0.35829583 33
2.7291677 -1.1640886 0.25623786 30
2.7309561 -1.1654148 0.15360603 29
2.7248454 -1.1633694 0.051048286 27
1.7623553 -0.7542544 -0.50340325 3
2.0146856 -0.86266297 -0.49714214 4
2.4263768 -1.0394453 -0.50519013 4
2.735919 -1.1726164 -0.46539292 13
2.7489965 -1.1787894 -0.3625617 15
2.7313011 -1.1717658 -0.25667405 29
2.7285337 -1.1711425 -0.15309489 28
2.7270045 -1.1710498 -0.050624654 30
2.7243464 -1.1704717 0.78371084 31
2.7252519 -1.171424 0.67546684 31
2.7180104 -1.1688734 0.56714702 25
2.7207441 -1.1706119 0.46253574 24
2.7199981 -1.1708534 0.3589052 30
2.7296624 -1.1755784 0.25667366 31
2.7314568 -1.1769162 0.15386769 30
2.720768 -1.1728739 0.051048286 28
1.7685785 -0.76423305 -0.50599146 3
2.0161338 -0.87162346 -0.49826688 4
2.4272389 -1.0498571 -0.50614333 4
2.7318091 -1.1821594 -0.46539292 14
2.7494195 -1.1903498 -0.36317107 14
2.731765 -1.1832725 -0.25710985 28
2.7290106 -1.1826452 -0.15335569 28
2.7274871 -1.1825504 -0.050711047 31
2.7246752 -1.1818962 0.78500408 31
2.7211461 -1.1809298 0.67546684 30
2.7139139 -1.178354 0.56714702 26
2.7211711 -1.1820695 0.46331704 24
2.7204461 -1.182319 0.35951456 32
2.7255423 -1.1850995 0.25667366 30
2.7319105 -1.1884356 0.15412939 30
2.721241 -1.1843588 0.051135547 25
1.7703266 -0.77233309 -0.50728554 3
2.0130789 -0.87865579 -0.49826688 4
2.4280577 -1.0602876 -0.50709653 4
2.7321916 -1.1936651 -0.46617511 13
2.749795 -1.2019274 -0.36378038 15
2.7321815 -1.1947966 -0.25754562 28
2.7248659 -1.1921639 -0.15335569 30
2.7233427 -1.1920639 -0.050711047 30
2.7205329 -1.1913999 0.78500408 31
2.7214701 -1.1923765 0.6765908 29
2.7142794 -1.1897907 0.56810021 25
2.7215512 -1.1935445 0.46409836 24
2.7208469 -1.1938019 0.3601239 32
2.72595 -1.1966084 0.25710946 30
2.7323174 -1.1999723 0.15439107 29
2.7216671 -1.1958616 0.051222809 27
1.7589153 -0.77430767 -0.50469732 3
2.0103085 -0.88497573 -0.49826688 4
2.4247146 -1.0679103 -0.50709653 4
2.7329471 -1.2042339 -0.46695724 13
2.7505465 -1.2125621 -0.36438975 15
2.7284145 -1.2033741 -0.25754562 29
2.7256751 -1.2027342 -0.1536165 29
2.7241576 -1.2026327 -0.050797433 30
2.7211947 -1.2018923 0.78629738 31
2.722167 -1.2028894 0.67771465 30
2.7150171 -1.2002965 0.56905341 26
2.7223046 -1.2040863 0.46487963 25
2.7216213 -1.204352 0.36073324 32
2.7267318 -1.2071826 0.25754523 31
2.7285342 -1.2085502 0.15439107 28
2.7224672 -1.2064315 0.05131007 27
1.756338 -0.78013623 -0.50469732 3
2.0072072 -0.89198762 -0.49826688 4
2.4254572 -1.0783617 -0.50804973 4
2.7332392 -1.2157735 -0.46773943 14
2.7462971 -1.2221559 -0.36438975 15
2.7287478 -1.2149167 -0.25798139 28
2.7214601 -1.2122414 -0.1536165 29
2.7245092 -1.2141694 -0.050883826 30
2.7169826 -1.2113837 0.78629738 30
2.7224009 -1.2143691 0.67883861 31
2.7152934 -1.2117668 0.57000661 24
2.7180851 -1.2135816 0.46487963 24
2.7174008 -1.2138449 0.36073324 32
2.7270489 -1.2187257 0.257981 31
2.728857 -1.2201052 0.15465274 30
2.7228031 -1.2179686 0.051397335 26
1.7534668 -0.78656828 -0.50469732 3
2.0039244 -0.89933842 -0.49826688 4
2.4214885 -1.0872443 -0.50804973 4
2.7332695 -1.2278066 -0.4685216 13
2.7463257 -1.2342477 -0.36499909 14
2.7288191 -1.2269524 -0.25841716 27
2.7215526 -1.2242563 -0.15387732 30
2.7200406 -1.224147 -0.050883826 31
2.7169285 -1.2233167 0.78759056 28
2.7179317 -1.224339 0.67883861 28
2.7108338 -1.2217107 0.57000661 26
2.7181208 -1.2255657 0.46566096 25
2.7174573 -1.2258371 0.36134258 33
2.7271035 -1.2307615 0.25841677 31
2.7243669 -1.2300987 0.15465274 27
2.7183206 -1.2279401 0.051397335 26
1.7507105 -0.79268426 -0.50469732 3
2.000773 -0.9063279 -0.49826688 4
2.4176786 -1.0956903 -0.50804973 4
2.7334647 -1.2393794 -0.46930379 13
2.7465205 -1.2458768 -0.36560845 14
2.7290559 -1.2385288 -0.25885296 27
2.7218089 -1.2358131 -0.15413812 29
2.7203028 -1.2357019 -0.050970219 30
2.7170389 -1.2347914 0.78888386 31
2.7180767 -1.2358353 0.67996246 28
2.7110202 -1.233198 0.57095981 24
2.7138264 -1.2350461 0.46566096 25
2.7176785 -1.2373719 0.36195195 33
2.7273238 -1.2423382 0.25885257 29
2.7246001 -1.2416717 0.15491442 29
2.7185667 -1.2394953 0.051484596 27
1.7435402 -0.79678315 -0.50340325 3
1.997597 -0.91330642 -0.49826688 4
2.4093757 -1.1020811 -0.50709653 4
2.7336123 -1.2509683 -0.47008595 13
2.7466669 -1.2575222 -0.36621779 14
2.7247157 -1.2480476 -0.25885296 28
2.7174788 -1.2453065 -0.15413812 26
2.7159729 -1.24519 -0.050970219 31
2.7171021 -1.2462817 0.79017711 30
2.7181742 -1.2473477 0.68108642 29
2.7111599 -1.2447017 0.571913 24
2.7139864 -1.2465729 0.46644226 24
2.7133427 -1.2468508 0.36195195 32
2.7229705 -1.2518507 0.25885257 29
2.7247853 -1.2532612 0.1551761 28
2.7142236 -1.2489773 0.051484596 26
1.7407483 -0.80286437 -0.50340325 3
1.9899735 -0.91823268 -0.49714214 4
2.4055138 -1.1104846 -0.50709653 4
2.729229 -1.2605029 -0.47008595 13
2.7422605 -1.2671021 -0.36621779 14
2.7248638 -1.2596409 -0.25928873 28
2.7176473 -1.2568806 -0.15439893 27
2.7161467 -1.2567623 -0.051056605 30
2.7171183 -1.2577876 0.79147035 30
2.7182245 -1.2588757 0.68221027 28
2.7067986 -1.2541579 0.571913 26
2.7140992 -1.2581159 0.46722358 24
2.7134757 -1.2584023 0.36256129 31
2.7231026 -1.2634444 0.25928834 30
2.7249231 -1.2648672 0.15543778 28
2.7143812 -1.2605497 0.051571857 26
1.7379352 -0.80893576 -0.50340325 3
1.9867561 -0.92517346 -0.49714214 4
2.3971739 -1.116802 -0.50614333 4
2.7292888 -1.2721083 -0.47086814 13
2.7423186 -1.2787641 -0.36682713 15
2.7249641 -1.2712507 -0.25972453 27
2.717768 -1.2684711 -0.15465973 29
2.7162733 -1.2683508 -0.051142998 27
2.7170873 -1.2693087 0.79276359 30
2.7138135 -1.2683564 0.68221027 29
2.7068503 -1.2656777 0.57286614 25
2.709691 -1.2675823 0.46722358 25
2.7090666 -1.2678665 0.36256129 33
2.7231867 -1.2750543 0.25972411 31
2.7250128 -1.2764893 0.15569946 28
2.7099645 -1.2700169 0.051571857 27
1.7307293 -0.81294411 -0.50210917 3
1.9835145 -0.93210286 -0.49714214 4
2.393261 -1.1251628 -0.50614333 4
2.7248316 -1.2816275 -0.47086814 12
2.7423286 -1.2904419 -0.36743647 15
2.7205102 -1.2807549 -0.25972453 27
2.7133236 -1.2779502 -0.15465973 27
2.7163517 -1.2799556 -0.051229388 30
2.7170086 -1.2808448 0.79405689 30
2.7137764 -1.2799 0.68333423 28
2.7068548 -1.2772131 0.57381934 23
2.7097156 -1.2791413 0.46800488 24
2.7091119 -1.2794346 0.36317062 31
2.7232227 -1.2866801 0.26015988 30
2.7205405 -1.2859936 0.15569946 28
2.7100344 -1.281606 0.051659122 27
1.7278812 -0.81898052 -0.50210917 3
1.9802487 -0.93902093 -0.49714214 4
2.3848839 -1.1314062 -0.50519013 4
2.7248025 -1.2932485 -0.47165027 13
2.7378073 -1.3000065 -0.36743647 14
2.7205219 -1.2923806 -0.2601603 28
2.7133558 -1.289557 -0.15492055 27
2.7118671 -1.2894297 -0.051229388 29
2.7168827 -1.2923958 0.79535013 29
2.7136915 -1.2914586 0.68445808 29
2.7068117 -1.288764 0.57477254 24
2.7096927 -1.2907159 0.46878621 24
2.7091095 -1.2910182 0.36377996 31
2.718715 -1.2961781 0.26015988 30
2.7205417 -1.2976319 0.15596114 29
2.7100561 -1.293211 0.051746383 26
1.7250118 -0.8250069 -0.50210917 3
1.976959 -0.94592756 -0.49714214 4
2.3764932 -1.137605 -0.504237 4
2.7247257 -1.3048851 -0.47243246 13
2.7377284 -1.3116996 -0.36804584 14
2.7204857 -1.3040222 -0.26059607 27
2.7133403 -1.3011796 -0.15518135 28
2.7118571 -1.3010505 -0.051315777 28
2.7123549 -1.3018717 0.79535013 30
2.7135587 -1.3030323 0.68558204 29
2.7067208 -1.3003302 0.57572573 25
2.7096219 -1.3023061 0.46956751 24
2.709059 -1.3026175 0.36438933 29
2.7186625 -1.3078196 0.26059568 32
2.7204947 -1.3092856 0.15622282 28
2.7055254 -1.302663 0.051746383 26
1.7264713 -0.83312231 -0.50340325 3
1.973645 -0.95282263 -0.49714214 4
2.368088 -1.1437588 -0.50328374 4
2.7246008 -1.3165368 -0.47321463 12
2.737601 -1.323408 -0.36865517 14
2.7204015 -1.3156792 -0.26103184 25
2.7132766 -1.3128177 -0.15544216 28
2.7117989 -1.3126869 -0.051402166 30
2.7121408 -1.3134369 0.79664338 31
2.7133784 -1.3146207 0.68670589 28
2.7065821 -1.3119113 0.57667893 23
2.7095032 -1.3139113 0.47034883 22
2.7089603 -1.3142321 0.36499867 30
2.7140808 -1.3173014 0.26059568 31
2.7159078 -1.318774 0.15622282 27
2.7054586 -1.3142836 0.051833645 26
1.7278949 -0.84125787 -0.50469732 4
1.970307 -0.95970619 -0.49714214 5
2.3596685 -1.1498678 -0.5023306 5
2.7244277 -1.3282036 -0.47399682 12
2.7374253 -1.3351316 -0.36926451 14
2.7202687 -1.3273515 -0.26146764 28
2.7086775 -1.3222809 -0.15544216 29
2.7116926 -1.3243388 -0.05148856 28
2.7118793 -1.3250163 0.79793668 28
2.71315 -1.3262239 0.68782979 28
2.7063956 -1.3235073 0.57763213 24
2.7093363 -1.3255316 0.47113013 24
2.7088139 -1.3258619 0.36560804 30
2.7139394 -1.3289578 0.26103145 31
2.7157722 -1.330443 0.1564845 26
2.7053432 -1.3259196 0.051920906 24
1.7249478 -0.84728426 -0.50469732 5
1.9669451 -0.96657801 -0.49714214 4
2.3556404 -1.1580976 -0.5023306 5
2.7197747 -1.3377055 -0.47399682 12
2.7372012 -1.3468698 -0.36987385 14
2.7156191 -1.3368388 -0.26146764 28
2.7085247 -1.3339339 -0.15570298 27
2.7115374 -1.3360057 -0.051574945 28
2.7115695 -1.3366097 0.79922986 30
2.7128737 -1.3378412 0.6889537 28
2.7061605 -1.3351179 0.57858527 24
2.7091215 -1.3371667 0.47191146 24
2.7086189 -1.3375067 0.36621734 31
2.7137496 -1.3406292 0.26146722 29
2.7155876 -1.342127 0.15674618 26
2.7051802 -1.3375708 0.052008171 25
1.7263073 -0.85544467 -0.50599146 5
1.963559 -0.97343802 -0.49714214 5
2.3515837 -1.1663132 -0.5023306 4
2.7195125 -1.3493862 -0.47477898 12
2.7369282 -1.3586229 -0.37048322 14
2.7153969 -1.3485254 -0.26190341 25
2.7083237 -1.345602 -0.15596379 27
2.7068572 -1.3454626 -0.051574945 28
2.7112122 -1.3482174 0.80052316 29
2.7125494 -1.3494729 0.6900776 26
2.7014837 -1.3445561 0.57858527 24
2.708858 -1.3488163 0.47269273 25
2.7083759 -1.3491662 0.36682671 30
2.7090533 -1.350094 0.26146722 29
2.7153547 -1.3538259 0.15700787 26
2.7049677 -1.3492367 0.052095428 26
1.7276305 -0.86362487 -0.50728554 5
1.960149 -0.98028618 -0.49714214 5
2.3562772 -1.1789072 -0.504237 4
2.7192018 -1.3610812 -0.47556117 13
2.7366064 -1.3703904 -0.37109256 14
2.7151268 -1.3602269 -0.2623392 27
2.7080741 -1.357285 -0.15622459 28
2.7066133 -1.357144 -0.051661339 28
2.7108066 -1.3598386 0.8018164 28
2.712177 -1.3611186 0.69120157 28
2.7011607 -1.3561803 0.57953846 24
2.7085466 -1.3604805 0.47347406 22
2.7080841 -1.3608402 0.36743605 30
2.7087746 -1.3617793 0.26190299 30
2.7106125 -1.363296 0.15700787 27
2.7047076 -1.3609177 0.052182693 26
1.7246054 -0.86965019 -0.50728554 5
1.9610648 -0.98931664 -0.49826688 4
2.3565295 -1.1893363 -0.50519013 4
2.7188425 -1.3727906 -0.4763433 12
2.7362359 -1.3821721 -0.37170193 14
2.710362 -1.3696961 -0.2623392 26
2.7077758 -1.3689824 -0.15648541 26
2.7063205 -1.3688399 -0.051747728 26
2.7103531 -1.3714737 0.80310965 28
2.7117558 -1.3727779 0.69232541 28
2.7007887 -1.3678184 0.58049166 22
2.7081864 -1.3721589 0.47425535 23
2.7077441 -1.3725287 0.36804542 31
2.708447 -1.3734792 0.26233879 30
2.7102902 -1.3750086 0.15726954 26
2.7043986 -1.3726132 0.052269954 25
1.7172545 -0.87347525 -0.50599146 5
1.9575995 -0.99615598 -0.49826688 4
2.3567379 -1.1997818 -0.50614333 4
2.7140338 -1.3822727 -0.4763433 11
2.7313945 -1.391715 -0.37170193 14
2.7100017 -1.3814107 -0.26277497 26
2.7029805 -1.3784261 -0.15648541 27
2.7059791 -1.3805504 -0.051834121 28
2.7055492 -1.3809263 0.80310965 27
2.7112865 -1.3844512 0.69344938 28
2.7003689 -1.3794705 0.58144486 24
2.707778 -1.3838514 0.47503668 23
2.7073553 -1.3842313 0.36865473 29
2.7080705 -1.3851933 0.26277456 28
2.709919 -1.3867356 0.15753123 26
2.7040408 -1.3843231 0.052357219 26
1.7141951 -0.87946427 -0.50599146 5
1.9541104 -1.0029832 -0.49826688 4
2.3569016 -1.210243 -0.50709653 4
2.7135851 -1.3939947 -0.4771255 10
2.7309337 -1.4035093 -0.37231123 14
2.7095933 -1.3931396 -0.26321074 25
2.7025926 -1.3901367 -0.15674621 27
2.7055888 -1.392275 -0.051920507 27
2.7050064 -1.3925725 0.80440289 30
2.7107687 -1.3961376 0.69457322 29
2.6999004 -1.3911363 0.58239806 23
2.7073205 -1.3955575 0.47581798 24
2.7069175 -1.3959479 0.3692641 30
2.7120719 -1.3992053 0.26364613 27
2.7094986 -1.3984765 0.1577929 26
2.703634 -1.3960472 0.052444477 24
1.7112693 -0.88514394 -0.50599146 5
1.9509498 -1.0091172 -0.49826688 5
2.3574474 -1.2198973 -0.50804973 4
2.713578 -1.4047831 -0.47790766 10
2.7309179 -1.4143641 -0.3729206 14
2.7096257 -1.4039365 -0.26364651 25
2.7026453 -1.4009182 -0.15700702 26
2.7056396 -1.4030695 -0.0520069 26
2.7049055 -1.4032879 0.80569619 27
2.7063692 -1.4046468 0.69457322 27
2.6955166 -1.3996114 0.58239806 23
2.7073054 -1.4063325 0.47659931 21
2.7069223 -1.4067335 0.36987343 30
2.7120826 -1.4100164 0.2640819 28
2.7095218 -1.4092858 0.15805459 26
2.7036695 -1.4068416 0.052531742 24
1.7040422 -0.8885808 -0.50469732 5
1.9430962 -1.0136679 -0.49714214 4
2.3575258 -1.2303898 -0.50900286 4
2.708658 -1.4142467 -0.47790766 10
2.7303629 -1.4261858 -0.37352994 13
2.7091231 -1.4156934 -0.26408231 25
2.7021635 -1.4126569 -0.15726782 25
2.7051554 -1.4148223 -0.052093286 26
2.7042701 -1.4149604 0.80698937 27
2.705766 -1.4163448 0.69569719 28
2.6949627 -1.411289 0.58335125 23
2.7067544 -1.4180661 0.4773806 22
2.7063911 -1.4184777 0.3704828 29
2.7115552 -1.4217877 0.26451766 28
2.7090077 -1.4210547 0.15831625 24
2.7031691 -1.4185936 0.052619003 25
1.700774 -0.89482039 -0.50469732 4
1.9393678 -1.0207829 -0.49714214 4
2.3530004 -1.2390223 -0.50900286 4
2.7078257 -1.4264667 -0.47868985 9
2.7295077 -1.4384973 -0.37413931 14
2.708322 -1.4279362 -0.26451808 25
2.7013843 -1.424881 -0.15752864 26
2.7043729 -1.4270607 -0.052179679 27
2.703337 -1.4271173 0.80828267 27
2.704865 -1.4285276 0.69682103 25
2.6941118 -1.42345 0.58430439 21
2.705905 -1.4302851 0.47816193 22
2.7011738 -1.4283876 0.3704828 29
2.7107286 -1.4340458 0.26495346 28
2.7081943 -1.4333099 0.15857795 25
2.7023697 -1.4308311 0.052706264 23
1.6976401 -0.90075177 -0.50469732 4
1.9357929 -1.0275464 -0.49714214 4
2.3529961 -1.2495303 -0.50995612 4
2.7071908 -1.4382269 -0.47947201 9
2.728852 -1.4503455 -0.37474868 13
2.7077193 -1.4397198 -0.26495388 24
2.7008023 -1.4366467 -0.15778944 27
2.7037883 -1.4388405 -0.052266069 25
2.7026019 -1.4388146 0.80957586 28
2.7041621 -1.440251 0.697945 27
2.6934583 -1.4351536 0.58525759 22
2.7052538 -1.4420449 0.47894323 23
2.7005503 -1.440143 0.37109211 29
2.7101011 -1.4458437 0.26538923 28
2.7075794 -1.4451056 0.15883961 25
2.6973588 -1.4402554 0.052706264 22
1.6944854 -0.90667218 -0.50469732 4
1.9321942 -1.0342973 -0.49714214 4
2.3486202 -1.2577361 -0.50995612 4
2.7065072 -1.4500002 -0.4802542 9
2.7281468 -1.4622065 -0.37535799 13
2.7070668 -1.4515165 -0.26538962 24
2.7001715 -1.4484259 -0.15805025 25
2.7031546 -1.4506338 -0.052352462 25
2.7018187 -1.4505244 0.81086916 28
2.6991181 -1.4496814 0.697945 27
2.6927562 -1.44687 0.58621085 24
2.7045538 -1.4538175 0.47972456 22
2.6998777 -1.4519114 0.37170148 29
2.709424 -1.4576548 0.265825 28
2.7113121 -1.4592808 0.15936297 25
2.6967165 -1.4520322 0.052793525 25
1.6913103 -0.9125815 -0.50469732 4
1.9285721 -1.0410357 -0.49714214 4
2.3485341 -1.2682589 -0.51090926 4
2.7014291 -1.4594388 -0.4802542 9
2.7273922 -1.4740802 -0.37596735 14
2.7063653 -1.4633262 -0.26582542 24
2.6994905 -1.460218 -0.15831105 25
2.702471 -1.46244 -0.052438848 26
2.7009864 -1.4622459 0.8121624 27
2.6983254 -1.4614145 0.69906884 26
2.6920047 -1.458599 0.58716398 22
2.7038043 -1.4656028 0.48050588 21
2.6991556 -1.4636925 0.37231082 29
2.7086978 -1.4694788 0.26626077 28
2.7105904 -1.471118 0.15962467 24
2.6960251 -1.4638222 0.05288079 22
1.6838721 -0.91617149 -0.50340325 4
1.9249264 -1.0477613 -0.49714214 4
2.3440928 -1.2764492 -0.51090926 4
2.7006552 -1.4712223 -0.48103639 9
2.7265875 -1.4859664 -0.37657669 14
2.7056139 -1.4751486 -0.26626119 26
2.6987607 -1.4720232 -0.15857187 25
2.7017384 -1.4742591 -0.052525241 25
2.700105 -1.4739795 0.81345564 27
2.6974838 -1.4731597 0.70019281 27
2.6955116 -1.4726936 0.58907038 21
2.7030056 -1.4774005 0.48128715 22
2.6983843 -1.4754864 0.37292019 29
2.7079217 -1.4813155 0.26669657 27
2.7098186 -1.4829676 0.15988633 26
2.6952839 -1.4756247 0.052968048 22
1.6806638 -0.92204374 -0.50340325 4
1.9212574 -1.0544741 -0.49714214 4
2.339623 -1.2846237 -0.51090926 4
2.6998315 -1.4830179 -0.48181856 8
2.7257333 -1.4978651 -0.37718606 14
2.7048132 -1.4869835 -0.26669699 24
2.7023563 -1.4862471 -0.1590935 25
2.7009556 -1.4860909 -0.052611627 26
2.6991746 -1.4857247 0.81474888 27
2.6965926 -1.4849168 0.70131665 27
2.6946537 -1.484462 0.59002358 22
2.7021573 -1.4892105 0.48206848 21
2.6975634 -1.4872926 0.37352949 28
2.7070959 -1.4931644 0.26713234 27
2.7089972 -1.49483 0.16014802 23
2.6944933 -1.4874402 0.053055312 22
1.677435 -0.92790478 -0.50340325 4
1.9133021 -1.0588151 -0.49601737 4
2.3351245 -1.2927828 -0.51090926 4
2.6989586 -1.4948258 -0.48260072 9
2.724829 -1.5097756 -0.37779537 13
2.7039623 -1.4988308 -0.26713276 24
2.7015183 -1.4980924 -0.1593543 26
2.7001235 -1.4979352 -0.05269802 27
2.6981952 -1.4974813 0.81604218 27
2.6999118 -1.4990505 0.70356447 27
2.6937461 -1.4962423 0.59097672 22
2.7012591 -1.5010324 0.48284978 22
2.6966929 -1.4991112 0.37413886 29
2.7062204 -1.5050259 0.26756814 26
2.7081263 -1.5067047 0.16040969 24
2.6936529 -1.4992679 0.053142574 23
1.6741859 -0.93375438 -0.50340325 4
1.9095944 -1.0654874 -0.49601737 4
2.3305976 -1.300926 -0.51090926 4
2.6937244 -1.5042378 -0.48260072 9
2.7238748 -1.5216984 -0.37840474 14
2.7030621 -1.5106902 -0.26756853 23
2.7006309 -1.5099502 -0.15961511 24
2.6992412 -1.5097917 -0.052784409 26
2.6971664 -1.5092492 0.81733537 26
2.6989143 -1.5108459 0.70468843 26
2.6927896 -1.5080346 0.59192997 22
2.7003117 -1.5128664 0.4836311 21
2.6957729 -1.5109416 0.37474823 27
2.7052951 -1.5168992 0.26800391 27
2.7072051 -1.5185914 0.16067138 25
2.6927629 -1.511108 0.053229839 22
1.6709162 -0.93959272 -0.50340325 4
1.9058635 -1.0721465 -0.49601737 4
2.3260424 -1.3090534 -0.51090926 4
2.69276 -1.5160542 -0.48338288 9
2.7228706 -1.5336326 -0.37901407 14
2.702112 -1.5225618 -0.26800433 25
2.6996934 -1.5218198 -0.15987591 24
2.6983092 -1.5216602 -0.052870803 25
2.6960883 -1.521028 0.81862867 28
2.6978667 -1.5226521 0.70581228 26
2.6917832 -1.5198381 0.59288311 22
2.6993144 -1.5247117 0.4844124 21
2.6948028 -1.522784 0.37535757 27
2.6999836 -1.5263332 0.26800391 27
2.7062342 -1.5304902 0.16093306 23
2.6918228 -1.5229601 0.053317096 21
1.6676264 -0.94541961 -0.50340325 5
1.9021094 -1.0787927 -0.49601737 4
2.3214588 -1.3171648 -0.51090926 4
2.6874516 -1.5254444 -0.48338288 7
2.7175004 -1.5431279 -0.37901407 13
2.7011116 -1.5344449 -0.2684401 23
2.6987059 -1.5337013 -0.16013673 22
2.6973271 -1.5335406 -0.052957188 25
2.6949606 -1.5328176 0.81992191 27
2.6967697 -1.5344697 0.70693624 25
2.6907272 -1.5316532 0.59383631 22
2.6939754 -1.5341249 0.4844124 22
2.693783 -1.5346379 0.37596691 27
2.6989667 -1.538215 0.26843968 26
2.7052126 -1.5424004 0.16119474 22
2.6908329 -1.5348238 0.053404361 22
1.6643159 -0.95123494 -0.50340325 5
1.8983321 -1.0854257 -0.49601737 5
2.3125863 -1.3228232 -0.50995612 4
2.6735382 -1.5299106 -0.48181856 5
2.7164044 -1.5550698 -0.37962344 14
2.7000616 -1.5463398 -0.2688759 24
2.6976686 -1.5455946 -0.16039754 25
2.696295 -1.5454328 -0.053043582 22
2.6937838 -1.5446181 0.82121515 27
2.6956232 -1.546298 0.70806009 27
2.6896214 -1.5434792 0.59478951 22
2.6928871 -1.5459781 0.48519373 21
2.692713 -1.5465032 0.37657624 30
2.6979001 -1.5501083 0.26887548 28
2.7041416 -1.5543224 0.16145642 24
2.6941264 -1.5491915 0.053578883 21
1.6609854 -0.9570387 -0.50340325 5
1.8945317 -1.0920455 -0.49601737 4
2.3037028 -1.3284355 -0.50900286 4
2.7024028 -1.5589753 -0.48807591 12
2.7152579 -1.567023 -0.38023278 13
2.6989605 -1.5582457 -0.26931167 23
2.6965806 -1.5574992 -0.16065834 24
2.6952126 -1.5573364 -0.053129975 23
2.6967385 -1.5588459 0.8238017 28
2.6944268 -1.5581371 0.70918405 27
2.6884658 -1.5553162 0.5957427 22
2.6917486 -1.5578423 0.48597503 20
2.6915934 -1.5583798 0.37718561 28
2.6967824 -1.5620128 0.26931125 27
2.7030196 -1.5662553 0.1617181 25
2.6930275 -1.5610934 0.053666148 21
1.6576346 -0.96283078 -0.50340325 5
1.8907082 -1.098652 -0.49601737 4
2.2948084 -1.3340023 -0.50804973 4
2.7182896 -1.5808123 -0.49198681 11
2.7140613 -1.5789871 -0.38084212 13
2.6978099 -1.5701628 -0.26974744 23
2.6911275 -1.5669024 -0.16065834 24
2.6983998 -1.5717674 -0.053302754 24
2.6954536 -1.5706815 0.82509488 27
2.6931806 -1.5699865 0.7103079 26
2.6872604 -1.5671639 0.59669584 21
2.6905601 -1.5697175 0.48675635 21
2.690423 -1.5702671 0.37779495 28
2.6999166 -1.5764397 0.27018279 26
2.6975358 -1.575681 0.1617181 22
2.6918783 -1.5730066 0.05375341 20
1.6542636 -0.96861106 -0.50340325 5
1.8868617 -1.1052451 -0.49601737 4
2.285903 -1.3395228 -0.50709653 4
2.7255361 -1.5977839 -0.4943333 11
2.7128136 -1.5909618 -0.38145146 13
2.6966088 -1.5820911 -0.27018321 22
2.6899481 -1.5788143 -0.16091916 22
2.6972079 -1.5837083 -0.053389143 24
2.6982837 -1.5849732 0.82768142 27
2.6918845 -1.5818464 0.7114318 24
2.6902361 -1.5815095 0.59860224 21
2.6935782 -1.5841068 0.48831898 21
2.6934803 -1.584682 0.37901363 30
2.7029827 -1.5909077 0.27105436 26
2.7049274 -1.5926881 0.16250314 23
2.6949859 -1.587468 0.053927932 22
1.6508725 -0.97437966 -0.50340325 5
1.8871875 -1.114302 -0.49714214 4
2.2769873 -1.3449976 -0.50614333 4
2.7241938 -1.6098005 -0.49511549 10
2.7115157 -1.6029472 -0.38206083 13
2.6996446 -1.5965654 -0.27105477 22
2.6887176 -1.5907366 -0.16117996 22
2.6916633 -1.5931137 -0.053389143 24
2.6927345 -1.5943824 0.82768142 27
2.6905379 -1.593716 0.71255571 26
2.6846993 -1.5908905 0.59860224 20
2.6880322 -1.5934994 0.48831898 20
2.6922007 -1.5966058 0.379623 28
2.6974127 -1.6003333 0.27105436 25
2.6993513 -1.6021204 0.16250314 23
2.7152197 -1.6121795 0.054451503 21
1.6474612 -0.98013633 -0.50340325 5
1.8832864 -1.1208827 -0.49714214 4
2.2680609 -1.3504266 -0.50519013 4
2.7185581 -1.6193 -0.49511549 9
2.7101672 -1.6149427 -0.38267016 12
2.741118 -1.6340343 -0.27584836 20
2.6917257 -1.6052274 -0.16170157 18
2.7333117 -1.6306741 -0.054339435 23
2.6954477 -1.6087227 0.83026797 27
2.693325 -1.6080934 0.71480352 25
2.6917713 -1.6078031 0.60146183 19
2.7290866 -1.630738 0.49691334 21
2.6908708 -1.6085398 0.38023233 28
2.7217345 -1.6276344 0.2741048 25
2.7280216 -1.6320407 0.16459657 22
2.7396035 -1.6396188 0.055062339 20
1.6440299 -0.98588115 -0.50340325 5
1.8793622 -1.1274498 -0.49714214 4
2.2591248 -1.3558097 -0.504237 4
2.712889 -1.6287795 -0.49511549 10
2.7342939 -1.64228 -0.38693559 10
2.7738233 -1.6666812 -0.27977037 20
2.7331812 -1.6429102 -0.16457048 22
2.7661617 -1.6633919 -0.055116944 24
2.7270639 -1.6405292 0.8419072 25
2.7294395 -1.6426071 0.72604263 23
2.7239876 -1.6399739 0.61004049 21
2.7529914 -1.6580904 0.50238252 19
2.731998 -1.6460962 0.38693514 27
2.745898 -1.6551244 0.27715525 25
2.7565153 -1.6621803 0.16669002 23
2.7681088 -1.66983 0.055760436 19
1.6405784 -0.99161381 -0.50340325 5
1.8754153 -1.134003 -0.49714214 4
2.2459788 -1.3586063 -0.5023306 4
2.7071872 -1.6382394 -0.49511549 9
2.7540169 -1.6672349 -0.39059168 9
2.7850308 -1.6866746 -0.28151348 21
2.7744057 -1.6809016 -0.16743939 20
2.7817147 -1.6859938 -0.055548895 22
2.7543604 -1.6700718 0.8522532 25
2.757014 -1.6723387 0.73503381 23
2.756012 -1.6723891 0.6186192 19
2.7767379 -1.6856291 0.50785172 18
2.7686532 -1.6813827 0.39302862 26
2.7784162 -1.6879754 0.28107727 23
2.7805648 -1.6899452 0.16852178 21
2.7750783 -1.687274 0.056022223 18
1.6371071 -0.99733448 -0.50340325 5
1.8714454 -1.1405425 -0.49714214 4
2.2370319 -1.3638829 -0.5013774 3
2.6972358 -1.6451077 -0.4943333 9
2.7820714 -1.697517 -0.39546645 8
2.7876291 -1.7015761 -0.28238505 20
2.7813056 -1.6983825 -0.1682218 21
2.7800789 -1.6982996 -0.055635288 21
2.7773626 -1.6973062 0.86130601 24
2.7802567 -1.6997412 0.74290115 23
2.7669065 -1.6922427 0.62243193 19
2.7708373 -1.6953114 0.50785172 20
2.7754657 -1.6988093 0.39485666 26
2.7767551 -1.7002647 0.28151307 23
2.7831645 -1.7048572 0.16904514 21
2.7734339 -1.6995624 0.056109484 19
1.6336157 -1.0030429 -0.50340325 5
1.8674529 -1.1470681 -0.49714214 4
2.2322574 -1.3716832 -0.5013774 4
2.6914771 -1.6545128 -0.4943333 7
2.7888112 -1.7150171 -0.39729452 7
2.7816727 -1.7112964 -0.28238505 20
2.7796128 -1.7106979 -0.16848262 23
2.7783909 -1.7106147 -0.055721678 23
2.7796457 -1.7120563 0.8638925 25
2.7784545 -1.7119915 0.74402505 22
2.765161 -1.7044665 0.62338513 20
2.7733097 -1.7101575 0.50941437 19
2.7737427 -1.7110926 0.395466 28
2.7792807 -1.7151787 0.2823846 24
2.7814448 -1.7171849 0.16930681 21
2.7717381 -1.7118603 0.056196745 20
1.6301045 -1.0087392 -0.50340325 5
1.8634374 -1.1535798 -0.49714214 4
2.2232831 -1.3768827 -0.50042421 4
2.6856852 -1.6638976 -0.4943333 8
2.7870257 -1.7273557 -0.39790383 7
2.7841487 -1.7262454 -0.28325659 21
2.7778676 -1.7230222 -0.16874342 21
2.7766507 -1.7229387 -0.055808067 23
2.7777562 -1.7242961 0.8651858 25
2.7766004 -1.7242498 0.74514896 24
2.7675328 -1.7192885 0.62529153 19
2.7715178 -1.7224345 0.51019561 18
2.7719676 -1.7233847 0.39607537 26
2.7775061 -1.7275003 0.28282037 26
2.7839131 -1.7321591 0.16983017 21
2.7742341 -1.7268087 0.056371272 18
1.6265734 -1.0144233 -0.50340325 5
1.8593994 -1.1600775 -0.49714214 4
2.2184632 -1.384635 -0.50042421 3
2.6798608 -1.6732624 -0.4943333 6
2.7851884 -1.7397029 -0.3985132 8
2.78233 -1.7385929 -0.28369236 20
2.7760704 -1.735355 -0.16900423 20
2.7790971 -1.7379218 -0.05598085 22
2.7758148 -1.7365432 0.86647898 25
2.7746949 -1.7365165 0.74627286 24
2.7656748 -1.7315432 0.62624466 19
2.7738593 -1.7373412 0.51175827 19
2.7743459 -1.7383202 0.39729404 26
2.7799001 -1.7424761 0.28369194 23
2.7820799 -1.7445189 0.17009185 19
2.7724245 -1.7391386 0.056458529 17
1.6232005 -1.0198115 -0.50340325 5
1.8557457 -1.1659131 -0.49714214 4
2.2141023 -1.3915976 -0.50042421 3
2.6787717 -1.6843019 -0.49511549 6
2.788111 -1.753729 -0.3997319 7
2.7810702 -1.7499779 -0.28412816 19
2.7748303 -1.7467276 -0.16926505 21
2.777854 -1.7493079 -0.056067236 21
2.7744324 -1.7478297 0.86777228 25
2.7733474 -1.7478223 0.74739677 24
2.7685256 -1.7454585 0.62815106 19
2.7725649 -1.7486815 0.51253957 18
2.773068 -1.7496756 0.39790338 25
2.7786243 -1.7538594 0.28412771 23
2.7808075 -1.7559162 0.17035353 19
2.7711737 -1.7505096 0.056545794 19
1.6198097 -1.0251887 -0.50340325 5
1.8516645 -1.1723839 -0.49714214 4
2.2092311 -1.3993179 -0.50042421 3
2.6812189 -1.6989286 -0.49667984 5
2.7861638 -1.7661074 -0.40034124 7
2.7833576 -1.7650098 -0.28499973 19
2.7729325 -1.7590777 -0.16952586 20
2.7759519 -1.7616726 -0.056153629 22
2.7723918 -1.7600921 0.86906546 25
2.771342 -1.7601045 0.74852067 24
2.7665586 -1.757744 0.62910426 19
2.7706118 -1.7609981 0.51332086 18
2.7753193 -1.7646703 0.39912206 24
2.7766879 -1.7662213 0.28456348 24
2.7788742 -1.768293 0.17061521 20
2.7692635 -1.7628568 0.056633055 19
1.6160414 -1.0311188 -0.50340325 5
1.8473551 -1.1791626 -0.49714214 4
2.2040875 -1.4074056 -0.50042421 4
2.6791358 -1.7114029 -0.49746197 5
2.7838535 -1.7789797 -0.40095058 7
2.7810667 -1.7778826 -0.2854355 20
2.7748797 -1.7746096 -0.17004748 21
2.7736871 -1.7745291 -0.056240018 23
2.7740583 -1.7754489 0.87165201 24
2.7730787 -1.7755044 0.75076848 24
2.768364 -1.7731669 0.63101065 20
2.772455 -1.7764697 0.51488352 18
2.773011 -1.7775089 0.39973143 25
2.7785816 -1.7817639 0.28543505 21
2.7765768 -1.7811624 0.17087689 21
2.7711985 -1.7783949 0.056807578 20
1.6124322 -1.0367535 -0.50340325 5
1.8391302 -1.1829683 -0.49601737 4
2.1991613 -1.4150908 -0.50042421 3
2.6814506 -1.7260904 -0.49902633 4
2.7817993 -1.7913733 -0.40155992 7
2.7790313 -1.7902769 -0.28587127 18
2.7728655 -1.7869897 -0.17030828 21
2.771678 -1.7869093 -0.056326408 22
2.7719028 -1.7877393 0.87294525 26
2.7709582 -1.7878146 0.75189245 24
2.7662811 -1.7854812 0.63196379 18
2.770386 -1.7888156 0.51566482 18
2.7751267 -1.7925628 0.40095013 26
2.7765291 -1.7941556 0.28587085 22
2.778729 -1.7962648 0.17140025 20
2.769172 -1.7907722 0.056894843 19
1.6088035 -1.0423756 -0.50340325 5
1.8349897 -1.1893808 -0.49601737 3
2.1942084 -1.4227586 -0.50042421 3
2.6836953 -1.7408149 -0.50059068 4
2.7796924 -1.8037741 -0.40216929 7
2.7811205 -1.8053908 -0.28674284 18
2.7707982 -1.7993776 -0.17056909 20
2.773808 -1.8020203 -0.056499191 23
2.769695 -1.800036 0.87423849 26
2.7728698 -1.8027877 0.75414026 23
2.7641468 -1.7978026 0.63291705 18
2.7724042 -1.8038619 0.51722747 19
2.7730119 -1.8049462 0.40155947 24
2.7744231 -1.8065543 0.28630662 23
2.7766259 -1.8086789 0.17166193 22
2.771281 -1.805886 0.057069365 18
1.6051551 -1.047985 -0.50340325 5
1.826748 -1.193115 -0.49489263 3
2.1892288 -1.4304092 -0.50042421 3
2.6900036 -1.758278 -0.5029372 4
2.7816863 -1.818898 -0.40338799 7
