# .PCD v0.7 - Point Cloud Data file format
VERSION 0.7
FIELDS x y z intensity
SIZE 4 4 4 4
TYPE F F F F
COUNT 1 1 1 1
WIDTH 1435
HEIGHT 1
VIEWPOINT 0 0 0 1 0 0 0
POINTS 1435
DATA ascii
2.6622949 -3.3481627 -0.073258884 10
2.6624856 -3.3496022 1.1354754 16
2.6637301 -3.3523688 0.97892123 14
2.6583636 -3.3468139 0.8226015 15
2.6648133 -3.3561366 0.67192686 12
2.6617146 -3.353436 0.52099144 17
2.6646321 -3.358315 0.37171924 14
2.6673961 -3.3630037 0.22295116 14
2.6607153 -3.3557837 0.074085459 13
1.1926733 -1.5069392 -0.50469732 3
1.3658588 -1.7263774 -0.49939165 2
1.6283113 -2.0588429 -0.5023306 2
2.0298374 -2.5674548 -0.51232326 3
2.45467 -3.1059215 -0.48138443 10
2.4013064 -3.03949 -0.33555013 7
2.6325185 -3.3333464 -0.21986198 10
2.6598849 -3.3692069 -0.07351806 10
2.6597533 -3.3702497 1.1393552 17
2.6610646 -3.3731215 0.98229289 15
2.6588223 -3.3714893 0.82641429 15
2.6653116 -3.3809316 0.67505211 13
2.6622794 -3.3782978 0.5234288 17
2.6652224 -3.3832467 0.37346235 14
2.6649084 -3.384063 0.22373621 14
2.6613543 -3.3807638 0.074434511 13
1.1871421 -1.5113006 -0.50469732 3
1.359522 -1.731372 -0.49939165 2
1.6207544 -2.0647972 -0.5023306 2
2.0234621 -2.5787625 -0.51310545 3
2.4340813 -3.1031833 -0.47955641 11
2.3840029 -3.0404317 -0.33467856 8
2.6079624 -3.3272533 -0.21881874 9
2.6598516 -3.3946741 -0.073863626 10
2.6592956 -3.3951848 1.1445282 16
2.6606979 -3.3981967 0.98678851 14
2.6555228 -3.3928072 0.82927382 15
2.6620319 -3.4023466 0.67739606 13
2.6590519 -3.3997602 0.52525687 17
2.662008 -3.4047644 0.37476969 13
2.6647866 -3.4095442 0.22478293 15
2.6581788 -3.4023135 0.074696295 13
1.1818595 -1.5154351 -0.50469732 3
1.3534702 -1.7361071 -0.49939165 2
1.613537 -2.0704422 -0.5023306 2
2.0205183 -2.5936017 -0.51466984 3
2.4110372 -3.0959988 -0.47711903 12
2.3672559 -3.040874 -0.33380702 7
2.5871327 -3.3245149 -0.21803632 10
2.6571944 -3.4157755 -0.074122787 9
2.6563232 -3.4158852 1.1484081 15
2.66078 -3.4228497 0.99128413 15
2.6557105 -3.4175589 0.83308655 15
2.6622577 -3.4272184 0.68052131 12
2.659343 -3.4247 0.52769423 17
2.662324 -3.4297743 0.3765128 14
2.6620517 -3.4306598 0.22556797 14
2.6554785 -3.4234223 0.074958086 5
1.1736057 -1.5157326 -0.50340325 3
1.3474017 -1.740821 -0.49939165 2
1.6032964 -2.0721798 -0.5013774 2
2.0144742 -2.6045451 -0.51545197 3
2.3850379 -3.0847654 -0.47407228 14
2.3505349 -3.0412366 -0.33293545 8
2.566354 -3.3216717 -0.21725391 9
2.6544223 -3.4368999 -0.074381955 9
2.6561897 -3.4404292 1.153581 16
2.6577458 -3.4436872 0.99465585 15
2.6527591 -3.4384663 0.83594608 15
2.6593261 -3.4482226 0.6828652 13
2.6564627 -3.4457533 0.52952224 17
2.6594574 -3.4508832 0.37782016 14
2.6622491 -3.4557528 0.22661468 14
2.6557136 -3.4485142 0.075307131 12
1.1683077 -1.51982 -0.50340325 3
1.3442852 -1.7493765 -0.50051636 2
1.5960534 -2.0777638 -0.5013774 2
2.0083778 -2.6154778 -0.51623416 2
2.3591466 -3.0733888 -0.47102556 7
2.3338401 -3.0415196 -0.33206388 8
2.5486653 -3.322686 -0.21673228 7
2.6515348 -3.4580462 -0.074641123 10
2.6529787 -3.4611797 1.1574607 15
2.6575618 -3.4684129 0.99915147 16
2.6526785 -3.4632916 0.83975887 14
2.6592827 -3.4731691 0.68599045 13
2.6534674 -3.4668276 0.53135031 18
2.659502 -3.4759688 0.37956327 14
2.6592703 -3.4769232 0.22739972 14
2.6558056 -3.4736493 0.075656183 11
1.1600653 -1.5200497 -0.50210917 3
1.3381706 -1.7540582 -0.50051636 2
1.5858145 -2.0794194 -0.50042421 2
1.999236 -2.6224725 -0.51623416 2
2.333364 -3.0618691 -0.46797881 7
2.3201907 -3.0456853 -0.33162811 8
2.5279763 -3.3196447 -0.21594985 8
2.6515603 -3.483192 -0.074986689 9
2.6525798 -3.4857936 1.1626338 16
2.6542881 -3.4893017 1.0025232 15
2.6494863 -3.4842513 0.84261847 14
2.659097 -3.498157 0.6891157 13
2.6503575 -3.4879231 0.53317839 18
2.6563909 -3.4971302 0.38087058 14
2.6591952 -3.5020909 0.22844644 14
2.6557541 -3.4988267 0.076005228 12
1.1518356 -1.5202403 -0.50081509 3
1.3320396 -1.7587187 -0.50051636 2
1.5785463 -2.0849423 -0.50042421 2
1.9900695 -2.6294351 -0.51623416 3
2.3136787 -3.0581222 -0.46615076 6
2.3035359 -3.0458205 -0.33075655 7
2.5103507 -3.3204832 -0.21542825 8
2.6484282 -3.5043917 -0.075245865 9
2.6520417 -3.5104465 1.1678067 16
2.6509004 -3.5102093 1.0058949 15
2.6491373 -3.5091481 0.84643126 15
2.6557946 -3.5192437 0.6914596 12
2.650121 -3.5130007 0.53561574 17
2.6561637 -3.5222893 0.38261372 14
2.6559715 -3.5233138 0.22923149 13
2.6525505 -3.5200531 0.076267011 11
1.1465219 -1.5242516 -0.50081509 3
1.3258924 -1.7633576 -0.50051636 2
1.5712589 -2.0904398 -0.50042421 2
1.9808791 -2.6363659 -0.51623416 2
2.3000097 -3.0622118 -0.46554142 6
2.2898993 -3.0498595 -0.33032078 6
2.4897528 -3.317245 -0.2146458 8
2.6481807 -3.5296106 -0.075591423 10
2.6484654 -3.5312738 1.1716865 16
2.6503215 -3.5350337 1.0103905 15
2.6486464 -3.5340848 0.85024399 15
2.6553383 -3.5443025 0.69458485 12
2.6467664 -3.5341463 0.53744376 17
2.6557927 -3.5474889 0.38435683 13
2.6556239 -3.5485542 0.23027821 13
2.652226 -3.5453033 0.076616056 11
1.144084 -1.5321143 -0.50210917 3
1.3197292 -1.7679752 -0.50051636 2
1.5668876 -2.0998454 -0.5013774 3
1.9716642 -2.6432643 -0.51623416 3
2.2804067 -3.0582862 -0.46371335 6
2.2762625 -3.0538404 -0.32988498 5
2.4721916 -3.3179078 -0.2141242 8
2.6507754 -3.5588799 -0.076023377 10
2.6476605 -3.5559931 1.1768595 16
2.6496012 -3.5598967 1.0148861 15
2.6480136 -3.5590603 0.85405672 15
2.6547396 -3.5694008 0.6977101 12
2.6462581 -3.5592945 0.53988117 17
2.652307 -3.5687308 0.38566414 13
2.652154 -3.5698266 0.23106325 14
2.6487761 -3.5665798 0.07687784 12
1.1416051 -1.5399784 -0.50340325 3
1.3135498 -1.7725711 -0.50051636 2
1.56247 -2.1092463 -0.5023306 2
1.9624256 -2.6501307 -0.51623416 3
2.2667649 -3.0622389 -0.46310404 5
2.2626262 -3.0577636 -0.32944921 6
2.4516866 -3.3144739 -0.21334176 6
2.647253 -3.5801702 -0.076282546 10
2.6467152 -3.5807498 1.1820325 16
2.6487401 -3.5847979 1.0193818 14
2.6472387 -3.5840745 0.85786951 15
2.6510639 -3.5905647 0.70005405 13
2.6456058 -3.5844815 0.54231852 17
2.6516623 -3.5940001 0.38740724 13
2.6515317 -3.5951359 0.23210996 13
2.6481769 -3.5918996 0.077226892 11
1.1362227 -1.5439539 -0.50340325 3
1.3073542 -1.7771454 -0.50051636 2
1.5580057 -2.1186416 -0.50328374 2
1.9531628 -2.6569645 -0.51623416 3
2.2472458 -3.0581355 -0.46127596 6
2.2519386 -3.0656431 -0.32944921 6
2.4341915 -3.3149626 -0.21282014 7
2.6465728 -3.6055093 -0.076628104 14
2.6456289 -3.6055424 1.1872054 16
2.6477368 -3.609736 1.0238774 15
2.6463208 -3.6091259 0.86168224 14
2.6501925 -3.6157296 0.7031793 13
2.6448104 -3.6097076 0.54475594 17
2.6508734 -3.619308 0.38915038 14
2.6478152 -3.616456 0.23289499 13
2.6444805 -3.6132243 0.077488683 11
1.1336753 -1.5518105 -0.50469732 3
1.3011429 -1.7816981 -0.50051636 2
1.5506006 -2.1240673 -0.50328374 2
1.9409654 -2.6597769 -0.51545197 3
2.2307079 -3.0579424 -0.46005729 6
2.2382891 -3.0694604 -0.32901344 6
2.4137814 -3.3113344 -0.21203773 6
2.6221943 -3.5985639 -0.076282546 9
2.6415586 -3.6264679 1.1910853 15
2.6465917 -3.6347103 1.028373 14
2.6452603 -3.6342151 0.86549497 14
2.6491778 -3.6409321 0.70630455 13
2.6438704 -3.6349711 0.54719329 17
2.6499407 -3.6446545 0.39089352 14
2.6469176 -3.6418326 0.2339417 13
2.6436059 -3.6386113 0.077837728 11
1.1282517 -1.5557582 -0.50469732 2
1.2949157 -1.7862291 -0.50051636 2
1.5431769 -2.1294668 -0.50328374 2
1.9258748 -2.6585374 -0.51388764 3
2.211288 -3.053652 -0.45822924 6
2.227561 -3.0772545 -0.32901344 6
2.3963537 -3.3116493 -0.2115161 9
2.6008272 -3.5955436 -0.076023377 8
2.640204 -3.6513221 1.1962583 14
2.6453044 -3.6597209 1.0328686 14
2.6440573 -3.6593404 0.86930776 14
2.6480188 -3.6661711 0.7094298 12
2.642786 -3.6602719 0.5496307 18
2.6459475 -3.6659985 0.39220086 13
2.645875 -3.6672468 0.23498842 13
2.6396618 -3.659981 0.078099512 11
1.1256359 -1.5636067 -0.50599146 3
1.2886728 -1.7907382 -0.50051636 2
1.532868 -2.1308563 -0.5023306 2
1.9050503 -2.6492062 -0.51075894 3
2.1948218 -3.0532932 -0.45701057 6
2.2138994 -3.0809669 -0.32857767 7
2.3760402 -3.3078279 -0.21073368 7
2.5824289 -3.5964782 -0.075850591 8
2.6387076 -3.6762104 1.2014314 16
2.6438744 -3.6847661 1.0373642 14
2.6398497 -3.6805127 0.87216729 14
2.6467159 -3.6914461 0.71255505 13
2.6415575 -3.6856096 0.55206805 17
2.6447382 -3.6914082 0.39394397 14
2.6446874 -3.6926982 0.23603514 14
2.6385102 -3.6854322 0.078448564 10
1.120171 -1.5675263 -0.50599146 3
1.285246 -1.7991902 -0.50164115 2
1.5254205 -2.136194 -0.5023306 2
1.9187446 -2.6879954 -0.51701629 3
2.1755028 -3.0488164 -0.45518249 5
2.2031312 -3.088676 -0.32857767 6
2.3586814 -3.3079703 -0.21021205 7
2.5611541 -3.5932581 -0.075591423 7
2.6398723 -3.7050664 1.2078977 16
2.6423018 -3.7098463 1.0418599 15
2.6383731 -3.7056987 0.87598002 14
2.6452692 -3.7167571 0.71568024 13
2.6373072 -3.7069392 0.55389619 16
2.6433842 -3.7168543 0.39568707 13
2.6433537 -3.7181852 0.23708187 6
2.6372137 -3.7109201 0.078797609 10
1.1149668 -1.5712326 -0.50599146 3
1.2824067 -1.8071921 -0.50276589 2
1.5158622 -2.1369722 -0.5013774 2
1.9188602 -2.7060957 -0.51936287 3
2.1601744 -3.0475385 -0.45396382 5
2.1905372 -3.0915177 -0.32814187 5
2.3425055 -3.307215 -0.20969044 8
2.544075 -3.5931258 -0.075418636 7
2.6393809 -3.729111 1.2130706 15
2.6418898 -3.7340381 1.0463555 14
2.6380553 -3.7299986 0.87979275 14
2.6449833 -3.741179 0.71880549 13
2.6371052 -3.7314174 0.55633354 17
2.6431901 -3.7414129 0.39743018 13
2.6431813 -3.7427859 0.23812859 11
2.6370752 -3.7355232 0.079146661 10
1.1097502 -1.5749211 -0.50599146 3
1.2732852 -1.8076745 -0.50164115 2
1.5112193 -2.1462638 -0.5023306 2
1.9122448 -2.7168152 -0.520145 3
2.1438115 -3.0469427 -0.45274511 6
2.1797323 -3.0991454 -0.32814187 5
2.3252029 -3.3072019 -0.20916881 6
2.5228934 -3.5897141 -0.075159475 6
2.6374538 -3.7541096 1.2182436 15
2.6400399 -3.7591851 1.0508511 15
2.6362996 -3.7552531 0.88360554 15
2.6432555 -3.7665586 0.72193074 13
2.6354644 -3.756851 0.55877095 17
2.6415534 -3.7669291 0.39917329 13
2.6415646 -3.7683439 0.2391753 9
2.6354952 -3.7610819 0.079495706 10
1.1067377 -1.582936 -0.50728554 3
1.2750237 -1.8243088 -0.50501537 2
1.4864763 -2.1276467 -0.49661148 2
1.9022745 -2.7238059 -0.520145 3
2.1269481 -3.0466413 -0.45152643 6
2.1655085 -3.103029 -0.3277061 4
2.3044956 -3.303417 -0.20838639 6
2.5040004 -3.5907357 -0.074986689 6
2.6347246 -3.7795997 1.2234167 15
2.6373856 -3.7848253 1.0553467 14
2.6337402 -3.7810004 0.88741827 14
2.643543 -3.7964857 0.72583729 12
2.6330178 -3.7827775 0.56120831 17
2.6391087 -3.7929404 0.40091643 12
2.6391394 -3.7943971 0.24022202 9
2.6331077 -3.7871349 0.07984475 10
1.098452 -1.582822 -0.50599146 3
1.2464324 -1.7967248 -0.49601737 2
1.4958224 -2.1570227 -0.5023306 2
1.8758743 -2.7060778 -0.51545197 3
2.110647 -3.0458889 -0.45030773 7
2.1915352 -3.1637986 -0.33337122 4
2.2872655 -3.3032308 -0.20786478 7
2.4829152 -3.5871224 -0.07472752 7
2.6325076 -3.8046608 1.2285897 14
2.6352439 -3.8100364 1.0598423 15
2.6316915 -3.80632 0.891231 14
2.641506 -3.8219409 0.72896254 12
2.6310809 -3.8082778 0.56364572 17
2.6400056 -3.8226218 0.4030953 12
2.6372256 -3.8200226 0.24126875 9
2.6312301 -3.8127608 0.080193803 10
1.0929202 -1.5866467 -0.50599146 3
1.2567307 -1.8251404 -0.50276589 2
1.4855011 -2.1581879 -0.5013774 2
1.8748146 -2.7248147 -0.51779848 3
2.0971897 -3.049149 -0.44969836 6
2.1974101 -3.1960561 -0.3359859 5
2.2672367 -3.2988496 -0.20708236 9
2.4618864 -3.5834062 -0.074468352 7
2.6301482 -3.8297522 1.2337626 14
2.6329582 -3.8352783 1.064338 14
2.629498 -3.8316712 0.89504379 15
2.6393239 -3.8474281 0.73208779 12
2.628998 -3.8338103 0.56608307 18
2.6407275 -3.8523562 0.40527421 11
2.635165 -3.845681 0.24231547 9
2.6292057 -3.8384204 0.080542848 10
nan nan nan 0
1.2476034 -1.8254941 -0.50164115 2
nan nan nan 0
1.8569366 -2.7191079 -0.51545197 3
2.0809371 -3.0482535 -0.44847968 5
2.217124 -3.2489641 -0.34077948 5
2.2557077 -3.3067436 -0.20708236 7
2.4437296 -3.5837169 -0.074295565 6
2.6303656 -3.8588645 1.2402289 15
2.6332717 -3.8645771 1.0699575 14
2.6271594 -3.857053 0.89885652 14
2.6369956 -3.8729467 0.73521304 12
2.6295612 -3.8634768 0.56912982 16
2.6412733 -3.8821414 0.40745309 14
2.632957 -3.8713708 0.2433622 9
2.6354661 -3.8765149 0.081153691 15
nan nan nan 0
nan nan nan 0
nan nan nan 0
nan nan nan 0
2.0647168 -3.047282 -0.44726098 5
2.2169425 -3.2731798 -0.34252259 6
2.2525494 -3.3270013 -0.20786478 4
2.4227993 -3.5798049 -0.074036397 7
2.6277051 -3.8840237 1.245402 15
2.6306829 -3.889888 1.0744531 14
2.6246755 -3.8824651 0.90266925 15
2.6372864 -3.9025872 0.73911959 13
2.627171 -3.889082 0.57156724 17
2.6500058 -3.924361 0.41093931 10
2.6306016 -3.8970923 0.24440892 9
2.6107335 -3.8691146 0.080804639 12
nan nan nan 0
nan nan nan 0
nan nan nan 0
1.8516912 -2.7524931 -0.51936287 3
2.0485284 -3.0462344 -0.4460423 6
2.2110615 -3.289166 -0.34339416 7
2.2548466 -3.3555655 -0.20916881 12
2.4019258 -3.5757904 -0.073777229 8
2.6249011 -3.9092119 1.2505749 15
2.62795 -3.9152286 1.0789487 14
2.6247811 -3.9119828 0.90743524 14
2.6346512 -3.928175 0.74224484 13
2.6273978 -3.9188385 0.57461393 16
2.6390643 -3.9377251 0.41137511 12
2.6280987 -3.9228437 0.24545564 9
2.6027751 -3.8865116 0.080979161 8
nan nan nan 0
nan nan nan 0
nan nan nan 0
nan nan nan 0
2.0323727 -3.0451107 -0.44482359 6
2.2078595 -3.3092945 -0.3447015 9
2.2264974 -3.3384919 -0.20760398 14
2.3838832 -3.5758338 -0.073604442 7
2.6246312 -3.9384458 1.2570411 15
2.6277728 -3.9446516 1.0845683 14
2.624712 -3.9415479 0.91220117 14
2.6346061 -3.9579029 0.74615139 13
2.6246991 -3.9445124 0.57705128 15
2.6335785 -3.9593551 0.41268241 12
2.6254478 -3.9486256 0.24650235 8
2.5725896 -3.8705928 0.080455594 9
nan nan nan 0
nan nan nan 0
nan nan nan 0
1.8215187 -2.7488863 -0.51623416 3
2.013509 -3.0397744 -0.44299558 5
2.1935446 -3.3128278 -0.3442657 9
2.1982946 -3.3212607 -0.2060391 14
2.3658698 -3.5757949 -0.073431671 5
2.6215253 -3.9636981 1.2622142 15
2.6247351 -3.9700568 1.0890639 13
2.6244688 -3.9711607 0.91696715 14
2.6316631 -3.9835577 0.74927664 13
2.6245883 -3.9743564 0.58009803 16
2.6252303 -3.9768379 0.41355398 10
2.6226487 -3.974436 0.24754907 9
2.5535574 -3.8712027 0.080281064 7
nan nan nan 0
nan nan nan 0
nan nan nan 0
1.8227663 -2.7717326 -0.51936287 3
1.9947077 -3.0343435 -0.4411675 6
2.1819673 -3.3204646 -0.3442657 10
2.172981 -3.3080473 -0.20473507 7
2.3478854 -3.5756736 -0.073258884 8
2.6209247 -3.9930134 1.2686805 15
2.6242244 -3.999562 1.0946834 13
2.6240504 -4.0008187 0.92173308 15
2.6312807 -4.0133696 0.75318313 12
2.6243005 -4.0042477 0.58314478 16
2.6058731 -3.9776442 0.41268241 12
2.6224375 -4.0044527 0.24885747 9
2.5318146 -3.8675447 0.08001928 7
nan nan nan 0
nan nan nan 0
nan nan nan 0
1.7968857 -2.7532644 -0.51466984 3
1.9786805 -3.0329752 -0.43994883 6
2.1703637 -3.3280609 -0.3442657 10
2.1532402 -3.3030636 -0.20395264 8
2.329931 -3.5754709 -0.073086105 7
2.6201513 -4.0223722 1.2751467 14
2.6208818 -4.0250292 1.099179 13
2.6234567 -4.0305223 0.92649895 13
2.630722 -4.0432277 0.75708967 11
2.6211305 -4.0300245 0.58558214 15
nan nan nan 0
2.6193268 -4.0303288 0.24990419 7
2.5155752 -3.8721662 0.079932019 7
nan nan nan 0
nan nan nan 0
nan nan nan 0
1.8114256 -2.7968252 -0.52170938 3
1.9626874 -3.0315318 -0.43873012 6
2.1587331 -3.3356166 -0.3442657 8
2.1362727 -3.302175 -0.20343103 9
2.3120065 -3.5751858 -0.072913326 7
2.619205 -4.051775 1.281613 15
2.6200366 -4.0546136 1.1047986 13
2.6200244 -4.0561476 0.9303118 12
2.6273081 -4.0689816 0.76021492 12
2.6205034 -4.0599976 0.58862889 15
nan nan nan 0
2.6160676 -4.056232 0.2509509 9
2.493917 -3.8683186 0.079670236 9
nan nan nan 0
nan nan nan 0
nan nan nan 0
1.7909712 -2.7865136 -0.51858068 3
1.9467281 -3.0300136 -0.43751144 7
2.1416934 -3.3347497 -0.34339416 10
2.119338 -3.3012083 -0.2029094 7
2.2968128 -3.5790272 -0.072826929 7
2.6154771 -4.0771542 1.286786 14
2.6190174 -4.0842414 1.1104181 15
2.6190934 -4.0859289 0.93507767 14
2.626411 -4.0989189 0.76412147 12
2.6196988 -4.0900149 0.59167564 16
nan nan nan 0
2.6153507 -4.0863667 0.25225928 9
2.466928 -3.8559446 0.079233922 9
nan nan nan 0
nan nan nan 0
nan nan nan 0
1.7838891 -2.7969122 -0.51936287 4
1.930804 -3.0284216 -0.43629274 7
2.1220088 -3.3296039 -0.34208682 13
2.1024361 -3.3001635 -0.20238778 6
2.2843056 -3.5870225 -0.072826929 8
2.6141977 -4.1066308 1.2932522 15
2.6178226 -4.1139097 1.1160376 13
2.6153524 -4.1116123 0.93889046 14
2.6253362 -4.1288991 0.76802808 12
2.6187165 -4.1200762 0.59472239 15
2.6355593 -4.1481743 0.42662737 13
2.6144552 -4.1165457 0.2535677 8
2.4400556 -3.8434298 0.078797609 7
nan nan nan 0
nan nan nan 0
nan nan nan 0
1.7714741 -2.798949 -0.51858068 3
1.9175676 -3.0309489 -0.43568337 7
2.1050487 -3.3285713 -0.34121525 11
2.0828993 -3.2948208 -0.20160536 7
2.2691 -3.5907485 -0.072740547 5
2.6127439 -4.1361485 1.2997185 14
2.6164527 -4.14362 1.1216571 14
2.6140838 -4.1414695 0.94365638 14
2.624084 -4.1589212 0.77193463 12
2.6149089 -4.1459827 0.5971598 16
2.6316891 -4.1742024 0.42837048 14
2.6187057 -4.1552162 0.25539947 10
2.4106367 -3.8265448 0.078274041 7
nan nan nan 0
nan nan nan 0
nan nan nan 0
1.7616931 -2.8051155 -0.51858068 3
1.9043373 -3.0334208 -0.43507403 6
2.085474 -3.3232417 -0.33990791 12
2.0660787 -3.2936115 -0.20108375 7
2.256552 -3.5986471 -0.072740547 12
2.6111157 -4.1657047 1.3061846 14
2.6174936 -4.1774998 1.1284006 13
2.6126382 -4.1713681 0.94842237 13
2.622654 -4.1889849 0.77584112 9
2.6135843 -4.1761189 0.60020649 14
2.6303113 -4.2044773 0.43054938 13
2.6121275 -4.1770325 0.25618449 14
2.3999145 -3.8391747 0.078361295 7
nan nan nan 0
nan nan nan 0
nan nan nan 0
1.7492789 -2.8070567 -0.51779848 4
1.8884891 -3.0316253 -0.43385535 6
2.0685954 -3.3220448 -0.33903635 13
2.0466535 -3.2880862 -0.20030132 7
2.2386944 -3.5980124 -0.072567761 14
2.6093132 -4.1953006 1.312651 14
2.6157575 -4.2072988 1.1340201 13
2.6110153 -4.2013068 0.9531883 14
2.6210461 -4.2190895 0.77974766 10
2.6120815 -4.2062964 0.60325319 15
2.6366343 -4.247488 0.4340356 13
2.6054289 -4.198853 0.25696954 9
2.3838639 -3.8432808 0.078274041 7
nan nan nan 0
nan nan nan 0
nan nan nan 0
1.7404517 -2.8125384 -0.51779848 3
1.8763449 -3.0333223 -0.43324599 5
2.0529094 -3.3200541 -0.33816481 13
2.0310631 -3.286005 -0.19977969 8
2.219497 -3.5922692 -0.072308592 10
2.6088104 -4.2240238 1.3191173 14
2.615324 -4.2362242 1.1396396 13
2.6106927 -4.2303739 0.95795429 13
2.6181505 -4.2441154 0.78287292 13
2.6118782 -4.2356024 0.60629994 14
2.6311185 -4.2684708 0.43534294 12
2.5634127 -4.1602569 0.25409105 10
2.3691564 -3.8464942 0.07818678 6
nan nan nan 0
nan nan nan 0
nan nan nan 0
1.7306236 -2.8185966 -0.51779848 3
1.8605533 -3.0313945 -0.43202728 7
2.0360982 -3.3187087 -0.33729324 13
2.0143595 -3.2845619 -0.19925807 8
2.1991057 -3.5872087 -0.072049424 11
2.6091917 -4.2578135 1.3268769 13
2.6132455 -4.2660999 1.1452591 15
2.6112885 -4.264576 0.96367335 13
2.6162105 -4.2742896 0.78677952 12
2.6074378 -4.2616267 0.60873735 16
2.6291969 -4.2988753 0.43752185 12
2.5514796 -4.1734395 0.25435272 9
2.3505011 -3.8462088 0.07801225 7
1.0004201 -1.6408825 -0.50469732 3
nan nan nan 0
1.3605483 -2.2333159 -0.50042421 3
1.7202812 -2.8249209 -0.51779848 3
1.8468498 -3.0339541 -0.43141797 6
2.0161533 -3.3133836 -0.3359859 10
1.997118 -3.2833908 -0.19873646 7
2.1807487 -3.5867012 -0.071876645 12
2.6061106 -4.2879844 1.333343 14
2.6102402 -4.2964687 1.1508787 12
2.6083791 -4.2950945 0.96843934 14
2.6159036 -4.3091793 0.79146737 11
2.6046731 -4.2923684 0.6117841 15
2.6263397 -4.3297772 0.43970072 13
2.5258105 -4.1656847 0.253306 7
2.3312061 -3.8462479 0.077837728 10
1.0021853 -1.6567616 -0.50857961 2
nan nan nan 0
nan nan nan 0
1.71041 -2.8309083 -0.51779848 3
1.8311167 -3.0318863 -0.43019927 7
1.9994267 -3.311873 -0.33511436 9
1.9804848 -3.2817919 -0.19821484 5
2.1604688 -3.5814497 -0.071617477 11
2.6060913 -4.3218718 1.3411026 14
2.6078026 -4.3264174 1.1564982 13
2.6060362 -4.3251944 0.97320527 13
2.6135855 -4.3394365 0.79537386 12
2.5999131 -4.3184409 0.61422145 14
2.6240513 -4.3602567 0.4418796 13
2.5061066 -4.1659188 0.25278267 7
2.3126132 -3.8457932 0.077663206 7
0.99142551 -1.6519678 -0.50599146 3
1.1349686 -1.8918953 -0.50051636 2
1.3474481 -2.2469695 -0.5013774 3
1.7005178 -2.8368616 -0.51779848 4
1.8179713 -3.0340025 -0.4295899 7
1.9827349 -3.3102858 -0.33424279 9
1.9664521 -3.2844009 -0.19795403 6
2.1428192 -3.5803897 -0.07144469 9
2.6033874 -4.3516665 1.3475689 14
2.6051874 -4.356401 1.1621177 12
2.6060331 -4.3595419 0.97892433 14
2.611088 -4.3697305 0.79928046 12
2.5975475 -4.348793 0.6172682 15
2.6215827 -4.3907733 0.44405851 13
2.4838724 -4.1617789 0.25199762 7
2.2940524 -3.8452559 0.077488683 7
0.99306542 -1.6678677 -0.50987375 3
1.1258661 -1.8916591 -0.49939165 2
1.3471253 -2.2643139 -0.504237 3
1.6906049 -2.8427804 -0.51779848 4
1.8022978 -3.0317981 -0.42837122 8
1.9660788 -3.3086224 -0.33337122 9
1.9498756 -3.2826593 -0.19743241 6
2.1252036 -3.5792506 -0.071271911 9
2.6005065 -4.3814936 1.354035 14
2.6023943 -4.3864183 1.1677371 13
2.6033182 -4.3897214 0.98369032 13
2.6109295 -4.4043074 0.80396837 11
2.5950012 -4.3791804 0.6203149 5
2.6214712 -4.425611 0.44667318 13
2.4642422 -4.1618309 0.25147426 7
2.2755229 -3.8446355 0.077314153 7
0.98232484 -1.6630071 -0.50728554 3
1.1291642 -1.9123582 -0.50389069 2
1.3342235 -2.2605486 -0.5023306 3
1.6806715 -2.8486643 -0.51779848 4
1.7866621 -3.0295217 -0.42715251 7
1.9494586 -3.3068836 -0.33249965 9
1.9333351 -3.2808418 -0.1969108 6
2.1101592 -3.5823393 -0.071185522 10
2.5999005 -4.4155169 1.3617946 13
2.6018949 -4.4206686 1.1744807 12
2.6029129 -4.4241648 0.98940951 13
2.6105609 -4.4389358 0.80865616 11
2.5922744 -4.4096031 0.62336165 15
2.6135774 -4.4476175 0.44798052 14
2.4446421 -4.161797 0.2509509 7
2.2570264 -3.8439333 0.077139638 6
0.97895563 -1.6705929 -0.50857961 3
1.1224821 -1.916288 -0.50389069 2
1.3362449 -2.2821348 -0.50614333 3
1.6707176 -2.8545136 -0.51779848 4
1.771064 -3.0271726 -0.42593384 7
1.9328743 -3.3050687 -0.33162811 8
1.916831 -3.278949 -0.19638918 5
2.0925975 -3.5810511 -0.071012743 10
2.5966518 -4.4454179 1.3682609 14
2.6011875 -4.454968 1.1812241 13
2.5998244 -4.4544187 0.99417537 13
2.6074934 -4.4693499 0.8125627 11
2.5893664 -4.4400601 0.6264084 10
2.6105793 -4.47823 0.45015943 18
2.4225578 -4.157362 0.25016585 7
2.2385626 -3.8431487 0.076965109 6
0.97098249 -1.6696551 -0.50728554 3
1.1140071 -1.9155934 -0.50276589 2
1.3290688 -2.2863214 -0.50614333 3
1.6592604 -2.855478 -0.51701629 4
1.7590526 -3.0284307 -0.4253245 8
1.9174798 -3.3025098 -0.33075655 9
1.9015076 -3.2763178 -0.19586755 5
2.0763195 -3.5789587 -0.070839964 11
2.5972109 -4.478622 1.3760203 14
2.599396 -4.4841933 1.1868436 12
2.6005826 -4.4880452 0.9998945 14
2.6082914 -4.5031605 0.81725061 11
2.5903246 -4.4739418 0.63006449 10
2.5765374 -4.4519205 0.44667318 9
2.4044845 -4.1563082 0.24964251 7
2.2214727 -3.8415072 0.076790586 6
0.96544033 -1.6728657 -0.50728554 3
1.1048793 -1.9152504 -0.50164115 2
1.3186278 -2.2866945 -0.50519013 4
1.6492828 -2.8612525 -0.51701629 4
1.7435154 -3.0259523 -0.42410579 8
1.9009682 -3.3005505 -0.32988498 8
1.885077 -3.2742808 -0.19534594 6
2.0613201 -3.5818515 -0.070753567 11
2.5960121 -4.5127802 1.3837799 13
2.5982995 -4.5185814 1.1935871 12
2.599577 -4.5226288 1.0056137 13
2.6073186 -4.5379305 0.82193846 11
2.5895216 -4.5087771 0.63372058 10
2.5535417 -4.447928 0.44536582 8
2.3849909 -4.1560149 0.24911913 7
2.2030745 -3.840565 0.076616056 6
0.95690382 -1.6722014 -0.50599146 3
1.095433 -1.9150581 -0.50051636 2
1.3078016 -2.2872515 -0.504237 3
1.6387846 -2.8672783 -0.51701629 4
1.729951 -3.028013 -0.42349643 7
1.8863882 -3.3031704 -0.32944921 8
1.8681126 -3.272495 -0.19482432 7
2.0432229 -3.5806985 -0.070580795 12
2.5914192 -4.5432415 1.3902462 14
2.5961995 -4.5534682 1.2003304 12
2.5975652 -4.5577121 1.0113328 13
2.6028919 -4.568912 0.825845 10
2.5877137 -4.5441132 0.63737667 10
2.52983 -4.4442711 0.44405851 7
2.3648038 -4.1560488 0.24859579 8
2.1840401 -3.8399229 0.076441541 5
0.95106089 -1.6755314 -0.50599146 2
1.0887415 -1.9188702 -0.50051636 2
1.2998097 -2.2918026 -0.504237 4
1.6287661 -2.8729813 -0.51701629 4
1.7144773 -3.025398 -0.42227775 7
1.8699365 -3.3010671 -0.32857767 9
1.8542179 -3.2746513 -0.19456352 8
2.0257864 -3.5791078 -0.070408009 11
2.5898149 -4.5774817 1.3980056 13
2.5946794 -4.5879483 1.2070739 12
2.5937171 -4.5881152 1.0160987 13
2.6015053 -4.6037679 0.83053291 11
2.5840397 -4.5747232 0.64042342 10
2.5069542 -4.4400625 0.44275117 6
2.3453736 -4.1555815 0.24807242 7
2.16571 -3.8388147 0.076267011 5
0.9452064 -1.678841 -0.50599146 2
1.0844263 -1.9269048 -0.50164115 2
1.2918019 -2.2963257 -0.504237 3
1.6187274 -2.8786492 -0.51701629 4
1.7014745 -3.0270381 -0.42166841 7
1.8535224 -3.2988894 -0.3277061 9
1.8378857 -3.2723966 -0.19404191 6
2.0083864 -3.5774388 -0.07023523 11
2.5880024 -4.6117659 1.4057652 14
2.5929499 -4.6224723 1.2138174 13
2.5920889 -4.622828 1.0218178 13
2.5999067 -4.6386685 0.83522075 11
2.5826092 -4.6096931 0.64407945 10
2.4865725 -4.4400945 0.4418796 6
2.3259757 -4.1550288 0.24754907 6
2.1474147 -3.8376262 0.076092489 6
0.93934035 -1.6821301 -0.50599146 2
1.0776936 -1.9306785 -0.50164115 2
1.2837783 -2.3008211 -0.504237 3
1.6086693 -2.8842821 -0.51701629 4
1.6884813 -3.0286243 -0.42105904 9
1.8371464 -3.2966373 -0.32683456 10
1.8215917 -3.2700677 -0.19352028 6
1.9910221 -3.5756919 -0.070062451 11
2.5859821 -4.6460924 1.4135246 14
2.5910108 -4.6570396 1.2205608 12
2.5902503 -4.6575861 1.027537 12
2.6004961 -4.6779308 0.84068996 11
2.580966 -4.6447077 0.64773554 9
2.4638028 -4.4356842 0.44057226 6
2.3066101 -4.1543922 0.2470257 7
2.1291537 -3.8363564 0.075917967 5
0.93346292 -1.6853988 -0.50599146 3
1.0733073 -1.9386905 -0.50276589 2
1.2757392 -2.3052883 -0.504237 3
1.5985916 -2.8898799 -0.51701629 4
1.6754977 -3.0301566 -0.4204497 9
1.8208088 -3.2943113 -0.32596299 9
1.8077514 -3.2720358 -0.19325948 6
1.9736949 -3.5738676 -0.069889672 11
2.5837538 -4.6804614 1.4212842 14
2.5888619 -4.6916504 1.2273042 12
2.5882001 -4.6923871 1.0332562 13
2.5960732 -4.7086039 0.84459645 10
2.5767136 -4.6754203 0.65078223 9
2.4434977 -4.4355321 0.43970072 8
2.2872777 -4.1536708 0.24650235 6
2.1085174 -3.8306262 0.075656183 5
0.9275741 -1.6886469 -0.50599146 3
1.0665334 -1.9424253 -0.50276589 2
1.2676845 -2.3097274 -0.504237 3
1.5884942 -2.8954425 -0.51701629 4
1.6601377 -3.0272841 -0.419231 8
1.8069042 -3.2962792 -0.32552719 8
1.7915202 -3.2695684 -0.19273785 6
1.9564046 -3.5719657 -0.069716886 11
2.5813165 -4.7148709 1.4290438 14
2.5865026 -4.7263017 1.2340477 12
2.5859382 -4.7272291 1.0389752 13
2.5985763 -4.7523017 0.85084695 10
2.5770392 -4.7148695 0.65504771 10
2.4232233 -4.4352922 0.43882915 5
2.2679782 -4.1528649 0.24597898 6
2.0903423 -3.8291869 0.075481653 6
0.92167401 -1.6918744 -0.50599146 3
1.0620766 -1.9504153 -0.50389069 2
1.2596142 -2.3141384 -0.504237 3
1.5783775 -2.9009697 -0.51701629 4
1.6471894 -3.0287011 -0.41862166 8
1.7906289 -3.2938142 -0.32465565 7
1.7777121 -3.2714145 -0.19247703 6
1.9391519 -3.5699873 -0.069544114 10
2.5809751 -4.7535644 1.4380965 14
2.5839331 -4.760994 1.2407911 11
2.5834646 -4.7621131 1.0446944 13
2.5937426 -4.7830501 0.85475349 8
2.5700252 -4.7412882 0.65748507 10
2.4029808 -4.4349651 0.43795761 7
2.2463343 -4.1475849 0.24519394 7
2.0793431 -3.8408566 0.075568914 6
0.9157626 -1.6950814 -0.50599146 3
1.0552619 -1.9541106 -0.50389069 2
1.2515287 -2.318521 -0.504237 4
1.5682416 -2.9064615 -0.51701629 4
1.6318955 -3.0256965 -0.41740298 7
1.7767568 -3.2956603 -0.32421988 9
1.7639134 -3.2732046 -0.19221623 6
1.9219366 -3.5679314 -0.069371328 12
2.5781047 -4.7880602 1.445856 13
2.5811524 -4.7957253 1.2475344 12
2.5807786 -4.7970362 1.0504135 13
2.5770309 -4.7920747 0.85475349 4
2.5558093 -4.7546015 0.65809447 8
2.3851275 -4.4389381 0.43752185 7
2.231843 -4.1554008 0.24519394 7
2.0682883 -3.8524961 0.075656183 4
0.90755934 -1.6940105 -0.50469732 3
1.0484343 -1.9577823 -0.50389069 2
1.2434279 -2.3228755 -0.504237 4
1.5580866 -2.9119179 -0.51701629 5
1.6189833 -3.026998 -0.41679361 8
1.7628936 -3.2974496 -0.32378408 8
1.7477702 -3.2705343 -0.19169462 6
1.9071151 -3.570209 -0.069284938 12
2.5750253 -4.8225937 1.4536155 13
2.5804551 -4.8347936 1.2554018 12
2.5778804 -4.8319993 1.0561327 12
nan nan nan 0
2.5368624 -4.7591143 0.65748507 8
2.3625917 -4.4340491 0.43621451 6
2.2126296 -4.1543517 0.24467057 8
2.0571771 -3.8641047 0.075743437 58
0.90164065 -1.6971682 -0.50469732 2
1.041594 -1.9614301 -0.50389069 2
1.235312 -2.3272018 -0.504237 4
1.545598 -2.9129765 -0.51623416 5
1.6037568 -3.0238626 -0.41557491 8
1.7467065 -3.2947814 -0.32291251 8
1.7340051 -3.272203 -0.1914338 7
1.889961 -3.5680091 -0.069112159 10
2.5739958 -4.8614321 1.4626682 13
2.5772369 -4.8696079 1.2621452 12
2.5770643 -4.8713384 1.0628049 12
2.5873773 -4.8928986 0.86959845 8
nan nan nan 0
2.3470995 -4.4422693 0.43621451 6
nan nan nan 0
2.0483444 -3.8801045 0.075917967 60
0.89375591 -1.6958761 -0.50340325 3
1.0331553 -1.9603825 -0.50276589 2
1.2279948 -2.3310711 -0.504237 4
1.5410409 -2.9265573 -0.51779848 4
1.5919377 -3.0244944 -0.41496557 9
1.7317085 -3.2914364 -0.32204098 8
1.7190684 -3.268796 -0.19091219 6
1.8764163 -3.5695035 -0.06902577 10
2.5721903 -4.8951478 1.4704278 13
2.5755188 -4.9035606 1.2688887 12
2.5754375 -4.9054852 1.0685241 12
nan nan nan 0
2.4868004 -4.7406764 0.6526103 6
2.3331323 -4.4496207 0.43621451 2
2.1803927 -4.16009 0.24414723 3
2.0338242 -3.8820918 0.075830698 65
0.89036483 -1.7031107 -0.50469732 3
1.026306 -1.963977 -0.50276589 2
1.2198503 -2.3353436 -0.504237 5
1.5262445 -2.9231632 -0.51623416 4
1.5767783 -3.021234 -0.41374689 8
1.7179049 -3.2930448 -0.32160518 7
1.7053391 -3.2703493 -0.19065139 6
1.8616343 -3.5715988 -0.06893938 11
2.570709 -4.9340796 1.4794805 13
2.5741396 -4.9427691 1.276756 11
2.5741632 -4.944921 1.0751964 13
1.1529052 -2.2156544 0.38909256 4
nan nan nan 0
nan nan nan 0
1.161974 -2.2359409 0.13005485 11
2.0018246 -3.8536766 0.075132601 57
0.88411665 -1.7063626 -0.50469732 3
1.0191008 -1.9677253 -0.50276589 3
1.2090262 -2.3354399 -0.50328374 5
1.5155205 -2.9287376 -0.51623416 4
1.5588542 -3.0137687 -0.41191885 8
nan nan nan 0
1.6864638 -3.2632701 -0.18986896 6
1.8439424 -3.569515 -0.068766601 11
2.568119 -4.9735093 1.4885333 13
2.5694134 -4.978147 1.2834995 11
2.5717747 -4.9848566 1.0818686 12
1.1515673 -2.2330327 0.39143646 6
nan nan nan 0
1.1582351 -2.2478881 0.21788937 6
nan nan nan 0
1.9876869 -3.8609877 0.075132601 56
0.87815493 -1.7094384 -0.50469732 3
1.012226 -1.9712707 -0.50276589 3
1.1963841 -2.3309126 -0.5013774 5
nan nan nan 0
1.5505894 -3.0236077 -0.41252819 9
nan nan nan 0
1.6705087 -3.2602496 -0.18934733 5
1.8269132 -3.5670307 -0.068593815 10
2.5661495 -5.012538 1.4975861 13
2.5675566 -5.0174451 1.2913668 11
2.5700052 -5.0243926 1.088541 12
1.1392691 -2.2282445 0.38987383 6
1.1398481 -2.2303374 0.3028453 8
1.1526473 -2.2563531 0.21832512 7
1.1482151 -2.2486455 0.13031653 12
1.9719248 -3.8634498 0.07504534 55
0.87437439 -1.7167969 -0.50599146 3
1.0097592 -1.9834753 -0.50501537 3
1.1815623 -2.3219512 -0.49851784 5
1.1748698 -2.3097968 -0.40438342 4
nan nan nan 0
1.1298656 -2.2232387 -0.21483923 4
1.6591182 -3.2660608 -0.18934733 5
1.8121874 -3.5689282 -0.068507425 5
2.5639386 -5.0516133 1.5066389 13
2.5654569 -5.0567913 1.299234 11
2.5679905 -5.0639758 1.0952133 12
1.1292514 -2.227803 0.38909256 6
1.1275698 -2.2254486 0.30162659 9
1.1402632 -2.2514758 0.21745357 6
1.1358484 -2.2437301 0.12979317 9
1.125535 -2.2243207 0.042845655 40
0.86837631 -1.7198386 -0.50599146 3
1.0050247 -1.9913374 -0.50614017 3
1.1668177 -2.3129146 -0.49565825 9
1.1579058 -2.2962456 -0.40125474 7
1.1608796 -2.3031428 -0.31198588 6
1.1445098 -2.271652 -0.21919702 10
1.1401403 -2.2639627 -0.1304045 5
1.1186295 -2.2222142 -0.0423312 6
2.5614855 -5.0907335 1.5156915 12
2.5631135 -5.0961838 1.3071015 11
2.5657306 -5.1036062 1.1018857 12
1.1214681 -2.2317312 0.38909256 6
1.1197946 -2.2293711 0.30162659 9
1.1234574 -2.2376366 0.21571046 6
1.1280094 -2.2476811 0.12979317 7
1.1289718 -2.2505786 0.043281965 60
0.86236769 -1.7228593 -0.50599146 3
1.0002472 -1.9991902 -0.50726491 3
1.1609324 -2.3213634 -0.49661148 8
1.1520914 -2.3046906 -0.40203691 7
1.1550512 -2.3116202 -0.31259522 7
1.1410244 -2.2845454 -0.22006857 9
1.1322306 -2.2679286 -0.1304045 15
1.1130979 -2.2305787 -0.042417586 8
2.5587909 -5.1298981 1.5247444 12
2.5605261 -5.1356206 1.3149688 11
2.5632255 -5.1432824 1.1085581 12
1.1136711 -2.2356322 0.38909256 7
1.1120059 -2.2332661 0.30162659 9
1.1200784 -2.2504628 0.21658202 6
1.1179326 -2.2471344 0.12953149 8
1.1277866 -2.2679346 0.043543749 58
0.85634851 -1.725859 -0.50599146 3
0.99326271 -2.0026696 -0.50726491 3
1.1593626 -2.3385942 -0.49947101 8
1.2032429 -2.4281719 -0.42315558 6
nan nan nan 0
nan nan nan 0
1.1176631 -2.2584417 -0.12962207 6
1.1141714 -2.2523746 -0.042763148 6
2.5558536 -5.1691051 1.5337971 12
2.5576944 -5.1751013 1.322836 11
2.5604742 -5.1830025 1.1152303 12
1.1080469 -2.2439339 0.38987383 5
1.1064001 -2.2415845 0.30223596 8
1.1144199 -2.258826 0.2170178 5
1.1056651 -2.2420669 0.12900813 6
nan nan nan 0
0.85031891 -1.7288377 -0.50599146 3
0.98626602 -2.0061245 -0.50726491 3
1.1555218 -2.3514373 -0.5013774 6
nan nan nan 0
nan nan nan 0
1.6253818 -3.3119624 -0.3194263 12
nan nan nan 0
1.7401714 -3.5489955 -0.067643523 9
2.5547993 -5.2126908 1.5441432 12
2.5546184 -5.2146244 1.3307035 11
2.5574763 -5.2227654 1.1219026 11
1.1023786 -2.2522242 0.39065516 6
1.1007497 -2.2498906 0.3028453 8
1.1109048 -2.2716515 0.21788937 7
1.1044103 -2.2593703 0.12979317 5
1.89103 -3.8703253 0.074521773 66
0.84427899 -1.7317953 -0.50599146 3
0.97712326 -2.0051756 -0.50614017 3
1.1516055 -2.3642819 -0.50328374 6
1.4413508 -2.9604509 -0.51545197 5
1.484756 -3.0509553 -0.41191885 8
1.613811 -3.3176157 -0.3194263 12
nan nan nan 0
nan nan nan 0
2.5513611 -5.2519875 1.5531958 12
2.5534256 -5.2585716 1.3396947 11
2.5542324 -5.2625709 1.128575 10
1.0988215 -2.264945 0.39221779 8
1.0950549 -2.2581847 0.30345467 11
1.1029686 -2.2755153 0.21788937 8
1.0921627 -2.2542245 0.12926981 4
1.8687928 -3.8589056 0.074172728 62
0.83853149 -1.7345855 -0.50599146 3
0.96869856 -2.003849 -0.50501537 3
1.1463076 -2.3723078 -0.504237 6
1.4363388 -2.9738579 -0.51701629 6
1.4773214 -3.0600739 -0.41252819 9
1.6033803 -3.3226693 -0.3194263 11
1.5719837 -3.2590592 -0.18700007 5
1.7144244 -3.5559554 -0.067557134 10
2.5516236 -5.2947855 1.563542 12
2.5516927 -5.2972927 1.3475621 11
2.552592 -5.3015261 1.1352472 4
1.0917004 -2.2683859 0.39221779 7
1.0879551 -2.2616136 0.30345467 10
1.0979728 -2.283458 0.21832512 6
1.0958903 -2.2801461 0.1305782 4
1.8523306 -3.8557448 0.073998198 57
0.83277482 -1.7373567 -0.50599146 3
0.96169794 -2.0072184 -0.50501537 3
1.1380197 -2.3762946 -0.504237 6
1.4259493 -2.9788535 -0.51701629 5
1.4602047 -3.0517821 -0.41070014 10
1.583176 -3.3102717 -0.31768319 12
1.5627513 -3.269031 -0.18726087 7
1.6976906 -3.5528967 -0.067384355 10
2.5476968 -5.3341675 1.5725948 12
2.5499783 -5.3413415 1.3565532 10
2.5509815 -5.3458424 1.1428728 13
1.0837756 -2.2721829 0.39221779 7
1.0821897 -2.2698772 0.30406398 10
1.0899953 -2.2872767 0.21832512 7
1.0986607 -2.3064971 0.1318866 5
1.8281149 -3.8396184 0.073561884 56
0.82640147 -1.7403973 -0.50599146 3
0.95433462 -2.0107296 -0.50501537 3
1.1293025 -2.3804495 -0.504237 5
1.4150217 -2.98406 -0.51701629 6
1.446884 -3.0526288 -0.4100908 9
1.5710326 -3.3160522 -0.31768319 12
1.5486223 -3.2702246 -0.18700007 6
1.6825184 -3.5545766 -0.067297965 10
2.5446537 -5.378396 1.5829407 11
2.5470471 -5.3858862 1.3655444 10
2.5481515 -5.390656 1.1504983 14
1.0733305 -2.2716744 0.39143646 6
1.0717436 -2.269341 0.30345467 9
1.0816046 -2.2912564 0.21832512 7
1.0987223 -2.3285711 0.13293332 5
1.8140297 -3.846293 0.073561884 54
0.82032132 -1.7432715 -0.50599146 3
0.94731009 -2.0140486 -0.50501537 3
1.118898 -2.379935 -0.50328374 4
1.4045967 -2.9889812 -0.51701629 5
1.4341098 -3.053169 -0.40948144 9
1.5573311 -3.3170071 -0.31724739 12
1.5308336 -3.2620494 -0.18621762 7
1.6658542 -3.5513759 -0.067125186 9
2.5422668 -5.4222307 1.5932868 12
2.5447712 -5.430037 1.3745357 10
2.5459759 -5.4350762 1.1581237 13
1.0633004 -2.2709348 0.39065516 7
1.0638157 -2.2730682 0.30345467 10
1.0714897 -2.2905064 0.21788937 6
1.0969323 -2.3459616 0.13371836 6
1.7963591 -3.8435438 0.073387362 56
0.8139264 -1.7462664 -0.50599146 3
0.9399218 -2.0175071 -0.50501537 3
1.1101676 -2.3840201 -0.50328374 3
1.3915482 -2.9896321 -0.51623416 5
1.4187229 -3.0494056 -0.40826276 9
1.5388622 -3.3091433 -0.31594005 12
1.5188674 -3.2676382 -0.18621762 6
1.65072 -3.5529239 -0.067038789 9
2.5386508 -5.4665561 1.6036328 11
2.5412626 -5.4746814 1.3835269 10
2.5425649 -5.479991 1.1657493 12
1.052892 -2.2703362 0.38987383 6
1.0533901 -2.2724497 0.3028453 9
1.0630873 -2.2944183 0.21788937 6
1.0967199 -2.3680897 0.13476509 5
1.7822598 -3.8501019 0.073387362 56
0.8058008 -1.7447122 -0.50469732 2
0.93083185 -2.0163527 -0.50389069 3
1.1018391 -2.3878808 -0.50328374 3
1.3831723 -2.9989557 -0.51701629 6
1.4059922 -3.0498326 -0.40765342 8
1.5252172 -3.3099709 -0.31550428 11
1.5032742 -3.2638497 -0.18569601 6
1.6341268 -3.549582 -0.06686601 9
2.5357056 -5.5104852 1.6139787 12
2.5384238 -5.518929 1.3925182 10
2.5398223 -5.524509 1.1733748 12
1.0449606 -2.2739975 0.38987383 6
1.0433801 -2.2716031 0.30223596 9
1.0529935 -2.2935884 0.21745357 6
1.0946946 -2.3855178 0.13555013 5
1.7625508 -3.8426707 0.073125578 55
0.80001068 -1.7473747 -0.50469732 2
0.92449266 -2.0192671 -0.50389069 3
1.0963743 -2.3957937 -0.504237 3
1.3696356 -2.9943044 -0.51545197 5
1.3922768 -3.0452077 -0.40643471 9
nan nan nan 0
1.4909385 -3.2640142 -0.18543519 7
1.6208912 -3.5501509 -0.066779621 10
2.5344229 -5.5535755 1.6243248 11
2.5372486 -5.5623374 1.4015094 10
2.538744 -5.5681891 1.1810002 12
1.0357635 -2.2727757 0.38909256 6
1.0341812 -2.2703533 0.30162659 9
1.0437188 -2.292352 0.2170178 6
1.0933996 -2.4025793 0.13633516 5
1.7504761 -3.8481863 0.073125578 58
0.79620767 -1.754416 -0.50599146 3
0.91743851 -2.0224817 -0.50389069 3
1.0880048 -2.3996062 -0.504237 3
1.3550981 -2.9900711 -0.51388764 6
1.3795909 -3.0455287 -0.40582538 9
1.4991223 -3.3109386 -0.31463271 13
1.4774773 -3.2646501 -0.18517439 7
nan nan nan 0
2.5329309 -5.6019969 1.635964 12
2.5358753 -5.6111178 1.4116246 10
2.5354567 -5.6128016 1.1886258 12
1.0257914 -2.2718761 0.38831124 7
1.0242085 -2.2694263 0.30101728 9
1.0336626 -2.291441 0.21658202 6
1.0932159 -2.4245887 0.13738188 4
nan nan nan 0
0.78977209 -1.7573224 -0.50599146 3
0.91001952 -2.0258307 -0.50389069 3
1.0812129 -2.4080553 -0.50519013 3
nan nan nan 0
nan nan nan 0
nan nan nan 0
nan nan nan 0
1.5913581 -3.5525339 -0.066606842 9
2.5281711 -5.6465082 1.6463101 11
2.5312138 -5.6559501 1.4206158 10
2.5329056 -5.6623812 1.1972045 12
1.0154419 -2.271112 0.38752994 6
1.0138589 -2.2686338 0.30040792 9
1.0232255 -2.2906663 0.21614625 6
1.0904289 -2.4422572 0.13816692 4
1.7167823 -3.8469176 0.072863787 54
0.78363305 -1.7600685 -0.50599146 3
0.9029426 -2.028995 -0.50389069 3
1.0728006 -2.4118147 -0.50519013 4
1.1571143 -2.6025875 -0.44505644 8
1.1763799 -2.6471646 -0.3509841 8
1.1357001 -2.5568266 -0.24142179 11
nan nan nan 0
1.112554 -2.5070758 -0.046737097 4
2.5260706 -5.695034 1.6579493 11
2.5272527 -5.7003832 1.429607 10
2.5290334 -5.7070875 1.2048299 12
1.007508 -2.2746427 0.38752994 7
1.0059336 -2.2721591 0.30040792 9
1.0132078 -2.289669 0.21571046 6
1.0899763 -2.4643142 0.13921364 4
1.1029848 -2.4949024 0.046946973 45
0.77748454 -1.7627933 -0.50599146 3
0.89585453 -2.0321345 -0.50389069 3
1.0643753 -2.4155447 -0.50519013 3
1.153994 -2.6201692 -0.44740292 6
1.1551354 -2.6240022 -0.34732801 7
1.1347924 -2.5790119 -0.2431649 9
1.1230161 -2.5534568 -0.14370576 12
1.1259261 -2.5612864 -0.047687389 13
2.5236616 -5.7436132 1.6695887 11
2.524971 -5.7493176 1.4397222 10
2.5268524 -5.75633 1.2134087 12
0.99757767 -2.2736235 0.38674861 7
0.99600303 -2.2711117 0.29979858 9
1.0032095 -2.28863 0.21527469 6
1.0873789 -2.4818242 0.13999867 4
1.1002855 -2.5124753 0.047208756 52
0.77132648 -1.7654964 -0.50599146 3
0.88875556 -2.0352492 -0.50389069 3
1.0559369 -2.4192455 -0.50519013 3
nan nan nan 0
nan nan nan 0
nan nan nan 0
1.1180844 -2.5665166 -0.14422737 11
1.1209704 -2.5743682 -0.047860172 10
2.5209446 -5.7922454 1.6812279 11
2.5204349 -5.7938371 1.4487134 10
2.5243583 -5.8056264 1.2219874 12
0.98766667 -2.2725623 0.38596731 7
0.98609197 -2.2700226 0.29918921 9
0.99323076 -2.2875488 0.21483891 6
1.0866604 -2.5039263 0.14104539 4
1.0954876 -2.5254734 0.047383279 44
0.76354879 -1.7636124 -0.50469732 3
0.8823573 -2.0380313 -0.50389069 3
1.0483315 -2.4225509 -0.50519013 3
1.2855893 -2.9722445 -0.5068481 7
1.2932855 -2.9914708 -0.39546645 10
nan nan nan 0
nan nan nan 0
nan nan nan 0
2.5199571 -5.8400478 1.6928673 11
2.5195856 -5.84199 1.4588286 10
2.5235944 -5.8540945 1.2305661 12
0.97856814 -2.2711186 0.38518599 7
0.97699273 -2.2685516 0.2985799 9
0.98406994 -2.2860827 0.21440314 6
1.0847089 -2.5210879 0.14183044 4
1.6543796 -3.8469696 0.072427489 58
0.75769627 -1.7661347 -0.50469732 3
0.87523788 -2.0410988 -0.50389069 3
1.0398688 -2.4261954 -0.50519013 3
1.2946531 -3.0221081 -0.51466984 8
1.3004164 -3.0370259 -0.40095058 10
1.4143591 -3.3047245 -0.31114647 11
nan nan nan 0
1.5185724 -3.5516515 -0.066088498 12
2.5185363 -5.8932214 1.7057997 10
2.5183163 -5.8955541 1.4700676 10
2.5224171 -5.9080081 1.2400979 12
0.96869624 -2.2699785 0.38440469 7
0.96712095 -2.2673831 0.29797053 9
0.97413057 -2.2849219 0.21396735 6
1.0817744 -2.5386391 0.14261547 4
nan nan nan 0
0.7512179 -1.7688999 -0.50469732 2
0.86584735 -2.0398083 -0.50276589 3
1.0309694 -2.4299905 -0.50519013 3
1.2854956 -3.0313795 -0.51545197 9
1.2931499 -3.0509105 -0.40216929 10
1.4022371 -3.309886 -0.31114647 11
1.3914326 -3.2859793 -0.18439196 11
1.5055448 -3.5571933 -0.066088498 11
2.5138555 -5.9424467 1.7174389 11
2.513768 -5.9451313 1.4801829 10
2.5179429 -5.9579039 1.2486767 11
0.95844799 -2.2689641 0.38362336 7
0.95687377 -2.2663407 0.2973612 9
0.96574938 -2.2884769 0.21396735 6
1.0802246 -2.5609896 0.14366218 4
1.6287512 -3.8633156 0.072514743 65
0.74503875 -1.7715114 -0.50469732 3
0.85872179 -2.0428183 -0.50276589 3
1.0224808 -2.4335744 -0.50519013 3
1.2729943 -3.0312951 -0.51466984 10
1.2805716 -3.0508296 -0.40155992 9
1.384894 -3.3009813 -0.30983913 12
1.3799539 -3.2908165 -0.18439196 11
1.4931188 -3.562427 -0.066088498 12
2.511759 -5.9957333 1.7303716 10
2.5099351 -5.9943151 1.4902979 10
2.5160797 -6.0119343 1.2582085 12
0.95052201 -2.272296 0.38362336 7
0.94704258 -2.2650883 0.29675183 9
0.95583475 -2.2872386 0.21353158 6
1.077052 -2.578567 0.14444724 4
1.6036998 -3.8412979 0.071991175 62
0.73885053 -1.7741014 -0.50469732 3
0.84971368 -2.0413058 -0.50164115 3
1.0158653 -2.4416606 -0.50614333 3
1.260509 -3.0311601 -0.51388764 13
1.2642001 -3.0415335 -0.3997319 10
1.3752739 -3.3103952 -0.31027493 13
1.3665437 -3.291002 -0.18413116 10
1.4768417 -3.5583823 -0.065915719 12
2.5074704 -6.0446143 1.7420107 10
2.5076563 -6.0480452 1.501537 9
2.51387 -6.0660243 1.2677404 12
0.94069457 -2.2710373 0.38284209 7
0.93723178 -2.2637949 0.29614249 9
0.94594038 -2.2859585 0.21309578 6
1.0756781 -2.6007671 0.14549395 4
1.5864614 -3.8376322 0.071816646 55
0.7326532 -1.7766696 -0.50469732 2
0.842583 -2.0442593 -0.50164115 3
1.0073361 -2.4451919 -0.50614333 3
1.2480403 -3.0309753 -0.51310545 14
1.2497981 -3.0367494 -0.3985132 13
1.3542356 -3.2921433 -0.30809602 10
1.3531488 -3.2911339 -0.18387035 12
1.4606111 -3.5542679 -0.06574294 11
2.5047061 -6.0980077 1.7549433 10
2.5031822 -6.0973248 1.5116521 10
2.5113132 -6.1201711 1.2772723 13
0.93276149 -2.2743073 0.38284209 7
0.92932391 -2.2670527 0.29614249 9
0.93795508 -2.2892466 0.21309578 6
1.0741621 -2.6229887 0.14654067 4
1.5711621 -3.8385198 0.071729392 55
0.72644705 -1.7792162 -0.50469732 2
0.83544207 -2.0471883 -0.50164115 3
0.99879473 -2.4486933 -0.50614333 3
1.2206736 -2.9941561 -0.50606591 12
1.2410628 -3.0456891 -0.39912254 13
1.3370993 -3.2830112 -0.30678868 9
1.3397698 -3.2912128 -0.18360955 13
1.4463115 -3.554714 -0.06565655 13
2.5015996 -6.1514544 1.7678758 10
2.5002289 -6.1511602 1.5228912 10
2.5084088 -6.1743736 1.2868042 25
0.92295891 -2.2729735 0.38206074 7
0.9195385 -2.2656844 0.29553315 9
0.92808604 -2.2878909 0.21266001 6
1.0743803 -2.649859 0.14784908 4
1.5558761 -3.8393478 0.071642123 56
0.72023195 -1.7817411 -0.50469732 3
0.82829094 -2.050092 -0.50164115 3
0.9920789 -2.4567158 -0.50709653 3
1.1935792 -2.9571836 -0.49902633 13
1.2118572 -3.0039792 -0.39302906 12
1.3256314 -3.2876587 -0.30678868 9
1.3264067 -3.2912378 -0.18334873 16
1.4357623 -3.5643783 -0.06574294 13
2.4981499 -6.2049522 1.7808083 10
2.4969299 -6.2050481 1.5341302 9
2.5051563 -6.2286296 1.2963361 17
0.91317713 -2.2715993 0.38127947 7
0.90977401 -2.2642756 0.29492378 9
0.92009419 -2.2911165 0.21266001 6
1.0725638 -2.672128 0.1488958 4
nan nan nan 0
0.71400815 -1.7842443 -0.50469732 3
0.82293892 -2.0574939 -0.50276589 3
0.98531944 -2.4647217 -0.50804973 3
1.1667581 -2.9200585 -0.49198681 9
1.1958423 -2.9943647 -0.39120105 10
1.1756563 -2.945312 -0.27410525 6
1.2945571 -3.2448328 -0.18047984 8
1.4196081 -3.5600808 -0.065570161 12
2.4943571 -6.2585011 1.7937409 10
2.4932852 -6.2589879 1.5453693 9
2.5015552 -6.282938 1.305868 13
0.9052422 -2.2747731 0.38127947 7
0.90186465 -2.2674375 0.29492378 8
0.91025096 -2.2896857 0.21222423 6
1.0724487 -2.6990571 0.15020418 4
nan nan nan 0
0.70777559 -1.7867259 -0.50469732 3
0.81575191 -2.060354 -0.50276589 3
0.97851598 -2.4727097 -0.50900286 3
1.1329453 -2.864414 -0.48181856 9
1.1561909 -2.9246776 -0.38145146 11
1.1214389 -2.8382187 -0.26364651 9
1.1603403 -2.9381735 -0.16300564 6
1.1134957 -2.8209963 -0.051747728 8
2.491993 -6.3165917 1.8079666 10
2.491081 -6.3175097 1.5577322 8
2.4976053 -6.337296 1.3153998 13
0.89548624 -2.273324 0.38049814 7
0.89212626 -2.265954 0.29431444 9
0.90225297 -2.2928491 0.21222423 6
1.0703309 -2.7213709 0.1512509 4
1.0967497 -2.7899714 0.051659122 52
0.70153445 -1.7891856 -0.50469732 3
0.80855495 -2.0631888 -0.50276589 3
0.96987861 -2.4761105 -0.50900286 3
1.1337416 -2.8959427 -0.48651159 6
1.1568251 -2.956425 -0.38510755 9
1.1913497 -3.0462241 -0.28282082 8
1.1009953 -2.8166418 -0.15596379 9
1.1000034 -2.8155529 -0.051574945 10
2.4874969 -6.3702416 1.8208991 10
2.4867272 -6.3715534 1.5689713 8
2.4933064 -6.3917031 1.3249317 12
0.88754541 -2.2764361 0.38049814 7
0.88240921 -2.26443 0.29370511 9
0.89243615 -2.2913432 0.21178845 6
1.0698817 -2.7483556 0.15255931 4
1.0888169 -2.7984416 0.051746383 52
0.69528478 -1.7916235 -0.50469732 3
0.80134815 -2.0659988 -0.50276589 3
0.9612295 -2.4794807 -0.50900286 3
1.1396843 -2.9413261 -0.49355114 9
1.1626282 -3.0020955 -0.39059168 11
1.2418412 -3.2082989 -0.29763731 10
1.1271887 -2.9136045 -0.16117996 6
nan nan nan 0
2.4843974 -6.428442 1.8351249 10
2.4837818 -6.4301872 1.5813342 9
2.4904253 -6.4507346 1.3354168 13
0.87781578 -2.2749126 0.37971681 7
0.8727138 -2.2628665 0.29309577 9
0.88264096 -2.2897968 0.21135268 6
1.0674618 -2.7707107 0.15360603 4
nan nan nan 0
0.68902659 -1.7940396 -0.50469732 3
0.79413158 -2.0687833 -0.50276589 3
0.95256859 -2.482821 -0.50900286 3
1.1435555 -2.9821749 -0.49980852 11
1.1627982 -3.0339396 -0.39424777 12
1.2520158 -3.2684309 -0.30286667 9
1.2080634 -3.15534 -0.17448123 7
1.3447497 -3.5141876 -0.064360693 13
2.4791963 -6.4821868 1.8480575 9
2.4821968 -6.4934282 1.5948211 9
2.4871626 -6.5098248 1.3459018 13
0.86986953 -2.2779629 0.37971681 7
0.86480969 -2.2658989 0.29309577 8
0.87464273 -2.2928638 0.21135268 8
1.0684566 -2.8024132 0.1551761 3
1.4555479 -3.8197024 0.070682235 54
0.68276006 -1.7964338 -0.50469732 3
0.78690535 -2.0715427 -0.50276589 3
0.94389611 -2.486131 -0.50900286 3
1.1331389 -2.9861486 -0.49980852 14
1.1539605 -3.0426202 -0.39485711 12
1.2441304 -3.2820966 -0.30373824 10
1.2182703 -3.2155693 -0.17761093 7
1.3413266 -3.5422366 -0.064792648 13
2.4753599 -6.5404902 1.8622832 10
2.4784763 -6.5521789 1.6071841 9
2.4835174 -6.5689692 1.3563869 13
0.86016703 -2.2763658 0.37893552 7
0.85514146 -2.264261 0.2924864 9
0.86487472 -2.2912431 0.21091689 10
1.0639554 -2.8201408 0.15596114 4
1.4422057 -3.82476 0.070682235 55
0.67648512 -1.7988061 -0.50469732 3
0.77966958 -2.0742769 -0.50276589 3
