# .PCD v0.7 - Point Cloud Data file format
VERSION 0.7
FIELDS x y z intensity
SIZE 4 4 4 4
TYPE F F F F
COUNT 1 1 1 1
WIDTH 1346
HEIGHT 1
VIEWPOINT 0 0 0 1 0 0 0
POINTS 1346
DATA ascii
-1.1959209 2.2007797 -0.30284566 20
-1.1832221 2.1783168 -0.21353191 18
-1.180934 2.1750093 -0.1272748 17
-1.1771957 2.1690269 -0.041985635 16
-1.1882278 2.1902657 0.65697211 15
-1.1887728 2.192183 0.56644809 11
-1.1877418 2.1911943 0.47659415 11
-1.1922182 2.2003691 0.38987383 10
-1.1739393 2.1675367 0.29797053 13
-1.1849222 2.1887274 0.21440314 17
-1.1826382 2.1854193 0.12822309 15
-1.1789196 2.1794562 0.042583872 21
-0.91517097 1.695401 -0.50599146 7
-1.049953 1.9459038 -0.50164115 9
-1.1947998 2.2152772 -0.48136041 17
-1.1782006 2.1854134 -0.38717562 8
-1.1929401 2.2136784 -0.30406433 22
-1.1826978 2.1955895 -0.21483923 22
-1.1804361 2.1923072 -0.12805721 17
-1.1767251 2.1863291 -0.042244807 16
-1.1874398 2.20716 0.66085184 17
-1.1857283 2.204901 0.5686959 13
-1.1870576 2.2082968 0.47945368 12
-1.1892052 2.213218 0.39143646 14
-1.1734108 2.1847374 0.29979858 12
-1.1843431 2.2060156 0.21571046 17
-1.1820855 2.202733 0.12900813 16
-1.1807574 2.2011802 0.04293292 28
-0.9092474 1.6985852 -0.50599146 7
-1.0431541 1.9495569 -0.50164115 9
-1.1916895 2.2280905 -0.4832668 17
-1.1775501 2.2025783 -0.38952214 10
-1.1922228 2.2309599 -0.30589241 27
-1.1797202 2.2084913 -0.21571079 32
-1.1821837 2.2140329 -0.12910046 22
-1.1737942 2.1992443 -0.042417586 20
-1.1888219 2.228337 0.66602492 25
-1.1849022 2.2219234 0.57206756 17
-1.1885774 2.2297523 0.48326644 15
-1.1837949 2.2217143 0.39221779 17
-1.1751091 2.206341 0.30223596 16
-1.1836576 2.2233267 0.2170178 23
-1.183772 2.2244773 0.13005485 25
-1.1777622 2.2141156 0.043107443 31
-0.90301561 1.7019063 -0.50599146 7
-1.0360016 1.9533672 -0.50164115 9
-1.1835152 2.2324433 -0.4832668 17
-1.1787187 2.224334 -0.39265084 16
-1.1910068 2.2484708 -0.30772042 33
-1.1739485 2.2172022 -0.21614657 24
-1.1787324 2.2271774 -0.12962207 27
-1.1680634 2.2079508 -0.042503979 20
-1.1738733 2.2198703 0.66214514 15
-1.1790273 2.2305586 0.57319152 17
-1.18269 2.2384336 0.48421967 16
-1.17795 2.2304051 0.39299908 9
-1.1693314 2.2150218 0.3028453 17
-1.1824745 2.2408657 0.21832512 20
-1.1779405 2.2332175 0.13031653 20
-1.164976 2.209573 0.04293292 16
-0.89706939 1.705048 -0.50599146 7
-1.0291768 1.9569716 -0.50164115 8
-1.1757152 2.2365608 -0.4832668 18
-1.1686499 2.2240629 -0.39186865 13
-1.1831509 2.2526145 -0.30772042 16
-1.1662018 2.2212865 -0.21614657 12
-1.1663103 2.2224357 -0.12910046 15
-1.1626713 2.2164416 -0.042590369 10
-1.1683604 2.2282319 0.66343844 8
-1.1734957 2.2389758 0.57431537 8
-1.177147 2.246896 0.48517281 8
-1.1747396 2.2432532 0.39456171 5
-1.1592909 2.2146933 0.30223596 9
-1.1723361 2.2405665 0.21788937 9
-1.1678238 2.2328911 0.13005485 10
-1.1549339 2.2091987 0.042845655 11
-0.89111221 1.708169 -0.50599146 7
-1.0223393 1.9605522 -0.50164115 8
-1.1656324 2.2362988 -0.48231363 14
-1.1585976 2.2237494 -0.39108649 10
-1.1684037 2.243526 -0.30589241 10
-1.1584409 2.2253439 -0.21614657 10
-1.1562407 2.2220638 -0.12883966 9
-1.1549275 2.2204866 -0.042590369 7
-1.1605753 2.2322967 0.66343844 6
-1.1679196 2.2473817 0.57543933 5
-1.1715592 2.255347 0.48612604 5
-1.1691778 2.2517231 0.39534304 11
-1.1515532 2.2187266 0.30223596 12
-1.164508 2.2446451 0.21788937 14
-1.1577238 2.2325213 0.12979317 7
-1.1449206 2.2087753 0.042758394 9
-0.88514417 1.7112691 -0.50599146 6
-1.0154896 1.9641089 -0.50164115 8
-1.1578192 2.2403541 -0.48231363 15
-1.1485617 2.2233925 -0.3903043 10
-1.1582882 2.2431812 -0.30528304 9
-1.150666 2.2293742 -0.21614657 15
-1.1461878 2.2216489 -0.12857884 8
-1.1448781 2.2200615 -0.042503979 17
-1.152776 2.2363343 0.66343844 13
-1.1600677 2.2514448 0.57543933 11
-1.1659269 2.2637866 0.4870792 4
-1.163571 2.2601812 0.39612433 10
-1.1415305 2.2183197 0.30162659 10
-1.1543872 2.2442667 0.21745357 12
-1.1499238 2.2365489 0.12979317 15
-1.1372036 2.2127583 0.042758394 48
-0.87946445 1.714195 -0.50599146 7
-1.0093141 1.9672894 -0.50164115 8
-1.1485355 2.2396131 -0.48136041 16
-1.1393183 2.222595 -0.38952214 9
-1.1467093 2.2379756 -0.30406433 8
-1.1436566 2.2329781 -0.21614657 15
-1.1392027 2.225239 -0.12857884 16
-1.137898 2.2236474 -0.042503979 11
-1.1479441 2.2442446 0.66473162 13
-1.1552069 2.2594163 0.57656324 11
-1.1632766 2.2761793 0.48898563 9
-1.1542182 2.2594278 0.39534304 9
-1.1322991 2.2174757 0.30101728 10
-1.147331 2.2478824 0.21745357 12
-1.1428918 2.2401505 0.12979317 15
-1.1279751 2.2118664 0.042671129 12
-0.87596548 1.7214062 -0.50728554 7
-1.000232 1.966458 -0.50051636 8
-1.1384861 2.239233 -0.48040724 17
-1.1293156 2.2221558 -0.38873994 9
-1.1388903 2.2419648 -0.30406433 8
-1.1358551 2.2369566 -0.21614657 15
-1.1291683 2.2247493 -0.12831803 12
-1.1301291 2.2276056 -0.042503979 12
-1.1401032 2.2482381 0.66473162 13
-1.1473131 2.2634349 0.57656324 11
-1.159761 2.2889829 0.49089199 10
-1.1440929 2.2590373 0.39456171 9
-1.1223102 2.2169864 0.30040792 9
-1.1372285 2.2474291 0.2170178 12
-1.1328115 2.2396708 0.12953149 14
-1.1202475 2.2157903 0.042671129 12
-0.86965036 1.7246053 -0.50728554 8
-0.99301779 1.9701109 -0.50051636 7
-1.1302714 2.2433908 -0.48040724 17
-1.1189421 2.2218695 -0.38795781 9
-1.1306655 2.246124 -0.30406433 8
-1.1254097 2.236655 -0.21571079 15
-1.1187631 2.2244122 -0.12805721 12
-1.1197114 2.2272661 -0.042417586 13
-1.1275181 2.2437701 0.66214514 14
-1.1346357 2.2589171 0.57431537 11
-1.1513636 2.2932181 0.49089199 10
-1.1335903 2.2588015 0.39378041 9
-1.1119518 2.2166493 0.29979858 9
-1.1267509 2.2471297 0.21658202 12
-1.1245953 2.2438076 0.12953149 15
-1.1098795 2.2154117 0.042583872 12
-0.86362505 1.7276304 -0.50728554 8
-0.98613483 1.9735651 -0.50051636 7
-1.1202404 2.2429316 -0.47945404 16
-1.1089737 2.2213433 -0.38717562 9
-1.1228181 2.250057 -0.30406433 16
-1.1153723 2.2361128 -0.21527502 14
-1.1087637 2.2238352 -0.12779641 12
-1.1097002 2.2266867 -0.0423312 12
-1.1175253 2.2433693 0.66085184 14
-1.1224004 2.2541413 0.57206756 12
-1.1389778 2.288435 0.48898563 10
-1.123499 2.258323 0.39299908 9
-1.1019977 2.2160733 0.29918921 8
-1.1189002 2.251049 0.21658202 12
-1.1145344 2.243248 0.12926981 14
-1.0999159 2.2147949 0.042496607 12
-0.85728717 1.7307842 -0.50728554 7
-0.97889471 1.9771663 -0.50051636 8
-1.1120121 2.2470224 -0.47945404 16
-1.0986351 2.2209666 -0.38639346 9
-1.1145637 2.2541573 -0.30406433 13
-1.1049621 2.2357204 -0.21483923 15
-1.0983939 2.2234075 -0.1275356 11
-1.0993179 2.2262564 -0.042244807 12
-1.10502 2.2387881 0.65826535 15
-1.1098199 2.2495017 0.56981981 12
-1.1284118 2.288192 0.4880324 11
-1.1152143 2.2624257 0.39299908 9
-1.0916747 2.215646 0.2985799 8
-1.1084415 2.2506664 0.21614625 11
-1.1040996 2.2428381 0.12900813 14
-1.0873765 2.2098403 0.042322084 12
-0.84911186 1.7294309 -0.50599146 7
-0.97198719 1.9805712 -0.50051636 8
-1.1020001 2.2464836 -0.47850087 15
-1.0887016 2.2203538 -0.38561127 9
-1.1045045 2.2535777 -0.30345502 13
-1.09496 2.235091 -0.21440347 14
-1.0884302 2.222744 -0.1272748 12
-1.0893426 2.2255902 -0.042158417 12
-1.095076 2.2382934 0.65697211 11
-1.0976802 2.2446084 0.567572 13
-1.1161065 2.2832975 0.48612604 11
-1.1051422 2.2618678 0.39221779 8
-1.0817561 2.2149837 0.29797053 8
-1.0983933 2.2500458 0.21571046 11
-1.0940744 2.2421908 0.12874645 14
-1.0774585 2.2091317 0.042234819 12
-0.84095651 1.7280416 -0.50469732 7
-0.9650678 1.983952 -0.50051636 8
-1.0920055 2.2459023 -0.47754765 14
-1.0787859 2.2196989 -0.3848291 8
-1.0966313 2.2574196 -0.30345502 13
-1.0849756 2.2344184 -0.21396768 15
-1.0784844 2.2220373 -0.12701398 12
-1.0793849 2.2248812 -0.042072024 11
-1.0830413 2.2334104 0.65438563 12
-1.0877134 2.2440424 0.56644809 14
-1.1017092 2.2739282 0.48326644 12
-1.0950874 2.2612665 0.39143646 9
-1.0740178 2.2187462 0.29797053 7
-1.0883632 2.2493827 0.21527469 11
-1.086241 2.2459962 0.12874645 14
-1.0675708 2.2083757 0.042147558 12
-0.83491939 1.7309666 -0.50469732 7
-0.95813662 1.9873086 -0.50051636 8
-1.0820284 2.2452791 -0.47659451 14
-1.0688878 2.219002 -0.38404691 9
-1.0865918 2.2567623 -0.30284566 13
-1.0750093 2.2337039 -0.21353191 15
-1.0685569 2.2212889 -0.12675317 11
-1.0694456 2.2241299 -0.041985635 11
-1.0731465 2.2328243 0.65309232 12
-1.075654 2.2390425 0.56420028 10
-1.0895156 2.2689106 0.48136008 10
-1.0850506 2.2606232 0.39065516 9
-1.0641197 2.2180076 0.2973612 7
-1.0783508 2.2486765 0.21483891 11
-1.0762361 2.2452717 0.12848477 14
-1.0576955 2.2075803 0.042060297 12
-0.83303803 1.7425851 -0.50728554 6
-0.95119375 1.990641 -0.50051636 8
-1.0720688 2.2446132 -0.47564128 13
-1.059008 2.2182629 -0.38326478 9
-1.0765704 2.2560627 -0.30223632 13
-1.0672058 2.237443 -0.21353191 15
-1.0586479 2.2204981 -0.12649237 12
-1.0595249 2.2233365 -0.041899245 12
-1.0632689 2.2321961 0.65179914 12
-1.0657374 2.2383845 0.56307638 11
-1.0752615 2.2594042 0.47850055 11
-1.0750314 2.259937 0.38987383 8
-1.0563709 2.2217085 0.2973612 7
-1.0704949 2.2524271 0.21483891 11
-1.0662496 2.2445047 0.12822309 14
-1.0478389 2.206743 0.041973036 12
-0.82695025 1.7454823 -0.50728554 6
-0.94423932 1.9939492 -0.50051636 7
-1.0621272 2.2439053 -0.47468811 12
-1.0491464 2.2174821 -0.38248259 9
-1.0665669 2.2553203 -0.30162695 13
-1.0572604 2.2366512 -0.21309611 15
-1.0487573 2.2196653 -0.12623155 12
-1.0496225 2.2225006 -0.041812852 12
-1.0534087 2.2315264 0.65050584 12
-1.0558383 2.2376847 0.56195247 11
-1.0631807 2.2542651 0.47659415 11
-1.0650305 2.2592089 0.38909256 8
-1.0464939 2.2208931 0.29675183 6
-1.0605036 2.2516439 0.21440314 11
-1.0562816 2.2436955 0.12796141 14
-1.0380008 2.2058635 0.041885771 12
-0.82290488 1.75273 -0.50857961 5
-0.93520373 1.9928229 -0.49939165 8
-1.0522037 2.2431552 -0.47373492 11
-1.0413995 2.2211306 -0.38248259 9
-1.0565821 2.2545362 -0.30101761 13
-1.0473338 2.2358177 -0.21266034 14
-1.0388855 2.2187905 -0.12597075 12
-1.0397391 2.2216232 -0.041726466 12
-1.0435665 2.2308152 0.64921266 13
-1.0438938 2.2325299 0.55970466 11
-1.0532271 2.2535157 0.47564095 11
-1.0550475 2.2584383 0.38831124 7
-1.0366354 2.2200356 0.29614249 6
-1.0505308 2.2508185 0.21396735 10
-1.0463321 2.2428439 0.12769973 14
-1.0281819 2.2049427 0.04179851 12
-0.8167817 1.7555919 -0.50857961 4
-0.92824185 1.9960752 -0.49939165 7
-1.0422982 2.2423637 -0.47278175 11
-1.0315592 2.2202737 -0.38170043 9
-1.0466155 2.2537093 -0.30040827 13
-1.0374258 2.234942 -0.21222456 14
-1.0290326 2.2178741 -0.12570994 12
-1.0298746 2.2207036 -0.041640073 12
-1.0337417 2.230062 0.64791936 13
-1.0340462 2.2317398 0.55858076 12
-1.041229 2.2482708 0.47373459 11
-1.045083 2.2576258 0.38752994 8
-1.0267957 2.2191367 0.29553315 6
-1.0426676 2.2544718 0.21396735 10
-1.0364015 2.2419503 0.12743805 14
-1.018382 2.20398 0.041711248 12
-0.80862659 1.7540462 -0.50728554 4
-0.92126858 1.9993032 -0.49939165 7
-1.030358 2.237072 -0.47087535 11
-1.0217375 2.2193749 -0.38091823 9
-1.0366677 2.2528405 -0.29979894 13
-1.0275365 2.234024 -0.21178877 15
-1.0212845 2.2214525 -0.12570994 12
-1.0200291 2.2197425 -0.041553684 11
-1.0239352 2.2292681 0.64662611 13
-1.0242169 2.2309079 0.55745685 12
-1.0313277 2.2474308 0.47278142 12
-1.0351371 2.2567711 0.38674861 8
-1.016975 2.2181962 0.29492378 6
-1.0327166 2.2535696 0.21353158 10
-1.0264901 2.2410147 0.12717636 14
-1.0086014 2.2029762 0.041623987 11
-0.80249888 1.7568581 -0.50728554 4
-0.91630739 2.0069385 -0.50051636 7
-1.020505 2.2361896 -0.46992216 11
-1.0119345 2.2184348 -0.38013604 9
-1.0267385 2.25193 -0.29918957 13
-1.0176666 2.2330649 -0.211353 14
-1.0114541 2.2204599 -0.12544914 11
-1.010203 2.2187397 -0.041467294 12
-1.0141468 2.2284327 0.64533287 13
-1.0144061 2.2300346 0.55633295 13
-1.0194134 2.2420809 0.47087502 12
-1.0252099 2.2558746 0.38596731 8
-1.0071733 2.2172143 0.29431444 6
-1.0227847 2.2526255 0.21309578 10
-1.0165977 2.2400372 0.12691469 13
-1.0009055 2.2064834 0.041623987 12
-0.79636145 1.7596487 -0.50728554 4
-0.90929627 2.0101247 -0.50051636 8
-1.0106708 2.235266 -0.46896899 12
-1.0021509 2.2174535 -0.37935388 9
-1.0168287 2.2509778 -0.29858023 13
-1.0078157 2.2320638 -0.2109172 14
-1.0016432 2.2194259 -0.12518832 12
-1.0003964 2.2176955 -0.041380905 12
-1.0043766 2.2275562 0.64403963 13
-1.0046138 2.2291203 0.55520904 13
-1.0095649 2.2411504 0.46992183 13
-1.0153016 2.2549365 0.38518599 8
-0.99739099 2.2161906 0.29370511 6
-1.0128719 2.2516391 0.21266001 9
-1.0067247 2.2390182 0.126653 13
-0.99114794 2.2054038 0.041536722 12
-0.79219019 1.7668247 -0.50857961 4
-0.90227413 2.0132866 -0.50051636 9
-0.99884909 2.2298214 -0.46706262 11
-0.99440444 2.2209382 -0.37935388 9
-1.0069377 2.2499835 -0.29797086 13
-0.99798441 2.2310216 -0.21048145 15
-0.99185187 2.2183506 -0.12492751 12
-0.99264908 2.221174 -0.041380905 12
-0.99462503 2.2266386 0.64274633 13
-0.9948402 2.2281644 0.55408514 12
-0.99773502 2.2356963 0.46801546 13
-1.0074242 2.2584665 0.38518599 9
-0.98964888 2.2196589 0.29370511 6
-1.0029784 2.2506113 0.21222423 9
-0.99890292 2.2425187 0.126653 14
-0.98141032 2.204283 0.041449465 11
-0.78797853 1.773993 -0.50987375 3
-0.8952409 2.0164237 -0.50051636 9
-0.98906845 2.2288079 -0.4661094 11
-0.98464352 2.2198815 -0.37857169 9
-0.9990778 2.2534847 -0.29797086 12
-0.98817259 2.2299376 -0.21004565 14
-0.98208004 2.2172337 -0.1246667 11
-0.98286587 2.2200541 -0.041294511 11
-0.98489213 2.2256804 0.64145315 13
-0.98508573 2.2271681 0.55296123 13
-0.98595566 2.2301869 0.46610907 11
-0.99753857 2.2574525 0.38440469 9
-0.97988987 2.2185602 0.29309577 6
-0.99511629 2.2540987 0.21222423 9
-0.98905325 2.2414238 0.12639134 13
-0.97370994 2.2076952 0.041449465 12
-0.78372645 1.7811534 -0.51116782 3
-0.88819689 2.0195365 -0.50051636 9
-0.97930735 2.2277536 -0.46515623 11
-0.97490209 2.2187839 -0.37778956 9
-0.98721451 2.2478707 -0.29675218 12
-0.9783805 2.2288125 -0.20960988 14
-0.97232836 2.2160761 -0.1244059 12
-0.97310263 2.2188931 -0.041208126 11
-0.97517794 2.2246809 0.64015985 13
-0.9753502 2.2261307 0.55183733 13
-0.97619593 2.2291191 0.4651559 11
-0.98767203 2.2563963 0.38362336 10
-0.97015041 2.2174206 0.2924864 5
-0.98524624 2.2529948 0.21178845 9
-0.97922343 2.2402873 0.12612964 13
-0.96399617 2.2064996 0.0413622 12
-0.77912188 1.7884417 -0.5124619 3
-0.87884408 2.0183117 -0.49939165 8
-0.96917689 2.2268276 -0.46420303 11
-0.96479332 2.2178135 -0.37700737 9
-0.97896898 2.2514739 -0.29675218 13
-0.96821958 2.2278152 -0.2091741 14
-0.96220994 2.215045 -0.12414508 11
-0.96297234 2.217859 -0.041121732 11
-0.9650948 2.2238097 0.6388666 14
-0.96718448 2.2296903 0.55183733 13
-0.96606666 2.2281787 0.4642027 11
-0.97743171 2.25547 0.38284209 9
-0.96004409 2.2164075 0.29187706 5
-0.975003 2.2520201 0.21135268 8
-0.96902275 2.2392788 0.12586798 13
-0.95391792 2.2054298 0.041274939 12
-0.77287424 1.7911505 -0.5124619 3
-0.87179345 2.0213673 -0.49939165 7
-0.95945472 2.2256894 -0.4632498 11
-0.95509166 2.2166324 -0.3762252 9
-0.96914089 2.2503192 -0.29614282 13
-0.95846778 2.2266064 -0.20873833 14
-0.95249879 2.2138038 -0.12388428 11
-0.95324969 2.2166145 -0.041035343 12
-0.95541888 2.2227275 0.63757336 13
-0.95554912 2.2241001 0.54958951 14
-0.95440954 2.2225173 0.46229634 11
-0.96760482 2.2543299 0.38206074 10
-0.95034498 2.2151845 0.29126769 5
-0.96517307 2.2508318 0.21091689 8
-0.95923328 2.2380581 0.12560628 12
-0.94423902 2.2041533 0.041187678 11
-0.76851529 1.7982786 -0.51375604 3
-0.86473227 2.0243981 -0.49939165 7
-0.95167983 2.2290251 -0.4632498 11
-0.94541001 2.2154105 -0.37544301 9
-0.95933282 2.2491238 -0.29553348 13
-0.95068961 2.2299385 -0.20873833 14
-0.94280791 2.2125213 -0.12362346 11
-0.94354743 2.2153289 -0.040948953 12
-0.94576263 2.2216053 0.63628012 14
-0.94587219 2.2229393 0.54846561 13
-0.94664568 2.2258351 0.46229634 12
-0.95779777 2.2531488 0.38127947 10
-0.94066608 2.2139208 0.29065838 5
-0.95536327 2.2496023 0.21048112 8
-0.9494642 2.2367969 0.12534462 13
-0.93654543 2.2074332 0.041187678 11
-0.76035094 1.7965024 -0.5124619 3
-0.85576236 2.022917 -0.49826688 8
-0.94198179 2.2278128 -0.46229663 11
-0.93574864 2.2141485 -0.37466085 9
-0.94954497 2.2478871 -0.29492414 13
-0.94096243 2.2286546 -0.20830254 14
-0.93313777 2.2111988 -0.12336266 11
-0.93580872 2.2186089 -0.040948953 11
-0.9361257 2.2204425 0.63498682 13
-0.93621492 2.2217374 0.5473417 14
-0.93696505 2.2246025 0.46134311 12
-0.9480108 2.2519267 0.38049814 10
-0.9310075 2.2126164 0.29004902 5
-0.94557381 2.248332 0.21004534 8
-0.93971556 2.2354946 0.12508292 12
-0.92689788 2.2060802 0.041100416 11
-0.75407541 1.7991456 -0.5124619 3
-0.84869581 2.0258918 -0.49826688 8
-0.93230373 2.2265596 -0.46134344 11
-0.92610753 2.2128458 -0.37387866 9
-0.93977749 2.2466097 -0.2943148 12
-0.93317729 2.2319255 -0.20830254 14
-0.92541355 2.2144425 -0.12336266 11
-0.9261319 2.2172494 -0.040862564 11
-0.92650843 2.2192395 0.63369364 14
-0.92845392 2.2249918 0.5473417 14
-0.92730474 2.2233298 0.46038994 12
-0.93824393 2.2506635 0.37971681 11
-0.92136973 2.211272 0.28943968 5
-0.93771994 2.2516191 0.21004534 8
-0.92998767 2.2341514 0.12482125 11
-0.9191916 2.2093022 0.041100416 11
-0.74779058 1.8017669 -0.5124619 3
-0.84161896 2.028842 -0.49826688 7
-0.92452592 2.2298005 -0.46134344 11
-0.91648698 2.2115028 -0.3730965 9
-0.93003035 2.2452915 -0.29370543 13
-0.92347544 2.2305675 -0.20786677 14
-0.91576874 2.2130454 -0.12310185 11
-0.91647589 2.2158487 -0.040776171 11
-0.91691101 2.2179966 0.63240033 14
-0.91882104 2.2237165 0.5462178 14
-0.91766453 2.2220161 0.45943674 12
-0.92849773 2.2493601 0.37893552 11
-0.91175252 2.209887 0.28883031 5
-0.92795569 2.2502739 0.20960957 8
-0.92218339 2.2373841 0.12482125 12
-0.9095698 2.2078748 0.041013151 11
-0.73966092 1.799899 -0.51116782 3
-0.83453184 2.0317674 -0.49826688 7
-0.91487283 2.2284739 -0.46039027 11
-0.90688699 2.2101195 -0.3723143 9
-0.92030418 2.243933 -0.2930961 12
-0.91379428 2.2291684 -0.20743097 15
-0.90803814 2.2162285 -0.12310185 12
-0.90873551 2.2190344 -0.040776171 11
-0.90916312 2.2211838 0.63240033 14
-0.90920848 2.2224009 0.54509389 14
-0.90804505 2.2206628 0.45848358 12
-0.91877192 2.2480159 0.37815419 12
-0.90215635 2.208462 0.288221 6
-0.92009515 2.2534995 0.20960957 8
-0.91248119 2.2359662 0.12455957 11
-0.90185738 2.2110362 0.041013151 11
-0.73337364 1.80247 -0.51116782 3
-0.82926995 2.0391812 -0.49939165 6
-0.90524024 2.2271066 -0.45943707 11
-0.89730793 2.2086964 -0.37153217 9
-0.91059858 2.2425332 -0.29248673 12
-0.90413439 2.2277293 -0.20699522 14
-0.89841974 2.2147579 -0.12284105 11
-0.89910573 2.2175601 -0.040689785 11
-0.89959031 2.2198677 0.63110709 15
-0.89961618 2.2210453 0.54396999 14
-0.90028793 2.223819 0.45848358 13
-0.90906686 2.2466314 0.37737289 12
-0.89258122 2.2069969 0.28761163 7
-0.91035658 2.2520792 0.20917377 7
-0.90467066 2.2391379 0.12455957 11
-0.89226192 2.2095356 0.04092589 10
-0.72707731 1.8050189 -0.51116782 3
-0.82214683 2.0420637 -0.49939165 6
-0.89746064 2.230253 -0.45943707 10
-0.88774997 2.2072334 -0.37074998 9
-0.90091413 2.2410936 -0.29187742 12
-0.89635265 2.2308717 -0.20699522 14
-0.89068329 2.2178805 -0.12284105 11
-0.88949722 2.2160454 -0.040603392 11
-0.8900376 2.2185116 0.62981385 14
-0.89004463 2.2196503 0.54284608 15
-0.89069378 2.2223918 0.45753035 13
-0.89938271 2.2452064 0.37659156 12
-0.88302726 2.205492 0.2870023 7
-0.90063936 2.2506192 0.208738 7
-0.89499491 2.2376463 0.12429789 11
-0.88454384 2.2126367 0.04092589 10
-0.72077221 1.8075459 -0.51116782 3
-0.81501371 2.0449209 -0.49939165 7
-0.88785368 2.2288122 -0.4584839 11
-0.87821317 2.2057309 -0.36996782 9
-0.89125079 2.2396138 -0.29126805 13
-0.88671911 2.2293587 -0.20655942 14
-0.88109142 2.216336 -0.12258023 10
-0.88175642 2.2191367 -0.040603392 10
-0.88050544 2.2171161 0.62852055 15
-0.8822912 2.2227435 0.54284608 15
-0.8811208 2.2209253 0.45657721 14
-0.88971967 2.2437415 0.37581027 13
-0.8753233 2.2085609 0.2870023 8
-0.88910878 2.2444873 0.20786645 7
-0.88717854 2.2407568 0.12429789 10
-0.87497532 2.2110622 0.040838629 10
-0.71445829 1.8100507 -0.51116782 4
-0.80787057 2.0477533 -0.49939165 7
-0.87826777 2.2273319 -0.45753068 12
-0.86869752 2.2041883 -0.36918563 9
-0.88342774 2.2427113 -0.29126805 12
-0.87710708 2.2278056 -0.20612365 14
-0.87152117 2.2147517 -0.12231942 11
-0.87217498 2.2175488 -0.040517002 11
-0.87276089 2.2201762 0.62852055 14
-0.87274534 2.2212751 0.54172218 15
-0.87336296 2.2239873 0.45657721 13
-0.8800776 2.2422361 0.37502894 13
-0.86579621 2.2069829 0.28639293 7
-0.87945044 2.2429399 0.20743066 6
-0.87752956 2.2391911 0.12403621 9
-0.86542881 2.2094483 0.040751368 11
-0.70813572 1.8125337 -0.51116782 4
-0.80071771 2.050561 -0.49939165 6
-0.87048763 2.2303839 -0.45753068 12
-0.86099821 2.2072072 -0.36918563 9
-0.8737911 2.2411575 -0.29065871 12
-0.86932528 2.2308538 -0.20612365 14
-0.86378497 2.2177804 -0.12231942 11
-0.86261541 2.2159209 -0.040430613 10
-0.86325449 2.218708 0.62722731 15
-0.86322051 2.2197671 0.54059827 15
-0.86381632 2.2224476 0.45562398 13
-0.86866868 2.2360876 0.37346631 14
-0.85629094 2.2053657 0.28578362 8
-0.86981374 2.2413526 0.20699489 6
-0.86790234 2.2375851 0.12377454 10
-0.85590398 2.2077944 0.040664103 10
-0.70354623 1.8194991 -0.5124619 3
-0.79355502 2.0533435 -0.49939165 6
-0.86092824 2.2288301 -0.45657751 13
-0.85150975 2.2055922 -0.36840346 9
-0.86417598 2.2395637 -0.29004934 12
-0.85974056 2.2292273 -0.20568787 14
-0.85424227 2.2161231 -0.12205861 11
-0.85307795 2.2142537 -0.040344223 10
-0.85376883 2.2172005 0.62593406 15
-0.85371679 2.2182198 0.53947437 15
-0.85429108 2.2208683 0.45467082 14
-0.85908592 2.2344968 0.37268505 11
-0.84680742 2.2037084 0.28517425 8
-0.86198461 2.2443752 0.20699489 6
-0.86008644 2.2406011 0.12377454 10
-0.8481921 2.2107685 0.040664103 10
-0.69719076 1.8219439 -0.5124619 3
-0.78464222 2.0515504 -0.49826688 6
-0.8513903 2.2272372 -0.45562431 13
-0.84380561 2.2085512 -0.36840346 9
-0.85635322 2.2425668 -0.29004934 12
-0.85017771 2.2275612 -0.2052521 14
-0.84472173 2.214426 -0.12179781 11
-0.84356248 2.2125466 -0.04025783 11
-0.8460241 2.2201672 0.62593406 15
-0.84423459 2.2166336 0.53835046 15
-0.84478742 2.2192495 0.45371762 13
-0.84776849 2.2282503 0.37112242 11
-0.83734596 2.2020123 0.28456491 8
-0.85237545 2.2427144 0.20655911 6
-0.85048687 2.2389219 0.12351285 10
-0.83869553 2.2090421 0.040576845 9
-0.69082671 1.8243665 -0.5124619 3
-0.77747619 2.0542769 -0.49826688 6
-0.84187418 2.2256048 -0.45467114 13
-0.83434474 2.2068636 -0.36762127 9
-0.84676594 2.2409003 -0.28944001 12
-0.84239686 2.2305152 -0.2052521 14
-0.83522344 2.2126896 -0.12153699 11
-0.83583409 2.2154777 -0.04025783 10
-0.83656514 2.2185876 0.62464082 15
-0.83477372 2.2150075 0.53722656 15
-0.8370356 2.2221849 0.45371762 14
-0.83824527 2.2265742 0.37034109 11
-0.8296544 2.204922 0.28456491 9
-0.84454167 2.245676 0.20655911 6
-0.84266645 2.2418771 0.12351285 9
-0.83097941 2.2119563 0.040576845 9
-0.68445432 1.8267667 -0.5124619 3
-0.77030075 2.0569782 -0.49826688 7
-0.83237958 2.2239327 -0.45371795 13
-0.82663625 2.2097626 -0.36762127 9
-0.83893853 2.2438424 -0.28944001 11
-0.8328622 2.2287762 -0.20481631 13
-0.82574761 2.2109141 -0.12127619 11
-0.82634735 2.2136986 -0.040171444 10
-0.8288157 2.2214944 0.62464082 15
-0.8270368 2.2179081 0.53722656 16
-0.82755953 2.2204938 0.45276445 14
-0.82874417 2.224859 0.36955979 11
-0.82022119 2.2031534 0.28395554 9
-0.83496064 2.243942 0.20612334 6
-0.83309525 2.2401249 0.12325118 9
-0.82151133 2.2101574 0.04048958 9
-0.67775428 1.8292632 -0.5124619 3
-0.76275629 2.0597878 -0.49826688 9
-0.82422286 2.2269688 -0.45371795 13
-0.8168183 2.2081461 -0.36683914 8
-0.82898778 2.2422471 -0.28883067 11
-0.82296139 2.2271419 -0.20438054 14
-0.81763864 2.2139258 -0.12127619 10
-0.81822824 2.2167122 -0.040171444 10
-0.81899625 2.2199857 0.62334752 15
-0.81721675 2.2163534 0.53610265 12
-0.81771821 2.2189064 0.45181125 14
-0.8188771 2.2232468 0.36877847 12
-0.8121407 2.2061448 0.28395554 9
-0.82501066 2.2423127 0.20568755 6
-0.82315588 2.238477 0.12298949 9
-0.81340516 2.2131536 0.04048958 9
-0.67136478 1.8316178 -0.5124619 3
-0.75556171 2.0624378 -0.49826688 9
-0.81475675 2.2252233 -0.45276478 13
-0.80910546 2.210984 -0.36683914 10
-0.81945115 2.2404666 -0.28822133 11
-0.81347203 2.2253227 -0.20394474 14
-0.80819213 2.2120764 -0.12101538 11
-0.8087706 2.214859 -0.040085051 9
-0.80958617 2.2182939 0.62205434 16
-0.80780572 2.2146156 0.53497875 13
-0.80828679 2.2171361 0.45085809 14
-0.80942082 2.221452 0.36799717 12
-0.80273682 2.2043035 0.28334624 9
-0.81547499 2.2404983 0.20525178 6
-0.81533712 2.2413368 0.12298949 9
-0.80396044 2.2112834 0.040402319 9
-0.66496718 1.8339502 -0.5124619 3
-0.74835783 2.0650625 -0.49826688 9
-0.80531275 2.2234387 -0.45181155 12
-0.79970181 2.209151 -0.36605695 9
-0.80993712 2.2386465 -0.28761196 11
-0.80569929 2.2281487 -0.20394474 14
-0.80046564 2.214884 -0.12101538 11
-0.80103439 2.2176685 -0.040085051 10
-0.80019796 2.2165635 0.62076104 16
-0.79841673 2.2128389 0.53385484 13
-0.79887742 2.2153265 0.44990486 15
-0.80166161 2.2242639 0.36799717 12
-0.79503751 2.207092 0.28334624 10
-0.8076492 2.2433312 0.20525178 6
-0.80581784 2.239471 0.12272782 8
-0.79455119 2.2093694 0.040315058 8
-0.65693098 1.831714 -0.51116782 3
-0.74114484 2.0676622 -0.49826688 6
-0.79589128 2.2216156 -0.45085838 13
-0.79032081 2.2072797 -0.36527479 8
-0.80211782 2.2414601 -0.28761196 12
-0.79623926 2.2262576 -0.20350897 13
-0.79104865 2.2129629 -0.12075458 10
-0.79160649 2.2157435 -0.039998662 9
-0.79245585 2.2193432 0.62076104 15
-0.7890501 2.2110238 0.53273094 13
-0.78949076 2.2134788 0.44895169 15
-0.79223424 2.2223964 0.36721584 12
-0.78566283 2.2051787 0.28273687 10
-0.79814267 2.2414443 0.20481598 6
-0.79799575 2.24227 0.12272782 8
-0.78515887 2.2074196 0.040227797 8
-0.65053314 1.8339961 -0.51116782 3
-0.73392284 2.0702367 -0.49826688 5
-0.78649235 2.2197537 -0.44990519 12
-0.78096265 2.2053697 -0.3644926 9
-0.79263306 2.2395682 -0.28700262 12
-0.78846329 2.2290235 -0.20350897 14
-0.78165483 2.2110031 -0.12049376 10
-0.78220177 2.2137794 -0.039912272 9
-0.78309578 2.2175417 0.61946785 15
-0.78132737 2.2137644 0.53273094 12
-0.78012663 2.2115922 0.44799849 15
-0.78282982 2.2204909 0.36643454 13
-0.77631128 2.2032273 0.28212753 11
-0.78865927 2.2395186 0.20438023 7
-0.78850615 2.2403319 0.12246613 8
-0.77578986 2.2054307 0.040140532 7
-0.64412731 1.8362556 -0.51116782 3
-0.7266919 2.0727859 -0.49826688 5
-0.77873915 2.2224855 -0.44990519 12
-0.77162749 2.2034216 -0.36371043 9
-0.78481066 2.2423213 -0.28700262 11
-0.77903306 2.2270603 -0.20307319 14
-0.77228439 2.2090044 -0.12023295 10
-0.77446944 2.2164962 -0.039912272 9
-0.77535027 2.2202616 0.61946785 15
-0.7719897 2.2118785 0.53160703 13
-0.77078545 2.2096677 0.44704533 16
-0.77507412 2.2232099 0.36643454 13
-0.76698297 2.2012372 0.28151816 12
-0.78083712 2.2422581 0.20438023 6
-0.78068113 2.2430706 0.12246613 7
-0.76808673 2.2081254 0.040140532 7
-0.63771367 1.8384929 -0.51116782 3
-0.71945208 2.07531 -0.49826688 7
-0.7693696 2.2205524 -0.44895202 12
-0.76231551 2.2014351 -0.36292824 9
-0.77535558 2.2403572 -0.28639328 11
-0.7696262 2.2250588 -0.20263742 14
-0.76293737 2.2069676 -0.11997214 10
-0.76509517 2.2144611 -0.039825883 9
-0.76601899 2.2183893 0.61817455 15
-0.76426411 2.21456 0.53160703 13
-0.7630676 2.2123446 0.44704533 12
-0.76569951 2.2212329 0.36565322 13
-0.75929457 2.2039011 0.28151816 12
-0.7713837 2.2402601 0.20394443 7
-0.77122188 2.241061 0.12220446 7
-0.75874823 2.2060657 0.040053267 7
-0.63129222 1.8407077 -0.51116782 3
-0.71220356 2.0778086 -0.49826688 10
-0.76161373 2.2232246 -0.44895202 11
-0.75302678 2.1994104 -0.36214611 9
-0.76592392 2.2383547 -0.28578395 12
-0.76024282 2.2230186 -0.20220163 14
-0.75361413 2.2048924 -0.11971132 10
-0.75574452 2.2123873 -0.03973949 8
-0.75671029 2.2164791 0.61688131 15
-0.75495577 2.2126029 0.53048313 13
-0.75375623 2.2103491 0.44609213 12
-0.75794125 2.2238922 0.36565322 13
-0.74999672 2.2018404 0.28090885 12
-0.76195383 2.238224 0.20350866 8
-0.76339442 2.2437394 0.12220446 7
-0.75104302 2.2087007 0.040053267 7
-0.626414 1.8474739 -0.5124619 3
-0.70651001 2.0848963 -0.49939165 11
-0.7522741 2.2212207 -0.44799879 12
-0.74534482 2.2020257 -0.36214611 9
-0.75810599 2.2410147 -0.28578395 12
-0.75247842 2.2256589 -0.20220163 14
-0.74591303 2.2075098 -0.11971132 10
-0.74801725 2.2150118 -0.03973949 8
-0.74742413 2.2145305 0.61558807 15
-0.74567068 2.2106085 0.52935922 13
-0.74446809 2.2083158 0.44513896 12
-0.74859697 2.2218442 0.36487195 14
-0.74230629 2.2044451 0.28090885 12
-0.75254762 2.2361493 0.20307288 8
-0.75396585 2.2416577 0.12194277 7
-0.74173576 2.2065701 0.03996601 6
-0.61996126 1.8496493 -0.5124619 3
-0.69922799 2.0873499 -0.49939165 10
-0.74451596 2.2238331 -0.44799879 11
-0.73608673 2.1999304 -0.36136392 8
-0.74870485 2.2389407 -0.28517458 11
-0.74312609 2.2235482 -0.20176587 14
-0.7366209 2.205364 -0.11945052 10
-0.74028087 2.2176094 -0.03973949 8
-0.73816097 2.2125444 0.61429483 16
-0.73794961 2.2131977 0.52935922 14
-0.73520333 2.2062442 0.44418573 12
-0.74083674 2.2244439 0.36487195 14
-0.73303944 2.2023139 0.28029948 12
-0.74473739 2.2387624 0.20307288 8
-0.74456114 2.2395375 0.1216811 7
-0.73402888 2.2091458 0.03996601 7
-0.61501998 1.8563868 -0.51375604 3
-0.69193751 2.0897779 -0.49939165 8
-0.73520684 2.2217586 -0.44704565 11
-0.72840309 2.2024865 -0.36136392 9
-0.74088484 2.2415404 -0.28517458 12
-0.73379755 2.2213988 -0.20133008 13
-0.72735298 2.2031803 -0.11918971 10
-0.73253542 2.22018 -0.03973949 8
-0.73043323 2.2151077 0.61429483 16
-0.73021966 2.2157602 0.52935922 14
-0.72749764 2.2087972 0.44418573 12
-0.73152328 2.2223253 0.36409062 14
-0.72534746 2.2048593 0.28029948 12
-0.73536241 2.2366168 0.20263711 9
-0.73518044 2.2373793 0.12141941 7
-0.72475326 2.2069447 0.039878745 7
-0.60853624 1.8585223 -0.51375604 3
-0.68463868 2.0921805 -0.49939165 6
-0.72592127 2.2196462 -0.44609243 11
-0.72071046 2.2050157 -0.36136392 9
-0.73151499 2.2393956 -0.28456524 11
-0.72603899 2.2239468 -0.20133008 14
-0.71965796 2.2057059 -0.11918971 9
-0.72323126 2.2179704 -0.0396531 7
-0.72120011 2.2130518 0.61300153 15
-0.72097194 2.2136631 0.52823532 13
-0.71826392 2.2066562 0.44323257 13
-0.7237615 2.2248652 0.36409062 14
-0.71611226 2.2026582 0.27969012 12
-0.72601146 2.2344327 0.20220132 9
-0.72736609 2.2399321 0.12141941 7
-0.71550208 2.2047064 0.039791483 6
-0.602045 1.8606352 -0.51375604 3
-0.67583233 2.0899217 -0.49826688 5
-0.71665949 2.2174964 -0.44513926 11
-0.71149135 2.2028186 -0.36058176 8
-0.72369355 2.2419355 -0.28456524 11
-0.71674216 2.2217271 -0.20089431 13
-0.71042204 2.2034521 -0.11892891 10
-0.71548468 2.2204814 -0.0396531 7
-0.7134707 2.2155557 0.61300153 16
-0.71324044 2.2161665 0.52823532 13
-0.71055686 2.2091498 0.44323257 13
-0.71447957 2.2226768 0.36330932 14
-0.70690131 2.2004197 0.27908078 13
-0.7166847 2.2322109 0.20176555 10
-0.71801728 2.2377031 0.12115774 7
-0.70780182 2.2071905 0.039791483 6
-0.59701729 1.8673255 -0.51505011 3
-0.66853297 2.0922682 -0.49826688 5
-0.70891464 2.2199843 -0.44513926 11
-0.7037977 2.2052889 -0.36058176 8
-0.71435529 2.2397196 -0.28395587 12
-0.70898253 2.2242153 -0.20089431 13
-0.70272624 2.2059186 -0.11892891 9
-0.7077294 2.2229655 -0.0396531 7
-0.70426816 2.2134302 0.61170834 16
-0.70402378 2.2139995 0.52711141 13
-0.70135444 2.2069387 0.44227937 13
-0.70671666 2.225157 0.36330932 15
-0.69921613 2.2028737 0.27908078 12
-0.70888853 2.234699 0.20176555 10
-0.70869297 2.235436 0.12089606 7
-0.69858295 2.2048819 0.039704222 6
-0.59049547 1.8693981 -0.51505011 3
-0.6612255 2.094589 -0.49826688 5
-0.69968426 2.2177644 -0.44418606 11
-0.69461042 2.2030222 -0.35979956 8
-0.70504141 2.2374666 -0.28334656 11
-0.69971806 2.2219257 -0.20045851 13
-0.69352287 2.2035952 -0.11866809 10
-0.69846553 2.2206535 -0.039566711 7
-0.69653755 2.2158749 0.61170834 16
-0.69629121 2.2164435 0.52711141 13
-0.69364661 2.2093735 0.44227937 13
-0.69746649 2.222898 0.362528 14
-0.69003743 2.2005656 0.27847141 13
-0.69959408 2.2324069 0.20132977 11
-0.69939315 2.2331312 0.12063438 8
-0.68938899 2.2025361 0.039616961 5
-0.58396643 1.8714479 -0.51505011 3
-0.65245968 2.0922337 -0.49714214 5
-0.69193852 2.2201934 -0.44418606 11
-0.68544769 2.2007184 -0.35901737 9
-0.69722694 2.2399139 -0.28334656 12
-0.69195789 2.2243545 -0.20045851 13
-0.68582666 2.2060027 -0.11866809 9
-0.68922645 2.2183039 -0.039480317 6
-0.68736619 2.2136803 0.61041504 15
-0.68710619 2.2142072 0.52598751 14
-0.68447638 2.2070935 0.4413262 13
-0.68970287 2.2253191 0.362528 15
-0.68235183 2.2029607 0.27847141 13
-0.69179732 2.2348351 0.20132977 11
-0.69011807 2.2307889 0.1203727 8
-0.68021977 2.2001526 0.039529696 5
-0.57743031 1.873475 -0.51505011 3
-0.64515251 2.0944984 -0.49714214 5
-0.68274045 2.2179041 -0.44323289 11
-0.67776155 2.2030976 -0.35901737 9
-0.68794549 2.2375903 -0.2827372 11
-0.68272626 2.2219951 -0.20002273 13
-0.67665642 2.2036099 -0.11840729 8
-0.68001235 2.2159171 -0.039393932 6
-0.67821878 2.2114487 0.6091218 16
-0.67937297 2.2165923 0.52598751 13
-0.67533046 2.2047758 0.440373 13
-0.68048543 2.222991 0.3617467 15
-0.67320621 2.2005839 0.2778621 13
-0.68253583 2.2324731 0.200894 12
-0.68086797 2.2284091 0.12011101 8
-0.6710757 2.1977324 0.039442439 5
-0.57088715 1.8754792 -0.51505011 3
-0.63641942 2.0920765 -0.49601737 5
-0.67356658 2.2155778 -0.44227967 10
-0.66863161 2.2007251 -0.35823521 9
-0.67868882 2.2352295 -0.28212786 11
-0.67496592 2.2243648 -0.20002273 13
-0.66896027 2.2059586 -0.11840729 9
-0.67082316 2.2134929 -0.039307538 6
-0.67049521 2.2138028 0.6091218 16
-0.67022014 2.2142873 0.5248636 14
-0.6676302 2.2071199 0.440373 13
-0.67129242 2.2206254 0.36096537 15
-0.66552061 2.2029204 0.2778621 14
-0.67329919 2.2300737 0.20045821 11
-0.6716429 2.225992 0.11984934 8
-0.67061645 2.2239933 0.039878745 5
-0.56155652 1.8682101 -0.5124619 3
-0.62911284 2.0942852 -0.49601737 5
-0.66441745 2.2132144 -0.4413265 10
-0.65952641 2.1983151 -0.35745302 8
-0.67088223 2.2375851 -0.28212786 11
-0.66719729 2.2267072 -0.20002273 12
-0.66125596 2.2082803 -0.11840729 8
-0.6616593 2.2110317 -0.039221149 6
-0.66137964 2.2115021 0.60782856 16
-0.66248673 2.2166133 0.5248636 14
-0.65851724 2.2047341 0.43941984 13
-0.66212445 2.2182229 0.36018407 15
-0.65640825 2.2004743 0.27725273 14
-0.66408765 2.2276368 0.20002241 12
-0.66244298 2.2235372 0.11958765 8
-0.66712886 2.240695 0.040140532 55
-0.55365765 1.8655288 -0.51116782 4
-0.62179863 2.0964684 -0.49601737 5
-0.65668786 2.2155201 -0.4413265 10
-0.6504463 2.195869 -0.35667089 8
-0.66165882 2.2351546 -0.28151849 11
-0.65942055 2.2290227 -0.20002273 12
-0.65354353 2.2105749 -0.11840729 9
-0.6553539 2.218122 -0.039307538 6
-0.65365595 2.2137971 0.60782856 15
-0.65336633 2.2142391 0.5237397 13
-0.65081722 2.2070193 0.43941984 13
-0.65298134 2.2157836 0.35940275 15
-0.64872319 2.2027521 0.27725273 14
-0.65490133 2.225163 0.19958664 11
-0.6532684 2.221046 0.11932597 7
-0.66353279 2.2573991 0.040402319 58
nan nan nan 0
-0.61584586 2.103302 -0.49714214 5
-0.6475718 2.213088 -0.4403733 10
-0.64139116 2.1933861 -0.35588869 9
-0.6538527 2.2374506 -0.28151849 11
-0.65023953 2.2265298 -0.19958696 12
-0.6430254 2.2032564 -0.11788567 6
-0.64900702 2.2251956 -0.039393932 5
-0.64457297 2.2114286 0.60653532 15
-0.64563322 2.2165062 0.5237397 14
-0.64173746 2.204565 0.43846661 13
-0.64386326 2.2133071 0.35862142 16
-0.63964486 2.2002378 0.2766434 13
-0.64713007 2.2274354 0.19958664 13
-0.64551151 2.2233129 0.11932597 10
-0.65286285 2.2500992 0.040227797 58
nan nan nan 0
-0.60985279 2.1101191 -0.49826688 4
-0.63848072 2.2106194 -0.43942013 9
-0.63510048 2.2003565 -0.35667089 8
-0.64603853 2.2397194 -0.28151849 12
-0.64246351 2.228786 -0.19958696 11
-0.63671285 2.2102857 -0.11814647 6
-0.64261866 2.2322516 -0.039480317 13
-0.6368497 2.2136652 0.60653532 16
-0.63654613 2.2140644 0.52261579 13
-0.63268274 2.2020738 0.43751341 13
-0.63613349 2.2155411 0.35862142 15
-0.63059193 2.1976869 0.27603403 15
-0.63797796 2.2248929 0.19915086 12
-0.63637131 2.2207525 0.11906429 9
-0.64225191 2.2427521 0.040053267 60
-0.53409189 1.8712243 -0.51116782 4
-0.60381979 2.1169202 -0.49939165 4
-0.62941486 2.2081144 -0.43846694 10
-0.62741596 2.2025599 -0.35667089 16
-0.63685781 2.2371876 -0.28090915 10
-0.63331676 2.2262242 -0.19915117 12
-0.6180703 2.1740716 -0.11606 8
-0.63618892 2.23929 -0.039566711 10
-0.62779945 2.2112284 0.60524201 16
-0.62748384 2.2115858 0.52149189 15
-0.62499219 2.2042689 0.43751341 14
-0.62704962 2.2129967 0.35784012 16
-0.62291676 2.1998746 0.27603403 14
-0.63020772 2.2271061 0.19915086 10
-0.62861556 2.2229605 0.11906429 9
-0.63305986 2.2401693 0.03996601 60
-0.52493817 1.8637798 -0.50857961 4
-0.59642667 2.119015 -0.49939165 4
-0.62037426 2.2055731 -0.43751371 10
-0.62106007 2.2094908 -0.35745302 13
-0.62770247 2.2346191 -0.28029981 11
-0.62419569 2.2236254 -0.1987154 11
-0.6158722 2.1954463 -0.11710324 7
-0.6283685 2.241497 -0.039566711 10
-0.62007701 2.2134063 0.60524201 16
-0.61844665 2.2090709 0.52036798 14
-0.61597174 2.2017105 0.43656024 13
-0.61932105 2.2151721 0.35784012 12
-0.61389858 2.1972561 0.27542472 13
-0.62109041 2.2244952 0.19871509 12
-0.61951023 2.2203314 0.11880261 11
-0.6238935 2.2375498 0.039878745 61
nan nan nan 0
-0.58902627 2.121084 -0.49939165 4
-0.61135906 2.2029955 -0.43656054 10
-0.61334372 2.2116451 -0.35745302 13
-0.61857307 2.2320142 -0.27969044 10
-0.61510056 2.2209904 -0.1982796 10
-0.6135323 2.2168319 -0.11814647 7
-0.6192078 2.2388585 -0.039480317 9
-0.61106038 2.210902 0.60394883 16
-0.60943472 2.2065201 0.51924407 14
-0.60828257 2.2038472 0.43656024 14
-0.61027175 2.2125597 0.35705879 12
-0.60622495 2.1993856 0.27542472 15
-0.61332172 2.2266495 0.19871509 11
-0.61043096 2.2176664 0.11854094 10
-0.61342746 2.2300739 0.039704222 63
nan nan nan 0
-0.5803315 2.1184282 -0.49826688 4
-0.60366547 2.2051163 -0.43656054 9
-0.60561997 2.2137728 -0.35745302 12
-0.60946941 2.2293727 -0.27908111 10
-0.60603148 2.2183192 -0.19784385 12
nan nan nan 0
-0.61138892 2.2410064 -0.039480317 8
-0.6033392 2.2130218 0.60394883 16
-0.60172886 2.2086339 0.51924407 14
-0.59929651 2.201221 0.43560702 12
-0.6012482 2.2099111 0.35627753 13
-0.59724194 2.1966991 0.27481535 15
-0.60423952 2.2239702 0.19827931 13
-0.60268611 2.2197835 0.11854094 12
-0.6043303 2.2273767 0.039616961 63
nan nan nan 0
-0.57293326 2.120441 -0.49826688 4
-0.59468502 2.2024713 -0.43560734 9
-0.59788871 2.2158732 -0.35745302 13
-0.60039175 2.2266948 -0.27847174 10
-0.5969885 2.2156117 -0.19740805 12
-0.60323393 2.2403471 -0.11918971 13
-0.60226369 2.2382994 -0.039393932 8
-0.59435648 2.2104499 0.60265553 15
-0.59275138 2.2060158 0.51812023 14
-0.59160918 2.2032995 0.43560702 14
-0.59225059 2.2072265 0.3554962 13
-0.58957034 2.1987705 0.27481535 16
-0.59518361 2.2212546 0.19784354 14
-0.59364247 2.2170508 0.11827926 12
-0.59396714 2.2198141 0.039442439 59
nan nan nan 0
-0.56427372 2.1177206 -0.49714214 5
-0.58699334 2.2045338 -0.43560734 10
-0.58888042 2.2131743 -0.35667089 13
-0.59261543 2.2287769 -0.27847174 11
-0.58925098 2.2176821 -0.19740805 12
-0.59156591 2.2279611 -0.11840729 11
-0.59316474 2.2355559 -0.039307538 9
-0.58663696 2.2125113 0.60265553 15
-0.58504736 2.2080715 0.51812023 13
-0.58265847 2.2006066 0.43465388 13
-0.58327913 2.2045059 0.3547149 11
-0.5818916 2.2008152 0.27481535 15
-0.58742642 2.2233186 0.19784354 12
-0.58462524 2.2142818 0.11801757 12
-0.5849396 2.2170398 0.039355174 58
nan nan nan 0
-0.55687809 2.1196775 -0.49714214 5
-0.57804811 2.2018218 -0.43465418 9
-0.57989818 2.2104397 -0.35588869 13
-0.58357352 2.2260318 -0.27786243 11
-0.580244 2.2149072 -0.19697228 10
-0.58125615 2.2203517 -0.11788567 10
-0.58409238 2.2327764 -0.039221149 8
-0.57768869 2.2098727 0.60136229 15
-0.57733613 2.2101004 0.51812023 14
-0.57497334 2.2026272 0.43465388 14
-0.57433391 2.2017498 0.35393357 13
-0.57295406 2.1980309 0.27420601 14
-0.57840633 2.220535 0.19740775 14
-0.57689244 2.2163091 0.11801757 12
-0.57593864 2.2142301 0.039267913 58
-0.47730914 1.8416383 -0.49952096 4
-0.54947561 2.1216083 -0.49714214 4
-0.57035887 2.2038262 -0.43465418 9
-0.57217878 2.2124503 -0.35588869 13
-0.57579964 2.2280555 -0.27786243 9
-0.57250899 2.2169192 -0.19697228 11
-0.56851155 2.203028 -0.11684243 10
-0.57629502 2.2348015 -0.039221149 9
-0.56876612 2.2071986 0.60006905 16
-0.56840301 2.2073839 0.51699626 14
-0.5660581 2.1998672 0.43370065 14
-0.56664485 2.2037413 0.35393357 12
-0.56527805 2.2000175 0.27420601 15
-0.57065171 2.2225406 0.19740775 13
-0.56791162 2.2134726 0.1177559 13
-0.56696445 2.2113843 0.039180648 59
-0.49119896 1.9228424 -0.52152056 3
-0.54206651 2.1235135 -0.49714214 4
-0.56144941 2.2010477 -0.43370095 9
-0.56323266 2.2096488 -0.35510653 12
-0.5667938 2.2252424 -0.27725306 10
-0.56353837 2.214077 -0.1965365 11
-0.56451035 2.2195163 -0.11762486 9
-0.56725907 2.2319543 -0.039134759 8
-0.56105804 2.2091706 0.60006905 15
-0.5606944 2.2093546 0.51699626 14
-0.55837566 2.2018297 0.43370065 13
-0.55894893 2.2057059 0.35393357 12
-0.55637681 2.1971662 0.27359664 16
-0.56289011 2.2245193 0.19740775 14
-0.56018174 2.2154417 0.1177559 13
-0.55801719 2.208503 0.03909339 62
nan nan nan 0
-0.53465074 2.1253927 -0.49714214 4
-0.55256635 2.1982341 -0.43274778 10
-0.55551606 2.2116013 -0.35510653 12
-0.55902278 2.2272072 -0.27725306 12
-0.5558064 2.2160306 -0.1965365 11
-0.55554545 2.21663 -0.11736406 10
-0.55946469 2.2339208 -0.039134759 9
-0.55217075 2.2064302 0.5987758 16
-0.55179685 2.2065716 0.51587236 13
-0.54949653 2.1990035 0.43274748 14
-0.55124617 2.2076435 0.35393357 12
-0.54750246 2.1942799 0.27298734 16
-0.55391669 2.2216375 0.19697198 13
-0.55244499 2.2173836 0.1177559 12
-0.54909694 2.205586 0.039006125 61
nan nan nan 0
-0.5268572 2.1273379 -0.49714214 4
-0.54450572 2.2002447 -0.43274778 10
-0.54622096 2.2088287 -0.35432434 13
-0.54966539 2.2244234 -0.27664372 10
-0.5476805 2.2180529 -0.1965365 9
-0.54861355 2.2234988 -0.11762486 9
-0.55007648 2.2311025 -0.03904837 10
-0.54408002 2.2084394 0.5987758 16
-0.54370564 2.2085793 0.51587236 13
-0.5414331 2.2010026 0.43274748 14
-0.54197222 2.2048533 0.35315228 11
-0.53945637 2.1962719 0.27298734 15
-0.54458296 2.2188153 0.1965362 14
-0.54312479 2.2145438 0.11749421 13
-0.53981948 2.2027285 0.038918864 65
nan nan nan 0
-0.5205828 2.1338968 -0.49826688 4
-0.53565955 2.1973629 -0.43179458 10
-0.5385074 2.2107217 -0.35432434 13
-0.54189742 2.2263286 -0.27664372 11
-0.5387575 2.215111 -0.19610073 10
-0.53966951 2.2205484 -0.11736406 9
-0.54110533 2.2281508 -0.038961977 11
-0.53522879 2.2056313 0.5974825 15
-0.53484488 2.205729 0.51474845 14
-0.53259099 2.1981089 0.43179429 14
-0.53427255 2.2067318 0.35315228 12
-0.53061974 2.1933179 0.27237797 15
-0.53683454 2.2207029 0.1965362 16
-0.53539127 2.2164261 0.11749421 12
-0.53094774 2.1997411 0.038831603 67
nan nan nan 0
-0.51313096 2.1357012 -0.49826688 4
-0.52798611 2.1992195 -0.43179458 10
-0.52963519 2.2077858 -0.35354218 14
-0.53296596 2.2233806 -0.27603436 11
-0.53102207 2.2169783 -0.19610073 10
-0.53191507 2.2224188 -0.11736406 8
-0.5333243 2.230026 -0.038961977 11
-0.52752644 2.2074859 0.5974825 16
-0.52601063 2.2028437 0.51362455 14
-0.52491498 2.1999545 0.43179429 14
-0.52542096 2.2037792 0.35237095 14
-0.52181029 2.1903293 0.27176863 16
-0.52792609 2.2177176 0.19610043 15
-0.52649581 2.2134242 0.11723254 14
-0.52211642 2.1967158 0.038744342 13
nan nan nan 0
-0.50567281 2.1374793 -0.49826688 4
-0.52030617 2.2010491 -0.43179458 9
-0.52192539 2.2096212 -0.35354218 12
-0.52406162 2.2203975 -0.27542502 11
-0.52213675 2.2139702 -0.19566494 10
-0.52300882 2.2194018 -0.11710324 9
-0.52439106 2.2270083 -0.038875591 11
-0.51871151 2.2046127 0.59618932 16
-0.51720303 2.1999235 0.51250064 14
-0.51611 2.1969953 0.43084112 14
-0.51659662 2.2007921 0.35158965 13
-0.51416141 2.1921375 0.27176863 16
-0.51904505 2.2146976 0.19566463 15
-0.51876634 2.2152486 0.11723254 14
-0.5133062 2.1936572 0.038657077 13
nan nan nan 0
-0.49820855 2.1392314 -0.49826688 4
-0.51261991 2.2028518 -0.43179458 10
-0.51420921 2.2114296 -0.35354218 14
-0.51630783 2.2222133 -0.27542502 11
-0.51440543 2.2157795 -0.19566494 9
-0.51525849 2.2212141 -0.11710324 8
-0.51548529 2.2239549 -0.038789198 12
-0.51101285 2.2064099 0.59618932 16
-0.50952071 2.2017155 0.51250064 14
-0.50843787 2.1987834 0.43084112 14
-0.50891131 2.2025821 0.35158965 14
-0.50538987 2.1890831 0.27115926 16
-0.51131117 2.2164958 0.19566463 16
-0.50990897 2.2121801 0.11697085 15
-0.50564581 2.1954355 0.038657077 15
-0.43725637 1.9061029 -0.51375604 3
-0.49073821 2.1409574 -0.49826688 4
-0.5049274 2.2046278 -0.43179458 9
-0.50538504 2.2083969 -0.35275999 12
-0.50854772 2.2240019 -0.27542502 11
-0.50666773 2.2175615 -0.19566494 8
-0.50639057 2.2181313 -0.11684243 8
-0.50660729 2.2208667 -0.038702808 12
-0.50223458 2.2034712 0.59489602 17
-0.5007503 2.1987302 0.51137674 14
-0.5007596 2.2005448 0.43084112 14
-0.50012475 2.1995294 0.35080832 13
-0.49664602 2.1859946 0.27054995 16
-0.50357103 2.218267 0.19566463 16
-0.50107938 2.2090771 0.11670918 15
-0.49687424 2.1923118 0.038569819 15
-0.4295367 1.9029064 -0.5124619 4
-0.48219007 2.1379051 -0.49714214 4
-0.49614972 2.2015889 -0.43084142 10
-0.49767318 2.2101476 -0.35275999 13
-0.49969199 2.2209218 -0.27481568 11
-0.49892393 2.2193165 -0.19566494 8
-0.49864477 2.2198853 -0.11684243 8
-0.49775708 2.2177436 -0.038616419 13
-0.49453998 2.2052109 0.59489602 17
-0.49307227 2.2004647 0.51137674 14
-0.49200284 2.1974897 0.42988792 14
-0.49244392 2.2012618 0.35080832 13
-0.48901245 2.1877148 0.27054995 16
-0.49473903 2.2151499 0.19522887 13
-0.49336526 2.2108128 0.11670918 15
-0.48921862 2.1940327 0.038569819 15
-0.41975078 1.8902497 -0.50857961 3
-0.47472444 2.1395752 -0.49714214 4
-0.4884617 2.2033074 -0.43084142 10
-0.48888731 2.2070498 -0.35197783 13
-0.49193648 2.2226524 -0.27481568 10
-0.49009854 2.2161815 -0.19522917 8
-0.48981553 2.2167368 -0.11658162 9
-0.48893493 2.214586 -0.038530029 11
-0.48683932 2.2069237 0.59489602 17
-0.48433954 2.1974149 0.51025283 14
-0.48432919 2.1991937 0.42988792 15
-0.48369575 2.198144 0.35002702 13
-0.48030722 2.1845615 0.26994058 17
-0.48700368 2.2168636 0.19522887 13
-0.48457456 2.2076445 0.11644749 16
-0.48048609 2.1908441 0.038482554 16
-0.41315004 1.8917035 -0.50857961 3
-0.46829164 2.1459789 -0.49826688 4
-0.47972208 2.2002029 -0.42988822 10
-0.48118028 2.2087431 -0.35197783 12
-0.48311952 2.2195072 -0.27420634 11
-0.48235962 2.2178786 -0.19522917 8
-0.48207471 2.2184329 -0.11658162 8
-0.48014084 2.2113936 -0.038443636 11
-0.47810873 2.2038894 0.59360272 17
-0.47666618 2.1990921 0.51025283 14
-0.4756107 2.196074 0.42893475 14
-0.47601986 2.1998191 0.35002702 13
-0.47163004 2.1813743 0.26933125 16
-0.47821066 2.2136812 0.19479308 13
-0.47581202 2.204442 0.11618582 12
-0.47283569 2.1925077 0.038482554 16
-0.40654421 1.8931341 -0.50857961 3
-0.46079797 2.1476004 -0.49826688 3
-0.47203901 2.2018642 -0.42988822 11
-0.47243303 2.2055802 -0.35119566 13
-0.47536904 2.22118 -0.27420634 11
-0.47461486 2.2195487 -0.19522917 8
-0.47432798 2.2201021 -0.11658162 9
-0.47137505 2.2081671 -0.03835725 12
-0.47041282 2.2055447 0.59360272 17
-0.4679715 2.1959774 0.50912893 14
-0.46794212 2.197721 0.42893475 14
-0.46731052 2.1966367 0.3492457 14
-0.46401274 2.1830072 0.26933125 17
-0.46944582 2.210465 0.19435731 14
-0.46707776 2.201205 0.11592413 12
-0.46517953 2.194145 0.038482554 17
-0.39993349 1.8945417 -0.50857961 3
-0.4532986 2.1491959 -0.49826688 3
-0.46333811 2.1986959 -0.42893505 10
-0.46473122 2.2072158 -0.35119566 13
-0.46761277 2.2228258 -0.27420634 11
-0.46686429 2.2211919 -0.19522917 8
-0.4665755 2.2217443 -0.11658162 10
-0.46263763 2.2049062 -0.038270857 12
-0.46172023 2.2024465 0.59230953 16
-0.45930448 2.1928291 0.50800502 14
-0.46026778 2.1993411 0.42893475 14
-0.45963997 2.1982546 0.3492457 14
-0.45638978 2.1846137 0.26933125 17
-0.46172702 2.21209 0.19435731 14
-0.45837188 2.1979339 0.11566246 13
-0.45751768 2.1957552 0.038482554 17
-0.39233685 1.8911972 -0.50728554 3
-0.44579378 2.1507652 -0.49826688 3
-0.45566043 2.2002997 -0.42893505 10
-0.45702377 2.2088246 -0.35119566 13
-0.45884612 2.2195845 -0.27359697 11
-0.45910805 2.2228081 -0.19522917 7
