# .PCD v0.7 - Point Cloud Data file format
VERSION 0.7
FIELDS x y z intensity
SIZE 4 4 4 4
TYPE F F F F
COUNT 1 1 1 1
WIDTH 1374
HEIGHT 1
VIEWPOINT 0 0 0 1 0 0 0
POINTS 1374
DATA ascii
2.5489669 -1.3359683 -0.44974947 14
2.5567074 -1.3405942 -0.34976539 12
2.5481026 -1.3366493 -0.24839425 30
2.5319302 -1.3287294 -0.14735709 27
2.5347302 -1.330763 -0.048810463 29
2.526731 -1.3271259 0.75396603 27
2.5353353 -1.3322099 0.65186483 29
2.5276484 -1.3287338 0.54713005 25
2.5296845 -1.3303677 0.44612822 25
2.5328734 -1.3326092 0.34671828 30
2.5374184 -1.3355659 0.24752231 29
2.5388858 -1.3369042 0.14837244 30
2.5284388 -1.3319668 0.049215782 26
1.6824387 -0.88817543 -0.49952096 4
1.9250166 -1.0166641 -0.49376786 7
2.3122101 -1.2216699 -0.50042421 5
2.5486538 -1.3471655 -0.4505316 15
2.5520122 -1.3495106 -0.34976539 13
2.5478241 -1.347865 -0.24883004 29
2.5316899 -1.339895 -0.14761789 29
2.5344872 -1.341942 -0.048896853 30
2.526351 -1.3381984 0.75525928 27
2.5349746 -1.343333 0.65298879 29
2.5273316 -1.3398479 0.54808331 24
2.5293882 -1.3415037 0.44690952 25
2.5282063 -1.3414425 0.34671828 30
2.5371406 -1.3467504 0.24795809 30
2.5386136 -1.3481002 0.14863411 27
2.5281889 -1.3431301 0.049303047 25
1.6791722 -0.89433593 -0.49952096 4
1.9255772 -1.0260041 -0.49489263 6
2.3033855 -1.2278275 -0.49947101 6
2.5436993 -1.3564978 -0.4505316 14
2.5514276 -1.3611912 -0.35037476 13
2.547261 -1.3595394 -0.2492658 30
2.5311666 -1.351517 -0.14787871 27
2.5339615 -1.3535779 -0.048983242 27
2.5256891 -1.3497256 0.75655258 29
2.5343304 -1.3549122 0.65411264 28
2.522404 -1.349102 0.54808331 26
2.5288086 -1.3530953 0.44769084 25
2.527648 -1.3530416 0.34732762 31
2.5365787 -1.3583919 0.24839386 30
2.5380566 -1.3597536 0.1488958 27
2.5232491 -1.3523874 0.049303047 26
1.6760401 -0.90019184 -0.49952096 4
1.9219841 -1.0327193 -0.49489263 5
2.2947624 -1.2335365 -0.49851784 6
2.5432978 -1.3677075 -0.45131379 14
2.5510306 -1.3724401 -0.3509841 13
2.5424998 -1.3684227 -0.2492658 29
2.5308299 -1.3627114 -0.14813951 25
2.5292213 -1.3624147 -0.048983242 29
2.525214 -1.3608248 0.75784576 27
2.5338738 -1.3660624 0.6552366 28
2.5219989 -1.3602285 0.54903644 24
2.5284164 -1.3642594 0.44847211 25
2.5272765 -1.3642141 0.34793696 30
2.5362041 -1.3696047 0.24882965 29
2.5376878 -1.370978 0.14915746 26
2.5273089 -1.3659408 0.04947757 24
1.6728877 -0.90603685 -0.49952096 5
1.9183675 -1.0394219 -0.49489263 4
2.2861273 -1.2392 -0.49756464 7
2.5428493 -1.3789312 -0.45209596 14
2.5462246 -1.3813366 -0.3509841 13
2.5420854 -1.3796654 -0.24970159 30
2.5304458 -1.37392 -0.14840032 27
2.5288429 -1.3736212 -0.049069632 28
2.5246921 -1.3719373 0.75913906 27
2.5333705 -1.377226 0.65636045 28
2.5215476 -1.3713688 0.54998964 23
2.527977 -1.3754371 0.44925344 24
2.5268581 -1.3754001 0.3485463 30
2.5357823 -1.3808315 0.24926542 30
2.5328867 -1.3798279 0.14915746 28
2.5269151 -1.3771467 0.049564831 26
1.6697148 -0.91187078 -0.49952096 5
1.9147276 -1.0461119 -0.49489263 4
2.2817876 -1.2471726 -0.49756464 7
2.5380204 -1.3877989 -0.45209596 14
2.5457413 -1.3925979 -0.35159346 13
2.5416236 -1.3909217 -0.25013736 29
2.5300143 -1.3851422 -0.14866114 26
2.5284176 -1.3848418 -0.049156025 29
2.5241234 -1.3830626 0.7604323 25
2.53282 -1.3884026 0.65748441 29
2.5210488 -1.3825223 0.55094284 25
2.5274899 -1.3866284 0.45003474 24
2.5263922 -1.3865999 0.34915566 29
2.5353131 -1.3920718 0.2497012 30
2.5324314 -1.391065 0.14941916 28
2.526474 -1.3883666 0.049652096 26
1.6665215 -0.91769361 -0.49952096 5
1.9110643 -1.0527892 -0.49489263 4
2.2731218 -1.2527609 -0.49661148 7
2.5374856 -1.3990343 -0.45287815 14
2.5452101 -1.4038725 -0.35220277 13
2.5411139 -1.4021916 -0.25057316 27
2.5295353 -1.3963784 -0.14892195 27
2.5279443 -1.396076 -0.049242411 29
2.5235078 -1.3942008 0.76172554 28
2.532222 -1.3995919 0.65860826 28
2.5205028 -1.3936892 0.55189604 26
2.5269558 -1.3978332 0.45081607 24
2.5258789 -1.3978131 0.349765 30
2.534796 -1.4033258 0.25013697 29
2.5319281 -1.4023154 0.14968082 25
2.5216122 -1.3971772 0.049652096 23
1.663308 -0.92350525 -0.49952096 5
1.9073777 -1.0594536 -0.49489263 4
2.2687349 -1.2606879 -0.49661148 7
2.5369029 -1.4102827 -0.45366031 14
2.5446315 -1.4151604 -0.35281214 13
2.5405564 -1.4134748 -0.25100893 29
2.5290082 -1.4076278 -0.14918275 27
2.5274236 -1.4073237 -0.049328804 29
2.5228453 -1.4053513 0.76301885 28
2.5315771 -1.4107944 0.65973222 29
2.5199099 -1.404869 0.55284917 25
2.5263741 -1.4090508 0.45159736 23
2.5296516 -1.4114577 0.35098368 30
2.5342314 -1.4145932 0.25057277 29
2.5313771 -1.4135793 0.14994252 29
2.5210843 -1.4084089 0.049739353 25
1.6599121 -0.92959541 -0.49952096 4
1.8992313 -1.064056 -0.49376786 4
2.2640991 -1.2689948 -0.49661148 7
2.5360246 -1.4219868 -0.4544425 14
2.5437555 -1.4269053 -0.35342148 12
2.5397027 -1.4252145 -0.2514447 27
2.5281861 -1.4193321 -0.14944357 26
2.5266073 -1.4190258 -0.049415193 26
2.5218883 -1.4169544 0.76431209 24
2.5306363 -1.4224508 0.66085607 29
2.5147438 -1.4140954 0.55284917 23
2.5254972 -1.4207225 0.45237869 22
2.5287864 -1.4231539 0.35159305 29
2.5333698 -1.4263157 0.25100854 31
2.5305297 -1.4252983 0.15020418 28
2.5202606 -1.4200938 0.049826618 26
1.6566571 -0.93538392 -0.49952096 5
1.8955055 -1.0706792 -0.49376786 4
2.2596557 -1.2768903 -0.49661148 7
2.5310454 -1.4308305 -0.4544425 15
2.5430791 -1.4382191 -0.35403085 13
2.5390472 -1.4365238 -0.25188047 28
2.5275614 -1.4306079 -0.14970437 25
2.5259891 -1.4303 -0.049501583 27
2.5211294 -1.4281294 0.76560533 26
2.5256555 -1.4312757 0.66085607 28
2.5140624 -1.4252856 0.55380243 25
2.5248182 -1.4319657 0.45315999 23
2.5281196 -1.4344213 0.35220239 31
2.5327075 -1.437609 0.25144431 28
2.529881 -1.4365884 0.15046588 26
2.5196316 -1.4313575 0.049913879 24
1.6493485 -0.93848401 -0.49822688 5
1.8921325 -1.0766288 -0.49376786 4
2.2556331 -1.2839829 -0.49661148 7
2.5308292 -1.4412187 -0.45522466 15
2.5428603 -1.4486578 -0.35464019 12
2.5388494 -1.4469599 -0.25231627 28
2.5230546 -1.4385414 -0.14970437 24
2.5258255 -1.4407053 -0.049587972 27
2.5208251 -1.4384364 0.76689857 26
2.5253778 -1.4416186 0.66198003 29
2.5138342 -1.4356107 0.55475557 25
2.5245953 -1.4423405 0.45394132 23
2.5279093 -1.4448192 0.35281172 29
2.5325027 -1.4480308 0.25188008 28
2.5296893 -1.4470083 0.15072754 25
2.519465 -1.4417435 0.050001144 23
1.6462274 -0.94394827 -0.49822688 5
1.8883629 -1.083227 -0.49376786 4
2.2511375 -1.2918487 -0.49661148 7
2.5300655 -1.4525028 -0.45600685 13
2.5420916 -1.4599969 -0.35524952 13
2.5337832 -1.4558133 -0.25231627 28
2.5223472 -1.4498281 -0.14996518 25
2.5294487 -1.4544975 -0.049760751 26
2.5199752 -1.4496354 0.76819187 26
2.5245533 -1.4528552 0.66310394 28
2.5130615 -1.446826 0.55570877 23
2.5238247 -1.453609 0.45472261 23
2.5271504 -1.456112 0.35342106 29
2.5317481 -1.4593496 0.25231588 29
2.5332742 -1.4608184 0.1512509 26
2.5187473 -1.4530272 0.050088402 22
1.6427565 -0.94997561 -0.49822688 5
1.8843799 -1.0901409 -0.49376786 4
2.2463875 -1.3000908 -0.49661148 7
2.5289989 -1.4642407 -0.45678899 13
2.5410178 -1.4717917 -0.35585886 12
2.5327399 -1.4675874 -0.25275204 27
2.5213358 -1.4615673 -0.15022598 24
2.5284255 -1.4662666 -0.049847145 26
2.5188227 -1.4612854 0.76948506 27
2.5234249 -1.4645441 0.66422778 29
2.5119865 -1.4584914 0.55666196 24
2.5227504 -1.46533 0.45550394 22
2.5260875 -1.4678581 0.35403043 28
2.5306885 -1.4711225 0.25275165 27
2.5322192 -1.4726037 0.15151259 24
2.5220468 -1.4672771 0.050262928 23
1.6394305 -0.95570415 -0.49822688 5
1.8805631 -1.096712 -0.49376786 4
2.2460752 -1.3103976 -0.49756464 6
2.5281374 -1.475549 -0.45757118 13
2.5358648 -1.4806525 -0.35585886 12
2.5319028 -1.4789317 -0.25318784 28
2.5205302 -1.4728788 -0.1504868 25
2.5276077 -1.4776065 -0.049933534 28
2.5178759 -1.4725072 0.77077836 27
2.5225027 -1.4758037 0.66535175 28
2.5111163 -1.4697305 0.55761516 23
2.5218818 -1.4766223 0.45628521 22
2.5209486 -1.4766668 0.35403043 28
2.5298355 -1.4824656 0.25318745 27
2.5313709 -1.4839588 0.15177426 25
2.5212224 -1.4786009 0.050350189 23
1.6402483 -0.96386784 -0.49952096 4
1.8767235 -1.1032697 -0.49376786 4
2.2414873 -1.3182298 -0.49756464 6
2.5272276 -1.486869 -0.45835334 13
2.5349579 -1.4920126 -0.35646823 12
2.5310171 -1.4902878 -0.2536236 28
2.5196755 -1.4842024 -0.1507476 25
2.5267415 -1.4889586 -0.050019924 27
2.5168812 -1.4837399 0.7720716 27
2.5215323 -1.4870749 0.66647559 26
2.5101979 -1.4809811 0.5585683 23
2.5209651 -1.4879267 0.45706654 21
2.5200517 -1.4879807 0.35463977 31
2.5289338 -1.4938204 0.25362322 26
2.5304742 -1.4953262 0.15203595 24
2.520349 -1.4899365 0.05043745 24
1.6368737 -0.9695875 -0.49952096 4
1.8728609 -1.1098139 -0.49376786 4
2.236872 -1.326046 -0.49756464 6
2.5220222 -1.4956816 -0.45835334 13
2.5340021 -1.5033844 -0.35707757 12
2.5300827 -1.5016561 -0.25405937 27
2.5187728 -1.495538 -0.15100841 24
2.5258269 -1.5003225 -0.050106313 25
2.5158389 -1.4949838 0.77336484 26
2.520514 -1.4983573 0.66759956 28
2.5092316 -1.4922431 0.55952156 24
2.52 -1.4992424 0.45784783 22
2.5191071 -1.4993066 0.35524914 29
2.5279839 -1.5051873 0.25405899 27
2.5295291 -1.5067054 0.15229762 24
2.5194275 -1.5012842 0.050524715 23
1.6334794 -0.97529531 -0.49952096 4
1.8689756 -1.1163447 -0.49376786 4
2.2322297 -1.3338461 -0.49756464 6
2.5210249 -1.5070099 -0.45913553 13
2.5329983 -1.5147676 -0.35768694 12
2.5333745 -1.5155929 -0.25493094 27
2.5178213 -1.5068849 -0.15126921 24
2.5248635 -1.5116982 -0.050192706 26
2.5147483 -1.5062383 0.77465808 25
2.5194473 -1.5096505 0.6687234 28
2.5082173 -1.5035163 0.56047469 22
2.5189869 -1.5105698 0.45862916 23
2.5181139 -1.5106437 0.35585845 28
2.5269849 -1.5165656 0.25449476 27
2.5285349 -1.518096 0.15255931 24
2.5184572 -1.5126436 0.050611973 23
1.630065 -0.98099124 -0.49952096 4
1.8650674 -1.1228619 -0.49376786 4
2.2317648 -1.3441625 -0.49851784 7
2.5199788 -1.5183493 -0.45991769 12
2.536196 -1.5287241 -0.35890561 12
2.5323341 -1.5269989 -0.25536671 26
2.5168216 -1.5182438 -0.15153003 24
2.5238516 -1.5230854 -0.050279092 26
2.5136101 -1.5175035 0.77595139 26
2.518333 -1.5209546 0.66984737 27
2.5071549 -1.5148008 0.56142789 21
2.517925 -1.5219079 0.45941046 22
2.5170722 -1.5219923 0.35646781 27
2.525938 -1.5279553 0.25493056 27
2.5274923 -1.5294981 0.15282097 23
2.5174384 -1.5240144 0.050699238 23
1.6266307 -0.98667526 -0.49952096 4
1.8611364 -1.1293653 -0.49376786 4
2.2270594 -1.3519446 -0.49851784 6
2.5231059 -1.5322634 -0.46148208 12
2.5350859 -1.5401446 -0.35951498 12
2.531245 -1.538416 -0.25580251 25
2.5200396 -1.5322081 -0.15205164 24
2.5227909 -1.534484 -0.050365485 25
2.5124235 -1.528779 0.77724457 25
2.5171702 -1.5322691 0.67097121 27
2.5060444 -1.5260961 0.56238109 22
2.5168149 -1.5332572 0.46019179 21
2.5159817 -1.5333518 0.35707715 26
2.5248418 -1.539356 0.25536633 26
2.5264008 -1.5409114 0.15308267 24
2.5163708 -1.5353963 0.050786499 21
1.6231767 -0.9923473 -0.49952096 4
1.857183 -1.135855 -0.49376786 3
2.2265131 -1.3622717 -0.49947101 6
2.5219538 -1.5436394 -0.46226421 10
2.5339265 -1.5515758 -0.36012432 12
2.5301068 -1.549844 -0.25623828 24
2.5189333 -1.5436043 -0.15231246 24
2.5216813 -1.5458938 -0.050451875 26
2.5111895 -1.5400648 0.77853787 26
2.5159588 -1.5435942 0.67209518 26
2.5048852 -1.537402 0.56333429 22
2.5156562 -1.5446174 0.46097311 22
2.514843 -1.5447224 0.35768652 27
2.5236969 -1.5507677 0.25580209 27
2.5210066 -1.5497208 0.15308267 25
2.5152545 -1.5467896 0.050873764 22
1.6155912 -0.99547368 -0.49822688 4
1.8490597 -1.1397746 -0.49264312 3
2.2259221 -1.3726118 -0.50042421 5
2.5207534 -1.5550262 -0.4630464 11
2.5327182 -1.5630176 -0.36073366 11
2.5289199 -1.5612831 -0.25667405 25
2.5177779 -1.5550113 -0.15257327 24
2.5247757 -1.559942 -0.050624654 26
2.514015 -1.5538998 0.78112435 26
2.5146995 -1.5549295 0.67321903 26
2.5036776 -1.5487183 0.56428748 23
2.5144486 -1.5559878 0.46175441 21
2.5136549 -1.5561036 0.35829583 28
2.5225029 -1.5621901 0.25623786 27
2.5198264 -1.5611409 0.15334433 23
2.5140891 -1.5581937 0.050961021 22
1.6121064 -1.0011071 -0.49822688 4
1.8450699 -1.1462221 -0.49264312 3
2.225286 -1.3829641 -0.5013774 5
2.5195036 -1.5664232 -0.46382856 11
2.531461 -1.5744698 -0.361343 11
2.527684 -1.5727327 -0.25710985 25
2.5165737 -1.5664291 -0.15283407 24
2.5235591 -1.5713882 -0.050711047 27
2.512675 -1.5652195 0.7824176 26
2.5175259 -1.5688515 0.67546684 26
2.5065868 -1.5626419 0.56619388 21
2.5173826 -1.5699823 0.46331704 22
2.508208 -1.5648686 0.35829583 28
2.5254858 -1.5762606 0.25710946 27
2.5185969 -1.5725719 0.15360603 23
2.5128748 -1.5696086 0.051048286 23
1.6086022 -1.0067284 -0.49822688 4
1.8410575 -1.1526556 -0.49264312 3
2.2204452 -1.3907233 -0.5013774 5
2.5182054 -1.5778304 -0.46461076 12
2.5301549 -1.5859326 -0.36195236 12
2.5306184 -1.5868386 -0.25798139 24
2.5153205 -1.5778575 -0.15309489 22
2.5222929 -1.5828449 -0.050797433 26
2.5112867 -1.5765489 0.78371084 25
2.5161605 -1.5802209 0.6765908 27
2.5052729 -1.573993 0.56714702 23
2.5160685 -1.5813881 0.46409836 20
2.511133 -1.5788975 0.35951456 29
2.5199683 -1.5850666 0.25710946 28
2.517318 -1.5840129 0.15386769 23
2.515842 -1.583697 0.051222809 21
1.6050782 -1.0123372 -0.49822688 4
1.8370228 -1.1590751 -0.49264312 3
2.2197278 -1.4010856 -0.5023306 4
2.5168581 -1.5892476 -0.46539292 11
2.5287991 -1.5974051 -0.3625617 11
2.5629601 -1.61961 -0.26190341 22
2.5140178 -1.5892962 -0.15335569 20
2.525203 -1.5969839 -0.050970219 22
2.5098498 -1.5878876 0.78500408 25
2.5147457 -1.5915998 0.67771465 25
2.5039103 -1.5853542 0.56810021 20
2.5147052 -1.5928038 0.46487963 20
2.5097983 -1.5903095 0.3601239 27
2.5186267 -1.5965197 0.25754523 27
2.5244241 -1.6008123 0.15465274 21
2.5482919 -1.6165713 0.052008171 19
1.5974587 -1.0153432 -0.49693277 4
1.8329657 -1.1654804 -0.49264312 3
2.2189651 -1.4114597 -0.50328374 4
2.5154617 -1.6006747 -0.46617511 11
2.5273941 -1.6088877 -0.36317107 11
2.5867007 -1.6472754 -0.26495388 22
2.5505672 -1.6248903 -0.15596379 20
2.5617716 -1.6326571 -0.051834121 24
2.5083642 -1.5992355 0.78629738 24
2.51739 -1.605608 0.67996246 27
2.5314634 -1.6152058 0.57572573 20
2.5549212 -1.6308005 0.47347406 21
2.5376933 -1.6204275 0.36499867 27
2.5592124 -1.6347972 0.26233879 26
2.5608952 -1.6365014 0.15726954 21
2.5721178 -1.6443056 0.052619003 20
1.5939047 -1.0209131 -0.49693277 4
1.824784 -1.169243 -0.49151835 3
2.2140245 -1.4191967 -0.50328374 4
2.5223303 -1.6174428 -0.4685216 8
2.5551796 -1.6391369 -0.36804584 9
2.6060867 -1.6724356 -0.26756853 23
2.5784943 -1.6553638 -0.15805025 20
2.5939147 -1.6659031 -0.052611627 23
2.5515282 -1.6393099 0.8018164 22
2.5527554 -1.6407278 0.69120157 23
2.5547094 -1.6426141 0.58239806 21
2.5782876 -1.6584102 0.47894323 19
2.5654087 -1.6507593 0.36987343 26
2.582808 -1.6625926 0.26538923 26
2.5929492 -1.6697609 0.15962467 22
2.5915785 -1.6695182 0.053142574 19
1.5903313 -1.0264708 -0.49693277 4
1.8206915 -1.1756057 -0.49151835 3
2.2049344 -1.4242532 -0.5023306 4
2.5415559 -1.6423191 -0.47321463 6
2.5827844 -1.6695995 -0.3729206 8
2.612781 -1.6896369 -0.2688759 23
2.5978544 -1.6806273 -0.15961511 19
2.6048717 -1.6858121 -0.052957188 23
2.5863335 -1.674455 0.81474888 22
2.5879052 -1.6761136 0.70244062 27
2.5819142 -1.6728733 0.59002358 21
2.5973485 -1.683517 0.4836311 19
2.5929427 -1.6813042 0.37474823 27
2.6062407 -1.690573 0.26843968 24
2.6080477 -1.6923919 0.16093306 21
2.5983145 -1.6867206 0.053404361 20
1.5867387 -1.0320157 -0.49693277 4
1.8165768 -1.1819538 -0.49151835 3
2.1999493 -1.4319413 -0.5023306 4
2.5771921 -1.6781281 -0.48103639 5
2.6060491 -1.697566 -0.37718606 7
2.6110401 -1.7014663 -0.26931167 24
2.604521 -1.6978658 -0.16039754 21
2.6031592 -1.6976254 -0.053043582 25
2.5966535 -1.694029 0.81992191 23
2.5942786 -1.6931251 0.70581228 24
2.5883887 -1.6899254 0.59288311 19
2.5997252 -1.6979743 0.48519373 19
2.5953672 -1.695774 0.37596691 25
2.6044929 -1.7023853 0.26887548 25
2.6063032 -1.7042178 0.16119474 20
2.5965946 -1.6985166 0.053491622 19
1.5873476 -1.0399185 -0.49822688 5
1.8087797 -1.1849853 -0.49039361 4
2.1872294 -1.4334645 -0.50042421 4
2.6214669 -1.718709 -0.49042246 9
2.6131525 -1.7139099 -0.37901407 7
2.6140113 -1.7151258 -0.27018321 23
2.6033483 -1.7087796 -0.16065834 21
2.6019919 -1.7085392 -0.053129975 23
2.5913186 -1.7021781 0.81992191 24
2.6011617 -1.7092937 0.70918405 24
2.5871687 -1.700745 0.59383631 19
2.5985045 -1.7088467 0.48597503 18
2.594173 -1.7066468 0.37657624 26
2.6032925 -1.7132975 0.26931125 25
2.6051071 -1.7151434 0.16145642 21
2.5954208 -1.7094156 0.053578883 20
1.5838903 -1.0451767 -0.49822688 5
1.8046322 -1.1912919 -0.49039361 4
2.1781163 -1.4383858 -0.49947101 4
2.6030898 -1.7196825 -0.48807591 7
2.611294 -1.7257574 -0.37962344 7
2.6121633 -1.7269869 -0.270619 23
2.6015325 -1.7206112 -0.16091916 22
2.6001816 -1.7203699 -0.053216361 23
2.5934165 -1.7165447 0.82250839 23
2.5992413 -1.7210526 0.7103079 25
2.5893998 -1.7151866 0.5957427 18
2.5966403 -1.7206347 0.48675635 18
2.5964725 -1.7211757 0.37779495 26
2.6055984 -1.7278796 0.27018279 25
2.6032648 -1.7269865 0.1617181 21
2.5936036 -1.7212293 0.053666148 19
1.5800489 -1.0509748 -0.49822688 5
1.8002539 -1.1978981 -0.49039361 3
2.1728299 -1.4463595 -0.49947101 4
2.6049902 -1.7346863 -0.48964027 6
2.6049511 -1.7353166 -0.37962344 7
2.6141059 -1.7420739 -0.27149057 23
2.5993633 -1.7329042 -0.16117996 20
2.5980177 -1.7326624 -0.053302754 23
2.5911252 -1.7287191 0.8238017 24
2.5969687 -1.7332727 0.7114318 24
2.587178 -1.7273911 0.59669584 19
2.5944233 -1.7328833 0.48753765 19
2.5942731 -1.7334379 0.37840432 26
2.603389 -1.7401862 0.27061859 24
2.6010685 -1.7392918 0.16197978 20
2.595588 -1.7362828 0.053840671 19
1.5763707 -1.0564839 -0.49822688 5
1.7960614 -1.2041749 -0.49039361 3
2.1636918 -1.4512012 -0.49851784 4
2.6030204 -1.7465204 -0.49042246 5
2.5988779 -1.744399 -0.37962344 6
2.612144 -1.7539648 -0.27192634 24
2.5974433 -1.7447515 -0.16144077 19
2.5961032 -1.7445089 -0.053389143 22
2.5890834 -1.7404478 0.82509488 23
2.5949452 -1.7450459 0.71255571 24
2.5892777 -1.741891 0.59860224 18
2.5924559 -1.7446862 0.48831898 18
2.5923231 -1.7452546 0.37901363 27
2.6014302 -1.7520455 0.27105436 24
2.6032634 -1.7539407 0.16250314 21
2.593657 -1.7481266 0.053927932 18
1.5726732 -1.06198 -0.49822688 5
1.795884 -1.2131641 -0.49151835 3
2.158613 -1.4587451 -0.49851784 4
2.5969079 -1.755596 -0.49042246 5
2.596884 -1.7562402 -0.38023278 6
2.6101315 -1.7658633 -0.27236211 23
2.5954723 -1.7566061 -0.16170157 22
2.5982771 -1.7591658 -0.053561922 23
2.5869913 -1.7521833 0.82638818 23
2.596905 -1.759559 0.71480352 23
2.5872445 -1.7536725 0.59955543 21
2.5904372 -1.7564965 0.48910025 18
2.5944293 -1.7598644 0.38023233 26
2.5994203 -1.7639123 0.27149016 26
2.6012561 -1.7658213 0.16276482 21
2.5916748 -1.7599783 0.054015197 19
1.5689567 -1.0674632 -0.49822688 4
1.7916384 -1.2194254 -0.49151835 3
2.1535077 -1.4662713 -0.49851784 4
2.590764 -1.7646502 -0.49042246 6
2.6153448 -1.7820612 -0.38388884 6
2.6121829 -1.7805747 -0.27323368 21
2.5934503 -1.7684685 -0.16196239 21
2.5962508 -1.771042 -0.053648315 23
2.5888381 -1.7666479 0.82897466 22
2.5947711 -1.7713602 0.71592742 24
2.5851603 -1.7654611 0.60050863 19
2.5924459 -1.7711 0.49066287 18
2.5923679 -1.7717103 0.3808417 26
2.5973587 -1.7757865 0.27192593 26
2.6033192 -1.7805283 0.16328818 19
2.5896416 -1.7718371 0.054102458 18
1.5612375 -1.0702027 -0.49693277 4
1.7913889 -1.2284273 -0.49264312 3
2.1483765 -1.4737794 -0.49851784 4
2.5845885 -1.7736831 -0.49042246 5
2.6213825 -1.7996061 -0.38571692 14
2.6100574 -1.7925017 -0.27366945 22
2.5954924 -1.7831655 -0.16248401 20
2.5941727 -1.7829255 -0.053734701 22
2.5866356 -1.7784103 0.83026797 23
2.592586 -1.7831676 0.71705133 24
2.5830259 -1.7772565 0.60146183 18
2.5903158 -1.7829386 0.4914442 19
2.5902548 -1.7835629 0.38145101 25
2.5952463 -1.7876679 0.2723617 24
2.6011996 -1.792438 0.16354986 20
2.5916727 -1.7865404 0.05427698 18
1.5574923 -1.0756459 -0.49693277 4
1.7870899 -1.234673 -0.49264312 4
2.1472566 -1.4840603 -0.49947101 4
2.5783815 -1.782694 -0.49042246 5
2.6354923 -1.8228606 -0.38876364 14
2.6078806 -1.8044357 -0.27410525 22
2.5933576 -1.7950565 -0.16274482 20
2.5961535 -1.7976618 -0.053907484 24
2.5883529 -1.7929289 0.83285445 23
2.5943551 -1.7977567 0.71929914 23
2.5848742 -1.7918546 0.60336822 19
2.5921929 -1.7975982 0.49300683 20
2.5880909 -1.7954227 0.38206038 25
2.5971749 -1.8023957 0.27323326 25
2.5990286 -1.8043544 0.16381153 20
2.5895271 -1.7984279 0.054364245 19
1.553728 -1.081076 -0.49693277 4
1.7829857 -1.2405925 -0.49264312 3
2.1423233 -1.4911726 -0.49947101 3
2.5765083 -1.7940563 -0.49120462 5
2.6375773 -1.8372632 -0.38998231 14
2.6059692 -1.8159217 -0.27454099 23
2.5955832 -1.8093572 -0.16326644 20
2.5942786 -1.8091208 -0.053993873 21
2.586354 -1.8042656 0.83414769 22
2.5923746 -1.8091382 0.72042304 25
2.5829422 -1.8032261 0.60432136 18
2.5902665 -1.8090121 0.49378812 18
2.5902596 -1.8096797 0.38327909 25
2.5952661 -1.8138517 0.27366903 24
2.6012151 -1.8186853 0.16433489 20
2.5876458 -1.8098704 0.054451503 19
1.5540898 -1.0889939 -0.49822688 4
1.7786444 -1.2468086 -0.49264312 4
2.1411238 -1.5014598 -0.50042421 3
2.5783157 -1.8087113 -0.49276894 4
2.6392727 -1.8521606 -0.39120105 14
2.6077681 -1.8307309 -0.27541256 23
2.5933375 -1.8212761 -0.16352725 19
2.5961289 -1.8239131 -0.054166656 22
2.5879436 -1.818837 0.83673418 23
2.5940149 -1.8237807 0.72267085 24
2.5846615 -1.8178788 0.60622776 19
2.5879753 -1.8208846 0.49456945 17
2.5879848 -1.8215667 0.38388839 25
2.597064 -1.828635 0.27454057 24
2.5989332 -1.8306297 0.16459657 20
2.5894854 -1.8246514 0.054626029 19
1.550279 -1.0944121 -0.49822688 4
1.7745001 -1.2527 -0.49264312 4
2.136133 -1.5085517 -0.50042421 3
2.5803707 -1.8229504 -0.4943333 6
2.6371689 -1.8637667 -0.39181039 14
2.6057501 -1.8422439 -0.27584836 22
2.595437 -1.8356323 -0.16404887 20
2.5941474 -1.8353996 -0.054253042 23
2.5897825 -1.8329896 0.83932066 22
2.591929 -1.8351879 0.72379482 24
2.5826244 -1.8292769 0.60718095 19
2.589982 -1.8351671 0.49613208 19
2.5900278 -1.8358785 0.3851071 26
2.5950491 -1.8401184 0.27497637 23
2.5969207 -1.8421267 0.16485825 19
2.5874977 -1.8361214 0.05471329 19
1.5466412 -1.099547 -0.49822688 4
1.7701166 -1.2588865 -0.49264312 3
2.1268549 -1.5131536 -0.49947101 3
2.5820384 -1.8376734 -0.49589765 5
2.6387327 -1.8787175 -0.39302906 14
2.6033604 -1.8542181 -0.27628413 21
2.5930803 -1.8475785 -0.16430967 21
2.5917962 -1.8473454 -0.054339435 22
2.5873008 -1.8448225 0.84061396 23
2.5934401 -1.8498828 0.72604263 22
2.5842142 -1.8439826 0.60908735 18
2.5875795 -1.8470657 0.49691334 18
2.5876422 -1.8477921 0.38571647 25
2.5967162 -1.8549562 0.27584794 23
2.5945373 -1.8540835 0.16511993 20
2.5851393 -1.8480495 0.054800551 17
1.5426008 -1.1052084 -0.49822688 4
1.7654907 -1.2653658 -0.49264312 3
2.1212945 -1.5209388 -0.49947101 3
2.5833116 -1.8528813 -0.49746197 5
2.6358612 -1.8912696 -0.39363843 14
2.6005936 -1.8666521 -0.2767199 21
2.5903471 -1.8599824 -0.16457048 20
2.5931284 -1.8626657 -0.054512214 22
2.5883665 -1.8599299 0.84320045 21
2.5905983 -1.8622195 0.72716647 23
2.5814233 -1.8563074 0.61004049 18
2.5888104 -1.8623052 0.49847597 18
2.5889087 -1.8630615 0.38693514 23
2.5939422 -1.8673712 0.27628368 23
2.5958278 -1.8694166 0.16564329 19
2.5864611 -1.8633566 0.054975078 18
1.5387335 -1.1105863 -0.49822688 4
1.761063 -1.271521 -0.49264312 3
2.1159725 -1.5283341 -0.49947101 3
2.5808313 -1.8647798 -0.49824417 4
2.6372874 -1.9062731 -0.39485711 13
2.6021345 -1.8815556 -0.27759147 21
2.5919304 -1.874866 -0.1650921 19
2.5906608 -1.8746365 -0.054598603 21
2.5857706 -1.8717855 0.84449369 23
2.5880284 -1.8741086 0.72829044 22
2.578903 -1.8681866 0.61099368 17
2.586293 -1.8742285 0.4992573 17
2.5864072 -1.8749999 0.38754448 25
2.5954728 -1.8822628 0.27715525 23
2.593328 -1.8813983 0.16590497 20
2.5839872 -1.8753102 0.055062339 17
1.5309412 -1.1131105 -0.49693277 4
1.7566139 -1.2776604 -0.49264312 3
2.1106248 -1.5357109 -0.49947101 3
2.574306 -1.8737774 -0.49824417 4
2.6346292 -1.9183886 -0.39546645 14
2.5995767 -1.8935598 -0.27802724 20
2.5894053 -1.8868426 -0.1653529 20
2.592181 -1.889558 -0.054771382 21
2.5831234 -1.8836459 0.84578699 22
2.5893428 -1.8888736 0.73053825 23
2.5763309 -1.8800707 0.61194688 18
2.5877125 -1.8890687 0.50081992 17
2.5878625 -1.8898704 0.38876316 25
2.5929086 -1.8942496 0.27759105 23
2.5907762 -1.8933855 0.16616665 20
2.5854967 -1.8902194 0.055236865 17
1.5270464 -1.1184478 -0.49693277 3
1.7521433 -1.2837843 -0.49264312 3
2.1052513 -1.5430691 -0.49947101 3
2.5677495 -1.8827519 -0.49824417 4
2.6319184 -1.9305089 -0.39607581 14
2.6009831 -1.908516 -0.27889881 21
2.5908535 -1.9017789 -0.16587453 20
2.5895989 -1.9015538 -0.054857776 21
2.5843177 -1.89837 0.84837347 21
2.5866597 -1.9007857 0.73166209 21
2.577662 -1.8948666 0.61385328 17
2.5890601 -1.9039415 0.50238252 17
2.5852473 -1.9018329 0.38937253 23
2.5943041 -1.9091936 0.27846259 24
2.5921934 -1.908338 0.16669002 18
2.5829082 -1.9021975 0.055324122 17
1.5270193 -1.1266388 -0.49822688 3
1.7476512 -1.2898927 -0.49264312 3
2.0998521 -1.5504085 -0.49947101 3
2.561162 -1.8917035 -0.49824417 4
2.6331463 -1.9455824 -0.39729452 13
2.6023164 -1.9235049 -0.27977037 22
2.5882144 -1.9137801 -0.16613534 19
2.5909841 -1.9165275 -0.055030555 21
2.581558 -1.9102523 0.84966671 20
2.5839248 -1.9127018 0.73278606 21
2.5749762 -1.9067734 0.61480647 18
2.5863667 -1.915907 0.50316387 18
2.5865674 -1.9167551 0.39059123 23
2.5916252 -1.921204 0.27889836 21
2.5895269 -1.9203489 0.16695169 20
2.5842826 -1.9171591 0.055498648 19
1.5230774 -1.1319621 -0.49822688 4
1.7431381 -1.2959851 -0.49264312 3
2.0904891 -1.5547998 -0.49851784 3
2.550581 -1.8976841 -0.49746197 4
2.6303201 -1.957725 -0.39790383 14
2.6035764 -1.9385262 -0.28064194 22
2.5895271 -1.9287683 -0.16665696 19
2.5882869 -1.9285469 -0.055116944 20
2.582619 -1.9250247 0.8522532 22
2.5811381 -1.9246221 0.7339099 23
2.5761735 -1.9216198 0.61671281 17
2.5875795 -1.9308306 0.50472647 17
2.5838377 -1.928741 0.3912006 24
2.5928855 -1.9361994 0.27976996 23
2.5908084 -1.9353528 0.16747504 18
2.5855839 -1.9321532 0.055673171 18
1.5229828 -1.1401662 -0.49952096 4
1.7386036 -1.302062 -0.49264312 3
2.0850492 -1.5620874 -0.49851784 3
2.5439413 -1.9065759 -0.49746197 4
2.6314116 -1.9728485 -0.39912254 14
2.6007788 -1.9505912 -0.28107771 21
2.5907667 -1.9437888 -0.16717857 19
2.589536 -1.943572 -0.055289723 22
2.5797462 -1.9369283 0.8535465 21
2.5821955 -1.9394721 0.73615772 24
2.573374 -1.9335489 0.61766601 19
2.5847714 -1.9428183 0.50550777 17
2.5810561 -1.9407309 0.39180991 23
2.5900917 -1.9482325 0.2802057 22
2.5920167 -1.950389 0.16799842 19
2.5828178 -1.9441733 0.055760436 19
1.5189936 -1.1454754 -0.49952096 4
1.734048 -1.308123 -0.49264312 3
2.0756655 -1.5663993 -0.49756464 3
2.533329 -1.9124687 -0.49667984 4
2.6284695 -1.9850127 -0.3997319 13
2.6019027 -1.9656627 -0.28194925 19
2.5879495 -1.9558311 -0.16743939 20
2.5907118 -1.9586293 -0.055462509 22
2.5806737 -1.9517481 0.85613298 21
2.5792952 -1.9514134 0.73728162 22
2.5744367 -1.9484441 0.6195724 17
2.5819113 -1.9548103 0.50628912 16
2.5821781 -1.9557211 0.39302862 26
2.5912154 -1.9632777 0.28107727 23
2.5891719 -1.962441 0.1682601 17
2.5839832 -1.9592181 0.055934958 17
1.518832 -1.153692 -0.50081509 4
1.73335 -1.3171152 -0.49376786 3
2.0701852 -1.5736352 -0.49756464 3
2.526638 -1.9213002 -0.49667984 4
2.6294241 -2.0001848 -0.40095058 14
2.5989892 -1.9777495 -0.28238505 20
2.5890527 -1.9709017 -0.167961 18
2.5878363 -1.9706893 -0.055548895 22
2.5776873 -1.9636712 0.85742623 20
2.5802181 -1.966311 0.73952943 23
2.5754263 -1.9633702 0.6214788 17
2.5829258 -1.9698004 0.50785172 17
2.5792813 -1.967733 0.39363798 25
2.5883062 -1.975333 0.28151307 21
2.5902436 -1.9775268 0.16878346 18
2.5811017 -1.9712605 0.056022223 18
1.5071242 -1.1531172 -0.49822688 4
1.7287419 -1.3231578 -0.49376786 3
2.0529883 -1.5719004 -0.49470508 3
2.5199158 -1.9301081 -0.49667984 4
2.6263654 -2.0123694 -0.40155992 13
2.5999763 -1.99287 -0.28325659 21
2.5861194 -1.9829652 -0.1682218 19
2.5888751 -1.9857959 -0.055721678 22
2.5784805 -1.9785376 0.86001271 22
2.5772033 -1.9782722 0.74065334 22
2.5763433 -1.9783268 0.62338513 17
2.5799508 -1.981813 0.50863302 17
2.580267 -1.9827721 0.39485666 24
2.5853443 -1.9873912 0.28194883 21
2.5912411 -1.992644 0.16930681 17
2.5821297 -1.9863546 0.056196745 17
1.5032921 -1.1581087 -0.49822688 4
1.7245766 -1.3285823 -0.49376786 3
2.063591 -1.5903268 -0.49851784 3
2.51384 -1.9380149 -0.49667984 4
2.6278899 -2.0266716 -0.40277863 13
2.6015902 -2.0071132 -0.28412816 20
2.5877829 -1.9971814 -0.16874342 19
2.5865808 -1.9969743 -0.055808067 21
2.5760746 -1.9895808 0.86130601 21
2.5786865 -1.9923164 0.74290115 22
2.5739989 -1.9894123 0.62433833 19
2.5815258 -1.9959499 0.51019561 17
2.5818765 -1.9969409 0.39607537 22
2.5830274 -1.9985516 0.2823846 22
2.5928652 -2.0068872 0.16983017 18
2.5837824 -2.0005779 0.056371272 16
1.4994433 -1.1630875 -0.49822688 4
1.7160797 -1.3316075 -0.49264312 3
2.0386407 -1.582472 -0.49375188 3
2.5070598 -1.9467782 -0.49667984 4
2.6247187 -2.038877 -0.40338799 13
2.5985012 -2.0192385 -0.28456393 21
2.5847378 -2.0092669 -0.16900423 17
2.5874875 -2.0121288 -0.05598085 20
2.5767381 -2.0044918 0.8638925 21
2.579406 -2.0072899 0.74514896 18
2.574785 -2.0044153 0.62624466 16
2.5823357 -2.0110176 0.51175827 16
2.578805 -2.008991 0.39668468 24
2.5838928 -2.0136795 0.28325617 21
2.5897822 -2.0189958 0.17009185 17
2.5807254 -2.0126591 0.056458529 16
nan nan nan 0
1.7111875 -1.3378884 -0.49264312 3
2.0560243 -1.6080763 -0.49947101 3
2.4999075 -1.955954 -0.49667984 4
2.6250443 -2.054601 -0.40460667 13
2.5989265 -2.0348904 -0.2854355 20
2.585218 -2.0248847 -0.16952586 18
2.5879655 -2.0277658 -0.056153629 20
2.5769768 -2.0198817 0.86647898 20
2.5758657 -2.0197368 0.74627286 20
2.5751452 -2.0198975 0.62815106 18
2.5827184 -2.026566 0.51332086 17
2.579232 -2.0245576 0.39790338 23
2.5804129 -2.0262127 0.28369194 24
2.5862913 -2.0315583 0.17035353 12
2.5811927 -2.0282822 0.056633055 17
nan nan nan 0
1.7026793 -1.3408391 -0.49151835 3
nan nan nan 0
2.4969435 -1.9677249 -0.49746197 3
2.6256511 -2.0698965 -0.40582538 13
2.5957189 -2.0470343 -0.28587127 21
2.5820539 -2.036989 -0.16978666 15
2.5847957 -2.0398839 -0.056240018 23
2.5737014 -2.0318575 0.86777228 21
2.5764468 -2.0347548 0.74852067 18
2.5757813 -2.0349596 0.63005745 17
2.5833776 -2.0416934 0.51488352 16
2.5799351 -2.0397041 0.39912206 22
2.5811377 -2.0413871 0.28456348 23
2.5831001 -2.0436721 0.17061521 20
2.5819373 -2.0434849 0.056807578 14
1.4831914 -1.1759845 -0.49693277 4
1.6979885 -1.3467743 -0.49151835 4
nan nan nan 0
2.4900596 -1.9764289 -0.49746197 4
2.6222963 -2.082135 -0.40643471 12
2.5963581 -2.0622785 -0.28674284 18
2.5788374 -2.0490961 -0.17004748 19
2.5854864 -2.0551155 -0.056412797 21
2.5741539 -2.0468411 0.87035877 20
2.5769541 -2.0498018 0.75076848 20
2.5725033 -2.0469947 0.63101065 17
2.5839632 -2.05685 0.51644611 15
2.5766819 -2.051789 0.39973143 23
2.5778923 -2.053488 0.28499928 20
2.5837605 -2.0588996 0.17113857 16
2.5786977 -2.0556014 0.056894843 16
nan nan nan 0
1.6970836 -1.3557342 -0.49264312 3
nan nan nan 0
2.4831452 -1.9851089 -0.49746197 4
2.6227641 -2.0974751 -0.40765342 13
2.5930328 -2.0744405 -0.28717861 18
2.5794659 -2.0643253 -0.17056909 16
2.5821998 -2.0672526 -0.056499191 18
2.5707633 -2.0588334 0.87165201 20
2.5735857 -2.061831 0.75189245 20
2.5730023 -2.0621009 0.63291705 17
2.5844736 -2.0720356 0.51800871 14
2.5772469 -2.0669806 0.40095013 25
2.5784788 -2.0687082 0.28587085 20
2.5804517 -2.0710313 0.17140025 17
2.5754046 -2.0677199 0.056982104 15
1.4749454 -1.1863104 -0.49693277 4
1.6885449 -1.3585957 -0.49151835 3
nan nan nan 0
2.4762011 -1.9937645 -0.49746197 4
2.6231563 -2.1128433 -0.40887213 12
2.5935333 -2.0897295 -0.28805017 19
2.5761318 -2.0764501 -0.17082989 18
2.5827515 -2.0825295 -0.05667197 22
2.5710795 -2.0738587 0.87423849 19
2.5739563 -2.0769207 0.75414026 19
2.569608 -2.0741525 0.63387018 19
2.5849099 -2.0872495 0.51957136 16
2.5777373 -2.0822012 0.40216881 18
2.5789905 -2.0839572 0.28674239 25
2.5770903 -2.0831654 0.17166193 17
2.5759461 -2.082984 0.057156626 16
nan nan nan 0
1.7027178 -1.3798181 -0.49714214 3
nan nan nan 0
2.4653907 -1.9992855 -0.49667984 4
2.6234732 -2.1282399 -0.4100908 14
2.5900905 -2.1019087 -0.28848594 17
2.5766213 -2.0917239 -0.17135151 18
2.5832276 -2.0978355 -0.056844749 16
2.5713222 -2.0889115 0.87682498 19
2.5704715 -2.0889654 0.7552641 20
2.5661604 -2.0862057 0.63482338 16
2.5814397 -2.0993757 0.52035266 16
2.5743027 -2.0943182 0.40277815 20
2.5794268 -2.0992351 0.28761396 20
2.5736749 -2.0953007 0.17192361 17
2.5725358 -2.0951202 0.057243891 17
nan nan nan 0
1.6676961 -1.3611094 -0.48814404 3
nan nan nan 0
2.4622216 -2.0110028 -0.49746197 4
2.6237147 -2.1436646 -0.41130951 13
2.590451 -2.1172411 -0.28935751 17
2.5770352 -2.1070266 -0.17187312 17
2.5797589 -2.1100047 -0.056931138 17
2.5677531 -2.1009331 0.87811828 19
2.5707045 -2.1040971 0.75751191 18
2.5664582 -2.1013696 0.63672978 17
2.581737 -2.1146326 0.52191532 14
2.5746541 -2.1095822 0.40399686 19
2.5759358 -2.1113837 0.28804973 19
2.5740674 -2.1106036 0.17244697 17
2.5729373 -2.1104281 0.057418413 17
nan nan nan 0
1.6817526 -1.3823904 -0.49376786 3
nan nan nan 0
2.4628148 -2.0258601 -0.49902633 4
2.6200478 -2.1559634 -0.41191885 12
2.5868905 -2.1294363 -0.28979328 18
2.5773735 -2.1223571 -0.17239475 17
2.5800953 -2.1253541 -0.057103917 24
2.5678585 -2.1160266 0.88070476 19
2.5708628 -2.1192558 0.75975972 19
2.5628943 -2.1134384 0.63768297 17
2.5819592 -2.1299171 0.52347791 17
2.57493 -2.1248736 0.40521553 26
2.5762322 -2.1267045 0.28892127 26
2.5743845 -2.1259346 0.17297032 18
2.5732632 -2.1257641 0.05759294 15
nan nan nan 0
1.6806698 -1.3913594 -0.49489263 3
nan nan nan 0
2.4633341 -2.0407455 -0.50059068 3
2.6201482 -2.1714294 -0.41313753 13
2.5871108 -2.1448114 -0.29066485 20
2.5776362 -2.1377158 -0.17291637 14
2.5765083 -2.1375394 -0.05719031 21
2.5678899 -2.1311462 0.8832913 19
2.5709467 -2.1344409 0.76200753 18
2.5630531 -2.1286433 0.63958937 17
2.5821059 -2.1452286 0.52504057 14
2.5751307 -2.1401932 0.40643427 19
2.5764532 -2.1420529 0.28979284 23
2.574626 -2.1412938 0.17349368 19
2.5696702 -2.1379309 0.057680197 16
1.4725666 -1.2273318 -0.50340325 3
nan nan nan 0
nan nan nan 0
2.4599874 -2.0524955 -0.50137287 3
2.6163628 -2.1837423 -0.41374689 13
2.5872552 -2.1602139 -0.29153642 18
2.5739911 -2.1499014 -0.17317718 16
2.5767038 -2.152931 -0.057363093 19
2.5678468 -2.1462917 0.88587779 19
2.570956 -2.1496527 0.76425534 19
2.5631371 -2.1438754 0.64149576 17
2.5821769 -2.160567 0.52660316 15
2.5714498 -2.1523545 0.40704358 22
2.5765986 -2.157429 0.2906644 15
2.574791 -2.1566801 0.17401704 17
2.5698557 -2.1533093 0.057854723 16
1.4534769 -1.2200441 -0.49822688 4
1.6746461 -1.4061913 -0.49601737 3
1.9685841 -1.6535953 -0.49184549 4
2.4603696 -2.0674241 -0.5029372 3
2.6163218 -2.1992483 -0.41496557 13
2.5873234 -2.1756432 -0.29240796 16
2.5702918 -2.1620874 -0.17343798 16
2.5768232 -2.1683497 -0.057535872 21
2.5677292 -2.1614628 0.88846427 19
2.5671632 -2.161752 0.76537925 20
2.5668993 -2.1622958 0.6443553 17
2.5783963 -2.1727498 0.52738446 14
2.5715098 -2.1677144 0.40826228 24
2.5766675 -2.1728318 0.29153597 18
2.5748806 -2.1720939 0.17454042 16
2.5699646 -2.1687148 0.058029246 15
1.4307678 -1.2095206 -0.49175641 4
1.6436874 -1.3900073 -0.48814404 4
2.0002728 -1.6921575 -0.5013774 3
2.4606774 -2.0823801 -0.50450158 3
2.6124167 -2.2115738 -0.41557491 12
2.5873153 -2.1910994 -0.29327953 21
2.5703487 -2.1775014 -0.17395961 15
2.5730526 -2.1805637 -0.057622265 22
2.5675368 -2.1766591 0.89105082 20
2.5670331 -2.1770024 0.76762706 21
2.5668218 -2.1775935 0.64626163 18
2.5745614 -2.1849322 0.52816576 15
2.5677106 -2.1798894 0.40887165 23
2.5766606 -2.1882615 0.29240751 18
2.5748935 -2.1875343 0.17506377 18
2.5699978 -2.1841476 0.058203775 15
nan nan nan 0
1.6536615 -1.4083719 -0.49264312 3
1.975673 -1.6832141 -0.49661148 4
2.4571521 -2.0941601 -0.50528377 3
2.6122339 -2.227119 -0.41679361 13
2.5872309 -2.2065818 -0.2941511 18
2.5665309 -2.1897013 -0.17422041 19
2.5730307 -2.1960227 -0.057795044 20
2.5672698 -2.1918805 0.8936373 19
2.566828 -2.1922781 0.76987487 22
2.5666683 -2.1929166 0.64816803 16
2.5669188 -2.1939061 0.52816576 16
2.5676296 -2.1952889 0.41009033 19
2.5765769 -2.2037175 0.29327908 22
2.5786238 -2.2062473 0.1758488 17
2.5699542 -2.1996067 0.058378298 16
1.4332882 -1.2289106 -0.4956387 3
1.6413394 -1.4077921 -0.49039361 3
1.9884106 -1.7060808 -0.5013774 3
2.468564 -2.1188066 -0.50919461 3
2.6119742 -2.2426896 -0.41801229 13
2.5870697 -2.2220905 -0.29502264 19
2.5664461 -2.2051549 -0.17474203 21
2.572932 -2.2115085 -0.057967823 21
2.5669272 -2.2071261 0.89622378 20
2.5665472 -2.2075787 0.77212268 21
2.5627186 -2.2050641 0.64912122 16
2.5629883 -2.2060747 0.52894711 17
2.5674727 -2.2107148 0.41130903 21
2.5764167 -2.2191992 0.29415065 18
2.5784719 -2.2217534 0.17637217 15
2.5698338 -2.2150919 0.05855282 17
nan nan nan 0
1.5958598 -1.3784816 -0.47802129 3
1.9638739 -1.6969657 -0.49661148 4
2.4387362 -2.1080334 -0.50450158 3
2.6116378 -2.2582855 -0.419231 12
2.5868318 -2.2376246 -0.29589421 16
2.5662847 -2.2206345 -0.17526364 17
2.5727565 -2.22702 -0.058140606 20
2.5665097 -2.2223964 0.89881027 21
2.5661907 -2.222904 0.77437049 19
2.5624249 -2.2204249 0.65102762 17
2.5627353 -2.2214773 0.53050971 15
2.567239 -2.226166 0.41252771 21
2.5724173 -2.2314429 0.29458642 25
2.5782433 -2.2372856 0.17689553 17
2.5658612 -2.2273259 0.058640081 16
1.4465405 -1.2579017 -0.50340325 3
1.6167682 -1.4064263 -0.48589453 3
1.950533 -1.6973662 -0.49470508 4
2.4276383 -2.113291 -0.50371939 4
2.6112244 -2.2739062 -0.4204497 13
2.5865169 -2.2531843 -0.29676577 17
2.5660462 -2.2361398 -0.17578526 18
2.5725036 -2.2425568 -0.058313385 22
2.562377 -2.2345164 0.90010357 21
2.5620868 -2.2350507 0.7754944 19
2.5583565 -2.232583 0.65198076 17
2.5624061 -2.2369049 0.53207237 16
2.5669289 -2.2416425 0.41374642 21
2.5721147 -2.2469628 0.29545796 20
2.5779376 -2.2528429 0.17741889 17
2.5655982 -2.2428496 0.058814604 17
1.423974 -1.2470341 -0.49693277 3
1.6301717 -1.4281129 -0.49151835 3
1.9409049 -1.7009295 -0.49375188 4
2.4128199 -2.1152413 -0.50215507 4
2.6107333 -2.2895517 -0.42166841 12
2.5823801 -2.2654839 -0.29720154 18
2.569484 -2.2549641 -0.1765677 18
2.5721738 -2.2581196 -0.058486164 19
2.5618193 -2.2498209 0.90269005 20
2.5615902 -2.2504117 0.77774227 20
2.5579214 -2.2479799 0.65388715 17
2.5620005 -2.2523572 0.53363496 15
2.5665414 -2.2571437 0.41496509 20
2.5717349 -2.2625074 0.29632953 19
2.5738065 -2.2651267 0.17768057 16
2.5652583 -2.2583983 0.05898913 17
1.4159902 -1.2488025 -0.4956387 3
1.6324834 -1.4402406 -0.49376786 3
1.9349557 -1.7076943 -0.49375188 4
2.4017193 -2.1203821 -0.50137287 4
2.6101651 -2.3052213 -0.42288712 13
2.5819221 -2.28108 -0.29807308 18
2.5690799 -2.2705331 -0.17708932 17
2.5755119 -2.2770183 -0.058745332 20
2.5611863 -2.2651494 0.9052766 20
2.561017 -2.2657964 0.77999008 20
2.5574102 -2.263401 0.65579355 17
2.561518 -2.2678339 0.53519756 15
2.562362 -2.2693791 0.41557443 21
2.5712783 -2.2780769 0.29720107 20
2.5733573 -2.2807209 0.17820393 16
2.564841 -2.2739723 0.059163652 17
1.4080114 -1.2505305 -0.49434459 3
1.6383722 -1.4556379 -0.49714214 3
1.9326516 -1.7176988 -0.49470508 4
2.3943033 -2.1287527 -0.50137287 4
2.6095188 -2.3209145 -0.42410579 13
2.5813866 -2.2967007 -0.29894465 17
2.5685983 -2.2861261 -0.17761093 17
2.5750153 -2.2926431 -0.058918115 21
2.5604773 -2.2805004 0.90786308 21
2.5603676 -2.2812042 0.78223783 18
2.5568221 -2.2788458 0.65769988 17
2.5646446 -2.2866211 0.53754151 15
2.561832 -2.2849162 0.41679314 21
2.570744 -2.2936707 0.29807264 19
2.5691056 -2.2930143 0.1784656 16
2.5643458 -2.2895703 0.059338178 17
1.4072374 -1.2586576 -0.4956387 3
1.6296504 -1.4580994 -0.49601737 3
1.926644 -1.7244345 -0.49470508 4
2.386858 -2.1370976 -0.50137287 4
2.6087949 -2.3366315 -0.4253245 12
2.5807731 -2.312345 -0.29981622 19
2.5680389 -2.3017435 -0.17813255 17
2.5744412 -2.3082924 -0.059090894 20
2.5596919 -2.2958739 0.91044956 21
2.5596418 -2.2966352 0.78448564 19
2.5561576 -2.2943144 0.65960634 16
2.5639963 -2.3021584 0.5391041 16
2.5612245 -2.3004773 0.41801181 22
2.570132 -2.3092883 0.29894418 20
2.5685129 -2.3086441 0.17898896 16
2.5637732 -2.3051927 0.059512701 15
1.4066449 -1.2665489 -0.49693277 3
1.6250614 -1.463212 -0.49601737 3
1.921217 -1.7304786 -0.49470508 4
2.3801322 -2.1445856 -0.50137287 4
2.608814 -2.3514609 -0.42654318 12
2.5808945 -2.3271124 -0.30068776 17
2.564503 -2.3131444 -0.17839335 17
2.5746002 -2.3230669 -0.059263673 21
2.5596375 -2.3103766 0.91303611 20
2.5596464 -2.3111954 0.78673345 20
2.5562217 -2.3089132 0.66151267 17
2.56408 -2.316824 0.54066676 15
2.5613482 -2.3151677 0.41923052 21
2.5702536 -2.3240328 0.29981574 18
2.5686536 -2.3234007 0.17951232 17
2.5639324 -2.3199439 0.059687223 16
1.4060156 -1.2744501 -0.49822688 3
1.6163352 -1.4656031 -0.49489263 3
1.9151648 -1.7371745 -0.49470508 4
2.3689742 -2.1495621 -0.50059068 4
2.607939 -2.367224 -0.42776188 13
2.5801311 -2.3428042 -0.30155933 18
2.5638051 -2.3287964 -0.17891496 18
2.5701756 -2.3354018 -0.059350066 19
2.5587051 -2.3257947 0.91562259 19
2.5623767 -2.3299489 0.79010516 18
2.5554085 -2.3244276 0.66341907 17
2.5632827 -2.3324077 0.54222941 15
2.560591 -2.3307757 0.4204492 22
2.5694914 -2.3396974 0.30068731 19
2.5679104 -2.3390777 0.18003568 17
2.5632091 -2.335614 0.059861749 15
1.4013351 -1.2795948 -0.49822688 3
1.6109525 -1.4715174 -0.49489263 3
1.9087849 -1.7441823 -0.49470508 4
2.3610799 -2.1582303 -0.50059068 4
2.6065702 -2.3834646 -0.42898059 12
2.575202 -2.355607 -0.3019951 18
2.5663035 -2.34829 -0.17969741 17
2.5689738 -2.3515573 -0.059522845 18
2.5572877 -2.3416808 0.91820908 19
2.5610051 -2.3459067 0.79235297 19
2.5504906 -2.3370941 0.66437227 17
2.5619979 -2.3484612 0.54379201 15
2.5630045 -2.3502073 0.42227724 22
2.5682402 -2.3558335 0.30155888 19
2.566678 -2.3552256 0.18055904 16
2.5619972 -2.3517544 0.060036272 15
1.4004149 -1.2877475 -0.49952096 3
1.6022204 -1.4738333 -0.49376786 3
1.9026849 -1.7508345 -0.49470508 4
2.3535318 -2.1664588 -0.50059068 4
2.6018851 -2.3959103 -0.4295899 12
2.5742908 -2.371331 -0.30286667 18
2.5654347 -2.3640008 -0.18021902 17
2.5681014 -2.3672872 -0.059695628 20
2.5561993 -2.3571413 0.92079562 20
2.5599632 -2.3614388 0.79460078 19
2.5495312 -2.3526397 0.6662786 16
2.564671 -2.3674393 0.5461359 15
2.562077 -2.3658729 0.42349595 21
2.5673187 -2.3715434 0.30243042 19
2.5657756 -2.3709481 0.18108241 17
2.5611145 -2.36747 0.060210798 15
1.3959113 -1.292628 -0.49952096 3
1.597066 -1.4794172 -0.49376786 3
1.8965617 -1.7574656 -0.49470508 4
2.3459551 -2.1746609 -0.50059068 4
2.6007838 -2.411727 -0.4308086 12
2.5733011 -2.3870776 -0.30373824 17
2.5644875 -2.3797345 -0.18074064 16
2.5671501 -2.3830395 -0.059868407 20
2.5550342 -2.3726227 0.9233821 18
2.5552742 -2.3736763 0.79572469 18
2.5484948 -2.3682075 0.668185 16
2.5636258 -2.3831019 0.54769856 16
2.5610714 -2.381561 0.42471462 20
2.5663188 -2.3872757 0.30330199 18
2.5647945 -2.386693 0.18160577 16
2.5601535 -2.3832083 0.060385324 16
1.3913907 -1.2974929 -0.49952096 3
1.5918921 -1.484983 -0.49376786 3
1.8904154 -1.764075 -0.49470508 3
2.3383501 -2.1828368 -0.50059068 4
2.603231 -2.4309521 -0.43263665 12
2.5722327 -2.4028459 -0.30460978 17
2.5634613 -2.3954902 -0.18126225 17
2.5661204 -2.398814 -0.060041185 20
2.5537922 -2.3881249 0.92596859 20
2.5540888 -2.3892381 0.7979725 18
2.5473802 -2.3837962 0.67009133 17
2.5625021 -2.3987861 0.54926115 15
2.5599875 -2.3972704 0.42593333 19
2.5652404 -2.4030299 0.30417356 17
2.5637343 -2.4024596 0.18212913 16
2.5627606 -2.4023871 0.060647108 15
1.3868531 -1.3023417 -0.49952096 3
1.59025 -1.4938664 -0.49489263 3
1.8842462 -1.7706631 -0.49470508 3
2.3307161 -2.1909859 -0.50059068 4
2.6019599 -2.4468236 -0.43385535 13
2.5710857 -2.4186358 -0.30548134 17
2.5623567 -2.4112673 -0.18178387 17
2.5650115 -2.4146099 -0.060213968 19
2.5524728 -2.4036472 0.92855507 21
2.5528259 -2.4048202 0.80022031 18
2.5461881 -2.3994062 0.67199773 16
2.5613005 -2.4144914 0.55082375 14
2.558825 -2.4130018 0.42715204 19
2.5677061 -2.4222233 0.30548087 17
2.5625958 -2.4182479 0.18265249 15
2.5616298 -2.4181817 0.060821634 15
1.3822986 -1.3071748 -0.49952096 3
1.5850257 -1.4994084 -0.49489263 3
1.878054 -1.7772295 -0.49470508 3
2.3230541 -2.1991081 -0.50059068 4
2.60061 -2.4627161 -0.43507403 12
2.5698595 -2.4344468 -0.30635291 17
2.5611727 -2.4270661 -0.18230549 17
2.5638235 -2.4304276 -0.060386747 20
2.5510762 -2.419189 0.93114161 19
2.5514853 -2.4204228 0.80246812 17
2.5449178 -2.4150367 0.67390412 16
2.5600202 -2.4302177 0.5523864 14
2.5575838 -2.4287536 0.42837071 19
2.566458 -2.4380329 0.30635244 18
2.5649972 -2.4374969 0.18343751 16
2.5604198 -2.4339976 0.060996156 16
1.3777274 -1.311992 -0.49952096 3
1.5833094 -1.5082921 -0.49601737 3
1.8718389 -1.7837743 -0.49470508 3
2.3153634 -2.2072036 -0.50059068 4
2.5991807 -2.4786286 -0.43629274 12
2.5685542 -2.4502785 -0.30722445 17
2.5599096 -2.4428859 -0.18282712 16
2.5625565 -2.4462662 -0.060559526 21
2.549602 -2.4347506 0.9337281 18
2.5535898 -2.4394107 0.80583984 17
2.5435691 -2.4306874 0.67581046 16
2.5586612 -2.4459643 0.553949 14
2.5562634 -2.4445262 0.42958942 18
2.5651305 -2.4538629 0.30722398 16
2.563688 -2.4533401 0.18396087 15
2.5591304 -2.4498343 0.061170679 15
1.3696535 -1.3134505 -0.49822688 3
1.5780349 -1.5138098 -0.49601737 3
1.8691422 -1.7936957 -0.49565825 3
2.3076448 -2.2152724 -0.50059068 4
2.5976717 -2.4945612 -0.43751144 12
2.5707617 -2.4695818 -0.30853182 17
2.5585673 -2.4587262 -0.18334873 16
2.5648136 -2.46559 -0.060818698 19
2.5480506 -2.4503312 0.93631458 18
2.5520813 -2.455065 0.80808765 19
2.5421424 -2.4463582 0.67771685 16
2.5572233 -2.4617307 0.55551165 15
2.5548644 -2.4603193 0.4308081 20
2.5601366 -2.4662576 0.30765978 17
2.5622995 -2.4692035 0.18448423 16
2.5577617 -2.4656918 0.061345205 15
1.3650603 -1.3182234 -0.49822688 3
1.572741 -1.5193088 -0.49601737 3
1.8628697 -1.8002093 -0.49565825 3
2.3034489 -2.2267466 -0.50137287 4
2.5996509 -2.5139632 -0.43933949 12
2.5692854 -2.4854667 -0.30940336 17
2.5571454 -2.474587 -0.18387035 16
2.5633755 -2.4814823 -0.060991481 19
2.5498908 -2.4692905 0.94019437 18
2.5539939 -2.474128 0.81145936 17
2.5441618 -2.4654644 0.68057644 16
2.5557065 -2.4775171 0.55707425 15
2.5533862 -2.4761322 0.4320268 20
2.5586624 -2.4821155 0.30853134 17
2.5608313 -2.4850872 0.18500759 16
2.5563133 -2.4815693 0.061519727 16
1.3604505 -1.3229803 -0.49822688 3
1.5674281 -1.5247895 -0.49601737 2
1.8565744 -1.8067009 -0.49565825 3
2.2956619 -2.2347734 -0.50137287 4
2.5979707 -2.529947 -0.44055817 11
2.5677299 -2.5013714 -0.31027493 17
2.555644 -2.4904675 -0.18439196 16
2.5618572 -2.4973943 -0.06116426 18
2.5481713 -2.4849203 0.94278091 17
2.5523171 -2.4898322 0.81370717 17
2.5425661 -2.4811862 0.68248284 16
2.5541108 -2.4933224 0.55863684 15
2.5553792 -2.4954319 0.43385485 20
2.5571086 -2.497993 0.30940288 16
2.5592835 -2.5009906 0.18553095 14
2.5547853 -2.4974668 0.061694253 16
1.3558242 -1.3277211 -0.49822688 3
1.5620961 -1.5302516 -0.49601737 2
1.8502564 -1.8131706 -0.49565825 4
2.2878473 -2.2427731 -0.50137287 4
2.5962102 -2.5459497 -0.44177687 12
2.5660939 -2.5172956 -0.31114647 16
2.5540628 -2.5063679 -0.18491358 16
2.5602596 -2.5133262 -0.061337039 18
2.5498199 -2.503952 0.94666064 19
2.5505614 -2.5055547 0.81595498 20
2.5443921 -2.5003672 0.68534243 16
2.5524356 -2.5091472 0.5601995 13
2.5537298 -2.5112958 0.43507352 18
2.5554752 -2.51389 0.31027445 16
2.5576556 -2.5169134 0.18605432 15
2.5531774 -2.5133836 0.061868776 15
1.3546201 -1.3358368 -0.49952096 3
1.5567449 -1.535695 -0.49601737 3
1.8439161 -1.8196181 -0.49565825 3
2.2800045 -2.2507455 -0.50137287 4
2.5943694 -2.5619707 -0.44299558 12
2.5643785 -2.5332384 -0.31201804 17
2.5524015 -2.5222874 -0.18543519 16
2.5585811 -2.5292768 -0.061509822 21
2.5479324 -2.5196295 0.94924712 17
2.552191 -2.5247219 0.8193267 17
2.5426266 -2.5161386 0.68724877 15
2.5506809 -2.5249903 0.56176215 15
2.5520005 -2.527179 0.43629223 20
2.5573003 -2.5333111 0.31158176 17
2.5559475 -2.532855 0.18657768 15
2.5514891 -2.5293195 0.062043298 15
1.349949 -1.3405572 -0.49952096 3
