# .PCD v0.7 - Point Cloud Data file format
VERSION 0.7
FIELDS x y z intensity
SIZE 4 4 4 4
TYPE F F F F
COUNT 1 1 1 1
WIDTH 1418
HEIGHT 1
VIEWPOINT 0 0 0 1 0 0 0
POINTS 1418
DATA ascii
1.6189456 2.0826256 -0.044922903 13
1.6097085 2.0699973 0.69188994 11
1.6119636 2.0721509 0.59679353 12
1.6090765 2.0676947 0.50137705 11
1.6222537 2.0838771 0.41175056 13
1.6090933 2.0662279 0.31686029 13
1.6275282 2.0891478 0.22834805 12
1.6041907 2.0584497 0.13476509 13
1.6279947 2.0882423 0.045550779 15
nan nan nan 0
1.3132954 1.6809418 -0.48364502 3
1.5499305 1.9831074 -0.48136041 4
1.6204867 2.0726373 -0.41064081 13
1.6378766 2.094126 -0.32173541 11
1.6472468 2.1053493 -0.2305273 19
1.6331332 2.08656 -0.13640311 9
1.6385335 2.0927069 -0.045268461 19
1.6347935 2.0871799 0.69964945 14
1.6312065 2.0818515 0.60128915 20
1.631424 2.0813806 0.50614297 18
1.6538961 2.1092923 0.41800103 20
1.6285475 2.0762179 0.31929767 19
1.6440355 2.0952101 0.22965539 22
1.6391134 2.0881867 0.1371202 23
1.6476238 2.0982745 0.045899823 32
nan nan nan 0
1.3251805 1.6840044 -0.48589453 3
1.5598794 1.9815419 -0.48231363 5
1.6490988 2.0941267 -0.416116 13
1.6574607 2.1039894 -0.32417279 14
1.6638348 2.1113226 -0.23183462 29
1.655863 2.1004529 -0.13770714 25
1.6582111 2.1026764 -0.045614023 27
1.660018 2.104212 0.70740896 31
1.6535549 2.0952675 0.60690868 26
1.6538862 2.0949354 0.5109089 25
1.6612488 2.1035063 0.41800103 30
1.648091 2.086097 0.32173505 24
1.6636928 2.1050899 0.23139849 30
1.6618761 2.1020367 0.1384286 23
1.6766462 2.1199584 0.046510659 74
nan nan nan 0
1.3280246 1.6755505 -0.48476982 4
1.5728858 1.983777 -0.48422 4
1.668674 2.1038342 -0.41924468 15
1.6740487 2.109854 -0.32600087 17
1.677388 2.1133049 -0.23270617 21
1.6787096 2.1142123 -0.1390112 20
1.6717595 2.1047044 -0.045786802 22
1.6793716 2.1135304 0.71258199 33
1.6699533 2.1009245 0.61028039 29
1.676463 2.1083586 0.51567489 22
1.6685812 2.0976946 0.41800103 23
1.6646328 2.0919812 0.3235631 35
1.6772351 2.1070638 0.23227006 33
1.6785344 2.1079409 0.13921364 27
1.6746916 2.1023619 0.046248872 21
nan nan nan 0
nan nan nan 0
1.5859264 1.9859453 -0.48612636 4
1.6914195 2.1172891 -0.42315558 16
1.693796 2.1195052 -0.32843825 15
1.6878648 2.1113274 -0.23314197 19
1.6891977 2.1122389 -0.139272 22
1.6853421 2.1066637 -0.045959584 20
1.6807033 2.1001136 0.70999545 22
1.6803217 2.098886 0.6114043 27
1.6807443 2.0986629 0.51472169 18
1.6758935 2.0918574 0.41800103 16
1.6781323 2.0939031 0.32478178 25
1.6876954 2.1050823 0.23270582 26
1.6921301 2.1098592 0.139737 22
1.6820199 2.0965033 0.046248872 15
nan nan nan 0
nan nan nan 0
1.6020778 1.9918715 -0.48898596 4
1.711183 2.1267624 -0.42628425 15
1.7105193 2.1251779 -0.3302663 18
1.701472 2.1131821 -0.23401353 18
1.6996928 2.1102185 -0.13953282 17
1.6958221 2.104661 -0.046045974 15
1.6880238 2.0942342 0.70999545 14
1.690696 2.0968003 0.6125282 15
1.6911411 2.0966034 0.51567489 12
1.6862862 2.089838 0.41878232 15
1.6885482 2.0918941 0.32539111 16
1.6981626 2.103054 0.23314162 23
1.7026221 2.1078241 0.13999867 14
1.6893278 2.0906191 0.046248872 17
nan nan nan 0
nan nan nan 0
1.6182896 1.9977087 -0.49184549 4
1.7248147 2.1284497 -0.42784861 16
1.7273026 2.1307592 -0.33209434 18
1.7119755 2.111099 -0.23444931 14
1.7101941 2.10815 -0.13979362 18
1.7063086 2.1026103 -0.046132363 11
1.6953237 2.0883291 0.70999545 14
1.7010763 2.0946679 0.61365211 15
1.7015444 2.0944972 0.51662809 10
1.693571 2.0839388 0.41878232 14
1.6989704 2.089838 0.32600048 12
1.7086359 2.1009777 0.23357739 19
1.7131205 2.1057413 0.14026035 14
1.6997709 2.088587 0.046336137 12
nan nan nan 0
1.3512895 1.656845 -0.48476982 3
1.6314588 1.9996538 -0.49375188 4
1.7353565 2.1262422 -0.4286308 17
1.7410071 2.1324053 -0.33331302 20
1.7256358 2.1128256 -0.23532088 11
1.723861 2.1099012 -0.14031525 13
1.7168014 2.100512 -0.046218757 15
1.7056603 2.0861378 0.71128875 13
1.7145469 2.0962598 0.61589992 15
1.7150615 2.0961425 0.51853442 14
1.7102189 2.0894797 0.42112628 14
1.712543 2.0915744 0.32721916 17
1.7222717 2.1027076 0.23444895 19
1.7236253 2.1036108 0.14052203 15
1.7133893 2.090374 0.046510659 12
nan nan nan 0
1.3570647 1.652118 -0.48476982 3
1.6384289 1.9939469 -0.49375188 5
1.7490398 2.1278017 -0.43019515 12
1.7547438 2.1339817 -0.33453172 13
1.7393289 2.1144826 -0.23619244 14
1.7343882 2.1077263 -0.14057605 14
1.7304777 2.1022263 -0.046391536 12
1.7160019 2.0838995 0.71258199 13
1.7311468 2.1015437 0.61927158 13
1.7254894 2.093931 0.51948762 11
1.7300675 2.0987403 0.4242515 15
1.722991 2.0894127 0.32782853 14
1.7359403 2.1043677 0.23532051 13
1.7373136 2.1052835 0.14104539 12
1.7270406 2.0920908 0.046685185 14
nan nan nan 0
1.3659288 1.6511247 -0.48589453 4
1.6453789 1.9882156 -0.49375188 5
1.7596056 2.1254876 -0.43097728 13
1.7685128 2.1354876 -0.3357504 15
1.7530546 2.1160698 -0.23706399 12
1.7449211 2.105504 -0.14083686 15
1.740996 2.1000216 -0.046477929 13
1.7294321 2.0853322 0.71516848 14
1.7509152 2.1104865 0.6237672 17
1.7390572 2.095449 0.52139401 12
1.7500012 2.1078873 0.42737675 12
1.739786 2.0948389 0.32965657 13
1.7496414 2.1059577 0.23619208 12
1.7478435 2.1030467 0.14130709 12
1.7375289 2.0898938 0.046772443 12
nan nan nan 0
1.3654469 1.6388608 -0.48364502 4
1.6523093 1.9824599 -0.49375188 4
1.7733392 2.1269181 -0.43254164 11
1.7823138 2.1369238 -0.33696911 15
1.7636212 2.1137621 -0.23749976 15
1.7586591 2.1070671 -0.14135848 16
1.7547239 2.1016066 -0.046650708 16
1.739797 2.0829897 0.71646172 15
1.767643 2.1155782 0.62713897 14
1.7526565 2.0968978 0.52330035 14
1.7731878 2.1207094 0.43128332 10
1.7534558 2.0963662 0.33087525 15
1.7633747 2.1074774 0.23706363 17
1.7583786 2.1007614 0.14156875 18
1.7512325 2.0914824 0.046946973 14
nan nan nan 0
nan nan nan 0
1.6655304 1.9841989 -0.49565825 4
1.7839285 2.1244972 -0.43332383 12
1.7929541 2.1344893 -0.33757848 17
1.7773976 2.1152198 -0.23837131 13
1.7692162 2.1047375 -0.14161928 15
1.7684842 2.1031213 -0.04682349 14
1.7532755 2.084296 0.71904826 15
1.7875646 2.1243064 0.63163459 17
1.7631265 2.0945222 0.52425355 15
1.7710365 2.103174 0.42893937 11
1.7671571 2.0978239 0.33209395 15
1.7771399 2.1089275 0.23793519 16
1.7689192 2.0984287 0.14183044 14
1.7617452 2.0891783 0.047034234 13
nan nan nan 0
1.3894333 1.6441727 -0.48814404 3
1.6692778 1.9746249 -0.49470508 5
1.7977114 2.1257989 -0.43488818 12
1.8068045 2.1357954 -0.33879715 18
1.7879882 2.1128051 -0.23880711 13
1.7830048 2.1061709 -0.14214091 16
1.7822763 2.1045651 -0.046996269 13
1.7667843 2.0855339 0.72163475 13
1.8075686 2.1329212 0.63613021 14
1.776775 2.0958431 0.52615994 15
1.7815615 2.1007457 0.4297207 22
1.7776797 2.095427 0.33270329 16
1.7909365 2.1103065 0.23880674 17
1.7794647 2.0960476 0.14209211 13
1.7754993 2.0906367 0.047208756 12
nan nan nan 0
1.3825339 1.6244723 -0.48364502 3
1.6729785 1.9650486 -0.49375188 4
1.8083225 2.1232703 -0.43567032 13
1.817467 2.1332529 -0.33940649 16
1.8018141 2.1141329 -0.23967867 14
1.7935854 2.103734 -0.14240173 14
1.7961 2.1059387 -0.047169048 13
1.7803231 2.0867026 0.72422123 14
1.8213286 2.1340103 0.63837802 4
1.7904539 2.0970938 0.52806634 5
1.7888837 2.0945141 0.4297207 17
1.7914307 2.0967553 0.333922 17
1.801528 2.1078284 0.23924251 12
1.7932601 2.0974135 0.14261547 14
1.7860355 2.0882258 0.047296021 16
nan nan nan 0
nan nan nan 0
1.6766328 1.9554706 -0.49279872 5
1.8189384 2.1206937 -0.43645251 16
1.8313656 2.1344287 -0.3406252 17
1.8124269 2.1116099 -0.24011444 14
1.8074235 2.105037 -0.14292334 16
1.8066974 2.1034486 -0.047255438 16
1.7907437 2.0841384 0.72551447 14
1.8287666 2.1276395 0.63837802 6
1.8105634 2.1057179 0.53187907 7
1.8026247 2.0957451 0.43128332 15
1.8019756 2.0942509 0.33453134 14
1.8153735 2.1090775 0.24011406 18
1.8070866 2.0987086 0.14313883 17
1.7998393 2.0895543 0.047470544 14
nan nan nan 0
nan nan nan 0
1.6834484 1.9496062 -0.49279872 4
1.8327864 2.1218061 -0.43801686 15
1.8420498 2.1317782 -0.34123453 17
1.8230441 2.1090388 -0.24055022 15
1.8212923 2.1062691 -0.14344496 16
1.8172995 2.1009102 -0.047341831 15
1.8043286 2.0851796 0.72810096 14
1.8425593 2.1286104 0.64062583 3
1.8275417 2.1105165 0.5347386 4
1.8163964 2.0969057 0.43284592 10
1.8157748 2.0954492 0.33575001 16
1.8259871 2.1064916 0.24054985 15
1.8209437 2.0999327 0.14366218 15
1.810398 2.0870349 0.047557805 14
1.2193818 1.4032333 -0.48787412 3
nan nan nan 0
1.6902435 1.9437181 -0.49279872 4
1.8434229 2.1191216 -0.43879902 16
1.8527375 2.1290786 -0.34184387 18
1.8369359 2.1101763 -0.24142179 14
1.8351916 2.1074297 -0.14396657 17
1.8279057 2.0983236 -0.047428217 15
1.8147695 2.08251 0.72939426 13
1.8531801 2.1258383 0.64174974 3
1.8478016 2.1189218 0.53855139 2
1.8334441 2.101717 0.43518984 5
1.8263413 2.0928373 0.33635938 15
1.8366046 2.103857 0.24098562 15
1.8348315 2.1010857 0.14418554 15
1.8242501 2.0882328 0.047732327 13
1.236995 1.413506 -0.49305049 3
nan nan nan 0
1.6970181 1.9378061 -0.49279872 4
1.8540629 2.1163886 -0.43958122 16
1.8666999 2.1300633 -0.34306258 17
1.8475739 2.1074967 -0.24185754 14
1.845829 2.1047649 -0.14422737 16
1.8418126 2.0994461 -0.047600996 15
1.8283993 2.0834229 0.73198074 13
1.8638036 2.1230175 0.64287359 3
1.8681421 2.1272106 0.54236418 2
1.8472883 2.1027246 0.43675247 6
1.8369117 2.0901773 0.33696872 15
1.8505149 2.1049151 0.24185717 16
1.8487493 2.1021667 0.14470892 15
1.8381326 2.0893593 0.047906853 14
1.2323418 1.3983096 -0.48916823 3
1.4106742 1.6000963 -0.48364502 3
1.7037719 1.9318706 -0.49279872 4
1.8679734 2.11731 -0.44114554 17
1.8774077 2.1272552 -0.34367192 17
1.8615123 2.1085024 -0.24272911 14
1.8597754 2.1057942 -0.14474899 16
1.8524399 2.0967507 -0.047687389 14
1.8388591 2.080647 0.73327404 13
1.8744299 2.1201489 0.64399755 25
1.8755561 2.1206768 0.54236418 23
1.8611617 2.1036611 0.43831509 19
1.8507745 2.0911851 0.3381874 15
1.861153 2.1021721 0.24229297 15
1.862697 2.1031766 0.14523228 15
1.8487297 2.0866721 0.047994114 12
1.2436271 1.4012237 -0.49175641 3
1.4162511 1.5951623 -0.48364502 3
1.7137644 1.9295814 -0.49375188 4
1.878633 2.1144686 -0.44192773 17
1.8914155 2.1281075 -0.34489062 17
1.8721708 2.1057143 -0.2431649 15
1.870433 2.1030204 -0.1450098 17
1.8663938 2.0977416 -0.047860172 15
1.852533 2.0814312 0.73586053 13
1.8785795 2.1099541 0.64287359 22
1.8829471 2.1141169 0.54236418 22
1.8750641 2.1045263 0.43987769 17
1.8646668 2.0921214 0.3394061 15
1.8751092 2.1030984 0.24316452 15
1.8766741 2.1041143 0.14575563 15
1.8626589 2.0876667 0.048168641 13
1.2452922 1.3932732 -0.4904623 3
1.4218106 1.590209 -0.48364502 3
1.7172172 1.919929 -0.49279872 4
1.8925883 2.1152587 -0.44349208 17
1.9054519 2.1288881 -0.34610933 17
1.8861549 2.1065881 -0.24403645 13
1.8844253 2.1039176 -0.14553143 16
1.877041 2.0949373 -0.047946557 14
1.8726819 2.0893383 0.74103355 13
1.8859332 2.1033838 0.64287359 18
1.8903154 2.1075313 0.54236418 17
1.8889953 2.1053202 0.44144034 16
1.8752735 2.089293 0.34001544 15
1.8857665 2.1002462 0.24360029 13
1.8873439 2.1012654 0.14601731 14
1.8766174 2.0885897 0.048343163 11
1.2501481 1.3889178 -0.4904623 3
1.420833 1.5779954 -0.48139551 3
1.7206237 1.9102761 -0.49184549 4
1.9065719 2.1159773 -0.44505644 16
1.9195168 2.1295965 -0.34732801 17
1.9001676 2.1073899 -0.24490802 12
1.8951021 2.1010346 -0.14579223 13
1.8910402 2.0957959 -0.04811934 12
1.8896719 2.0935445 0.74491328 10
1.8932638 2.0967879 0.64287359 16
1.9009506 2.1045623 0.54331732 17
1.9029547 2.1060421 0.44300297 17
1.8858827 2.086416 0.34062478 15
1.8997676 2.1010401 0.24447185 15
1.9013664 2.1020706 0.14654067 14
1.8906047 2.0894401 0.048517689 14
1.2517451 1.3809671 -0.48916823 3
1.4263326 1.5730261 -0.48139551 3
1.7239836 1.9006228 -0.49089235 4
1.9205835 2.1166239 -0.44662076 15
1.9302744 2.1265578 -0.34793738 17
1.914209 2.1081195 -0.24577957 12
1.909139 2.1017985 -0.14631385 17
1.9050683 2.0965819 -0.048292119 15
1.9197092 2.1119537 0.75396603 27
1.9071269 2.0973759 0.6451214 22
1.911588 2.1015451 0.54427052 22
1.9136181 2.1030393 0.44378427 17
1.8998352 2.0871603 0.34184349 15
1.9137971 2.1017618 0.2453434 15
1.9120547 2.099112 0.14680235 15
1.9046211 2.0902183 0.048692212 14
1.2565579 1.3765893 -0.48916823 3
1.4285296 1.56444 -0.4802708 3
1.7306075 1.8945934 -0.49089235 4
1.9312912 2.1135521 -0.44740292 14
1.9443822 2.1271329 -0.34915608 17
1.9282786 2.1087766 -0.24665113 12
1.9232043 2.1024902 -0.14683546 17
1.919125 2.0972955 -0.048464898 16
1.9238085 2.1016774 0.75267279 17
1.9210168 2.0978923 0.64736921 16
1.9189121 2.0948596 0.54427052 15
1.9276203 2.1036291 0.44534689 17
1.9138162 2.0878327 0.34306216 15
1.9278549 2.102411 0.24621499 16
1.9261206 2.0997841 0.14732571 16
1.9152857 2.0872409 0.048779473 15
1.2613555 1.3721948 -0.48916823 3
1.4339819 1.559444 -0.4802708 3
1.7438563 1.8957658 -0.49279872 4
1.9453452 2.1140659 -0.44896728 12
1.9551566 2.1239839 -0.34976539 17
1.9423759 2.1093609 -0.24752268 13
1.9372978 2.1031094 -0.14735709 18
1.929822 2.0942602 -0.048551291 16
1.9344065 2.0985005 0.75396603 18
1.9349337 2.0983372 0.64961702 17
1.9328688 2.0953641 0.54617691 16
1.938301 2.100517 0.44612822 16
1.9244586 2.0847862 0.34367153 14
1.9419403 2.1029878 0.24708654 16
1.9368267 2.0967157 0.14758739 16
1.9293455 2.0878856 0.048953995 14
1.2661376 1.3677834 -0.48916823 3
1.4394166 1.5544289 -0.4802708 3
1.7571342 1.8968686 -0.49470508 4
1.9560695 2.1108849 -0.44974947 11
1.9693061 2.1244254 -0.3509841 17
1.9565008 2.1098726 -0.24839425 13
1.948023 2.0999949 -0.14761789 16
1.9439217 2.0948403 -0.04872407 14
1.9417199 2.0917354 0.75396603 16
1.9455618 2.0951405 0.65074098 16
1.9435116 2.0922003 0.54713005 14
1.9523448 2.1009736 0.44769084 16
1.9384819 2.0853255 0.34489024 15
1.956053 2.1034913 0.24795809 14
1.9509355 2.0972538 0.14811075 15
1.9400276 2.0847981 0.04904126 14
1.2709044 1.3633554 -0.48916823 3
1.4448338 1.549395 -0.4802708 3
1.773789 1.9014908 -0.49756464 4
1.9667952 2.1076546 -0.4505316 9
1.9800963 2.1211662 -0.35159346 17
1.9672533 2.1066709 -0.24883004 13
1.9621586 2.1004798 -0.14813951 16
1.9546355 2.0916948 -0.048810463 14
1.9556061 2.0920012 0.75655258 16
1.9595187 2.0954535 0.65298879 16
1.9541562 2.0889881 0.54808331 14
1.9664154 2.1013579 0.44925344 15
1.9525323 2.0857923 0.34610891 15
1.9701931 2.1039221 0.24882965 14
1.9616582 2.0940754 0.14837244 14
1.9541299 2.0853093 0.049215782 13
1.2756556 1.3589109 -0.48916823 3
1.4502335 1.5443422 -0.4802708 3
1.7837764 1.8988651 -0.49851784 4
1.9775221 2.1043751 -0.45131379 8
1.9942867 2.1214731 -0.35281214 17
1.9780072 2.1034195 -0.2492658 13
1.9763212 2.1008916 -0.14866114 17
1.9687769 2.0921404 -0.048983242 15
1.966207 2.0886788 0.75784576 16
1.9735013 2.0956945 0.6552366 14
1.9648017 2.0857265 0.54903644 13
1.9805125 2.1016693 0.45081607 15
1.9666095 2.0861862 0.34732762 15
1.9809424 2.1006558 0.24926542 14
1.9758085 2.0944791 0.1488958 14
1.9648284 2.0821114 0.049303047 12
1.2803913 1.3544496 -0.48916823 3
1.4556154 1.5392705 -0.4802708 3
1.7769015 1.8783644 -0.49470508 4
1.9916444 2.1046333 -0.45287815 7
2.0085034 2.121707 -0.35403085 17
1.9921871 2.1037354 -0.25013736 13
1.9870764 2.0976052 -0.14892195 16
1.9795066 2.0888839 -0.049069632 14
1.9801316 2.0888131 0.7604323 16
1.9841572 2.0923281 0.65636045 16
1.9788264 2.0859773 0.55094284 13
1.9946357 2.101908 0.45237869 15
1.9807132 2.0865073 0.3485463 15
1.9951227 2.1009519 0.25013697 14
1.9865462 2.0911894 0.14915746 15
1.9789716 2.0824878 0.04947757 12
1.2851115 1.349972 -0.48916823 3
1.4609796 1.53418 -0.4802708 3
1.7766764 1.8650427 -0.49279872 4
2.0091996 2.1083939 -0.45522466 6
2.0193214 2.1182749 -0.35464019 17
2.0029562 2.1003735 -0.25057316 13
2.0012796 2.097882 -0.14944357 16
1.9936888 2.089195 -0.049242411 14
1.9940809 2.0888758 0.76301885 16
1.9981781 2.0924363 0.65860826 15
1.9894861 2.0826063 0.55189604 13
2.0087843 2.1020732 0.45394132 14
1.994843 2.086755 0.349765 15
2.0093293 2.1011748 0.25100854 14
2.000737 2.0914588 0.14968082 14
1.9931418 2.0827911 0.049652096 13
1.2898159 1.3454779 -0.48916823 3
1.4663259 1.529071 -0.4802708 3
1.7763799 1.8517454 -0.49089235 4
2.0233855 2.1084936 -0.45678899 11
2.033577 2.1183736 -0.35585886 17
2.0171757 2.1005542 -0.2514447 13
2.0155087 2.0980852 -0.14996518 16
2.0078974 2.0894322 -0.049415193 13
2.0080547 2.0888662 0.76560533 16
2.0122242 2.0924721 0.66085607 14
2.0035493 2.0827236 0.55380243 14
2.0229588 2.1021655 0.45550394 14
2.0089984 2.0869296 0.35098368 14
2.0235617 2.1013236 0.25188008 14
2.0149539 2.0916541 0.15020418 14
2.0073378 2.0830207 0.049826618 12
1.2945048 1.3409675 -0.48916823 3
1.4682702 1.5204387 -0.479146 3
1.7794228 1.8420031 -0.48993912 4
2.0410287 2.1120718 -0.45913553 10
2.0478578 2.1183982 -0.35707757 17
2.0279582 2.0970807 -0.25188047 13
2.0262914 2.0946257 -0.15022598 15
2.0221317 2.0895956 -0.049587972 14
2.0220528 2.0887845 0.76819187 16
2.0262949 2.0924356 0.66310394 14
2.0176375 2.0827682 0.55570877 14
2.033721 2.0986376 0.45628521 14
2.0197253 2.0834677 0.35159305 15
2.0378196 2.1013989 0.25275165 14
2.029196 2.0917757 0.15072754 13
2.0215597 2.0831761 0.050001144 13
1.2958112 1.3329777 -0.48787412 3
1.4735686 1.5153042 -0.479146 3
1.7858417 1.8357806 -0.48993912 4
2.0587213 2.1155522 -0.46148208 9
2.0587015 2.1147933 -0.35768694 16
2.0422161 2.097126 -0.25275204 12
2.0405593 2.0946932 -0.1507476 16
2.0363915 2.089685 -0.049760751 14
2.0327029 2.0851719 0.76948506 15
2.0403893 2.0923257 0.66535175 15
2.0317502 2.0827394 0.55761516 14
2.0479326 2.0985949 0.45784783 13
2.0339189 2.0835071 0.35281172 15
2.0521023 2.1013999 0.25362322 14
2.0434637 2.0918231 0.1512509 13
2.0358071 2.0832582 0.050175667 12
1.3004562 1.3284461 -0.48787412 3
1.4788491 1.5101513 -0.479146 3
1.7922388 1.8295357 -0.48993912 4
2.0695498 2.1118801 -0.46226421 9
2.073019 2.1146817 -0.35890561 16
2.0564988 2.0970972 -0.2536236 13
2.054852 2.0946865 -0.15126921 16
2.0506766 2.0897002 -0.049933534 13
2.0467362 2.0849571 0.7720716 16
2.0545077 2.0921431 0.66759956 15
2.0458872 2.0826373 0.55952156 14
2.0621686 2.0984783 0.45941046 13
2.0446584 2.0799336 0.35342106 15
2.0629177 2.0977755 0.25405899 14
2.0577562 2.0917962 0.15177426 14
2.0500796 2.0832655 0.050350189 12
1.3050854 1.3238987 -0.48787412 3
1.4875321 1.5084487 -0.4802708 3
1.7951674 1.8197744 -0.48898596 4
2.0803778 2.1081581 -0.4630464 8
2.0838747 2.1109645 -0.35951498 16
2.0708065 2.0969944 -0.25449514 13
2.0691693 2.0946054 -0.15179083 15
2.0649865 2.0896413 -0.050106313 12
2.0607927 2.0846696 0.77465808 14
2.0686498 2.0918872 0.66984737 13
2.0635004 2.0859516 0.56238109 11
2.0764287 2.0982883 0.46097311 14
2.0588889 2.0798376 0.35463977 15
2.0772374 2.0976405 0.25493056 13
2.0720735 2.0916953 0.15229762 13
2.0643771 2.0831988 0.050524715 11
1.3096988 1.3193351 -0.48787412 3
1.4927886 1.5032471 -0.4802708 3
1.7980493 1.8100146 -0.48803276 4
2.0912049 2.1043863 -0.46382856 8
2.0982282 2.1107168 -0.36073366 17
2.0851381 2.0968168 -0.25536671 12
2.0835114 2.0944498 -0.15231246 14
2.0828471 2.0930512 -0.050365485 13
2.0748718 2.0843091 0.77724457 14
2.0828147 2.0915582 0.67209518 13
2.077697 2.0856907 0.56428748 11
2.0907123 2.0980237 0.46253574 15
2.0696402 2.0761528 0.35524914 14
2.0915811 2.0974305 0.25580209 14
2.0864148 2.0915198 0.15282097 14
2.0786986 2.0830572 0.050699238 14
1.3142961 1.3147553 -0.48787412 3
1.4980268 1.4980272 -0.4802708 3
1.8043566 1.8037273 -0.48803276 4
2.1020312 2.1005647 -0.46461076 8
2.1126053 2.1103945 -0.36195236 16
2.0994935 2.0965648 -0.25623828 13
2.0978773 2.0942194 -0.15283407 16
2.0972178 2.0928307 -0.050538264 17
2.0889735 2.0838759 0.77983105 16
2.0935528 2.0877154 0.67321903 16
2.091917 2.0853558 0.56619388 15
2.1050196 2.0976849 0.46409836 17
2.0839067 2.0759208 0.35646781 14
2.1024191 2.0936313 0.25623786 17
2.1007802 2.0912693 0.15334433 16
2.0930445 2.0828414 0.050873764 14
1.3188776 1.3101596 -0.48787412 3
1.5032468 1.4927889 -0.4802708 3
1.8071584 1.79396 -0.48707953 4
2.1128561 2.096693 -0.46539292 7
2.1270053 2.1099973 -0.36317107 17
2.113873 2.0962381 -0.25710985 13
2.1122668 2.0939143 -0.15335569 18
2.1116126 2.0925353 -0.050711047 15
2.1030974 2.0833697 0.7824176 18
2.1077511 2.0872509 0.67546684 17
2.1061599 2.0849471 0.56810021 15
2.1193497 2.0972717 0.46566096 17
2.0981963 2.0756142 0.35768652 14
2.1167979 2.0932848 0.25710946 16
2.1116183 2.0874338 0.15360603 15
2.1038582 2.0790365 0.050961021 13
1.3234427 1.3055478 -0.48787412 3
1.5084484 1.4875325 -0.4802708 3
1.8134093 1.7876408 -0.48707953 4
2.1236796 2.0927713 -0.46617511 6
2.1414285 2.1095252 -0.36438975 16
2.1282754 2.0958364 -0.25798139 14
2.1266797 2.0935342 -0.15387732 18
2.1224673 2.0886579 -0.050797433 15
2.1172433 2.0827901 0.78500408 17
2.1219718 2.0867131 0.67771465 15
2.1204255 2.0844646 0.57000661 14
2.1301799 2.0933225 0.46644226 17
2.1125093 2.075233 0.3589052 14
2.1311998 2.0928628 0.257981 15
2.1260183 2.0870459 0.15412939 15
2.1182387 2.0786829 0.051135547 12
1.3279918 1.3009201 -0.48787412 3
1.5101509 1.4788493 -0.479146 3
1.8161311 1.7778665 -0.48612636 4
2.1415606 2.0957077 -0.4685216 6
2.1558743 2.1089785 -0.36560845 16
2.1427007 2.0953598 -0.25885296 14
2.1375451 2.0895882 -0.15413812 16
2.1333206 2.0847304 -0.050883826 13
2.1279557 2.0787618 0.78629738 16
2.1362143 2.0861011 0.67996246 15
2.1312008 2.0804787 0.57095981 14
2.1445429 2.0927725 0.46800488 17
2.1268451 2.0747774 0.3601239 14
2.1420584 2.0888884 0.25841677 14
2.1368661 2.0830977 0.15439107 14
2.1290622 2.0747654 0.051222809 12
1.3325249 1.2962767 -0.48787412 3
1.5153039 1.4735689 -0.479146 3
1.8258452 1.7749374 -0.48707953 4
2.155946 2.0951028 -0.47008595 5
2.170342 2.108356 -0.36682713 16
2.1571484 2.0948076 -0.25972453 14
2.1519916 2.0890701 -0.15465973 16
2.1477599 2.0842342 -0.051056605 13
2.1421323 2.0780473 0.78888386 15
2.1469808 2.0820234 0.68108642 15
2.1454985 2.0798593 0.57286614 13
2.1589282 2.0921476 0.46956751 17
2.144768 2.0776997 0.36195195 14
2.1564932 2.0883286 0.25928834 14
2.1512995 2.0825717 0.15491442 13
2.1434767 2.0742741 0.051397335 11
1.3370416 1.2916174 -0.48787412 3
1.5204383 1.4682705 -0.479146 3
1.8390927 1.7753713 -0.48898596 4
2.173907 2.0978522 -0.47243246 4
2.1848316 2.1076581 -0.36804584 16
2.1716182 2.0941801 -0.26059607 14
2.1628656 2.085011 -0.15492055 16
2.1586223 2.0801935 -0.051142998 13
2.1563296 2.0772586 0.79147035 16
2.1612542 2.0812755 0.68333423 13
2.1562817 2.0757616 0.57381934 13
2.1733351 2.0914476 0.47113013 17
2.1591604 2.0770814 0.36317062 15
2.1709502 2.0876935 0.26015988 14
2.1657553 2.0819702 0.15543778 13
2.1543088 2.0702434 0.051484596 12
1.341542 1.2869424 -0.48787412 3
1.522038 1.4595823 -0.47802129 3
1.8629946 1.7859238 -0.49375188 4
2.1883481 2.0970848 -0.47399682 5
2.199343 2.1068852 -0.36926451 16
2.1861103 2.093477 -0.26146764 14
2.1773443 2.0843542 -0.15544216 15
2.1730938 2.0795586 -0.051315777 13
2.1705477 2.0763965 0.79405689 15
2.1755483 2.0804529 0.68558204 13
2.17061 2.0750055 0.57572573 13
2.187763 2.0906723 0.47269273 17
2.1735744 2.0763879 0.36438933 14
2.1854289 2.0869825 0.26103145 14
2.1802328 2.0812931 0.15596114 13
2.1687555 2.0696135 0.051659122 12
1.3460262 1.2822517 -0.48787412 3
1.5271236 1.4542606 -0.47802129 3
1.8549969 1.765873 -0.48993912 4
2.2028096 2.096242 -0.47556117 5
2.2138753 2.1060359 -0.37048322 15
2.2006235 2.0926983 -0.2623392 13
2.1918445 2.0836217 -0.15596379 15
2.1875877 2.0788481 -0.05148856 12
2.1847861 2.0754602 0.79664338 15
2.1933956 2.0829108 0.6889537 14
2.1849594 2.0741746 0.57763213 13
2.2022121 2.0898218 0.47425535 17
2.1880105 2.0756192 0.36560804 13
2.1999292 2.0861962 0.26190299 14
2.194732 2.0805404 0.1564845 13
2.1832242 2.068908 0.051833645 12
1.3469853 1.2742263 -0.48658001 3
1.5321906 1.448921 -0.47802129 3
1.8754171 1.7728744 -0.49375188 4
2.2172921 2.0953238 -0.4771255 5
2.2320359 2.1085191 -0.37231123 16
2.2151577 2.0918436 -0.26321074 13
2.2099972 2.0862405 -0.15674621 16
2.2021027 2.0780616 -0.051661339 13
2.2025573 2.077764 0.80052316 15
2.2077425 2.0819273 0.69120157 13
2.1993296 2.0732687 0.57953846 13
2.2202761 2.0922828 0.47659931 17
2.2024667 2.0747745 0.36682671 14
2.2144501 2.0853338 0.26277456 14
2.2092524 2.0797117 0.15700787 13
2.1977141 2.0681264 0.052008171 12
1.3514249 1.2695168 -0.48658001 3
1.537239 1.4435638 -0.47802129 3
1.8601227 1.746161 -0.48803276 4
2.2317951 2.0943298 -0.47868985 4
2.2466211 2.1075058 -0.37352994 16
2.229713 2.0909128 -0.26408231 13
2.2245514 2.0853434 -0.15726782 15
2.2202866 2.0806174 -0.051920507 13
2.2168465 2.0766671 0.80310965 16
2.2221088 2.0808685 0.69344938 13
2.2137196 2.0722876 0.58144486 13
2.2347779 2.0912688 0.47816193 15
2.216944 2.0738544 0.36804542 14
2.228992 2.0843954 0.26364613 13
2.2274411 2.0822165 0.1577929 13
2.2158775 2.0706823 0.052269954 10
1.3558482 1.2647917 -0.48658001 3
1.5422686 1.438189 -0.47802129 3
1.8554356 1.7296169 -0.48517317 4
2.2463176 2.0932603 -0.4802542 4
2.2612269 2.1064162 -0.37474868 15
2.2442884 2.0899057 -0.26495388 12
2.2427816 2.0877721 -0.15805025 15
2.2348554 2.0796657 -0.052093286 9
2.2346909 2.0787847 0.80698937 13
2.2364943 2.0797346 0.69569719 11
2.2281299 2.0712311 0.58335125 10
2.2529175 2.0935407 0.48050588 16
2.2314417 2.0728583 0.3692641 14
2.2472043 2.0867703 0.26495346 11
2.2420149 2.0812228 0.15831625 10
2.2304211 2.069736 0.052444477 12
1.3602549 1.2600511 -0.48658001 3
1.550854 1.4361069 -0.479146 3
1.85786 1.7197955 -0.48422 4
2.2536108 2.0854063 -0.4802542 5
2.275852 2.1052501 -0.37596735 15
2.258884 2.0888226 -0.26582542 13
2.2573891 2.0867095 -0.15857187 14
2.2531159 2.0820305 -0.052352462 14
2.2490289 2.0775261 0.80957586 15
2.2508991 2.0785255 0.697945 15
2.2425594 2.0700996 0.58525759 15
2.2674704 2.0923622 0.48206848 16
2.2459593 2.0717864 0.3704828 13
2.2617981 2.0856667 0.265825 13
2.2602799 2.0835366 0.15910131 15
2.2486615 2.0721009 0.052706264 13
1.364645 1.2552954 -0.48658001 3
1.5558574 1.4306847 -0.479146 3
1.8638519 1.7132998 -0.48422 4
2.2608767 2.077527 -0.4802542 4
2.2904966 2.1040077 -0.37718606 15
2.273499 2.0876627 -0.26669699 13
2.2756944 2.0889463 -0.1593543 17
2.2677369 2.0809131 -0.052525241 14
2.2633855 2.0761926 0.8121624 17
2.2653224 2.0772412 0.70019281 15
2.2606263 2.0722089 0.58811718 14
2.2820427 2.0911071 0.4836311 17
2.2604966 2.0706382 0.37170148 13
2.276412 2.0844865 0.26669657 12
2.2749054 2.082377 0.15962467 14
2.2632573 2.0709887 0.05288079 14
1.3690186 1.2505242 -0.48658001 3
1.5572443 1.4219599 -0.47802129 3
1.8661958 1.7034742 -0.4832668 3
2.2681148 2.0696225 -0.4802542 5
2.3051598 2.1026883 -0.37840474 15
2.2881336 2.086426 -0.26756853 13
2.2903526 2.0877175 -0.15987591 17
2.2823772 2.0797186 -0.05269802 15
2.2777603 2.0747843 0.81474888 17
2.2797644 2.0758817 0.70244062 16
2.2751055 2.0709131 0.59002358 14
2.2966332 2.089776 0.48519373 16
2.275053 2.0694137 0.37292019 14
2.2910447 2.0832295 0.26756814 13
2.2895501 2.0811403 0.16014802 15
2.2778723 2.0697997 0.053055312 12
1.3697981 1.242493 -0.48528594 3
1.5621984 1.4165155 -0.47802129 3
1.8721306 1.6969496 -0.4832668 4
2.2716653 2.0583766 -0.47947201 5
2.3198416 2.1012924 -0.37962344 15
2.3027873 2.0851128 -0.2684401 12
2.3050301 2.086412 -0.16039754 16
2.2970369 2.0784476 -0.052870803 13
2.2921526 2.0733006 0.81733537 15
2.2942245 2.0744464 0.70468843 15
2.289603 2.0695415 0.59192997 13
2.3112428 2.0883687 0.48675635 16
2.289628 2.0681126 0.37413886 13
2.3056967 2.0818958 0.26843968 11
2.3042135 2.0798268 0.16067138 14
2.2925067 2.0685339 0.053229839 11
1.3741268 1.2377039 -0.48528594 3
1.5671335 1.4110537 -0.47802129 3
1.8743947 1.6871207 -0.48231363 4
2.2788367 2.0504344 -0.47947201 4
2.334542 2.0998194 -0.38084212 14
2.3211634 2.0870531 -0.26974744 12
2.3160126 2.0816908 -0.16065834 16
2.3117154 2.0770991 -0.053043582 12
2.3065624 2.0717413 0.81992191 15
2.3087018 2.0729353 0.70693624 14
2.3041184 2.068094 0.59383631 13
2.32587 2.0868845 0.48831898 16
2.3042223 2.066735 0.37535757 13
2.3203666 2.0804851 0.26931125 12
2.3151777 2.0751038 0.16093306 12
2.3071597 2.0671909 0.053404361 11
1.3748392 1.2296801 -0.48399183 3
1.5684175 1.4023275 -0.47689649 3
1.8802724 1.6805676 -0.48231363 4
2.2859802 2.0424674 -0.47947201 5
2.3492603 2.0982692 -0.38206083 15
2.3358655 2.085573 -0.270619 13
2.3307152 2.0802433 -0.16117996 15
2.3226821 2.0723455 -0.053129975 13
2.3209889 2.0701072 0.82250839 14
2.3231966 2.0713484 0.70918405 14
2.3186517 2.0665698 0.5957427 13
2.3405151 2.0853236 0.48988158 16
2.3188341 2.0652804 0.37657624 13
2.3350551 2.0789971 0.27018279 12
2.3298669 2.0736489 0.16145642 12
2.3218315 2.0657711 0.053578883 11
1.3791231 1.2248737 -0.48399183 3
1.5733031 1.3968441 -0.47689649 3
1.8824563 1.6707358 -0.48136041 3
2.2930958 2.0344753 -0.47947201 5
2.363996 2.0966418 -0.38327953 15
2.3505855 2.0840151 -0.27149057 13
2.3454361 2.0787187 -0.16170157 15
2.3373857 2.0708556 -0.053302754 12
2.3354323 2.0683975 0.82509488 15
2.3377085 2.0696857 0.7114318 12
2.3368778 2.0682225 0.59860224 12
2.3551776 2.0836854 0.4914442 16
2.3334641 2.0637491 0.37779495 13
2.353493 2.0807312 0.27149016 12
2.3445737 2.0721166 0.16197978 12
2.3365214 2.0642738 0.05375341 11
1.3833903 1.2200521 -0.48399183 3
1.574515 1.3881221 -0.47577178 3
1.8845943 1.6609094 -0.48040724 4
2.303889 2.0297232 -0.4802542 5
2.3824732 2.0982172 -0.38510755 15
2.3653231 2.0823803 -0.27236211 13
2.3601744 2.0771165 -0.1622232 14
2.3558602 2.0725904 -0.053561922 13
2.3498917 2.0666118 0.82768142 15
2.355896 2.0711632 0.71480352 14
2.3514566 2.0665331 0.60050863 12
2.3698568 2.0819707 0.49300683 16
2.3518405 2.0654156 0.379623 13
2.3682282 2.0790756 0.2723617 12
2.3592982 2.070507 0.16250314 12
2.3549869 2.0659959 0.054015197 11
1.3876406 1.2152157 -0.48399183 3
1.5793508 1.3826175 -0.47577178 3
1.8903806 1.6543208 -0.48040724 4
2.3109603 2.0216687 -0.4802542 4
2.3972542 2.0964217 -0.38632622 14
2.3838272 2.0839455 -0.27366945 12
2.3749304 2.0754368 -0.16274482 15
2.3706107 2.0709321 -0.053734701 12
2.368005 2.0679274 0.83156121 14
2.3704519 2.0693352 0.71705133 14
2.3697503 2.0679939 0.60336822 13
2.3882742 2.083425 0.49535075 16
2.3665164 2.0637171 0.3808417 13
2.3829803 2.0773423 0.27323326 11
2.3778043 2.0720999 0.16328818 12
2.3697233 2.0643303 0.054189719 11
1.3916627 1.2106075 -0.48399183 3
1.5836866 1.3776491 -0.47577178 3
1.8881608 1.6419321 -0.47850087 4
2.3173001 2.0143988 -0.4802542 5
2.4150665 2.0986459 -0.3881543 14
2.3978832 2.0829794 -0.27454099 12
2.3927491 2.0777869 -0.16352725 15
2.3884308 2.0733061 -0.053993873 12
2.3817859 2.0668089 0.83414769 14
2.3879824 2.0714555 0.72042304 13
2.3873603 2.0701859 0.60622776 12
2.4022713 2.0823815 0.49691334 16
2.3842394 2.0660222 0.38266972 13
2.4007893 2.0796294 0.27454057 11
2.3918517 2.0711567 0.16381153 12
2.3875363 2.0666909 0.054451503 10
1.3993239 1.2091435 -0.48528594 3
1.5847991 1.3689278 -0.47464699 3
1.8901658 1.6321235 -0.47754765 4
2.3280559 2.0095246 -0.48103639 5
2.4298918 2.0966871 -0.38937297 14
2.4126828 2.0811033 -0.27541256 12
2.4075503 2.0759435 -0.16404887 15
2.4032266 2.0714841 -0.054166656 11
2.3999627 2.0679405 0.83802748 13
2.4025812 2.0694664 0.72267085 13
2.4020109 2.0682452 0.60813409 12
2.4170115 2.0804269 0.49847597 15
2.3989604 2.0641606 0.38388839 13
2.4155865 2.0777326 0.27541214 12
2.4104249 2.0725613 0.16459657 10
2.4023182 2.0648618 0.054626029 9
1.4039564 1.2037616 -0.48528594 3
1.5900437 1.3628325 -0.47464699 3
1.8926916 1.6216604 -0.47659451 4
2.3357549 2.0005705 -0.48103639 4
2.4454644 2.093797 -0.39059168 14
2.4282243 2.0783014 -0.27628413 12
2.4268856 2.0764222 -0.16483128 12
2.4225605 2.0719895 -0.054425824 11
2.4188981 2.068126 0.8419072 11
2.4216208 2.0697224 0.72604263 11
2.4211302 2.0685718 0.61099368 11
2.4362481 2.0807528 0.50081992 15
2.414417 2.061379 0.3851071 13
2.4311237 2.0749092 0.27628368 11
2.4259622 2.069772 0.16511993 11
2.4216402 2.0653546 0.054887816 11
1.4081497 1.1988535 -0.48528594 3
1.5947911 1.3572739 -0.47464699 3
1.8946021 1.611863 -0.47564128 3
2.3464856 1.9956045 -0.48181856 4
2.4641013 2.0948913 -0.39241973 15
2.4430549 2.0762641 -0.27715567 12
2.4417298 2.0744038 -0.1653529 13
2.4373994 2.0699928 -0.054598603 14
2.4334662 2.0659218 0.84449369 14
2.43626 2.0675616 0.72829044 14
2.4358218 2.0664585 0.61290008 14
2.4510293 2.0786245 0.50238252 17
2.4291689 2.0593567 0.38632578 12
2.4497519 2.0760715 0.27759105 13
2.4446015 2.0709739 0.16590497 14
2.4364693 2.0633454 0.055062339 13
1.4086376 1.1908129 -0.48399183 3
1.5995193 1.3516989 -0.47464699 3
1.8964676 1.6020725 -0.47468811 3
2.3572106 1.9905879 -0.48260072 4
2.4789832 2.0926797 -0.39363843 14
2.4617078 2.0773606 -0.27846304 12
2.4604058 2.075527 -0.16613534 17
2.4560757 2.0711405 -0.054857776 14
2.4517415 2.0667536 0.84837347 17
2.4546392 2.0684636 0.73166209 16
2.4505279 2.0642679 0.61480647 15
2.4658253 2.0764182 0.50394517 17
2.4439359 2.0572567 0.38754448 12
2.464606 2.0739217 0.27846259 14
2.4594579 2.0688565 0.16642833 14
2.4513052 2.0612679 0.055236865 12
1.4127859 1.1858886 -0.48399183 3
1.6042278 1.3461072 -0.47464699 3
1.9020483 1.5954429 -0.47468811 3
2.3641446 1.9823475 -0.48260072 4
2.4938796 2.0903895 -0.39485711 14
2.4765799 2.0751531 -0.27933457 11
2.4752913 2.0733383 -0.16665696 17
2.4709563 2.0689735 -0.055030555 13
2.4663484 2.0643828 0.85095996 16
2.4693174 2.0661354 0.7339099 15
2.4652486 2.0619996 0.61671281 14
2.4844246 2.077302 0.50628912 16
2.4587178 2.0550787 0.38876316 13
2.4794753 2.0716934 0.27933416 13
2.474329 2.0666604 0.16695169 13
2.4661603 2.0591068 0.055411387 11
1.4169168 1.1809499 -0.48399183 3
1.6126597 1.3436178 -0.47577178 3
1.9038341 1.5856524 -0.47373492 3
2.3786402 1.9804026 -0.48416507 4
2.5126042 2.0911956 -0.39668515 14
2.4914665 2.0728669 -0.28020614 12
2.4901912 2.0710707 -0.16717857 15
2.4858515 2.0667276 -0.055203337 12
2.4809682 2.0619354 0.8535465 14
2.4840097 2.06373 0.73615772 13
2.4799831 2.0596535 0.6186192 14
2.4992599 2.0749261 0.50785172 15
2.4773331 2.0559916 0.39059123 13
2.4943583 2.0693865 0.2802057 12
2.4892149 2.0643857 0.16747504 12
2.4810302 2.0568674 0.05558591 10
1.4210304 1.1759968 -0.48399183 3
1.6173401 1.3379804 -0.47577178 3
1.9093575 1.578997 -0.47373492 3
2.3855388 1.9720876 -0.48416507 4
2.5275395 2.0887351 -0.39790383 14
2.5102074 2.0736747 -0.28151348 11
2.5051057 2.0687246 -0.16770019 14
2.5007615 2.0644033 -0.055376116 12
2.4956009 2.0594108 0.85613298 14
2.4987149 2.0612476 0.73840553 13
2.4947312 2.0572298 0.6205256 12
2.5141091 2.0724721 0.50941437 16
2.4921544 2.0536437 0.39180991 12
2.5092556 2.0670009 0.28107727 11
2.5041149 2.0620322 0.16799842 11
2.4959145 2.0545487 0.055760436 11
1.4288582 1.1740954 -0.48528594 3
1.6220006 1.3323267 -0.47577178 2
1.9148576 1.5723226 -0.47373492 3
2.3885906 1.960615 -0.48338288 4
2.546325 2.0893435 -0.3997319 14
2.5251329 2.0712175 -0.28238505 12
2.5200341 2.0662994 -0.1682218 14
2.5195515 2.0651686 -0.055635288 12
2.5139821 2.0598702 0.86001271 14
2.5172021 2.0617745 0.74177724 14
2.5094922 2.0547276 0.62243193 12
2.5289714 2.0699396 0.51097697 15
2.5069895 2.0512171 0.39302862 12
2.5241671 2.0645363 0.28194883 12
2.5190284 2.0595999 0.16852178 12
2.5146835 2.055315 0.056022223 10
1.4329479 1.1691005 -0.48528594 3
1.6266414 1.3266567 -0.47577178 3
1.9165304 1.5625274 -0.47278175 3
2.391592 1.9491458 -0.48260072 4
2.5612974 2.0867116 -0.40095058 13
2.5439339 2.0718267 -0.28369236 11
2.5349758 2.0637953 -0.16874342 14
2.5344999 2.0626724 -0.055808067 12
2.5286505 2.0571785 0.86259925 14
2.5319433 2.059123 0.74402505 13
2.528075 2.055244 0.62529153 12
2.5476792 2.0704432 0.51332086 15
2.5256901 2.0518413 0.39485666 12
2.5390913 2.0619926 0.28282037 11
2.5378318 2.060235 0.16930681 12
2.5296061 2.052825 0.056196745 10
1.4370199 1.1640915 -0.48528594 3
1.6312623 1.3209707 -0.47577178 2
1.921973 1.5558281 -0.47278175 3
2.3945422 1.9376791 -0.48181856 4
2.5762827 2.0840006 -0.40216929 14
2.5588965 2.0691979 -0.28456393 12
2.5538139 2.0643508 -0.16952586 14
2.5494616 2.060097 -0.05598085 13
2.5470874 2.0574441 0.86647898 14
2.5504873 2.0594547 0.74739677 14
2.5428724 2.0525727 0.62719792 12
2.5625775 2.06774 0.51488352 16
2.5405626 2.0492442 0.39607537 12
2.5579062 2.0624967 0.28412771 12
2.5527833 2.057631 0.16983017 12
2.548435 2.0533924 0.056458529 10
1.4410747 1.1590682 -0.48528594 3
1.6320667 1.3122156 -0.47464699 3
1.9273921 1.5491097 -0.47278175 3
2.4012914 1.9293087 -0.48181856 4
2.5951493 2.0843179 -0.4039973 13
2.5777562 2.0696082 -0.28587127 11
2.5687923 2.0616744 -0.17004748 14
2.5683351 2.0605702 -0.056240018 12
2.5617895 2.054584 0.86906546 13
2.5690644 2.0596819 0.75076848 13
2.5615118 2.0528924 0.63005745 12
2.5813425 2.0680459 0.51722747 15
2.5593209 2.04967 0.39790338 12
2.5728667 2.0597813 0.28499928 11
2.5716455 2.0580673 0.17061521 12
2.5633943 2.05073 0.056633055 10
1.4449104 1.1542832 -0.48528594 3
1.6361811 1.3070819 -0.47464699 3
1.9284137 1.5399841 -0.47182852 3
2.4073405 1.9217552 -0.48181856 4
2.6133218 2.0854411 -0.40582538 13
2.5920327 2.0677123 -0.28674284 12
2.5869684 2.0629337 -0.17082989 14
2.5826142 2.0587239 -0.056412797 12
2.5795634 2.0555558 0.87294525 14
2.5831439 2.057672 0.75301629 12
2.5756278 2.0509503 0.63196379 11
2.5955544 2.0660775 0.51879007 15
2.5773976 2.0508897 0.39973143 12
2.5910194 2.0609903 0.28630662 11
2.5859146 2.0561931 0.17113857 11
2.5776515 2.0488882 0.056807578 11
1.4487302 1.1494852 -0.48528594 3
1.6407337 1.3013625 -0.47464699 3
1.9337776 1.5332433 -0.47182852 3
2.4179046 1.9164079 -0.48260072 4
2.6283648 2.0824699 -0.40704405 13
2.6109486 2.0679293 -0.28805017 13
2.6019833 2.0600896 -0.17135151 15
2.5976248 2.0559015 -0.056585576 14
2.5980859 2.0555291 0.87682498 14
2.6017749 2.0577095 0.75638807 13
2.5943222 2.0510793 0.63482338 13
2.6143746 2.0661914 0.52113402 17
2.5962229 2.0511098 0.40155947 13
2.6060154 2.0581076 0.28717816 14
2.6048336 2.0564361 0.17192361 12
2.5965607 2.0491693 0.057069365 12
1.4529335 1.1441678 -0.48528594 3
1.6416644 1.2923268 -0.47352228 3
1.9393843 1.5261453 -0.47182852 3
2.4249122 1.9075332 -0.48260072 4
2.6437819 2.0789578 -0.40826276 14
2.6263421 2.0645022 -0.28892171 11
2.6212947 2.0597944 -0.17213394 16
2.6169369 2.0556314 -0.056844749 12
2.6131997 2.0519583 0.87941152 16
2.6169639 2.0541761 0.75863582 15
2.6095452 2.047617 0.63672978 12
2.6297016 2.0626912 0.52269661 15
2.6115341 2.0477047 0.40277815 14
2.6253023 2.0577605 0.2884855 12
2.620214 2.0530343 0.17244697 12
2.6119254 2.0458043 0.057243891 11
1.4569186 1.139089 -0.48528594 3
1.6461654 1.2865884 -0.47352228 3
1.9408318 1.5163444 -0.47087535 3
2.431556 1.899057 -0.48260072 4
2.6588464 2.0758247 -0.40948144 15
2.641386 2.0614512 -0.28979328 14
2.6363423 2.0567746 -0.17265557 14
2.6319807 2.0526328 -0.057017531 15
2.6317739 2.051733 0.8832913 14
2.6356471 2.054013 0.76200753 14
2.6282933 2.0475447 0.63958937 14
2.6446784 2.0595679 0.52425927 16
2.630414 2.0477219 0.40460619 13
2.640331 2.054702 0.28935707 15
2.6391878 2.0530729 0.173232 14
2.6269436 2.0428121 0.057418413 11
1.4610838 1.1337415 -0.48528594 3
1.65087 1.2805463 -0.47352228 2
1.9463766 1.5092207 -0.47087535 3
2.4345968 1.8871065 -0.48181856 4
2.6742823 2.0721447 -0.41070014 15
2.6567998 2.0578566 -0.29066485 15
2.6557071 2.0562687 -0.17343798 17
2.6513464 2.0521522 -0.0572767 15
2.6469162 2.0479846 0.88587779 16
2.6508656 2.0503006 0.76425534 14
2.6435461 2.0439024 0.64149576 13
2.6600244 2.0559011 0.52582186 20
2.645756 2.0441356 0.4058249 13
2.6596706 2.0541451 0.2906644 15
2.6545994 2.0494888 0.17375536 14
2.6462858 2.0423334 0.057680197 16
1.4650323 1.1286346 -0.48528594 3
1.6553298 1.2747759 -0.47352228 2
1.9516329 1.5024174 -0.47087535 3
2.4333417 1.872573 -0.4802542 4
2.6893663 2.0688493 -0.41191885 16
2.675812 2.0576789 -0.29197219 11
2.6747451 2.0561156 -0.17422041 21
2.6703858 2.0520229 -0.057535872 16
2.6655395 2.047559 0.88975751 18
2.6695988 2.0499368 0.76762706 17
2.6623449 2.0436282 0.6443553 14
2.6750207 2.0526161 0.52738446 11
2.6646883 2.0439491 0.40765294 17
2.6786828 2.053941 0.29197174 13
2.6736264 2.0493228 0.17454042 14
2.6653078 2.0422001 0.057941984 11
1.4689631 1.1235137 -0.48528594 3
1.6558992 1.2660309 -0.47239748 3
1.9568654 1.4955958 -0.47087535 3
2.4320152 1.8580714 -0.47868985 3
2.7044597 2.0654731 -0.41313753 10
2.6948557 2.0573938 -0.29327953 9
2.6938138 2.0558543 -0.17500284 14
2.6894565 2.0517862 -0.057795044 15
2.6841919 2.0470288 0.8936373 14
2.6883616 2.0494668 0.77099878 13
2.6811743 2.0432477 0.64721489 14
2.6939547 2.0522442 0.52972841 13
2.6836514 2.0436552 0.40948096 12
2.697726 2.0536294 0.29327908 14
2.6926837 2.0490487 0.17532544 14
2.6843531 2.0419693 0.058203775 12
1.472876 1.1183792 -0.48528594 3
1.6603084 1.2602431 -0.47239748 3
1.9620739 1.4887559 -0.47087535 3
2.4306166 1.8436021 -0.4771255 3
2.7156076 2.0590189 -0.41374689 8
2.7139297 2.0570006 -0.29458687 7
2.712913 2.0554848 -0.17578526 16
2.7085578 2.051441 -0.058054212 14
2.7028732 2.0463929 0.89751709 16
2.707154 2.0488911 0.77437049 15
2.7000329 2.0427604 0.65007442 14
2.712919 2.051765 0.53207237 13
2.7026453 2.0432537 0.41130903 14
2.7167995 2.0532095 0.29458642 14
2.7157559 2.0516763 0.17637217 13
2.707422 2.0446379 0.05855282 11
1.4767709 1.1132312 -0.48528594 3
1.6646974 1.2544397 -0.47239748 3
1.9672587 1.4818981 -0.47087535 3
2.429147 1.8291651 -0.47556117 3
2.7307084 2.055496 -0.41496557 6
2.7330339 2.0564992 -0.29589421 15
2.7320428 2.055007 -0.1765677 16
2.7316849 2.0539916 -0.058399774 14
2.7215824 2.0456517 0.90139681 17
2.7259748 2.0482087 0.77774227 16
2.7228453 2.0451138 0.65388715 15
2.7319121 2.0511782 0.53441626 13
2.7216682 2.0427442 0.41313705 15
2.7359025 2.0526814 0.29589376 14
2.7348847 2.0511718 0.17715721 13
2.726542 2.0441713 0.058814604 12
1.4806478 1.1080694 -0.48528594 3
1.6690661 1.2486212 -0.47239748 2
1.9724196 1.4750218 -0.47087535 3
2.4276066 1.8147609 -0.47399682 3
2.7458174 2.051893 -0.41618428 7
2.7521672 2.0558896 -0.29720154 11
2.7472012 2.0514331 -0.17708932 15
2.7508569 2.0534151 -0.058658946 15
2.7403195 2.0448046 0.9052766 17
2.7487288 2.0503328 0.78223783 16
2.7417719 2.0443988 0.65674675 15
2.7509344 2.0504839 0.53676021 13
2.740721 2.0421269 0.41496509 15
2.7550352 2.0520449 0.29720107 13
2.7540429 2.0505583 0.17794225 13
2.7456923 2.043596 0.059076395 11
1.4845066 1.1028943 -0.48528594 3
1.6734143 1.2427875 -0.47239748 2
1.9775565 1.4681278 -0.47087535 3
2.4259951 1.8003899 -0.47243246 3
2.7649202 2.0511661 -0.41801229 7
2.7713294 2.055171 -0.29850888 10
2.7663786 2.0507514 -0.17787173 16
2.7700574 2.0527296 -0.058918115 14
2.7629645 2.0467262 0.91044956 16
2.7676153 2.0494235 0.78560954 16
2.7607269 2.043577 0.65960634 14
2.7699847 2.0496814 0.5391041 14
2.7637918 2.0443525 0.41740248 15
2.7782013 2.054261 0.29894418 13
2.7692144 2.0468683 0.1784656 13
2.7648711 2.0429118 0.059338178 11
1.4883474 1.0977056 -0.48528594 3
1.6777424 1.2369387 -0.47239748 2
1.9787178 1.458304 -0.46992216 3
2.4282887 1.7889812 -0.47165027 3
2.7800555 2.0473883 -0.419231 6
2.79052 2.0543439 -0.29981622 10
2.7855852 2.0499611 -0.17865416 16
2.78526 2.0489726 -0.059090894 15
2.781765 2.0456533 0.91432929 15
2.7865288 2.0484073 0.78898126 15
2.7797091 2.0426469 0.66246587 15
2.7890635 2.0487714 0.54144806 13
2.7829113 2.0435045 0.41923052 14
2.7974012 2.0533929 0.30025154 13
2.7884195 2.0460515 0.17925064 13
2.7800474 2.0391619 0.059512701 11
1.4882734 1.0896506 -0.48399183 3
1.6820498 1.2310748 -0.47239748 2
1.9837961 1.451388 -0.46992216 3
2.4305327 1.7775789 -0.47086814 3
2.7992041 2.0464582 -0.42105904 6
2.8097386 2.0534074 -0.30112356 10
2.8048196 2.0490618 -0.17943659 16
2.8045073 2.0480831 -0.059350066 14
2.8005917 2.0444744 0.91820908 16
2.8054686 2.0472841 0.79235297 16
2.7987185 2.0416095 0.66532546 15
2.8081689 2.0477524 0.54379201 13
2.8020587 2.0425479 0.42105857 15
2.812603 2.0494826 0.30112308 13
2.8076525 2.045125 0.18003568 13
2.7992728 2.0382736 0.059774488 11
1.4920678 1.0844489 -0.48399183 3
1.6902783 1.2280594 -0.47352228 2
1.9888505 1.4444546 -0.46992216 3
2.4447153 1.7748866 -0.47243246 3
2.822396 2.0483344 -0.42349643 6
2.8289845 2.0523622 -0.3024309 11
2.8240814 2.0480528 -0.18021902 16
2.8237817 2.0470836 -0.059609234 14
2.8194437 2.0431883 0.9220888 16
2.8244345 2.0460534 0.79572469 15
2.817754 2.0404639 0.668185 14
2.827301 2.0466251 0.5461359 13
2.821233 2.0414824 0.42288661 16
2.8318477 2.0484102 0.30243042 13
2.8269126 2.0440891 0.18082072 13
2.8185256 2.0372756 0.060036272 11
1.4958442 1.079234 -0.48399183 3
1.6906034 1.2193018 -0.47239748 2
1.9938804 1.4375033 -0.46992216 3
2.450896 1.7663423 -0.47243246 3
2.841609 2.0471728 -0.4253245 6
2.8482571 2.0512071 -0.30373824 11
2.8433704 2.0469344 -0.18100145 16
2.8430836 2.0459747 -0.059868407 13
2.838321 2.0417955 0.92596859 16
2.8394706 2.0418706 0.7979725 16
2.8368161 2.0392103 0.67104459 15
2.8464596 2.0453892 0.54847986 13
2.8404338 2.0403078 0.42471462 15
2.8511183 2.0472281 0.30373776 13
2.8462 2.042944 0.18160577 12
2.8378053 2.0361681 0.060298059 11
1.4956758 1.0711938 -0.48269776 3
1.6988105 1.2162292 -0.47352228 2
2.0028775 1.4333911 -0.47087535 3
2.4771287 1.772143 -0.4763433 3
2.8608477 2.0459013 -0.42715251 6
2.871608 2.0528393 -0.30548134 11
2.8626854 2.0457058 -0.18178387 15
2.8624122 2.0447559 -0.060127579 14
2.857223 2.0402958 0.92984837 15
2.8584769 2.0404382 0.80134422 16
2.8559031 2.0378485 0.67390412 15
2.8656435 2.0440443 0.55082375 12
2.8556199 2.0361426 0.42593333 15
2.8704154 2.0459366 0.3050451 13
2.8655131 2.0416884 0.18239079 13
2.8571117 2.0349507 0.06055985 10
1.4954695 1.063168 -0.48140365 3
1.6831896 1.1961809 -0.46789846 2
2.0078688 1.4263911 -0.47087535 3
2.4671941 1.7520481 -0.47321463 3
2.8801122 2.0445209 -0.42898059 6
2.8909426 2.0514505 -0.30678868 11
2.8860993 2.0472562 -0.18282712 15
2.8817663 2.0434268 -0.060386747 13
2.8761482 2.0386889 0.9337281 15
2.8775079 2.0388982 0.80471593 16
2.8750153 2.0363784 0.67676371 14
2.8848526 2.0425901 0.5531677 12
2.8748624 2.0347633 0.42776138 15
2.8897381 2.0445352 0.30635244 12
2.8848524 2.040323 0.18317585 13
2.8764436 2.0336227 0.060821634 11
1.5031176 1.060726 -0.48269776 3
1.7192029 1.2127645 -0.47689649 2
2.0208583 1.4250308 -0.47278175 3
2.457149 1.7320442 -0.47008595 3
2.8994014 2.0430307 -0.4308086 6
2.9103024 2.0499518 -0.30809602 11
2.9054761 2.0457938 -0.18360955 15
2.9011459 2.0419874 -0.060645919 13
2.8950975 2.0369747 0.93760788 15
2.8965628 2.03725 0.80808765 16
2.8941514 2.0347991 0.67962325 14
2.9040866 2.0410268 0.55551165 14
2.8941298 2.0332744 0.42958942 15
2.9090858 2.0430236 0.30765978 13
2.904217 2.0388474 0.18396087 13
2.8998933 2.0350566 0.061170679 11
1.490988 1.0443892 -0.47752133 3
1.7114534 1.198373 -0.47352228 2
2.0217991 1.4151535 -0.47182852 3
2.4631801 1.7234567 -0.47008595 3
2.9187155 2.0414305 -0.43263665 7
2.9296868 2.0483427 -0.30940336 11
2.9248776 2.0442204 -0.18439196 16
2.9205503 2.0404375 -0.060905088 14
2.9180293 2.0379183 0.94278091 16
2.9156408 2.0354931 0.81145936 15
2.9173369 2.0359201 0.68343604 14
2.9233449 2.0393541 0.55785561 12
2.9134216 2.0316758 0.43141747 15
2.9325442 2.0442502 0.30940288 13
2.9277024 2.0401161 0.18500759 13
2.919286 2.0334942 0.06143247 11
1.5223823 1.0584776 -0.48658001 3
1.7116255 1.1896111 -0.47239748 2
2.0186646 1.4024864 -0.46992216 3
2.4529564 1.70358 -0.46695724 3
2.9380536 2.0397203 -0.43446469 6
2.9490952 2.0466232 -0.3107107 10
2.9443035 2.0425367 -0.18517439 15
2.9399798 2.0387769 -0.06116426 14
2.9370334 2.0359747 0.94666064 16
2.9387465 2.0364029 0.81595498 15
2.9365306 2.0341091 0.68629557 14
2.9426265 2.0375717 0.5601995 13
2.9368181 2.0327916 0.43385485 14
2.9519503 2.0425036 0.31071022 12
2.9471259 2.0384052 0.18579264 12
2.9345903 2.0289776 0.061606992 11
1.5220927 1.0504138 -0.48528594 3
nan nan nan 0
2.0316293 1.4010042 -0.47182852 3
2.4588881 1.6950072 -0.46695724 3
2.9533286 2.035084 -0.43568337 6
2.9685276 2.0447931 -0.31201804 11
2.9637527 2.0407419 -0.18595681 15
2.9594324 2.0370057 -0.061423428 13
2.9560592 2.0339236 0.95054042 16
2.9578798 2.0344155 0.8193267 15
2.9597912 2.0349693 0.6901083 14
2.9619308 2.0356793 0.56254345 12
2.956167 2.0309582 0.43568286 15
2.9713798 2.0406466 0.31201756 12
2.9665725 2.0365832 0.18657768 13
2.954021 2.0272079 0.061868776 11
1.5177811 1.0396359 -0.48269776 3
