# .PCD v0.7 - Point Cloud Data file format
VERSION 0.7
FIELDS x y z intensity
SIZE 4 4 4 4
TYPE F F F F
COUNT 1 1 1 1
WIDTH 1364
HEIGHT 1
VIEWPOINT 0 0 0 1 0 0 0
POINTS 1364
DATA ascii
-0.037396315 2.1861522 -0.34024525 14
-0.037277646 2.2016852 -0.26567549 12
-0.036442462 2.1747823 -0.18694936 14
-0.035901446 2.1650527 -0.11110463 14
-0.035647944 2.1726389 -0.036888614 13
-0.035270609 2.1727598 0.57161748 13
-0.034877911 2.1719265 0.49227038 13
-0.034439225 2.1681795 0.41368371 14
-0.034267198 2.1813235 0.33908868 15
-0.033663876 2.1669998 0.26140973 15
-0.033635359 2.1897721 0.1882564 15
-0.033105582 2.180059 0.11226062 14
-0.0325392 2.1676812 0.037173621 17
nan nan nan 0
-0.030803919 2.2060082 -0.50051636 2
-0.030507199 2.2124174 -0.4222627 13
-0.029764995 2.1862693 -0.34024525 13
-0.029592106 2.2018018 -0.26567549 13
-0.028850835 2.1748962 -0.18694936 13
-0.028343786 2.1651647 -0.11110463 14
-0.027999239 2.1677513 -0.036802221 12
-0.027624512 2.16804 0.57032424 13
-0.027235037 2.1671631 0.49114645 13
-0.026870659 2.1682866 0.41368371 14
-0.02665275 2.1814299 0.33908868 16
-0.026039667 2.1621418 0.26080036 15
-0.025991423 2.1898761 0.1882564 14
-0.025437167 2.1751683 0.11199894 14
-0.024972383 2.1677816 0.037173621 16
nan nan nan 0
-0.023052311 2.201231 -0.49939165 2
-0.022784237 2.2125103 -0.4222627 13
-0.022133311 2.1863599 -0.34024525 13
-0.021906203 2.2018917 -0.26567549 13
-0.021258857 2.1749837 -0.18694936 14
-0.020785779 2.1652505 -0.11110463 14
-0.020432202 2.1678357 -0.036802221 12
-0.020056471 2.1681232 0.57032424 13
-0.019670062 2.1672451 0.49114645 13
-0.019301761 2.1683671 0.41368371 14
-0.019037975 2.1815097 0.33908868 15
-0.018492226 2.1622195 0.26080036 14
-0.01834717 2.1899536 0.1882564 15
-0.017844258 2.1752439 0.11199894 15
-0.01740526 2.1678555 0.037173621 16
nan nan nan 0
-0.01536844 2.201298 -0.49939165 2
-0.015060995 2.2125764 -0.4222627 13
-0.014501355 2.1864238 -0.34024525 14
-0.014220033 2.2019546 -0.26567549 13
-0.013697912 2.1800253 -0.18738513 14
-0.013227517 2.1653099 -0.11110463 14
-0.012835255 2.162895 -0.036715835 12
-0.012488186 2.16818 0.57032424 14
-0.012104844 2.1673005 0.49114645 13
-0.01173263 2.1684213 0.41368371 14
-0.01142297 2.1815629 0.33908868 15
-0.010944558 2.162271 0.26080036 15
-0.010702695 2.1900043 0.1882564 15
-0.010251132 2.175293 0.11199894 14
-0.0098379273 2.1679029 0.037173621 17
nan nan nan 0
-0.0076673757 2.1964662 -0.49826688 2
-0.0073375707 2.2126155 -0.4222627 13
-0.0068537076 2.1815226 -0.33946306 15
-0.0065336898 2.2019908 -0.26567549 14
-0.0060881209 2.1800599 -0.18738513 13
-0.0056690951 2.1653428 -0.11110463 14
-0.0052852649 2.1629264 -0.036715835 12
-0.0049197497 2.1682105 0.57032424 14
-0.0045394795 2.1673295 0.49114645 13
-0.0041539334 2.1635408 0.41273054 14
-0.0038078255 2.1815894 0.33908868 15
-0.0033967572 2.1622961 0.26080036 15
-0.0030580889 2.1900282 0.1882564 16
-0.0026578796 2.1753154 0.11199894 14
-0.0022704739 2.1679242 0.037173621 16
nan nan nan 0
-2.3135541e-07 2.1964796 -0.49826688 2
0.00038594333 2.2126276 -0.4222627 13
0.00076126901 2.1815333 -0.33946306 15
0.0011527328 2.2020004 -0.26567549 14
0.0015217449 2.1800678 -0.18738513 14
0.0018893961 2.1653495 -0.11110463 14
0.0022647898 2.1629317 -0.036715835 13
0.0026487464 2.1682143 0.57032424 13
0.0030259402 2.1673322 0.49114645 13
0.0033982589 2.1635423 0.41273054 15
0.0038073657 2.1815894 0.33908868 15
0.0041510849 2.1622946 0.26080036 15
0.0045761233 2.1850448 0.18782063 15
0.0049354048 2.1753116 0.11199894 14
0.0052970075 2.1679189 0.037173621 16
nan nan nan 0
0.0076669129 2.1964662 -0.49826688 2
0.0080914637 2.2077048 -0.42130953 14
0.0083762361 2.1815171 -0.33946306 15
0.0088391406 2.201983 -0.26567549 14
0.0091315927 2.1800492 -0.18738513 14
0.0094478643 2.1653297 -0.11110463 14
0.0098375017 2.1679096 -0.036802221 13
0.01021721 2.1681919 0.57032424 13
0.010591323 2.1673086 0.49114645 13
0.010950411 2.1635172 0.41273054 14
0.011396652 2.1766243 0.33830738 16
0.011698877 2.162267 0.26080036 15
0.012203325 2.1850154 0.18782063 15
0.01249987 2.1702878 0.11173727 14
0.012864424 2.1678872 0.037173621 17
nan nan nan 0
0.015299954 2.1915545 -0.49714214 2
0.015797742 2.2076631 -0.42130953 14
0.015991101 2.1814747 -0.33946306 15
0.016525442 2.2019386 -0.26567549 14
0.016741328 2.1800039 -0.18738513 14
0.017006218 2.1652834 -0.11110463 13
0.017404858 2.1678622 -0.036802221 12
0.017745933 2.1633134 0.569031 13
0.018156577 2.1672583 0.49114645 13
0.018502429 2.1634657 0.41273054 15
0.018994421 2.1765711 0.33830738 15
0.019246526 2.1622131 0.26080036 14
0.019785173 2.1799788 0.18738484 15
0.020075513 2.1702311 0.11173727 14
0.020431684 2.167829 0.037173621 16
nan nan nan 0
0.022898795 2.1866159 -0.49601737 3
0.023503829 2.2075944 -0.42130953 14
0.023552338 2.1764679 -0.33868089 15
0.024211543 2.2018676 -0.26567549 14
0.024295226 2.1749518 -0.18694936 14
0.024564363 2.1652107 -0.11110463 13
0.024972003 2.1677883 -0.036802221 12
0.025297197 2.1632383 0.569031 14
0.025663791 2.1623101 0.49002257 14
0.02605422 2.163388 0.41273054 14
0.026591955 2.1764917 0.33830738 15
0.02679394 2.1621327 0.26080036 14
0.027394596 2.1798964 0.18738484 14
0.027650909 2.1701477 0.11173727 15
0.027934134 2.1627462 0.037086364 17
nan nan nan 0
0.030463353 2.1816516 -0.49489263 3
0.031209627 2.207499 -0.42130953 14
0.031149484 2.1763723 -0.33868089 15
0.031897347 2.2017696 -0.26567549 14
0.031887077 2.1748538 -0.18694936 14
0.03212221 2.165112 -0.11110463 14
0.032463811 2.1626892 -0.036715835 13
0.032848153 2.1631367 0.569031 14
0.033211507 2.1622074 0.49002257 12
0.033605695 2.1632838 0.41273054 14
0.034189168 2.1763856 0.33830738 16
0.03434103 2.1620259 0.26080036 15
0.035003692 2.1797874 0.18738484 15
0.035225969 2.170038 0.11173727 14
0.035483357 2.1626353 0.037086364 17
nan nan nan 0
0.038459301 2.1815252 -0.49489263 3
0.039300308 2.2073698 -0.42130953 15
0.039126076 2.1762435 -0.33868089 16
0.039967023 2.201638 -0.26567549 14
0.039858099 2.1747222 -0.18694936 14
0.040057529 2.1649797 -0.11110463 14
0.040390246 2.1625557 -0.036715835 12
0.040776223 2.1630018 0.569031 13
0.041136168 2.1620712 0.49002257 13
0.041534301 2.1631463 0.41273054 14
0.04216579 2.1762457 0.33830738 15
0.04226502 2.1618857 0.26080036 15
0.042992774 2.1796446 0.18738484 15
0.043179322 2.1698942 0.11173727 14
0.043409575 2.1624908 0.037086364 16
nan nan nan 0
0.04607401 2.1813779 -0.49489263 3
0.047005225 2.2072191 -0.42130953 15
0.046722349 2.1760936 -0.33868089 15
0.047544528 2.1965232 -0.26506612 15
0.047449052 2.1745698 -0.18694936 14
0.047724269 2.1698186 -0.11136544 14
0.047938727 2.1624017 -0.036715835 13
0.048326261 2.1628463 0.569031 13
0.048682954 2.1619143 0.49002257 13
0.049084838 2.1629882 0.41273054 14
0.049762048 2.1760852 0.33830738 15
0.049811151 2.1617248 0.26080036 15
0.050600894 2.1794813 0.18738484 15
0.050870169 2.1747222 0.11199894 14
0.050964486 2.1623259 0.037086364 17
nan nan nan 0
0.053688157 2.1812036 -0.49489263 3
0.054709569 2.2070417 -0.42130953 15
0.054318048 2.1759174 -0.33868089 16
0.055211533 2.1963439 -0.26506612 14
0.055039428 2.174391 -0.18694936 14
0.05529806 2.1696389 -0.11136544 13
0.05561487 2.1672187 -0.036802221 12
0.055875707 2.1626644 0.569031 14
0.056229148 2.1617312 0.49002257 13
0.056634773 2.1628036 0.41273054 14
0.057357702 2.1758983 0.33830738 15
0.057356674 2.1615379 0.26080036 15
0.058208391 2.1792912 0.18738484 15
0.058461055 2.1745315 0.11199894 14
0.058505427 2.1621351 0.037086364 17
nan nan nan 0
0.061301656 2.1810031 -0.49489263 3
0.06227449 2.2019308 -0.42035633 13
0.061913084 2.1757145 -0.33868089 16
0.062877871 2.1961379 -0.26506612 14
0.062629133 2.1741858 -0.18694936 14
0.062871173 2.1694326 -0.11136544 13
0.063179538 2.1670113 -0.036802221 11
0.063424475 2.1624563 0.569031 14
0.063774653 2.1615219 0.49002257 13
0.064329632 2.1674986 0.41368371 14
0.064952649 2.1756849 0.33830738 15
0.064752541 2.156364 0.26019105 14
0.065815188 2.1790748 0.18738484 15
0.06605123 2.174314 0.11199894 13
0.066052333 2.1619177 0.037086364 16
nan nan nan 0
0.068914406 2.1807756 -0.49489263 4
0.069960281 2.2017002 -0.42035633 12
0.069507368 2.1754851 -0.33868089 16
0.070543438 2.195905 -0.26506612 15
0.070218071 2.1739538 -0.18694936 14
0.070605591 2.1741905 -0.11162625 11
0.070906565 2.1717739 -0.036888614 11
0.070972465 2.1622217 0.569031 13
0.071319386 2.1612861 0.49002257 12
0.071895219 2.1672609 0.41368371 14
0.072546817 2.1754448 0.33830738 14
0.072279267 2.1561248 0.26019105 15
0.073421173 2.1788318 0.18738484 14
0.073809631 2.1790607 0.11226062 12
0.07359843 2.1616738 0.037086364 16
nan nan nan 0
0.076526307 2.1805217 -0.49489263 4
0.077472217 2.196537 -0.41940317 12
0.077100798 2.1752293 -0.33868089 16
0.078208148 2.1956453 -0.26506612 15
0.077806167 2.1736953 -0.18694936 13
0.078194499 2.1739306 -0.11162625 12
0.078487039 2.1715133 -0.036888614 12
0.078519598 2.1619608 0.569031 13
0.078863248 2.1610239 0.49002257 13
0.079459928 2.1669967 0.41368371 13
0.080140084 2.1751783 0.33830738 15
0.079805106 2.1558595 0.26019105 14
0.081026271 2.1785622 0.18738484 15
0.081415527 2.1787896 0.11226062 12
0.081143625 2.1614039 0.037086364 17
nan nan nan 0
0.083949409 2.1753728 -0.49376786 4
0.085139088 2.1962533 -0.41940317 13
0.08450114 2.170012 -0.3378987 15
0.085871898 2.195359 -0.26506612 14
0.085393302 2.1734104 -0.18694936 15
0.085782461 2.1736445 -0.11162625 13
0.085868545 2.1662309 -0.036802221 10
0.085873626 2.1568475 0.5677377 13
0.086406149 2.1607356 0.49002257 14
0.087023683 2.1667061 0.41368371 14
0.08773239 2.1748853 0.33830738 14
0.087129071 2.1506088 0.25958169 15
0.088630371 2.178266 0.18738484 16
0.088816553 2.1735032 0.11199894 14
0.088687845 2.1611073 0.037086364 15
nan nan nan 0
0.091337509 2.1701994 -0.49264312 4
0.092597671 2.1910388 -0.41844994 12
0.092075378 2.1697037 -0.3378987 15
0.093534611 2.1950457 -0.26506612 14
0.092979401 2.1730993 -0.18694936 12
0.093369372 2.173332 -0.11162625 12
0.093214132 2.1609235 -0.036715835 12
0.093401901 2.1565344 0.5677377 13
0.093947992 2.1604207 0.49002257 13
0.09437228 2.1614857 0.41273054 14
0.095323622 2.1745658 0.33830738 15
0.094635561 2.1502917 0.25958169 14
0.096233405 2.1779435 0.18738484 13
0.096402958 2.1731799 0.11199894 14
0.096230969 2.1607847 0.037086364 15
nan nan nan 0
0.099134199 2.1747339 -0.49376786 4
0.10024526 2.1907022 -0.41844994 13
0.099648498 2.1693692 -0.3378987 16
0.10119618 2.194706 -0.26506612 15
0.10056437 2.1727614 -0.18694936 13
0.10095515 2.1729927 -0.11162625 13
0.10052371 2.155591 -0.036629442 12
0.10070322 2.151371 0.56644452 13
0.1014887 2.1600797 0.49002257 12
0.10191669 2.1611431 0.41273054 15
0.1029137 2.1742198 0.33830738 15
0.10214091 2.1499481 0.25958169 14
0.10383526 2.1775942 0.18738484 14
0.10398818 2.1728301 0.11199894 13
0.10377293 2.1604357 0.037086364 15
nan nan nan 0
0.10696369 2.1792407 -0.49489263 4
0.10789163 2.1903389 -0.41844994 12
0.1072204 2.1690083 -0.3378987 16
0.10885651 2.1943393 -0.26506612 14
0.10814811 2.1723971 -0.18694936 12
0.10829055 2.1676402 -0.11136544 13
0.10804751 2.1552269 -0.036629442 12
0.1082123 2.1510065 0.56644452 14
0.10902816 2.1597121 0.49002257 13
0.10945986 2.1607742 0.41273054 14
0.11050251 2.1738474 0.33830738 15
0.109645 2.1495786 0.25958169 16
0.11143585 2.1772187 0.18738484 14
0.11131604 2.1674674 0.11173727 13
0.11131363 2.1600602 0.037086364 15
nan nan nan 0
0.11482581 2.1837192 -0.49601737 4
0.11553668 2.189949 -0.41844994 14
0.114791 2.1686206 -0.3378987 16
0.11651553 2.1939459 -0.26506612 14
0.11573052 2.1720064 -0.18694936 12
0.11585637 2.167249 -0.11136544 13
0.11556999 2.1548364 -0.036629442 12
0.11572005 2.1506155 0.56644452 14
0.11656631 2.1593184 0.49002257 14
0.11700171 2.1603789 0.41273054 14
0.11808997 2.1734483 0.33830738 15
0.11714777 2.1491828 0.25958169 14
0.11903508 2.1768162 0.18738484 15
0.11888123 2.1670656 0.11173727 13
0.11885297 2.1596584 0.037086364 17
nan nan nan 0
0.12244771 2.183305 -0.49601737 3
0.12318032 2.1895325 -0.41844994 13
0.1223602 2.1682067 -0.3378987 16
0.12417312 2.193526 -0.26506612 14
0.12302916 2.1666162 -0.18651357 14
0.12342077 2.1668313 -0.11136544 14
0.12337625 2.1594112 -0.036715835 14
0.1232264 2.1501985 0.56644452 13
0.12410302 2.1588986 0.49002257 12
0.12454212 2.1599574 0.41273054 13
0.12539086 2.1680927 0.33752605 15
0.12493652 2.1537154 0.26019105 13
0.12692221 2.1813602 0.18782063 13
0.12644498 2.1666374 0.11173727 15
0.12668297 2.1642208 0.037173621 16
nan nan nan 0
0.13035792 2.1877277 -0.49714214 4
0.13111527 2.1939886 -0.41940317 14
0.13022338 2.1726961 -0.33868089 17
0.13182919 2.1930792 -0.26506612 14
0.1305913 2.1661737 -0.18651357 14
0.13068232 2.1614032 -0.11110463 12
0.13091324 2.1589675 -0.036715835 10
0.13073124 2.1497552 0.56644452 14
0.13163823 2.158452 0.49002257 13
0.13208103 2.1595094 0.41273054 13
0.13295816 2.1676416 0.33752605 15
0.13245362 2.1532662 0.26019105 15
0.13453579 2.1809039 0.18782063 14
0.13400719 2.1661828 0.11173727 13
0.13423674 2.1637654 0.037173621 17
nan nan nan 0
0.13799372 2.1872592 -0.49714214 4
0.13877292 2.1935174 -0.41940317 15
0.13780671 2.1722283 -0.33868089 16
0.13948366 2.1926055 -0.26506612 13
0.13815185 2.1657045 -0.18651357 14
0.13822624 2.160934 -0.11110463 12
0.13844866 2.1584973 -0.036715835 14
0.13854447 2.1541054 0.5677377 14
0.13885826 2.1531172 0.48889863 14
0.13961831 2.1590352 0.41273054 14
0.14052384 2.1671643 0.33752605 15
0.13996911 2.1527905 0.26019105 14
0.14214775 2.1804211 0.18782063 13
0.14156777 2.1657019 0.11173727 14
0.14178887 2.1632838 0.037173621 15
nan nan nan 0
0.14562784 2.1867642 -0.49714214 4
0.14642888 2.1930199 -0.41940317 14
0.14538836 2.1717341 -0.33868089 16
0.14713645 2.1921053 -0.26506612 14
0.14571074 2.1652091 -0.18651357 14
0.14543234 2.1554563 -0.11084383 14
0.14598238 2.1580009 -0.036715835 11
0.14606287 2.1536088 0.5677377 13
0.14670373 2.1574805 0.49002257 13
0.1471539 2.1585348 0.41273054 14
0.1480878 2.1666605 0.33752605 15
0.1474829 2.1522889 0.26019105 15
0.14975797 2.1799116 0.18782063 16
0.1491266 2.1651945 0.11173727 13
0.14933929 2.1627758 0.037173621 15
nan nan nan 0
0.15291947 2.1813824 -0.49601737 4
0.15408306 2.1924953 -0.41940317 15
0.15296824 2.1712134 -0.33868089 15
0.15478742 2.1915784 -0.26506612 15
0.15326785 2.1646872 -0.18651357 13
0.15295538 2.1549356 -0.11084383 13
0.15351433 2.1574781 -0.036715835 11
0.15357947 2.1530857 0.5677377 14
0.15423386 2.1569552 0.49002257 14
0.1546877 2.1580081 0.41273054 14
0.15600391 2.1710565 0.33830738 13
0.1549949 2.1517611 0.26019105 16
0.15736637 2.1793754 0.18782063 14
0.15668364 2.1646607 0.11173727 14
0.15688786 2.162241 0.037173621 16
nan nan nan 0
0.16017535 2.175977 -0.49489263 4
0.16173537 2.1919441 -0.41940317 14
0.16054626 2.1706662 -0.33868089 16
0.16243652 2.1910248 -0.26506612 14
0.16082308 2.164139 -0.18651357 13
0.16047658 2.1543884 -0.11084383 14
0.16067214 2.1519437 -0.036629442 12
0.16109419 2.1525366 0.5677377 14
0.16176209 2.1564038 0.49002257 14
0.1618516 2.1525605 0.41177732 14
0.16358134 2.1704986 0.33830738 15
0.162505 2.1512067 0.26019105 13
0.16459678 2.173846 0.18738484 15
0.16423875 2.1641006 0.11173727 13
0.16405538 2.1566958 0.037086364 16
nan nan nan 0
0.16776997 2.1754045 -0.49489263 5
0.16900741 2.1864724 -0.41844994 15
0.16774085 2.1651688 -0.3378987 16
0.17008363 2.1904442 -0.26506612 13
0.16837636 2.1635644 -0.18651357 14
0.16799583 2.153815 -0.11084383 13
0.16818285 2.1513698 -0.036629442 11
0.16860697 2.1519611 0.5677377 14
0.16928837 2.1558259 0.49002257 13
0.16936444 2.1519823 0.41177732 15
0.17115681 2.1699145 0.33830738 14
0.17001313 2.1506264 0.26019105 12
0.1721839 2.1732583 0.18738484 17
0.17179187 2.1635141 0.11173727 14
0.17158264 2.15611 0.037086364 16
nan nan nan 0
0.17497094 2.1699495 -0.49376786 4
0.17663859 2.1858692 -0.41844994 15
0.17529768 2.1645701 -0.3378987 16
0.17772867 2.1898372 -0.26506612 13
0.17592758 2.1629636 -0.18651357 15
0.17551301 2.1532156 -0.11084383 13
0.17569152 2.1507695 -0.036629442 12
0.17611769 2.1513596 0.5677377 13
0.17681256 2.1552219 0.49002257 13
0.17687523 2.1513779 0.41177732 14
0.17873019 2.1693039 0.33830738 15
0.17751917 2.1500199 0.26019105 15
0.17976895 2.1726439 0.18738484 15
0.1789303 2.1579251 0.11147558 14
0.17910783 2.155498 0.037086364 17
nan nan nan 0
0.18254441 2.1693254 -0.49376786 4
0.18426764 2.1852393 -0.41844994 16
0.18285237 2.163945 -0.3378987 16
0.18537155 2.1892035 -0.26506612 15
0.18347667 2.1623363 -0.18651357 14
0.18302807 2.1525898 -0.11084383 14
0.18319802 2.1501431 -0.036629442 12
0.18362626 2.1507316 0.5677377 13
0.18433462 2.1545916 0.49002257 13
0.18438387 2.1507473 0.41177732 14
0.18630138 2.1686666 0.33830738 15
0.18502307 2.1493871 0.26019105 15
0.18735179 2.1720033 0.18738484 15
0.18646176 2.1572874 0.11147558 13
0.18663085 2.1548595 0.037086364 16
0.16665429 1.9048698 -0.50210917 3
0.19011566 2.1686749 -0.49376786 5
0.19189441 2.1845827 -0.41844994 16
0.19040485 2.1632934 -0.3378987 15
0.19301216 2.1885431 -0.26506612 15
0.1910235 2.1616826 -0.18651357 14
0.19054091 2.1519377 -0.11084383 13
0.19070232 2.1494906 -0.036629442 12
0.19113261 2.1500776 0.5677377 14
0.19185442 2.153935 0.49002257 13
0.19189025 2.1500907 0.41177732 14
0.19387031 2.1680031 0.33830738 15
0.1925247 2.1487284 0.26019105 15
0.19493237 2.1713359 0.18738484 15
0.19399098 2.1566234 0.11147558 14
0.19415157 2.1541948 0.037086364 17
0.17374025 1.9090862 -0.50340325 3
0.19768457 2.1679981 -0.49376786 5
0.19951886 2.1838996 -0.41844994 16
0.19795498 2.1626155 -0.3378987 16
0.20065042 2.187856 -0.26506612 14
0.19856802 2.1610029 -0.18651357 14
0.19805141 2.1512597 -0.11084383 13
0.19820428 2.1488118 -0.036629442 13
0.19863661 2.1493971 0.5677377 14
0.1993719 2.1532521 0.49002257 13
0.1993943 2.1494079 0.41177732 14
0.20143686 2.1673131 0.33830738 15
0.20002399 2.1480432 0.26019105 15
0.20251055 2.1706424 0.18738484 15
0.20151781 2.1559331 0.11147558 14
0.20166993 2.1535041 0.037086364 17
0.17994864 1.9036598 -0.50210917 3
0.2052511 2.1672947 -0.49376786 5
0.2076045 2.1880763 -0.41940317 16
0.2055027 2.1619115 -0.3378987 16
0.20828624 2.1871424 -0.26506612 15
0.20611012 2.1602964 -0.18651357 14
0.20555949 2.1505554 -0.11084383 13
0.20570381 2.1481068 -0.036629442 12
0.20613819 2.1486907 0.5677377 13
0.20688693 2.1525431 0.49002257 13
0.20689592 2.1486986 0.41177732 15
0.20900096 2.1665969 0.33830738 15
0.20752083 2.1473317 0.26019105 15
0.21008627 2.1699224 0.18738484 15
0.20904219 2.1552167 0.11147558 14
0.20918582 2.1527872 0.037086364 17
0.18659255 1.9030201 -0.50210917 3
0.21281512 2.1665652 -0.49376786 5
0.21524104 2.1873384 -0.41940317 15
0.21304795 2.161181 -0.3378987 16
0.21591952 2.1864018 -0.26506612 14
0.21364971 2.1595638 -0.18651357 14
0.21306507 2.1498246 -0.11084383 13
0.21320085 2.1473758 -0.036629442 12
0.21363728 2.147958 0.5677377 13
0.21488246 2.1566558 0.49114645 13
0.21439502 2.1479633 0.41177732 14
0.21656252 2.165854 0.33830738 15
0.21501516 2.1465943 0.26019105 14
0.21765944 2.1691756 0.18738484 15
0.21656403 2.1544738 0.11147558 14
0.21669918 2.1520438 0.037086364 16
0.19323419 1.9023572 -0.50210917 3
0.22037655 2.1658092 -0.49376786 5
0.22287497 2.1865735 -0.41940317 16
0.22059058 2.1604242 -0.3378987 16
0.22355019 2.1856349 -0.26506612 15
0.22169438 2.1637599 -0.18694936 14
0.22056808 2.1490676 -0.11084383 13
0.22120659 2.1515915 -0.036715835 12
0.22113374 2.1471994 0.5677377 14
0.22240929 2.1558924 0.49114645 13
0.22239603 2.1520841 0.41273054 13
0.22412144 2.1650848 0.33830738 15
0.22250687 2.1458306 0.26019105 15
0.22522993 2.1684027 0.18738484 14
0.22459996 2.1586709 0.11173727 14
0.22420989 2.1512742 0.037086364 16
0.20037831 1.9064744 -0.50340325 3
0.22793528 2.1650267 -0.49376786 5
0.23050618 2.1857824 -0.41940317 15
0.22813052 2.1596408 -0.3378987 16
0.2311781 2.1848412 -0.26506612 15
0.22924596 2.1629729 -0.18694936 14
0.22806837 2.1482847 -0.11084383 14
0.2287157 2.1508064 -0.036715835 12
0.22862752 2.1464143 0.5677377 14
0.22993341 2.155103 0.49114645 13
0.22990686 2.1512949 0.41273054 14
0.23167764 2.1642895 0.33830738 15
0.22999586 2.145041 0.26019105 15
0.23279771 2.1676033 0.18738484 15
0.23213375 2.1578739 0.11173727 14
0.23171787 2.1504786 0.037086364 17
0.20703194 1.9057633 -0.50340325 3
0.23549126 2.1642179 -0.49376786 5
0.23813458 2.1849644 -0.41940317 15
0.23566768 2.1588316 -0.3378987 16
0.23880322 2.184021 -0.26506612 14
0.23679474 2.1621594 -0.18694936 14
0.23611036 2.1524389 -0.11110463 14
0.23622203 2.1499949 -0.036715835 12
0.23611851 2.1456032 0.5677377 13
0.23745471 2.1542873 0.49114645 12
0.23741488 2.1504793 0.41273054 14
0.23923101 2.1634674 0.33830738 15
0.23748206 2.1442251 0.26019105 14
0.24036263 2.1667776 0.18738484 14
0.23966473 2.1570504 0.11173727 14
0.23922303 2.1496565 0.037086364 16
0.21314466 1.9002293 -0.50210917 3
0.24304436 2.1633828 -0.49376786 5
0.24576007 2.1841197 -0.41940317 15
0.24375504 2.1629033 -0.33868089 16
0.24642541 2.1831741 -0.26506612 15
0.24434064 2.1613197 -0.18694936 14
0.24362233 2.1516018 -0.11110463 13
0.24372546 2.1491573 -0.036715835 12
0.2441517 2.149565 0.569031 13
0.24497314 2.1534452 0.49114645 13
0.24492002 2.1496375 0.41273054 15
0.24678145 2.1626194 0.33830738 15
0.24496534 2.143383 0.26019105 14
0.24792464 2.1659253 0.18738484 15
0.24719277 2.1562006 0.11173727 14
0.24672528 2.1488085 0.037086364 16
0.21944487 1.8995122 -0.50210917 4
0.2498396 2.1626084 -0.49376786 5
0.25262046 2.183337 -0.41940317 15
0.25054878 2.1621268 -0.33868089 16
0.25385496 2.187319 -0.26567549 14
0.25112942 2.1605415 -0.18694936 14
0.25038058 2.1508257 -0.11110463 14
0.25047603 2.148381 -0.036715835 12
0.25090355 2.1487873 0.569031 13
0.25173715 2.1526649 0.49114645 12
0.25167206 2.1488574 0.41273054 14
0.25357431 2.1618333 0.33830738 15
0.25169775 2.1426029 0.26019105 14
0.25472787 2.1651356 0.18738484 14
0.25396547 2.1554134 0.11173727 14
0.25406057 2.1529872 0.037173621 16
0.22574268 1.8987739 -0.50210917 4
0.25738698 2.1617231 -0.49376786 5
0.2602402 2.1824419 -0.41940317 15
0.25809449 2.1612389 -0.33868089 16
0.26148862 2.1864197 -0.26567549 14
0.25866958 2.1596518 -0.18694936 14
0.25788683 2.1499386 -0.11110463 14
0.25797373 2.1474934 -0.036715835 12
0.25840268 2.1478984 0.569031 13
0.25924984 2.1517732 0.49114645 13
0.25917146 2.1479657 0.41273054 14
0.26111895 2.1609349 0.33830738 15
0.2591753 2.1417112 0.26019105 14
0.26288331 2.1691782 0.18782063 15
0.26148769 2.1545138 0.11173727 14
0.26157433 2.1520872 0.037173621 16
0.23303178 1.8978932 -0.50210917 4
0.2656855 2.1607189 -0.49376786 5
0.26861823 2.1814265 -0.41940317 15
0.26639113 2.1602321 -0.33868089 16
0.2698819 2.1853995 -0.26567549 14
0.26696011 2.1586425 -0.18694936 14
0.26614007 2.1489325 -0.11110463 14
0.26621759 2.146487 -0.036715835 11
0.26724339 2.1516833 0.57032424 14
0.26751012 2.1507618 0.49114645 13
0.2674171 2.1469548 0.41273054 14
0.2700257 2.1648171 0.33908868 15
0.26739696 2.1407003 0.26019105 14
0.2712104 2.1681528 0.18782063 15
0.26975849 2.1534939 0.11173727 13
0.26983583 2.151067 0.037173621 17
0.24026056 1.9018598 -0.50340325 4
0.2732262 2.1597784 -0.49376786 5
0.2762312 2.1804755 -0.41940317 16
0.27393013 2.1592891 -0.33868089 16
0.27750871 2.184444 -0.26567549 14
0.27449355 2.1576977 -0.18694936 14
0.27363962 2.1479905 -0.11110463 12
0.27434126 2.1505036 -0.036802221 11
0.27475256 2.1507375 0.57032424 13
0.27501604 2.1498148 0.49114645 13
0.27490973 2.1460083 0.41273054 14
0.27758065 2.1638613 0.33908868 14
0.27550006 2.144676 0.26080036 14
0.278777 2.1671929 0.18782063 15
0.27791184 2.1574914 0.11199894 14
0.27734941 2.1501112 0.037173621 16
0.24689782 1.9010096 -0.50340325 4
0.28013527 2.1539805 -0.49264312 5
0.28384081 2.179498 -0.41940317 15
0.28146577 2.1583197 -0.33868089 16
0.28513214 2.1834621 -0.26567549 14
0.28202364 2.1567264 -0.18694936 14
0.28113586 2.1470222 -0.11110463 13
0.28184626 2.149533 -0.036802221 12
0.28225836 2.1497653 0.57032424 13
0.28251863 2.1488419 0.49114645 13
0.28303966 2.1499016 0.41368371 14
0.28513226 2.1628792 0.33908868 15
0.2829847 2.1437013 0.26080036 14
0.28634024 2.1662066 0.18782063 15
0.28544122 2.1565082 0.11199894 14
0.28484637 2.1491306 0.037173621 16
0.25417084 1.9049232 -0.50469732 4
0.28765237 2.1529896 -0.49264312 5
0.29144692 2.178494 -0.41940317 15
0.28899801 2.1573241 -0.33868089 16
0.29275212 2.1824534 -0.26567549 15
0.28955033 2.1557288 -0.18694936 13
0.28862864 2.1460278 -0.11110463 13
0.2893478 2.148536 -0.036802221 12
0.28976074 2.148767 0.57032424 13
0.29001775 2.1478426 0.49114645 13
0.29054248 2.1489005 0.41368371 14
0.29268035 2.1618707 0.33908868 15
0.29046589 2.1427004 0.26080036 15
0.29389998 2.1651938 0.18782063 14
0.29296711 2.1554987 0.11199894 13
0.29302073 2.1530771 0.037260886 16
0.26081872 1.9040245 -0.50469732 3
0.29516596 2.1519723 -0.49264312 5
0.29904953 2.1774633 -0.41940317 15
0.2965267 2.156302 -0.33868089 16
0.30036855 2.1814182 -0.26567549 14
0.29707345 2.1547048 -0.18694936 13
0.29680076 2.1499534 -0.11136544 13
0.29684579 2.1475132 -0.036802221 12
0.29725954 2.1477423 0.57032424 13
0.29751337 2.1468172 0.49114645 13
0.29804179 2.1478732 0.41368371 14
0.30022493 2.160836 0.33908868 15
0.29794353 2.1416736 0.26080036 14
0.30145612 2.1641548 0.18782063 15
0.3004894 2.1544631 0.11199894 14
0.30053455 2.1520412 0.037260886 16
0.26813555 1.9078852 -0.50599146 3
0.30267593 2.150929 -0.49264312 5
0.30733326 2.1812665 -0.42035633 15
0.30474162 2.1601436 -0.33946306 15
0.30798128 2.1803565 -0.26567549 15
0.304593 2.1536548 -0.18694936 14
0.30430371 2.1489043 -0.11136544 13
0.30434024 2.1464636 -0.036802221 13
0.30475476 2.1466916 0.57032424 13
0.30500534 2.1457655 0.49114645 13
0.30553746 2.1468198 0.41368371 14
0.30776581 2.1597748 0.33908868 15
0.30541757 2.1406205 0.26080036 14
0.3090086 2.1630893 0.18782063 14
0.30800807 2.1534009 0.11199894 14
0.30804473 2.150979 0.037260886 17
0.27479368 1.9069375 -0.50599146 3
0.31018221 2.1498592 -0.49264312 5
0.31494543 2.1801805 -0.42035633 15
0.31228006 2.1590667 -0.33946306 16
0.31630152 2.1841795 -0.26628482 14
0.3128235 2.1575077 -0.18738513 13
0.31180289 2.1478291 -0.11136544 14
0.31183091 2.1453884 -0.036802221 12
0.31224626 2.1456149 0.57032424 13
0.31249359 2.1446879 0.49114645 13
0.31302938 2.1457403 0.41368371 14
0.31530297 2.1586874 0.33908868 15
0.31288785 2.1395414 0.26080036 14
0.31655729 2.1619976 0.18782063 15
0.31552294 2.1523125 0.11199894 14
0.31555119 2.1498907 0.037260886 16
0.28144845 1.9059666 -0.50599146 3
0.31768477 2.1487634 -0.49264312 5
0.32255375 2.1790679 -0.42035633 15
0.31981474 2.1579635 -0.33946306 16
0.3239238 2.1830623 -0.26628482 14
0.32035267 2.1564026 -0.18738513 13
0.31929833 2.1467276 -0.11136544 13
0.31931782 2.1442866 -0.036802221 12
0.31973395 2.1445119 0.57032424 13
0.32069734 2.1484027 0.49227038 13
0.32124305 2.1494892 0.41463691 13
0.32356709 2.1624577 0.33987001 15
0.32035434 2.1384361 0.26080036 14
0.32410213 2.1608794 0.18782063 14
0.32303399 2.1511981 0.11199894 14
0.32305378 2.1487761 0.037260886 17
0.2884323 1.9049224 -0.50599146 3
0.32555822 2.1475847 -0.49264312 5
0.33053827 2.177871 -0.42035633 15
0.32772189 2.1567767 -0.33946306 16
0.33192295 2.1818602 -0.26628482 14
0.32825413 2.1552138 -0.18738513 13
0.32716432 2.1455429 -0.11136544 13
0.32717487 2.1431019 -0.036802221 12
0.32759184 2.1433256 0.57032424 13
0.3285695 2.1472127 0.49227038 12
0.32911918 2.1482973 0.41463691 14
0.33149073 2.1612573 0.33987001 15
0.32894316 2.1421528 0.26140973 14
0.33201998 2.1596768 0.18782063 15
0.33091635 2.1499996 0.11199894 14
0.33092728 2.1475775 0.037260886 16
0.29507995 1.9039038 -0.50599146 3
0.33305269 2.146435 -0.49264312 4
0.33813846 2.1767039 -0.42035633 15
0.33524844 2.1556196 -0.33946306 16
0.33953705 2.1806884 -0.26628482 14
0.33577526 2.1540549 -0.18738513 14
0.33542162 2.1493213 -0.11162625 13
0.33465371 2.1419468 -0.036802221 11
0.33507141 2.142169 0.57032424 13
0.33606267 2.1460528 0.49227038 12
0.33661613 2.1471353 0.41463691 13
0.33903292 2.1600869 0.33987001 15
0.33641869 2.1409914 0.26140973 14
0.33955663 2.1585047 0.18782063 15
0.33841926 2.1488316 0.11199894 14
0.33842829 2.1464083 0.037260886 16
0.30172402 1.9028623 -0.50599146 4
0.34054312 2.1452596 -0.49264312 5
0.34573451 2.1755102 -0.42035633 15
0.3427709 2.1544363 -0.33946306 16
0.34714699 2.1794899 -0.26628482 15
0.34329224 2.1528697 -0.18738513 14
0.34292209 2.1481373 -0.11162625 13
0.34291741 2.1457021 -0.036888614 12
0.34331003 2.1457555 0.57161748 13
0.34355173 2.1448667 0.49227038 13
0.34410897 2.1459472 0.41463691 14
0.34657094 2.1588905 0.33987001 15
0.34389007 2.1398041 0.26140973 14
0.34708917 2.1573064 0.18782063 15
0.345918 2.1476371 0.11199894 14
0.34591201 2.1452148 0.037260886 16
0.30836442 1.9017974 -0.50599146 3
0.34802943 2.1440578 -0.49264312 5
0.35332635 2.1742902 -0.42035633 16
0.35028923 2.1532266 -0.33946306 16
0.35475272 2.1782649 -0.26628482 14
0.35080507 2.1516583 -0.18738513 14
0.35041839 2.1469271 -0.11162625 13
0.35040519 2.1444921 -0.036888614 12
0.35079801 2.1445441 0.57161748 13
0.35103664 2.1436543 0.49227038 13
0.35159764 2.144733 0.41463691 14
0.35410476 2.1576674 0.33987001 15
0.35135728 2.1385906 0.26140973 14
0.35542578 2.1609964 0.1882564 15
0.35422376 2.1513433 0.11226062 14
0.35421115 2.148927 0.037348147 16
0.31500104 1.9007095 -0.50599146 3
0.35551149 2.1428299 -0.49264312 5
0.36171806 2.1778858 -0.42130953 15
0.35780329 2.1519909 -0.33946306 16
0.36235413 2.1770132 -0.26628482 14
0.35831362 2.1504207 -0.18738513 14
0.35791042 2.1456909 -0.11162625 14
0.35788873 2.1432557 -0.036888614 12
0.35828173 2.1433065 0.57161748 13
0.35851723 2.142416 0.49227038 13
0.35908201 2.1434925 0.41463691 14
0.36163428 2.1564183 0.33987001 15
0.35882023 2.1373513 0.26140973 15
0.36296692 2.1597426 0.1882564 15
0.3617312 2.1500938 0.11226062 13
0.36171013 2.1476774 0.037348147 16
0.32163382 1.8995984 -0.50599146 3
0.36217499 2.1367722 -0.49151835 5
0.3693181 2.1766098 -0.42130953 15
0.36613995 2.1555977 -0.34024525 16
0.3699511 2.1757352 -0.26628482 14
0.36665368 2.1540675 -0.18782091 14
0.36539811 2.1444285 -0.11162625 14
0.36536792 2.1419935 -0.036888614 13
0.36576107 2.1420426 0.57161748 13
0.36681437 2.1459539 0.49339426 13
0.36656201 2.1422262 0.41463691 14
0.36915937 2.1551428 0.33987001 15
0.3662788 2.1360855 0.26140973 14
0.3705036 2.1584625 0.1882564 14
0.37007979 2.153739 0.1125223 14
0.36920473 2.1464019 0.037348147 16
0.32793137 1.8985213 -0.50599146 4
0.36888605 2.1356237 -0.49151835 5
0.3761543 2.1754389 -0.42130953 15
0.37291014 2.1544368 -0.34024525 16
0.37678453 2.1745622 -0.26628482 14
0.37341905 2.152905 -0.18782091 14
0.37213323 2.14327 -0.11162625 14
0.37209538 2.140835 -0.036888614 12
0.37331656 2.1456413 0.57291073 13
0.37355426 2.1447909 0.49339426 13
0.37329018 2.1410639 0.41463691 14
0.3759281 2.1539724 0.33987001 15
0.37298772 2.1349244 0.26140973 14
0.37728277 2.1572878 0.1882564 15
0.37684414 2.1525657 0.1125223 13
0.37594602 2.1452312 0.037348147 16
0.3342253 1.8974234 -0.50599146 4
0.37633854 2.1343231 -0.49151835 4
0.3837457 2.1741126 -0.42130953 15
0.38042825 2.1531219 -0.34024525 16
0.38437286 2.1732337 -0.26628482 14
0.38093182 2.1515884 -0.18782091 14
0.37961236 2.141958 -0.11162625 14
0.37956601 2.1395233 -0.036888614 12
0.38080394 2.144325 0.57291073 13
0.3810387 2.1434739 0.49339426 13
0.38076162 2.1397479 0.41463691 14
0.38344461 2.152647 0.33987001 15
0.3804377 2.1336093 0.26140973 14
0.38481081 2.1559577 0.1882564 15
0.38435569 2.151237 0.1125223 14
0.38343197 2.1439059 0.037348147 16
0.34150839 1.8961262 -0.50599146 4
0.38453093 2.1328626 -0.49151835 4
0.39209086 2.1726229 -0.42130953 15
0.38957074 2.1565051 -0.34102744 15
0.39271465 2.1717417 -0.26628482 14
0.38919052 2.1501098 -0.18782091 14
0.3887243 2.1453979 -0.11188706 13
0.38867053 2.1429689 -0.036975004 12
0.38903475 2.1428471 0.57291073 13
0.38926622 2.141995 0.49339426 13
0.3898533 2.1430991 0.41559011 14
0.3917073 2.1511588 0.33987001 15
0.38951725 2.1370151 0.26201907 15
0.39398032 2.1593647 0.18869218 14
0.39261299 2.1497455 0.1125223 13
0.39166114 2.1424179 0.037348147 16
0.34812504 1.8949225 -0.50599146 3
0.39197367 2.1315072 -0.49151835 5
0.39967233 2.171241 -0.42130953 16
0.39709601 2.1551323 -0.34102744 16
0.40119314 2.1752381 -0.26689416 15
0.39669344 2.1487381 -0.18782091 14
0.39621076 2.1440277 -0.11188706 14
0.39614853 2.1415992 -0.036975004 12
0.39739171 2.1462255 0.57420403 13
0.39674082 2.1406231 0.49339426 13
0.39733171 2.1417253 0.41559011 14
0.39921388 2.1497784 0.33987001 15
0.39697444 2.1356425 0.26201907 14
0.40151551 2.1579762 0.18869218 15
0.40102887 2.153271 0.11278398 14
0.40005997 2.1459513 0.037435409 16
0.35440689 1.8937576 -0.50599146 3
0.39866805 2.1302652 -0.49151835 4
0.40649152 2.1699748 -0.42130953 15
0.40386456 2.1538742 -0.34102744 15
0.40802488 2.1739669 -0.26689416 14
0.40436155 2.1523764 -0.18825668 14
0.40386724 2.1476798 -0.11214787 13
0.40287459 2.1403441 -0.036975004 12
0.40413231 2.1449664 0.57420403 14
0.40346381 2.1393661 0.49339426 13
0.40405819 2.1404665 0.41559011 14
0.40688261 2.1533666 0.34065133 15
0.40368178 2.1343849 0.26201907 15
0.40829301 2.1567042 0.18869218 14
0.40779158 2.1520004 0.11278398 14
0.40679315 2.144685 0.037435409 16
0.35978073 1.8878276 -0.50469732 3
0.40610164 2.1288607 -0.49151835 5
0.41498417 2.1733637 -0.4222627 16
0.41138053 2.1524513 -0.34102744 16
0.41561097 2.1725295 -0.26689416 14
0.4118723 2.1509519 -0.18825668 14
0.41136158 2.1462569 -0.11214787 14
0.41034332 2.1389248 -0.036975004 12
0.41161716 2.1435428 0.57420403 13
0.41092914 2.1379447 0.49339426 13
0.41152737 2.1390429 0.41559011 14
0.41439679 2.1519332 0.34065133 15
0.41112971 2.1329627 0.26201907 14
0.41676235 2.1601565 0.18912795 15
0.415301 2.1505637 0.11278398 14
0.41427702 2.1432519 0.037435409 16
0.36669755 1.8864964 -0.50469732 3
0.41390157 2.127358 -0.49151835 4
0.42294717 2.171828 -0.4222627 15
0.4202117 2.155776 -0.34180957 15
0.42452121 2.1758626 -0.2675035 14
0.41975313 2.1494279 -0.18825668 14
0.41922525 2.1447346 -0.11214787 14
0.41914004 2.1423128 -0.037061393 13
0.41947088 2.1420197 0.57420403 13
0.41876233 2.1364243 0.49339426 13
0.42030951 2.1423368 0.41654328 13
0.42323282 2.1552458 0.3414326 15
0.41894466 2.1314416 0.26201907 15
0.42467692 2.1586144 0.18912795 15
0.42318037 2.1490271 0.11278398 13
0.4221296 2.1417191 0.037435409 16
0.37234229 1.8804672 -0.50340325 4
0.42132494 2.1259003 -0.49151835 4
0.43052569 2.1703384 -0.4222627 16
0.42773423 2.1542962 -0.34180957 16
0.4321138 2.1743674 -0.2675035 14
0.42822525 2.1528349 -0.18869248 14
0.4267092 2.1432583 -0.11214787 14
0.42661557 2.1408367 -0.037061393 12
0.42694536 2.1405425 0.57420403 13
0.42717111 2.1397274 0.49451819 12
0.42778513 2.1408565 0.41654328 13
0.43075344 2.1537552 0.3414326 15
0.42638221 2.129966 0.26201907 14
0.43220931 2.1571188 0.18912795 15
0.43166107 2.1524324 0.11304566 14
0.42960304 2.1402326 0.037435409 16
0.3789041 1.8791561 -0.50340325 4
0.42874312 2.1244166 -0.49151835 4
0.43809897 2.1688223 -0.4222627 15
0.4352515 2.1527901 -0.34180957 15
0.43970114 2.1728456 -0.2675035 14
0.43573743 2.1513269 -0.18869248 13
0.43418798 2.1417558 -0.11214787 14
0.43507999 2.1442337 -0.037147783 12
0.43441463 2.139039 0.57420403 13
0.43463758 2.1382232 0.49451819 12
0.4352555 2.1393504 0.41654328 14
0.43826884 2.1522386 0.3414326 15
0.43480575 2.1333277 0.26262844 14
0.43973643 2.155597 0.18912795 15
0.43917185 2.1509125 0.11304566 14
0.43707123 2.13872 0.037435409 16
0.38546127 1.8778219 -0.50340325 4
0.43615612 2.1229069 -0.49151835 4
0.44665557 2.1720879 -0.42321593 16
0.44276348 2.1512575 -0.34180957 15
0.44728309 2.1712976 -0.2675035 14
0.44324431 2.1497929 -0.18869248 13
0.44166145 2.1402271 -0.11214787 13
0.4425621 2.1427019 -0.037147783 12
0.44187862 2.1375096 0.57420403 13
0.44209871 2.136693 0.49451819 13
0.44272059 2.1378179 0.41654328 13
0.44577888 2.1506956 0.3414326 14
0.4422498 2.1317968 0.26262844 14
0.44827086 2.158926 0.18956374 14
0.44667727 2.1493664 0.11304566 14
0.44555211 2.1420758 0.03752267 16
0.39234123 1.8763965 -0.50340325 4
0.44393402 2.121294 -0.49151835 4
0.45461366 2.1704361 -0.42321593 15
0.45165858 2.1544538 -0.34259176 16
0.45523828 2.1696436 -0.2675035 14
0.4511207 2.1481538 -0.18869248 13
0.44950283 2.1385939 -0.11214787 14
0.45041254 2.1410656 -0.037147783 12
0.45070511 2.1406019 0.57549721 13
0.44992709 2.1350584 0.49451819 12
0.45055309 2.1361809 0.41654328 13
0.45467865 2.1538794 0.34221393 14
0.45006022 2.1301618 0.26262844 14
0.45618069 2.1572685 0.18956374 15
0.45455208 2.1477149 0.11304566 13
0.45340025 2.1404283 0.03752267 17
0.39888871 1.8750156 -0.50340325 4
0.45133603 2.1197314 -0.49151835 4
0.46218714 2.1688361 -0.42321593 16
0.45917627 2.1528642 -0.34259176 15
0.462809 2.1680415 -0.2675035 14
0.45861644 2.1465662 -0.18869248 14
0.45696518 2.1370118 -0.11214787 13
0.45788351 2.1394804 -0.037147783 11
0.45817447 2.1390154 0.57549721 13
0.45737711 2.1334748 0.49451819 13
0.45800701 2.1345952 0.41654328 14
0.46219432 2.1522791 0.34221393 15
0.45853591 2.1334293 0.26323774 15
0.46370819 2.155663 0.18956374 15
0.46204624 2.1461151 0.11304566 14
0.46087551 2.1388311 0.03752267 16
0.4054313 1.8736118 -0.50340325 4
0.45873252 2.1181431 -0.49151835 5
0.46975496 2.1672096 -0.42321593 15
0.46668836 2.1512482 -0.34259176 16
0.47142705 2.1712625 -0.26811287 14
0.46610653 2.1449521 -0.18869248 13
0.46548307 2.1402829 -0.11240868 13
0.46534887 2.1378689 -0.037147783 12
0.46563822 2.137403 0.57549721 13
0.46482155 2.1318653 0.49451819 12
0.46545535 2.1329834 0.41654328 13
0.46970436 2.1506526 0.34221393 15
0.4659802 2.1318157 0.26323774 14
0.47123003 2.1540313 0.18956374 15
0.47060272 2.1493669 0.11330734 14
0.46940216 2.1420941 0.037609935 16
0.41196895 1.8721851 -0.50340325 4
0.46612343 2.116529 -0.49151835 5
0.47731707 2.1655567 -0.42321593 15
0.47419479 2.149606 -0.34259176 15
0.47900334 2.1696038 -0.26811287 15
0.47466564 2.1481755 -0.18912823 14
0.47295123 2.1386449 -0.11240868 13
0.4728086 2.1362314 -0.037147783 12
0.47309631 2.1357646 0.57549721 13
0.4722603 2.1302297 0.49451819 12
0.4739612 2.1361375 0.4174965 13
0.47720867 2.1490002 0.34221393 15
0.47341877 2.1301763 0.26323774 14
0.47874612 2.1523731 0.18956374 15
0.47810254 2.147711 0.11330734 13
0.47687662 2.1404426 0.037609935 16
0.41850159 1.8707358 -0.50340325 4
0.47350863 2.1148889 -0.49151835 4
0.48487338 2.1638772 -0.42321593 15
0.48169541 2.1479378 -0.34259176 15
0.48766047 2.1727605 -0.26872221 14
0.48216128 2.1465056 -0.18912823 13
0.48150873 2.1418524 -0.11266948 13
0.48026258 2.1345682 -0.037147783 12
0.48054862 2.1341002 0.57549721 13
0.48076439 2.1333208 0.49564207 12
0.48141482 2.13447 0.4174965 14
0.48470715 2.1473212 0.34221393 14
0.48194519 2.1333518 0.26384711 14
0.48625639 2.1506889 0.18956374 14
0.48559654 2.146029 0.11330734 14
0.48434526 2.1387649 0.037609935 16
0.42502913 1.8692635 -0.50340325 4
0.47980714 2.1084731 -0.49039361 4
0.49242377 2.1621716 -0.42321593 15
0.48919019 2.1462431 -0.34259176 15
0.49524185 2.1710451 -0.26872221 14
0.48965102 2.1448095 -0.18912823 14
0.48898226 2.1401584 -0.11266948 12
0.48882508 2.1377523 -0.037234176 12
0.48799512 2.1324098 0.57549721 13
0.48820812 2.1316297 0.49564207 13
0.48995915 2.1375606 0.41844967 14
0.49219978 2.1456161 0.34221393 14
0.48938906 2.1316564 0.26384711 14
0.49376073 2.1489785 0.18956374 14
0.49308461 2.144321 0.11330734 13
0.491808 2.1370611 0.037609935 16
0.43155149 1.8677685 -0.50340325 4
0.48716417 2.1067855 -0.49039361 4
0.50107473 2.1652212 -0.42416909 15
0.49667901 2.1445227 -0.34259176 15
0.50281721 2.1693032 -0.26872221 14
0.49713483 2.1430871 -0.18912823 14
0.49644986 2.1384387 -0.11266948 13
0.49628425 2.1360328 -0.037234176 12
0.49543563 2.1306934 0.57549721 13
0.49564594 2.1299126 0.49564207 13
0.49741763 2.1358373 0.41844967 13
0.50080734 2.1486945 0.34299523 14
0.49682695 2.129935 0.26384711 14
0.5023914 2.1520925 0.18999954 14
0.50056666 2.1425867 0.11330734 13
0.49926472 2.1353314 0.037609935 16
0.43806857 1.8662506 -0.50340325 3
0.49451527 2.1050723 -0.49039361 4
0.50862974 2.1634591 -0.42416909 15
0.50529277 2.1475825 -0.34337392 15
0.5115239 2.1723654 -0.26933157 14
0.50461257 2.1413388 -0.18912823 13
0.50391138 2.1366928 -0.11266948 12
0.50373739 2.1342876 -0.037234176 12
0.50398052 2.1336517 0.57679051 13
0.50307769 2.1281695 0.49564207 12
0.50487012 2.134088 0.41844967 13
0.50830466 2.1469333 0.34299523 14
0.50540298 2.1330168 0.26445645 14
0.50990057 2.1503255 0.18999954 14
0.50804263 2.1408262 0.11330734 13
0.50671536 2.1335757 0.037609935 16
0.44458035 1.8647102 -0.50340325 3
0.50072956 2.098594 -0.48926884 4
0.51617849 2.1616702 -0.42416909 15
0.51278609 2.1458056 -0.34337392 15
0.51910377 2.1705666 -0.26933157 14
0.51208419 2.1395643 -0.18912823 14
0.51136678 2.1349206 -0.11266948 13
0.51234972 2.1373777 -0.037320562 12
0.51142526 2.1318796 0.57679051 13
0.51164073 2.1311381 0.496766 13
0.51231635 2.1323128 0.41844967 14
0.51695031 2.1499476 0.34377655 14
0.51284552 2.1312397 0.26445645 14
0.51856959 2.1533749 0.19043529 14
0.51668227 2.143894 0.11356901 13
0.51533198 2.1366537 0.037697192 16
0.4510867 1.8631469 -0.50340325 3
0.50805193 2.0968335 -0.48926884 4
0.52487767 2.1646254 -0.42512229 14
0.52143788 2.148802 -0.34415612 15
0.52667731 2.1687415 -0.26933157 14
0.52072585 2.1426039 -0.18956403 13
0.51999599 2.1379747 -0.1129303 13
0.5198074 2.1355762 -0.037320562 12
0.5188638 2.1300814 0.57679051 12
0.5190767 2.1293392 0.496766 13
0.51975638 2.1305113 0.41844967 13
0.52445191 2.1481302 0.34377655 14
0.52028179 2.1294365 0.26445645 14
0.52608317 2.1515517 0.19043529 15
0.52416271 2.1420772 0.11356901 13
0.52278715 2.1348419 0.037697192 16
0.45758754 1.8615609 -0.50340325 4
0.51536816 2.0950472 -0.48926884 4
0.53243041 2.16278 -0.42512229 15
0.52893543 2.1469686 -0.34415612 15
0.53424442 2.1668897 -0.26933157 14
0.52820176 2.1407731 -0.18956403 14
0.52745575 2.1361465 -0.1129303 13
0.52725881 2.1337485 -0.037320562 12
0.52745539 2.1329458 0.57808375 12
0.52767664 2.1322436 0.49788988 12
0.52719009 2.128684 0.41844967 14
0.53194708 2.1462865 0.34377655 14
0.52771175 2.1276073 0.26445645 15
0.53359026 2.1497023 0.19043529 14
0.53163677 2.1402345 0.11356901 14
0.53144205 2.1378558 0.037784457 16
0.46408281 1.8599523 -0.50340325 3
0.52385843 2.0979624 -0.49039361 4
0.53997666 2.1609085 -0.42512229 15
0.53642654 2.1451094 -0.34415612 15
0.54180503 2.1650116 -0.26933157 14
0.53688139 2.1437485 -0.18999982 14
0.53490907 2.1342924 -0.1129303 12
0.53592002 2.1367443 -0.037406955 12
0.53489751 2.1310916 0.57808375 13
0.53511637 2.1303885 0.49788988 13
0.53581399 2.1315913 0.41940287 13
0.5394358 2.1444166 0.34377655 15
0.53513527 2.1257524 0.26445645 14
0.54109085 2.1478267 0.19043529 15
0.54032505 2.1432076 0.1138307 14
0.53890127 2.1359875 0.037784457 16
0.47057241 1.8583211 -0.50340325 4
0.53117847 2.0961211 -0.49039361 4
0.54751635 2.1590104 -0.42512229 15
0.54512584 2.1480103 -0.34493828 15
0.55058062 2.1679173 -0.26994088 14
0.54436117 2.1418614 -0.18999982 13
0.54358661 2.1372511 -0.1131911 13
0.54337537 2.1348608 -0.037406955 12
0.54352534 2.1338918 0.579377 13
0.54375297 2.1332288 0.49901381 12
0.5432514 2.1297081 0.41940287 14
0.54691792 2.1425204 0.34377655 14
0.54255229 2.1238716 0.26445645 14
0.54858488 2.1459248 0.19043529 15
0.54780293 2.1413085 0.1138307 14
0.546354 2.1340935 0.037784457 16
0.4758544 1.8519895 -0.50210917 4
0.53849208 2.094254 -0.49039361 5
0.55627251 2.1618395 -0.42607546 14
0.55262047 2.1460946 -0.34493828 15
0.55814469 2.1659822 -0.26994088 15
0.55307811 2.1447711 -0.19043559 13
0.55104369 2.1353407 -0.1131911 13
0.55082411 2.132951 -0.037406955 12
0.55097067 2.1319814 0.579377 13
0.55119598 2.1313179 0.49901381 12
0.55068219 2.1277988 0.41940287 13
0.55563146 2.1453788 0.34455785 14
0.55120778 2.1267686 0.26506582 15
0.55732274 2.1488185 0.19087109 15
0.55652857 2.1442163 0.11409239 14
0.55379999 2.1321733 0.037784457 16
0.48231617 1.8503171 -0.50210917 4
0.54579914 2.0923617 -0.49039361 5
0.56381536 2.1598847 -0.42607546 15
0.56010836 2.1441524 -0.34493828 15
0.56570202 2.1640208 -0.26994088 14
0.56056136 2.1428275 -0.19043559 13
0.55849409 2.133404 -0.1131911 13
0.559533 2.1358511 -0.037493344 12
0.55963415 2.1347172 0.58067024 12
0.55863231 2.1293807 0.49901381 13
0.55810624 2.1258636 0.41940287 14
0.56311691 2.1434262 0.34455785 15
0.5586282 2.1248317 0.26506582 14
0.56482017 2.1468599 0.19087109 14
0.5640099 2.1422606 0.11409239 14
0.5612393 2.1302271 0.037784457 16
0.48877206 1.8486222 -0.50210917 4
0.55434555 2.0951531 -0.49151835 5
0.57135135 2.1579032 -0.42607546 15
0.56885433 2.1469581 -0.34572047 15
0.57325238 2.1620328 -0.26994088 14
0.56803781 2.1408577 -0.19043559 13
0.56721908 2.1362677 -0.11345191 13
0.56698513 2.1338851 -0.037493344 12
0.56708229 2.1327507 0.58067024 13
0.56606185 2.1274178 0.49901381 12
0.56678635 2.1286454 0.42035604 13
0.57059544 2.1414478 0.34455785 15
0.56604177 2.1228688 0.26506582 14
0.57231069 2.1448753 0.19087109 14
0.57148433 2.1402788 0.11409239 13
0.56996232 2.1330848 0.037871718 16
0.49522194 1.8469049 -0.50210917 4
0.5616557 2.0932055 -0.49151835 4
0.58015317 2.1606362 -0.42702866 15
0.57634515 2.1449592 -0.34572047 15
0.58079576 2.1600187 -0.26994088 14
0.57550728 2.1388619 -0.19043559 13
0.57467264 2.134275 -0.11345191 14
0.57443029 2.1318929 -0.037493344 12
0.57452351 2.1307583 0.58067024 13
0.57475364 2.1301327 0.50013769 12
0.57421321 2.1266539 0.42035604 13
0.57935524 2.1442108 0.34533918 15
0.57344854 2.1208799 0.26506582 15
0.5810951 2.1476724 0.19130686 15
0.58025676 2.1430902 0.11435406 14
0.57740468 2.1310823 0.037871718 16
0.50039876 1.8405045 -0.50081509 4
0.56895888 2.0912321 -0.49151835 4
0.58769166 2.1585979 -0.42702866 15
0.58382893 2.1429346 -0.34572047 16
0.58833206 2.1579781 -0.26994088 14
0.58296984 2.1368399 -0.19043559 13
0.58211911 2.1322558 -0.11345191 13
0.58186853 2.1298747 -0.037493344 12
0.58195776 2.1287398 0.58067024 13
0.58218575 2.1281135 0.50013769 12
0.58163309 2.1246367 0.42035604 13
0.5868364 2.1421752 0.34533918 14
0.58216041 2.1236515 0.26567516 14
0.5885883 2.1456311 0.19130686 14
0.58773392 2.1410518 0.11435406 13
0.58484006 2.1290538 0.037871718 16
0.50682026 1.8387465 -0.50081509 4
0.5762552 2.0892334 -0.49151835 4
0.59652889 2.1612647 -0.42798182 15
0.59130561 2.1408834 -0.34572047 15
0.59718329 2.1606946 -0.27055025 14
0.59175307 2.1395926 -0.19087137 13
0.58955854 2.1302109 -0.11345191 13
0.59063393 2.1326485 -0.037579738 12
0.58938491 2.1266954 0.58067024 13
0.58961064 2.1260684 0.50013769 12
0.5903585 2.1273229 0.42130923 13
0.59563178 2.1448722 0.34612048 14
0.58956981 2.1216066 0.26567516 14
0.5960744 2.1435633 0.19130686 14
0.59520406 2.1389873 0.11435406 13
0.59226829 2.1269994 0.037871718 16
0.51323563 1.8369662 -0.50081509 4
0.58354449 2.0872092 -0.49151835 4
0.60406947 2.1591692 -0.42798182 15
0.60010648 2.1435618 -0.3465026 15
0.6047219 2.158597 -0.27055025 14
0.59921801 2.1375141 -0.19087137 13
0.59833938 2.1329477 -0.11371273 13
0.59807462 2.1305737 -0.037579738 12
0.59811103 2.1292751 0.58196354 13
0.59702849 2.1239972 0.50013769 12
0.59778059 2.1252491 0.42130923 14
0.6031152 2.1427798 0.34612048 14
0.59831738 2.1243124 0.2662845 14
0.60355318 2.1414695 0.19130686 14
0.60266691 2.1368966 0.11435406 13
0.60104716 2.1297305 0.037958983 16
0.51964462 1.8351635 -0.50081509 4
0.59082663 2.0851595 -0.49151835 4
0.61160266 2.1570475 -0.42798182 15
0.60758525 2.141454 -0.3465026 15
0.61360854 2.161247 -0.27115959 14
0.60803688 2.1402006 -0.19130714 14
0.60578114 2.130846 -0.11371273 13
0.60550809 2.1284733 -0.037579738 12
0.60553992 2.1271744 0.58196354 13
0.60577369 2.126586 0.50126159 12
0.60654098 2.1278698 0.4222624 14
0.61059117 2.1406617 0.34612048 15
0.60572898 2.122211 0.2662845 15
0.61102462 2.1393497 0.19130686 14
0.61012238 2.1347797 0.11435406 13
0.60847765 2.1276195 0.037958983 15
0.52604747 1.8333384 -0.50081509 4
0.59810162 2.0830843 -0.49151835 4
0.61912853 2.1548996 -0.42798182 15
0.61505657 2.1393201 -0.3465026 15
0.62114894 2.1590919 -0.27115959 14
0.61550385 2.1380651 -0.19130714 13
0.61321551 2.1287184 -0.11371273 13
