# .PCD v0.7 - Point Cloud Data file format
VERSION 0.7
FIELDS x y z intensity
SIZE 4 4 4 4
TYPE F F F F
COUNT 1 1 1 1
WIDTH 1420
HEIGHT 1
VIEWPOINT 0 0 0 1 0 0 0
POINTS 1420
DATA ascii
1.1176208 2.1188605 -0.28944001 13
1.1150607 2.1131134 -0.20568787 14
1.1041358 2.0915253 -0.12153699 11
1.110489 2.1026711 -0.040430613 16
1.1076649 2.0964377 0.62464082 13
1.108447 2.0970316 0.53835046 15
1.1077534 2.0948341 0.45276445 13
1.1125343 2.1029871 0.37034109 13
1.104328 2.0865939 0.28517425 13
1.1156795 2.1071525 0.20525178 12
1.1140567 2.1031997 0.12272782 14
1.1040572 2.0834429 0.04048958 12
0.89454865 1.6845291 -0.50081509 3
1.0213647 1.9225268 -0.49376786 4
1.123656 2.1141803 -0.45753068 14
1.116906 2.1005952 -0.37074998 14
1.1273407 2.1193275 -0.29004934 12
1.1224301 2.1092081 -0.20568787 14
1.1137763 2.0920658 -0.12179781 11
1.1201721 2.1031945 -0.040517002 15
1.1149762 2.0925584 0.62464082 13
1.1157603 2.0931497 0.53835046 14
1.1173685 2.0952854 0.45371762 14
1.1198684 2.0990908 0.37034109 13
1.1139417 2.0871046 0.28578362 13
1.123028 2.1032453 0.20525178 12
1.1237441 2.1037025 0.12298949 14
1.1136794 2.0839856 0.040576845 12
0.90042335 1.6813962 -0.50081509 3
1.0280694 1.9189498 -0.49376786 3
1.1333477 2.1145713 -0.4584839 14
1.1265653 2.1010361 -0.37153217 14
1.1370776 2.1197529 -0.29065871 12
1.1321411 2.1096663 -0.20612365 14
1.1210723 2.0881653 -0.12179781 11
1.1298722 2.1036756 -0.040603392 15
1.1245598 2.0929081 0.62593406 13
1.1253667 2.0935333 0.53947437 15
1.1246756 2.0913725 0.45371762 14
1.1295285 2.0995181 0.37112242 13
1.1212202 2.0832036 0.28578362 13
1.1327242 2.1036978 0.20568755 12
1.1310805 2.099767 0.12298949 14
1.1233187 2.0844862 0.040664103 12
0.90399218 1.6739933 -0.49952096 3
1.0347614 1.9153496 -0.49376786 4
1.1430558 2.1149204 -0.45943707 14
1.1362413 2.1014347 -0.3723143 13
1.14447 2.1157708 -0.29065871 13
1.1418688 2.1100821 -0.20655942 13
1.1307316 2.0886304 -0.12205861 11
1.1372086 2.0997188 -0.040603392 16
1.1341596 2.0932167 0.62722731 13
1.1349893 2.0938756 0.54059827 14
1.1343088 2.0917487 0.45467082 13
1.1392053 2.0999036 0.37190372 13
1.1308522 2.0836384 0.28639293 12
1.1400605 2.099731 0.20568755 12
1.1407865 2.1001937 0.12325118 14
1.1305879 2.0805523 0.040664103 12
0.90752035 1.6665862 -0.49822688 4
1.041441 1.9117258 -0.49376786 4
1.1527801 2.115227 -0.46039027 14
1.1459337 2.1017919 -0.3730965 13
1.1542248 2.1161199 -0.29126805 12
1.1492275 2.1060834 -0.20655942 13
1.1404079 2.0890534 -0.12231942 11
1.1469272 2.1001241 -0.040689785 15
1.143775 2.0934832 0.62852055 13
1.1446282 2.0941761 0.54172218 14
1.1439582 2.092083 0.45562398 14
1.1488986 2.1002469 0.37268505 13
1.1405011 2.0840321 0.2870023 12
1.149775 2.1001077 0.20612334 12
1.1481106 2.0961988 0.12325118 14
1.1402459 2.0809774 0.040751368 12
0.91100776 1.6591747 -0.49693277 4
1.0481079 1.9080789 -0.49376786 4
1.1625203 2.1154916 -0.46134344 14
1.1532633 2.0977788 -0.3730965 13
1.163996 2.1164265 -0.29187742 12
1.1589732 2.1064229 -0.20699522 14
1.1501009 2.0894341 -0.12258023 11
1.1542511 2.0961077 -0.040689785 15
1.1534061 2.0937085 0.62981385 13
1.1542828 2.0944347 0.54284608 14
1.1536239 2.0923753 0.45657721 13
1.1586078 2.1005478 0.37346631 13
1.1477689 2.0800383 0.2870023 12
1.1595061 2.1004422 0.20655911 12
1.1578345 2.0965493 0.12351285 14
1.1499205 2.0813601 0.040838629 11
0.91679388 1.6559846 -0.49693277 4
1.0547619 1.9044087 -0.49376786 4
1.1722766 2.1157143 -0.46229663 14
1.1629732 2.0980597 -0.37387866 13
1.1737833 2.1166904 -0.29248673 13
1.1687351 2.1067202 -0.20743097 14
1.1573874 2.0854068 -0.12258023 12
1.1639875 2.0964367 -0.040776171 15
1.1630528 2.0938921 0.63110709 13
1.1639531 2.0946515 0.54396999 14
1.1633053 2.0926254 0.45753035 13
1.1683335 2.100807 0.37424764 14
1.1574353 2.0803559 0.28761163 12
1.1692533 2.1007342 0.20699489 12
1.1675749 2.0968573 0.12377454 14
1.1596116 2.081701 0.04092589 12
0.92021477 1.6485572 -0.4956387 4
1.061403 1.9007152 -0.49376786 4
1.1820484 2.1158943 -0.4632498 15
1.172699 2.0982983 -0.37466085 13
1.1811647 2.1125801 -0.29248673 12
1.1760819 2.1026275 -0.20743097 13
1.167098 2.0857115 -0.12284105 11
1.1712984 2.0923607 -0.040776171 15
1.1727147 2.0940332 0.63240033 13
1.1736392 2.0948265 0.54509389 14
1.1706029 2.088552 0.45753035 13
1.1780748 2.1010234 0.37502894 13
1.16469 2.0763028 0.28761163 13
1.1765792 2.0966401 0.20699489 12
1.1748872 2.0927689 0.12377454 14
1.1668711 2.0776408 0.04092589 11
0.9259637 1.6453351 -0.4956387 4
1.0680313 1.8969986 -0.49376786 4
1.191836 2.1160321 -0.46420303 15
1.1824404 2.0984943 -0.37544301 13
1.1909689 2.1127677 -0.2930961 12
1.1858611 2.1028483 -0.20786677 13
1.1743714 2.081625 -0.12284105 12
1.1810522 2.0926132 -0.040862564 15
1.1800171 2.089927 0.63240033 13
1.1809443 2.0907168 0.54509389 15
1.1803011 2.0887265 0.45848358 14
1.1854016 2.0968983 0.37502894 13
1.1743736 2.0765445 0.288221 12
1.1863433 2.0968552 0.20743066 12
1.1846447 2.0930004 0.12403621 14
1.1765795 2.0779049 0.041013151 12
0.93170136 1.6420927 -0.4956387 4
1.0746466 1.893259 -0.49376786 4
1.1992151 2.1118588 -0.46420303 16
1.1921977 2.0986481 -0.3762252 13
1.2007885 2.1129119 -0.29370543 12
1.1956559 2.1030262 -0.20830254 14
1.184099 2.0818529 -0.12310185 11
1.1908218 2.0928228 -0.040948953 15
1.1896944 2.0899928 0.63369364 13
1.1906459 2.0908153 0.5462178 15
1.1900144 2.0888586 0.45943674 13
1.1951594 2.0970385 0.37581027 14
1.1840731 2.0767436 0.28883031 12
1.1961234 2.097028 0.20786645 12
1.1944181 2.0931895 0.12429789 14
1.1863041 2.0781271 0.041100416 11
0.93742764 1.6388305 -0.4956387 4
1.0812488 1.8894963 -0.49376786 4
1.209018 2.1119196 -0.46515623 17
1.2019705 2.0987592 -0.37700737 14
1.2081566 2.1087074 -0.29370543 12
1.2054665 2.1031611 -0.20873833 14
1.1913588 2.0777071 -0.12310185 12
1.2006074 2.0929899 -0.041035343 15
1.1993866 2.0900164 0.63498682 13
1.2003627 2.0908718 0.5473417 14
1.1997433 2.0889482 0.46038994 13
1.2049325 2.0971358 0.37659156 13
1.1937882 2.0769005 0.28943968 12
1.205919 2.097158 0.20830221 12
1.2042071 2.0933354 0.12455957 14
1.1935508 2.0739734 0.041100416 11
0.94314253 1.6355484 -0.4956387 4
1.0878377 1.8857106 -0.49376786 4
1.2163827 2.1076865 -0.46515623 17
1.2117584 2.0988276 -0.37778956 13
1.2179923 2.1087749 -0.2943148 12
1.2128006 2.0989404 -0.20873833 13
1.2011031 2.0778589 -0.12336266 11
1.2104087 2.0931137 -0.041121732 15
1.2090933 2.0899975 0.63628012 13
1.2100945 2.0908861 0.54846561 15
1.209487 2.0889952 0.46134311 13
1.2147207 2.0971906 0.37737289 13
1.2035186 2.0770147 0.29004902 12
1.2157302 2.0972452 0.208738 12
1.2115067 2.0891192 0.12455957 14
1.2032917 2.0741186 0.041187678 12
0.95127308 1.6364216 -0.49693277 4
1.0944135 1.8819017 -0.49376786 4
1.2262006 2.1076703 -0.4661094 14
1.2215614 2.0988531 -0.37857169 14
1.2278429 2.1087992 -0.29492414 13
1.2226269 2.0989981 -0.2091741 13
1.2108628 2.0779674 -0.12362346 11
1.2202255 2.093195 -0.041208126 15
1.2163814 2.0857644 0.63628012 13
1.2173855 2.0866492 0.54846561 14
1.2167716 2.0847607 0.46134311 13
1.224524 2.0972025 0.37815419 14
1.2132646 2.0770862 0.29065838 12
1.2255565 2.0972893 0.20917377 12
1.2213118 2.0891881 0.12482125 14
1.2105244 2.0699058 0.041187678 12
0.95697951 1.633091 -0.49693277 4
1.1034398 1.8822732 -0.49489263 3
1.2335502 2.1033771 -0.4661094 15
1.2313793 2.0988357 -0.37935388 13
1.2377086 2.1087804 -0.29553348 12
1.2324684 2.0990129 -0.20960988 13
1.2206379 2.0780337 -0.12388428 11
1.2300572 2.0932331 -0.041294511 15
1.2261024 2.0856693 0.63757336 13
1.2271317 2.0865865 0.54958951 15
1.2265303 2.0847311 0.46229634 13
1.2318373 2.0929153 0.37815419 13
1.2230256 2.0771148 0.29126769 12
1.2353981 2.0972903 0.20960957 12
1.231132 2.0892141 0.12508292 13
1.2202812 2.0699742 0.041274939 12
0.96267426 1.6297406 -0.49693277 4
1.1100035 1.87841 -0.49489263 3
1.2433829 2.1032839 -0.46706262 16
1.238698 2.0945246 -0.37935388 13
1.2475889 2.1087182 -0.29614282 12
1.2423247 2.0989845 -0.21004565 14
1.2278841 2.0737603 -0.12388428 11
1.2399045 2.0932279 -0.041380905 15
1.2358376 2.0855319 0.6388666 14
1.2368923 2.0864813 0.55071342 14
1.2363036 2.0846586 0.46324947 14
1.2416552 2.09285 0.37893552 13
1.2302686 2.0728331 0.29126769 12
1.2452543 2.0972478 0.21004534 12
1.2409673 2.0891967 0.12534462 14
1.2300529 2.0699997 0.0413622 12
0.96835721 1.6263703 -0.49693277 4
1.1190466 1.8787093 -0.49601737 3
1.2507172 2.0989308 -0.46706262 16
1.2485304 2.09443 -0.38013604 14
1.2574842 2.108613 -0.29675218 12
1.2521961 2.0989127 -0.21048145 14
1.2376742 2.0737491 -0.12414508 11
1.2497665 2.0931795 -0.041467294 15
1.2455865 2.0853517 0.64015985 13
1.2466669 2.0863335 0.55183733 14
1.2460912 2.0845435 0.4642027 14
1.2514876 2.0927415 0.37971681 13
1.2400445 2.0727849 0.29187706 12
1.2551255 2.0971622 0.21048112 11
1.2508171 2.0891361 0.12560628 13
1.23984 2.0699823 0.041449465 12
0.97374505 1.6231502 -0.49693277 4
1.1249431 1.8751844 -0.49601737 3
1.2598305 2.0991995 -0.46801579 13
1.2576462 2.0947311 -0.38091823 13
1.2666575 2.1089065 -0.29736155 12
1.2613491 2.0992379 -0.2109172 13
1.2467556 2.0741303 -0.1244059 12
1.2563362 2.0892429 -0.041467294 15
1.2546216 2.0855672 0.64145315 13
1.2557275 2.086581 0.55296123 14
1.2551657 2.0848238 0.4651559 14
1.260604 2.0930302 0.38049814 13
1.2491113 2.0731294 0.2924864 12
1.264279 2.0974748 0.21091689 12
1.2599525 2.0894723 0.12586798 13
1.2489192 2.0703576 0.041536722 11
0.97912234 1.6199123 -0.49693277 4
1.131482 1.8712462 -0.49601737 3
1.2671504 2.0947893 -0.46801579 11
1.2675073 2.0945537 -0.38170043 13
1.2765814 2.1087174 -0.29797086 12
1.2712494 2.0990829 -0.211353 13
1.2565753 2.0740359 -0.1246667 11
1.2662126 2.0891199 -0.041553684 15
1.264398 2.0853047 0.64274633 13
1.26553 2.0863504 0.55408514 15
1.2649815 2.0846257 0.46610907 13
1.2704653 2.0928388 0.38127947 14
1.2589164 2.0729988 0.29309577 13
1.2741791 2.097306 0.21135268 11
1.2698319 2.0893283 0.12612964 14
1.2587359 2.0702572 0.041623987 11
0.98505306 1.6163126 -0.49693277 3
1.1383327 1.8670866 -0.49601737 3
1.2773755 2.094321 -0.46896899 10
1.277748 2.0941095 -0.38248259 13
1.2868873 2.1082604 -0.29858023 12
1.2789345 2.0944092 -0.211353 14
1.2667717 2.0736775 -0.12492751 11
1.2764678 2.0887306 -0.041640073 15
1.2745519 2.0847774 0.64403963 13
1.2757106 2.0858545 0.55520904 14
1.2751753 2.0841622 0.46706229 13
1.2807055 2.0923803 0.38206074 13
1.2690973 2.0726027 0.29370511 12
1.2844594 2.096869 0.21178845 12
1.2774811 2.0846601 0.12612964 14
1.2689278 2.0698917 0.041711248 11
0.99321681 1.6169797 -0.49822688 4
1.1448432 1.8631017 -0.49601737 3
1.2846782 2.0898495 -0.46896899 9
1.28505 2.0896366 -0.38248259 13
1.296839 2.1079822 -0.29918957 12
1.288848 2.0941741 -0.21178877 14
1.2740026 2.0692432 -0.12492751 11
1.286373 2.0885189 -0.041726466 16
1.2843549 2.0844276 0.64533287 13
1.2855402 2.085536 0.55633295 15
1.2824426 2.0796981 0.46706229 13
1.2905945 2.0921004 0.38284209 13
1.2789308 2.0723834 0.29431444 13
1.2917709 2.0923727 0.21178845 12
1.2873739 2.0844367 0.12639134 13
1.2787732 2.0697029 0.04179851 12
0.99913663 1.6133285 -0.49822688 3
1.1516641 1.858893 -0.49601737 3
1.2949151 2.089299 -0.46992216 8
1.2953026 2.0891097 -0.38326478 13
1.3071724 2.1074324 -0.29979894 13
1.2991413 2.0936687 -0.21222456 13
1.2842113 2.0688019 -0.12518832 12
1.2966565 2.088037 -0.041812852 15
1.2945348 2.0838089 0.64662611 13
1.295747 2.0849483 0.55745685 14
1.292648 2.0791523 0.46801546 13
1.3008618 2.0915494 0.38362336 13
1.2891394 2.0718958 0.29492378 13
1.3020633 2.0918527 0.21222423 11
1.2976443 2.0839424 0.126653 13
1.2889937 2.0692451 0.041885771 11
1.0047621 1.609831 -0.49822688 3
1.1581458 1.8548617 -0.49601737 3
1.3048005 2.0889292 -0.47087535 7
1.3052039 2.0887635 -0.38404691 13
1.3145207 2.1028566 -0.29979894 12
1.3090826 2.0933444 -0.21266034 14
1.2967215 2.0727727 -0.12570994 11
1.3065894 2.0877361 -0.041899245 15
1.3043636 2.0833709 0.64791936 13
1.3056031 2.0845416 0.55858076 14
1.3025038 2.0787868 0.46896866 13
1.3107777 2.0911806 0.38440469 14
1.2963638 2.0673831 0.29492378 13
1.3120043 2.0915146 0.21266001 12
1.3075647 2.0836296 0.12691469 14
1.3015307 2.0731978 0.042060297 12
1.0103754 1.6063139 -0.49822688 3
1.1646135 1.8508077 -0.49601737 3
1.3199285 2.096823 -0.47373492 6
1.3151189 2.0883739 -0.3848291 13
1.3244982 2.1024542 -0.30040827 12
1.3216933 2.0971899 -0.21353191 14
1.3066118 2.0724576 -0.12597075 12
1.3192029 2.0916195 -0.042072024 15
1.3142054 2.08289 0.64921266 13
1.3180726 2.0882115 0.56082857 14
1.3149935 2.0825279 0.47087502 13
1.3259816 2.0991182 0.38674861 14
1.3062236 2.0670407 0.29553315 12
1.3246202 2.0953426 0.21353158 12
1.3201678 2.0874929 0.12743805 14
1.3167725 2.0813196 0.042322084 12
1.018562 1.6068563 -0.49952096 4
1.173676 1.8508457 -0.49714214 3
1.3324984 2.1004922 -0.47564128 11
1.3276929 2.0921099 -0.38639346 12
1.3398088 2.1103873 -0.30223632 12
1.3396873 2.1093822 -0.21527502 13
1.3218712 2.0805275 -0.12675317 11
1.3372226 2.1038783 -0.042417586 15
1.3292425 2.090517 0.65309232 13
1.3305835 2.0918195 0.56307638 14
1.3275249 2.0862072 0.47278142 14
1.3412571 2.1069751 0.38909256 16
1.3240939 2.0792124 0.29797053 12
1.3372788 2.099108 0.21440314 12
1.3381807 2.0997148 0.12848477 14
1.340155 2.1020029 0.042845655 15
1.0241647 1.6032912 -0.49952096 3
1.1827528 1.8508426 -0.49826688 3
1.3451098 2.104099 -0.47754765 9
1.3403089 2.0957832 -0.38795781 13
1.3551908 2.1182387 -0.30406433 14
1.3550975 2.1172788 -0.21658234 25
1.3425874 2.0969262 -0.12805721 12
1.3526477 2.1118271 -0.042676758 27
1.3495605 2.1061976 0.65955865 16
1.3457649 2.0994673 0.56644809 18
1.3480464 2.1022191 0.47754732 22
1.3566033 2.1147506 0.39143646 27
1.3420651 2.0912845 0.30040792 17
1.3553617 2.1111932 0.21614625 23
1.3562949 2.111836 0.12953149 25
1.3636978 2.1225479 0.043369226 27
1.0323691 1.6037673 -0.50081509 4
1.1944816 1.8548948 -0.50051636 4
1.3551046 2.1035173 -0.47850087 8
1.3583171 2.1076963 -0.39108649 15
1.3706439 2.1260085 -0.30589241 27
1.3786781 2.137651 -0.21919702 26
1.3688483 2.1215968 -0.12988289 27
1.3708552 2.1238937 -0.04302232 26
1.3726237 2.1258192 0.66731817 31
1.3636593 2.1111271 0.57094371 25
1.3660319 2.1139908 0.48136008 22
1.3747011 2.1265924 0.39456171 29
1.3601365 2.1032562 0.3028453 32
1.3735449 2.1231778 0.21788937 26
1.3745098 2.1238563 0.1305782 26
1.3792492 2.1303642 0.043631013 73
1.037961 1.6001539 -0.50081509 4
1.2062531 1.8588876 -0.50276589 3
1.3624388 2.0987742 -0.47850087 6
1.3737352 2.1153672 -0.39343297 17
1.3861675 2.1336958 -0.30772042 30
1.3888458 2.137002 -0.21963282 34
1.3816891 2.1251781 -0.1304045 29
1.3864378 2.1316681 -0.043281488 35
1.387938 2.1331601 0.67119795 36
1.3789935 2.1186037 0.57431537 32
1.3841161 2.1256621 0.48517281 37
1.3902025 2.1341951 0.39690566 32
1.3810171 2.1192849 0.30589205 32
1.3918284 2.135061 0.21963248 45
1.392825 2.1357749 0.13162492 39
1.3839455 2.1213498 0.043543749 33
1.0435404 1.596521 -0.50081509 4
1.2207333 1.8668984 -0.50614017 3
1.3697566 2.0940056 -0.47850087 6
1.3919272 2.1270883 -0.39656168 18
1.4017614 2.1413007 -0.30954847 28
1.396297 2.1321411 -0.21963282 23
1.3973076 2.1328721 -0.13118692 35
1.39113 2.1226344 -0.043195099 26
1.3874311 2.1161849 0.66731817 34
1.3890524 2.1178513 0.57543933 34
1.3888348 2.116714 0.48421967 28
1.3949337 2.1252005 0.39612433 25
1.3911302 2.1185997 0.30650139 35
1.3992727 2.1301897 0.21963248 32
1.3975297 2.1267273 0.13136324 31
1.3913419 2.1165059 0.043543749 22
1.0491068 1.5928687 -0.50081509 4
1.2272425 1.8626258 -0.50614017 3
1.3770577 2.0892115 -0.47850087 5
1.4047807 2.1304624 -0.39812601 13
1.41196 2.1405373 -0.31015781 22
1.4064742 2.1314113 -0.22006857 21
1.3992425 2.1196473 -0.1306653 23
1.398531 2.1177654 -0.043195099 26
1.3948096 2.1113288 0.66731817 23
1.399123 2.1170545 0.57656324 24
1.3962151 2.1118531 0.48421967 22
1.4023435 2.1203182 0.39612433 19
1.398517 2.1137309 0.30650139 27
1.4066999 2.1252923 0.21963248 28
1.4021883 2.1176727 0.13110156 27
1.3959609 2.1074686 0.043456491 16
1.05199 1.5851728 -0.49952096 4
1.2364312 1.8623893 -0.50726491 3
1.3870575 2.0884807 -0.47945404 5
1.4176745 2.1337724 -0.39969036 12
1.4221704 2.1397285 -0.31076717 18
1.4166635 2.1306367 -0.22050437 18
1.4066329 2.1147501 -0.1306653 17
1.4086841 2.1170328 -0.043281488 18
1.402171 2.1064472 0.66731817 16
1.4065043 2.1121578 0.57656324 16
1.4035784 2.1069665 0.48421967 15
1.4097363 2.1154103 0.39612433 17
1.4058869 2.1088362 0.30650139 17
1.4141099 2.120369 0.21963248 23
1.4095718 2.1127653 0.13110156 20
1.4060839 2.106741 0.043543749 19
1.0575169 1.581491 -0.49952096 4
1.2429247 1.8580619 -0.50726491 3
1.3970691 2.0877054 -0.48040724 4
1.4278615 2.1329145 -0.40047255 15
1.4323921 2.1388748 -0.31137651 16
1.4268646 2.1298168 -0.22094014 17
1.4140064 2.1098273 -0.1306653 17
1.4160655 2.1121025 -0.043281488 15
1.4068251 2.0975287 0.66602492 15
1.4165831 2.1112809 0.57768714 17
1.4136599 2.1061296 0.48517281 15
1.4171119 2.1104765 0.39612433 14
1.4160067 2.1080353 0.30711073 18
1.4242809 2.119554 0.22006825 18
1.4169382 2.1078322 0.13110156 17
1.4134293 2.10182 0.043543749 15
1.0630308 1.5777899 -0.49952096 4
1.2548488 1.8617918 -0.50951445 3
1.407092 2.0868857 -0.48136041 5
1.4380596 2.1320117 -0.40125474 17
1.4426254 2.1379757 -0.31198588 17
1.4370772 2.1289518 -0.22137593 17
1.4241568 2.1090169 -0.13092612 15
1.4262278 2.1112893 -0.043367881 17
1.4168426 2.096607 0.66731817 14
1.4266728 2.1103594 0.57881105 15
1.4237527 2.1052482 0.48612604 14
1.430005 2.113698 0.39768693 14
1.4233565 2.1030798 0.30711073 16
1.4316708 2.1145694 0.22006825 19
1.4242871 2.1028731 0.13110156 16
1.4235617 2.1010122 0.043631013 15
1.068532 1.5740696 -0.49952096 4
1.2668139 1.8654609 -0.51176393 3
1.4198842 2.0900812 -0.4832668 6
1.4510448 2.135148 -0.4028191 16
1.4528697 2.1370308 -0.31259522 15
1.447301 2.128041 -0.2218117 16
1.4343185 2.108161 -0.13118692 16
1.4364018 2.110431 -0.043454267 15
1.4295888 2.099633 0.66990465 15
1.4367733 2.1093934 0.57993495 16
1.4338566 2.1043217 0.4870792 14
1.4401561 2.1127744 0.39846826 13
1.4362807 2.1062992 0.30832943 16
1.4418503 2.1136739 0.22050403 18
1.4372478 2.1061373 0.13162492 15
1.4337056 2.1001592 0.043718275 15
1.0740199 1.5703303 -0.49952096 3
1.2815711 1.8730901 -0.51513821 3
1.4299438 2.0891628 -0.48422 6
1.4612788 2.1341445 -0.40360126 18
1.4659296 2.1401353 -0.31381392 16
1.4575359 2.127085 -0.22224748 16
1.444492 2.1072602 -0.13144773 15
1.4465871 2.1095269 -0.04354066 16
1.4396416 2.098613 0.67119795 14
1.4496411 2.1123993 0.58218277 16
1.4467492 2.1073968 0.48898563 13
1.450318 2.111805 0.39924955 15
1.4464345 2.1053629 0.30893877 15
1.4520407 2.1127329 0.2209398 19
1.4474198 2.105222 0.1318866 17
1.4438609 2.0992608 0.04380554 15
1.0794948 1.5665716 -0.49952096 3
1.2936317 1.8766274 -0.51738775 3
1.4400139 2.0881991 -0.48517317 5
1.474328 2.1371608 -0.40516558 20
1.4762099 2.1390898 -0.31442326 16
1.4677818 2.1260829 -0.22268325 16
1.4575138 2.1104224 -0.13196936 16
1.4567834 2.1085775 -0.04362705 17
1.4524504 2.1015215 0.67378443 15
1.4597769 2.1113341 0.58330667 17
1.4568887 2.1063707 0.4899388 14
1.4633009 2.1148522 0.40081221 15
1.4594237 2.1084623 0.31015745 17
1.4650779 2.1158416 0.22181135 18
1.460446 2.108366 0.13240996 17
1.4568745 2.1024263 0.043980062 16
1.0849566 1.5627939 -0.49952096 3
1.3057326 1.8801035 -0.51963723 3
1.4472944 2.0831599 -0.48517317 5
1.4845976 2.1360567 -0.40594777 21
1.4893335 2.1420729 -0.31564194 17
1.4780384 2.1250358 -0.22311905 16
1.4677234 2.1094201 -0.13223016 17
1.4669911 2.1075828 -0.043713439 17
1.465297 2.1043658 0.67637092 16
1.4727074 2.1142209 0.58555448 17
1.4670386 2.1052995 0.49089199 15
1.4734983 2.1137826 0.40159351 14
1.4724522 2.1114964 0.31137615 18
1.4753045 2.1148 0.22224714 19
1.4706541 2.1073499 0.13267164 18
1.4670662 2.1014271 0.044067323 15
1.0904052 1.5589972 -0.49952096 4
1.3206663 1.8875093 -0.52301151 3
1.4573717 2.0821164 -0.48612636 5
1.4948773 2.1349068 -0.40672994 21
1.4996492 2.1409261 -0.31625131 18
1.491164 2.128022 -0.2239906 17
1.477944 2.1083729 -0.13249098 15
1.4772092 2.1065423 -0.043799829 16
1.4754075 2.1031921 0.67766416 16
1.4856758 2.1170435 0.58780229 24
1.480019 2.1082001 0.49279836 14
1.4865444 2.1167095 0.40315613 15
1.4826666 2.1104047 0.31198549 17
1.4855416 2.1137123 0.22268291 19
1.480873 2.1062882 0.13293332 17
1.4772686 2.1003823 0.044154584 15
1.0958405 1.5551814 -0.49952096 3
1.3132125 1.8629781 -0.51738775 3
1.4646308 2.0770166 -0.48612636 5
1.5051671 2.1337111 -0.40751213 21
1.5099744 2.1397328 -0.31686065 17
1.5014558 2.1268733 -0.22442639 17
1.4910554 2.1113584 -0.13301259 16
1.487438 2.1054564 -0.043886222 17
1.488315 2.1059175 0.68025064 16
1.4986817 2.119801 0.5900501 19
1.4902031 2.1070282 0.49375153 15
1.4967763 2.1155391 0.40393746 15
1.4957584 2.1133177 0.3132042 17
1.4986675 2.1166444 0.22355449 18
1.4911023 2.1051807 0.133195 17
1.4874817 2.099292 0.044241846 15
1.0981967 1.5476003 -0.49822688 3
1.3190587 1.8588432 -0.51738775 3
1.4711487 2.0724051 -0.48612636 6
1.5147221 2.1329982 -0.40829429 23
1.5195634 2.1390243 -0.31747001 16
1.5110154 2.1262057 -0.22486216 17
1.500574 2.110733 -0.13327339 15
1.49984 2.1089211 -0.044059001 17
1.4977236 2.1051672 0.68154395 17
1.5109839 2.1230209 0.59229791 6
1.5025086 2.1103332 0.49565789 15
1.5091453 2.1188715 0.40550008 17
1.5052699 2.1126502 0.31381357 17
1.5110918 2.120038 0.22442605 20
1.5006074 2.1045513 0.13345668 17
1.4998754 2.1027484 0.044416368 15
1.1033227 1.5439501 -0.49822688 3
1.3198726 1.846301 -0.51513821 3
1.4812288 2.0712495 -0.48707953 5
1.525032 2.1317146 -0.40907648 16
1.5299089 2.1377428 -0.31807932 16
1.5213275 2.1249683 -0.22529794 16
1.5108402 2.1095417 -0.13353421 15
1.5101039 2.1077366 -0.04414539 16
1.5078764 2.1038518 0.68283719 15
1.526902 2.1296122 0.59566957 5
1.5127267 2.1090639 0.49661112 14
1.5222905 2.1216159 0.40706271 17
1.5155292 2.1114147 0.31442288 17
1.5213881 2.1187963 0.22486182 20
1.5137705 2.1074111 0.13398004 17
1.5101236 2.1015599 0.044503633 16
1.1089741 1.5398958 -0.49822688 3
1.3266308 1.841451 -0.51513821 3
1.4888104 2.0658066 -0.48707953 5
1.535723 2.1301165 -0.40985861 16
1.5406368 2.1361461 -0.31868869 15
1.5320201 2.1234176 -0.22573371 17
1.5214843 2.1080391 -0.13379502 15
1.523672 2.1102941 -0.044318173 16
1.5184052 2.1022263 0.68413043 15
1.5404041 2.1318996 0.59791738 3
1.5261973 2.1114612 0.49851748 9
1.53295 2.120024 0.40784398 16
1.5232577 2.1058457 0.31442288 16
1.5320636 2.1172414 0.2252976 20
1.5244124 2.1058936 0.13424173 16
1.5236804 2.1041093 0.044678159 15
1.1115066 1.532106 -0.49693277 3
1.3330506 1.836809 -0.51513821 3
1.498896 2.064569 -0.48803276 5
1.5460511 2.1287386 -0.41064081 15
1.551001 2.1347702 -0.31929803 17
1.5423514 2.1220863 -0.22616951 17
1.5317695 2.1067536 -0.13405582 16
1.5339696 2.1090055 -0.044404563 16
1.5285758 2.1008189 0.68542367 15
1.5564377 2.1383269 0.60128915 4
1.5451152 2.1219926 0.50233024 9
1.5461564 2.1226439 0.4094066 7
1.5335218 2.1045265 0.31503224 17
1.545313 2.1199307 0.22616915 19
1.5346959 2.104594 0.13450339 17
1.5339621 2.1028168 0.04476542 15
1.1168479 1.528217 -0.49693277 4
1.3423293 1.8360773 -0.51626295 3
1.5089912 2.0632863 -0.48898596 5
1.5563883 2.1273143 -0.41142297 17
1.5613743 2.133348 -0.3199074 16
1.5526918 2.1207082 -0.22660528 16
1.5420647 2.1054223 -0.13431664 15
1.5442768 2.1076708 -0.044490952 16
1.5387551 2.0993659 0.68671691 15
1.575416 2.148597 0.60578477 3
1.5641248 2.1324172 0.50614297 5
1.5564779 2.1212156 0.41018793 8
1.5437952 2.1031613 0.31564158 16
1.5556515 2.1185384 0.22660492 18
1.5479449 2.1072724 0.13502677 17
1.5442531 2.1014776 0.044852681 15
1.1193122 1.5204198 -0.4956387 3
1.3313962 1.8078434 -0.50951445 4
1.5190954 2.0619581 -0.48993912 5
1.5696642 2.1298196 -0.41298732 16
1.5747014 2.1358736 -0.32112607 16
1.5630416 2.1192839 -0.22704107 17
1.5523689 2.1040444 -0.13457744 16
1.557562 2.1103122 -0.044663735 17
1.5489426 2.0978673 0.68801016 15
1.5915903 2.1548414 0.60915649 4
1.5890598 2.15063 0.5118621 5
1.5668085 2.119741 0.41096923 11
1.5540777 2.1017501 0.31625095 17
1.5659993 2.1170998 0.22704072 20
1.5582614 2.1058698 0.13528845 17
1.5545536 2.1000926 0.044939946 16
1.1277548 1.5201858 -0.49693277 3
1.3293036 1.7912151 -0.50614017 4
1.5295684 2.0603173 -0.49089235 5
1.5804044 2.1280169 -0.41376951 17
1.5854789 2.1340714 -0.32173541 17
1.5767411 2.1215367 -0.22791262 17
1.5660286 2.1063547 -0.13509907 16
1.5682698 2.1086006 -0.04475012 17
1.5623872 2.0999258 0.69059664 15
1.5936595 2.1411769 0.60690868 27
1.5969316 2.1447914 0.5118621 27
1.5775172 2.1179447 0.41175056 20
1.5647358 2.1000192 0.31686029 17
1.576725 2.1153393 0.22747648 19
1.5689539 2.1041472 0.13555013 17
1.5682186 2.1023953 0.045114469 15
1.1243813 1.5046338 -0.49305049 3
1.3238801 1.7709558 -0.50164115 4
1.5396905 2.0588963 -0.49184549 5
1.5907812 2.1264415 -0.41455165 17
1.595892 2.1324973 -0.32234478 17
1.587122 2.120007 -0.22834839 17
1.5763648 2.1048722 -0.13535988 15
1.5816154 2.1111152 -0.044922903 16
1.5726045 2.0983243 0.69188994 14
1.5952789 2.1278048 0.60466087 27
1.5985186 2.1313508 0.50995576 26
1.5908283 2.120326 0.41331318 17
1.5780147 2.102483 0.31807896 17
1.58709 2.1138058 0.22791228 18
1.5822867 2.1066427 0.13607349 17
1.5785562 2.1009011 0.04520173 15
1.1325312 1.5045583 -0.49434459 3
1.3212618 1.7546481 -0.49826688 4
1.5498211 2.0574298 -0.49279872 5
1.6011661 2.1248198 -0.41533384 16
1.6063132 2.1308763 -0.32295412 18
1.6005106 2.1224079 -0.22921994 15
1.5897166 2.1073291 -0.1358815 16
1.5919865 2.1095722 -0.045009293 15
1.5857395 2.1005316 0.69447643 15
1.5997605 2.1183352 0.60353696 20
1.6029899 2.1218414 0.50900251 20
1.6011975 2.1186998 0.41409445 23
1.5883369 2.1009204 0.31868833 16
1.600468 2.1161988 0.22878383 18
1.5926431 2.1050887 0.13633516 17
1.5919086 2.1033545 0.045376252 13
1.1377761 1.5005959 -0.49434459 3
1.3362112 1.7616704 -0.50164115 4
1.5599605 2.0559175 -0.49375188 5
1.611559 2.1231513 -0.416116 16
1.616743 2.129209 -0.32356349 16
1.6139351 2.1247411 -0.23009151 15
1.6000838 2.1057427 -0.1361423 13
1.6053911 2.1119621 -0.045182075 13
1.5959857 2.0988283 0.69576973 13
1.6071451 2.1127381 0.60353696 18
1.6074144 2.1123271 0.50804937 13
1.6115746 2.1170273 0.41487581 16
1.5986675 2.0993116 0.31929767 17
1.6108636 2.1145613 0.2292196 17
1.6060345 2.1074591 0.13685852 15
1.602272 2.1017606 0.045463517 16
nan nan nan 0
1.3393946 1.7531239 -0.50051636 4
1.5701079 2.0543594 -0.49470508 5
1.62196 2.1214361 -0.41689819 16
1.6271802 2.1274941 -0.32417279 16
1.6273955 2.1270063 -0.23096307 16
1.6104593 2.1041098 -0.13640311 15
1.6157926 2.1103146 -0.045268461 18
1.6062391 2.0970786 0.69706297 14
1.6204365 2.11485 0.60578477 23
1.6177641 2.1105988 0.50900251 17
1.6219598 2.115308 0.41565707 16
1.6090063 2.0976562 0.31990701 17
1.6212672 2.1128771 0.22965539 18
1.6164215 2.1058009 0.1371202 17
1.6156882 2.1040852 0.04563804 16
1.1452796 1.4887882 -0.49305049 3
nan nan nan 0
1.5832576 2.0566449 -0.49661148 5
1.6323686 2.1196742 -0.41768035 16
1.6376253 2.1257329 -0.32478216 18
1.6378508 2.125258 -0.23139885 17
1.6208428 2.1024299 -0.13666391 15
1.6262023 2.1086204 -0.045354854 15
1.6194501 2.0991073 0.69964945 15
1.6307856 2.1130376 0.60690868 19
1.6281211 2.1088243 0.50995576 17
1.6323524 2.1135421 0.4164384 15
1.6223871 2.0998814 0.32112572 16
1.6316786 2.1111457 0.23009115 21
1.6298704 2.1080458 0.13764356 16
1.6260813 2.1023867 0.045725301 13
nan nan nan 0
nan nan nan 0
1.5964425 2.0588634 -0.49851784 5
1.645811 2.1217675 -0.41924468 15
1.6450356 2.1200037 -0.32478216 19
1.6513678 2.1273973 -0.23227042 16
1.6312343 2.100703 -0.13692473 17
1.6366197 2.1068792 -0.045441244 22
1.6297309 2.0972552 0.70094275 16
1.6441318 2.1150253 0.60915649 17
1.6384853 2.1070027 0.5109089 17
1.6427524 2.1117291 0.4172197 13
1.6327548 2.0981219 0.32173505 17
1.6420977 2.1093678 0.23052694 18
1.6402868 2.1062832 0.13790524 23
1.6364825 2.1006417 0.045812566 15
nan nan nan 0
nan nan nan 0
1.6066403 2.0571463 -0.49947101 5
1.656248 2.1199012 -0.42002687 13
1.6585377 2.1220686 -0.32600087 18
1.6618516 2.1255441 -0.23270617 16
1.6447096 2.1028624 -0.13744634 18
1.6470445 2.1050906 -0.045527633 19
1.6429956 2.0991604 0.70352924 16
1.654508 2.1131094 0.61028039 19
1.6488568 2.1051347 0.5118621 16
1.6531596 2.1098695 0.41800103 18
1.6461916 2.1002214 0.32295373 21
1.6525242 2.1075428 0.23096271 15
1.6507109 2.1044736 0.13816692 26
1.6468914 2.0988495 0.045899823 17
nan nan nan 0
nan nan nan 0
1.6198807 2.0592413 -0.5013774 6
1.6697457 2.1218688 -0.42159122 16
1.6720747 2.1240654 -0.32721955 16
1.6723427 2.1236434 -0.23314197 16
1.6582197 2.1049531 -0.13796796 20
1.657477 2.103255 -0.045614023 15
1.653303 2.0972054 0.70482248 16
1.667908 2.1149724 0.6125282 18
1.6592351 2.10322 0.5128153 16
1.6635739 2.1079626 0.41878232 17
1.659663 2.1022527 0.32417244 16
1.666045 2.1095793 0.23183426 26
1.6642374 2.1065345 0.13869028 15
1.6542075 2.0930879 0.045899823 19
nan nan nan 0
nan nan nan 0
1.6331552 2.0612686 -0.50328374 5
1.6802098 2.1198978 -0.42237341 16
1.6856453 2.1259933 -0.32843825 16
1.685936 2.1255977 -0.23401353 19
1.6717644 2.1069748 -0.13848959 17
1.6679168 2.1013722 -0.045700416 15
1.6636171 2.0952044 0.70611572 16
1.6783108 2.1129522 0.61365211 16
1.6696202 2.101258 0.51376849 16
1.6770679 2.1098752 0.42034498 15
1.6700798 2.1003311 0.32478178 16
1.6796 2.111547 0.23270582 11
1.6746894 2.1046195 0.13895196 10
1.6615038 2.087301 0.045899823 18
nan nan nan 0
nan nan nan 0
1.6434021 2.0593917 -0.504237 4
1.6937612 2.1217387 -0.42393777 15
1.6961529 2.1239743 -0.32904762 17
1.6964544 2.1235917 -0.23444931 16
1.6853433 2.108928 -0.1390112 11
1.6783632 2.0994422 -0.045786802 18
1.673937 2.0931563 0.70740896 16
1.6887196 2.1108856 0.61477602 15
1.6830783 2.1030815 0.51567489 17
1.6875088 2.1078634 0.42112628 13
1.6836057 2.1022356 0.32600048 15
1.6931893 2.1134462 0.23357739 18
1.6851485 2.1026573 0.13921364 19
1.6719068 2.0853891 0.045987088 14
nan nan nan 0
nan nan nan 0
1.6567304 2.0612941 -0.50614333 5
1.7042516 2.119662 -0.4247199 14
1.7097774 2.1257749 -0.3302663 17
1.7069792 2.1215374 -0.23488508 14
1.6989561 2.1108115 -0.13953282 12
1.6919521 2.1013587 -0.045959584 17
1.684263 2.0910618 0.70870227 15
1.6960777 2.1049781 0.61477602 17
1.6934896 2.1010153 0.51662809 16
1.6979564 2.1058047 0.4219076 16
1.6940492 2.1002088 0.32660982 13
1.7099397 2.1191521 0.23488472 13
1.69875 2.104533 0.139737 13
1.6854573 2.0873194 0.046161614 17
nan nan nan 0
nan nan nan 0
1.6693717 2.0637114 -0.50804973 5
1.7171154 2.1219757 -0.42628425 16
1.7226923 2.1281075 -0.331485 16
1.7167705 2.1200354 -0.23532088 17
1.7087219 2.1093435 -0.13979362 10
1.7016929 2.0999172 -0.046045974 14
1.6938654 2.0895121 0.70999545 14
1.7057509 2.1034234 0.61589992 17
1.7062663 2.1033082 0.51853442 15
1.7107875 2.1081295 0.42347023 14
1.7006389 2.0948763 0.32660982 17
1.7228689 2.1215029 0.23575628 27
1.71165 2.1069367 0.14026035 21
1.6983124 2.0897732 0.046336137 14
nan nan nan 0
nan nan nan 0
1.6827657 2.0654821 -0.50995612 5
1.727632 2.119797 -0.42706645 17
1.736382 2.1297741 -0.33270368 14
1.7273084 2.1178896 -0.23575665 18
1.7192312 2.107235 -0.14005443 14
1.7153345 2.1017101 -0.046218757 17
1.707258 2.091069 0.71258199 15
1.7192469 2.1050031 0.61814773 16
1.7198086 2.1049411 0.52044082 15
1.7212611 2.1059687 0.4242515 16
1.7110825 2.0927694 0.32721916 16
1.736571 2.1231871 0.23662783 16
1.7221562 2.1048136 0.14052203 24
1.7119296 2.0915697 0.046510659 15
nan nan nan 0
1.396374 1.7017899 -0.49939165 3
1.6903247 2.0593007 -0.50995612 4
1.7385235 2.1172671 -0.42784861 14
1.7536262 2.1349001 -0.33453172 12
1.7382214 2.1153932 -0.23619244 17
1.726943 2.1009197 -0.14005443 14
1.7293767 2.103132 -0.046391536 13
1.7210472 2.0922577 0.71516848 15
1.7300462 2.1024497 0.61927158 16
1.7306316 2.1024132 0.52139401 16
1.7321076 2.1034582 0.42503282 15
1.725052 2.0941448 0.32843786 17
1.7506764 2.1244962 0.2374994 17
1.7362111 2.1061931 0.14104539 18
1.725945 2.0929949 0.046685185 14
nan nan nan 0
1.3805814 1.670617 -0.49151835 3
1.6912481 2.0458219 -0.50804973 5
1.7521981 2.1187971 -0.42941296 15
1.7673943 2.1364133 -0.3357504 15
1.7487706 2.1131501 -0.2366282 17
1.734266 2.0948787 -0.14005443 13
1.7430848 2.1047831 -0.046564315 15
1.7314214 2.0899568 0.71646172 15
1.7435921 2.1039004 0.62151939 16
1.7442249 2.1039164 0.52330035 16
1.7425922 2.1012006 0.42581412 15
1.7355202 2.0919302 0.32904723 17
1.7612627 2.1222053 0.23793519 17
1.7499315 2.1078031 0.14156875 16
1.7396287 2.0946493 0.046859708 15
nan nan nan 0
nan nan nan 0
1.6952384 2.0361335 -0.50709653 4
1.7627439 2.1164625 -0.43019515 14
1.7811946 2.1378567 -0.33696911 16
1.7625144 2.1146853 -0.23749976 16
1.7447655 2.0926473 -0.14031525 13
1.7568254 2.1063643 -0.046737097 18
1.7448945 2.0913174 0.71904826 13
1.7571692 2.1052821 0.6237672 16
1.7578499 2.1053505 0.52520674 14
1.7562478 2.1026857 0.42737675 18
1.7491758 2.0934758 0.33026591 13
1.7750485 2.1236877 0.23880674 15
1.7636842 2.1093433 0.14209211 17
1.7533447 2.0962336 0.047034234 14
nan nan nan 0
nan nan nan 0
1.6991819 2.0264428 -0.50614333 5
1.7732948 2.11408 -0.43097728 15
1.7950262 2.1392293 -0.33818778 14
1.7730876 2.1123352 -0.23793554 17
1.7520596 2.0865443 -0.14031525 12
1.7705981 2.1078746 -0.046909876 12
1.7552911 2.0889115 0.72034144 13
1.7707772 2.1065946 0.62601501 16
1.7683474 2.1029584 0.52615994 14
1.769935 2.1041009 0.42893937 16
1.7628633 2.0949519 0.33148462 16
1.7856584 2.1212893 0.23924251 17
1.7774688 2.1108127 0.14261547 16
1.7670926 2.0977473 0.047208756 11
nan nan nan 0
nan nan nan 0
1.7062452 2.0204992 -0.50614333 5
1.7838503 2.1116498 -0.43175948 14
1.8024825 2.1329505 -0.33818778 15
1.7868817 2.1137409 -0.23880711 16
1.7690048 2.0918534 -0.14109766 16
1.7844028 2.1093147 -0.047082655 12
1.7688121 2.0901453 0.72292799 13
1.7812679 2.1041191 0.62713897 14
1.7820213 2.104264 0.52806634 11
1.7836534 2.1054463 0.430502 12
1.7765824 2.0963576 0.33270329 13
1.7962734 2.1188428 0.23967829 19
1.7912852 2.1122115 0.14313883 16
1.7776386 2.0953786 0.047296021 14
nan nan nan 0
nan nan nan 0
1.7101077 2.0107918 -0.50519013 6
1.7944105 2.1091714 -0.43254164 14
1.809917 2.1266458 -0.33818778 14
1.797478 2.1112833 -0.23924288 15
1.7795336 2.0894673 -0.14135848 14
1.798239 2.1106842 -0.047255438 12
1.7792304 2.0876346 0.72422123 13
1.7949235 2.1053035 0.62938678 14
1.7925408 2.1017654 0.52901947 14
1.7974026 2.1067214 0.43206459 16
1.7871109 2.0939181 0.33331263 15
1.8068926 2.1163478 0.24011406 16
1.8051327 2.1135392 0.14366218 14
1.7914369 2.0967624 0.047470544 10
nan nan nan 0
nan nan nan 0
1.7174661 2.0045104 -0.50519013 4
1.8053428 2.1063302 -0.43332383 11
1.8209296 2.1237655 -0.33879715 16
1.8116896 2.1122425 -0.24011444 19
1.796934 2.0942993 -0.14214091 11
1.8092192 2.1078727 -0.047341831 19
1.7931625 2.0884278 0.72680777 13
1.808977 2.1061027 0.63163459 14
1.8034308 2.0989041 0.52997267 15
1.8115505 2.10761 0.43362722 12
1.8012445 2.0948799 0.33453134 15
1.8211334 2.1172633 0.24098562 22
1.8161238 2.1106939 0.14392388 21
1.8056324 2.0977602 0.04764507 16
1.2266003 1.4225357 -0.49305049 3
nan nan nan 0
1.7244526 1.9985031 -0.50519013 4
1.8159111 2.1037538 -0.43410599 10
1.8283321 2.1173961 -0.33879715 16
1.8255638 2.1134446 -0.24098599 18
1.8107629 2.0955703 -0.14266253 17
1.8198352 2.1053264 -0.047428217 18
1.8036007 2.0858092 0.72810096 16
1.8195049 2.1034598 0.63275844 18
1.8171698 2.1000195 0.53187907 17
1.8221285 2.1050076 0.43440855 14
1.8117948 2.0923314 0.33514068 16
1.8317742 2.1146584 0.24142142 20
1.8300203 2.1118889 0.14444724 21
1.8162234 2.0952177 0.047732327 17
nan nan nan 0
nan nan nan 0
1.7314181 1.9924716 -0.50519013 4
1.8297234 2.1048563 -0.43567032 10
1.8422248 2.1184909 -0.34001586 15
1.8394681 2.1145754 -0.24185754 17
1.8213449 2.0930035 -0.14292334 16
1.8304555 2.1027319 -0.04751461 18
1.8172143 2.0867858 0.73068756 16
1.8300364 2.1007695 0.6338824 17
1.8277137 2.0973639 0.53283226 16
1.8359557 2.1060796 0.43597117 14
1.8190873 2.0859942 0.33514068 15
1.8456933 2.1157587 0.24229297 21
1.8439469 2.1130121 0.1449706 20
1.8268088 2.0926359 0.047819592 14
1.2365016 1.4139377 -0.49305049 3
1.4430132 1.6495025 -0.49714214 3
1.7415951 1.9901093 -0.50614333 4
1.8403125 2.1021724 -0.43645251 10
1.8528781 2.1157808 -0.3406252 15
1.8501204 2.1118882 -0.24229334 17
1.8352215 2.0941436 -0.14344496 16
1.8410797 2.1000888 -0.047600996 16
1.8308566 2.0876923 0.73327404 15
1.8405714 2.0980313 0.63500631 16
1.8382615 2.0946605 0.53378546 16
1.8465543 2.1033692 0.43675247 15
1.8296323 2.0833604 0.33575001 15
1.8563548 2.113045 0.24272874 19
1.8546077 2.1103132 0.14523228 18
1.8374032 2.0900009 0.047906853 14
1.2573895 1.427735 -0.49952096 3
1.4487623 1.6444554 -0.49714214 3
1.7582672 1.9950649 -0.50900286 4
1.8541708 2.1031446 -0.43801686 11
1.8668174 2.1167443 -0.34184387 15
1.8640717 2.1128874 -0.2431649 16
1.845824 2.0914683 -0.14370576 14
1.8517079 2.0973973 -0.047687389 15
1.8413299 2.0849087 0.73456728 13
1.8511094 2.0952446 0.63613021 16
1.8520628 2.0955865 0.5356918 15
1.8571562 2.1006107 0.4375338 14
1.843469 2.0843961 0.33696872 15
1.8703203 2.1140132 0.24360029 18
1.865272 2.1075656 0.14549395 18
1.8480014 2.0873172 0.047994114 14
1.2559563 1.4161108 -0.49693277 3
1.4544936 1.6393883 -0.49714214 3
1.7717367 1.9962572 -0.51090926 4
1.8647797 2.1003523 -0.43879902 12
1.8807858 2.117636 -0.34306258 15
1.8747439 2.1100912 -0.24360067 16
1.8597475 2.0924768 -0.14422737 14
1.8623396 2.0946569 -0.047773778 14
1.855016 2.0856864 0.73715377 14
1.8616503 2.0924103 0.63725412 16
1.8626295 2.0927753 0.536645 16
1.8677615 2.0978036 0.43831509 15
1.8540343 2.0816545 0.33757806 15
1.8810019 2.1111908 0.24403608 18
1.8759396 2.1047692 0.14575563 18
1.8619301 2.0883169 0.048168641 14
1.2576747 1.408116 -0.4956387 3
1.4699451 1.6451999 -0.50051636 3
1.785236 1.9973798 -0.51281571 4
1.8786831 2.1011932 -0.44036335 13
1.8914747 2.1147571 -0.34367192 15
1.8887405 2.1109583 -0.24447222 16
1.8703705 2.0896928 -0.14448819 13
1.8729749 2.0918679 -0.047860172 14
1.8655077 2.0827966 0.73844707 14
1.8754454 2.0931563 0.63950193 16
1.8764757 2.0935709 0.53855139 15
1.8816664 2.0986252 0.43987769 14
1.8679168 2.0825589 0.33879676 14
1.8916863 2.1083193 0.24447185 18
1.8899457 2.1056399 0.14627899 17
1.8725482 2.0855246 0.048255898 13
1.2625822 1.4037173 -0.4956387 3
1.4724205 1.6364374 -0.49939165 3
1.8020483 2.0020804 -0.51567525 5
1.8926152 2.1019628 -0.44192773 13
1.9054879 2.1155167 -0.34489062 14
1.8994319 2.108053 -0.24490802 16
1.8843396 2.0905693 -0.1450098 13
1.886961 2.0927429 -0.048032951 14
1.8792363 2.0834448 0.74103355 14
1.886004 2.0902143 0.64062583 15
1.8870606 2.0906515 0.53950459 15
1.8922904 2.0957098 0.44065902 14
1.8818278 2.0833914 0.34001544 15
1.9057128 2.1090946 0.2453434 18
1.9006324 2.1027343 0.14654067 17
1.8865223 2.0863914 0.048430424 13
1.2674744 1.3993015 -0.4956387 3
1.4748523 1.6276772 -0.49826688 3
1.8189151 2.0066881 -0.51853484 5
1.9032582 2.0990019 -0.44270989 13
1.916195 2.1125281 -0.34549999 15
1.9134731 2.1087875 -0.24577957 15
1.8949815 2.0876763 -0.14527062 14
1.8976151 2.0898445 -0.04811934 14
1.889745 2.0804474 0.7423268 14
1.8998417 2.0908298 0.64287359 15
1.9009498 2.0913157 0.54141092 15
1.9062392 2.0963995 0.44222164 14
1.892428 2.0804813 0.34062478 14
1.9164157 2.1061137 0.24577919 18
1.9146827 2.1034718 0.14706403 17
1.9005255 2.0871866 0.048604947 13
1.2690964 1.3913006 -0.49434459 3
1.4772413 1.6189206 -0.49714214 3
1.8424538 2.0184522 -0.52330071 4
1.9172333 2.0996389 -0.44427425 14
1.9302515 2.1131549 -0.34671867 15
1.9241824 2.1057725 -0.24621536 16
1.908995 2.0884197 -0.14579223 15
1.9116455 2.0905864 -0.048292119 15
1.9035153 2.0809658 0.74491328 13
1.9137065 2.0913739 0.6451214 15
1.9115524 2.0882883 0.54236418 15
1.9202155 2.097017 0.44378427 14
1.9063829 2.0811815 0.34184349 15
1.9304858 2.1067562 0.24665076 17
1.9253876 2.1004562 0.14732571 17
1.9111782 2.0842245 0.048692212 14
1.2739452 1.386862 -0.49434459 3
1.4795868 1.6101667 -0.49601737 3
1.8461665 2.008395 -0.52234757 4
1.9312363 2.1002042 -0.44583857 14
1.9443357 2.1137092 -0.34793738 14
1.9382668 2.1063735 -0.24708691 14
1.9196551 2.085417 -0.14605305 14
1.922318 2.0875785 -0.048378512 14
1.9140401 2.0778611 0.74620652 14
1.927598 2.0918467 0.64736921 15
1.9254837 2.0888207 0.54427052 15
1.9308717 2.0939324 0.44456559 14
1.9203659 2.08181 0.34306216 15
1.9412061 2.1036654 0.24708654 18
1.9394816 2.1010606 0.14784908 17
1.9252251 2.0848863 0.048866734 13
1.2754989 1.3788613 -0.49305049 3
1.4818896 1.6014166 -0.49489263 3
1.8531659 2.0019383 -0.52234757 4
1.9452662 2.100697 -0.44740292 14
1.9550744 2.1105499 -0.34854671 15
1.9523787 2.1069021 -0.24795848 13
1.9337118 2.0860274 -0.14657466 12
1.9363917 2.0881872 -0.048551291 14
1.9278507 2.0782492 0.74879307 13
1.9415164 2.0922482 0.64961702 16
1.939442 2.0892813 0.54617691 15
1.9448904 2.0944173 0.44612822 13
1.9309986 2.0787301 0.34367153 15
1.9553187 2.1041739 0.24795809 17
1.9502032 2.0979347 0.14811075 17
1.9358952 2.0818143 0.048953995 11
1.2770123 1.3708668 -0.49175641 3
1.4841491 1.5926697 -0.49376786 3
1.8601427 1.9954574 -0.52234757 4
1.9593232 2.1011174 -0.44896728 14
1.9692003 2.1109703 -0.34976539 14
1.9631195 2.1037157 -0.24839425 14
1.947796 2.0865648 -0.14709628 11
1.9504932 2.0887229 -0.04872407 12
1.9449847 2.0820954 0.75267279 11
1.9587872 2.0961375 0.65298879 12
1.9534268 2.0896699 0.54808331 12
1.9589354 2.0948298 0.44769084 11
1.9450237 2.0792253 0.34489024 14
1.9694585 2.1046097 0.24882965 15
1.9643393 2.0984051 0.14863411 15
1.9499847 2.0823419 0.049128518 14
1.2817898 1.3664008 -0.49175641 3
1.4896995 1.5874794 -0.49376786 3
1.8603781 1.9817952 -0.52044117 4
1.9734068 2.1014655 -0.4505316 15
1.9833525 2.1113179 -0.3509841 15
1.9772729 2.1041098 -0.2492658 14
1.9619076 2.087029 -0.14761789 14
1.9646218 2.0891855 -0.048896853 16
1.9588592 2.082329 0.75525928 13
1.9727697 2.0963833 0.6552366 16
1.9640734 2.0864122 0.54903644 17
1.9730073 2.0951698 0.44925344 10
1.9590753 2.0796478 0.34610891 14
1.9836249 2.1049721 0.2497012 17
1.9750772 2.0951688 0.1488958 17
1.9606714 2.07916 0.049215782 14
1.2865516 1.3619182 -0.49175641 3
1.4952317 1.5822697 -0.49376786 3
1.8639126 1.971722 -0.51948798 4
1.9841233 2.0981522 -0.45131379 15
1.9941207 2.1079872 -0.35159346 15
1.9914527 2.1044309 -0.25013736 14
1.9760461 2.0874202 -0.14813951 14
1.9787773 2.0895748 -0.049069632 15
1.9727591 2.0824914 0.75784576 14
1.986778 2.0965571 0.65748441 16
1.978098 2.086668 0.55094284 16
1.9871053 2.095437 0.45081607 10
1.9731537 2.0799975 0.34732762 15
1.9978181 2.1052616 0.25057277 16
1.9892541 2.0955043 0.14941916 18
1.974802 2.0795534 0.049390309 16
1.2912977 1.357419 -0.49175641 3
1.4973875 1.5735116 -0.49264312 3
1.8673998 1.9616489 -0.51853484 4
1.9982467 2.098366 -0.45287815 14
2.0083129 2.1082001 -0.35281214 15
2.0056589 2.1046782 -0.25100893 14
1.9902111 2.0877383 -0.14866114 16
1.9895095 2.086273 -0.049156025 17
1.9866841 2.0825822 0.7604323 14
1.9974476 2.0931339 0.65860826 17
1.9921482 2.0868511 0.55284917 16
2.001229 2.0956314 0.45237869 11
1.9872584 2.0802743 0.3485463 15
2.012037 2.1054771 0.25144431 16
2.0034573 2.0957663 0.14994252 21
1.9889593 2.0798736 0.049564831 13
1.2960281 1.3529032 -0.49175641 3
1.4994999 1.5647575 -0.49151835 3
1.8742359 1.9551185 -0.51853484 4
2.0089772 2.0949426 -0.45366031 14
2.0225308 2.1083395 -0.35403085 15
2.0198908 2.104852 -0.25188047 14
2.0009446 2.0843804 -0.14892195 15
2.0037053 2.0865271 -0.049328804 15
1.9972875 2.0791175 0.76172554 14
2.0114937 2.0931745 0.66085607 15
2.0028222 2.0834229 0.55380243 15
2.0153782 2.095752 0.45394132 12
2.0013888 2.0804777 0.349765 14
2.0262818 2.105619 0.25231588 16
2.0176864 2.0959544 0.15046588 19
1.9996752 2.0765193 0.049652096 14
1.3040957 1.3518468 -0.49305049 3
1.5049529 1.5595137 -0.49151835 3
1.87764 1.9450328 -0.51758158 4
2.0231388 2.095022 -0.45522466 13
2.0367739 2.1084051 -0.35524952 15
2.0306873 2.1013706 -0.25231627 14
2.0151491 2.084563 -0.14944357 14
2.0179272 2.0867076 -0.049501583 15
2.0078909 2.0756047 0.76301885 13
2.022176 2.0896416 0.66198003 15
2.0169103 2.0834723 0.55570877 15
2.0295529 2.0957999 0.45550394 12
2.0120919 2.0770435 0.35037434 14
2.0405524 2.1056869 0.25318745 16
2.0319409 2.0960691 0.15098923 17
2.0138719 2.076704 0.049826618 14
1.3088068 1.3472865 -0.49305049 3
1.5103874 1.554251 -0.49151835 3
1.884418 1.9384668 -0.51758158 4
2.0338821 2.0914876 -0.45600685 12
2.0510423 2.1083972 -0.35646823 14
2.0449579 2.1014085 -0.25318784 14
2.0258961 2.081094 -0.14970437 14
2.0286863 2.0832324 -0.049587972 14
2.0218644 2.0755024 0.76560533 13
2.0362585 2.0895486 0.66422778 15
2.0275967 2.0799339 0.55666196 15
2.0437522 2.0957739 0.45706654 13
2.0262609 2.0771122 0.35159305 14
2.0548477 2.1056809 0.25405899 17
2.0462213 2.0961094 0.15151259 16
2.0280943 2.0768151 0.050001144 13
1.3135017 1.3427097 -0.49305049 3
1.5158036 1.5489693 -0.49151835 3
1.8877395 1.9283698 -0.51662844 4
2.0480812 2.0914321 -0.45757118 11
2.065335 2.1083152 -0.35768694 14
2.059253 2.1013727 -0.25405937 13
2.040139 2.0811408 -0.15022598 14
2.0429463 2.0832772 -0.049760751 14
2.0324793 2.0718799 0.76689857 14
2.0469525 2.0859053 0.66535175 15
2.0417216 2.0798488 0.5585683 15
2.0579758 2.0956745 0.45862916 13
2.0369766 2.0735667 0.35220239 14
2.0691679 2.1056008 0.25493056 16
2.0570259 2.0925145 0.15177426 17
2.0423419 2.0768521 0.050175667 12
1.3181806 1.3381166 -0.49305049 3
1.5212011 1.5436687 -0.49151835 3
1.884122 1.9112823 -0.51376885 4
2.0623043 2.0913029 -0.45913553 9
2.0796523 2.1081588 -0.35890561 15
2.0735729 2.1012623 -0.25493094 13
2.0544066 2.0811136 -0.1507476 13
2.0537188 2.0796905 -0.049847145 14
2.0464876 2.0716448 0.76948506 14
2.0610702 2.0856786 0.66759956 15
2.0558705 2.0796905 0.56047469 14
2.0722234 2.0955012 0.46019179 14
2.0511825 2.0734999 0.35342106 15
2.0835121 2.1054463 0.25580209 17
2.0713432 2.0924184 0.15229762 16
2.0566142 2.0768147 0.050350189 12
1.3228434 1.3335071 -0.49305049 3
1.5300122 1.5418077 -0.49264312 3
1.8700346 1.8837935 -0.50804973 4
2.0800309 2.0946038 -0.46148208 9
2.0939937 2.1079283 -0.36012432 14
2.0879171 2.1010778 -0.25580251 13
2.0651791 2.077471 -0.15100841 12
2.0680161 2.0795989 -0.050019924 14
2.060519 2.0713367 0.7720716 13
2.0717747 2.0819247 0.6687234 15
2.0700433 2.0794587 0.56238109 15
2.0830104 2.0917547 0.46097311 13
2.0619104 2.0698435 0.35403043 14
2.0978806 2.105217 0.25667366 16
2.0856845 2.0922477 0.15282097 17
2.0709114 2.0767031 0.050524715 13
1.3274902 1.3288814 -0.49305049 3
1.5353848 1.5364574 -0.49264312 3
1.8800688 1.8807256 -0.50900286 4
2.0978057 2.0978062 -0.46382856 7
2.1048486 2.1041145 -0.36073366 14
2.1022851 2.1008186 -0.25667405 13
2.0794833 2.0773072 -0.15153003 13
2.0823374 2.0794325 -0.050192706 13
2.0745733 2.070956 0.77465808 13
2.0859265 2.081563 0.67097121 15
2.0842392 2.0791531 0.56428748 14
2.0972931 2.0914452 0.46253574 14
2.0761523 2.0696406 0.35524914 14
2.1087449 2.1013973 0.25710946 16
2.1000502 2.0920026 0.15334433 17
2.0852325 2.0765166 0.050699238 12
1.3321208 1.3242395 -0.49305049 3
1.5338273 1.5242205 -0.49039361 3
1.9005511 1.8879881 -0.51281571 4
2.1156282 2.1009104 -0.46617511 13
2.1192248 2.1037471 -0.36195236 13
2.1166766 2.1004844 -0.25754562 13
2.0938113 2.0770688 -0.15205164 13
2.0966828 2.0791914 -0.050365485 14
2.0886497 2.0705025 0.77724457 13
2.1001012 2.0811279 0.67321903 14
2.0984581 2.0787737 0.56619388 15
2.1115992 2.0910614 0.46409836 13
2.0904179 2.0693636 0.35646781 13
2.1231482 2.1010306 0.257981 16
2.1144392 2.0916822 0.15386769 17
2.0995774 2.0762556 0.050873764 13
1.3365047 1.3198148 -0.49305049 3
1.5351415 1.5159709 -0.48926884 3
1.9134591 1.8889046 -0.51472205 4
2.1327631 2.1046596 -0.4685216 10
2.1328893 2.1040494 -0.36317107 14
2.1268117 2.0973217 -0.25798139 13
2.1074381 2.0774915 -0.15257327 12
2.1103263 2.0796123 -0.050538264 13
2.1020257 2.0707095 0.77983105 12
2.1135719 2.0813568 0.67546684 14
2.111974 2.0790577 0.56810021 15
2.1251981 2.0913453 0.46566096 13
2.1039844 2.069747 0.35768652 14
2.1368411 2.101335 0.25885257 15
2.1281219 2.0920303 0.15439107 16
2.1132214 2.0766575 0.051048286 10
