# .PCD v0.7 - Point Cloud Data file format
VERSION 0.7
FIELDS x y z intensity
SIZE 4 4 4 4
TYPE F F F F
COUNT 1 1 1 1
WIDTH 1324
HEIGHT 1
VIEWPOINT 0 0 0 1 0 0 0
POINTS 1324
DATA ascii
-2.4160838 -0.77944267 0.21876092 13
-2.3982749 -0.77323538 0.13005485 10
-2.4012911 -0.77374518 0.043369226 25
-1.8251065 -0.5863291 -0.50340325 6
-2.1330805 -0.68485737 -0.50838971 7
-2.4293044 -0.77949679 -0.48803276 10
-2.4065142 -0.77172089 -0.39421517 11
-2.4277585 -0.77806622 -0.30832979 10
-2.4271979 -0.77741939 -0.21963282 12
-2.3999107 -0.76821762 -0.12962207 10
-2.4124365 -0.77176303 -0.043108709 11
-2.4056635 -0.76913345 0.66602492 10
-2.4218547 -0.77384412 0.57768714 13
-2.4116879 -0.77013171 0.48421967 10
-2.4358838 -0.77738988 0.39846826 12
-2.4004741 -0.76562756 0.30467334 11
-2.4425182 -0.77856779 0.2209398 13
-2.4247472 -0.7724371 0.13136324 11
-2.4277956 -0.77294147 0.04380554 28
-1.8272432 -0.57963586 -0.50340325 6
-2.1402204 -0.67850691 -0.50951445 7
-2.4555404 -0.77800018 -0.49279872 11
-2.4328668 -0.77034914 -0.39812601 11
-2.4542511 -0.77664912 -0.31137651 11
-2.4537764 -0.7760278 -0.2218117 14
-2.4265156 -0.76694041 -0.13092612 11
-2.4390843 -0.77044487 -0.04354066 12
-2.4314952 -0.76758087 0.67249113 12
-2.4479063 -0.77229178 0.58330667 15
-2.4378998 -0.76866704 0.48898563 12
-2.4622679 -0.77587783 0.40237483 14
-2.4316657 -0.76576829 0.30832943 11
-2.4691114 -0.77708691 0.22311871 15
-2.4561405 -0.7725336 0.13293332 14
-2.4592273 -0.77303278 0.044329111 35
-1.8292555 -0.57325405 -0.50340325 6
-2.1425755 -0.67103195 -0.50951445 6
-2.481662 -0.77675474 -0.49756464 13
-2.4638207 -0.77069819 -0.4028191 12
-2.4806306 -0.77548128 -0.31442326 15
-2.4849966 -0.77636999 -0.22442639 22
-2.4577754 -0.76739466 -0.13249098 14
-2.4656205 -0.76937193 -0.043972608 17
-2.4618249 -0.76771605 0.68025064 13
-2.4738438 -0.77099037 0.5889262 17
-2.4639993 -0.76745051 0.49375153 15
-2.4932537 -0.7760849 0.40706271 31
-2.4580171 -0.76464617 0.31137615 14
-2.4955912 -0.77585703 0.2252976 25
-2.4778955 -0.76988137 0.13398004 19
-2.4905589 -0.77333224 0.044852681 66
-1.8358589 -0.56829345 -0.50469732 6
-2.1449049 -0.66354895 -0.50951445 5
-2.5078049 -0.77533633 -0.5023306 14
-2.4948058 -0.77084035 -0.40751213 13
-2.5070317 -0.77413851 -0.31747001 30
-2.5019698 -0.77209735 -0.22573371 39
-2.4795249 -0.7646969 -0.13353421 28
-2.4969561 -0.76959556 -0.044490952 36
-2.4968009 -0.76907051 0.68930346 28
-2.4858329 -0.76521713 0.59117401 33
-2.4948113 -0.76750433 0.49947065 32
-2.4959476 -0.76737714 0.40706271 31
-2.4891348 -0.76480699 0.31503224 34
-2.5030456 -0.76860309 0.22573337 39
-2.5044351 -0.76855153 0.13528845 37
-2.4884617 -0.76317453 0.04476542 33
-1.8378315 -0.56188166 -0.50469732 6
-2.147208 -0.65605778 -0.50951445 5
-2.5198848 -0.76944458 -0.504237 12
-2.5069282 -0.76500994 -0.40907648 26
-2.5144656 -0.76683027 -0.31807932 35
-2.4951205 -0.76045483 -0.22486216 26
-2.4821789 -0.756037 -0.13353421 38
-2.490062 -0.75796324 -0.044318173 31
-2.4902284 -0.75753903 0.68671691 28
-2.4931502 -0.75795245 0.59229791 31
-2.4880824 -0.75593746 0.49756429 22
-2.4938853 -0.75722504 0.40628135 17
-2.501287 -0.75899571 0.31625095 28
-2.5057132 -0.75986117 0.22573337 25
-2.4927669 -0.75546014 0.13450339 26
-2.486326 -0.75303435 0.044678159 22
-1.8397816 -0.55546296 -0.50469732 6
-2.1494851 -0.64855862 -0.50951445 5
-2.5225554 -0.76064378 -0.504237 11
-2.5143116 -0.75767928 -0.40985861 16
-2.5218787 -0.75947958 -0.31868869 18
-2.4929903 -0.75030512 -0.22442639 17
-2.4943659 -0.75024438 -0.13405582 24
-2.4926927 -0.74926668 -0.044318173 18
-2.4928577 -0.74884188 0.68671691 15
-2.5004473 -0.750646 0.59342182 17
-2.4954073 -0.74865824 0.49851748 12
-2.4917831 -0.7470969 0.40550008 10
-2.4944131 -0.74741107 0.31503224 18
-2.5131223 -0.75253898 0.22616915 16
-2.4953887 -0.74675411 0.13450339 17
-2.4889393 -0.74435091 0.044678159 14
-1.8417094 -0.54903752 -0.50469732 6
-2.1517358 -0.64105159 -0.50951445 5
-2.5251951 -0.75183386 -0.504237 8
-2.5264077 -0.75171483 -0.41142297 13
-2.5292714 -0.75208646 -0.31929803 15
-2.5003686 -0.7430172 -0.22486216 12
-2.4921832 -0.74011141 -0.13379502 15
-2.5096707 -0.7448281 -0.044577342 12
-2.500087 -0.74150902 0.68801016 9
-2.5030522 -0.74191326 0.59342182 10
-2.4980054 -0.73994315 0.49851748 8
-2.5369945 -0.75101054 0.41253185 13
-2.4970071 -0.73869938 0.31503224 9
-2.515734 -0.74376196 0.22616915 12
-2.4884031 -0.73520952 0.13398004 12
-2.4867277 -0.73424256 0.044590894 7
-1.8436146 -0.5426054 -0.50469732 5
-2.1492867 -0.63216203 -0.50838971 5
-2.5278041 -0.74301469 -0.504237 7
-2.5337546 -0.74428338 -0.41220516 10
-2.5366433 -0.74465096 -0.3199074 9
-2.5364041 -0.74409992 -0.22791262 11
-2.5235007 -0.73983622 -0.13535988 8
-2.4978628 -0.73184633 -0.044318173 6
-2.5119305 -0.73549187 0.69059664 5
-2.5430343 -0.74411732 0.602413 11
-2.5382612 -0.74223965 0.50614297 11
-2.5490813 -0.74492079 0.41409445 9
-2.4852791 -0.72580504 0.3132042 6
-2.5565667 -0.74613971 0.22965539 13
-2.5532691 -0.74469376 0.13738188 12
-2.5516691 -0.74374396 0.045725301 14
-1.8454974 -0.53616667 -0.50469732 5
-2.1468015 -0.62329733 -0.50726491 5
-2.5303824 -0.73418647 -0.504237 6
-2.5458236 -0.73818493 -0.41376951 7
-2.5821266 -0.74822295 -0.3253915 11
-2.5676925 -0.74355459 -0.2305273 9
-2.554846 -0.73935115 -0.13692473 9
-2.5724387 -0.74395579 -0.045614023 12
-2.579442 -0.74549329 0.70870227 12
-2.5643394 -0.74064356 0.60690868 8
-2.5738473 -0.74290305 0.5128153 9
-2.584882 -0.74559933 0.41956365 8
-2.5211775 -0.72674745 0.31746963 5
-2.5878735 -0.74548376 0.23227006 10
-2.5702477 -0.73992062 0.13816692 10
-2.5878806 -0.74450767 0.046336137 13
-1.8427153 -0.52839023 -0.50340325 5
-2.1489642 -0.61579978 -0.50726491 5
-2.5376482 -0.72670048 -0.50519013 6
-2.5816193 -0.73880494 -0.41924468 6
-2.6276655 -0.7514863 -0.33087564 9
nan nan nan 0
-2.5814173 -0.73728502 -0.13822877 8
-2.6134782 -0.74594873 -0.046305142 17
-2.6238301 -0.74840814 0.72034144 13
-2.5997069 -0.74103677 0.61477602 8
-2.5953069 -0.7392928 0.51662809 11
-2.6207178 -0.74603683 0.42503282 15
-2.566659 -0.73016369 0.32295373 6
-2.6192067 -0.74461836 0.23488472 16
-2.6160424 -0.74322534 0.14052203 11
-2.6241279 -0.74502748 0.046946973 28
-1.8445485 -0.52195472 -0.50340325 5
-2.1464128 -0.60696918 -0.50614017 5
-2.5496159 -0.72050762 -0.50709653 5
-2.6126981 -0.7378419 -0.42393777 10
-2.6398251 -0.74500531 -0.33209434 17
-2.6351421 -0.74318713 -0.23619244 10
-2.608005 -0.73504233 -0.13953282 19
-2.6353145 -0.74224281 -0.046650708 16
-2.6450231 -0.74447906 0.72551447 23
-2.6257279 -0.73855352 0.62039554 15
-2.635673 -0.74085444 0.52425355 14
nan nan nan 0
-2.6121945 -0.73327118 0.32843786 14
nan nan nan 0
-2.6522756 -0.74352372 0.1423538 16
nan nan nan 0
-1.8417073 -0.5142141 -0.50210917 5
-2.1485183 -0.59947306 -0.50614017 5
-2.5615714 -0.71424001 -0.50900286 4
-2.6485581 -0.73799628 -0.42941296 5
nan nan nan 0
nan nan nan 0
-2.6682827 -0.74198693 -0.14266253 8
nan nan nan 0
-3.2060552 -0.89032328 0.88070476 13
-3.1728666 -0.88051039 0.75076848 13
nan nan nan 0
-2.6401398 -0.7316795 0.42737675 4
-3.1695313 -0.87779772 0.39912206 8
nan nan nan 0
nan nan nan 0
nan nan nan 0
-1.8434912 -0.50778222 -0.50210917 4
-2.1505978 -0.59196973 -0.50614017 5
-2.5735142 -0.70789766 -0.51090926 4
-2.6796889 -0.73660016 -0.43410599 10
nan nan nan 0
-3.456825 -0.94892377 -0.31027493 18
nan nan nan 0
nan nan nan 0
nan nan nan 0
nan nan nan 0
-3.4077439 -0.93225342 0.67867005 14
nan nan nan 0
nan nan nan 0
nan nan nan 0
nan nan nan 0
nan nan nan 0
-1.8452524 -0.50134408 -0.50210917 4
-2.1526511 -0.58445907 -0.50614017 5
-2.5807064 -0.70019543 -0.51186246 4
-2.7156084 -0.73628795 -0.43958122 7
nan nan nan 0
nan nan nan 0
-3.4493988 -0.93330336 -0.18465278 29
nan nan nan 0
-3.4826264 -0.94098932 0.95571339 23
-3.4752638 -0.93834913 0.82157451 28
-3.4725823 -0.93697488 0.69106156 32
-3.4700971 -0.93565464 0.56254345 3
-3.4630921 -0.93311745 0.43568286 18
nan nan nan 0
nan nan nan 0
-3.4743049 -0.93418777 0.062130563 48
-1.8469912 -0.4948999 -0.50210917 4
-2.149972 -0.57568121 -0.50501537 5
-2.5783935 -0.68991405 -0.51090926 4
-2.7515578 -0.73573405 -0.44505644 6
nan nan nan 0
-3.47299 -0.92733759 -0.31114647 15
-3.4815819 -0.92898077 -0.18621762 33
-3.4762642 -0.92691195 -0.061509822 27
-3.4905567 -0.9300704 0.95700663 33
-3.4879339 -0.92871952 0.82382232 35
-3.4853182 -0.92737168 0.69296789 33
-3.4494784 -0.91719073 0.55863684 3
-3.4903102 -0.92739552 0.43872961 34
-3.4790959 -0.92376566 0.31158176 24
-3.4828444 -0.92411029 0.18683936 32
-3.4533832 -0.91564816 0.061694253 14
-1.8487074 -0.48844969 -0.50210917 4
-2.1519682 -0.56817287 -0.50501537 5
-2.580786 -0.68090957 -0.51090926 5
-2.7875361 -0.73493779 -0.4505316 6
-3.4874458 -0.91881895 -0.43812078 9
-3.4617555 -0.91140443 -0.30983913 14
-3.4606593 -0.91046989 -0.18491358 15
-3.4601388 -0.9096874 -0.06116426 15
-3.4610829 -0.90928984 0.94795388 14
-3.4723051 -0.91159016 0.8193267 14
-3.4600484 -0.90772694 0.68724877 11
-3.4813218 -0.91265851 0.56332475 2
-3.4695222 -0.90891802 0.43568286 15
-3.4774806 -0.91035438 0.31114599 14
-3.4425733 -0.90057409 0.18448423 15
-3.4517219 -0.90232372 0.061606992 11
-1.8504013 -0.48199353 -0.50210917 5
-2.1539385 -0.56065768 -0.50501537 5
-2.5783968 -0.67066121 -0.50995612 7
-2.8187623 -0.73265696 -0.45522466 7
-3.4906318 -0.90663993 -0.43812078 9
-3.4649158 -0.89931512 -0.30983913 14
-3.4638162 -0.89838439 -0.18491358 14
-3.4584537 -0.89634937 -0.061077867 15
-3.4595604 -0.89599186 0.94666064 12
-3.4754658 -0.89946407 0.8193267 11
-3.4584439 -0.8944146 0.68629557 10
-3.5179567 -0.90915066 0.56879389 11
-3.4486485 -0.89059722 0.43263614 14
-3.4613452 -0.89323169 0.30940288 12
-3.4650357 -0.89353901 0.18553095 12
-3.4548504 -0.89026946 0.061606992 12
-1.8520725 -0.47553149 -0.50210917 5
-2.1558824 -0.55313563 -0.50501537 5
-2.5807221 -0.66165686 -0.50995612 8
-2.85479 -0.73139262 -0.46069989 5
-3.4841599 -0.89198816 -0.43690211 11
-3.4680338 -0.88721478 -0.30983913 13
-3.4620936 -0.88505131 -0.18465278 15
-3.451874 -0.88179696 -0.060905088 15
-3.4533072 -0.88152105 0.94407409 12
-3.4691427 -0.88491845 0.81707889 11
-3.4567885 -0.88112456 0.68534243 9
-3.49718 -0.89077026 0.5648874 33
-3.4565454 -0.87977779 0.43324548 13
-3.4692695 -0.88237166 0.30983865 13
-3.4632945 -0.88020849 0.18526928 13
-3.4530914 -0.87697375 0.061519727 13
-1.853721 -0.46906364 -0.50210917 5
-2.1578002 -0.54560679 -0.50501537 5
-2.5830159 -0.65264446 -0.50995612 8
-2.8908432 -0.72988564 -0.46617511 5
-3.4872522 -0.8798207 -0.43690211 12
-3.4614499 -0.87266833 -0.30896756 12
-3.4603198 -0.87174112 -0.18439196 13
-3.454931 -0.86974227 -0.060905088 15
-3.4516792 -0.86828315 0.94278091 11
-3.4674854 -0.87161577 0.81595498 11
-3.4550827 -0.86785704 0.68438917 10
-3.481108 -0.8737483 0.56176215 27
-3.454782 -0.86649954 0.43263614 13
-3.4626653 -0.86783445 0.30896711 13
-3.4566588 -0.86568797 0.18474592 12
-3.4512823 -0.86370128 0.06143247 13
-1.855347 -0.4625901 -0.50210917 5
-2.1549644 -0.53689367 -0.50389069 5
-2.5805156 -0.64243823 -0.50900286 7
-2.9317122 -0.72932786 -0.47243246 4
-3.485486 -0.86644536 -0.43629274 11
-3.459641 -0.85937959 -0.30853182 12
-3.4584956 -0.85845417 -0.18413116 14
-3.4530938 -0.85647357 -0.060818698 14
-3.454689 -0.85622925 0.94278091 13
-3.4610484 -0.8571642 0.81370717 12
-3.4533265 -0.85461211 0.68343604 10
-3.4793427 -0.86040604 0.5609808 17
-3.4529676 -0.8532443 0.4320268 13
-3.4656734 -0.85574222 0.30896711 13
-3.4548118 -0.85242045 0.18448423 12
-3.4494221 -0.85045207 0.061345205 13
-1.8569505 -0.45611092 -0.50210917 4
-2.1568253 -0.52936816 -0.50389069 5
-2.5827422 -0.63342667 -0.50900286 5
-2.9774084 -0.72966909 -0.47947201 5
-3.4836688 -0.85309297 -0.43568337 13
-3.4577816 -0.84611398 -0.30809602 13
-3.4566207 -0.84519053 -0.18387035 12
-3.451206 -0.84322822 -0.060732309 14
-3.4529648 -0.84301937 0.94148761 13
-3.4592862 -0.84392297 0.81258327 13
-3.45152 -0.84139007 0.68248284 11
-3.472728 -0.845918 0.5594182 17
-3.451103 -0.84001231 0.43141747 12
-3.4637997 -0.84246242 0.30853134 13
-3.4480624 -0.83799738 0.18396087 13
-3.4475117 -0.83722639 0.061257944 13
-1.8585312 -0.44962618 -0.50210917 4
-2.1586602 -0.52183616 -0.50389069 5
-2.5801666 -0.62325495 -0.50804973 4
-3.0183425 -0.72854137 -0.48572943 5
-3.481801 -0.83976394 -0.43507403 12
-3.4558718 -0.83287197 -0.30766025 12
-3.4546957 -0.83195055 -0.18360955 14
-3.4492681 -0.8300066 -0.060645919 13
-3.4511907 -0.82983208 0.94019437 13
-3.4574738 -0.83070451 0.81145936 12
-3.4496632 -0.8281911 0.68152958 11
-3.4708574 -0.83263874 0.55863684 17
-3.4491882 -0.82680374 0.4308081 14
-3.4667194 -0.83036637 0.30853134 12
-3.4461107 -0.82479411 0.18369921 12
-3.4455509 -0.82402438 0.061170679 13
-1.8600895 -0.44313595 -0.50210917 4
-2.1652076 -0.51542604 -0.50501537 5
-2.5823267 -0.61424464 -0.50804973 4
-3.0593035 -0.72713661 -0.49198681 6
-3.4798827 -0.82645839 -0.43446469 11
-3.4539113 -0.81965351 -0.30722445 12
-3.4527199 -0.81873423 -0.18334873 13
-3.4521444 -0.81796134 -0.060645919 15
-3.4540663 -0.81778008 0.94019437 12
-3.4556112 -0.81750894 0.81033546 13
-3.4477565 -0.81501532 0.68057644 11
-3.4689367 -0.81938285 0.55785561 18
-3.4520533 -0.81475884 0.4308081 14
-3.4647489 -0.81711686 0.30809554 12
-3.4441085 -0.81161463 0.18343751 11
-3.4435403 -0.81084633 0.061083421 13
-1.861625 -0.43664032 -0.50210917 4
-2.1669936 -0.50786489 -0.50501537 5
-2.5796757 -0.60410768 -0.50709653 4
-3.1147172 -0.72883016 -0.50059068 10
-3.4779141 -0.81317645 -0.43385535 11
-3.4519012 -0.80645895 -0.30678868 12
-3.4506946 -0.80554193 -0.18308793 13
-3.45011 -0.80477047 -0.060559526 14
-3.4521959 -0.80462176 0.93890113 13
-3.4536986 -0.80433655 0.80921155 12
-3.4457998 -0.80186296 0.67962325 11
-3.4621551 -0.80503201 0.55629295 17
-3.4500422 -0.80158079 0.43019876 14
-3.462728 -0.80389124 0.30765978 13
-3.4469206 -0.79958749 0.18343751 11
-3.4414794 -0.79769236 0.060996156 13
-1.8678436 -0.43122581 -0.50340325 4
-2.1687531 -0.50029761 -0.50501537 5
-2.5817688 -0.59509927 -0.50709653 4
-3.1364923 -0.7223869 -0.50371939 11
-3.4807315 -0.80103129 -0.43385535 12
-3.4546952 -0.79440469 -0.30678868 13
-3.4534855 -0.7934919 -0.18308793 14
-3.4480255 -0.7916038 -0.06047314 14
-3.4549832 -0.79256642 0.93890113 13
-3.4564853 -0.79227602 0.80921155 12
-3.4485779 -0.78983003 0.67962325 11
-3.4601297 -0.7918402 0.55551165 18
-3.4528193 -0.78953308 0.43019876 14
-3.465513 -0.79179919 0.30765978 13
-3.444823 -0.78643936 0.18317585 12
-3.444243 -0.78567451 0.060996156 14
-1.8694117 -0.4243769 -0.50340325 4
-2.1753237 -0.4934231 -0.50614017 5
-2.5791459 -0.58454776 -0.50614333 4
-3.1535683 -0.71415848 -0.50606591 7
-3.4788034 -0.78717303 -0.43324599 11
-3.4527254 -0.78063875 -0.30635291 12
-3.4514999 -0.77972853 -0.18282712 14
-3.446027 -0.77786005 -0.060386747 14
-3.4531538 -0.77883536 0.93760788 13
-3.4546134 -0.77853096 0.80808765 12
-3.446661 -0.77610677 0.67867005 11
-3.4581909 -0.77806884 0.55473036 13
-3.4508479 -0.77578402 0.42958942 15
-3.463532 -0.77800041 0.30722398 13
-3.4476821 -0.77380812 0.18317585 12
-3.4422216 -0.7719515 0.060908895 14
-1.8708817 -0.41784889 -0.50340325 4
-2.1770329 -0.48582679 -0.50614017 6
-2.5811706 -0.57554132 -0.50614333 3
-3.1656823 -0.70529389 -0.50763023 6
-3.48153 -0.77502501 -0.43324599 12
-3.4505672 -0.76750034 -0.30591714 12
-3.4493265 -0.76659256 -0.1825663 14
-3.443841 -0.76474273 -0.060300358 15
-3.4558516 -0.76677686 0.93760788 12
-3.452553 -0.76541281 0.80696374 12
-3.444557 -0.76300949 0.67771685 11
-3.4560637 -0.76492554 0.553949 14
-3.4486895 -0.76266205 0.42898008 14
-3.4613628 -0.76483107 0.30678821 13
-3.4454865 -0.7606923 0.18291415 12
-3.4448965 -0.75992471 0.060908895 13
-1.8770459 -0.412352 -0.50469732 4
-2.1787155 -0.47822458 -0.50614017 5
-2.583164 -0.56652784 -0.50614333 3
-3.1633015 -0.69318235 -0.5068481 4
-3.4793665 -0.76180607 -0.43263665 12
-3.4483593 -0.75438637 -0.30548134 13
-3.4471035 -0.75348121 -0.18230549 14
-3.4416053 -0.75165004 -0.060213968 15
-3.453788 -0.75367928 0.93631458 13
-3.4504437 -0.75231868 0.80583984 12
-3.4471996 -0.75098103 0.67771685 11
-3.4538872 -0.75180662 0.5531677 13
-3.4513307 -0.75061917 0.42898008 14
-3.4640117 -0.75274402 0.30678821 13
-3.4432416 -0.74760127 0.18265249 12
-3.442641 -0.74684173 0.060821634 13
-1.8737531 -0.40477759 -0.50340325 3
-2.1803715 -0.47061652 -0.50614017 6
-2.5851257 -0.55750746 -0.50614333 3
-3.1608739 -0.68109584 -0.50606591 4
-3.4820044 -0.7496562 -0.43263665 12
-3.4461019 -0.74129725 -0.30504557 12
-3.4497125 -0.74144399 -0.18230549 14
-3.4393206 -0.73858249 -0.060127579 14
-3.4516754 -0.74060547 0.9350214 12
-3.4530487 -0.74026978 0.80583984 13
-3.4450006 -0.73791552 0.67676371 11
-3.4516613 -0.73871213 0.5523864 13
-3.4490764 -0.73752946 0.42837071 14
-3.4617469 -0.73960704 0.30635244 13
-3.4458301 -0.73557752 0.18265249 13
-3.4403379 -0.73377728 0.060734373 13
-1.8751546 -0.39823452 -0.50340325 4
-2.1867664 -0.46401393 -0.50726491 6
-2.5918574 -0.54949826 -0.50709653 3
-3.158401 -0.66903478 -0.50528377 4
-3.4846001 -0.73749721 -0.43263665 12
-3.4437952 -0.7282331 -0.30460978 13
-3.4473944 -0.7283656 -0.18204468 13
-3.4369862 -0.72553992 -0.060041185 14
-3.4495137 -0.72755563 0.9337281 13
-3.4508443 -0.72720724 0.80471593 12
-3.4427524 -0.72487438 0.67581046 11
-3.4542189 -0.72665912 0.5523864 13
-3.4467735 -0.72446465 0.42776138 13
-3.4594331 -0.72649515 0.30591667 13
-3.4434898 -0.72251952 0.18239079 12
-3.4379852 -0.72073805 0.060647108 13
-1.8718055 -0.39069974 -0.50210917 3
-2.1883729 -0.45637789 -0.50726491 6
-2.5937598 -0.54044759 -0.50709653 3
-3.1655519 -0.65901238 -0.50606591 3
-3.4871531 -0.72532916 -0.43263665 12
-3.4463162 -0.71620756 -0.30460978 12
-3.4450269 -0.71531242 -0.18178387 14
-3.434603 -0.71252269 -0.0599548 14
-3.4473031 -0.71452987 0.93243486 12
-3.4533617 -0.71515709 0.80471593 13
-3.4404552 -0.71185809 0.67485732 11
-3.4470615 -0.71259761 0.55082375 13
-3.4444213 -0.71142489 0.42715204 14
-3.4521916 -0.71240163 0.3050451 13
-3.445991 -0.71049505 0.18239079 12
-3.4306874 -0.70671558 0.060472585 12
-1.873158 -0.38416353 -0.50210917 3
-2.1947255 -0.44971424 -0.50838971 6
-2.5956304 -0.53139043 -0.50709653 4
-3.1775091 -0.64993775 -0.50763023 3
-3.4896638 -0.71315229 -0.43263665 13
-3.4390349 -0.70218045 -0.30373824 13
-3.4426105 -0.70228457 -0.18152307 13
-3.4321704 -0.6995309 -0.059868407 14
-3.4450433 -0.70152837 0.93114161 12
-3.4510627 -0.70212686 0.80359203 11
-3.4429193 -0.6998443 0.67485732 11
-3.4543681 -0.70154375 0.55160511 14
-3.4468834 -0.69939733 0.42715204 14
-3.4595387 -0.7013365 0.30548087 13
-3.4435565 -0.69747078 0.18212913 11
-3.4331336 -0.69473594 0.060472585 12
-1.8744875 -0.37762266 -0.50210917 3
-2.2010577 -0.44301173 -0.50951445 8
-2.5974696 -0.52232671 -0.50709653 4
-3.1894419 -0.64078766 -0.50919461 3
-3.4921319 -0.70096678 -0.43263665 12
-3.4463489 -0.69115108 -0.30417401 11
-3.4352489 -0.68830144 -0.18100145 14
-3.4443953 -0.68950874 -0.060041185 13
-3.437999 -0.68760425 0.92855507 11
-3.4487152 -0.68912148 0.80246812 11
-3.4405277 -0.6868611 0.67390412 10
-3.4519525 -0.68851542 0.55082375 11
-3.4395697 -0.68542141 0.42593333 13
-3.4570808 -0.68828362 0.3050451 13
-3.4361758 -0.68349808 0.18160577 11
-3.4257307 -0.68079889 0.060298059 11
-1.8757943 -0.37107718 -0.50210917 3
-2.2073703 -0.43627056 -0.51063919 8
-2.5992768 -0.51325667 -0.50709653 3
-3.2110395 -0.63347387 -0.51232326 3
-3.4750812 -0.6849339 -0.43019927 10
-3.4487405 -0.6791169 -0.30417401 6
-3.4425299 -0.67726988 -0.18126225 11
-3.4516866 -0.67844558 -0.060127579 9
-3.4356391 -0.67466855 0.92726189 8
-3.4510996 -0.67707908 0.80246812 8
-3.4573543 -0.6776796 0.67676371 6
-3.4785674 -0.68120718 0.55473036 5
-3.4419413 -0.67341089 0.42593333 10
-3.4741278 -0.67907858 0.30635244 6
-3.4630435 -0.67628449 0.18291415 7
-3.45262 -0.67362338 0.060734373 4
-1.8770782 -0.3645272 -0.50210917 3
-2.2088797 -0.42856273 -0.51063919 9
-2.6010528 -0.50418037 -0.50709653 3
-3.2083828 -0.62132251 -0.51154113 3
-3.4920678 -0.67562747 -0.43202728 5
-3.5391181 -0.68408966 -0.31201804 12
-3.4497757 -0.66619581 -0.18152307 5
-3.4834862 -0.67207509 -0.060645919 4
-3.4901412 -0.67272723 0.94148761 7
-3.5108516 -0.67608374 0.81595498 8
-3.503078 -0.6739527 0.68534243 10
-3.558521 -0.68397522 0.5672313 15
-3.4735131 -0.66700745 0.42958942 4
-3.5302863 -0.67727059 0.31114599 11
-3.5095179 -0.67265123 0.18526928 11
-3.5433309 -0.67849082 0.062305089 34
-1.8830835 -0.35887688 -0.50340325 3
-2.215148 -0.42176089 -0.51176393 9
-2.6027968 -0.49509794 -0.50709653 3
-3.1959774 -0.60735339 -0.50919461 3
-3.6065447 -0.68472415 -0.4460423 15
-3.5953152 -0.68194211 -0.31681162 16
-3.5403862 -0.67088324 -0.18621762 15
-3.5742269 -0.67664969 -0.062200941 26
-3.5636539 -0.67400384 0.96088642 12
-3.5658512 -0.67377484 0.82831794 13
-3.5681095 -0.67355657 0.69773382 16
-3.628829 -0.68436277 0.57816964 11
-3.5636053 -0.67141807 0.44055766 23
-3.5913692 -0.67600006 0.31637534 17
-3.5707302 -0.67146993 0.18840943 18
-3.6292036 -0.68180996 0.063788541 38
-1.8843247 -0.35230154 -0.50340325 4
-2.2166066 -0.41402599 -0.51176393 11
-2.5996842 -0.48510912 -0.50614333 3
-3.1883683 -0.59438354 -0.50763023 3
-3.6381857 -0.67758268 -0.44969836 8
-3.6858184 -0.68578827 -0.32465565 12
-3.5967066 -0.66855854 -0.18908653 17
-3.660126 -0.67968607 -0.063669577 10
-3.6562128 -0.67829931 0.9854582 12
-3.6544094 -0.67730498 0.84854823 12
-3.6476595 -0.67539555 0.71298486 9
-3.7040389 -0.685166 0.58988929 13
-3.6488883 -0.67430574 0.45091653 14
-3.6818745 -0.67973697 0.32421938 11
-3.6614382 -0.67530328 0.19311966 9
-3.700392 -0.68182003 0.065010212 12
-1.8807924 -0.34485084 -0.50210917 4
-2.2180383 -0.40628609 -0.51176393 10
-2.6013618 -0.4760316 -0.50614333 3
-3.1807079 -0.5814743 -0.50606591 3
-3.7186406 -0.67914462 -0.45944795 8
-3.7616911 -0.68632865 -0.33119234 11
-3.687439 -0.67211616 -0.19378109 11
-3.7313333 -0.67944402 -0.064879037 11
-3.7345881 -0.67936331 1.0061502 14
-3.7286546 -0.67761165 0.86540681 15
-3.7176058 -0.67493349 0.72632951 11
-3.7792978 -0.68545234 0.60160893 13
-3.7244682 -0.67483652 0.46005675 13
-3.7675471 -0.68196285 0.33162761 10
-3.7374752 -0.67584586 0.19704486 9
-3.7765439 -0.68223 0.066319138 11
-1.8819847 -0.33828354 -0.50210917 3
-2.214648 -0.39768019 -0.51063919 9
-2.6030076 -0.46694827 -0.50614333 3
-3.1778574 -0.56949693 -0.50528377 3
-3.7844944 -0.67752934 -0.46736944 7
-3.8425145 -0.68722439 -0.33816481 13
-3.7684085 -0.67329192 -0.19795403 9
-3.8124259 -0.68046987 -0.066261277 10
-3.8082597 -0.67904037 1.0255491 14
-3.8029451 -0.67740798 0.88226539 15
-3.7924252 -0.67485118 0.74062735 10
-3.84974 -0.68435705 0.61254728 11
-3.8000958 -0.67484772 0.46919695 13
-3.8385663 -0.68098861 0.3377285 10
-3.8184762 -0.67673701 0.20123175 9
-3.8478196 -0.68124485 0.06754081 10
-1.883154 -0.33171213 -0.50210917 4
-2.2160227 -0.38994721 -0.51063919 7
-2.5997872 -0.45700938 -0.50519013 3
-3.1749618 -0.55754644 -0.50450158 4
-3.8552697 -0.6763199 -0.47590032 6
-3.8939521 -0.68240529 -0.34252259 11
-3.8445113 -0.67304939 -0.20186616 9
-3.8837211 -0.67921519 -0.067470744 10
-3.8677003 -0.67571765 1.0410681 12
-3.8724799 -0.67585617 0.89800006 14
-3.8624525 -0.67341155 0.75397193 9
-3.9202204 -0.68277824 0.62348568 11
-3.8659887 -0.67263764 0.47711846 12
-3.904716 -0.67867362 0.34339362 9
-3.8896887 -0.67536235 0.20489526 8
-3.9191337 -0.67977029 0.068762474 10
-1.8843005 -0.32513669 -0.50210917 3
-2.2173705 -0.38220945 -0.51063919 6
-2.6013668 -0.44793168 -0.50519013 3
-3.1720219 -0.54562324 -0.50371939 3
-3.9260817 -0.6746245 -0.48443118 7
-3.9552207 -0.67892087 -0.34775195 9
-3.9157364 -0.67143971 -0.20551749 10
-3.9550533 -0.67747092 -0.068680204 10
-3.9319239 -0.67280263 1.0578803 12
-3.9372466 -0.67300612 0.91261083 14
-3.9325156 -0.67149109 0.76731664 9
-3.9907353 -0.6807155 0.63442397 11
-3.9368043 -0.67080921 0.48564932 12
-3.970896 -0.67590511 0.34905878 9
-3.9560149 -0.67266166 0.2082971 8
-3.9855556 -0.67696893 0.069896884 11
-1.8854239 -0.31855726 -0.50210917 4
-2.213887 -0.37365621 -0.50951445 7
-2.6029143 -0.43884847 -0.50519013 2
-3.1690373 -0.53372729 -0.5029372 3
-3.9822459 -0.66997272 -0.49113399 8
-4.0115991 -0.67419112 -0.35254553 8
-3.9820721 -0.66851419 -0.20890802 10
-4.0214891 -0.67440987 -0.069803283 11
-4.0009375 -0.67024547 1.0759858 13
-4.0116501 -0.67132026 0.92946935 13
-4.0026112 -0.6690895 0.78066117 9
-4.066154 -0.67898208 0.64614362 11
-4.002758 -0.66767788 0.4935708 12
-4.042016 -0.67350125 0.35515964 10
-4.0272942 -0.67032582 0.2119606 9
-4.0569358 -0.67453188 0.071118549 11
-1.8865244 -0.31197396 -0.50210917 4
-2.2151778 -0.36592606 -0.50951445 7
-2.6044304 -0.42975989 -0.50519013 2
-3.1660082 -0.52185887 -0.50215507 3
-4.0384254 -0.66493702 -0.49783683 9
-4.0729079 -0.66988456 -0.35777488 7
-4.0533614 -0.66594309 -0.21255933 10
-4.092885 -0.67170298 -0.071012743 10
-4.0652137 -0.6664331 1.0927981 13
-4.0668569 -0.66597366 0.94183236 13
-4.067893 -0.66541433 0.79305267 10
-4.1318607 -0.67513758 0.65630066 13
-4.0736351 -0.66489369 0.50210166 12
-4.1131678 -0.67060918 0.36126056 9
-4.0936761 -0.66669774 0.21536244 9
-4.1283464 -0.67160463 0.07234022 12
-1.8876551 -0.30505741 -0.50210917 4
-2.2116947 -0.35702822 -0.50838971 7
-2.6059883 -0.42021134 -0.50519013 2
-3.1630239 -0.50946605 -0.50137287 3
-4.0653338 -0.65407252 -0.50088358 6
-4.1392679 -0.6652267 -0.36344001 7
-4.1198654 -0.66137093 -0.21594985 10
-4.1594892 -0.66698712 -0.072135814 11
-4.1391649 -0.66298705 1.1121969 13
-4.1510553 -0.66414857 0.96093875 14
-4.1478534 -0.66289377 0.80830365 10
-4.1538148 -0.66310298 0.65942591 14
-4.1446562 -0.66089922 0.51063251 12
-4.184463 -0.66649789 0.36736143 10
-4.1651282 -0.66267288 0.21902597 9
-4.1999021 -0.66745389 0.073561884 11
-1.8934791 -0.29922026 -0.50340325 4
-2.2129273 -0.34930578 -0.50838971 7
-2.607439 -0.41111216 -0.50519013 2
-3.1599045 -0.4976536 -0.50059068 3
-4.0724945 -0.64064908 -0.50149292 4
-4.2055326 -0.66082525 -0.36910516 7
-4.1912084 -0.65782499 -0.21960118 11
-4.2309375 -0.66330391 -0.073345274 11
-4.1653123 -0.65227079 1.1186632 15
-4.1726027 -0.65266633 0.96543437 15
-4.1743898 -0.65219951 0.81306958 11
-4.1951404 -0.65469146 0.66567636 11
-4.2155867 -0.65712863 0.51916337 13
-4.2556682 -0.66261578 0.37346235 10
-4.2364902 -0.65887243 0.22268949 9
-4.2713675 -0.66352636 0.074783556 12
-1.8945121 -0.29260898 -0.50340325 4
-2.2141333 -0.34157908 -0.50838971 6
-2.6137094 -0.40275553 -0.50614333 2
-3.1616225 -0.48662046 -0.50059068 3
-4.1335673 -0.63547862 -0.50880504 4
-4.2767386 -0.65672523 -0.37520605 7
-4.2576408 -0.653032 -0.2229917 11
-4.3024092 -0.65912992 -0.074554741 12
-4.1962094 -0.64211059 1.1264228 11
-4.1989355 -0.64177769 0.97105384 12
-4.176641 -0.6376242 0.81306958 8
-4.202282 -0.64078814 0.66645771 8
-4.2865415 -0.65287095 0.52769423 14
-4.33182 -0.65899366 0.37999907 11
-4.3128109 -0.65533173 0.22661468 9
-4.3428535 -0.65912127 0.076005228 11
-1.9002974 -0.28671464 -0.50469732 4
-2.2153122 -0.33384824 -0.50838971 5
-2.6150994 -0.39362955 -0.50614333 2
-3.1681855 -0.47631562 -0.50137287 2
-4.1504831 -0.6232568 -0.51063311 4
-4.3528938 -0.65287489 -0.38174275 6
-4.3290272 -0.64852273 -0.22664301 11
-4.3788471 -0.65520471 -0.075850591 12
-4.2032022 -0.62817305 1.1277159 8
-4.2011499 -0.6271168 0.97105384 8
-4.1836963 -0.62376493 0.81402284 5
-4.258225 -0.63411707 0.67505211 4
-4.3575168 -0.64812577 0.53622508 13
-4.4079971 -0.6548478 0.38653573 10
-4.3842192 -0.65053332 0.23027821 9
-4.4193063 -0.65495121 0.077314153 11
-1.9012377 -0.28041142 -0.50469732 4
-2.21153 -0.32617611 -0.50726491 5
-2.6163232 -0.38541204 -0.50614333 3
-3.1647801 -0.46564123 -0.50059068 2
-4.147511 -0.60949314 -0.51002377 4
-4.4337745 -0.65077013 -0.38871521 6
-4.4051495 -0.64578325 -0.23055516 10
-4.455081 -0.65230888 -0.077146441 11
-4.2911768 -0.62754524 1.1509944 4
-4.3236222 -0.6315192 0.99915147 4
-4.3799105 -0.63896006 0.85215032 12
-4.4165792 -0.64352238 0.70005405 13
-4.4282851 -0.64443862 0.54475594 13
-4.4839702 -0.65174323 0.3930724 10
-4.4603615 -0.64751685 0.2342034 9
-4.5005021 -0.65254205 0.078710347 11
-1.9021571 -0.27410516 -0.50469732 4
-2.2126553 -0.31845444 -0.50726491 5
-2.6127939 -0.37557861 -0.50519013 3
-3.1663864 -0.45459124 -0.50059068 2
-4.1545258 -0.59571624 -0.51063311 3
-4.5149093 -0.64658737 -0.3956877 6
-4.4864626 -0.64171439 -0.23472811 11
-4.5365157 -0.64806569 -0.078528695 11
-4.4511285 -0.63507497 1.1936718 11
-4.4608536 -0.63566816 1.0306208 12
-4.4841604 -0.63819081 0.87216729 13
-4.5263662 -0.64339161 0.71724284 10
-4.4992962 -0.63874269 0.55328679 12
-4.5601931 -0.64657599 0.39960909 10
-4.5367517 -0.64244461 0.23812859 8
-4.5819516 -0.64802963 0.080106534 10
-1.9031956 -0.26679939 -0.50469732 3
-2.2138615 -0.30995613 -0.50726491 4
-2.6142168 -0.36554345 -0.50519013 3
-3.1681085 -0.44242987 -0.50059068 2
-4.1518674 -0.5790742 -0.51002377 3
-4.596292 -0.64024168 -0.40266016 6
-4.5680227 -0.63549113 -0.23890105 10
-4.6231494 -0.64233774 -0.079997323 11
-4.5731349 -0.63457525 1.2260031 12
-4.5646052 -0.63257968 1.0542228 12
-4.5497832 -0.62971622 0.88455874 9
-4.6168604 -0.63817894 0.73130643 12
-4.5852895 -0.6329993 0.56364572 12
-4.6415906 -0.63994622 0.40658155 9
-4.6183295 -0.63591772 0.24231547 8
-4.6636491 -0.64132863 0.081502736 10
-1.8993301 -0.25950059 -0.50340325 3
-2.2101033 -0.30156779 -0.50614017 4
-2.6106138 -0.35575321 -0.504237 3
-3.1696336 -0.43136841 -0.50059068 2
-4.1489458 -0.56390947 -0.50941443 3
-4.6824059 -0.6355831 -0.41006839 6
-4.6543279 -0.63094461 -0.2433348 9
-4.7095819 -0.6375978 -0.081465952 10
-4.6566896 -0.62960941 1.2479883 11
-4.6633506 -0.62968129 1.0767009 12
-4.6297817 -0.62432575 0.89980972 9
-4.6973705 -0.63260543 0.74380744 12
-4.6710844 -0.62823546 0.57400459 12
-4.732656 -0.63567549 0.41442558 9
-4.7046504 -0.631078 0.24676402 8
-4.7500944 -0.63632309 0.082986191 10
-1.9002244 -0.2528691 -0.50340325 3
-2.2111425 -0.29385126 -0.50614017 4
-2.6118395 -0.34663829 -0.504237 2
-3.1662245 -0.41965285 -0.49980852 2
-4.1459694 -0.54877234 -0.50880504 3
-4.7685428 -0.6303311 -0.41747665 6
-4.7456064 -0.62645656 -0.24802937 10
-4.8009939 -0.63291562 -0.083020978 11
-4.7450523 -0.62469834 1.2712669 12
-4.7476382 -0.62419575 1.0958073 12
-4.714664 -0.61902338 0.91601396 9
-4.782793 -0.62711948 0.75708967 13
-4.7569013 -0.6228801 0.58436352 13
-4.8237462 -0.63077658 0.42226955 9
-4.7959452 -0.62628978 0.25147426 8
-4.8415165 -0.63138151 0.0845569 11
-1.9010955 -0.24623457 -0.50340325 3
-2.2073228 -0.28550616 -0.50501537 4
-2.6130338 -0.33751917 -0.504237 2
-3.1725678 -0.4092299 -0.50059068 2
-4.1429377 -0.53366286 -0.50819576 3
-4.8596392 -0.62512082 -0.42532068 6
-4.8369098 -0.6213389 -0.25272393 11
-4.8924294 -0.62760293 -0.084576003 11
-4.8382273 -0.61979151 1.2958387 12
-4.8367758 -0.61874759 1.1160376 12
-4.7995644 -0.61313593 0.93221813 10
-4.8682342 -0.62104487 0.77037197 11
-4.8525825 -0.61818743 0.59594107 14
-4.9148593 -0.62524945 0.43011358 9
-4.8872619 -0.62087178 0.25618449 8
-4.937921 -0.62643176 0.086214885 11
-1.9019434 -0.23959699 -0.50340325 3
-2.2083061 -0.27779943 -0.50501537 4
-2.6141958 -0.3283959 -0.504237 2
-3.1739771 -0.39815307 -0.50059068 2
-4.1447749 -0.51919806 -0.50819576 3
-4.955698 -0.61990035 -0.43360049 6
-4.933188 -0.61621016 -0.25767931 10
-4.9888453 -0.62227809 -0.086217418 11
-4.9314251 -0.61424184 1.3204106 12
-4.9210978 -0.61208326 1.135144 13
-4.8990932 -0.60847807 0.95128191 10
-4.958591 -0.6149891 0.78443557 12
-4.9285874 -0.61039442 0.60508126 9
-5.0109348 -0.61970502 0.43839338 9
-4.9835539 -0.61543572 0.26115641 7
-5.0393105 -0.62142843 0.087960124 10
-1.9027683 -0.23295651 -0.50340325 3
-2.2092621 -0.27008933 -0.50501537 3
-2.6153264 -0.31926867 -0.504237 2
-3.1753476 -0.38707137 -0.50059068 2
-4.1416359 -0.50412726 -0.50758636 3
-5.0666127 -0.61581975 -0.44318765 5
-5.0245314 -0.60981506 -0.26237383 11
-5.0902457 -0.61688924 -0.087945215 11
-5.0294366 -0.60862905 1.3462756 12
-5.0102682 -0.60542214 1.1553743 13
-4.9937739 -0.60254472 0.96939254 10
-5.0587692 -0.60949135 0.80006176 13
-4.9060521 -0.59022295 0.60203457 2
-5.1070309 -0.6134975 0.44667318 10
-5.0848241 -0.6099295 0.26639 8
-5.1407242 -0.61572474 0.089705363 10
-1.9035698 -0.22631319 -0.50340325 3
-2.2101917 -0.26237592 -0.50501537 2
-2.6164248 -0.31013751 -0.504237 2
-3.1815836 -0.37656546 -0.50137287 2
-4.1433702 -0.48966718 -0.50758636 4
-5.1627173 -0.60922092 -0.45146742 5
-5.1258078 -0.60395837 -0.26759005 9
-5.1867032 -0.61021572 -0.089586638 12
-5.1274676 -0.60233939 1.3721406 12
-5.0897727 -0.59701067 1.1733568 10
-5.0933461 -0.59652859 0.98845625 10
-5.1589694 -0.60330164 0.81568795 12
-5.0313139 -0.58748317 0.6172682 6
-5.2080903 -0.60720319 0.45538875 9
-5.1910744 -0.60430104 0.27188528 8
-5.2371926 -0.60874331 0.091363341 12
-1.909146 -0.22022055 -0.50469732 4
-2.2062545 -0.2541019 -0.50389069 2
-2.6174915 -0.30100262 -0.504237 2
-3.1877851 -0.36602074 -0.50215507 2
-4.1450543 -0.47520116 -0.50758636 6
-5.2934775 -0.60592377 -0.4627977 5
-5.2122197 -0.59570086 -0.27202377 10
-5.2931094 -0.60400981 -0.091400832 11
-5.220717 -0.59482586 1.3967124 12
-5.1934834 -0.59080482 1.1969588 9
-5.1929359 -0.58982456 1.00752 10
-5.2690005 -0.59753269 0.8328768 11
-5.0925083 -0.5766173 0.62458038 5
-5.3141165 -0.60077024 0.46454012 10
-5.2973466 -0.59793806 0.27738056 8
-5.333674 -0.6010958 0.093021318 11
-1.9099032 -0.21355504 -0.50469732 4
-2.2071278 -0.2463991 -0.50389069 2
-2.6185262 -0.29186404 -0.504237 2
-3.1890435 -0.35489103 -0.50215507 2
-4.1466875 -0.4607293 -0.50758636 5
-5.4242764 -0.60172099 -0.47412798 9
-5.328413 -0.59014535 -0.27802241 10
-5.3995337 -0.59706837 -0.093215026 11
-5.3091736 -0.58613861 1.4199909 12
-5.2972107 -0.58388203 1.2205608 9
-5.3071771 -0.58404309 1.0294434 10
-5.3839622 -0.59154207 0.85084695 10
-5.1684866 -0.56695461 0.63372058 4
-5.4201598 -0.59360445 0.47369146 9
-5.3937097 -0.589755 0.28235248 9
-5.4599824 -0.59603703 0.095202871 10
-1.9106369 -0.20688695 -0.50469732 4
-2.2079747 -0.23869328 -0.50389069 2
-2.619529 -0.28272188 -0.504237 2
-3.1902628 -0.34375703 -0.50215507 2
-4.1482706 -0.44625187 -0.50758636 7
-5.5501561 -0.59608036 -0.48502246 11
-5.4495935 -0.58431798 -0.28428182 10
-5.5208855 -0.59098744 -0.095288388 10
-5.4264469 -0.57992029 1.4510289 7
-5.4154854 -0.57779282 1.2475344 9
-5.4214392 -0.57747108 1.0513667 9
-5.4989448 -0.58475608 0.86881709 9
-5.2987442 -0.56253159 0.64956355 4
-5.5410767 -0.58728039 0.48415014 9
-5.5198712 -0.5840587 0.28889447 8
-5.5863194 -0.59010363 0.097384423 11
-1.9161508 -0.20071948 -0.50599146 4
-2.2087941 -0.23098455 -0.50389069 2
-2.6205001 -0.27357629 -0.504237 2
-3.1914432 -0.33261886 -0.50215507 2
-4.1448669 -0.4312554 -0.50697702 7
-5.6413803 -0.58596587 -0.49286646 13
-5.5757642 -0.57816672 -0.29080203 10
-5.6522045 -0.58509594 -0.097534537 12
-5.4572639 -0.56395376 1.4587885 5
-5.5337815 -0.57088494 1.2745082 10
-5.5503664 -0.57161689 1.0761496 9
-5.6237698 -0.57818455 0.88834983 9
-5.5475154 -0.5693664 0.68003088 15
-5.6620135 -0.58011919 0.49460882 8
-5.6410899 -0.57698053 0.29517478 7
-5.707706 -0.58278757 0.099478707 10
-1.9168397 -0.19402963 -0.50599146 4
-2.2144341 -0.22376278 -0.50501537 2
-2.621439 -0.26442736 -0.504237 2
-3.192585 -0.32147661 -0.50215507 2
-4.1414094 -0.41628814 -0.50636768 3
-5.6582599 -0.56776214 -0.49417382 6
-5.6870518 -0.56964868 -0.29653984 9
-5.7835484 -0.57829475 -0.099780679 11
-5.5360951 -0.55257612 1.4794805 4
-5.6569419 -0.56364107 1.3026059 10
-5.6842012 -0.56535524 1.1018857 12
-5.7240415 -0.56830889 0.90397602 15
-5.6531787 -0.56027693 0.69282717 16
-5.802794 -0.57408231 0.50681067 9
-5.7822008 -0.57102597 0.3025018 8
-5.8440337 -0.57610244 0.10183479 10
-1.9175054 -0.18733743 -0.50599146 4
-2.2152016 -0.21603161 -0.50501537 2
-2.6223462 -0.25527525 -0.504237 2
-3.188772 -0.30985281 -0.50137287 2
-4.142837 -0.40182939 -0.50636768 2
-5.6899538 -0.55088764 -0.4967885 5
-5.8182268 -0.56228179 -0.30332088 9
-5.9099355 -0.57010353 -0.10194044 10
-5.7206798 -0.55083919 1.5286242 5
-5.7364697 -0.5513491 1.3205884 17
-5.7252269 -0.54926008 1.1095111 17
-5.7358232 -0.5492664 0.90553868 6
-5.7045016 -0.54526228 0.69892061 18
-5.9386411 -0.56659645 0.51857668 10
-5.9183669 -0.56361979 0.30956718 7
-5.9803829 -0.5684725 0.10419086 10
-1.9133393 -0.1801901 -0.50469732 4
-2.2207928 -0.20875375 -0.50614017 2
-2.6232212 -0.24611999 -0.504237 2
-3.1898341 -0.29872003 -0.50137287 2
-4.1392736 -0.38690394 -0.50575835 2
-5.6968017 -0.53148538 -0.49722427 4
-5.9543896 -0.55446887 -0.3103627 9
-6.0413122 -0.56149954 -0.10418657 10
-5.9101267 -0.54826629 1.579061 21
-5.9130058 -0.5474925 1.3610488 6
-5.9763708 -0.55230755 1.1581237 6
nan nan nan 0
-5.7656727 -0.53080606 0.70623285 5
-6.0695443 -0.55771315 0.52990693 9
-6.0545497 -0.55526972 0.31663251 7
-6.1167483 -0.55989754 0.10654694 10
-1.9139565 -0.17351021 -0.50469732 4
-2.221508 -0.20100047 -0.50614017 2
-2.6240642 -0.23696174 -0.504237 2
-3.1859388 -0.28714031 -0.50059068 2
-4.1356564 -0.37200817 -0.50514901 2
-5.7283883 -0.51426882 -0.49983895 5
-6.09554 -0.5461576 -0.31766537 9
-6.1776786 -0.55243039 -0.10651912 10
-6.1332984 -0.54738271 1.6385506 16
-6.1381116 -0.54673249 1.4127485 13
-6.1591563 -0.5475235 1.1933917 12
-6.2216048 -0.55198044 0.9821071 13
nan nan nan 0
-6.2054181 -0.5483613 0.54167295 9
-6.1907449 -0.54597574 0.32369789 7
-6.2581058 -0.5508157 0.10899027 10
-1.9145505 -0.16682822 -0.50469732 3
-2.2270496 -0.19366677 -0.50726491 2
-2.6248755 -0.22780061 -0.504237 2
-3.1869218 -0.27601755 -0.50059068 2
-4.1369295 -0.35756978 -0.50514901 2
-5.7301488 -0.49426988 -0.49983895 5
-6.2317295 -0.53643942 -0.32470721 10
-6.3190351 -0.54284382 -0.10893804 10
-6.2314157 -0.53422117 1.6644156 14
-6.2273602 -0.53277874 1.4329789 15
-6.2294965 -0.53186625 1.2067364 14
-6.2234931 -0.53025961 0.9821071 10
-6.2241673 -0.52922285 0.76229268 16
-6.3512254 -0.53890973 0.5543105 8
-6.3319225 -0.53615874 0.33102491 8
-6.3994713 -0.5407536 0.1114336 10
-1.9103085 -0.1597417 -0.50340325 3
-2.2277119 -0.18589175 -0.50726491 2
-2.6256547 -0.21863669 -0.504237 2
-3.187866 -0.26489145 -0.50059068 2
-4.1381526 -0.34312701 -0.50514901 2
-5.7268748 -0.47385418 -0.49940318 5
-6.3679223 -0.52577686 -0.33174905 12
-6.4703627 -0.53309804 -0.11152975 10
-6.2428699 -0.51325774 1.6670021 12
-6.2340374 -0.51143622 1.4341027 8
-6.2410994 -0.51091897 1.2086427 8
-6.3828158 -0.52139896 1.007109 4
-6.216084 -0.50668681 0.76107401 8
-6.5069704 -0.52925438 0.56781965 8
-6.4631519 -0.52455491 0.33782858 6
-6.5657563 -0.53172886 0.11431325 9
-1.9108543 -0.15307251 -0.50340325 4
-2.2234912 -0.1777263 -0.50614017 2
-2.6264019 -0.20947011 -0.504237 2
-3.188771 -0.2537621 -0.50059068 2
-4.1393251 -0.32868007 -0.50514901 2
-5.7284942 -0.45386079 -0.49940318 5
-6.4991384 -0.51377642 -0.33853009 10
-6.6316648 -0.52308846 -0.11429423 10
-6.523891 -0.5134418 1.7420107 6
-6.2892132 -0.49386778 1.4464656 2
-6.492403 -0.50868344 1.2572553 5
-6.6553931 -0.52028507 1.0500811 13
-6.4256182 -0.50119412 0.78666657 4
-6.6627231 -0.51851821 0.58132881 9
-6.634201 -0.51513362 0.3467257 7
-6.722086 -0.52077746 0.11701838 9
-1.9113771 -0.14640145 -0.50340325 4
-2.224098 -0.16996378 -0.50614017 2
-2.6271172 -0.20030099 -0.504237 2
-3.1847134 -0.24225509 -0.49980852 2
-4.1453958 -0.3146047 -0.50575835 2
-5.7300434 -0.43386185 -0.49940318 5
-6.6154094 -0.49973795 -0.3445287 6
-6.7979589 -0.51233476 -0.11714511 9
-6.7375588 -0.50660008 1.7989138 11
-6.5532522 -0.49159172 1.5071565 4
-6.704608 -0.50176895 1.2982424 12
-6.7999897 -0.50771379 1.0727391 9
-6.6500344 -0.49535045 0.81408715 13
-6.8284125 -0.50743914 0.5957095 9
-6.8002815 -0.50415528 0.35536113 7
-6.893374 -0.50984716 0.11998529 8
-1.9118764 -0.13972861 -0.50340325 3
-2.2246776 -0.1621992 -0.50614017 2
-2.6278002 -0.19112942 -0.504237 2
-3.180614 -0.23077951 -0.49902633 2
-4.1464686 -0.30013266 -0.50575835 2
-5.731523 -0.41385761 -0.49940318 7
-6.7964044 -0.48955742 -0.35391781 5
-6.9692435 -0.5007847 -0.12008237 9
-6.9127159 -0.49551016 1.8454709 10
-6.8222084 -0.48782563 1.5689713 5
-6.8825693 -0.49093443 1.3325572 12
-6.9987659 -0.49799502 1.1039915 9
-6.8150826 -0.48372963 0.83419561 12
-6.9146075 -0.48958093 0.60311776 2
-6.9813061 -0.49307892 0.36478159 7
-7.0746393 -0.49842995 0.12312672 8
-1.9123526 -0.13305406 -0.50340325 3
-2.2252302 -0.15443262 -0.50614017 2
-2.6284513 -0.18195552 -0.504237 2
-3.1814003 -0.21967569 -0.49902633 2
-4.152442 -0.28599793 -0.50636768 2
-5.7329326 -0.39384833 -0.49940318 8
-6.9973316 -0.47948465 -0.36435017 13
-7.1505027 -0.48872668 -0.12319241 8
-7.1023321 -0.48418891 1.8959078 12
-6.9745545 -0.474255 1.6038123 28
-7.0654321 -0.47919562 1.3678252 11
-7.1729174 -0.48522785 1.1313374 9
-7.0048852 -0.47263283 0.85735077 10
-7.0256076 -0.47279927 0.61270487 3
-7.1623344 -0.48074478 0.37420207 7
-7.2658825 -0.48642123 0.12644267 8
-1.9128053 -0.1263779 -0.50340325 3
-2.2257559 -0.1466642 -0.50614017 2
-2.6241727 -0.17245753 -0.50328374 2
-3.1772201 -0.20824623 -0.49824417 2
-4.1534147 -0.27150145 -0.50636768 2
-5.7293019 -0.37351024 -0.49896741 8
-7.1833224 -0.46704313 -0.37400013 12
-7.351717 -0.4767032 -0.12664802 9
-7.2823114 -0.47092643 1.9437581 11
-6.995616 -0.45116058 1.608308 13
-7.2531934 -0.46650106 1.4040463 12
-7.3766336 -0.4731476 1.1633711 13
-7.1748815 -0.45894954 0.87806857 10
-7.1564579 -0.45651692 0.62403512 3
-7.3682756 -0.46873775 0.38493094 7
-7.4621158 -0.47339976 0.1298459 8
-1.9132348 -0.11970019 -0.50340325 3
-2.2262542 -0.13889396 -0.50614017 2
-2.6247587 -0.1632964 -0.50328374 2
-3.1828563 -0.19746016 -0.49902633 2
-4.1543374 -0.2570017 -0.50636768 2
-5.7305708 -0.35350895 -0.49896741 7
-7.4041944 -0.45545474 -0.3854757 11
-7.5479412 -0.46297467 -0.13001724 9
-7.4863858 -0.4578875 1.9980748 14
nan nan nan 0
-7.4311504 -0.45190552 1.438361 8
-7.5557036 -0.45815632 1.1914983 9
-7.3894472 -0.44678059 0.90427047 10
-7.332026 -0.44202447 0.63928741 3
-7.5692325 -0.454999 0.39539814 7
-7.7032561 -0.46170604 0.13403447 8
-1.913641 -0.11302102 -0.50340325 3
-2.2267256 -0.13112204 -0.50614017 2
-2.6253128 -0.15413329 -0.50328374 2
-3.1835263 -0.18634872 -0.49902633 2
-4.1552091 -0.24249877 -0.50636768 2
-5.7267971 -0.33321407 -0.49853161 5
-7.6001468 -0.44088408 -0.39564726 11
-7.7741022 -0.44961381 -0.13390481 8
-7.6856341 -0.44315141 2.0510981 11
-7.7865653 -0.44760755 1.7903805 18
-7.5355873 -0.43186066 1.4583781 4
-7.759409 -0.44332904 1.223532 16
-7.6188784 -0.43396583 0.93230039 10
-7.7761183 -0.44156054 0.67807168 13
-7.8100624 -0.44212052 0.40795875 6
-7.9194469 -0.44692609 0.13778675 8
-1.9140239 -0.10634048 -0.50340325 3
-2.2223051 -0.12307909 -0.50501537 2
-2.6258347 -0.1449683 -0.50328374 2
-3.1940191 -0.17577773 -0.50059068 2
-4.1510754 -0.2277211 -0.50575835 2
-5.7279253 -0.31322178 -0.49853161 4
-7.8210144 -0.42630965 -0.40712285 11
-8.0002594 -0.43467954 -0.13779236 8
-7.90416 -0.42807454 2.1092944 10
-7.958354 -0.42961654 1.8297172 14
-7.7821097 -0.41874015 1.5060375 5
-8.0715923 -0.43290383 1.2727544 8
-7.764061 -0.41505104 0.94997144 21
-7.8074555 -0.41600424 0.68068635 16
-8.0259619 -0.42624217 0.419211 6
-8.1905394 -0.43354905 0.1424989 8
-1.9192065 -0.09990973 -0.50469732 3
-2.2227211 -0.11532105 -0.50501537 2
-2.6263249 -0.13580154 -0.50328374 2
-3.1896815 -0.16437329 -0.49980852 2
-4.151845 -0.21322975 -0.50575835 1
-5.7240095 -0.29297107 -0.49809581 3
-8.0518436 -0.41070724 -0.41912007 11
-8.2713404 -0.42045593 -0.14245744 10
-8.1660843 -0.41367653 2.1791301 11
-8.2079639 -0.41436183 1.8870363 15
-8.2835398 -0.41672769 1.6032627 24
-8.3936596 -0.42079899 1.3235397 23
-8.1669426 -0.40800402 0.99932855 12
-8.3361902 -0.41500071 0.72687894 14
-8.3116608 -0.41232535 0.43412676 9
-8.4067087 -0.41556963 0.14625116 27
-1.9195435 -0.093209833 -0.50469732 3
-2.22311 -0.1075616 -0.50501537 2
-2.6218803 -0.12639679 -0.5023306 2
-3.1902359 -0.15323824 -0.49980852 2
-4.1525636 -0.1987358 -0.50575835 2
-5.7200222 -0.27275154 -0.49766007 3
-8.3375187 -0.39610484 -0.43398619 15
-8.4225664 -0.39867204 -0.14504914 32
-8.4183521 -0.39699998 2.2463791 10
-8.4478264 -0.39691228 1.9421077 10
-8.4271278 -0.39446571 1.630905 33
-8.439476 -0.39356753 1.3305714 18
-8.406271 -0.39054874 1.0285772 31
-8.4321241 -0.390275 0.73515868 34
-8.4227819 -0.38836935 0.43988368 26
-8.4480591 -0.38805735 0.14694926 62
-1.9198573 -0.086508811 -0.50469732 3
-2.2186053 -0.099582411 -0.50389069 2
-2.6223054 -0.11724395 -0.5023306 2
-3.1907513 -0.1421013 -0.49980852 2
-4.1482744 -0.18401951 -0.50514901 2
-5.7109871 -0.25234354 -0.4967885 3
-8.4336309 -0.37117037 -0.43894157 30
-8.5138073 -0.37321022 -0.14660417 11
-8.6609488 -0.37814581 2.3110416 10
-8.7412081 -0.38012144 2.009542 9
-8.4529715 -0.3661091 1.6356711 6
-9.3831911 -0.40475729 1.4798017 16
-8.4720402 -0.36397213 1.0364988 18
nan nan nan 0
-8.5338354 -0.36364263 0.44564062 10
-9.3683958 -0.3975668 0.16300547 68
-1.9201475 -0.079806738 -0.50469732 3
-2.2189393 -0.091837421 -0.50389069 2
-2.6177945 -0.10788756 -0.5013774 2
-3.1912279 -0.13096264 -0.49980852 2
-4.1588082 -0.16994344 -0.50636768 2
-5.7068563 -0.23220441 -0.4963527 3
-8.5346556 -0.34577179 -0.44415772 3
-9.3742323 -0.37814748 -0.16146329 18
-8.9710789 -0.36031637 2.39381 12
-9.0637798 -0.36245516 2.0837197 8
nan nan nan 0
-9.3845463 -0.37200141 1.4798017 17
-9.3906498 -0.3706018 1.1492279 28
-9.3852768 -0.36874917 0.8183924 23
-9.3832397 -0.36702892 0.49012622 15
-9.3797169 -0.36525157 0.16317998 70
-1.9204144 -0.073103681 -0.50469732 3
-2.2143779 -0.083906837 -0.50276589 2
-2.6132503 -0.098564096 -0.50042421 2
-3.1916654 -0.11982237 -0.49980852 2
-4.1345801 -0.15449888 -0.50332099 2
-5.6976771 -0.21191211 -0.49548116 2
nan nan nan 0
-9.375495 -0.34542298 -0.16146329 19
-9.0108948 -0.33041513 2.404156 14
-9.3960686 -0.34289676 2.1601453 8
-9.4853859 -0.34449854 1.8358407 14
-9.4104652 -0.34013289 1.4837084 12
-9.3819675 -0.33746329 1.1480092 17
-9.3815298 -0.33580807 0.81795669 16
-9.3694925 -0.33373985 0.48934114 15
-9.3909264 -0.33286223 0.16335452 57
-1.9206579 -0.066399738 -0.50469732 3
-2.2146573 -0.076176703 -0.50276589 2
-2.6135786 -0.08944156 -0.50042421 2
-3.1920643 -0.10868065 -0.49980852 2
-4.1896529 -0.14191361 -0.51002377 2
-5.6934037 -0.19185443 -0.49504536 2
nan nan nan 0
-9.5015545 -0.31685984 -0.16362302 7
-9.01682 -0.29911935 2.4054492 14
-9.7575436 -0.32198685 2.2433143 7
-9.8691721 -0.32394612 1.9101893 15
-10.01378 -0.3269431 1.5790281 4
-9.4227686 -0.30600068 1.152884 9
-9.7211733 -0.31399277 0.84758955 4
-9.6351023 -0.30952933 0.50321019 4
-10.051595 -0.32115307 0.1748731 29
-1.9208779 -0.059694987 -0.50469732 3
-2.2100403 -0.068295173 -0.50164115 2
-2.6187809 -0.080468662 -0.5013774 2
-3.1973603 -0.097688422 -0.50059068 2
-4.1454787 -0.12593192 -0.50453967 2
-5.6940389 -0.17197959 -0.49504536 2
-9.5010605 -0.28530502 -0.49449384 6
-10.252157 -0.30606854 -0.17658156 10
-9.0178089 -0.26764295 2.4054492 14
-10.128722 -0.29884481 2.3287311 8
-10.203864 -0.29927939 1.9750061 10
-10.478889 -0.30551541 1.6524713 12
-10.063704 -0.29165259 1.2314897 4
-10.324659 -0.29741177 0.90031886 14
-10.289958 -0.29461476 0.53749025 11
-10.542382 -0.29999381 0.18342479 60
-1.9210838 -0.052654218 -0.50469732 3
-2.2102759 -0.060194511 -0.50164115 2
-2.6190581 -0.070869818 -0.5013774 2
-3.1976969 -0.085968845 -0.50059068 2
-4.1359906 -0.11047212 -0.50332099 2
-5.6896515 -0.15097661 -0.49460959 2
-9.4920607 -0.25021684 -0.49397221 3
-10.673003 -0.27948314 -0.18383834 10
-9.0283861 -0.23484042 2.4080355 12
-10.417105 -0.26914349 2.3950415 13
-10.621961 -0.27258119 2.0560272 11
-10.904519 -0.27792776 1.7196641 13
-10.540975 -0.26682103 1.289987 13
-10.753908 -0.27033287 0.93779582 13
-10.705271 -0.26724061 0.55920964 11
-10.973213 -0.27201301 0.19092931 58
-1.9212559 -0.045948062 -0.50469732 3
-2.2153428 -0.052594464 -0.50276589 2
-2.6241965 -0.061842803 -0.5023306 2
-3.1979775 -0.07480628 -0.50059068 2
nan nan nan 0
-5.6901441 -0.13111509 -0.49460959 2
-9.5527782 -0.21845168 -0.49710196 5
-11.158717 -0.2532275 -0.1922182 9
-9.0146656 -0.20299783 2.404156 9
