# .PCD v0.7 - Point Cloud Data file format
VERSION 0.7
FIELDS x y z intensity
SIZE 4 4 4 4
TYPE F F F F
COUNT 1 1 1 1
WIDTH 1430
HEIGHT 1
VIEWPOINT 0 0 0 1 0 0 0
POINTS 1430
DATA ascii
1.4812589 2.065191 0.48612604 8
1.4848626 2.0694528 0.39690566 8
1.4750153 2.0549712 0.30589205 9
1.4981464 2.0864284 0.22137558 12
1.4817275 2.0628023 0.13110156 8
1.4838682 2.0650218 0.043718275 11
1.1087054 1.5400894 -0.49822688 4
1.2693682 1.7626152 -0.49264312 4
1.4626282 2.0302246 -0.47850087 5
1.497815 2.078301 -0.39969036 10
1.5141433 2.1001847 -0.31320456 11
1.5025131 2.083286 -0.22137593 10
1.4889795 2.0637622 -0.13092612 7
1.494046 2.0700231 -0.043454267 9
1.4869379 2.059417 0.66990465 8
1.491536 2.065026 0.57881105 8
1.494208 2.0679648 0.4880324 8
1.4949703 2.0682592 0.39768693 8
1.4850874 2.0538313 0.30650139 8
1.5083398 2.085222 0.22181135 12
1.4918462 2.0616627 0.13136324 8
1.493999 2.0638793 0.04380554 11
1.1140746 1.5362099 -0.49822688 3
1.2755131 1.7581735 -0.49264312 3
1.4697062 2.0251067 -0.47850087 5
1.5108634 2.0810528 -0.40125474 9
1.5243815 2.098902 -0.31381392 11
1.5127035 2.0820582 -0.2218117 9
1.4991097 2.0625911 -0.13118692 8
1.5042025 2.0688386 -0.04354066 8
1.4969586 2.0581203 0.67119795 7
1.5016018 2.0637467 0.57993495 8
1.5043058 2.0667048 0.48898563 8
1.5050879 2.0670209 0.39846826 9
1.4951694 2.0526464 0.30711073 8
1.5185425 2.0839701 0.22224714 12
1.5049161 2.0645125 0.1318866 8
1.5041397 2.062691 0.043892797 12
1.122279 1.5362113 -0.49952096 3
1.2816426 1.7537105 -0.49264312 3
1.4767661 2.019964 -0.47850087 6
1.5181185 2.0757663 -0.40125474 10
1.5375594 2.1015785 -0.3150326 12
1.5229038 2.0807848 -0.22224748 9
1.5121999 2.0654032 -0.13170855 8
1.5143688 2.0676084 -0.04362705 8
1.5069882 2.0567782 0.67249113 8
1.5145568 2.0663514 0.58218277 9
1.5144132 2.0653996 0.4899388 8
1.5152147 2.0657365 0.39924955 9
1.5052612 2.0514159 0.30772007 8
1.5317025 2.0866871 0.22311871 12
1.5150687 2.0632713 0.13214828 8
1.5172497 2.0654857 0.044067323 11
1.1276346 1.5322845 -0.49952096 4
1.2877562 1.7492261 -0.49264312 3
1.4838082 2.0147967 -0.47850087 5
1.5282842 2.0744305 -0.40203691 10
1.5478301 2.1001935 -0.31564194 12
1.5331135 2.0794652 -0.22268325 9
1.5223643 2.0641308 -0.13196936 7
1.524545 2.0663326 -0.043713439 8
1.5170267 2.0553916 0.67378443 8
1.5246544 2.0649717 0.58330667 8
1.5245297 2.0640488 0.49089199 8
1.5282861 2.0683789 0.40081221 8
1.5153629 2.0501399 0.30832943 8
1.5419384 2.0853329 0.22355449 11
1.5252311 2.0619845 0.13240996 8
1.5274242 2.0641959 0.044154584 11
1.1358526 1.5322189 -0.50081509 3
1.2938544 1.7447203 -0.49264312 3
1.4908321 2.0096049 -0.47850087 5
1.541402 2.0770142 -0.40360126 10
1.5581101 2.0987628 -0.31625131 12
1.5463027 2.0820987 -0.22355483 9
1.5325378 2.0628121 -0.13223016 8
1.5347307 2.0650108 -0.043799829 9
1.5299555 2.0578353 0.67637092 7
1.5376683 2.0674558 0.58555448 8
1.5346552 2.0626526 0.49184516 8
1.5384452 2.0669932 0.40159351 8
1.5284374 2.0527987 0.30954811 8
1.5521836 2.0839324 0.22399026 12
1.5354027 2.0606518 0.13267164 8
1.5376079 2.0628598 0.044241846 11
1.1383044 1.5243748 -0.49952096 3
1.2999368 1.7401931 -0.49264312 3
1.4978378 2.0043888 -0.47850087 5
1.5515996 2.0755768 -0.40438342 10
1.5683986 2.097285 -0.31686065 11
1.5565448 2.0806768 -0.2239906 10
1.5427208 2.0614479 -0.13249098 7
1.5449256 2.063643 -0.043886222 8
1.5400245 2.0563481 0.67766416 8
1.547797 2.0659747 0.58667839 8
1.5418458 2.0572829 0.49184516 8
1.5486135 2.0655618 0.40237483 8
1.5385714 2.0514214 0.31015745 8
1.5624378 2.0824859 0.22442605 11
1.5455836 2.059273 0.13293332 7
1.5478009 2.0614779 0.044329111 11
1.1436185 1.5203922 -0.49952096 3
1.3030738 1.7317519 -0.49151835 3
1.5048254 1.9991481 -0.47850087 6
1.5618058 2.0740929 -0.40516558 9
1.5816818 2.0997257 -0.31807932 11
1.5667958 2.0792089 -0.22442639 10
1.5499072 2.0560501 -0.13249098 8
1.5551298 2.0622292 -0.043972608 8
1.5501019 2.0548158 0.67895746 7
1.5579339 2.0644484 0.58780229 8
1.551975 2.0558057 0.49279836 7
1.5617667 2.0680256 0.40393746 8
1.5487142 2.0499978 0.31076682 8
1.575704 2.0849669 0.2252976 11
1.5557736 2.0578485 0.133195 7
1.5580028 2.0600495 0.044416368 11
1.1401689 1.5048424 -0.4956387 3
1.3061681 1.7233104 -0.49039361 3
1.51476 1.9977944 -0.47945404 5
1.5720208 2.0725634 -0.40594777 9
1.5920014 2.0981452 -0.31868869 11
1.5770555 2.0776944 -0.22486216 9
1.5540551 2.0466506 -0.13223016 7
1.5683665 2.0647502 -0.04414539 8
1.5601871 2.0532379 0.68025064 7
1.5680789 2.0628762 0.5889262 8
1.5621125 2.0542829 0.49375153 7
1.5719659 2.0664921 0.40471876 8
1.5588658 2.0485287 0.31137615 8
1.585989 2.0834172 0.22573337 12
1.5689975 2.0603502 0.13371836 8
1.5682139 2.0585754 0.044503633 11
1.1512749 1.5085319 -0.49822688 3
1.3033066 1.7071234 -0.48701933 3
1.5217243 1.9924947 -0.47945404 5
1.5852419 2.0749116 -0.40751213 10
1.6023291 2.0965183 -0.31929803 12
1.5873238 2.0761337 -0.22529794 9
1.5611897 2.0412135 -0.13223016 7
1.5786022 2.0632334 -0.04423178 8
1.5702804 2.051615 0.68154395 7
1.5782322 2.0612586 0.5900501 8
1.575243 2.0566106 0.49565789 7
1.5821736 2.0649126 0.40550008 8
1.5690262 2.0470135 0.31198549 8
1.596283 2.0818212 0.22616915 11
1.5852969 2.0667465 0.13450339 7
1.5784333 2.057055 0.044590894 11
1.1535902 1.5006751 -0.49693277 3
1.3033179 1.6948396 -0.48476982 3
1.5316629 1.9910612 -0.48040724 5
1.5954869 2.0732791 -0.40829429 9
1.6126649 2.0948448 -0.3199074 11
1.5976003 2.0745268 -0.22573371 9
1.5622108 2.0278404 -0.13170855 9
1.591898 2.0656302 -0.044404563 8
1.58333 2.053771 0.68413043 8
1.5913683 2.0634527 0.59229791 8
1.5854106 2.0549858 0.49661112 7
1.592389 2.0632865 0.40628135 8
1.5822276 2.0493808 0.3132042 8
1.6065845 2.0801785 0.22660492 12
1.6016599 2.0730538 0.13528845 6
1.5886616 2.0554881 0.044678159 12
1.1617783 1.5004579 -0.49822688 4
1.2913263 1.6671702 -0.47802129 3
1.5416101 1.9895824 -0.48136041 4
1.6087651 2.0755036 -0.40985861 10
1.6260495 2.0970466 -0.32112607 10
1.6109376 2.0768089 -0.22660528 9
1.5907072 2.049989 -0.13353421 7
1.6021641 2.0640099 -0.044490952 9
1.5934517 2.0520465 0.68542367 7
1.6015502 2.061733 0.59342182 8
1.5985975 2.0571907 0.49851748 7
1.6056435 2.0655136 0.40784398 8
1.5924183 2.0477629 0.31381357 8
1.6168945 2.0784893 0.22704072 11
1.6180859 2.079272 0.13607349 17
1.6019686 2.0578198 0.044852681 12
nan nan nan 0
1.312415 1.6816292 -0.48364502 3
1.5519123 1.9877877 -0.48231363 5
1.6194012 2.0734854 -0.41064081 10
1.6367799 2.0949833 -0.32173541 11
1.621606 2.074815 -0.22704107 9
1.6074367 2.0559461 -0.13431664 20
1.6158782 2.0659997 -0.044663735 7
1.6039383 2.0499964 0.68671691 7
1.6151017 2.0635221 0.59566957 7
1.6121786 2.059047 0.50042385 7
1.6162484 2.0635028 0.4086253 10
1.6029737 2.045819 0.31442288 9
1.6275742 2.0764692 0.22747648 11
1.6318579 2.0811858 0.13659684 14
1.6125857 2.0558681 0.044939946 12
nan nan nan 0
1.3242986 1.6846981 -0.48589453 3
1.5588417 1.9823583 -0.48231363 5
1.6327357 2.075583 -0.41220516 9
1.6471518 2.0931571 -0.32234478 11
1.6350007 2.0769696 -0.22791262 9
1.6269603 2.0660141 -0.13535988 13
1.6261737 2.0642736 -0.04475012 6
1.6170634 2.0519722 0.68930346 8
1.6253113 2.0616982 0.59679353 8
1.6223954 2.0572608 0.50137705 8
1.6295592 2.065603 0.41018793 7
1.6131797 2.0441067 0.31503224 10
1.637899 2.0746849 0.22791228 12
1.6422073 2.0793955 0.13685852 12
1.6228564 2.0541451 0.045027204 10
nan nan nan 0
1.3326075 1.6843501 -0.48701933 4
1.5681076 1.9812999 -0.4832668 5
1.6423137 2.0743148 -0.41298732 10
1.6568007 2.0918624 -0.32295412 11
1.6446108 2.075727 -0.22834839 8
1.6396458 2.0687187 -0.1358815 11
1.6357569 2.0630722 -0.044836514 8
1.6265031 2.0506659 0.69059664 7
1.6378368 2.0642149 0.59904134 7
1.6349535 2.0598426 0.50328338 6
1.6391114 2.0643411 0.41096923 7
1.6257669 2.0468009 0.31625095 7
1.6506063 2.0773287 0.22878383 11
1.6518387 2.078135 0.1371202 12
1.6261851 2.0451279 0.044939946 12
nan nan nan 0
1.3536596 1.6987388 -0.49264312 3
1.5750141 1.9758141 -0.4832668 5
1.6557024 2.076292 -0.41455165 9
1.6671876 2.089946 -0.32356349 10
1.6549532 2.0738668 -0.22878417 9
1.6499721 2.0668848 -0.1361423 13
1.6460676 2.0612559 -0.044922903 7
1.6396805 2.0525231 0.69318318 7
1.6480738 2.0622914 0.60016519 8
1.6482633 2.0617907 0.50518978 8
1.6493917 2.062464 0.41175056 8
1.6391019 2.0488639 0.31746963 6
1.6640718 2.0793319 0.22965539 11
1.6622032 2.0762544 0.13738188 13
1.633314 2.039439 0.044939946 9
nan nan nan 0
1.3446262 1.6747712 -0.48701933 4
1.5853189 1.9738551 -0.48422 4
1.6663944 2.0740592 -0.41533384 10
1.6779451 2.0876894 -0.32417279 9
1.6656642 2.0716691 -0.22921994 9
1.660666 2.0647144 -0.13640311 11
1.6567454 2.059104 -0.045009293 10
1.6532494 2.0540247 0.69576973 7
1.658677 2.0600319 0.60128915 7
1.6588881 2.0595582 0.50614297 8
1.6631371 2.064096 0.41331318 10
1.6497147 2.0467062 0.31807896 9
1.6748083 2.0770962 0.23009115 11
1.6729367 2.0740342 0.13764356 14
1.6313599 2.0217671 0.044678159 11
nan nan nan 0
1.3535274 1.6738555 -0.48814404 3
1.5952861 1.9721252 -0.48517317 4
1.6767305 2.0720687 -0.416116 10
1.6914674 2.0895343 -0.3253915 12
1.6791549 2.0735841 -0.23009151 8
1.6710061 2.0627849 -0.13666391 12
1.6670704 2.0571923 -0.045095682 7
1.666492 2.0557449 0.69835621 7
1.6689262 2.0580134 0.602413 8
1.6722517 2.0613785 0.50804937 6
1.6734438 2.0621123 0.41409445 7
1.6599768 2.0447881 0.31868833 10
1.6883286 2.0789707 0.23096271 9
1.6833147 2.0720575 0.13790524 13
1.6636305 2.0470972 0.045376252 10
nan nan nan 0
1.3532089 1.6615655 -0.48589453 3
1.6052608 1.9703501 -0.48612636 4
1.6870732 2.0700314 -0.41689819 11
1.7018868 2.0874636 -0.32600087 12
1.689531 2.0715702 -0.2305273 9
1.6845094 2.0646772 -0.13718553 11
1.6774023 2.0552337 -0.045182075 9
1.679767 2.0573978 0.70094275 8
1.6791821 2.0559487 0.60353696 8
1.685648 2.0631306 0.50995576 17
1.6837572 2.0600824 0.41487581 8
1.6733871 2.0466654 0.31990701 7
1.7018824 2.0807757 0.23183426 10
1.6936991 2.0700336 0.13816692 14
1.6770989 2.049015 0.045550779 10
nan nan nan 0
nan nan nan 0
1.6121289 1.9647347 -0.48612636 3
1.7005551 2.0717642 -0.41846254 10
1.7154617 2.0891812 -0.32721955 10
1.6999131 2.0695088 -0.23096307 10
1.6948762 2.0626426 -0.13744634 13
1.6940898 2.0609519 -0.045441244 9
1.6900058 2.0552523 0.70223594 7
1.6925385 2.0576 0.60578477 7
1.699077 2.0648143 0.5118621 12
1.6972153 2.0618184 0.4164384 6
1.6836755 2.0446424 0.32051635 7
1.7123022 2.0786669 0.23227006 9
1.7040901 2.0679622 0.1384286 13
1.6937808 2.0547209 0.045812566 10
nan nan nan 0
1.3647758 1.6520779 -0.48589453 3
1.6221037 1.9628787 -0.48707953 4
1.710923 2.0696216 -0.41924468 10
1.7259067 2.0870049 -0.32782891 10
1.7134767 2.071238 -0.23183462 8
1.7052492 2.0605605 -0.13770714 13
1.7108375 2.0665786 -0.045700416 7
1.703331 2.0567803 0.70482248 7
1.7028188 2.0554314 0.60690868 8
1.7125381 2.0664291 0.51376849 11
1.707554 2.0596833 0.4172197 9
1.6908025 2.0387528 0.32051635 9
1.7227279 2.0765107 0.23270582 12
1.7176757 2.0696857 0.13895196 14
1.7073295 2.0564888 0.045987088 10
nan nan nan 0
1.3705343 1.6473039 -0.48589453 3
1.6289456 1.9572046 -0.48707953 4
1.7244567 2.0712276 -0.42080906 10
1.7395332 2.0885942 -0.32904762 11
1.7270731 2.0728979 -0.23270617 10
1.7188253 2.0622666 -0.13822877 12
1.7340479 2.0797925 -0.046132363 6
1.7135938 2.0545313 0.70611572 7
1.7131044 2.0532157 0.60803258 8
1.722886 2.0642071 0.51472169 12
1.7178984 2.0575013 0.41800103 6
1.7042716 2.0404565 0.32173505 8
1.7299657 2.0704846 0.23270582 9
1.728092 2.0675085 0.13921364 13
1.7177042 2.0543518 0.046074349 11
nan nan nan 0
1.3731471 1.6387756 -0.48476982 3
1.6357676 1.9515065 -0.48707953 4
1.7348491 2.0689795 -0.42159122 10
1.7500025 2.0863116 -0.32965693 11
1.7407017 2.0744879 -0.23357774 8
1.7292237 2.0600789 -0.13848959 11
1.7348676 2.0660698 -0.045959584 9
1.7238615 2.0522354 0.70740896 7
1.7233953 2.0509534 0.60915649 7
1.7363975 2.065695 0.51662809 11
1.72507 2.051492 0.41800103 8
1.7145783 2.0382926 0.32234439 7
1.7403897 2.0682447 0.23314162 12
1.7417294 2.0691035 0.139737 13
1.7280852 2.0521677 0.046161614 9
nan nan nan 0
1.4071372 1.6674823 -0.49489263 3
1.6425695 1.9457848 -0.48707953 4
1.7484332 2.0704575 -0.42315558 10
1.7636795 2.0877724 -0.33087564 10
1.7511474 2.0722036 -0.23401353 7
1.7428514 2.0616565 -0.1390112 13
1.7356125 2.052367 -0.045786802 7
1.7341341 2.0498927 0.70870227 6
1.7336911 2.0486441 0.61028039 7
1.7467688 2.0633671 0.51758122 10
1.735412 2.0492265 0.41878232 7
1.7248906 2.036082 0.32295373 9
1.7508188 2.0659568 0.23357739 10
1.7521702 2.0668197 0.13999867 12
1.7384712 2.0499353 0.046248872 11
nan nan nan 0
1.3908644 1.6365739 -0.48701933 3
1.6493517 1.9400394 -0.48707953 3
1.7588491 2.0681036 -0.42393777 11
1.7741723 2.0853832 -0.331485 11
1.7648268 2.0736649 -0.23488508 9
1.756511 2.0631642 -0.13953282 12
1.7265589 2.0272663 -0.045354854 9
1.7444111 2.0475037 0.70999545 7
1.7471522 2.0499961 0.6125282 8
1.7571453 2.0609925 0.51853442 11
1.7457595 2.0469141 0.41956365 10
1.7384293 2.0375991 0.32417244 8
1.764487 2.0674102 0.23444895 11
1.7658584 2.0682859 0.14052203 12
1.7521099 2.0514574 0.046423398 11
nan nan nan 0
1.3965685 1.631709 -0.48701933 3
1.6561136 1.9342701 -0.48707953 4
1.7692699 2.065702 -0.4247199 10
1.7878988 2.0867145 -0.33270368 11
1.775296 2.0712738 -0.23532088 9
1.7669519 2.0608108 -0.13979362 11
1.7498983 2.0402002 -0.045786802 8
1.7546927 2.0450675 0.71128875 7
1.7574707 2.0475819 0.61365211 9
1.7707236 2.062294 0.52044082 12
1.7593294 2.0483005 0.42112628 7
1.7487657 2.0352826 0.32478178 9
1.7749395 2.0650156 0.23488472 10
1.7763226 2.0658953 0.14078373 13
1.7625201 2.0491192 0.046510659 10
nan nan nan 0
1.399075 1.6231339 -0.48589453 3
1.6628554 1.9284774 -0.48707953 4
1.782921 2.0669925 -0.42628425 10
1.7984138 2.0842183 -0.33331302 10
1.7857698 2.0688348 -0.23575665 9
1.7806617 2.0621891 -0.14031525 12
1.7700812 2.0492125 -0.046132363 8
1.7681363 2.0462391 0.71387523 7
1.7709795 2.0488064 0.61589992 7
1.781122 2.0598133 0.52139401 11
1.7729304 2.0496168 0.4226889 7
1.762354 2.0366716 0.32600048 8
1.7886568 2.0663395 0.23575628 10
1.7900603 2.0672317 0.14130709 13
1.7729354 2.0467329 0.04659792 10
1.2405593 1.4296184 -0.49693277 3
1.4047322 1.6182404 -0.48589453 3
1.6663588 1.9189553 -0.48612636 4
1.7933639 2.0644846 -0.42706645 10
1.8089333 2.0816739 -0.33392239 11
1.7962484 2.0663478 -0.23619244 9
1.7911255 2.0597286 -0.14057605 12
1.7870668 2.0543368 -0.046391536 7
1.7784388 2.0436981 0.71516848 7
1.7845184 2.0499618 0.61814773 7
1.7915246 2.0572851 0.52234721 12
1.7865618 2.0508635 0.4242515 8
1.7759737 2.0379903 0.32721916 7
1.8024049 2.0675924 0.23662783 10
1.8038287 2.0684969 0.14183044 13
1.7866416 2.0480661 0.046772443 10
1.245542 1.4252794 -0.49693277 3
1.4103724 1.613327 -0.48589453 3
1.6730472 1.9131269 -0.48612636 4
1.8070626 2.0656459 -0.4286308 11
1.8227252 2.0828161 -0.33514106 10
1.8100122 2.0675609 -0.23706399 9
1.8048836 2.0609765 -0.14109766 12
1.8008155 2.0556071 -0.046564315 7
1.7919283 2.0447426 0.71775496 8
1.7980864 2.0510471 0.62039554 7
1.8019311 2.054709 0.52330035 11
1.8002236 2.0520394 0.42581412 7
1.7896235 2.0392387 0.32843786 7
1.8161836 2.0687747 0.2374994 11
1.8143331 2.0659394 0.14209211 13
1.7970794 2.045573 0.046859708 10
1.2473189 1.4172972 -0.4956387 3
1.4159954 1.608394 -0.48589453 3
1.6764709 1.9035916 -0.48517317 4
1.8175265 2.063031 -0.42941296 10
1.8332657 2.080164 -0.3357504 10
1.8205122 2.0649662 -0.23749976 9
1.8186722 2.0621536 -0.14161928 12
1.8145946 2.0568063 -0.046737097 7
1.8022507 2.0420964 0.71904826 7
1.811684 2.0520627 0.62264335 7
1.8155907 2.0557647 0.52520674 11
1.8139151 2.0531449 0.42737675 7
1.8033038 2.0404165 0.32965657 7
1.8299921 2.0698857 0.23837095 10
1.8281492 2.0670741 0.14261547 13
1.8108341 2.0467761 0.047034234 10
1.2554619 1.4165491 -0.49693277 3
1.4248331 1.607087 -0.48701933 3
1.6798487 1.8940562 -0.48422 4
1.8312718 2.0640624 -0.43097728 11
1.84381 2.0774639 -0.33635977 10
1.8343232 2.0660484 -0.23837131 8
1.8291752 2.059526 -0.1418801 12
1.8250837 2.0541968 -0.04682349 7
1.8125767 2.039403 0.72034144 7
1.8220731 2.0493672 0.6237672 7
1.8260176 2.0530822 0.52615994 11
1.8243538 2.0504906 0.42815807 7
1.817014 2.0415235 0.33087525 7
1.8405186 2.0672054 0.23880674 10
1.8386744 2.0644088 0.14287716 12
1.8246188 2.0479076 0.047208756 11
1.257183 1.4085549 -0.4956387 3
1.4304341 1.6021036 -0.48701933 3
1.68645 1.8881809 -0.48422 4
1.8417557 2.0613399 -0.43175948 10
1.8576648 2.0784154 -0.33757848 10
1.844844 2.0633461 -0.23880711 9
1.8430107 2.0605719 -0.14240173 12
1.8389099 2.0552649 -0.046996269 7
1.8261267 2.040261 0.72292799 7
1.8357155 2.0502541 0.62601501 7
1.8397225 2.054008 0.52806634 12
1.8380914 2.0514662 0.4297207 7
1.8274418 2.0388641 0.33148462 8
1.8543736 2.0681856 0.23967829 10
1.8525374 2.065412 0.14340052 13
1.835095 2.0452473 0.047296021 10
1.2620921 1.404158 -0.4956387 3
1.4360179 1.5971007 -0.48701933 3
1.689748 1.878633 -0.4832668 4
1.8522431 2.0585697 -0.43254164 10
1.8682284 2.0756068 -0.33818778 10
1.8587009 2.0642972 -0.23967867 8
1.8535339 2.0578361 -0.14266253 12
1.8494194 2.0525475 -0.047082655 7
1.8364712 2.037462 0.72422123 7
1.8461237 2.0474522 0.62713897 8
1.8501686 2.0512183 0.52901947 11
1.8518578 2.0523708 0.43128332 7
1.8411978 2.0398407 0.33270329 8
1.8682578 2.0690937 0.24054985 10
1.8630824 2.0626383 0.14366218 13
1.8489264 2.0462477 0.047470544 10
1.2669859 1.3997439 -0.4956387 3
1.441584 1.5920783 -0.48701933 3
1.6962955 1.8727232 -0.4832668 5
1.8660496 2.0594106 -0.43410599 10
1.8821282 2.0764267 -0.33940649 10
1.8692411 2.0614862 -0.24011444 9
1.8674152 2.0587504 -0.14318414 11
1.8599323 2.0497818 -0.047169048 7
1.8500644 2.0381916 0.72680777 7
1.8598096 2.0482094 0.62938678 7
1.8639178 2.0520141 0.53092587 11
1.8623319 2.0495491 0.43206459 7
1.8516451 2.0370736 0.33331263 7
1.8788197 2.0662448 0.24098562 10
1.8769908 2.0635099 0.14418554 12
1.8594222 2.0434787 0.047557805 10
1.2718642 1.3953128 -0.4956387 3
1.4471326 1.5870365 -0.48701933 3
1.7028222 1.8667908 -0.4832668 5
1.8798842 2.0601802 -0.43567032 10
1.8927106 2.0735097 -0.34001586 10
1.8831429 2.0623052 -0.24098599 8
1.8779578 2.0559061 -0.14344496 12
1.8704481 2.0469673 -0.047255438 7
1.8604264 2.0352862 0.72810096 7
1.8702356 2.0453002 0.63051063 7
1.8743823 2.0491168 0.53187907 11
1.8761426 2.0503228 0.43362722 7
1.8620954 2.0342584 0.333922 7
1.8927485 2.0670211 0.24185717 10
1.887555 2.0606272 0.14444724 12
1.8732988 2.0443475 0.047732327 10
1.276727 1.3908646 -0.4956387 3
1.4526635 1.5819753 -0.48701933 3
1.7093281 1.8608354 -0.4832668 5
1.8937471 2.0608783 -0.43723467 11
1.906654 2.0741978 -0.34123453 10
1.8970733 2.0630522 -0.24185754 9
1.8918835 2.0566878 -0.14396657 11
1.8843524 2.0477831 -0.047428217 7
1.8740617 2.0358868 0.73068756 7
1.8839642 2.0459275 0.63275844 7
1.8881745 2.0497818 0.53378546 11
1.8866347 2.0473931 0.43440855 7
1.8759122 2.035044 0.33514068 7
1.9067053 2.0677249 0.24272874 10
1.9015074 2.0613661 0.1449706 13
1.8872042 2.0451441 0.047906853 9
1.2815741 1.3863995 -0.4956387 3
1.4548693 1.5733181 -0.48589453 3
1.7158132 1.8548574 -0.4832668 5
1.9076376 2.0615048 -0.43879902 10
1.9206251 2.0748134 -0.34245324 10
1.9110316 2.0637269 -0.24272911 9
1.9024444 2.0537345 -0.14422737 12
1.8948869 2.0448599 -0.04751461 7
1.8877238 2.036417 0.73327404 7
1.894407 2.0429115 0.6338824 7
1.9019941 2.0503755 0.5356918 11
1.9004886 2.0480351 0.43597117 7
1.8863806 2.0321205 0.33575001 7
1.9173009 2.0647068 0.24316452 10
1.9120896 2.0583744 0.14523228 13
1.8977346 2.042206 0.047994114 10
1.2896966 1.3854526 -0.49693277 3
1.4603523 1.56823 -0.48589453 3
1.7256231 1.8524485 -0.48422 4
1.9181888 2.0584462 -0.43958122 11
1.93124 2.0717266 -0.34306258 10
1.9250178 2.0643294 -0.24360067 8
1.9164138 2.0543835 -0.14474899 11
1.9088349 2.0455432 -0.047687389 7
1.9014122 2.0368764 0.73586053 7
1.9081773 2.0434079 0.63613021 7
1.9158407 2.0508971 0.53759819 11
1.9143696 2.0486054 0.4375338 7
1.9002405 2.0327742 0.33696872 8
1.9313005 2.0652778 0.24403608 10
1.926085 2.05898 0.14575563 13
1.9116833 2.04287 0.048168641 11
1.2912217 1.3774186 -0.4956387 3
1.462485 1.5595691 -0.48476982 3
1.7354368 1.8499931 -0.48517317 4
1.932121 2.0589404 -0.44114554 11
1.945253 2.0722094 -0.34428129 10
1.9390314 2.0648592 -0.24447222 8
1.9304106 2.0549603 -0.14527062 11
1.919387 2.0425107 -0.047773778 8
1.915127 2.0372648 0.73844707 7
1.9186361 2.0402842 0.63725412 7
1.9297143 2.051347 0.53950459 11
1.9248934 2.045507 0.43831509 7
1.9141278 2.0333557 0.3381874 7
1.9419127 2.06215 0.24447185 10
1.9401081 2.0595133 0.14627899 12
1.9222312 2.0398226 0.048255898 10
1.2960221 1.3729032 -0.4956387 3
1.4679201 1.5544547 -0.48476982 3
1.7452548 1.8474923 -0.48612636 4
1.9460802 2.0593622 -0.44270989 11
1.9558836 2.0690126 -0.34489062 10
1.9496496 2.0616972 -0.24490802 9
1.9410033 2.0518367 -0.14553143 11
1.9333773 2.0430608 -0.047946557 7
1.9288673 2.0375824 0.74103355 7
1.9324462 2.0406494 0.63950193 7
1.943614 2.0517251 0.54141092 12
1.9388158 2.0459447 0.43987769 7
1.9280424 2.033865 0.3394061 7
1.9559538 2.0625873 0.2453434 10
1.9541581 2.0599732 0.14680235 12
1.9362222 2.0403531 0.048430424 10
1.3008065 1.3683708 -0.4956387 3
1.4733372 1.5493213 -0.48476982 3
1.7584589 1.8485012 -0.48803276 4
1.9566612 2.0561337 -0.44349208 10
1.9699374 2.0693617 -0.34610933 10
1.9637046 2.0620933 -0.24577957 9
1.9550419 2.0522795 -0.14605305 12
1.947395 2.0435379 -0.04811934 7
1.9393007 2.034333 0.7423268 7
1.9462824 2.0409434 0.64174974 7
1.9541521 2.0484798 0.54236418 11
1.9493551 2.0427375 0.44065902 7
1.9419838 2.034302 0.34062478 7
1.9665817 2.0593495 0.24577919 9
1.9647859 2.0567501 0.14706403 13
1.9502404 2.0408103 0.048604947 10
1.305575 1.3638219 -0.4956387 3
1.4787363 1.5441689 -0.48476982 3
1.7649006 1.8423518 -0.48803276 3
1.9706602 2.0564225 -0.44505644 10
1.9805832 2.0660553 -0.34671867 10
1.9743382 2.0588214 -0.24621536 8
1.9656502 2.0490456 -0.14631385 11
1.9579777 2.0403345 -0.04820573 7
1.9530795 2.0345194 0.74491328 7
1.9601438 2.0411651 0.64399755 7
1.9680915 2.0487254 0.54427052 11
1.9633176 2.0430424 0.44222164 7
1.9559515 2.0346661 0.34184349 8
1.9806634 2.0596528 0.24665076 10
1.9788767 2.057076 0.14758739 12
1.9608189 2.0375926 0.048692212 10
1.3103278 1.3592561 -0.4956387 3
1.4841175 1.5389977 -0.48476982 3
1.7679131 1.8326474 -0.48707953 4
1.9846853 2.0566385 -0.44662076 10
1.9946767 2.0662704 -0.34793738 10
1.9884328 2.059083 -0.24708691 8
1.9797292 2.0493541 -0.14683546 11
1.972036 2.0406775 -0.048378512 7
1.9668833 2.0346348 0.74749976 7
1.9740307 2.0413151 0.64624536 7
1.9820561 2.0488987 0.54617691 11
1.9738717 2.0397255 0.44300297 7
1.9699457 2.0349576 0.34306216 7
1.9947711 2.0598829 0.24752231 10
1.9929934 2.0573285 0.14811075 12
1.9748776 2.0379159 0.048866734 10
1.3117003 1.3512087 -0.49434459 3
1.4894805 1.5338078 -0.48476982 3
1.7742995 1.826465 -0.48707953 3
1.9987354 2.0567813 -0.44818512 10
2.0087955 2.0664117 -0.34915608 10
1.9990807 2.0557003 -0.24752268 8
1.9938343 2.0495894 -0.14735709 12
1.9861205 2.040947 -0.048551291 7
1.9773425 2.0312176 0.74879307 7
1.9879423 2.041393 0.64849317 7
1.9960461 2.0489991 0.54808331 11
1.9878731 2.0398967 0.44456559 7
1.9805011 2.0316224 0.34367153 7
2.0054269 2.0564733 0.24795809 10
2.0036495 2.0539336 0.14837244 13
1.9889622 2.0381658 0.04904126 10
1.316409 1.3466218 -0.49434459 3
1.4948254 1.5285991 -0.48476982 3
1.7772322 1.816752 -0.48612636 4
2.0093567 2.0533214 -0.44896728 12
2.0229397 2.0664799 -0.35037476 10
2.0132143 2.0558274 -0.24839425 9
2.0079648 2.049751 -0.14787871 12
2.0002306 2.0411429 -0.04872407 7
1.9911829 2.0312009 0.75137955 7
2.0018783 2.0413985 0.65074098 7
2.0100605 2.0490267 0.54998964 12
2.0018997 2.0399952 0.44612822 7
1.9945339 2.03178 0.34489024 7
2.019573 2.0565684 0.24882965 10
2.0178051 2.0540507 0.1488958 13
2.0030727 2.038342 0.049215782 9
1.3211015 1.3420184 -0.49434459 3
1.5001521 1.5233719 -0.48476982 3
1.7801182 1.8070405 -0.48517317 4
2.0234444 2.0533299 -0.4505316 12
2.0371087 2.0664742 -0.35159346 10
2.0273731 2.0558803 -0.2492658 8
2.022121 2.0498388 -0.14840032 11
2.0143661 2.041265 -0.048896853 7
2.0050473 2.0311124 0.75396603 7
2.0158386 2.0413315 0.65298879 7
2.0206501 2.0454898 0.55094284 12
2.0159509 2.0400202 0.44769084 7
2.0085919 2.0318639 0.34610891 7
2.0337441 2.0565896 0.2497012 10
2.0319858 2.0540943 0.14941916 12
2.0136921 2.0348911 0.049303047 10
1.325778 1.3373988 -0.49434459 3
1.5054606 1.5181261 -0.48476982 3
1.7829585 1.7973312 -0.48422 3
2.0375566 2.0532649 -0.45209596 11
2.0513022 2.0663948 -0.35281214 9
2.0415566 2.0558598 -0.25013736 9
2.0327828 2.0463099 -0.14866114 11
2.028527 2.0413134 -0.049069632 7
2.0223401 2.0343771 0.75784576 7
2.0298226 2.0411916 0.6552366 7
2.0347011 2.0453835 0.55284917 11
2.0300267 2.0399721 0.44925344 7
2.0191734 2.0283575 0.34671828 7
2.04794 2.0565369 0.25057277 10
2.0461912 2.0540638 0.14994252 12
2.0278404 2.0349319 0.04947757 10
1.3304384 1.3327627 -0.49434459 3
1.5107507 1.5128618 -0.48476982 3
1.7892215 1.7910966 -0.48422 3
2.0482025 2.0496333 -0.45287815 11
2.0655198 2.0662415 -0.35403085 10
2.0557647 2.0557652 -0.25100893 8
2.0469759 2.046262 -0.14918275 12
2.0427127 2.0412877 -0.049242411 7
2.0430973 2.0409591 0.76301885 6
2.0403829 2.0375366 0.65636045 7
2.0453024 2.0417361 0.55380243 11
2.0441267 2.0398505 0.45081607 7
2.0332682 2.0283065 0.34793696 7
2.06216 2.0564101 0.25144431 10
2.0604215 2.0539589 0.15046588 13
2.0420136 2.0348988 0.049652096 9
1.3350824 1.3281105 -0.49434459 3
1.5160223 1.5075792 -0.48476982 3
1.7919816 1.7813795 -0.4832668 3
2.0588474 2.0459523 -0.45366031 9
2.0797615 2.0660138 -0.35524952 10
2.0699966 2.0555961 -0.25188047 8
2.0611935 2.0461397 -0.14970437 12
2.0569229 2.0411878 -0.049415193 7
2.0604956 2.0440195 0.76689857 14
2.0544016 2.0372629 0.65860826 7
2.0593884 2.0414953 0.55570877 11
2.0582504 2.0396552 0.45237869 7
2.0473871 2.028182 0.34915566 7
2.0764043 2.0562088 0.25231588 10
2.0746753 2.0537796 0.15098923 12
2.0562112 2.034791 0.049826618 10
1.3397104 1.3234421 -0.49434459 3
1.5212755 1.5022781 -0.48476982 3
1.7981888 1.7751135 -0.4832668 3
2.0730069 2.0456905 -0.45522466 7
2.0940266 2.0657122 -0.35646823 9
2.0807061 2.0518556 -0.25231627 8
2.0754352 2.0459433 -0.15022598 11
2.071157 2.041013 -0.049587972 7
2.0813811 2.0503726 0.7720716 14
2.0684435 2.0369163 0.66085607 6
2.0734978 2.0411811 0.55761516 11
2.0723977 2.039386 0.45394132 7
2.0615304 2.0279837 0.35037434 7
2.090672 2.0559332 0.25318745 10
2.0889535 2.0535262 0.15151259 12
2.0704329 2.0346093 0.050001144 9
1.3443218 1.3187577 -0.49434459 3
1.5299885 1.5003698 -0.48589453 3
1.8008692 1.7653899 -0.48231363 3
2.0942435 2.0522678 -0.45835334 6
2.1047692 2.0618627 -0.35707757 10
2.0949733 2.0515499 -0.25318784 8
2.0897005 2.0456719 -0.1507476 11
2.0854149 2.0407641 -0.049760751 7
2.0988834 2.0532272 0.77595139 14
2.0825078 2.0364966 0.66310394 6
2.0876298 2.0407927 0.55952156 11
2.0865681 2.0390427 0.45550394 7
2.0721464 2.0242429 0.35098368 7
2.1049631 2.055583 0.25405899 10
2.1032546 2.0531974 0.15203595 12
2.0846784 2.034353 0.050175667 10
1.3489169 1.314057 -0.49434459 3
1.5352166 1.4950199 -0.48589453 3
1.8070207 1.759093 -0.48231363 3
2.1120121 2.0552776 -0.46069989 9
2.1190684 2.061424 -0.35829625 10
2.1092637 2.0511696 -0.25405937 8
2.1039889 2.045326 -0.15126921 12
2.0961113 2.0369563 -0.049847145 7
2.1129663 2.052619 0.77853787 15
2.0965939 2.0360031 0.66535175 7
2.1017842 2.0403306 0.56142789 12
2.1007612 2.0386255 0.45706654 7
2.086324 2.0239084 0.35220239 6
2.1192772 2.0551581 0.25493056 9
2.1175792 2.0527942 0.15255931 12
2.098947 2.0340216 0.050350189 10
1.3534956 1.3093404 -0.49434459 3
1.5404259 1.489652 -0.48589453 3
1.81315 1.7527746 -0.48231363 3
2.1333785 2.0616198 -0.46382856 7
2.1298206 2.0574627 -0.35890561 9
2.1235766 2.0507147 -0.25493094 8
2.1183004 2.0449049 -0.15179083 11
2.1104035 2.0365703 -0.050019924 7
2.1270704 2.0519373 0.78112435 15
2.1071954 2.0320544 0.66647559 7
2.1159611 2.0397949 0.56333429 11
2.1149769 2.0381341 0.45862916 6
2.1005242 2.0234995 0.35342106 7
2.1300259 2.0512028 0.25536633 10
2.1319261 2.0523155 0.15308267 12
2.1132386 2.0336156 0.050524715 10
1.3580579 1.3046079 -0.49434459 3
1.5456163 1.4842658 -0.48589453 3
1.8192573 1.7464349 -0.48231363 4
2.1476884 2.0609992 -0.46539292 6
2.1441519 2.0568867 -0.36012432 9
2.1379123 2.0501845 -0.25580251 8
2.1326344 2.044409 -0.15231246 11
2.1247184 2.0361087 -0.050192706 7
2.1411955 2.0511823 0.78371084 15
2.1213131 2.0314257 0.6687234 6
2.1266141 2.0357904 0.56428748 11
2.1256461 2.0341532 0.45941046 6
2.1147468 2.023016 0.35463977 7
2.1443727 2.0506401 0.25623786 10
2.1462955 2.0517621 0.15360603 12
2.127553 2.0331342 0.050699238 9
1.366098 1.3031931 -0.4956387 3
1.5472622 1.4754994 -0.48476982 3
1.8253424 1.7400738 -0.48231363 4
2.1512945 2.0500829 -0.46461076 6
2.1585052 2.0562358 -0.361343 9
2.1522698 2.0495794 -0.25667405 8
2.1469908 2.043838 -0.15283407 11
2.1390557 2.0355725 -0.050365485 7
2.1553414 2.0503533 0.78629738 14
2.1354525 2.0307236 0.67097121 6
2.1408219 2.0351183 0.56619388 11
2.139894 2.033525 0.46097311 6
2.1289918 2.0224578 0.35585845 7
2.1587417 2.0500023 0.25710946 9
2.160687 2.0511329 0.15412939 12
2.1418896 2.0325778 0.050873764 9
1.3706387 1.2984165 -0.4956387 3
1.5524032 1.4700893 -0.48476982 3
1.8314052 1.7336916 -0.48231363 4
2.1620243 2.0459552 -0.46539292 5
2.1728802 2.0555096 -0.3625617 9
2.1666491 2.0488987 -0.25754562 8
2.1613691 2.0431912 -0.15335569 11
2.1534154 2.0349607 -0.050538264 6
2.1695073 2.0494509 0.78888386 14
2.1496124 2.029947 0.67321903 6
2.1550515 2.0343719 0.56810021 10
2.1541626 2.0328219 0.46253574 6
2.1432583 2.0218248 0.35707715 6
2.1731319 2.0492892 0.257981 9
2.1714673 2.0470033 0.15439107 12
2.1562481 2.0319459 0.051048286 9
1.3751627 1.2936243 -0.4956387 3
1.5610744 1.4679991 -0.48589453 3
1.8374459 1.7272882 -0.48231363 4
2.1691527 2.0383961 -0.46539292 5
2.1872761 2.0547082 -0.36378038 9
2.1810498 2.0481427 -0.25841716 8
2.1757691 2.0424693 -0.15387732 11
2.1677966 2.0342734 -0.050711047 7
2.1836929 2.0484741 0.79147035 14
2.1637928 2.0290964 0.67546684 6
2.1693013 2.0335505 0.57000661 10
2.1684525 2.0320439 0.46409836 7
2.1575465 2.0211167 0.35829583 7
2.1875434 2.0485003 0.25885257 9
2.1858897 2.0462356 0.15491442 12
2.1706283 2.0312386 0.051222809 9
1.3796699 1.2888162 -0.4956387 3
1.5661892 1.462541 -0.48589453 3
1.843464 1.7208638 -0.48231363 4
2.1834762 2.0375504 -0.46695724 4
2.2016928 2.0538309 -0.36499909 9
2.1954718 2.0473108 -0.25928873 8
2.1901901 2.0416715 -0.15439893 11
2.182199 2.0335104 -0.050883826 7
2.1978984 2.0474234 0.79405689 14
2.1815591 2.0314918 0.67883861 6
2.1871643 2.0359986 0.57286614 11
2.1827633 2.0311909 0.46566096 7
2.1718559 2.0203335 0.35951456 7
2.2019761 2.0476358 0.25972411 9
2.2003334 2.045392 0.15543778 12
2.1886921 2.0338588 0.051484596 9
1.3841604 1.2839923 -0.4956387 3
1.5712849 1.457065 -0.48589453 3
1.8494596 1.7144185 -0.48231363 3
2.1941974 2.0332727 -0.46773943 5
2.21613 2.0528779 -0.36621779 9
2.209914 2.0464034 -0.2601603 8
2.204632 2.0407975 -0.15492055 11
2.1966226 2.0326715 -0.051056605 6
2.2156684 2.0495782 0.79793668 14
2.2029455 2.0370955 0.68333423 6
2.2014666 2.0350151 0.57477254 10
2.1970944 2.0302627 0.46722358 7
2.1861856 2.019475 0.36073324 7
2.2164288 2.0466952 0.26059568 9
2.2147975 2.0444727 0.15596114 11
2.203126 2.0329869 0.051659122 9
1.3886338 1.2791529 -0.4956387 3
1.5799452 1.4548715 -0.48701933 3
1.8554329 1.7079523 -0.48231363 3
2.2085497 2.0322893 -0.46930379 5
2.2342398 2.0552092 -0.36804584 9
2.2243769 2.0454199 -0.26103184 8
2.2154183 2.0364687 -0.15518135 11
2.211067 2.0317566 -0.051229388 6
2.2299232 2.0483663 0.80052316 14
2.2243972 2.0425744 0.68782979 14
2.2157884 2.0339563 0.57667893 10
2.2150841 2.0325978 0.46956751 6
2.200536 2.0185409 0.36195195 6
2.230902 2.0456784 0.26146722 9
2.2292821 2.0434771 0.1564845 12
2.2175808 2.0320389 0.051833645 9
1.3930905 1.2742978 -0.4956387 3
1.585014 1.4493476 -0.48701933 3
1.8577605 1.6981536 -0.48136041 4
2.219276 2.0278988 -0.47008595 5
2.2487288 2.0540917 -0.36926451 10
2.2388597 2.0443602 -0.26190341 8
2.2298894 2.0354557 -0.15570298 11
2.2255316 2.0307658 -0.051402166 7
2.2441964 2.0470798 0.80310965 14
2.2423139 2.0446455 0.69120157 15
2.2301295 2.0328226 0.57858527 10
2.2294664 2.0315061 0.47113013 6
2.2149062 2.0175312 0.36317062 6
2.2490778 2.0479395 0.26277456 9
2.2437863 2.0424049 0.15700787 11
2.2320557 2.0310149 0.052008171 9
1.3939551 1.26618 -0.49434459 3
1.5864568 1.440531 -0.48589453 3
1.8600426 1.6883595 -0.48040724 4
2.226341 2.0201399 -0.47008595 5
2.2632368 2.0528982 -0.37048322 9
2.2533619 2.0432243 -0.26277497 8
2.24438 2.0343664 -0.15622459 11
2.2400155 2.0296984 -0.051574945 7
2.2584877 2.0457184 0.80569619 14
2.2566605 2.0433462 0.69344938 11
2.2444897 2.0316133 0.58049166 10
2.2475302 2.0336521 0.47347406 6
2.229296 2.0164454 0.36438933 6
2.263602 2.0467575 0.26364613 9
2.2583106 2.0412567 0.15753123 11
2.2465503 2.0299144 0.052182693 9
1.3983663 1.2613064 -0.49434459 3
1.5914754 1.4349844 -0.48589453 3
1.8659246 1.6818564 -0.48040724 4
2.2297101 2.0090504 -0.46930379 5
2.2777638 2.0516284 -0.37170193 9
2.2678835 2.042012 -0.26364651 8
2.2626011 2.036541 -0.15700702 11
2.2545197 2.0285544 -0.051747728 7
2.2727969 2.0442822 0.80828267 15
2.2710249 2.0419714 0.69569719 11
2.2588687 2.0303285 0.58239806 10
2.2619624 2.0323956 0.47503668 6
2.2473974 2.0185997 0.36621734 6
2.2781451 2.0454991 0.26451766 9
2.2728539 2.0400319 0.15805459 11
2.2610643 2.0287375 0.052357219 9
1.4027606 1.2564176 -0.49434459 3
1.5964749 1.4294205 -0.48589453 3
1.8717841 1.6753329 -0.48040724 3
2.2367096 2.001255 -0.46930379 5
2.2923095 2.0502818 -0.3729206 9
2.282424 2.0407231 -0.26451808 8
2.277142 2.0352855 -0.15752864 11
2.269043 2.0273342 -0.051920507 7
2.2871234 2.0427711 0.81086916 13
2.2817733 2.0372767 0.69682103 10
2.2732658 2.0289679 0.58430439 10
2.2800982 2.0343509 0.4773806 6
2.2618372 2.0173492 0.36743605 6
2.292707 2.0441639 0.26538923 9
2.2874162 2.0387301 0.15857795 11
2.2755973 2.0274837 0.052531742 9
1.4107466 1.2547231 -0.4956387 3
1.5978137 1.4206018 -0.48476982 3
1.8776207 1.668789 -0.48040724 3
2.2436817 1.9934353 -0.46930379 5
2.3068733 2.0488586 -0.37413931 9
2.2969832 2.0393577 -0.26538962 8
2.2917018 2.0339532 -0.15805025 11
2.2873247 2.029355 -0.052179679 7
2.3050802 2.044389 0.81474888 14
2.2961619 2.0357635 0.69906884 11
2.2913542 2.030787 0.58716398 10
2.2945781 2.0329294 0.47894323 6
2.2800109 2.0193129 0.3692641 6
2.3110168 2.0460541 0.26669657 9
2.3057358 2.0406606 0.15936297 11
2.2901492 2.0261533 0.052706264 9
1.4151179 1.249791 -0.4956387 3
1.5991107 1.4117914 -0.48364502 3
1.8834344 1.6622245 -0.48040724 3
2.2506263 1.9855912 -0.46930379 5
2.3214552 2.047359 -0.37535799 8
2.3152966 2.0412092 -0.26669699 8
2.3100255 2.0358455 -0.15883268 11
2.3018968 2.0279679 -0.052352462 6
2.3194518 2.0427148 0.81733537 14
2.3142245 2.0373943 0.70244062 11
2.3057983 2.0292618 0.58907038 10
2.3090765 2.0314319 0.48050588 6
2.2944989 2.0178967 0.3704828 6
2.3256264 2.0445521 0.26756814 9
2.3203459 2.039192 0.15988633 11
2.3047192 2.0247459 0.05288079 9
1.4194717 1.2448437 -0.4956387 3
1.6003656 1.4029893 -0.48252031 3
1.8929166 1.6588751 -0.48136041 3
2.2575436 1.977723 -0.46930379 5
2.3397882 2.0490518 -0.37718606 8
2.3299031 2.0396767 -0.26756853 8
2.3246329 2.0343463 -0.1593543 10
2.3164871 2.0265038 -0.052525241 7
2.3338392 2.0409648 0.81992191 14
2.3286583 2.0357168 0.70468843 10
2.3239555 2.0308902 0.59192997 10
2.3235922 2.0298574 0.48206848 6
2.3090048 2.0164037 0.37170148 6
2.3402538 2.042973 0.26843968 9
2.3349743 2.0376461 0.16040969 11
2.3193073 2.0232613 0.053055312 8
1.4274507 1.243053 -0.49693277 3
1.5979041 1.3909969 -0.4802708 3
1.8986955 1.6522576 -0.48136041 3
2.2681592 1.9730718 -0.47008595 4
2.3544161 2.0473847 -0.37840474 9
2.3445272 2.0380671 -0.2684401 8
2.3392577 2.0327697 -0.15987591 11
2.3348691 2.0282407 -0.052784409 7
2.348243 2.0391393 0.82250839 14
2.3431084 2.0339634 0.70693624 10
2.3384449 2.0291996 0.59383631 10
2.3381248 2.0282063 0.4836311 6
2.3235278 2.0148339 0.37292019 6
2.3548982 2.0413167 0.26931125 9
2.3496199 2.0360231 0.16093306 11
2.3339133 2.0216997 0.053229839 9
1.4281279 1.2349037 -0.4956387 3
1.5953784 1.3790388 -0.47802129 3
1.9044514 1.6456198 -0.48136041 3
2.2750328 1.9651424 -0.47008595 4
2.369061 2.0456407 -0.37962344 9
2.3591683 2.0363798 -0.26931167 8
2.3539002 2.0311158 -0.16039754 11
2.3495057 2.0266087 -0.052957188 6
2.3626621 2.0372381 0.82509488 14
2.3575747 2.0321341 0.70918405 10
2.3566687 2.0306363 0.59669584 10
2.3526738 2.0264783 0.48519373 6
2.3380682 2.0131874 0.37413886 6
2.3695595 2.039583 0.27018279 9
2.3642824 2.0343223 0.16145642 11
2.3523262 2.02332 0.053491622 9
1.4324298 1.229911 -0.4956387 3
1.6112728 1.3829807 -0.48139551 3
1.9064591 1.6357658 -0.48040724 3
2.2818785 1.9571891 -0.47008595 4
2.3874896 2.0470493 -0.38145146 8
2.373826 2.0346155 -0.27018321 7
2.3685594 2.0293846 -0.16091916 10
2.3641598 2.0248992 -0.053129975 6
2.3807657 2.0384021 0.82897466 14
2.372057 2.0302281 0.7114318 11
2.3712015 2.0287795 0.59860224 10
2.3672392 2.0246739 0.48675635 6
2.3526254 2.0114639 0.37535757 6
2.3842378 2.0377715 0.27105436 9
2.3827577 2.0357871 0.16224146 11
2.3669777 2.0215905 0.053666148 9
1.4330389 1.22177 -0.49434459 3
1.6235063 1.3836681 -0.48364502 3
1.9121573 1.6291009 -0.48040724 3
2.2886965 1.9492118 -0.47008595 5
2.402178 2.0451374 -0.38267016 9
2.3922932 2.0360017 -0.27149057 7
2.383235 2.0275753 -0.16144077 11
2.37883 2.0231123 -0.053302754 6
2.3952258 2.0363359 0.83156121 14
2.3902664 2.0314009 0.71480352 11
2.3857503 2.0268457 0.60050863 10
2.3818209 2.0227921 0.48831898 6
2.3709822 2.0128751 0.37718561 6
2.3989315 2.0358825 0.27192593 9
2.3974648 2.0339177 0.16276482 11
2.385458 2.023016 0.053927932 8
1.4372951 1.2167603 -0.49434459 3
1.6320451 1.3811398 -0.48476982 3
1.9178324 1.6224165 -0.48040724 3
2.2992575 1.9444 -0.47086814 4
2.416882 2.0431473 -0.38388884 8
2.4069948 2.0340688 -0.27236211 7
2.3979263 2.0256882 -0.16196239 10
2.3935168 2.0212471 -0.053475533 7
2.4133916 2.0373096 0.83544099 14
2.4047897 2.0293291 0.71705133 11
2.4003141 2.0248353 0.60241497 10
2.3964181 2.020833 0.48988158 6
2.3855827 2.0109835 0.37840432 6
2.4136415 2.0339158 0.27279747 9
2.4160063 2.0351875 0.16354986 11
2.4001532 2.0211172 0.054102458 8
1.4415336 1.2117358 -0.49434459 3
1.6405863 1.3785685 -0.48589453 3
1.9234838 1.615712 -0.48040724 3
2.3060308 1.9363623 -0.47086814 4
2.4354026 2.0442705 -0.38571692 8
2.4255271 2.0352592 -0.27366945 7
2.4164596 2.0269322 -0.16274482 11
2.4082189 2.019304 -0.053648315 6
2.4278915 2.0350778 0.83802748 13
2.4230618 2.0303097 0.72042304 10
2.4148929 2.0227478 0.60432136 10
2.4110303 2.0187964 0.4914442 6
2.4040046 2.0121999 0.38023233 6
2.4321868 2.0350673 0.2741048 8
2.4307556 2.0331485 0.16407321 11
2.4148638 2.0191402 0.05427698 9
1.4457545 1.2066966 -0.49434459 3
1.6453884 1.3728334 -0.48589453 3
1.9328814 1.6121318 -0.48136041 3
2.3127759 1.9283009 -0.47086814 4
2.4501483 2.0421116 -0.38693559 8
2.4402704 2.0331571 -0.27454099 7
2.4311936 2.0248759 -0.16326644 10
2.4229369 2.017283 -0.053821094 7
2.4461172 2.0358596 0.8419072 13
2.4376249 2.0280714 0.72267085 10
2.43326 2.0237215 0.60718095 10
2.429455 2.0198398 0.49378812 6
2.4224639 2.0133123 0.38206038 6
2.4469383 2.0329311 0.27497637 9
2.4493613 2.0342216 0.16485825 11
2.4295902 2.0170851 0.054451503 8
1.4499578 1.2016425 -0.49434459 3
1.6501704 1.3670816 -0.48589453 3
1.9384971 1.6053751 -0.48136041 3
2.3232965 1.923365 -0.47165027 4
2.4687314 2.0430386 -0.38876364 8
2.4588664 2.0341516 -0.27584836 7
2.4497907 2.0259235 -0.16404887 10
2.4415231 2.018369 -0.054080263 6
2.4606547 2.0334623 0.84449369 14
2.4559579 2.0288591 0.72604263 10
2.4478786 2.0214665 0.60908735 10
2.451725 2.0239232 0.49691334 6
2.4409599 2.0143199 0.38388839 17
2.4655464 2.0338862 0.27628368 9
2.4641516 2.0320129 0.16538161 11
2.4443314 2.0149519 0.054626029 8
1.4541435 1.196574 -0.49434459 3
1.6511699 1.3582182 -0.48476982 3
1.9440891 1.5985986 -0.48136041 3
2.3299963 1.9152434 -0.47165027 4
2.4835165 2.04071 -0.38998231 8
2.4736497 2.0318794 -0.2767199 7
2.4645655 2.0236971 -0.16457048 10
2.4562819 2.0161777 -0.054253042 6
2.4752057 2.0309877 0.84708017 14
2.4705589 2.0264535 0.72829044 10
2.4663067 2.0222456 0.61194688 10
2.4740529 2.0278754 0.50003856 6
2.4594924 2.0152233 0.38571647 11
2.4803379 2.03158 0.27715525 9
2.4789562 2.0297253 0.16590497 11
2.4590871 2.0127399 0.054800551 8
1.4620515 1.1945466 -0.4956387 3
1.655901 1.3524463 -0.48476982 3
1.9496573 1.5918027 -0.48136041 3
2.3404937 1.9102212 -0.47243246 4
2.5021608 2.0414402 -0.39181039 9
2.4923072 2.0326767 -0.27802724 7
2.4832242 2.0245471 -0.1653529 10
2.4749305 2.0170665 -0.054512214 7
2.4935136 2.0314875 0.85095996 13
2.4851725 2.0239704 0.73053825 10
2.4809632 2.0198221 0.61385328 10
2.496438 2.0316963 0.50316387 14
2.478061 2.0160213 0.38754448 11
2.4990075 2.0323377 0.27846259 8
2.4976494 2.0305092 0.16669002 11
2.4777372 2.0136027 0.055062339 8
1.4662124 1.1894357 -0.4956387 3
1.6606117 1.3466579 -0.48476982 3
1.951389 1.5818965 -0.48040724 3
2.3471472 1.9020398 -0.47243246 4
2.5169837 2.0389411 -0.39302906 8
2.5071292 2.0302339 -0.27889881 7
2.4980381 2.02215 -0.16587453 10
2.4897289 2.0147047 -0.054684997 6
2.5080998 2.028846 0.8535465 13
2.4997995 2.0214102 0.73278606 10
2.4956329 2.0173209 0.61575967 10
2.5150385 2.0322814 0.50550777 11
2.4966648 2.0167143 0.38937253 11
2.5138371 2.0298607 0.27933416 8
2.5124927 2.0280507 0.16721338 11
2.4925318 2.0112202 0.055236865 8
1.4703554 1.1843104 -0.4956387 3
1.6653024 1.3408531 -0.48476982 3
1.956899 1.5750754 -0.48040724 3
2.3537724 1.8938352 -0.47243246 4
2.535687 2.039474 -0.39485711 8
2.5258462 2.030833 -0.28020614 7
2.5167577 2.0228024 -0.16665696 10
2.5045407 2.0122638 -0.054857776 6
2.5264635 2.0291522 0.85742623 13
2.5182374 2.0218225 0.73615772 10
2.5141432 2.0178137 0.6186192 9
2.5336733 2.0327613 0.50785172 11
2.5153036 2.017302 0.3912006 11
2.5325658 2.0304203 0.2806415 8
2.5312455 2.028636 0.16799842 10
2.5112419 2.0118847 0.055498648 8
1.4707085 1.1761544 -0.49434459 3
1.6661673 1.3319898 -0.48364502 3
1.9585507 1.5651706 -0.47945404 3
2.3565102 1.882525 -0.47165027 3
2.5505466 2.0368042 -0.39607581 8
2.5407054 2.028219 -0.28107771 7
2.5355115 2.0233483 -0.16743939 10
2.5232737 2.0128617 -0.055116944 6
2.5448596 2.0293548 0.86130601 13
2.5328991 2.0190938 0.73840553 10
2.5288486 2.0151432 0.6205256 9
2.5523419 2.0331359 0.51019561 11
2.5300944 2.0146925 0.39241928 11
2.5474322 2.0277719 0.28151307 8
2.5461257 2.026006 0.16852178 10
2.5299866 2.0124428 0.055760436 8
1.4710228 1.1680102 -0.49305049 3
1.6708068 1.3261657 -0.48364502 3
1.9640024 1.5583245 -0.47945404 3
2.3630672 1.8742877 -0.47165027 4
2.5693069 2.0371385 -0.39790383 8
2.5594804 2.0286198 -0.28238505 7
2.5503864 2.0206871 -0.167961 10
2.5381227 2.0102496 -0.055289723 6
2.5595014 2.0264549 0.8638925 13
2.5513926 2.0193107 0.74177724 10
2.547415 2.0154397 0.62338513 9
2.5671704 2.0303414 0.51175827 11
2.5487907 2.0150819 0.39424729 11
2.5662184 2.0281327 0.28282037 8
2.561018 2.0232966 0.16904514 10
2.5487659 2.0128946 0.056022223 8
1.4750909 1.1628683 -0.49305049 3
1.6754256 1.3203254 -0.48364502 3
1.9694299 1.5514593 -0.47945404 3
2.3695951 1.8660277 -0.47165027 4
2.5842011 2.0342968 -0.39912254 8
2.5743749 2.0258338 -0.28325659 7
2.5691974 2.0210338 -0.16874342 10
2.5569134 2.0106483 -0.055548895 6
2.577951 2.026463 0.86777228 13
2.5660875 2.016413 0.74402505 10
2.5660145 2.0156312 0.62624466 9
2.5858946 2.0305176 0.51410222 11
2.5636165 2.012301 0.395466 11
2.5850382 2.0283871 0.28412771 8
2.5759227 2.0205081 0.16956849 10
2.5636449 2.010155 0.056196745 8
1.475338 1.1547354 -0.49175641 3
1.6761873 1.3114668 -0.48252031 3
1.9748335 1.5445753 -0.47945404 3
2.3760943 1.8577448 -0.47165027 3
2.5991068 2.0313759 -0.40034124 8
2.5932055 2.0260346 -0.28456393 7
2.5841072 2.0182002 -0.16926505 10
2.5717974 2.0078638 -0.055721678 6
2.5964315 2.0263665 0.87165201 13
2.5846341 2.0164337 0.74739677 10
2.584646 2.0157173 0.62910426 9
2.6007566 2.0275519 0.51566482 11
2.5823686 2.0124919 0.39729404 11
2.5999615 2.0254734 0.28499928 8
2.5947781 2.0207076 0.17035353 10
2.5824804 2.0104067 0.056458529 7
1.4755461 1.146615 -0.4904623 3
1.6807549 1.3056079 -0.48252031 3
1.980213 1.5376724 -0.47945404 3
2.3825645 1.8494394 -0.47165027 4
2.6179442 2.0314181 -0.40216929 8
2.6120694 2.0261292 -0.28587127 7
2.5990281 2.0152869 -0.16978666 10
2.5906446 2.0080624 -0.05598085 6
2.6149426 2.026166 0.87553179 13
2.6032124 2.0163496 0.75076848 10
2.5994282 2.0126929 0.63101065 9
2.6195343 2.0275295 0.51800871 11
2.5972278 2.0095394 0.39851275 11
2.6188359 2.0255275 0.28630662 9
2.6097162 2.0177462 0.17087689 10
2.6013489 2.0105515 0.05672032 8
1.4795396 1.1414576 -0.4904623 3
1.68916 1.3027083 -0.48364502 3
1.9855685 1.5307508 -0.47945404 3
2.3890057 1.8411114 -0.47165027 4
2.6328819 2.0283248 -0.40338799 8
2.6270185 2.0230772 -0.28674284 7
2.6179168 2.0153401 -0.17056909 10
2.6095238 2.0081534 -0.056240018 6
2.6296556 2.0229154 0.87811828 13
2.6218214 2.0161605 0.75414026 10
2.6181121 2.0125809 0.63387018 9
2.6344275 2.0243914 0.51957136 11
2.6160336 2.0095305 0.40034077 11
2.637742 2.0254745 0.28761396 8
2.6286261 2.0177453 0.17166193 10
2.6162837 2.0075457 0.056894843 8
1.4835151 1.1362859 -0.4904623 3
1.693697 1.2968041 -0.48364502 3
1.9908997 1.5238105 -0.47945404 3
2.3954179 1.832761 -0.47165027 3
2.6517718 2.0281665 -0.40521601 9
2.6459353 2.0229707 -0.28805017 7
2.63287 2.0122535 -0.17109071 10
2.6244628 2.0051024 -0.056412797 6
2.6482162 2.0225184 0.881998 13
2.6404605 2.0158656 0.75751191 10
2.636827 2.0123632 0.63672978 9
2.6532571 2.0241699 0.52191532 11
2.6348705 2.0094149 0.40216881 11
2.6566796 2.0253141 0.28892127 8
2.6475673 2.0176368 0.17244697 11
2.6352053 2.007489 0.057156626 9
1.4874724 1.1311007 -0.4904623 3
1.6982132 1.2908841 -0.48364502 3
1.9962066 1.5168517 -0.47945404 4
2.4018009 1.8243884 -0.47165027 3
2.6706927 2.0279014 -0.40704405 8
2.6609156 2.0197453 -0.28892171 7
2.6478333 2.0090873 -0.17161232 11
2.6433952 2.0049927 -0.05667197 6
2.666806 2.0220165 0.88587779 14
2.6552467 2.0125225 0.75975972 10
2.6516597 2.0090749 0.63863617 9
2.6721172 2.0238411 0.52425927 11
2.6537385 2.0091922 0.40399686 12
2.6716764 2.0220401 0.28979284 8
2.6665399 2.0174205 0.173232 10
2.6501715 2.0043094 0.057331149 8
1.4914117 1.1259015 -0.4904623 3
1.7065978 1.2878829 -0.48476982 3
2.0014894 1.5098745 -0.47945404 4
2.4042118 1.8130202 -0.47086814 3
2.6896439 2.0275288 -0.40887213 9
2.6798837 2.0194376 -0.29022908 7
2.666795 2.0088451 -0.17239475 10
2.658365 2.0017679 -0.056844749 6
2.6854243 2.0214093 0.88975751 13
2.6739349 2.0120296 0.76313144 10
2.6704242 2.0086582 0.64149576 10
2.6870601 2.0204375 0.52582186 11
2.6686697 2.0058804 0.40521553 11
2.6906652 2.0216782 0.29110017 9
2.6855431 2.0170963 0.17401704 11
2.6611495 1.9980483 0.057418413 8
1.4991975 1.1235851 -0.49175641 3
1.7110829 1.2819179 -0.48476982 3
2.0067475 1.5028788 -0.47945404 4
2.4105258 1.8046169 -0.47086814 3
2.7086246 2.0270481 -0.41070014 9
2.6988816 2.019022 -0.29153642 7
2.6817884 2.0055046 -0.17291637 11
2.6773486 2.001456 -0.057103917 6
2.7040708 2.0206966 0.8936373 13
2.6887481 2.0085151 0.76537925 10
2.6852851 2.005198 0.6434021 9
2.7099268 2.0228622 0.52894711 11
2.6875875 2.0054567 0.40704358 11
2.7096837 2.0212083 0.29240751 8
2.7045763 2.0166638 0.17480208 10
2.6841409 2.0006976 0.057767462 8
1.5031104 1.118345 -0.49175641 3
1.7155472 1.2759374 -0.48476982 3
2.0119815 1.4958647 -0.47945404 3
2.4168103 1.7961915 -0.47086814 3
2.7196677 2.0205405 -0.41130951 9
2.7139108 2.0155284 -0.29240796 7
2.7048094 2.0080369 -0.17395961 10
2.708406 2.0099738 -0.057622265 7
2.7266238 2.0227559 0.89881027 13
2.7113965 2.010726 0.76987487 10
2.7080402 2.0075045 0.64721489 9
2.7368104 2.0280919 0.53285366 11
2.7025471 2.0019708 0.40826228 11
2.7287312 2.0206296 0.29371485 9
2.7276523 2.019094 0.1758488 10
2.7031641 2.0002367 0.058029246 8
