# .PCD v0.7 - Point Cloud Data file format
VERSION 0.7
FIELDS x y z intensity
SIZE 4 4 4 4
TYPE F F F F
COUNT 1 1 1 1
WIDTH 1379
HEIGHT 1
VIEWPOINT 0 0 0 1 0 0 0
POINTS 1379
DATA ascii
2.0566943 -2.1559713 0.78759056 21
2.0572391 -2.1572959 0.67883861 19
2.0550387 -2.1557419 0.57095981 17
2.0569527 -2.1585038 0.46566096 16
2.0528126 -2.1549122 0.36073324 21
2.0598843 -2.1630917 0.257981 20
2.0575905 -2.161438 0.15439107 17
2.0562441 -2.1607788 0.051397335 23
1.3269396 -1.396837 -0.50599146 3
1.5326416 -1.6139385 -0.50501537 3
1.8443835 -1.9428954 -0.51281571 3
2.0455725 -2.1555836 -0.46461076 6
2.0722032 -2.1844099 -0.36499909 8
2.0622041 -2.1746294 -0.25885296 17
2.0496421 -2.1621382 -0.1536165 17
2.0620365 -2.1759734 -0.051142998 17
2.0557992 -2.17015 0.79017711 21
2.0563962 -2.1715391 0.68108642 19
2.05425 -2.1700313 0.57286614 17
2.0561945 -2.1728446 0.46722358 16
2.052099 -2.1692753 0.36195195 20
2.0591657 -2.1775067 0.25885257 19
2.0568931 -2.175864 0.15491442 17
2.0555563 -2.1752102 0.051571857 22
1.3220556 -1.4014603 -0.50599146 3
1.5269985 -1.6192786 -0.50501537 3
1.8342236 -1.9457501 -0.51186246 3
2.0448096 -2.169899 -0.46617511 7
2.0713713 -2.1988547 -0.36621779 9
2.0614302 -2.1890669 -0.25972453 18
2.0489275 -2.1765511 -0.15413812 17
2.0578544 -2.1867986 -0.051229388 19
2.0548303 -2.1843488 0.79276359 21
2.0554788 -2.1858027 0.68333423 19
2.0533864 -2.1843412 0.57477254 18
2.055361 -2.1872065 0.46878621 16
2.0513101 -2.1836593 0.36317062 20
2.0583718 -2.1919434 0.25972411 21
2.0561204 -2.1903117 0.15543778 17
2.0547926 -2.1896632 0.051746383 24
1.3171555 -1.4060667 -0.50599146 3
1.518007 -1.6210431 -0.50389069 3
1.8240662 -1.9485576 -0.51090926 3
2.0439711 -2.1842351 -0.46773943 6
2.0704639 -2.21332 -0.36743647 8
2.0605805 -2.2035255 -0.26059607 18
2.0481369 -2.1909852 -0.15465973 16
2.057035 -2.2012739 -0.051402166 18
2.053787 -2.1985672 0.79535013 21
2.0544868 -2.2000859 0.68558204 18
2.0524476 -2.1986713 0.57667893 17
2.0544524 -2.2015893 0.47034883 16
2.0504453 -2.1980643 0.36438933 20
2.057502 -2.2064006 0.26059568 18
2.0518668 -2.2011278 0.15569946 17
2.0539532 -2.2041373 0.051920906 23
1.3089499 -1.4071196 -0.50469732 3
1.5123394 -1.626332 -0.50389069 3
1.8172532 -1.954913 -0.51090926 4
2.0430577 -2.1985919 -0.46930379 7
2.0694804 -2.2278056 -0.36865517 8
2.0596552 -2.2180049 -0.26146764 17
2.0472708 -2.20544 -0.15518135 17
2.0561395 -2.2157698 -0.051574945 17
2.055954 -2.2163455 0.79922986 21
2.0534203 -2.2143888 0.68782979 19
2.051434 -2.2130215 0.57858527 18
2.0534685 -2.215992 0.47191146 15
2.0495055 -2.2124898 0.36560804 20
2.0565562 -2.2208784 0.26146722 19
2.0509546 -2.215605 0.15622282 16
2.0530376 -2.218632 0.052095428 23
1.3040302 -1.4116802 -0.50469732 3
1.5066532 -1.6316011 -0.50389069 3
1.807089 -1.9576379 -0.50995612 4
2.042069 -2.2129688 -0.47086814 6
2.0684211 -2.2423117 -0.36987385 9
2.0586534 -2.2325041 -0.2623392 18
2.0463283 -2.2199156 -0.15570298 16
2.0585558 -2.233963 -0.051834121 18
2.0547497 -2.2306135 0.8018164 21
2.0522785 -2.2287114 0.6900776 19
2.0503449 -2.2273915 0.58049166 17
2.0524089 -2.2304149 0.47347406 15
2.0484896 -2.2269351 0.36682671 18
2.0555344 -2.2353768 0.26233879 20
2.0533457 -2.2337787 0.15700787 15
2.0520458 -2.2331471 0.052269954 24
1.3023592 -1.4197825 -0.50599146 3
1.5009485 -1.6368505 -0.50389069 3
1.8002446 -1.9639337 -0.50995612 4
2.0410044 -2.2273655 -0.47243246 6
2.0672858 -2.2568371 -0.37109256 9
2.0575757 -2.2470241 -0.26321074 16
2.0453098 -2.2344115 -0.15622459 16
2.0574951 -2.2485113 -0.0520069 18
2.0534706 -2.2448997 0.80440289 23
2.0543499 -2.2466481 0.69344938 18
2.0491805 -2.2417805 0.58239806 17
2.0512736 -2.2448571 0.47503668 16
2.0473974 -2.2414005 0.36804542 20
2.0544362 -2.2498946 0.26321036 18
2.0522685 -2.2483084 0.15753123 16
2.0509777 -2.2476823 0.052444477 23
1.2973953 -1.42432 -0.50599146 3
1.4952258 -1.6420797 -0.50389069 3
1.7900741 -1.9665762 -0.50900286 4
2.0398645 -2.2417815 -0.47399682 6
2.0660739 -2.2713819 -0.37231123 9
2.0564213 -2.2615628 -0.26408231 17
2.0442147 -2.2489271 -0.15674621 16
2.0563579 -2.2630794 -0.052179679 18
2.0521169 -2.2592044 0.80698937 21
2.0530453 -2.2610192 0.69569719 18
2.0479407 -2.2561886 0.58430439 17
2.0500622 -2.2593181 0.47659931 16
2.0462296 -2.2558854 0.3692641 19
2.0566077 -2.2681222 0.26451766 19
2.0511143 -2.2628574 0.15805459 15
2.0498328 -2.2622371 0.052619003 23
1.2924157 -1.42884 -0.50599146 3
1.4894848 -1.6472892 -0.50389069 4
1.7831986 -1.9728125 -0.50900286 4
2.0386481 -2.2562168 -0.47556117 6
2.064786 -2.2859457 -0.37352994 8
2.0551906 -2.2761211 -0.26495388 16
2.0430434 -2.2634621 -0.15726782 16
2.0551436 -2.277667 -0.052352462 19
2.050688 -2.2735269 0.80957586 21
2.0516653 -2.2754087 0.697945 17
2.0466251 -2.2706153 0.58621085 17
2.0520806 -2.2774673 0.47894323 14
2.0449853 -2.2703893 0.3704828 18
2.0553436 -2.2826903 0.26538923 19
2.0498841 -2.277426 0.15857795 16
2.0486114 -2.2768111 0.052793525 21
1.2874203 -1.4333427 -0.50599146 3
1.4837257 -1.6524783 -0.50389069 4
1.7763014 -1.9790252 -0.50900286 4
2.0373564 -2.2706707 -0.4771255 7
2.0634212 -2.300528 -0.37474868 9
2.0538836 -2.2906985 -0.26582542 16
2.0451281 -2.2817347 -0.15805025 16
2.0571887 -2.2959969 -0.052611627 19
2.0491843 -2.2878666 0.8121624 20
2.05021 -2.2898159 0.70019281 18
2.0452337 -2.2850602 0.58811718 17
2.0507045 -2.2919774 0.48050588 15
2.0436647 -2.2849119 0.37170148 19
2.057323 -2.3009906 0.26669657 19
2.0485766 -2.2920129 0.15910131 16
2.047313 -2.291404 0.052968048 21
1.2824091 -1.4378278 -0.50599146 3
1.4779482 -1.6576474 -0.50389069 3
1.7661169 -1.9815496 -0.50804973 4
2.0359883 -2.2851431 -0.47868985 6
2.0619795 -2.3151286 -0.37596735 9
2.0524991 -2.305294 -0.26669699 15
2.0437901 -2.2963195 -0.15857187 17
2.0558078 -2.3106337 -0.052784409 18
2.0476055 -2.3022237 0.81474888 19
2.0486791 -2.3042405 0.70244062 18
2.0437663 -2.2995229 0.59002358 17
2.0492518 -2.3065057 0.48206848 15
2.0422673 -2.2994525 0.37292019 20
2.0558925 -2.3156073 0.26756814 18
2.0471923 -2.3066189 0.15962467 15
2.0492556 -2.3097556 0.053229839 22
1.2805845 -1.445911 -0.50728554 4
1.4753823 -1.6664437 -0.50501537 3
1.7591891 -1.9877024 -0.50804973 4
2.0345438 -2.2996333 -0.4802542 7
2.0604615 -2.329747 -0.37718606 9
2.051038 -2.3199079 -0.26756853 16
2.045682 -2.3146636 -0.1593543 17
2.0543497 -2.3252888 -0.052957188 17
2.0459511 -2.3165975 0.81733537 19
2.0470722 -2.3186824 0.70468843 18
2.0454702 -2.317683 0.59288311 16
2.0477226 -2.3210516 0.4836311 14
2.0407934 -2.3140116 0.37413886 18
2.0543849 -2.3302422 0.26843968 19
2.0490324 -2.3249888 0.16040969 16
2.0477901 -2.3243968 0.053404361 21
1.2755294 -1.4503723 -0.50728554 3
1.4695565 -1.6715837 -0.50501537 3
1.7489997 -1.990144 -0.50709653 4
2.0330229 -2.3141413 -0.48181856 7
2.058866 -2.344383 -0.37840474 8
2.0527861 -2.3382831 -0.2688759 16
2.0441768 -2.3292964 -0.15987591 16
2.0528142 -2.339962 -0.053129975 17
2.0474057 -2.334619 0.82121515 20
2.0453894 -2.3331409 0.70693624 18
2.0438378 -2.3321917 0.59478951 17
2.0461166 -2.3356147 0.48519373 14
2.0425124 -2.3323214 0.37596691 19
2.0528002 -2.3448946 0.26931125 18
2.0474808 -2.3396423 0.16093306 16
2.0462472 -2.3390563 0.053578883 19
1.2672821 -1.4511782 -0.50599146 3
1.4637125 -1.6767032 -0.50501537 3
1.7420422 -1.9962369 -0.50709653 5
2.034672 -2.3323882 -0.48416507 7
2.0571933 -2.359036 -0.37962344 8
2.0511575 -2.3529434 -0.26974744 15
2.0425947 -2.3439467 -0.16039754 15
2.0512013 -2.3546524 -0.053302754 17
2.0455878 -2.349036 0.8238017 20
2.0436306 -2.347616 0.70918405 17
2.0421286 -2.3467174 0.59669584 17
2.0444338 -2.3501949 0.48675635 15
2.0408716 -2.3469267 0.37718561 17
2.0511379 -2.3595643 0.27018279 18
2.0458517 -2.3543129 0.16145642 15
2.0479054 -2.357507 0.053840671 22
1.262463 -1.4553727 -0.50599146 3
1.4584378 -1.6812934 -0.50501537 3
1.7357624 -2.0016999 -0.50709653 5
2.0338039 -2.3462322 -0.48572943 7
2.0595217 -2.3767385 -0.38145146 8
2.053539 -2.3706703 -0.27105477 15
2.0417581 -2.3579013 -0.16091916 16
2.0503376 -2.3686445 -0.053475533 18
2.0445187 -2.3627555 0.82638818 21
2.0426202 -2.3613942 0.7114318 18
2.0443773 -2.3642595 0.59955543 17
2.0467293 -2.3678145 0.48910025 14
2.0399778 -2.360837 0.37840432 17
2.0502272 -2.3735354 0.27105436 18
2.0449719 -2.3682868 0.16197978 15
2.0470221 -2.3714979 0.054015197 21
1.2576299 -1.4595511 -0.50599146 3
1.4525601 -1.6863739 -0.50501537 3
1.7287644 -2.0077467 -0.50709653 5
2.0320449 -2.3608029 -0.48729378 7
2.0576868 -2.3914371 -0.38267016 8
2.0517476 -2.3853765 -0.27192634 15
2.0400259 -2.3725863 -0.16144077 15
2.0485742 -2.3833694 -0.053648315 17
2.0457017 -2.380868 0.83026797 19
2.0438883 -2.3795974 0.71480352 17
2.0425069 -2.3788292 0.60146183 16
2.0448844 -2.3824394 0.49066287 14
2.0414193 -2.3792422 0.38023233 18
2.0484152 -2.3882391 0.27192593 17
2.0464427 -2.3867824 0.16276482 15
2.0452385 -2.3862207 0.054189719 23
1.2522718 -1.4641508 -0.50599146 3
1.4463695 -1.6916865 -0.50501537 4
1.7213941 -2.0140693 -0.50709653 5
2.0330021 -2.3794985 -0.48964027 7
2.0553539 -2.4065101 -0.38388884 8
2.0494595 -2.4004567 -0.27279788 15
2.0377991 -2.3876433 -0.16196239 15
2.0463145 -2.3984683 -0.053821094 17
2.0432298 -2.3956995 0.83285445 19
2.0414746 -2.3944876 0.71705133 16
2.0401418 -2.3937705 0.60336822 17
2.0425444 -2.3974369 0.4922255 14
2.0391207 -2.3942647 0.38145101 18
2.0461061 -2.4033163 0.27279747 16
2.0441532 -2.4018717 0.16328818 15
2.0461969 -2.4051235 0.054451503 22
1.2471533 -1.468513 -0.50599146 3
1.4373027 -1.6930113 -0.50389069 4
1.7143532 -2.0200658 -0.50709653 5
2.0310733 -2.3941123 -0.49120462 7
2.0533607 -2.4212399 -0.38510755 8
2.0507307 -2.4189944 -0.27410525 15
2.0359087 -2.4023604 -0.16248401 15
2.0476243 -2.4170401 -0.054080263 17
2.044219 -2.4138744 0.83673418 18
2.0425477 -2.4127548 0.72042304 17
2.0412858 -2.4121177 0.60622776 17
2.0437319 -2.4158633 0.49456945 14
2.0403645 -2.4127364 0.38327909 17
2.0473514 -2.4218557 0.2741048 18
2.0422025 -2.4166203 0.16381153 15
2.0442414 -2.4198895 0.054626029 22
1.2420197 -1.4728576 -0.50599146 3
1.4313843 -1.6980181 -0.50389069 4
1.7072915 -2.0260377 -0.50709653 5
2.0290673 -2.4087412 -0.49276894 6
2.0512898 -2.4359848 -0.38632622 8
2.0486898 -2.4337592 -0.27497679 15
2.0339401 -2.4170935 -0.16300564 15
2.0456111 -2.4318242 -0.054253042 18
2.0419974 -2.4283886 0.83932066 19
2.0435181 -2.4310584 0.72379482 18
2.0391686 -2.4267437 0.60813409 17
2.0416398 -2.4305458 0.49613208 13
2.0415039 -2.4312456 0.3851071 18
2.04529 -2.4366176 0.27497637 18
2.0401735 -2.4313841 0.16433489 15
2.0422075 -2.4346707 0.054800551 21
1.2399713 -1.4808869 -0.50728554 3
1.4223212 -1.6992682 -0.50276589 4
1.6970592 -2.0282209 -0.50614333 5
2.0143101 -2.4082334 -0.49120462 4
2.0523241 -2.4545519 -0.3881543 8
2.0465708 -2.4485393 -0.27584836 15
2.0350952 -2.4356737 -0.16378805 15
2.0467243 -2.4504607 -0.054512214 17
2.0427947 -2.446624 0.84320045 18
2.0412636 -2.4456575 0.72604263 17
2.0369742 -2.4413846 0.61004049 16
2.0394692 -2.4452426 0.49769467 13
2.039361 -2.4459803 0.38632578 18
2.0463388 -2.4552207 0.27628368 17
2.0380664 -2.4461629 0.16485825 15
2.0432947 -2.4533091 0.055062339 21
1.2347945 -1.4852061 -0.50728554 3
1.4163809 -1.7042226 -0.50276589 3
1.6899691 -2.0341322 -0.50614333 4
2.0721502 -2.4950306 -0.50763023 10
2.0500836 -2.4693377 -0.38937297 7
2.0443733 -2.4633341 -0.2767199 15
2.0329571 -2.4504483 -0.16430967 15
2.0445409 -2.4652865 -0.054684997 16
2.0404072 -2.4611762 0.84578699 19
2.0420406 -2.4640217 0.72941428 17
2.0347025 -2.4560399 0.61194688 17
2.0403712 -2.4637575 0.50003856 14
2.0403044 -2.4645522 0.38815385 18
2.0441074 -2.4700236 0.27715525 18
2.0390635 -2.4648044 0.16564329 14
2.0410905 -2.4681313 0.055236865 21
1.2296027 -1.4895074 -0.50728554 3
1.4104235 -1.7091564 -0.50276589 3
1.6797347 -2.0362325 -0.50519013 4
2.0759959 -2.517489 -0.51075894 8
2.0509217 -2.4879668 -0.39120105 8
2.0420973 -2.4781432 -0.27759147 15
2.033915 -2.4690917 -0.1650921 16
2.0454564 -2.4839857 -0.054944165 18
2.0410123 -2.4794705 0.84966671 19
2.0396187 -2.4786589 0.73166209 17
2.0323532 -2.4707084 0.61385328 16
2.0380323 -2.4784937 0.50160128 14
2.0379918 -2.4793267 0.38937253 19
2.0449598 -2.4886889 0.27846259 19
2.0367858 -2.4796236 0.16616665 15
2.04198 -2.4868319 0.055498648 22
1.2243959 -1.4937904 -0.50728554 3
1.4044487 -1.7140691 -0.50276589 3
1.6726167 -2.0420835 -0.50519013 4
2.0640671 -2.5208993 -0.5099768 7
2.0485113 -2.5027916 -0.39241973 8
2.0397429 -2.4929664 -0.27846304 14
2.0316064 -2.4839065 -0.16561371 14
2.043102 -2.4988511 -0.055116944 18
2.0384579 -2.4940591 0.8522532 20
2.0402017 -2.497082 0.73503381 17
2.0330307 -2.489192 0.61671281 16
2.0356147 -2.4932439 0.50316387 14
2.0356009 -2.4941151 0.39059123 17
2.0425577 -2.503531 0.27933416 18
2.0375853 -2.4983265 0.16695169 15
2.0396049 -2.5016937 0.055673171 20
1.2191741 -1.4980552 -0.50728554 4
1.4015317 -1.7227405 -0.50389069 3
1.6654783 -2.0479095 -0.50519013 4
2.0521398 -2.5242567 -0.50919461 6
2.0491521 -2.5214808 -0.39424777 8
2.0404506 -2.5116694 -0.27977037 15
2.0323668 -2.5026112 -0.16639614 15
2.0438197 -2.5176117 -0.055376116 17
2.0388699 -2.5124106 0.85613298 19
2.0376115 -2.5117557 0.73728162 16
2.0305128 -2.5038981 0.6186192 17
2.0362291 -2.5118432 0.50550777 13
2.0331314 -2.5089169 0.39180991 18
2.0432124 -2.5222569 0.2806415 18
2.0351367 -2.5131845 0.16747504 13
2.0402963 -2.5204554 0.055934958 20
1.2139375 -1.5023018 -0.50728554 4
1.3955097 -1.7276223 -0.50389069 4
1.6614033 -2.0575297 -0.50614333 5
2.0464177 -2.5352476 -0.5099768 6
2.0465705 -2.5363426 -0.39546645 8
2.0379252 -2.5265305 -0.28064194 14
2.029887 -2.5174642 -0.16691776 15
2.0412936 -2.532515 -0.055548895 18
2.0391784 -2.5307949 0.86001271 19
2.0379999 -2.5302358 0.74065334 17
2.0309949 -2.52244 0.6214788 17
2.0336418 -2.5266302 0.50707042 13
2.0336943 -2.5275981 0.39363798 18
2.0406394 -2.5371363 0.28151307 17
2.035738 -2.5319471 0.1682601 15
2.0377495 -2.5353553 0.056109484 21
1.2086861 -1.5065302 -0.50728554 4
1.3894707 -1.732483 -0.50389069 3
1.654211 -2.0633166 -0.50614333 4
2.0406439 -2.5462289 -0.51075894 5
2.0439103 -2.5512171 -0.39668515 9
2.0384345 -2.5452921 -0.28194925 15
2.0304489 -2.5362282 -0.16770019 14
2.0418124 -2.5513349 -0.055808067 17
2.0363665 -2.5454404 0.86259925 17
2.0382841 -2.5487492 0.74402505 16
2.0313721 -2.5410154 0.62433833 16
2.0340593 -2.5452874 0.50941437 14
2.0310538 -2.5424364 0.39485666 17
2.0379868 -2.5520284 0.2823846 17
2.0331178 -2.5468426 0.16878346 14
2.0351236 -2.5502679 0.056284007 20
1.2036836 -1.51053 -0.50728554 4
1.384021 -1.7368397 -0.50389069 3
1.6477209 -2.0685031 -0.50614333 4
2.0326347 -2.5526273 -0.51075894 5
2.0451579 -2.5692742 -0.3985132 8
2.0397325 -2.5633767 -0.28325659 16
2.0286877 -2.55041 -0.1682218 15
2.04001 -2.565563 -0.05598085 17
2.0373757 -2.5631683 0.86647898 18
2.0363288 -2.5627692 0.74627286 16
2.0325377 -2.5589149 0.62719792 16
2.0321951 -2.5594003 0.51097697 14
2.0323124 -2.5604658 0.39668468 17
2.0392473 -2.5701241 0.28369194 17
2.0344152 -2.5649533 0.16956849 15
2.0364194 -2.5684009 0.056545794 19
1.1986679 -1.5145133 -0.50728554 3
1.37795 -1.7416601 -0.50389069 3
1.6404904 -2.0742421 -0.50614333 4
2.0267746 -2.563581 -0.51154113 5
2.0423312 -2.5841846 -0.3997319 8
2.0369477 -2.5782976 -0.28412816 15
2.029057 -2.5692315 -0.16900423 15
2.0372376 -2.5805159 -0.056153629 18
2.0373924 -2.5816386 0.87035877 18
2.0364234 -2.581337 0.74964464 16
2.0296719 -2.5737023 0.62910426 16
2.0324209 -2.5781136 0.51332086 13
2.0295057 -2.57534 0.39790338 17
2.036428 -2.585052 0.28456348 17
2.0316277 -2.5798845 0.17009185 14
2.0336261 -2.5833502 0.05672032 20
1.1931088 -1.5188965 -0.50728554 3
1.3715571 -1.7466989 -0.50389069 3
1.632877 -2.080241 -0.50614333 4
2.017365 -2.5709922 -0.51154113 4
2.0420346 -2.6033673 -0.40155992 8
2.0367043 -2.5975053 -0.2854355 15
2.0257871 -2.5845108 -0.16952586 16
2.0370157 -2.5997705 -0.056412797 18
2.0338731 -2.5966933 0.87294525 18
2.0359592 -2.6002917 0.75301629 16
2.0293007 -2.5927196 0.63196379 16
2.0320876 -2.597214 0.51566482 13
2.0292253 -2.5944886 0.39973143 17
2.0330756 -2.6003466 0.28543505 16
2.0313826 -2.5991156 0.17087689 14
2.0333776 -2.6026044 0.056982104 19
1.1877997 -1.5230519 -0.50728554 3
1.3654517 -1.7514759 -0.50389069 3
1.6256056 -2.0859282 -0.50614333 4
2.0083783 -2.5780184 -0.51154113 4
2.0420823 -2.6222258 -0.40338799 7
2.0337443 -2.6124597 -0.28630704 15
2.0259528 -2.6033881 -0.17030828 15
2.0340676 -2.6147573 -0.056585576 17
2.0336914 -2.6152151 0.87682498 18
2.0328503 -2.6150756 0.7552641 16
2.0292733 -2.6114144 0.63482338 16
2.0320981 -2.6159916 0.51800871 13
2.0292878 -2.6133153 0.40155947 17
2.033149 -2.6192317 0.28674239 16
2.0284195 -2.6140804 0.17140025 14
2.0304086 -2.6175869 0.057156626 19
1.1824759 -1.5271889 -0.50728554 3
1.3563474 -1.7523787 -0.50276589 3
1.6183145 -2.0915897 -0.50614333 4
2.0023885 -2.5889196 -0.51232326 4
2.0389876 -2.6371901 -0.40460667 7
2.033751 -2.631366 -0.28761441 13
2.0229585 -2.6183467 -0.17082989 15
2.0340953 -2.6337111 -0.056844749 17
2.0334048 -2.6337674 0.88070476 17
2.03264 -2.6337264 0.75863582 16
2.0261416 -2.6262543 0.63672978 16
2.0320022 -2.6348014 0.52035266 13
2.0292435 -2.632174 0.40338752 18
2.0300748 -2.6342032 0.28761396 16
2.028424 -2.6330113 0.17218529 14
2.0304101 -2.6365409 0.057418413 20
1.1771379 -1.5313071 -0.50728554 3
1.3502222 -1.7571026 -0.50276589 3
1.6110035 -2.0972261 -0.50614333 4
1.9933393 -2.5958934 -0.51232326 4
2.038835 -2.6561015 -0.40643471 7
2.0306177 -2.6463523 -0.28848594 14
2.0229235 -2.6372781 -0.17161232 14
2.0340154 -2.6526971 -0.057103917 17
2.0330136 -2.652349 0.88458449 17
2.0323236 -2.6524076 0.76200753 15
2.0259159 -2.6450007 0.63958937 16
2.0287971 -2.6497204 0.52191532 13
2.0260756 -2.6471231 0.40460619 17
2.0299475 -2.6531413 0.28892127 16
2.0252876 -2.6480083 0.17270865 13
2.0272672 -2.6515551 0.05759294 18
1.1688554 -1.5315676 -0.50599146 3
1.3411257 -1.7579318 -0.50164115 3
1.6036731 -2.1028366 -0.50614333 4
1.9842658 -2.6028359 -0.51232326 4
2.0385754 -2.6750438 -0.40826276 8
2.0304232 -2.6653111 -0.28979328 14
2.0197556 -2.6522682 -0.17213394 15
2.0338278 -2.6717148 -0.057363093 16
2.0325172 -2.6709602 0.88846427 17
2.0319018 -2.6711187 0.76537925 15
2.0226126 -2.6598704 0.64149576 16
2.0285013 -2.6685812 0.52425927 13
2.0258307 -2.6660335 0.40643427 18
2.0297127 -2.6721103 0.29022864 16
2.0250907 -2.6669917 0.17349368 14
2.0270667 -2.6705618 0.057854723 18
1.1635021 -1.5356382 -0.50599146 3
1.3349812 -1.7626026 -0.50164115 3
1.5933601 -2.1045084 -0.50519013 4
1.9781483 -2.6136842 -0.51310545 4
2.038208 -2.6940165 -0.4100908 8
2.0271163 -2.6803281 -0.29066485 14
2.0195186 -2.6712511 -0.17291637 14
2.0305176 -2.6867743 -0.057535872 16
2.0319154 -2.6895998 0.892344 17
2.0313737 -2.6898587 0.76875097 16
2.0221875 -2.6786666 0.6443553 16
2.0280986 -2.6874719 0.52660316 14
2.0254781 -2.6849742 0.40826228 17
2.0293698 -2.6911097 0.29153597 16
2.0247858 -2.6860058 0.17427872 13
2.0267582 -2.6895988 0.058116511 20
1.1581347 -1.5396903 -0.50599146 3
1.3288205 -1.7672517 -0.50164115 3
1.5860044 -2.1100574 -0.50519013 4
1.969013 -2.6205733 -0.51310545 4
2.0347526 -2.7090511 -0.41130951 7
2.0267196 -2.699337 -0.29197219 13
2.0191741 -2.6902649 -0.1736988 14
2.0301275 -2.7058425 -0.057795044 17
2.0312085 -2.7082679 0.89622378 17
2.0307398 -2.7086275 0.77212268 14
2.0216558 -2.6974921 0.64721489 15
2.0275886 -2.7063923 0.52894711 13
2.0250182 -2.7039449 0.41009033 17
2.028919 -2.7101393 0.29284328 16
2.0243726 -2.7050505 0.17506377 14
2.0263414 -2.7086663 0.058378298 17
1.1527531 -1.5437236 -0.50599146 3
1.3226435 -1.7718794 -0.50164115 3
1.5786291 -2.1155806 -0.50519013 4
1.9598534 -2.6274304 -0.51310545 4
2.0341835 -2.7280726 -0.41313753 7
2.0262151 -2.7183762 -0.29327953 14
2.0157378 -2.7053049 -0.17422041 15
2.0296288 -2.7249405 -0.058054212 16
2.030396 -2.7269638 0.90010357 17
2.0299993 -2.7274244 0.7754944 15
2.0210171 -2.7163463 0.65007442 15
2.0269709 -2.7253413 0.53129101 13
2.0214896 -2.7189624 0.41130903 16
2.0283601 -2.7291982 0.29415065 15
2.0238512 -2.7241244 0.1758488 13
2.0258162 -2.7277637 0.058640081 19
1.1473575 -1.547738 -0.50599146 3
1.3164506 -1.7764856 -0.50164115 3
1.5712348 -2.1210783 -0.50519013 3
1.9506701 -2.6342556 -0.51310545 3
2.0305533 -2.743134 -0.41435623 8
2.0256023 -2.7374444 -0.29458687 8
2.0151904 -2.7243676 -0.17500284 14
2.0290215 -2.7440679 -0.058313385 17
2.0266063 -2.7418022 0.90269005 17
2.0291522 -2.7462494 0.77886611 16
2.0202715 -2.7352288 0.65293401 15
2.0262456 -2.7443192 0.53363496 12
2.0208273 -2.7379808 0.41313705 17
2.0247355 -2.7442784 0.29502219 15
2.0232213 -2.7432277 0.17663385 13
2.0222154 -2.742866 0.058814604 19
1.1419479 -1.5517336 -0.50599146 3
1.3102413 -1.78107 -0.50164115 3
1.5638213 -2.12655 -0.50519013 3
1.9414628 -2.6410487 -0.51310545 4
2.0297821 -2.7622027 -0.41618428 7
2.0278296 -2.7605555 -0.29632998 11
2.014534 -2.743459 -0.17578526 14
2.0283053 -2.7632239 -0.058572553 17
2.0255949 -2.7605417 0.90656978 17
2.0253167 -2.7611728 0.78111392 15
2.0194182 -2.7541387 0.65579355 15
2.0254121 -2.763325 0.53597885 12
2.0200572 -2.7570276 0.41496509 17
2.0239732 -2.7633843 0.29632953 16
2.0224822 -2.7623594 0.17741889 14
2.0214865 -2.7620108 0.059076395 19
1.1365244 -1.5557103 -0.50599146 3
1.3040162 -1.7856327 -0.50164115 3
1.5563886 -2.1319957 -0.50519013 3
1.932232 -2.6478095 -0.51310545 4
2.0259774 -2.7772899 -0.41740298 7
2.0269856 -2.779691 -0.29763731 9
2.0137694 -2.7625794 -0.1765677 13
2.0245357 -2.778368 -0.058745332 17
2.024478 -2.7793076 0.91044956 17
2.0242698 -2.7800415 0.78448564 15
2.0213463 -2.777045 0.65960634 15
2.024471 -2.7823584 0.53832281 12
2.0191782 -2.7761023 0.41679314 16
2.0201735 -2.7784901 0.29720107 15
2.0216341 -2.7815194 0.17820393 13
2.0206482 -2.7811837 0.059338178 17
1.1310869 -1.5596681 -0.50599146 3
1.2977753 -1.7901736 -0.50164115 3
1.5489371 -2.1374154 -0.50519013 3
1.9200804 -2.6505387 -0.51232326 4
2.0250025 -2.7964032 -0.419231 7
2.0231116 -2.7948189 -0.29850888 8
2.009968 -2.7776823 -0.17708932 14
2.0236149 -2.79757 -0.059004504 16
2.0232542 -2.798099 0.91432929 17
2.0231156 -2.7989361 0.78785735 15
2.0202641 -2.7960188 0.66246587 15
2.0234215 -2.8014185 0.54066676 12
2.0181909 -2.7952044 0.41862118 16
2.0192075 -2.7976413 0.29850841 15
2.0177555 -2.796658 0.17872728 13
2.0167766 -2.7963295 0.059512701 18
1.1228141 -1.5596871 -0.50469732 3
1.2886728 -1.7907382 -0.50051636 3
1.5414668 -2.1428094 -0.50519013 3
1.9079335 -2.6532154 -0.51154113 4
2.0239189 -2.8155439 -0.42105904 7
2.0220633 -2.8139989 -0.29981622 8
2.0089989 -2.7968476 -0.17787173 13
2.0225849 -2.8167989 -0.059263673 16
2.0219235 -2.8169158 0.91820908 17
2.0218539 -2.8178566 0.79122907 15
2.019074 -2.8150194 0.66532546 15
2.0222631 -2.8205049 0.54301065 11
2.0170944 -2.8143332 0.4204492 16
2.0181324 -2.8168197 0.29981574 15
2.0167031 -2.8158624 0.17951232 13
2.0157337 -2.815547 0.059774488 18
1.114555 -1.5596675 -0.50340325 3
1.282414 -1.7952257 -0.50051636 3
1.5339775 -2.1481771 -0.50519013 3
1.8986604 -2.6598592 -0.51154113 5
2.0227263 -2.8347108 -0.42288712 7
2.020906 -2.8332055 -0.30112356 8
2.0079203 -2.81604 -0.17865416 14
2.021445 -2.836055 -0.059522845 16
2.0204864 -2.8357568 0.9220888 17
2.0233111 -2.8407705 0.79572469 15
2.0177758 -2.8340452 0.668185 15
2.0209966 -2.8396177 0.5453546 12
2.0158892 -2.8334882 0.42227724 16
2.016948 -2.8360245 0.30112308 14
2.0155408 -2.8350935 0.18029736 13
2.0145814 -2.8347912 0.060036272 17
1.1091039 -1.5635486 -0.50340325 3
1.2761396 -1.7996913 -0.50051636 3
1.5264697 -2.1535184 -0.50519013 3
1.8893641 -2.6664705 -0.51154113 5
2.0214241 -2.8539033 -0.42471513 7
2.0196385 -2.8524377 -0.3024309 8
2.0067325 -2.8352587 -0.17943659 13
2.0201955 -2.8553371 -0.059782017 16
2.0217311 -2.8585656 0.92726189 16
2.0218203 -2.8597503 0.79909641 16
2.0163693 -2.8530965 0.67104459 15
2.0196207 -2.8587556 0.54769856 12
2.0145748 -2.8526692 0.42410532 16
2.0185268 -2.8593245 0.30286619 14
2.0113902 -2.850271 0.18082072 13
2.013319 -2.8540614 0.060298059 18
1.1175418 -1.5871552 -0.50987375 3
1.2698499 -1.8041348 -0.50051636 3
1.5217676 -2.1628482 -0.50614333 3
1.8800449 -2.6730494 -0.51154113 4
2.0228672 -2.8771811 -0.42715251 7
2.0182619 -2.8716958 -0.30373824 8
2.0054345 -2.8545034 -0.18021902 14
2.0188358 -2.874645 -0.060041185 17
2.0200658 -2.8774643 0.93114161 17
2.0202219 -2.8787546 0.80246812 14
2.0148542 -2.8721721 0.67390412 15
2.018136 -2.8779185 0.55004251 12
2.0131507 -2.871875 0.42593333 16
2.0171089 -2.8785906 0.30417356 14
2.0100229 -2.869544 0.18160577 12
2.0148139 -2.8774524 0.060647108 17
1.1095051 -1.5868942 -0.50857961 3
1.2669674 -1.8121082 -0.50164115 3
1.5121535 -2.163595 -0.50519013 3
1.8716381 -2.6789424 -0.51154113 5
2.0223429 -2.8957281 -0.42898059 6
2.0177839 -2.8902748 -0.30504557 9
2.0078871 -2.8771682 -0.18126225 13
2.0183756 -2.8932736 -0.060300358 16
2.0220668 -2.8996429 0.93631458 16
2.0195265 -2.8970776 0.80583984 15
2.0142395 -2.8905687 0.67676371 15
2.020376 -2.9004538 0.5531677 12
2.0126259 -2.8904035 0.42776138 16
2.016592 -2.8971775 0.30548087 14
2.0095532 -2.88814 0.18239079 13
2.0143278 -2.8960803 0.060908895 18
nan nan nan 0
1.2606343 -1.8165197 -0.50164115 3
1.5017943 -2.1648276 -0.504237 3
1.8650897 -2.6895177 -0.51232326 4
2.0235319 -2.9190841 -0.43141797 6
2.0190308 -2.9136767 -0.30678868 9
2.0063612 -2.8964734 -0.18204468 14
2.0196481 -2.9167418 -0.060645919 15
2.0201795 -2.9185979 0.94019437 16
2.0204899 -2.9201353 0.81033546 15
2.0153055 -2.9137292 0.68057644 15
2.0186646 -2.9196749 0.55551165 12
2.010989 -2.9096587 0.42958942 16
2.0149605 -2.9164934 0.30678821 14
2.007972 -2.9074628 0.18317585 12
2.0155673 -2.9195502 0.061257944 17
nan nan nan 0
1.2567307 -1.8251404 -0.50276589 3
1.4938499 -2.1703172 -0.504237 3
1.8580189 -2.7004039 -0.51310545 4
2.0212562 -2.9387476 -0.43324599 6
2.0168037 -2.9333708 -0.30809602 8
2.0042162 -2.9161525 -0.18282712 13
2.0174365 -2.936486 -0.060905088 17
2.0176713 -2.9379265 0.94407409 16
2.0180459 -2.9395709 0.81370717 14
2.0157218 -2.9372842 0.68438917 15
2.0163314 -2.9392717 0.55785561 10
2.0115378 -2.9333816 0.4320268 16
2.0127063 -2.9361839 0.30809554 12
2.0029469 -2.9230409 0.18369921 14
2.0133283 -2.9392912 0.061519727 15
1.0901009 -1.5944388 -0.50728554 3
1.2503523 -1.8295162 -0.50276589 3
nan nan nan 0
1.8513664 -2.7109513 -0.51388764 4
2.0221779 -2.9621801 -0.43568337 7
2.0149751 -2.9527357 -0.30940336 8
2.0024662 -2.9355054 -0.18360955 6
2.0156233 -2.9559014 -0.06116426 15
2.0182853 -2.9609151 0.94924712 15
2.0160029 -2.9586761 0.81707889 15
2.0137458 -2.9564724 0.68724877 14
2.0143974 -2.9585388 0.5601995 10
2.0096631 -2.952693 0.43385485 15
2.0136523 -2.9596646 0.30983865 12
2.0011554 -2.9424007 0.18448423 11
2.0142989 -2.9628384 0.061868776 17
nan nan nan 0
1.2521632 -1.845965 -0.50614017 3
nan nan nan 0
1.8418922 -2.7173972 -0.51388764 4
2.0229609 -2.9856551 -0.43812078 6
2.0130355 -2.9721234 -0.3107107 8
2.0034049 -2.9590163 -0.18465278 16
2.0136993 -2.9753399 -0.061423428 14
2.0160568 -2.979943 0.95312691 16
2.0165803 -2.9818385 0.82157451 15
2.0144095 -2.979749 0.69106156 13
2.0123534 -2.9778278 0.56254345 12
2.0104558 -2.9761395 0.43629223 15
2.0116713 -2.9790595 0.31114599 15
1.9964595 -2.9576454 0.18500759 12
2.0123334 -2.9822838 0.062130563 16
1.0519642 -1.561952 -0.49434459 3
1.2293872 -1.8260767 -0.49939165 3
1.479262 -2.1980577 -0.50709653 4
1.8323953 -2.7238102 -0.51388764 4
2.0236042 -3.009171 -0.44055817 7
2.0109854 -2.9915338 -0.31201804 9
2.0042031 -2.9825687 -0.18569601 10
2.0116639 -2.9948006 -0.061682601 15
2.0164123 -3.0030017 0.95829988 16
2.0143051 -3.0009952 0.82494622 14
2.0122001 -2.9989898 0.69392109 14
2.0101993 -2.9971385 0.5648874 10
2.0111096 -2.9996274 0.43872961 14
2.0095797 -2.9984765 0.31245336 15
1.9972396 -2.9811893 0.18605432 12
2.0102561 -3.0017512 0.062392347 17
nan nan nan 0
1.2365386 -1.8506107 -0.50501537 3
1.4661279 -2.1950445 -0.50519013 3
1.8256187 -2.734297 -0.51466984 3
2.0185978 -3.024472 -0.44177687 11
2.0088236 -3.0109653 -0.31332538 9
2.0020912 -3.0020092 -0.18647844 11
2.0122902 -3.0184429 -0.062028162 14
2.0166311 -3.0260983 0.9634729 16
2.014622 -3.0242271 0.82944185 13
2.0098808 -3.0182517 0.69678068 14
2.0106711 -3.0205812 0.5680126 13
2.0088744 -3.0190241 0.44055766 15
2.0073762 -3.0179148 0.31376067 11
2.0006442 -3.0089324 0.18736272 13
2.0080678 -3.0212407 0.062654138 16
1.0330245 -1.5571843 -0.4904623 4
1.227379 -1.8508557 -0.50389069 3
1.4503211 -2.1878757 -0.5023306 3
1.8133351 -2.7365363 -0.51388764 4
2.002547 -3.0232248 -0.44055817 10
2.0093009 -3.0345716 -0.31506851 9
2.0026238 -3.0256345 -0.18752168 9
2.0100172 -3.0379565 -0.062287334 14
2.0167131 -3.0492334 0.96864593 17
2.0148008 -3.0474975 0.83393741 15
2.0074515 -3.0375338 0.69964021 14
2.0082817 -3.0399432 0.57035655 13
2.009263 -3.042583 0.44299504 14
2.0105503 -3.0456879 0.31593958 16
2.0011292 -3.0325677 0.18840943 13
2.0057676 -3.0407512 0.062915921 17
1.0408617 -1.58095 -0.49693277 4
nan nan nan 0
1.4264895 -2.1683221 -0.49661148 3
1.8037719 -2.7428493 -0.51388764 4
1.9892555 -3.0260496 -0.43994883 8
2.006902 -3.0540547 -0.31637582 7
2.0002744 -3.0451264 -0.1883041 10
2.0103765 -3.0616701 -0.062632896 15
2.014008 -3.0683677 0.97252572 16
2.0121689 -3.0667324 0.83730918 13
2.0049121 -3.0568354 0.70249981 15
2.0084891 -3.0634549 0.5734818 12
2.0067909 -3.0620301 0.44482309 13
2.0108249 -3.0693533 0.31768268 14
2.0042093 -3.0604205 0.18971784 11
2.0060937 -3.064465 0.063264973 16
nan nan nan 0
1.2117634 -1.8553002 -0.50276589 2
1.4511116 -2.2226071 -0.50804973 3
1.7941866 -2.7491288 -0.51388764 5
1.9732573 -3.0246623 -0.43873012 8
2.0043919 -3.0735581 -0.31768319 7
2.0005398 -3.0688219 -0.18934733 10
2.0105946 -3.0854228 -0.062978454 14
2.0138299 -3.091567 0.97769868 16
2.0120859 -3.0900686 0.8418048 14
2.0022621 -3.0761559 0.70535934 14
2.0058634 -3.082866 0.57582569 12
2.0042076 -3.081497 0.44665113 14
2.0218186 -3.1097617 0.3211689 11
2.0071187 -3.088331 0.19102623 9
2.0035551 -3.0840254 0.063526757 17
1.0219166 -1.5760211 -0.49305049 4
nan nan nan 0
1.4273306 -2.2029433 -0.5023306 3
1.7872641 -2.7595201 -0.51466984 4
1.9599903 -3.0273659 -0.43812078 6
2.0044761 -3.0972626 -0.3194263 6
1.9979519 -3.0883634 -0.19012977 10
2.0052416 -3.1008179 -0.063151233 15
2.0108922 -3.1107461 0.98157841 16
2.0092196 -3.1093495 0.84517652 14
1.9995018 -3.0954955 0.70821887 15
2.0058057 -3.1064444 0.57895094 12
2.0015128 -3.1009831 0.44847915 14
2.0136518 -3.1209857 0.32160467 13
2.0044451 -3.1079068 0.19181128 11
2.0036128 -3.1078072 0.063875802 16
nan nan nan 0
1.185604 -1.8432277 -0.49714214 3
1.4382139 -2.2368119 -0.50900286 3
1.7776207 -2.7657421 -0.51466984 4
1.9440457 -3.0258384 -0.43690211 5
2.0017271 -3.1168137 -0.32073361 7
1.9952519 -3.107924 -0.19091219 9
1.9998058 -3.1162136 -0.063324012 15
2.0104527 -3.1340077 0.98675144 16
2.0088737 -3.1327493 0.84967214 13
1.9992793 -3.1189849 0.71203166 15
2.0029433 -3.1259017 0.58129489 13
2.0013828 -3.1246667 0.45091653 15
2.0054309 -3.1321905 0.32204047 11
2.0016589 -3.127501 0.1925963 14
2.0035291 -3.1316266 0.064224847 17
1.0316828 -1.6156814 -0.50340325 3
nan nan nan 0
1.4356775 -2.2500942 -0.51090926 3
1.7679554 -2.7719302 -0.51466984 3
1.930804 -3.0284216 -0.43629274 5
2.0015433 -3.1405838 -0.32247674 6
1.9951224 -3.1317146 -0.19195542 10
1.9942864 -3.1316085 -0.063496798 6
2.0098753 -3.1573038 0.99192441 16
2.0057728 -3.1520734 0.85304385 14
1.9962829 -3.1383693 0.71489125 14
2.002619 -3.1495438 0.58442014 14
1.9984498 -3.1441989 0.4527446 16
1.9998276 -3.1475799 0.32291204 12
2.0014374 -3.1513288 0.19364302 13
2.0033033 -3.1554835 0.064573899 15
nan nan nan 0
1.1727071 -1.8514599 -0.49714214 3
nan nan nan 0
1.758269 -2.7780848 -0.51466984 4
1.9149143 -3.0267549 -0.43507403 6
2.0012178 -3.1643906 -0.32421988 7
1.9921831 -3.1513219 -0.19273785 11
1.9940256 -3.1554556 -0.063842356 5
2.0091598 -3.1806343 0.99709749 16
2.005163 -3.1755338 0.85753942 14
1.9957955 -3.161921 0.71870399 15
2.0021541 -3.1732221 0.58754539 12
1.9980522 -3.1679459 0.45518199 14
1.9861718 -3.1503277 0.32247624 15
2.0010743 -3.1751933 0.19468975 14
2.0029354 -3.1793766 0.064922951 15
0.99981219 -1.5901356 -0.49305049 4
1.1688294 -1.8596667 -0.49826688 3
nan nan nan 0
1.7485608 -2.7842052 -0.51466984 4
1.89906 -3.0250146 -0.43385535 5
1.9981027 -3.1840138 -0.32552719 8
1.9917841 -3.1751759 -0.19378109 9
1.996278 -3.183574 -0.064274311 16
2.0083058 -3.2039974 1.0022705 16
2.0018263 -3.1948996 0.86091119 13
1.9951676 -3.1855075 0.72251672 15
2.0015481 -3.1969349 0.59067065 9
1.9975129 -3.1917286 0.45761937 15
1.9936553 -3.186801 0.32552668 15
1.9979206 -3.1948593 0.19547479 7
2.0024247 -3.2033052 0.065271996 16
nan nan nan 0
1.162331 -1.8637353 -0.49826688 3
nan nan nan 0
1.7414434 -2.7944832 -0.51545197 4
1.8806173 -3.0189884 -0.43202728 6
1.9975077 -3.2078822 -0.3272703 9
1.9912429 -3.1990654 -0.19482432 8
1.9957174 -3.2075016 -0.064619869 10
2.0047619 -3.2232921 1.0061502 17
2.0009515 -3.2184179 0.86540681 13
1.994399 -3.2091277 0.72632951 15
2.0008008 -3.2206824 0.59379584 11
1.9942139 -3.2113297 0.45944741 16
1.9956539 -3.2149003 0.32770559 12
1.9972868 -3.2187846 0.19652151 10
2.0017715 -3.2272689 0.065621048 13
nan nan nan 0
1.1635092 -1.8802099 -0.50164115 3
nan nan nan 0
1.7316781 -2.800545 -0.51545197 4
1.885723 -3.0508628 -0.43568337 4
1.9967704 -3.2317848 -0.32901344 8
1.9879355 -3.2187419 -0.19560675 8
1.99764 -3.2357178 -0.065051816 10
2.0036447 -3.2467113 1.0113232 16
1.9999371 -3.2419693 0.86990243 13
1.9960661 -3.236959 0.73109537 13
1.9973205 -3.2402585 0.59613979 11
1.9934055 -3.2351713 0.4618848 15
1.9948684 -3.238811 0.3294487 13
1.9965105 -3.2427442 0.19756822 10
1.9983548 -3.2470093 0.065882832 15
1.0033282 -1.6334406 -0.50340325 3
1.1594881 -1.8884113 -0.50276589 3
nan nan nan 0
1.7218919 -2.8065724 -0.51545197 4
1.8802509 -3.0658879 -0.43690211 10
1.9932871 -3.2514749 -0.33032078 8
1.9871236 -3.2426908 -0.19665 10
1.9967787 -3.2597234 -0.065397382 11
2.0023878 -3.2701614 1.0164962 16
1.9987818 -3.2655523 0.87439805 13
1.9950018 -3.2606542 0.73490822 14
1.9963048 -3.2640631 0.59926498 11
1.9924549 -3.2590463 0.46432218 15
1.99394 -3.2627552 0.33119184 13
1.992988 -3.2624769 0.19835328 10
1.9974301 -3.2710316 0.066231877 15
0.99762028 -1.636933 -0.50340325 3
1.1554239 -1.8966079 -0.50389069 3
1.3703701 -2.2503223 -0.504237 3
1.7120848 -2.8125658 -0.51545197 4
1.8721173 -3.0766721 -0.43751144 11
1.9922792 -3.2754354 -0.33206388 8
1.9835746 -3.2624068 -0.19743241 11
1.9957738 -3.2837617 -0.06574294 11
1.9984838 -3.2895145 1.020376 16
1.9974865 -3.2891665 0.87889361 14
1.9937959 -3.2843812 0.73872095 15
1.9951468 -3.2879002 0.60239029 11
1.9913617 -3.2829542 0.46675956 15
1.9928688 -3.2867322 0.33293495 12
1.9919398 -3.286494 0.19939999 10
1.9937713 -3.2908113 0.066493668 15
0.99190027 -1.6404053 -0.50340325 3
1.1487966 -1.9006296 -0.50389069 3
1.3726597 -2.2718961 -0.50804973 3
1.7022564 -2.8185251 -0.51545197 4
1.8588015 -3.0789397 -0.43690211 12
1.9911278 -3.299428 -0.33380702 13
1.9824911 -3.2864127 -0.19847564 14
1.9920437 -3.3035519 -0.066002108 11
1.9969623 -3.3130164 1.0255491 16
1.9960505 -3.3128111 0.88338923 13
1.9924484 -3.3081391 0.74253368 14
1.9938469 -3.3117685 0.60551554 11
1.9901258 -3.3068938 0.46919695 15
1.9916544 -3.3107414 0.33467805 12
1.9881753 -3.3062644 0.20018502 11
1.9925742 -3.3148897 0.066842712 15
0.99859089 -1.6645653 -0.50987375 3
1.1396494 -1.9004496 -0.50276589 3
1.3596737 -2.268254 -0.50614333 3
1.6924076 -2.8244498 -0.51545197 4
1.8429424 -3.0768945 -0.43568337 11
1.9770397 -3.3020844 -0.33337122 13
1.9735715 -3.2975976 -0.19873646 13
1.9907663 -3.3276458 -0.066347674 11
1.9953012 -3.3365479 1.030722 16
1.9944738 -3.3364861 0.88788486 14
1.9909594 -3.3319275 0.74634641 14
1.9924043 -3.3356671 0.60864073 11
1.9887469 -3.3308644 0.47163433 15
1.9902962 -3.3347816 0.33642116 12
1.9868549 -3.3303363 0.20123175 10
1.9886727 -3.3347061 0.067104504 16
0.98536408 -1.6555904 -0.50599146 3
1.1330086 -1.9044162 -0.50276589 3
1.3592743 -2.2856424 -0.50900286 3
1.6825382 -2.8303401 -0.51545197 4
1.8271204 -3.0747759 -0.43446469 11
1.9629576 -3.3046832 -0.33293545 13
1.9620488 -3.3044665 -0.19873646 10
1.9867933 -3.347472 -0.066606842 11
1.9959643 -3.3642614 1.0371883 16
1.9927561 -3.3601902 0.89238054 12
1.9893286 -3.3557453 0.7501592 14
1.9933367 -3.3638446 0.61254728 11
1.9872247 -3.3548656 0.47407171 16
1.9887947 -3.3588529 0.33816427 12
1.9853905 -3.3544393 0.20227847 10
1.9846568 -3.3545351 0.067366287 12
0.97986859 -1.6588489 -0.50599146 3
1.1270202 -1.9079661 -0.50276589 3
1.3545825 -2.2941277 -0.50995612 3
1.6736382 -2.8356121 -0.51545197 4
1.8124082 -3.0719523 -0.43324599 9
1.9475055 -3.302253 -0.33206388 11
1.9440507 -3.2977099 -0.19795403 10
1.9864194 -3.3709252 -0.066952407 11
1.9951906 -3.3871613 1.0423613 16
1.9920779 -3.3832271 0.89687616 13
1.9887352 -3.3788986 0.75397193 14
1.9927762 -3.3871164 0.61567253 10
1.9867384 -3.3782032 0.47650909 14
1.98833 -3.3822603 0.33990738 12
1.9849613 -3.3778794 0.20332518 10
1.984237 -3.377996 0.067715332 6
0.97191972 -1.6579227 -0.50469732 3
1.1203532 -1.9118886 -0.50276589 3
1.3440856 -2.2946069 -0.50900286 3
1.6637298 -2.8414369 -0.51545197 4
1.7991674 -3.0739775 -0.43263665 9
1.930936 -3.3004322 -0.33119234 10
1.9249654 -3.2915452 -0.19717161 11
1.9847326 -3.3951023 -0.067297965 10
1.9955391 -3.4149556 1.0488275 15
1.9900855 -3.4069879 0.90137172 13
1.9868279 -3.4027746 0.75778466 14
1.9908985 -3.411113 0.61879778 11
1.9874383 -3.4065504 0.47955585 15
1.9865487 -3.4063911 0.34165052 11
1.9832171 -3.4020426 0.2043719 9
1.9850184 -3.4064987 0.068151645 54
0.96583658 -1.6614739 -0.50469732 3
1.1133384 -1.9159821 -0.50276589 3
1.3332013 -2.2952738 -0.50804973 3
1.6533043 -2.8475156 -0.51545197 4
1.7829063 -3.0719664 -0.43141797 10
1.9138272 -3.2988706 -0.33032078 11
1.9078785 -3.2899394 -0.19665 10
1.9823042 -3.4196541 -0.067643523 10
1.9926952 -3.4389625 1.0540005 17
1.9873524 -3.4311225 0.90586734 12
1.9866396 -3.4312725 0.76255065 13
1.9882778 -3.4354846 0.62192303 10
1.98488 -3.4309945 0.48199323 14
1.9840244 -3.430897 0.34339362 12
1.9832287 -3.4309027 0.2056803 10
1.9850252 -3.435394 0.068587951 54
0.96003109 -1.6648351 -0.50469732 3
1.1042106 -1.9156361 -0.50164115 3
1.3227305 -2.2956605 -0.50709653 2
1.6433545 -2.8532696 -0.51545197 4
1.7696962 -3.0738704 -0.4308086 10
1.8973314 -3.2968967 -0.32944921 9
1.8914033 -3.2879229 -0.19612837 10
1.9803238 -3.4438884 -0.067989089 10
1.9903065 -3.4626472 1.0591736 15
1.9874995 -3.459161 0.91148686 13
1.9844282 -3.4552114 0.76636338 13
1.986109 -3.4595361 0.62504828 11
1.9827719 -3.4551196 0.48443061 14
1.9844283 -3.4594047 0.34557253 11
1.9811753 -3.4551308 0.20672701 9
1.9854513 -3.4639888 0.069024265 54
0.95661193 -1.6723683 -0.50599146 3
1.0975171 -1.9194789 -0.50164115 3
1.3147091 -2.3002636 -0.50709653 2
1.6333847 -2.8589885 -0.51545197 4
1.7564946 -3.0757196 -0.43019927 9
1.8808728 -3.2948482 -0.32857767 9
1.8749655 -3.2858317 -0.19560675 8
1.9806747 -3.4724922 -0.068421036 10
1.9901689 -3.4905527 1.0656399 15
1.9850624 -3.4830089 0.91598248 12
1.9845034 -3.4834414 0.77112937 14
1.9862403 -3.4879053 0.62895483 10
1.9805193 -3.4792714 0.48686799 14
1.9821939 -3.4836271 0.34731564 11
1.9789771 -3.4793863 0.20777375 10
1.9857019 -3.4926279 0.069460578 52
0.95076841 -1.6756973 -0.50599146 3
1.0908102 -1.9232982 -0.50164115 3
1.3090925 -2.309109 -0.50804973 3
1.6258298 -2.868969 -0.51623416 4
1.7408557 -3.0731962 -0.42898059 9
1.8644518 -3.2927248 -0.3277061 8
1.8585653 -3.2836657 -0.19508514 9
1.9783887 -3.4967897 -0.068766601 10
1.9874827 -3.5142946 1.0708128 16
1.9848804 -3.5111232 0.92160207 12
1.9819906 -3.5074401 0.7749421 14
1.9837685 -3.5120173 0.63208008 10
1.9805624 -3.5077708 0.48991475 14
1.9822627 -3.5122139 0.34949452 11
1.9766334 -3.5036685 0.20882046 9
1.9857767 -3.521311 0.069896884 53
0.94491339 -1.6790059 -0.50599146 3
1.08409 -1.9270941 -0.50164115 3
1.3010242 -2.3136644 -0.50804973 3
1.6158053 -2.8746269 -0.51623416 4
1.7276865 -3.0749273 -0.42837122 10
1.8480684 -3.2905269 -0.32683456 7
1.8422033 -3.2814252 -0.19456352 9
1.9759567 -3.5211129 -0.069112159 10
1.987018 -3.5422728 1.0772791 15
1.9845265 -3.5392785 0.9272216 12
1.9817342 -3.5357451 0.77970797 13
1.9835663 -3.5404627 0.63598657 10
1.9780054 -3.5319827 0.49235213 15
1.9797231 -3.5364974 0.35123762 11
1.9741443 -3.527976 0.20986716 9
1.985675 -3.5500364 0.07033319 53
0.9390468 -1.6822941 -0.50599146 3
1.0773566 -1.9308666 -0.50164115 3
1.2929401 -2.3181918 -0.50804973 3
1.6057612 -2.8802495 -0.51623416 4
1.7121109 -3.0722694 -0.42715251 11
1.8317231 -3.2882552 -0.32596299 6
1.8258795 -3.2791109 -0.19404191 9
1.9733789 -3.5454619 -0.069457717 11
1.9863822 -3.5702903 1.0837454 15
1.9816316 -3.5632155 0.93171722 12
1.9789195 -3.5598011 0.78352082 14
1.9807907 -3.5646324 0.63911182 10
1.9753036 -3.5562196 0.49478951 14
1.9770377 -3.5608053 0.35298073 11
1.9739324 -3.556675 0.21117558 9
1.9829718 -3.5744324 0.070682235 52
0.93346292 -1.6853988 -0.50599146 3
1.0712852 -1.9342417 -0.50164115 3
1.2880281 -2.3265362 -0.50900286 3
1.5967047 -2.8852799 -0.51623416 4
1.7000486 -3.0732903 -0.42654318 10
1.8189735 -3.2896345 -0.32552719 6
1.8131533 -3.2804606 -0.19378109 9
1.9743187 -3.573523 -0.069889672 16
1.9844956 -3.5934253 1.0889184 15
1.9822009 -3.5907502 0.93733674 12
1.9795829 -3.5874877 0.78828669 13
1.9815086 -3.5924597 0.64301836 10
1.9761024 -3.5841374 0.49783626 14
1.9754579 -3.5844479 0.35472384 11
1.972386 -3.5803521 0.21222229 9
1.98379 -3.6025405 0.071118549 51
0.92786878 -1.688485 -0.50599146 3
1.0645269 -1.9379693 -0.50164115 3
1.2798992 -2.331018 -0.50900286 3
1.5866234 -2.8908358 -0.51623416 4
1.6845363 -3.0705042 -0.4253245 13
1.8026893 -3.2872288 -0.32465565 7
1.7968911 -3.2780125 -0.19325948 9
1.9522235 -3.562856 -0.069544114 8
1.9835408 -3.6215105 1.0953847 15
1.9790131 -3.6147413 0.94183236 12
1.9764736 -3.6115987 0.79209942 13
1.9784369 -3.6166852 0.64614362 11
1.973103 -3.6084304 0.50027364 14
1.9748787 -3.6131756 0.35690275 11
1.9718466 -3.6091249 0.21353069 9
1.9807872 -3.6269932 0.071467601 52
0.92398435 -1.6961155 -0.50728554 3
1.0574168 -1.9418581 -0.50164115 3
1.2713469 -2.3356934 -0.50900286 3
1.5736572 -2.8922939 -0.51545197 4
1.6709 -3.0722978 -0.42471513 12
1.7882501 -3.2894382 -0.32421988 6
1.7824804 -3.2801893 -0.19299866 8
1.9343793 -3.5612011 -0.069371328 7
1.9794725 -3.6457345 1.1005577 15
1.9773711 -3.6433806 0.94745183 12
1.9749258 -3.6403904 0.7968654 13
1.976939 -3.6456192 0.65005016 10
1.971689 -3.6374528 0.5033204 14
1.9711138 -3.6379073 0.35864586 11
1.9704949 -3.6382804 0.2148391 4
1.9770006 -3.6518145 0.071816646 52
0.91805816 -1.6993304 -0.50728554 4
1.050632 -1.9455372 -0.50164115 3
1.2631861 -2.340117 -0.50900286 3
1.5635515 -2.8977695 -0.51545197 4
1.6554537 -3.0693755 -0.42349643 12
1.7720293 -3.2868912 -0.32334828 6
1.766282 -3.2776 -0.19247703 8
1.917195 -3.559129 -0.069198549 7
1.9781832 -3.6738849 1.1070238 15
1.9761865 -3.6717114 0.95307136 12
1.9738339 -3.6688745 0.80163133 13
1.9735575 -3.6698959 0.65317541 10
1.9707286 -3.6661692 0.50636709 14
1.9701914 -3.6667042 0.36082476 11
1.971958 -3.6715291 0.21640916 12
1.9760649 -3.6807163 0.072252959 50
0.91212082 -1.7025248 -0.50728554 3
1.0438343 -1.9491928 -0.50164115 3
1.2550099 -2.344512 -0.50900286 3
1.5510972 -2.8988552 -0.51466984 4
1.6400484 -3.0663834 -0.42227775 10
1.7581967 -3.2886641 -0.32291251 6
1.752477 -3.2793419 -0.19221623 7
1.9000487 -3.5569804 -0.06902577 6
1.9767215 -3.7020702 1.1134901 15
1.974828 -3.700078 0.95869088 12
1.9725667 -3.6973946 0.80639732 13
1.9723545 -3.6985509 0.65708202 10
1.9695915 -3.6949229 0.50941384 14
1.9690914 -3.6955385 0.36300367 11
1.9732136 -3.7048328 0.21797925 12
1.9726019 -3.7052426 0.072602004 48
0.90390652 -1.7014333 -0.50599146 3
1.0370241 -1.9528245 -0.50164115 3
1.2445172 -2.3445435 -0.50804973 3
1.5409688 -2.9042518 -0.51466984 4
1.6270095 -3.0677052 -0.42166841 11
1.7443733 -3.2903805 -0.32247674 7
1.7363433 -3.2766151 -0.19169462 8
1.8829408 -3.5547557 -0.068852983 6
1.9750872 -3.7302902 1.1199565 15
1.9710164 -3.7241735 0.9631865 12
1.9688294 -3.7216122 0.81021005 13
1.9709753 -3.727242 0.66098857 10
1.9682775 -3.7237132 0.51246059 14
1.9678143 -3.7244101 0.36518258 10
1.9719282 -3.7337742 0.21928765 12
1.9713256 -3.734211 0.073038317 49
0.89796191 -1.7045782 -0.50599146 3
1.0302011 -1.9564326 -0.50164115 3
1.2363256 -2.3488734 -0.50804973 3
1.5308217 -2.9096134 -0.51466984 4
1.6116713 -3.0645812 -0.4204497 11
1.7282418 -3.2876315 -0.32160518 7
1.7225724 -3.2782359 -0.1914338 7
1.8658717 -3.5524552 -0.068680204 7
1.9732796 -3.7585435 1.1264228 15
1.9693245 -3.7526014 0.96880609 12
1.9672267 -3.7501948 0.81497604 13
1.9694197 -3.7559683 0.66489512 9
1.9667865 -3.7525389 0.51550734 14
1.966359 -3.7533164 0.36736143 11
1.9727813 -3.7671745 0.22085772 12
1.969871 -3.7632151 0.073474631 49
0.89200634 -1.7077023 -0.50599146 3
1.0233656 -1.9600166 -0.50164115 3
1.228119 -2.3531747 -0.50804973 3
1.520656 -2.9149392 -0.51466984 4
1.596375 -3.0613875 -0.419231 12
1.7144531 -3.2892275 -0.32116941 7
1.7065046 -3.2753725 -0.19091219 7
1.8488417 -3.5500784 -0.068507425 6
1.9712987 -3.7868295 1.132889 15
1.9674579 -3.7810624 0.97442561 12
1.9654485 -3.7788112 0.8197419 13
1.9676871 -3.7847285 0.66880161 9
1.9651179 -3.7813995 0.51855403 13
1.9647261 -3.7822585 0.36954033 10
1.9711242 -3.7961946 0.22216612 11
1.9705408 -3.7966917 0.073998198 50
0.88603985 -1.7108054 -0.50599146 3
1.0168604 -1.9633994 -0.50164115 3
1.2225653 -2.361593 -0.50900286 3
1.5109813 -2.9199657 -0.51466984 4
1.5816542 -3.0578482 -0.41801229 11
1.6989609 -3.2860456 -0.32029784 7
1.6910487 -3.2721419 -0.19039057 7
1.8347644 -3.551748 -0.068421036 6
1.96981 -3.8148029 1.1393552 15
1.968316 -3.8135419 0.98116899 12
1.9641589 -3.8071179 0.82450783 13
1.9687071 -3.8175688 0.67348951 9
1.9639368 -3.8099511 0.52160072 13
1.96358 -3.8108916 0.37171924 10
1.9699558 -3.8249052 0.22347453 11
1.9670925 -3.8209841 0.074347243 51
0.8803618 -1.7137344 -0.50599146 3
1.012226 -1.9712707 -0.50276589 3
1.2143143 -2.3658462 -0.50900286 3
1.5030336 -2.9296162 -0.51545197 4
1.5664415 -3.0545189 -0.41679361 12
1.6829358 -3.2830911 -0.3194263 7
1.6750627 -3.2691374 -0.18986896 6
1.8177974 -3.549232 -0.068248257 5
1.9674866 -3.8431513 1.1458215 14
1.9660895 -3.8420756 0.98678851 12
1.9620336 -3.8358004 0.82927382 13
1.9666104 -3.8464036 0.67739606 10
1.9596592 -3.8344593 0.52403814 13
1.9615955 -3.8399014 0.37389815 10
1.9679463 -3.8539937 0.22478293 11
1.9673795 -3.8545444 0.074870817 64
0.87437439 -1.7167969 -0.50599146 3
1.0056834 -1.9746165 -0.50276589 3
1.2064621 -2.3698599 -0.50900286 3
1.4933105 -2.9345844 -0.51545197 4
1.549554 -3.0464268 -0.41496557 14
1.669782 -3.2842138 -0.3189905 6
1.6596881 -3.2657714 -0.18934733 7
1.8037536 -3.5507832 -0.068161868 7
1.9656649 -3.8711872 1.1522877 14
1.9643632 -3.870297 0.9924081 13
1.9626271 -3.8685491 0.834993 13
1.9650126 -3.874927 0.68130267 10
1.9581518 -3.8630693 0.52708489 13
1.9601072 -3.8686013 0.37607706 11
1.9664347 -3.8827703 0.22609131 11
1.9478127 -3.8476665 0.074609034 12
0.86867648 -1.719687 -0.50599146 3
0.99878454 -1.9781151 -0.50276589 2
1.1981825 -2.3740568 -0.50900286 3
1.4830579 -2.939779 -0.51545197 4
1.532207 -3.0385232 -0.41313753 9
1.6538239 -3.2811263 -0.31811893 7
1.6460317 -3.2670856 -0.18908653 7
1.7913481 -3.5570579 -0.068161868 6
1.9629983 -3.8995957 1.158754 15
1.9617906 -3.898891 0.99802762 12
1.9601381 -3.8973005 0.83975887 13
1.9647837 -3.9082365 0.68599045 9
1.9557968 -3.8920527 0.53013164 13
1.95777 -3.8976748 0.3782559 10
1.9640713 -3.9119222 0.22739972 11
1.9276426 -3.841037 0.074347243 9
0.86236769 -1.7228593 -0.50599146 3
0.99152774 -1.9817625 -0.50276589 2
1.189473 -2.3784325 -0.50900286 3
1.472273 -2.9451947 -0.51545197 4
1.5144053 -3.0308006 -0.41130951 9
1.6395613 -3.2827098 -0.31768319 6
1.6295856 -3.2641618 -0.18856491 7
1.7782987 -3.5635996 -0.068161868 5
1.9616272 -3.9326961 1.1665134 15
1.9605305 -3.9322157 1.004771 11
1.9589767 -3.9308169 0.845478 13
