# .PCD v0.7 - Point Cloud Data file format
VERSION 0.7
FIELDS x y z intensity
SIZE 4 4 4 4
TYPE F F F F
COUNT 1 1 1 1
WIDTH 1376
HEIGHT 1
VIEWPOINT 0 0 0 1 0 0 0
POINTS 1376
DATA ascii
-4.9403095 1.5396805 0.63067383 15
-4.9295354 1.5372669 0.44841629 14
-4.9269261 1.5373966 0.26848346 14
-4.8753581 1.5222392 0.088483691 15
-1.8017023 0.56427377 -0.4956387 3
-2.058778 0.64518178 -0.48926884 6
-2.4110036 0.75602466 -0.4832668 2
-2.9390533 0.9221701 -0.48181856 2
-3.7912376 1.190282 -0.4832125 2
-4.8075047 1.5102668 -0.4375225 10
-4.8713422 1.5312554 -0.26472113 12
-4.8387914 1.5219516 -0.086994931 12
-4.8739138 1.5339336 1.3579149 13
-4.869431 1.5334568 1.1688612 13
-4.8489494 1.5279371 0.97987759 13
-4.8171353 1.5188366 0.79302996 11
-4.8639131 1.5345188 0.62153363 14
-4.8576403 1.5334721 0.4423154 15
-4.8548717 1.5335299 0.26481992 13
-4.7985129 1.5166488 0.087174766 14
-1.7997216 0.57055944 -0.4956387 3
-2.0565135 0.65236431 -0.48926884 6
-2.4130282 0.76592106 -0.48422 2
-2.9405234 0.93391854 -0.48260072 2
-3.7870598 1.2035086 -0.4832125 3
-4.7404952 1.5074166 -0.43185738 10
-4.804111 1.528569 -0.2613306 12
-4.766758 1.5176002 -0.085785463 13
-4.8041015 1.5304128 1.3398093 13
-4.7944198 1.5282502 1.1520026 13
-4.7781191 1.5239731 0.96653289 14
-4.7459373 1.5146214 0.78209168 11
-4.7923412 1.5303525 0.61300278 14
-4.7858329 1.5291947 0.43621451 14
-4.7829051 1.5291791 0.26115641 14
-4.7265282 1.5120636 0.085953094 15
-1.8023177 0.57831383 -0.49693277 3
-2.0542238 0.65953892 -0.48926884 6
-2.4103401 0.77433938 -0.48422 2
-2.9372456 0.94417721 -0.48260072 2
-3.7828355 1.2167205 -0.4832125 3
-4.6688237 1.5025911 -0.42575645 10
-4.7369595 1.5254321 -0.25794008 13
-4.6995735 1.5142981 -0.0846624 13
-4.7297783 1.5249419 1.3204106 13
-4.7195044 1.522539 1.135144 13
-4.707377 1.5195336 0.9531883 14
-4.6748276 1.5099277 0.77115333 11
-4.7208591 1.5257056 0.60447192 14
-4.7141147 1.5244346 0.43011358 14
-4.7157793 1.525882 0.25775456 13
-4.6546345 1.506995 0.08473143 16
-1.8002881 0.58460152 -0.49693277 3
-2.051909 0.66670549 -0.48926884 6
-2.4076223 0.78274834 -0.48422 2
-2.9386277 0.95595199 -0.48338288 2
-3.7785654 1.2299178 -0.4832125 4
-4.6019812 1.4988267 -0.4200913 10
-4.6698895 1.5218455 -0.25454959 13
-4.6324706 1.5105457 -0.083539322 13
-4.6601429 1.520469 1.302305 13
-4.6539521 1.5193478 1.1205331 13
-4.6367249 1.5146191 0.93984365 13
-4.6085043 1.506291 0.76099628 11
-4.6541853 1.522121 0.59655041 13
-4.6472235 1.5207421 0.42444846 13
-4.6487365 1.5221354 0.25435272 14
-4.5875859 1.5029995 0.083597019 11
-1.7982365 0.59088218 -0.49693277 4
-2.0449412 0.67234224 -0.48814404 5
-2.4002128 0.78961384 -0.4832668 2
-2.9399641 0.96774799 -0.48416507 2
-3.7742493 1.2430999 -0.4832125 3
-4.5352221 1.494614 -0.41442621 10
-4.6029019 1.517809 -0.25115907 13
-4.5654521 1.5063435 -0.082416251 13
-4.5905981 1.5155286 1.2841994 13
-4.58848 1.5157176 1.1059225 13
-4.5661645 1.5092301 0.92649895 13
-4.5422635 1.5022097 0.75083923 11
-4.5875945 1.5180897 0.58862889 13
-4.5804162 1.5166014 0.41878334 14
-4.5817776 1.5179396 0.2509509 14
-4.5253677 1.5001276 0.082549877 11
-1.796163 0.59715557 -0.49693277 3
-2.0425818 0.67947638 -0.48814404 4
-2.3927848 0.7964372 -0.48231363 2
-2.9412534 0.97956496 -0.48494723 2
-3.769887 1.2562668 -0.4832125 3
-4.4732742 1.4915292 -0.40919682 10
-4.5360012 1.513324 -0.24776855 13
-4.503262 1.503275 -0.08137957 13
-4.5257258 1.5116518 1.2673873 13
-4.5230904 1.5116491 1.0913117 11
-4.5003548 1.5049238 0.91410762 12
-4.4761086 1.4976845 0.74068218 11
-4.5210891 1.5136124 0.58070737 14
-4.5136952 1.5120131 0.41311821 14
-4.514905 1.5132948 0.24754907 14
-4.4632268 1.49684 0.081502736 11
-1.7940675 0.60342169 -0.49693277 4
-2.0401976 0.68660218 -0.48814404 5
-2.3946416 0.80635101 -0.4832668 2
-2.9424963 0.99140269 -0.48572943 2
-3.7654788 1.2694186 -0.4832125 3
-4.4114041 1.4880306 -0.40396747 10
-4.4739189 1.5099872 -0.24463885 12
-4.4411497 1.499791 -0.080342889 13
-4.4563618 1.5057946 1.2492816 13
-4.4577861 1.5071429 1.0767009 12
-4.4346309 1.5001768 0.90171617 13
-4.4100409 1.492716 0.73052514 11
-4.4593725 1.5102814 0.57339525 14
-4.4517798 1.5085762 0.40788886 14
-4.4528508 1.5098054 0.24440892 15
-4.4011645 1.4931369 0.080455594 11
-1.7919502 0.60968053 -0.49693277 3
-2.0377886 0.69371963 -0.48814404 4
-2.4011049 0.8178702 -0.48517317 2
-2.9483664 1.0048542 -0.48729378 2
-3.7610247 1.2825549 -0.4832125 4
-4.3496141 1.4841183 -0.39873812 10
-4.4119158 1.5062358 -0.24150915 12
-4.3791165 1.4958915 -0.0793062 13
-4.391665 1.5010341 1.2324693 13
-4.3971791 1.503776 1.0632141 12
-4.3736396 1.4965785 0.89027792 13
-4.3534079 1.4905044 0.72193074 10
-4.3930397 1.50493 0.56547374 14
-4.3899446 1.5047258 0.40265954 14
-4.3908763 1.5059016 0.24126875 15
-4.3439107 1.4906415 0.079495706 12
-1.7851372 0.61467183 -0.4956387 4
-2.0398383 0.70277071 -0.48926884 5
-2.4027314 0.82826489 -0.48612636 2
-2.9073153 1.0027717 -0.48103639 2
-3.7656815 1.2995691 -0.48443118 4
-4.2923555 1.4821672 -0.39394456 10
-4.3497319 1.5028294 -0.23837942 13
-4.321631 1.4939649 -0.078355908 14
-4.3267951 1.4965955 1.2156571 14
-4.3317842 1.4991678 1.0486033 12
-4.3124681 1.4933256 0.87883967 12
-4.2919188 1.4870487 0.71255505 11
-4.3312273 1.5015149 0.55816156 14
-4.327929 1.5012178 0.39743018 14
-4.3334384 1.5039761 0.23839027 15
-4.2817469 1.4868733 0.078448564 12
-1.7829807 0.62089938 -0.4956387 3
-2.0419736 0.71148992 -0.49039361 6
-2.4229991 0.84472591 -0.49089235 2
-2.9084601 1.0145406 -0.48181856 2
-3.7658076 1.3143412 -0.48504055 4
-4.2354279 1.4790773 -0.38915098 10
-4.2973223 1.5015334 -0.23577134 13
-4.2597594 1.4892427 -0.077319227 14
-4.2668371 1.4925528 1.2001381 13
-4.2759414 1.4965752 1.0362405 12
-4.2516394 1.4889026 0.8674013 12
-4.2354341 1.4840573 0.70396066 11
-4.2744441 1.4985639 0.55145878 14
-4.2709608 1.4981797 0.39263663 14
-4.271626 1.4992504 0.23525012 15
-4.2246432 1.4835958 0.077488683 11
-1.776247 0.62551516 -0.49434459 3
-2.0440724 0.72023231 -0.49151835 7
-2.3783743 0.83849096 -0.48231363 2
-2.904901 1.0246868 -0.48181856 2
-3.7705564 1.3307817 -0.48625922 3
-4.1785755 1.4756083 -0.38435742 11
-4.2402668 1.4982263 -0.23290242 12
-4.2026887 1.4857737 -0.076368935 12
-4.2069602 1.4881101 1.1846191 14
-4.2201695 1.4936111 1.0238774 13
-4.1955218 1.4857118 0.85691625 13
-4.1790223 1.4806899 0.6953662 9
-4.2130566 1.4935764 0.54414654 13
-4.209372 1.4930973 0.38740724 14
-4.2146053 1.4957818 0.23237164 14
-4.1676197 1.4799254 0.076528795 11
-1.7786026 0.63333172 -0.4956387 4
-2.0415456 0.72736305 -0.49151835 8
-2.3846796 0.85008413 -0.48422 3
nan nan nan 0
-3.7705619 1.3456032 -0.48686856 3
-4.121799 1.4717605 -0.37956384 11
-4.1879907 1.4962195 -0.23029435 13
-4.1456933 1.4819242 -0.075418636 13
-4.1517153 1.4848943 1.1703933 15
-4.1644711 1.4902762 1.0115144 11
-4.1394792 1.4821476 0.84643126 12
-4.1226869 1.4769471 0.68677181 10
-4.1564288 1.4898536 0.53744376 13
-4.1525607 1.489285 0.38261372 14
-4.157661 1.4919333 0.22949316 14
-4.1106715 1.4758815 0.075568914 10
-1.7854692 0.64280832 -0.49822688 4
-2.0435781 0.73613614 -0.49264312 8
nan nan nan 0
nan nan nan 0
-3.7705102 1.3604412 -0.48747793 4
-4.0651011 1.4675345 -0.37477025 12
-4.131084 1.4921701 -0.22742546 11
-4.0887771 1.4776953 -0.074468352 12
-4.1010866 1.4829532 1.1574607 14
-4.1088481 1.4865707 0.99915147 12
-4.0835128 1.4782106 0.83594608 11
-4.0664287 1.472829 0.67817736 10
-4.1045451 1.487445 0.53135031 14
-4.1005096 1.4867922 0.3782559 14
-4.0961022 1.486003 0.22635299 14
-4.0585022 1.473164 0.074696295 12
-1.7922912 0.65234047 -0.50081509 3
-2.0409961 0.74326503 -0.49264312 8
nan nan nan 0
nan nan nan 0
-3.7657385 1.3735944 -0.48747793 4
-4.0131626 1.4646388 -0.37041247 12
-4.0742569 1.4877415 -0.22455655 12
-4.0319419 1.4730875 -0.07351806 13
-4.0459862 1.479019 1.143235 15
-4.0533023 1.4824957 0.98678851 11
-4.0322347 1.4755878 0.82641429 11
-4.0148878 1.4700346 0.67036426 10
-4.0480695 1.4829851 0.52464747 13
-4.0438514 1.4822404 0.37346235 13
-4.0440121 1.4831001 0.22373621 15
-4.0017095 1.4683784 0.073736414 10
-1.7900032 0.65859276 -0.50081509 4
-2.0383892 0.75038493 -0.49264312 7
nan nan nan 0
-2.9042122 1.0702686 -0.48416507 2
-3.7609208 1.3867309 -0.48747793 3
-3.9612947 1.4613984 -0.36605468 11
-4.0175118 1.4829347 -0.22168766 12
-3.9751887 1.4681009 -0.072567761 13
-3.9954941 1.4763924 1.1303024 14
-4.0024052 1.4797401 0.97554946 12
-3.9810247 1.4726254 0.81688237 13
-3.9587855 1.4651845 0.66176987 11
-3.9963291 1.4798728 0.51855403 13
-3.991946 1.4790421 0.36910459 14
-3.9966738 1.4815871 0.2213811 14
-3.9496872 1.4649531 0.072863787 11
-1.7831666 0.66315359 -0.49952096 4
-2.0357573 0.75749564 -0.49264312 6
nan nan nan 0
-2.9189701 1.0872951 -0.48729378 3
-3.7560573 1.3998505 -0.48747793 4
-3.914166 1.4595543 -0.36213264 11
-3.9608505 1.4777502 -0.21881874 12
-3.9232047 1.4644848 -0.071703866 14
-3.9450703 1.4734317 1.1173699 14
-3.9470139 1.4749426 0.9631865 12
-3.9298854 1.4693236 0.80735052 12
-3.9073913 1.4616908 0.65395677 10
-3.9400125 1.4746778 0.51185119 13
-3.9401126 1.4754992 0.36474678 15
-3.9447205 1.4780099 0.21876429 15
-3.9024198 1.4629375 0.072078437 12
-1.7763201 0.66767466 -0.49822688 5
-2.0331008 0.76459718 -0.49264312 6
nan nan nan 0
nan nan nan 0
-3.7465036 1.4112036 -0.48686856 4
-3.862438 1.4556427 -0.35777488 10
-3.9042752 1.4721884 -0.21594985 12
-3.8712943 1.460524 -0.070839964 14
-3.8947167 1.4701371 1.1044375 14
-3.8962631 1.4714978 0.95194751 12
-3.878818 1.4656829 0.7978186 12
-3.8606899 1.4596028 0.64692497 10
-3.8884239 1.4708639 0.50575775 14
-3.8883529 1.4716128 0.36038899 13
-3.897511 1.4758565 0.21640916 15
-3.8552146 1.4606098 0.071293078 11
-1.7739787 0.67387116 -0.49822688 5
-2.0304196 0.77168936 -0.49264312 5
-2.3525903 0.89460492 -0.48136041 3
-2.9251549 1.1129148 -0.48964027 2
-3.736917 1.4225074 -0.48625922 5
-3.8154402 1.4531608 -0.35385287 11
-3.8571196 1.4698057 -0.21360257 13
-3.8288021 1.4597805 -0.070148841 13
-3.8444343 1.466509 1.0915048 13
-3.8501368 1.4694539 0.94183236 10
-3.8324101 1.4634547 0.78923988 12
-3.809438 1.4554443 0.63911182 11
-3.8369098 1.4667078 0.49966428 14
-3.8413212 1.4691627 0.35646698 14
-3.8503654 1.4733921 0.21405403 14
-3.808074 1.4579707 0.07050772 13
-1.7671068 0.67832863 -0.49693277 4
-2.0277133 0.77877218 -0.49264312 6
-2.3402898 0.89929038 -0.47945404 3
-2.8244529 1.0859027 -0.47321463 3
-3.7272968 1.4337611 -0.48564988 6
-3.768507 1.4503685 -0.34993085 11
-3.8146882 1.4689064 -0.2115161 13
-3.7816982 1.456961 -0.069371328 14
-3.7987318 1.464285 1.0798656 13
-3.8040724 1.4671063 0.93171722 12
-3.7814858 1.4591537 0.77970797 13
-3.7628703 1.4527249 0.63208008 10
-3.7901025 1.4639987 0.49418014 14
-3.7943552 1.4664024 0.35254499 14
-3.8032849 1.4706166 0.21169895 14
-3.760999 1.4550204 0.069722362 13
-1.7647282 0.68449283 -0.49693277 4
-2.0249827 0.78584546 -0.49264312 6
nan nan nan 0
-2.898901 1.126156 -0.48651159 2
-3.7222693 1.4467632 -0.48564988 12
-3.7216408 1.4472666 -0.34600884 11
-3.7676568 1.4659183 -0.20916881 13
-3.7393198 1.4556445 -0.068680204 14
-3.753093 1.4617604 1.0682263 15
-3.7580724 1.4644554 0.92160207 12
-3.7352123 1.4562981 0.77112937 12
-3.7163682 1.4496983 0.62504828 11
-3.7433608 1.4609805 0.48869604 14
-3.7474551 1.4633323 0.34862298 16
-3.760922 1.4693475 0.2096055 15
-3.7139914 1.4517595 0.068936996 13
-1.7622075 0.69095623 -0.49693277 4
-2.0220888 0.79326212 -0.49264312 7
nan nan nan 0
-2.8579805 1.1223323 -0.4802542 3
-3.7123227 1.4585814 -0.48504055 15
-3.6792257 1.4463189 -0.34252259 11
-3.7204385 1.4632696 -0.20682155 13
-3.692091 1.4528645 -0.067902692 13
-3.7117572 1.4613514 1.0578803 14
-3.7118821 1.4621489 0.91148686 12
-3.6841853 1.4519817 0.76159745 12
-3.6696811 1.4470054 0.61801648 10
-3.7010496 1.4601209 0.48382127 14
-3.7003684 1.4605986 0.34470096 13
-3.7137139 1.4666156 0.20725037 16
-3.6668007 1.4488283 0.068151645 12
-1.7687652 0.70066065 -0.49952096 4
-2.0193076 0.80031568 -0.49264312 7
-2.3123324 0.91691774 -0.47564128 3
-2.8540452 1.1323017 -0.4802542 3
-3.665695 1.4550526 -0.47955641 14
-3.6371205 1.4444454 -0.33903635 11
-3.6781857 1.4614971 -0.20473507 13
-3.6451869 1.4491221 -0.067125186 13
-3.6662426 1.4582336 1.046241 14
-3.6705413 1.4606855 0.90249562 13
-3.6426129 1.4503078 0.75397193 13
-3.6279042 1.4451852 0.61176598 10
-3.6590493 1.4583319 0.47894648 14
-3.6582341 1.458747 0.34121475 15
-3.6668329 1.4629177 0.20489526 16
-3.6199312 1.4449453 0.067366287 11
-1.7707926 0.7086249 -0.50081509 4
-2.0165017 0.80735952 -0.49264312 6
-2.2908924 0.91768306 -0.47182852 3
nan nan nan 0
-3.6283498 1.4549102 -0.47529095 12
-3.5904512 1.4404409 -0.33511436 10
-3.6313572 1.4575877 -0.20238778 12
-3.602993 1.4469328 -0.066434063 14
-3.6252773 1.4566168 1.0358951 14
-3.6247363 1.4571344 0.89238054 13
-3.6010981 1.4483619 0.74634641 13
-3.5907662 1.4449346 0.60629684 10
-3.612504 1.4544146 0.47346237 14
-3.6161578 1.4566193 0.3377285 15
-3.6200233 1.4589106 0.20254014 15
-3.5731392 1.4407407 0.066580921 11
-1.7772635 0.71842182 -0.50340325 3
-2.0091546 0.81256682 -0.49151835 5
nan nan nan 0
nan nan nan 0
-3.5818517 1.450799 -0.46980685 9
-3.5484703 1.4379991 -0.33162811 10
-3.5846012 1.4533694 -0.2000405 13
-3.551594 1.4407085 -0.065570161 13
-3.5798924 1.4529154 1.0242558 15
-3.5835149 1.4551141 0.88338923 13
-3.5596416 1.446144 0.73872095 13
-3.5536752 1.4444427 0.60082763 11
-3.5706282 1.4520599 0.46858761 15
-3.5695279 1.4523383 0.33380648 14
-3.5732865 1.4545947 0.20018502 14
-3.5264187 1.4362335 0.065795571 11
-1.7792163 0.72644687 -0.50469732 3
-2.0063057 0.81957507 -0.49151835 4
nan nan nan 0
-2.864887 1.1714722 -0.48416507 3
-3.5400198 1.4482601 -0.46493205 7
-3.5019414 1.4333954 -0.3277061 15
-3.5379195 1.4488426 -0.19769323 13
-3.5049093 1.4360387 -0.064792648 13
-3.5345788 1.4489154 1.0126165 14
-3.5378451 1.4509757 0.87327415 13
-3.5182445 1.4436544 0.73109537 12
-3.5120628 1.4418339 0.59457713 9
-3.5242226 1.4475448 0.4631035 13
-3.5275798 1.4496434 0.33032027 13
-3.5266252 1.4499705 0.1978299 15
-3.4797738 1.4314177 0.065010212 8
-1.7722048 0.73081183 -0.50340325 4
-1.9989293 0.82471544 -0.49039361 4
-2.3174527 0.95660478 -0.47945404 3
-2.8699093 1.1852356 -0.48572943 3
-3.4936635 1.4435519 -0.45944795 8
-3.4508851 1.4265814 -0.32334828 7
-3.4866998 1.4420996 -0.19508514 10
-3.4444427 1.4253262 -0.063755967 7
-3.4893365 1.4446168 1.0009773 13
-3.4967492 1.4484006 0.86428291 10
-3.4723749 1.4390146 0.72251672 8
-3.4248927 1.4200375 0.5805136 5
-3.4778924 1.4427239 0.45761937 9
-3.4810934 1.4447639 0.32639825 7
-3.4754283 1.4431238 0.19521311 8
-3.4193556 1.4205401 0.063963063 5
-1.760726 0.73327994 -0.50081509 4
-1.991541 0.82981408 -0.48926884 4
-2.332221 0.97224271 -0.4832668 2
-2.8611965 1.1933452 -0.48494723 3
-3.4702833 1.4480937 -0.45701057 6
-3.4320951 1.4328617 -0.32204098 11
-3.4309628 1.4330922 -0.19221623 6
-3.4163833 1.4277027 -0.063324012 7
-3.4397123 1.4381572 0.98804474 6
-3.4602094 1.4474367 0.85641557 5
-3.4220531 1.4321773 0.71298486 5
-3.3698058 1.4110023 0.57191914 16
-3.4224846 1.4337621 0.45091653 6
-3.4163098 1.4318761 0.32073313 7
-3.4289274 1.4378684 0.192858 8
-3.4005463 1.4266651 0.063701279 11
-1.7537038 0.73754925 -0.49952096 4
-1.9886322 0.83676082 -0.48926884 4
-2.3107181 0.97276014 -0.47945404 3
-2.8979747 1.2205775 -0.49198681 3
-3.4240477 1.4428542 -0.45152643 5
-3.4087133 1.437093 -0.32029784 13
-3.402936 1.4353569 -0.19091219 10
-3.4021668 1.435732 -0.063151233 12
-3.3946254 1.4332476 0.97640544 8
-3.4282076 1.4481313 0.84967214 19
-3.3944273 1.4345601 0.70821887 8
-3.2511432 1.374674 0.5523864 26
-3.3900356 1.434099 0.44726047 10
-3.4158781 1.4457341 0.3211689 9
-3.4146917 1.4459348 0.19233464 13
-3.3771327 1.4307258 0.063352227 8
-1.7511185 0.74366629 -0.49952096 3
-1.9856993 0.84369731 -0.48926884 4
-2.3253767 0.98850089 -0.4832668 2
-2.8755183 1.2229549 -0.4888581 3
-3.4098573 1.4509114 -0.45030773 7
-3.3807614 1.4392278 -0.31811893 6
-3.3887174 1.4433134 -0.19039057 11
-3.3787379 1.4397599 -0.062805675 8
-3.3851588 1.443194 0.9751122 8
-3.3962431 1.4486202 0.84292871 11
-3.3758554 1.4406205 0.70535934 7
-3.2417834 1.384075 0.55160511 4
-3.3621902 1.4361765 0.44421375 7
-3.3879092 1.4478618 0.31899002 7
-3.386668 1.4480305 0.19102623 8
-3.3537326 1.4346406 0.063003182 4
-1.7529508 0.75167763 -0.50081509 3
-1.9827422 0.85062355 -0.48926884 4
-2.3174019 0.99467605 -0.48231363 2
-2.8621566 1.2290875 -0.48729378 3
-3.3865333 1.4549692 -0.44787034 6
-3.3574123 1.4431521 -0.31637582 5
-3.3744845 1.4511882 -0.18986896 4
-3.3553228 1.4436418 -0.062460113 4
-3.3712282 1.4511824 0.97252572 4
-3.3732669 1.452758 0.83843309 6
-3.3572834 1.4465691 0.70249981 4
-3.2913535 1.4188427 0.5609808 9
-3.3389287 1.4400426 0.44177637 3
-3.3736877 1.4557321 0.31811845 4
-3.363256 1.4519273 0.18997951 5
-3.3532939 1.4483209 0.063090444 58
-1.7503163 0.75779206 -0.50081509 3
-1.9842316 0.85947597 -0.49039361 4
-2.3139155 1.0027593 -0.48231363 3
-2.853318 1.2371063 -0.48651159 4
-3.3586695 1.4569069 -0.44482359 6
-3.3295083 1.444948 -0.31419694 8
-3.3648183 1.4609698 -0.18960814 11
-3.3365071 1.4493697 -0.062200941 12
-3.3705714 1.4648664 0.9738189 9
-3.3458354 1.4548104 0.83281356 4
-3.3432119 1.4543633 0.70059341 10
-3.322607 1.4460897 0.5672313 9
-3.3111312 1.4417825 0.43872961 18
-3.3640194 1.4655104 0.31768268 9
-3.3398583 1.4556783 0.18893279 9
-3.2978101 1.4380366 0.062130563 53
-1.7520857 0.76583147 -0.50210917 3
-1.9812193 0.86639696 -0.49039361 4
-2.3104012 1.0108303 -0.48231363 3
-2.8399341 1.2430983 -0.48494723 4
-3.3353798 1.4606589 -0.44238621 5
-3.3016329 1.4465669 -0.31201804 10
-3.3185396 1.4546649 -0.18726087 10
-3.3039577 1.4489603 -0.061682601 12
-3.3256319 1.4591578 0.96217966 8
-3.3362758 1.4645224 0.83168966 9
-3.3066566 1.4522089 0.69392109 9
-3.2858896 1.4437726 0.56176215 9
-3.2788193 1.4413488 0.43507352 12
-3.3360858 1.4672176 0.31550378 9
-3.3119054 1.457273 0.18762439 8
-3.2607417 1.4354397 0.061519727 57
-1.7494019 0.77194273 -0.50210917 3
-1.9781829 0.87330747 -0.49039361 4
-2.3068585 1.0188888 -0.48231363 3
-2.8400948 1.255 -0.48572943 4
-3.3075659 1.4622593 -0.43933949 5
-3.2737868 1.4480088 -0.30983913 10
-3.2769134 1.4500755 -0.18517439 11
-3.2668805 1.4463178 -0.061077867 17
-3.2807739 1.4531535 0.95054042 10
-3.291055 1.4583944 0.82157451 11
-3.2701578 1.4498171 0.68724877 14
-3.2537432 1.4432192 0.55707425 15
-3.2420151 1.4386944 0.4308081 8
-3.299077 1.4647057 0.31245336 10
-3.283982 1.45869 0.186316 13
-3.2191637 1.4305717 0.060821634 70
-1.7466966 0.77804452 -0.50210917 3
-1.9795723 0.88219029 -0.49151835 4
-2.303288 1.0269351 -0.48231363 3
-2.8402066 1.2669178 -0.48651159 3
-3.27525 1.4616611 -0.43568337 6
-3.2368748 1.4452126 -0.30678868 10
-3.2353594 1.4452133 -0.18308793 18
-3.2161701 1.437315 -0.060213968 11
-3.2448168 1.4507968 0.94148761 16
-3.2637072 1.4599264 0.81595498 17
-3.2292361 1.4451833 0.67962325 13
-3.2081192 1.4364049 0.55004251 7
-3.2052698 1.4358008 0.4265427 8
-3.2621262 1.4619532 0.30940288 9
-3.2515337 1.4578875 0.18474592 13
-3.1822209 1.427477 0.060210798 21
-1.74397 0.78413695 -0.50210917 3
-1.9764808 0.88909495 -0.49151835 4
-2.3041651 1.0369831 -0.4832668 3
-2.8402703 1.278852 -0.48729378 3
-3.247504 1.4628935 -0.43263665 7
-3.2045636 1.4442233 -0.30417401 10
-3.1984315 1.4421313 -0.18126225 7
-3.1701198 1.4300318 -0.059436455 8
-3.2001123 1.4442334 0.92984837 7
-3.2053063 1.447251 0.80246812 7
-3.1883872 1.4402816 0.67199773 9
-3.167083 1.4313236 0.54379201 6
-3.1685843 1.4326682 0.42227724 8
-3.2297738 1.4610138 0.30678821 9
-3.2191308 1.4568763 0.18317585 11
-3.1407857 1.4220803 0.059512701 19
-1.7412223 0.79021972 -0.50210917 3
-1.9733653 0.8959887 -0.49151835 4
-2.3050003 1.0470499 -0.48422 3
-2.8447807 1.2928449 -0.4888581 3
-3.2152717 1.4618962 -0.42898059 8
-3.1677654 1.4409636 -0.30112356 10
-3.1661098 1.4408776 -0.17969741 6
-3.1332598 1.4265878 -0.058831725 7
-3.151098 1.4353737 0.91691583 6
-3.1603343 1.4402472 0.79235297 6
-3.1520782 1.437149 0.66532546 8
-3.1261218 1.4259735 0.53754151 6
-3.1319604 1.4292972 0.41801181 8
-3.1974678 1.4598665 0.30417356 9
-3.1822333 1.4535822 0.18134408 9
-3.1039739 1.4184895 0.058901869 19
-1.7384533 0.79629296 -0.50210917 3
-1.9702256 0.90287155 -0.49151835 4
-2.3013315 1.0550895 -0.48422 3
-2.8447392 1.304826 -0.48964027 3
-3.1830864 1.4606917 -0.4253245 8
-3.1355557 1.4395429 -0.29850888 10
-3.1383736 1.4414998 -0.17839335 5
-3.096463 1.4229041 -0.058226991 7
-3.1153505 1.4322422 0.90786308 6
-3.1154513 1.4329473 0.78223783 6
-3.1113713 1.4317286 0.65769988 8
-3.094209 1.4244856 0.53285366 7
-3.0999067 1.4277644 0.41435575 8
-3.1652098 1.4585117 0.30155888 10
-3.1453986 1.4500483 0.17951232 9
-3.0717657 1.4167532 0.058378298 24
-1.7356632 0.80235642 -0.50210917 3
-1.967062 0.90974349 -0.49151835 4
-2.302089 1.0651772 -0.48517317 3
-2.8356857 1.3126736 -0.4888581 3
-3.1509483 1.4592805 -0.42166841 8
-3.1033955 1.4379153 -0.29589421 10
-3.1152022 1.4440463 -0.17735012 9
-3.0642655 1.4210845 -0.057708651 13
-3.0840447 1.4309113 0.90010357 7
-3.0883348 1.4335569 0.7766183 8
-3.0796444 1.4301764 0.65198076 12
-3.062345 1.4227924 0.52816576 9
-3.0679018 1.4260253 0.41069967 8
-3.1330001 1.4569494 0.29894418 9
-3.1086278 1.4462754 0.17768057 15
-3.0396075 1.4148093 0.057854723 28
-1.7327107 0.8087126 -0.50210917 4
-1.9637144 0.91694695 -0.49151835 4
-2.2981694 1.0736077 -0.48517317 3
-2.8263812 1.320967 -0.48807591 3
-3.1186054 1.458207 -0.41801229 8
-3.071034 1.4366168 -0.29327953 10
-3.0782318 1.4406388 -0.17552446 17
-3.0363986 1.4217067 -0.0572767 10
-3.0525365 1.4299122 0.892344 11
-3.0565901 1.4324616 0.76987487 10
-3.0477176 1.4289525 0.64626163 11
-3.030283 1.4214233 0.52347791 8
-3.0356991 1.4246103 0.40704358 9
-3.1005864 1.4557214 0.29632953 10
-3.0671508 1.4406767 0.17558713 9
-3.0072544 1.4131833 0.057331149 21
-1.7298772 0.81475592 -0.50210917 4
-1.9605017 0.92379606 -0.49151835 4
-2.2899683 1.0795304 -0.48422 3
-2.8172867 1.3287183 -0.48729378 3
-3.0910554 1.4584956 -0.41496557 8
-3.043479 1.4366964 -0.29110062 10
-3.0415792 1.4364489 -0.1736988 9
-3.004297 1.4194829 -0.056758359 8
-3.021327 1.4281744 0.88458449 8
-3.0251451 1.4306252 0.76313144 8
-3.0160904 1.4269873 0.64054251 9
-2.9985204 1.4193151 0.51879007 7
-3.0037963 1.4224542 0.40338752 8
-3.0684781 1.4537401 0.29371485 10
-3.0260072 1.4342655 0.17349368 8
-2.9751976 1.4108262 0.056807578 20
-1.7313848 0.82286251 -0.50340325 4
-1.9572651 0.93063384 -0.49151835 5
-2.286186 1.0875173 -0.48422 3
-2.8126314 1.3385445 -0.48729378 3
-3.0590608 1.4564762 -0.41130951 8
-3.0114641 1.4344593 -0.28848594 10
-3.0049937 1.4320208 -0.17187312 9
-2.9722478 1.4170525 -0.056240018 8
-2.9901674 1.4262363 0.87682498 7
-2.9937503 1.4285868 0.75638807 6
-2.9889441 1.4269338 0.63577664 8
-2.9668093 1.4170024 0.51410222 6
-2.971946 1.4200929 0.39973143 8
-3.0409157 1.4537009 0.29153597 10
-2.9894509 1.4297394 0.17166193 8
-2.9477096 1.4104083 0.056371272 20
-1.724147 0.82681274 -0.50210917 3
-1.9583974 0.93956774 -0.49264312 4
-2.2779508 1.093367 -0.4832668 3
-2.8034899 1.3462164 -0.48651159 3
-3.0271182 1.4542514 -0.40765342 8
-2.9795024 1.4320165 -0.28587127 10
-2.9684768 1.4273551 -0.17004748 8
-2.9447579 1.4165831 -0.055808067 8
-2.959058 1.4240983 0.86906546 7
-2.9624071 1.4263468 0.74964464 6
-2.9574125 1.4245778 0.63005745 9
-2.9396005 1.41663 0.51019561 8
-2.9401491 1.4175267 0.39607537 8
-3.0089045 1.4513229 0.28892127 11
-2.961957 1.4293154 0.17035353 7
-2.9157557 1.4076482 0.055847697 28
-1.7212504 0.83282614 -0.50210917 4
-1.9551058 0.94639814 -0.49264312 4
-2.2785382 1.1034513 -0.48422 3
-2.8032181 1.3581475 -0.48729378 3
-2.9952288 1.4518214 -0.4039973 8
-2.9520764 1.4315413 -0.28369236 10
-2.9320292 1.422452 -0.1682218 11
-2.9173079 1.4159391 -0.055376116 13
-2.9280009 1.4217604 0.86130601 9
-2.9311159 1.4239054 0.74290115 9
-2.9303491 1.424165 0.62529153 13
-2.9079893 1.4139254 0.50550777 11
-2.9084067 1.4147562 0.39241928 8
-2.9814265 1.4509192 0.28674239 13
-2.9300137 1.4265317 0.16878346 12
-2.8883524 1.4068717 0.055411387 36
-1.7226729 0.84094805 -0.50340325 4
-1.9517902 0.95321691 -0.49264312 4
-2.2790823 1.1135527 -0.48517317 4
-2.7984602 1.3679243 -0.48729378 4
-2.9633934 1.4491868 -0.40034124 8
-2.9202163 1.4287034 -0.28107771 10
-2.8956525 1.417312 -0.16639614 16
-2.8854082 1.4129221 -0.054857776 10
-2.9013331 1.4213482 0.85483968 12
-2.8998787 1.4212632 0.73615772 11
-2.8989177 1.4214199 0.6195724 12
-2.8808668 1.4131926 0.50160128 8
-2.8811746 1.4139676 0.38937253 9
-2.9539876 1.4503412 0.28456348 11
-2.8981264 1.4235423 0.16721338 9
-2.8565032 1.4037163 0.054887816 23
-1.719727 0.84695619 -0.50340325 4
-1.9484512 0.96002418 -0.49264312 4
-2.2795842 1.1236717 -0.48612636 5
-2.7936683 1.3776845 -0.48729378 4
-2.9360642 1.4485435 -0.39729452 8
-2.8928785 1.4278651 -0.27889881 10
-2.8638248 1.4141465 -0.16483128 6
-2.8535657 1.4097 -0.054339435 8
-2.8703747 1.4186273 0.84708017 8
-2.8730631 1.42058 0.73053825 7
-2.8675416 1.4184728 0.61385328 9
-2.853785 1.4122878 0.49769467 6
-2.8495367 1.4108045 0.38571647 9
-2.92659 1.4495897 0.2823846 10
-2.8662958 1.420348 0.16564329 8
-2.8291907 1.4025763 0.054451503 21
-1.7124348 0.85080504 -0.50210917 4
-1.945088 0.96681964 -0.49264312 4
-2.2800426 1.1338074 -0.48707953 6
-2.7932634 1.3896273 -0.48807591 4
-2.9043329 1.4455159 -0.39363843 8
-2.8655829 1.4268538 -0.2767199 10
-2.8275857 1.4085498 -0.16300564 6
-2.8262556 1.4085029 -0.053907484 8
-2.8394711 1.4157077 0.83932066 7
-2.8419282 1.4175522 0.72379482 7
-2.8362215 1.415324 0.60813409 8
-2.8267453 1.4112114 0.49378812 6
-2.8223958 1.4096553 0.38266972 8
-2.8992336 1.4486645 0.2802057 10
-2.8389893 1.4191815 0.16433489 7
-2.8019216 1.401263 0.054015197 21
-1.7136223 0.85924053 -0.50340325 4
-1.9415314 0.97394228 -0.49264312 4
-2.2758715 1.1421566 -0.48707953 6
-2.7925649 1.4020717 -0.4888581 6
-2.8768415 1.4450135 -0.39059168 8
-2.8380806 1.4261646 -0.27454099 11
-2.7911758 1.4032046 -0.16117996 6
-2.7942772 1.4053746 -0.053389143 7
-2.8126907 1.4152509 0.83285445 7
-2.8106027 1.4148151 0.71705133 6
-2.8090961 1.4146713 0.60336822 8
-2.7995019 1.410452 0.48988158 6
-2.7906203 1.4065882 0.37901363 9
-2.8716669 1.4480674 0.27802682 10
-2.8114789 1.4183326 0.1630265 7
-2.7744515 1.4002607 0.053578883 20
-1.7106125 0.86521691 -0.50340325 4
-1.9424667 0.98291308 -0.49376786 4
-2.2762501 1.1523107 -0.48803276 6
-2.7920594 1.4140422 -0.48964027 9
-2.8496451 1.4438316 -0.38754493 8
-2.8108714 1.4248027 -0.27236211 10
-2.7639942 1.4016474 -0.15987591 6
-2.7715211 1.4060726 -0.053043582 8
-2.7818921 1.4119447 0.82509488 7
-2.7795823 1.4113826 0.7103079 7
-2.7778847 1.4111304 0.5976491 9
-2.772548 1.4090282 0.48597503 6
-2.7635746 1.4050748 0.37596691 9
-2.8399568 1.4445335 0.27541214 10
-2.7842603 1.4168154 0.1617181 8
-2.7472711 1.3985965 0.053142574 33
-1.7032799 0.86898792 -0.50210917 4
-1.9390239 0.9896875 -0.49376786 5
-2.2722139 1.1602494 -0.48803276 6
-2.7607195 1.4103001 -0.48494723 15
-2.8224928 1.4424779 -0.38449821 8
-2.7837059 1.4232681 -0.27018321 11
-2.7413032 1.4021918 -0.15883268 9
-2.744344 1.4043515 -0.052611627 14
-2.7554505 1.4106419 0.81862867 10
-2.7529571 1.4099718 0.70468843 10
-2.7511005 1.4096272 0.59288311 13
-2.7412438 1.4051808 0.48128715 8
-2.7365737 1.4033899 0.37292019 8
-2.8127384 1.4430695 0.27323326 11
-2.7570868 1.4151255 0.16040969 11
-2.7201364 1.3967599 0.052706264 32
-1.7002362 0.87492818 -0.50210917 3
-1.9355575 0.99645001 -0.49376786 5
-2.2725139 1.1704214 -0.48898596 7
-2.72505 1.4040945 -0.47947201 13
-2.7997956 1.4432261 -0.38206083 9
-2.7565861 1.4215616 -0.26800433 11
-2.7142048 1.4003055 -0.15752864 8
-2.7216554 1.4047508 -0.052266069 11
-2.7290521 1.4091718 0.8121624 10
-2.7307041 1.4106286 0.70019281 10
-2.7243614 1.4079545 0.58811718 12
-2.7143874 1.4034002 0.4773806 7
-2.7096183 1.4015338 0.36987343 9
-2.7855651 1.4414332 0.27105436 11
-2.7299592 1.4132632 0.15910131 11
-2.693048 1.3947508 0.052269954 24
-1.6971717 0.88085783 -0.50210917 4
-1.9363912 1.0054455 -0.49489263 6
-2.2684145 1.1783468 -0.48898596 8
-2.69384 1.3999346 -0.47477898 10
-2.7727249 1.4415442 -0.37901407 9
-2.7295122 1.4196831 -0.26582542 11
-2.6871531 1.3982471 -0.15622459 7
-2.690129 1.4003923 -0.051747728 9
-2.702698 1.4075347 0.80569619 8
-2.7041595 1.408896 0.69457322 8
-2.6976674 1.4061122 0.58335125 10
-2.6875772 1.4014496 0.47347406 7
-2.6827095 1.3995067 0.36682671 9
-2.7540219 1.4373204 0.26843968 11
-2.7028785 1.4112289 0.1577929 9
-2.6660075 1.39257 0.051833645 22
-1.6940867 0.88677669 -0.50210917 4
-1.9328698 1.0121986 -0.49489263 5
-2.2642875 1.1862578 -0.48898596 8
-2.6626925 1.3955741 -0.47008595 9
-2.7500954 1.4419957 -0.37657669 9
-2.7024851 1.4176331 -0.26364651 11
-2.6601493 1.3960171 -0.15492055 6
-2.6630931 1.3981549 -0.051315777 8
-2.6763883 1.405731 0.79922986 8
-2.6819737 1.4092618 0.6900776 7
-2.6710196 1.4041009 0.57858527 9
-2.6564431 1.39703 0.46878621 7
-2.655848 1.3973091 0.36377996 10
-2.7269495 1.435325 0.26626077 11
-2.6758459 1.4090232 0.1564845 8
-2.639015 1.3902174 0.051397335 21
-1.6909809 0.89268476 -0.50210917 4
-1.9293247 1.0189394 -0.49489263 5
-2.2601328 1.1941544 -0.48898596 8
-2.6359749 1.3933213 -0.46617511 7
-2.7274966 1.4423069 -0.37413931 9
-2.679909 1.4177409 -0.26190341 11
-2.6287806 1.3912801 -0.15335569 5
-2.6316874 1.3934064 -0.050797433 8
-2.6458569 1.4015001 0.79147035 8
-2.655513 1.4072086 0.68445808 7
-2.6444194 1.401921 0.57381934 8
-2.6297357 1.3947245 0.46487963 7
-2.6290352 1.394941 0.36073324 9
-2.6999249 1.4331584 0.2640819 11
-2.6444516 1.404304 0.15491442 8
-2.607657 1.3853481 0.050873764 22
-1.6878545 0.89858192 -0.50210917 4
-1.9257563 1.0256678 -0.49489263 5
-2.2559507 1.2020364 -0.48898596 8
-2.6093054 1.3908989 -0.46226421 7
-2.7005503 1.4401428 -0.37109256 9
-2.6353917 1.405986 -0.25798139 11
-2.6018829 1.3886923 -0.15205164 6
-2.6003473 1.3884559 -0.050279092 8
-2.619648 1.3993491 0.78500408 7
-2.6248031 1.4026917 0.67771465 7
-2.617867 1.3995725 0.56905341 9
-2.598722 1.3899205 0.46019179 7
-2.6022713 1.3924029 0.35768652 10
-2.6773403 1.4331713 0.26233879 11
-2.6175249 1.4017402 0.15360603 8
-2.5807719 1.3826377 0.05043745 20
-1.6847076 0.90446818 -0.50210917 4
-1.9178722 1.0300783 -0.49376786 5
-2.2517412 1.2099038 -0.48898596 8
-2.5870352 1.3906457 -0.45913553 7
-2.6780238 1.4401587 -0.36865517 9
-2.5953763 1.3962975 -0.25449514 22
-2.5706389 1.3835676 -0.1504868 6
-2.5734763 1.385674 -0.049847145 8
-2.5892341 1.3947417 0.77724457 7
-2.5984464 1.4002892 0.67209518 7
-2.5827229 1.3923975 0.56238109 9
-2.5677745 1.3849171 0.45550394 7
-2.5755572 1.389695 0.35463977 9
-2.6504054 1.4306781 0.26015988 11
-2.5862553 1.3966331 0.15203595 8
-2.5495393 1.3773806 0.049913879 20
-1.6815403 0.91034335 -0.50210917 5
-1.9142648 1.0367666 -0.49376786 5
-2.2431881 1.2154181 -0.48803276 7
-2.5604568 1.3879007 -0.45522466 7
-2.646805 1.4353037 -0.36499909 10
-2.5467045 1.3815966 -0.25013736 11
-2.5438509 1.3806233 -0.14918275 7
-2.5422633 1.3803362 -0.049328804 8
-2.5588849 1.3899392 0.76948506 7
-2.5678575 1.3953935 0.66535175 8
-2.5519729 1.3873385 0.55666196 9
-2.5368941 1.3797148 0.45081607 7
-2.5445352 1.384446 0.35098368 10
-2.6060212 1.4184893 0.25623786 11
-2.5550535 1.3913251 0.15046588 8
-2.5139854 1.3695309 0.049303047 21
-1.6783522 0.91620749 -0.50210917 5
-1.9106342 1.0434424 -0.49376786 5
-2.2389319 1.223241 -0.48803276 8
-2.5382626 1.3873557 -0.45209596 8
-2.5982358 1.4207245 -0.35890561 9
-2.5200171 1.3785257 -0.24795848 11
-2.5127351 1.3751122 -0.14761789 6
-2.5111191 1.3747973 -0.048810463 8
-2.5328372 1.3872622 0.76301885 8
-2.5330622 1.3879603 0.65748441 7
-2.5169861 1.3797228 0.54998964 9
-2.5017509 1.3719393 0.44534689 8
-2.5179324 1.3813847 0.34793696 9
-2.5617552 1.4060085 0.25231588 12
-2.5239205 1.3858163 0.1488958 8
-2.4872811 1.3662636 0.048866734 27
-1.6751438 0.92206043 -0.50210917 5
-1.9027129 1.0477555 -0.49264312 5
-2.2346482 1.2310488 -0.48803276 7
-2.5161042 1.3866729 -0.44896728 10
-2.5541472 1.4082203 -0.35342148 15
-2.4846592 1.3704737 -0.24490802 24
-2.4860609 1.3718129 -0.14631385 7
-2.4887979 1.3738899 -0.048464898 16
-2.5026114 1.3820853 0.75525928 8
-2.5026152 1.3826575 0.65074098 9
-2.4777882 1.3695055 0.54236418 15
-2.4666936 1.3639355 0.43987769 27
-2.4870396 1.3757524 0.3442809 12
-2.5132501 1.3908243 0.24795809 27
-2.4928575 1.3801074 0.14732571 14
-2.4650035 1.3652488 0.048517689 73
-1.6719151 0.92790216 -0.50210917 6
-1.8990439 1.0543908 -0.49264312 5
-2.2303376 1.2388417 -0.48803276 8
-2.4939816 1.3858525 -0.44583857 12
-2.5101781 1.3954259 -0.34793738 11
-2.4668007 1.3718759 -0.24360067 21
-2.463804 1.3707722 -0.14527062 28
-2.4665143 1.372844 -0.04811934 31
-2.4766729 1.3790644 0.74879307 30
-2.4764924 1.3795302 0.6451214 33
-2.4601302 1.3709782 0.53950459 31
-2.4532905 1.3677279 0.43831509 29
-2.4605513 1.3723388 0.34123415 32
-2.4692328 1.377746 0.24403608 32
-2.4705853 1.379066 0.14627899 32
-2.4471283 1.3665328 0.048255898 22
-1.6644511 0.93137425 -0.50081509 5
-1.8953518 1.0610133 -0.49264312 5
-2.2259996 1.2466195 -0.48803276 8
-2.4675872 1.3824807 -0.44192773 14
-2.4879754 1.3944739 -0.34549999 12
-2.4489632 1.37317 -0.24229334 16
-2.4502943 1.3744785 -0.14474899 17
-2.4442682 1.3716592 -0.047773778 17
-2.454998 1.3782438 0.74362004 32
-2.4504223 1.3762375 0.63950193 28
-2.4424922 1.3723445 0.536645 22
-2.4355862 1.3690236 0.43597117 16
-2.4427683 1.3736218 0.3394061 28
-2.460067 1.3839145 0.24360029 25
-2.4527023 1.380335 0.14549395 26
-2.4249184 1.3652561 0.047906853 57
-1.66119 0.93717855 -0.50081509 5
-1.8916367 1.0676229 -0.49264312 5
-2.2216346 1.2543821 -0.48803276 10
-2.4455466 1.3813705 -0.43879902 14
-2.4658101 1.3933841 -0.34306258 12
-2.4311469 1.3743564 -0.24098599 14
-2.4324427 1.3756492 -0.14396657 18
-2.4264121 1.3727976 -0.04751461 15
-2.4333589 1.3772887 0.73844707 17
-2.4328845 1.3775809 0.63613021 17
-2.4248748 1.3736045 0.53378546 18
-2.4179025 1.3702124 0.43362722 13
-2.4206901 1.3723503 0.33696872 16
-2.437891 1.3826642 0.24185717 16
-2.4304979 1.3790319 0.14444724 16
-2.4027472 1.3638409 0.047557805 51
-1.6579084 0.94297147 -0.50081509 5
-1.8921326 1.0766287 -0.49376786 5
-2.2215083 1.2645576 -0.48898596 11
-2.4235442 1.3801235 -0.43567032 13
-2.4479952 1.3946131 -0.34123453 11
-2.4090247 1.3729689 -0.23924288 13
-2.414613 1.3767122 -0.14318414 15
-2.4042354 1.3713514 -0.047169048 14
-2.4117565 1.3761994 0.73327404 13
-2.4153676 1.3788186 0.63275844 13
-2.4072788 1.3747584 0.53092587 15
-2.4002407 1.3712945 0.43128332 12
-2.4029591 1.373404 0.33514068 14
-2.4200776 1.3837485 0.24054985 14
-2.4126666 1.3800697 0.14366218 13
-2.3849549 1.364771 0.047296021 48
-1.6544412 0.94904166 -0.50081509 5
-1.8881738 1.0835564 -0.49376786 5
-2.2168586 1.2726914 -0.48898596 11
-2.40134 1.3791589 -0.43254164 14
-2.4256549 1.3936868 -0.33879715 11
-2.3867025 1.3718604 -0.23749976 13
-2.3922365 1.3755968 -0.14214091 15
-2.3818595 1.3701829 -0.04682349 14
-2.3899517 1.3753933 0.72810096 12
-2.3934085 1.3779387 0.62826282 13
-2.3852105 1.3737733 0.52711314 15
-2.378082 1.3702204 0.42815807 11
-2.3807108 1.3722886 0.33270329 13
-2.3977299 1.3826563 0.23880674 13
-2.3902919 1.3789232 0.14261547 14
-2.3626173 1.3635077 0.046946973 49
-1.6511183 0.95481092 -0.50081509 6
-1.88438 1.0901408 -0.49376786 5
-2.2124023 1.2804219 -0.48898596 11
-2.379416 1.377635 -0.42941296 14
-2.4035976 1.3921959 -0.33635977 12
-2.3646605 1.3701941 -0.23575665 12
-2.3744607 1.3764266 -0.14135848 14
-2.3597634 1.3684571 -0.046477929 13
-2.3684251 1.3740326 0.72292799 11
-2.3717287 1.3765025 0.6237672 12
-2.3676667 1.3746974 0.52425355 14
-2.3562028 1.3685912 0.42503282 12
-2.3587425 1.370617 0.33026591 13
-2.375664 1.3810045 0.23706363 13
-2.3681989 1.3772179 0.14156875 13
-2.3405552 1.3616962 0.04659792 49
-1.6477753 0.96056861 -0.50081509 5
-1.8805633 1.0967119 -0.49376786 5
-2.2079196 1.2881368 -0.48898596 11
-2.3617973 1.3784643 -0.42706645 14
-2.3815806 1.3905681 -0.33392239 12
-2.3469603 1.3709031 -0.23444931 13
-2.3523972 1.3746297 -0.14031525 15
-2.3377085 1.3665937 -0.046132363 12
-2.3427684 1.3701004 0.71646172 11
-2.3500886 1.3749318 0.61927158 13
-2.3459091 1.3730363 0.52044082 14
-2.3386257 1.3693213 0.4226889 12
-2.3368151 1.368809 0.32782853 12
-2.3536391 1.3792156 0.23532051 13
-2.3461468 1.3753753 0.14052203 14
-2.3185415 1.3597361 0.046248872 49
-1.6444123 0.96631461 -0.50081509 5
-1.8809237 1.1057386 -0.49489263 5
-2.2034097 1.295836 -0.48898596 11
-2.3399456 1.3766831 -0.42393777 14
-2.3596048 1.3888038 -0.331485 12
-2.3249917 1.368978 -0.23270617 13
-2.3303752 1.3726957 -0.139272 15
-2.3156958 1.3645931 -0.045786802 14
-2.3213291 1.3684587 0.71128875 12
-2.3284886 1.373227 0.61477602 12
-2.3284199 1.3737344 0.51758122 14
-2.3168197 1.3674355 0.41956365 11
-2.3192024 1.3693877 0.32600048 13
-2.3316555 1.3772895 0.23357739 13
-2.3241367 1.3733956 0.13947532 13
-2.3008709 1.360189 0.045987088 49
-1.6410292 0.97204876 -0.50081509 5
-1.8770524 1.1122975 -0.49489263 5
-2.1988728 1.3035195 -0.48898596 11
-2.3181353 1.3747666 -0.42080906 14
-2.3376701 1.3869033 -0.32904762 14
-2.3030655 1.3669164 -0.23096307 13
-2.3126893 1.3731742 -0.13848959 14
-2.2980237 1.3650088 -0.045527633 13
-2.2999296 1.3666842 0.70611572 13
-2.3111172 1.373878 0.6114043 13
-2.306736 1.3718184 0.51376849 15
-2.2950554 1.365414 0.4164384 11
-2.2973502 1.3673224 0.3235631 14
-2.3097146 1.3752273 0.23183426 13
-2.306459 1.3738344 0.13869028 13
-2.2789307 1.357976 0.04563804 49
-1.6376262 0.9777711 -0.50081509 6
-1.8773407 1.121341 -0.49601737 5
-2.1943092 1.311187 -0.48898596 11
-2.3006058 1.3752483 -0.41846254 15
-2.3157775 1.3848664 -0.32661018 17
-2.2854567 1.3672758 -0.22965574 13
-2.2907441 1.3709817 -0.13744634 14
-2.2760882 1.3627501 -0.045182075 13
-2.2785711 1.364777 0.70094275 13
-2.2895906 1.3719201 0.60690868 13
-2.285094 1.3697678 0.50995576 16
-2.2775688 1.3657974 0.41409445 12
-2.2797964 1.3676742 0.32173505 13
-2.2920873 1.3755919 0.23052694 13
-2.2845259 1.3715962 0.13764356 13
-2.2613194 1.3582004 0.045376252 50
-1.6383412 0.98597181 -0.50210917 7
-1.8734151 1.1278874 -0.49601737 5
-2.1897192 1.3188387 -0.48898596 10
-2.2788713 1.3730758 -0.41533384 15
-2.2939279 1.3826936 -0.32417279 15
-2.2636085 1.364957 -0.22791262 14
-2.273118 1.3712322 -0.13666391 15
-2.2584765 1.3629375 -0.044922903 14
-2.2572544 1.3627375 0.69576973 13
-2.2722764 1.3723477 0.60353696 13
-2.2676954 1.3701211 0.50709617 15
-2.2558815 1.3635209 0.41096923 11
-2.2580214 1.3653524 0.31929767 13
-2.2744861 1.3758503 0.2292196 13
-2.2669089 1.3718072 0.13685852 13
-2.2394581 1.3557296 0.045027204 50
-1.6348895 0.99168473 -0.50210917 9
-1.8694665 1.1344199 -0.49601737 4
-2.1851022 1.3264742 -0.48898596 9
-2.2571805 1.3707687 -0.41220516 12
-2.2721221 1.3803856 -0.32173541 19
-2.2460604 1.3650889 -0.22660528 13
-2.2512517 1.3687822 -0.13562068 15
-2.2366204 1.3604211 -0.044577342 13
-2.2401056 1.3630766 0.69188994 13
-2.2508254 1.3701378 0.59904134 14
-2.2461302 1.367817 0.50328338 15
-2.2384553 1.3636789 0.4086253 12
-2.2405286 1.365478 0.31746963 13
-2.2526581 1.3734097 0.22747648 14
-2.2450552 1.3693119 0.13581181 14
-2.2219095 1.3557268 0.04476542 51
-1.6355386 0.99990469 -0.50340325 10
-1.8654953 1.1409386 -0.49601737 5
-2.1762714 1.3315316 -0.48803276 9
-2.2355335 1.3683269 -0.40907648 12
-2.2503605 1.3779422 -0.31929803 15
-2.224292 1.3625135 -0.22486216 13
-2.2336879 1.3688055 -0.13483825 15
-2.2190719 1.3603816 -0.044318173 13
-2.2188647 1.3607875 0.68671691 13
-2.2335706 1.3703429 0.59566957 14
-2.2287924 1.3679467 0.50042385 16
-2.2210557 1.363732 0.40628135 12
-2.2230623 1.3654982 0.31564158 13
-2.2351191 1.3734415 0.22616915 14
-2.2232468 1.3666809 0.13476509 14
-2.2043881 1.355618 0.044503633 51
-1.6320382 1.0056076 -0.50340325 9
-1.8573543 1.1448872 -0.49489263 5
-2.1716104 1.3391203 -0.48803276 10
-2.2181346 1.3683436 -0.40672994 12
-2.2328672 1.3779702 -0.31747001 16
-2.2068076 1.3624198 -0.22355483 14
-2.2119031 1.366099 -0.13379502 15
-2.201551 1.360236 -0.044059001 13
-2.201776 1.3609062 0.68283719 13
-2.2121985 1.3678819 0.59117401 13
-2.2114811 1.367972 0.49756429 15
-2.2036836 1.3636804 0.40393746 12
-2.2014039 1.3628011 0.3132042 13
-2.217607 1.3733674 0.22486182 14
-2.205729 1.3665439 0.13398004 14
-2.1826458 1.3527701 0.044154584 51
-1.6326209 1.0138463 -0.50469732 10
-1.8533465 1.1513637 -0.49489263 5
-2.1627538 1.3441015 -0.48707953 14
-2.1965685 1.365648 -0.40360126 12
-2.2154012 1.3778927 -0.31564194 16
-2.1893506 1.3622205 -0.22224748 14
-2.1944039 1.3658959 -0.13301259 15
-2.1798141 1.3573425 -0.043713439 14
-2.1847138 1.3609225 0.67895746 14
-2.1950054 1.3678656 0.58780229 14
-2.1941969 1.3678935 0.49470475 15
-2.1821485 1.3609109 0.40081221 13
-2.1840017 1.3625964 0.31137615 14
-2.1958976 1.3705508 0.22311871 15
-2.1840041 1.3636571 0.13293332 15
-2.1651902 1.3524352 0.043892797 51
-1.6290721 1.0195391 -0.50469732 9
-1.8493162 1.1578261 -0.49489263 5
-2.1497295 1.346432 -0.48517317 12
-2.1792338 1.3654411 -0.40125474 12
-2.1979632 1.3777106 -0.31381392 16
-2.1677024 1.3592699 -0.22050437 14
-2.1769328 1.3655872 -0.13223016 16
-2.1623592 1.3569711 -0.043454267 14
-2.1635876 1.3582684 0.67378443 13
-2.1737139 1.3651545 0.58330667 14
-2.1727843 1.3650994 0.49089199 16
-2.1648407 1.3606358 0.39846826 14
-2.1666284 1.3622869 0.30954811 14
-2.1784513 1.3702514 0.22181135 14
-2.1665525 1.3632947 0.13214828 14
-2.1477637 1.3519952 0.043631013 52
-1.6255032 1.0252193 -0.50469732 8
-1.8452634 1.1642743 -0.49489263 5
-2.1408658 1.351308 -0.48422 14
-2.1577516 1.3624928 -0.39812601 12
-2.1805534 1.3774233 -0.31198588 16
-2.1503127 1.3588456 -0.21919702 15
-2.1594913 1.3651736 -0.13144773 16
-2.1449337 1.3564948 -0.043195099 15
-2.1465881 1.3580654 0.66990465 14
-2.156585 1.3649173 0.57993495 14
-2.155565 1.3647987 0.4880324 16
-2.1475613 1.3602563 0.39612433 13
-2.1492836 1.3618728 0.30772007 15
-2.1610343 1.3698469 0.22050403 14
-2.1533468 1.3655009 0.13162492 15
-2.130367 1.3514502 0.043369226 52
-1.6219146 1.0308872 -0.50469732 8
-1.8411881 1.1707084 -0.49489263 5
-2.1319942 1.3561383 -0.4832668 14
-2.1404831 1.3620627 -0.39577952 12
-2.1589861 1.3743664 -0.30954847 16
-2.132952 1.3583168 -0.2178897 14
-2.1420791 1.3646545 -0.1306653 16
-2.1233225 1.3532264 -0.042849541 14
-2.129617 1.3577608 0.66602492 14
-2.1394844 1.3645772 0.57656324 15
-2.1383746 1.3643943 0.48517281 16
-2.1303117 1.359773 0.39378041 13
-2.1319687 1.3613545 0.30589205 14
-2.1436462 1.3693378 0.21919669 15
-2.1359451 1.3649431 0.13083988 16
-2.1130002 1.3508003 0.043107443 51
-1.6183064 1.0365424 -0.50469732 7
-1.8370904 1.1771281 -0.49489263 5
-2.118983 1.3582747 -0.48136041 15
-2.1232443 1.3615289 -0.39343297 12
-2.1416442 1.3738555 -0.30772042 17
-2.1156218 1.3576833 -0.21658234 15
-2.1246972 1.3640311 -0.12988289 16
-2.1059663 1.3525251 -0.042590369 14
-2.112674 1.357354 0.66214514 15
-2.1224127 1.3641342 0.57319152 14
-2.1170845 1.361232 0.48136008 16
-2.1130917 1.3591859 0.39143646 13
-2.1146836 1.3607317 0.30406398 15
-2.1262889 1.3687242 0.21788937 16
-2.1185734 1.3642807 0.13005485 15
-2.095664 1.3500456 0.042845655 53
-1.618736 1.0448042 -0.50599146 8
-1.8329703 1.1835337 -0.49489263 5
-2.105983 1.3603365 -0.47945404 14
-2.106035 1.3608912 -0.39108649 12
-2.1243324 1.3732402 -0.30589241 18
-2.0983219 1.3569455 -0.21527502 15
-2.1073458 1.3633028 -0.12910046 16
-2.0928383 1.3544357 -0.042417586 15
-2.0957601 1.3568457 0.65826535 14
-2.1094594 1.3662375 0.57094371 16
-2.0999625 1.360607 0.47850055 17
-2.095902 1.3584955 0.38909256 14
-2.097429 1.3600051 0.30223596 15
-2.1089613 1.368006 0.21658202 16
-2.1054211 1.3662316 0.12953149 15
-2.0783594 1.3491864 0.042583872 54
-1.615079 1.0504482 -0.50599146 7
-1.8288277 1.1899247 -0.49489263 5
-2.088881 1.3596469 -0.47659451 14
-2.0888567 1.3601502 -0.38873994 12
-2.1070509 1.3725212 -0.30406433 17
-2.0810528 1.3561034 -0.21396768 15
-2.0900254 1.36247 -0.12831803 16
-2.0755353 1.3535404 -0.042158417 15
-2.082921 1.3588752 0.65567887 14
-2.0924373 1.3656042 0.567572 15
-2.0828705 1.359879 0.47564095 17
-2.0787427 1.3577015 0.38674861 13
-2.0802052 1.3591747 0.30040792 15
-2.0916657 1.3671837 0.21527469 17
-2.0881021 1.3653747 0.12874645 17
-2.0610862 1.348223 0.042322084 53
-1.6114026 1.0560795 -0.50599146 6
-1.8246629 1.1963013 -0.49489263 5
-2.0759137 1.3615464 -0.47468811 15
-2.0717092 1.3593061 -0.38639346 12
-2.0898006 1.3716981 -0.30223632 18
-2.0638158 1.3551579 -0.21266034 16
-2.0727365 1.3615332 -0.1275356 17
-2.0624421 1.3552861 -0.041985635 15
-2.0660572 1.3581781 0.65179914 15
-2.0754459 1.3648689 0.56420028 15
-2.0699098 1.3617461 0.47373459 16
-2.061615 1.3568045 0.38440469 15
-2.0630131 1.3582408 0.2985799 15
-2.0744009 1.3662573 0.21396735 17
-2.0708151 1.3644137 0.12796141 17
-2.0438449 1.3471555 0.042060297 54
-1.6077064 1.061698 -0.50599146 6
-1.8204761 1.2026633 -0.49489263 5
-2.0588636 1.3606658 -0.47182852 16
-2.0545931 1.3583586 -0.38404691 12
-2.0725818 1.3707715 -0.30040827 18
-2.0466106 1.3541081 -0.211353 16
-2.05548 1.3604923 -0.12675317 17
-2.0451937 1.3541971 -0.041726466 15
-2.0492237 1.3573803 0.64791936 16
-2.0584848 1.3640317 0.56082857 15
-2.0528708 1.3608273 0.47087502 16
-2.0445187 1.3558044 0.38206074 14
-2.0458529 1.3572034 0.29675183 15
-2.0613189 1.3679816 0.21309578 17
-2.05356 1.3633487 0.12717636 16
-2.0308013 1.34875 0.041885771 55
-1.5999696 1.0646279 -0.50469732 5
-1.8162669 1.2090106 -0.49489263 5
-2.0418453 1.3596827 -0.46896899 14
-2.0375092 1.3573086 -0.38170043 12
-2.0553951 1.3697417 -0.29858023 18
-2.029438 1.352955 -0.21004565 16
-2.0382562 1.3593477 -0.12597075 18
-2.0279782 1.3530045 -0.041467294 15
-2.0324214 1.3564816 0.64403963 15
-2.0415554 1.3630929 0.55745685 15
-2.0358634 1.3598063 0.46801546 17
-2.0274544 1.3547015 0.37971681 14
-2.0287251 1.3560628 0.29492378 15
-2.0441093 1.3668623 0.21178845 16
-2.0363381 1.36218 0.12639134 17
-2.0136166 1.3474897 0.041623987 55
-1.5962437 1.0702063 -0.50469732 6
-1.8120356 1.2153431 -0.49489263 6
-2.024859 1.3585975 -0.4661094 14
-2.0204575 1.3561556 -0.37935388 12
-2.0382411 1.3686085 -0.29675218 19
-2.0164335 1.354476 -0.2091741 16
-2.0210655 1.3580995 -0.12518832 17
-2.0107961 1.3517081 -0.041208126 16
-2.0156503 1.355482 0.64015985 15
-2.0246575 1.3620524 0.55408514 15
-2.0188885 1.3586832 0.4651559 16
-2.0104234 1.3534964 0.37737289 14
-2.0157466 1.3575915 0.29370511 16
-2.0269332 1.3656398 0.21048112 16
-2.0191491 1.3609078 0.12560628 17
-1.9964654 1.3461257 0.0413622 54
-1.5924982 1.0757718 -0.50469732 6
-1.8077822 1.2216609 -0.49489263 5
-2.0079052 1.3574104 -0.4632498 13
-2.0034389 1.3549005 -0.37700737 12
-2.0252302 1.370153 -0.29553348 19
-1.9993182 1.3531311 -0.20786677 17
-2.0039089 1.356748 -0.1244059 18
-1.997787 1.3531119 -0.041035343 16
-1.9989111 1.3543822 0.63628012 15
-2.007792 1.3609108 0.55071342 16
-2.0019457 1.3574582 0.46229634 17
-1.9975127 1.3549613 0.37581027 14
-1.9986761 1.3562598 0.29187706 15
-2.0097904 1.3643141 0.20917377 16
-2.0019944 1.3595324 0.12482125 16
-1.983484 1.3474681 0.041187678 54
-1.5885447 1.0816014 -0.50469732 6
-1.8032924 1.2282786 -0.49489263 5
-1.9907483 1.3564693 -0.46039027 13
-1.9862179 1.3538901 -0.37466085 12
-2.0078943 1.3691789 -0.29370543 18
-1.9861157 1.3548361 -0.20699522 16
-1.9906738 1.3584546 -0.12388428 17
-1.9804275 1.351969 -0.040776171 16
-1.981968 1.3535279 0.63240033 15
-1.9907218 1.3600156 0.5473417 15
-1.9888526 1.3592477 0.46038994 17
-1.9803023 1.3539114 0.37346631 15
-1.9814028 1.3551713 0.29004902 15
-1.9965546 1.3660458 0.20830221 17
-1.9887571 1.3612205 0.12429789 17
-1.9661572 1.3462557 0.04092589 55
-1.5847595 1.0871398 -0.50469732 7
-1.7989939 1.2345659 -0.49489263 5
-1.9779083 1.3578541 -0.4584839 13
-1.9692669 1.3524276 -0.3723143 13
-1.9949219 1.370559 -0.29248673 20
-1.9690596 1.353297 -0.20568787 16
-1.9735759 1.3569082 -0.12310185 17
-1.9674581 1.3532076 -0.040603392 16
-1.9652942 1.3522247 0.62852055 16
-1.9779359 1.3614315 0.54509389 15
-1.9719677 1.3578308 0.45753035 17
-1.9633632 1.3524113 0.37112242 15
