# .PCD v0.7 - Point Cloud Data file format
VERSION 0.7
FIELDS x y z intensity
SIZE 4 4 4 4
TYPE F F F F
COUNT 1 1 1 1
WIDTH 1378
HEIGHT 1
VIEWPOINT 0 0 0 1 0 0 0
POINTS 1378
DATA ascii
-1.8178045 0.49184287 -0.49434459 4
-2.0778182 0.56258392 -0.48814404 5
-2.4340887 0.65950263 -0.48231363 2
-2.9872906 0.80994934 -0.48416507 2
-3.8206763 1.0366225 -0.48138443 2
-5.2284188 1.4195497 -0.47064176 6
-5.8143101 1.5797126 -0.31270999 15
-5.7921014 1.5747643 -0.1030635 13
-5.871788 1.5975302 1.6191517 13
-5.8613663 1.5957935 1.3925182 10
-5.8333936 1.5892713 1.1667025 12
-5.7735748 1.5740567 0.94069767 14
-5.8444443 1.594474 0.73913753 15
-5.8126569 1.5868917 0.52380598 12
-5.807229 1.5864991 0.31349236 11
-5.736834 1.5683436 0.10314371 13
-1.8160766 0.49818519 -0.49434459 4
-2.0758417 0.5698334 -0.48814404 4
-2.4412379 0.67059547 -0.48422 2
-2.9796834 0.81906301 -0.48338288 2
-3.8218195 1.0512692 -0.48199379 2
-5.2234321 1.4377917 -0.47064176 6
-5.7221093 1.576131 -0.30801544 15
-5.6949983 1.5697328 -0.10142209 14
-5.7684007 1.5910484 1.5919935 13
-5.7571349 1.5890222 1.3689162 10
-5.728456 1.5821826 1.1466855 13
-5.672843 1.5678881 0.92507148 13
-5.7383966 1.5870844 0.72634125 15
-5.7158728 1.5819287 0.51552624 13
-5.7006035 1.5787741 0.30799708 12
-5.6397896 1.5629916 0.10148574 13
-1.8143265 0.50452149 -0.49434459 4
-2.0785334 0.57838202 -0.48926884 4
-2.448339 0.68174618 -0.48612636 2
-2.9768062 0.82945901 -0.48338288 2
-3.8229072 1.0659362 -0.48260313 2
-5.2183814 1.4560162 -0.47064176 6
-5.6300068 1.5719255 -0.30332088 16
-5.6028166 1.5653882 -0.099867068 13
-5.6651301 1.5838642 1.5648352 14
-5.6530232 1.5815431 1.3453141 10
-5.6283669 1.5757043 1.1276218 13
-5.5769806 1.5623682 0.91022652 14
-5.6372509 1.5803137 0.7141543 16
-5.6191945 1.5763097 0.50724643 13
-5.6133327 1.5757223 0.30354851 12
-5.5428529 1.5569814 0.099827759 13
-1.8125544 0.51085156 -0.49434459 4
-2.0765018 0.58563393 -0.48926884 5
-2.4601159 0.69428778 -0.48898596 2
-2.9691403 0.83850294 -0.48260072 2
-3.8239386 1.0806237 -0.4832125 2
-5.21806 1.475578 -0.4710775 6
-5.5428081 1.5684563 -0.29888713 14
-5.510736 1.5604196 -0.09831205 13
-5.5666289 1.5772955 1.5389701 15
-5.5537229 1.5746861 1.322836 12
-5.5331149 1.5698863 1.1095111 12
-5.4859786 1.5575472 0.89616293 15
-5.5362239 1.5728567 0.70196736 11
-5.5274177 1.5713973 0.4994024 13
-5.5213523 1.5707146 0.29883832 12
-5.4508362 1.5516826 0.098257035 13
-1.8107601 0.51717544 -0.49434459 4
-2.074445 0.59287864 -0.48926884 6
-2.4388006 0.69747233 -0.48517317 2
-2.9661956 0.84886205 -0.48260072 2
-3.8201435 1.0939652 -0.4832125 2
-5.1985126 1.4896673 -0.46977016 6
-5.4557033 1.5643973 -0.29445338 13
-5.4235644 1.5562062 -0.096843414 14
-5.4682436 1.5700592 1.5131052 16
-5.4592228 1.5685005 1.301482 13
-5.4379749 1.5634232 1.0914006 13
-5.3950791 1.55211 0.88209939 14
-5.4496264 1.5688326 0.69160849 12
-5.4309583 1.5644851 0.4911226 12
-5.4294753 1.565084 0.29412806 13
-5.3637295 1.5471463 0.096773595 14
-1.8135831 0.52483559 -0.4956387 3
-2.0723627 0.60011625 -0.48926884 7
-2.4363511 0.70598114 -0.48517317 2
-2.9632144 0.85921085 -0.48260072 2
-3.8163013 1.1072932 -0.4832125 2
-5.1837149 1.5050269 -0.46889862 7
-5.3686953 1.5597498 -0.2900196 13
-5.3364906 1.5514034 -0.095374778 14
-5.3746147 1.5635042 1.4885333 13
-5.3695126 1.5630364 1.2812517 14
-5.3476601 1.5576879 1.0742432 14
-5.304285 1.5460577 0.86803579 15
-5.3631253 1.5642235 0.68124956 12
-5.3393979 1.5583144 0.4832786 13
-5.3424993 1.5602314 0.2896795 13
-5.2815194 1.5434232 0.095377393 13
-1.81174 0.53116298 -0.4956387 3
-2.0749304 0.60871804 -0.49039361 7
-2.4244525 0.71171618 -0.4832668 2
-2.960197 0.86954916 -0.48260072 2
-3.812413 1.120608 -0.4832125 2
-5.1593146 1.51749 -0.46715549 10
-5.2817874 1.5545143 -0.28558585 13
-5.2495174 1.5460123 -0.093906142 13
-5.2857332 1.5576805 1.4652548 12
-5.2845812 1.5583435 1.2621452 13
-5.2621603 1.5527303 1.0580389 15
-5.2136002 1.5393907 0.85397214 16
-5.2767239 1.5590302 0.67089075 12
-5.2527237 1.552936 0.47587037 14
-5.2556238 1.5547909 0.28523093 12
-5.1994014 1.5391454 0.093981199 14
-1.8145047 0.53885883 -0.49693277 3
-2.072793 0.61595714 -0.49039361 6
-2.4219534 0.72017479 -0.4832668 2
-2.9571438 0.87987685 -0.48260072 2
-3.8037217 1.1324928 -0.48260313 2
-5.1205711 1.525535 -0.46410504 17
-5.1949825 1.5486912 -0.2811521 13
-5.1674385 1.5414621 -0.092523903 13
-5.2015862 1.552637 1.4432695 12
-5.199749 1.5530771 1.2430388 13
-5.1767612 1.5471952 1.0418347 16
-5.1230278 1.5321099 0.8399086 10
-5.1904244 1.5532526 0.66053182 13
-5.1709242 1.5484005 0.46889791 15
-5.173636 1.5501964 0.28104407 13
-5.1173792 1.5343134 0.092585012 14
-1.8126128 0.54518938 -0.49693277 3
-2.0706303 0.62318879 -0.49039361 5
-2.4147253 0.72720927 -0.48231363 2
-2.9540544 0.89019388 -0.48260072 2
-3.7997453 1.1457634 -0.48260313 2
-5.0389166 1.5203786 -0.45713258 14
-5.1130638 1.5437245 -0.27697918 12
-5.0902414 1.5378035 -0.091228046 15
-5.1175399 1.5470254 1.4212842 12
-5.1196818 1.5486481 1.2250564 13
-5.0914664 1.5410833 1.0256306 10
-5.0420241 1.5270787 0.82740766 10
-5.1042314 1.5468919 0.65017295 13
-5.0939884 1.5447587 0.46236122 15
-5.0917449 1.5450487 0.2768572 13
-5.0402389 1.5303802 0.091276079 14
-1.8106986 0.55151325 -0.49693277 3
-2.0684423 0.63041288 -0.49039361 5
-2.4121721 0.73563385 -0.48231363 2
-2.9462054 0.89905858 -0.48181856 2
-3.7957227 1.1590199 -0.48260313 3
-4.9716525 1.5190374 -0.45146742 12
-5.0360184 1.5396649 -0.27306703 13
-5.0131345 1.5336254 -0.089932196 14
-5.0382156 1.5422598 1.4005922 12
-5.0397105 1.5436796 1.2070739 14
-5.0109701 1.535833 1.0103796 10
-4.970561 1.524397 0.81646931 11
-5.0276341 1.5428605 0.6410327 14
-5.0171423 1.5405989 0.45582455 15
-5.0147262 1.5408149 0.27293199 13
-4.9631882 1.5259274 0.089967147 14
-1.8087623 0.55783039 -0.49693277 4
-2.0615737 0.63619256 -0.48926884 5
-2.4048998 0.74260122 -0.48136041 2
-2.9430492 0.90933722 -0.48181856 2
-3.7916541 1.1722624 -0.48260313 3
-4.8949423 1.5143013 -0.44493076 10
-4.959065 1.5350866 -0.26915488 14
-4.9361196 1.5289278 -0.088636346 14
-4.9589877 1.5369596 1.3799002 11
-4.959837 1.5381719 1.1890914 12
-4.9352622 1.531495 0.99608177 10
-4.8991795 1.5212353 0.80553091 12
-4.9511299 1.5383137 0.6318925 15
-4.9403877 1.5359217 0.44928783 15
-4.9378009 1.5360627 0.26900679 13
-4.8862314 1.5209558 0.088658221 14
-1.8068042 0.56414074 -0.49693277 4
-2.0593405 0.64338493 -0.48926884 5
-2.402293 0.7509914 -0.48136041 2
-2.939857 0.9196049 -0.48181856 2
-3.787539 1.1854906 -0.48260313 2
-4.8230805 1.5105369 -0.43882984 10
-4.882206 1.5299901 -0.26524276 13
-4.859199 1.5237117 -0.087340489 14
-4.8844666 1.5325714 1.3605013 11
-4.880064 1.5321255 1.171109 13
-4.8596463 1.5266471 0.98178399 10
-4.8278818 1.5175941 0.79459262 11
-4.8794527 1.5347407 0.62336165 15
-4.8684788 1.5322231 0.44318697 15
-4.8657327 1.5322921 0.26534328 13
-4.8141389 1.5169679 0.087436549 14
-1.804824 0.57044423 -0.49693277 3
-2.0570819 0.6505695 -0.48926884 5
-2.399657 0.75937235 -0.48136041 2
-2.931921 0.92837054 -0.48103639 2
-3.7833776 1.1987044 -0.48260313 3
-4.756053 1.507795 -0.43316469 10
-4.8102031 1.5258858 -0.26159143 13
-4.7871404 1.5194898 -0.086131021 13
-4.810039 1.5276819 1.3411026 11
-4.8050375 1.5270169 1.1542504 13
-4.7888026 1.5227777 0.96843934 10
-4.756669 1.5134739 0.78365427 11
-4.8078618 1.5306864 0.61483085 14
-4.7966571 1.5280412 0.43708605 14
-4.7937522 1.5280374 0.26167977 13
-4.7373714 1.5109768 0.086127624 14
-1.802721 0.57705539 -0.49693277 3
-2.0593238 0.65959078 -0.49039361 5
-2.3968575 0.76816243 -0.48136041 2
-2.9284987 0.93911034 -0.48103639 2
-3.7789588 1.2125632 -0.48260313 3
-4.6840997 1.5038995 -0.42706382 11
-4.7380233 1.5221248 -0.25794008 13
-4.7149081 1.5156065 -0.084921569 15
-4.7446346 1.526076 1.3242903 11
-4.7344799 1.5237216 1.1385157 14
-4.7177806 1.519256 0.95509464 10
-4.6899824 1.5112077 0.77349722 11
-4.7360926 1.5269778 0.60629994 14
-4.724659 1.5242018 0.43098512 14
-4.7263474 1.5256572 0.25827792 14
-4.6699576 1.5083548 0.084993213 14
-1.8006958 0.58334458 -0.49693277 3
-2.0570087 0.66677517 -0.49039361 5
-2.3941615 0.77652436 -0.48136041 2
-2.9252028 0.94932699 -0.48103639 2
-3.7747033 1.2257468 -0.48260313 4
-4.617238 1.5002311 -0.42139867 11
-4.6709509 1.5185848 -0.25454959 13
-4.6477861 1.5119507 -0.08379849 14
-4.6749811 1.5216998 1.3061846 11
-4.6689091 1.5206246 1.1239049 14
-4.6471148 1.5144234 0.94175005 9
-4.6189451 1.5061353 0.76255894 11
-4.6646824 1.52195 0.59776908 13
-4.6530194 1.5190432 0.42488426 14
-4.6545439 1.52044 0.25461441 13
-4.6028876 1.5044622 0.08385881 15
-1.8032378 0.59113103 -0.49822688 4
-2.0546687 0.67395139 -0.49039361 5
-2.3914363 0.78487682 -0.48136041 2
-2.9218712 0.95953208 -0.48103639 2
-3.7751162 1.2404647 -0.4832125 4
-4.5504599 1.4961147 -0.41573355 10
-4.6087036 1.5161557 -0.25141987 14
-4.5854969 1.5094081 -0.082761809 14
-4.6054173 1.5168562 1.2880793 10
-4.6034188 1.5170887 1.1092942 13
-4.57654 1.5091161 0.9284054 9
-4.5526915 1.5021331 0.75240189 11
-4.5933657 1.5164424 0.58923829 13
-4.5862036 1.5149657 0.41921914 14
-4.5875769 1.5163074 0.25121257 13
-4.5406537 1.5016772 0.082811661 14
-1.8011636 0.59742194 -0.49822688 4
-2.0523036 0.68111938 -0.49039361 5
-2.3886821 0.79321969 -0.48136041 2
-2.918504 0.96972543 -0.48103639 2
-3.7707632 1.2536348 -0.4832125 4
-4.4884934 1.4931228 -0.41050419 10
-4.5417938 1.5117338 -0.24802937 14
-4.5185394 1.5048697 -0.081638739 14
-4.5359445 1.5115458 1.2699736 10
-4.5380101 1.5131142 1.0946834 11
-4.510716 1.5048882 0.91601396 9
-4.4912062 1.4992507 0.74302614 11
-4.5268521 1.5120279 0.58131677 14
-4.5194736 1.5104403 0.41355398 14
-4.5254312 1.5133095 0.24807242 14
-4.4784932 1.4984825 0.081764519 15
-1.7990671 0.60370559 -0.49822688 4
-2.0499136 0.68827915 -0.49039361 4
-2.3905513 0.80311602 -0.48231363 2
-2.9151013 0.97990698 -0.48103639 2
-3.7710681 1.2683716 -0.48382184 3
-4.4266047 1.4897166 -0.40527484 10
-4.4797039 1.5084569 -0.24489965 14
-4.456408 1.5014786 -0.080602057 15
-4.4665656 1.5057689 1.2518681 11
-4.4726868 1.5087019 1.0800726 12
-4.4496288 1.5017892 0.90457571 10
-4.4251189 1.4943774 0.73286909 11
-4.4651275 1.5087565 0.57400459 14
-4.4622693 1.5086586 0.40876046 15
-4.4633632 1.5098965 0.24493226 14
-4.4164114 1.4948723 0.080717377 14
-1.7969488 0.60998178 -0.49822688 4
-2.0428853 0.69386363 -0.48926884 4
-2.3877335 0.81145573 -0.48231363 2
-2.9163384 0.9916665 -0.48181856 2
-3.7666178 1.2815274 -0.48382184 3
-4.3647947 1.4858969 -0.40004545 11
-4.4224195 1.5063754 -0.24203075 13
-4.3990879 1.4992851 -0.079651766 14
-4.4018545 1.5010856 1.2350559 12
-4.4028382 1.5022788 1.064338 12
-4.3839736 1.4966964 0.89218426 10
-4.3637948 1.4906577 0.7234934 10
-4.403482 1.505073 0.56669247 14
-4.4004202 1.5048842 0.4035311 15
-4.4013748 1.5060689 0.24179211 14
-4.359139 1.4924666 0.079757489 14
-1.7948086 0.61625057 -0.49822688 3
-2.0404508 0.70099038 -0.48926884 4
-2.3988116 0.82457215 -0.48517317 2
-2.8941793 0.99541575 -0.47868985 2
-3.7621214 1.2946676 -0.48382184 4
-4.3030663 1.4816641 -0.3948161 10
-4.3604836 1.5022858 -0.23890105 14
-4.3371119 1.4950806 -0.078615077 15
-4.3417974 1.4975436 1.2195368 11
-4.3423018 1.4985658 1.0508511 13
-4.3230481 1.4927655 0.88074601 9
-4.3025503 1.4865283 0.71411759 11
-4.3419166 1.5009775 0.55938023 14
-4.3386521 1.5006967 0.39830172 15
-4.339468 1.501827 0.23865195 14
-4.297215 1.4880437 0.078710347 14
-1.7926466 0.62251186 -0.49822688 4
-2.0379915 0.7081086 -0.48926884 3
-2.3820105 0.82810539 -0.48231363 2
-2.9373302 1.0217369 -0.48651159 2
-3.7575793 1.3077918 -0.48382184 4
-4.2414212 1.4770187 -0.38958675 11
-4.3033466 1.4994256 -0.23603216 14
-4.2799401 1.4921079 -0.077664785 14
-4.2818193 1.493601 1.2040178 12
-4.2818451 1.4944484 1.0373642 13
-4.266839 1.4900465 0.87026095 9
-4.2460513 1.4836186 0.70552325 10
-4.2851191 1.4981085 0.55267745 13
-4.2816696 1.4977412 0.39350817 14
-4.2776451 1.4971716 0.23551179 13
-4.2400932 1.4848591 0.077750467 14
-1.7859058 0.62716532 -0.49693277 3
-2.030911 0.7136032 -0.48814404 4
-2.3652136 0.83153129 -0.47945404 2
-2.9011354 1.0205127 -0.48103639 2
-3.7529912 1.3209003 -0.48382184 3
-4.1845598 1.4736159 -0.38479319 12
-4.2462826 1.4961848 -0.23316324 14
-4.2228422 1.4887543 -0.076714501 12
-4.2264767 1.490865 1.189792 13
-4.2260652 1.4915493 1.0250013 13
-4.2060733 1.4853188 0.8588227 9
-4.1849689 1.4786878 0.6961475 10
-4.2283955 1.4948617 0.54597467 14
-4.224761 1.4944066 0.38871461 13
-4.2206159 1.493769 0.23263331 13
-4.1830473 1.4812944 0.076790586 14
-1.7746034 0.63016319 -0.49434459 3
-2.0284076 0.72068805 -0.48814404 4
-2.3622966 0.83978236 -0.47945404 3
-2.9208198 1.0389082 -0.48494723 2
-3.7530332 1.3356565 -0.48443118 4
-4.1277747 1.4698341 -0.37999964 13
-4.1892948 1.4925643 -0.23029435 13
-4.1658206 1.4850204 -0.075764202 13
-4.1712065 1.4877609 1.1755663 13
-4.1703587 1.4882791 1.0126384 13
-4.1500158 1.4818358 0.84833759 10
-4.133275 1.4766716 0.68833441 10
-4.1717467 1.4912373 0.53927177 13
-4.1679282 1.4906929 0.38392103 13
-4.1636629 1.489987 0.22975484 14
-4.1260777 1.4773493 0.075830698 14
-1.7722818 0.63666326 -0.49434459 4
-2.0303373 0.72976553 -0.48926884 4
nan nan nan 0
nan nan nan 0
-3.7481124 1.3494031 -0.48443118 4
-4.0708108 1.4663843 -0.37520605 13
-4.1321249 1.4892857 -0.22742546 13
-4.1039162 1.4799281 -0.07472752 13
-4.1157503 1.4850075 1.1613405 12
-4.1144676 1.4853562 1.0002754 13
-4.0937762 1.4786944 0.83785254 8
-4.076745 1.4733468 0.67974001 10
-4.1149168 1.4879543 0.53256899 13
-4.1109147 1.4873184 0.37912747 15
-4.1112232 1.4882418 0.22713803 14
-4.0689311 1.4737352 0.074870817 15
-1.738272 0.63130516 -0.48528594 4
-2.0277774 0.73684829 -0.48926884 4
nan nan nan 0
-2.9272337 1.0648472 -0.48729378 2
-3.7480428 1.3641757 -0.48504055 4
-4.0188651 1.4635413 -0.37084827 12
-4.0706034 1.4831874 -0.22429574 13
-4.04706 1.4754092 -0.073777229 14
-4.0606303 1.4811593 1.1471148 12
-4.0589128 1.4813358 0.98791248 11
-4.0424843 1.4761395 0.82832062 9
-4.0251904 1.4706208 0.67192686 10
-4.0584254 1.4835663 0.52586621 12
-4.0542412 1.482839 0.37433392 14
-4.0591135 1.4854242 0.22452125 14
-4.0168147 1.4707472 0.073998198 15
-1.7632601 0.64735597 -0.49305049 4
-2.0251932 0.74392205 -0.48926884 4
nan nan nan 0
-2.9234989 1.0750586 -0.48729378 2
-3.7479155 1.3789639 -0.48564988 3
-3.9669886 1.4603534 -0.36649045 12
-4.0138612 1.4784039 -0.22142684 13
-3.9902856 1.4705114 -0.072826929 13
-4.0101185 1.4786154 1.1341822 11
-4.0080085 1.4786321 0.97667336 12
-3.986656 1.4715453 0.81783557 9
-3.9737051 1.467553 0.66411382 10
-4.0020161 1.4788024 0.51916337 12
-3.997649 1.4779818 0.36954033 14
-4.0070734 1.4822611 0.22190444 14
-3.9647748 1.467401 0.073125578 14
-1.7609897 0.65350699 -0.49305049 3
-2.022584 0.75098681 -0.48926884 3
-2.4054017 0.89360499 -0.49089235 2
nan nan nan 0
-3.752382 1.395498 -0.48686856 4
-3.915184 1.4568213 -0.36213264 11
-3.9572027 1.4732426 -0.21855795 13
-3.9382803 1.4669807 -0.071963035 14
-3.9551497 1.4740505 1.1199565 12
-3.9526074 1.4738888 0.96431047 13
-3.9355083 1.4682952 0.80830365 8
-3.922291 1.4641439 0.65630066 10
-3.9503396 1.4753997 0.51306993 14
-3.9458075 1.4744917 0.36518258 15
-3.9551055 1.478753 0.21928765 15
-3.9128046 1.4637159 0.072252959 15
-1.7677418 0.66304219 -0.4956387 4
-2.0245116 0.75975418 -0.49039361 4
nan nan nan 0
nan nan nan 0
-3.756779 1.41208 -0.4880873 4
-3.8681157 1.4546993 -0.35821068 11
-3.9053023 1.4694623 -0.21594985 14
-3.8863487 1.463105 -0.071099132 15
-3.9047816 1.4708226 1.1070238 11
-3.9018483 1.4704953 0.95307136 12
-3.8798401 1.4629745 0.7978186 9
-3.8663287 1.4586506 0.64770627 11
-3.8987353 1.4716539 0.50697643 14
-3.8893793 1.4688979 0.36038899 14
-3.9032114 1.4749004 0.21667084 14
-3.8655856 1.4614537 0.071467601 15
-1.7654166 0.66920871 -0.4956387 5
-2.0218472 0.76681638 -0.49039361 4
-2.3165021 0.87903124 -0.47373492 3
nan nan nan 0
-3.7703841 1.4322343 -0.49052468 4
-3.8211098 1.4522662 -0.35428864 12
-3.8581448 1.4671128 -0.21360257 15
-3.8391652 1.4606624 -0.07032162 15
-3.854485 1.4672612 1.0940914 11
-3.8511617 1.4667658 0.94183236 12
-3.8334308 1.4607788 0.78923988 9
-3.8196826 1.4563035 0.64067447 11
-3.8472068 1.4675666 0.50088298 13
-3.8376927 1.4647045 0.35603121 15
-3.8560576 1.4724847 0.21431573 14
-3.8184307 1.4588802 0.070682235 15
-1.76758 0.67709476 -0.49693277 5
-2.0191584 0.77386934 -0.49039361 4
nan nan nan 0
nan nan nan 0
-3.7236638 1.4293803 -0.48504055 5
-3.7741685 1.4495231 -0.35036662 11
-3.8157127 1.466243 -0.2115161 14
-3.7920473 1.4579087 -0.069544114 15
-3.8042612 1.4633666 1.0811589 12
-3.8050959 1.4644502 0.93171722 14
-3.7870839 1.458277 0.78066117 10
-3.7638836 1.4500977 0.63208008 11
-3.8003848 1.4649222 0.49539888 14
-3.7907305 1.4619608 0.35210919 15
-3.8043106 1.467961 0.21169895 15
-3.7760048 1.4577957 0.069984145 15
-1.7697097 0.68500406 -0.49822688 4
-2.0164447 0.78091276 -0.49039361 4
-2.3606534 0.914689 -0.48422 2
-2.8766642 1.1152066 -0.48260072 3
-3.732532 1.4477534 -0.48686856 7
-3.7319372 1.448272 -0.34688041 12
-3.7686794 1.4632877 -0.20916881 14
-3.7496548 1.4566541 -0.068852983 14
-3.7631159 1.4626393 1.0708128 13
-3.759094 1.4618313 0.92160207 14
-3.740802 1.4554697 0.77208251 10
-3.7173793 1.4471035 0.62504828 12
-3.753629 1.4619693 0.48991475 13
-3.7484758 1.4607158 0.34862298 14
-3.7572947 1.4649076 0.20934382 16
-3.7289765 1.4546165 0.069198787 16
-1.7718055 0.6929363 -0.49952096 3
-2.0137064 0.7879467 -0.49039361 4
nan nan nan 0
-2.8727536 1.1252413 -0.48260072 3
-3.713594 1.4553413 -0.48504055 10
-3.6897609 1.4467441 -0.34339416 11
-3.7263625 1.4618459 -0.20708236 15
-3.7026651 1.4532951 -0.068075471 14
-3.7175267 1.4598771 1.0591736 12
-3.7176914 1.4606909 0.91261083 12
-3.6991546 1.4541531 0.76445699 10
-3.6755381 1.4456099 0.61879778 11
-3.7069404 1.4587078 0.48443061 14
-3.7062762 1.4591935 0.34513673 14
-3.7149925 1.4633741 0.20725037 15
-3.6820166 1.4511271 0.068413429 15
-1.7738676 0.70089161 -0.50081509 3
-2.006413 0.79317993 -0.48926884 4
-2.3770316 0.94017351 -0.48898596 2
-2.8779922 1.1388965 -0.48416507 3
-3.6946485 1.4628146 -0.4832125 16
-3.6430106 1.4431052 -0.33947214 11
-3.6841018 1.4601264 -0.20499587 14
-3.6603916 1.4514687 -0.067384355 12
-3.6764925 1.4585959 1.0488275 12
-3.6763432 1.4592793 0.90361959 14
-3.6575625 1.4525636 0.75683153 10
-3.6337531 1.4438422 0.61254728 11
-3.6603208 1.4551384 0.47894648 15
-3.6641338 1.4573948 0.34165052 15
-3.6681082 1.4597173 0.20489526 15
-3.6351273 1.4473275 0.067628071 15
-1.7714103 0.70707929 -0.50081509 4
-2.0036321 0.80017877 -0.48926884 4
-2.3372717 0.93389547 -0.48136041 2
-2.8969271 1.1581014 -0.48807591 3
-3.638834 1.4554293 -0.47650966 13
-3.6009555 1.4410082 -0.3359859 10
-3.6372633 1.4562743 -0.20264859 13
-3.6135359 1.4475061 -0.066606842 14
-3.6310298 1.4552492 1.0371883 12
-3.6350508 1.4575971 0.89462835 13
-3.6114714 1.448874 0.74825281 10
-3.592026 1.4418006 0.60629684 11
-3.6137719 1.4512615 0.47346237 14
-3.6220493 1.4553199 0.33816427 15
-3.621295 1.4557509 0.20254014 15
-3.5790334 1.4394875 0.06666819 16
-1.7734106 0.71506447 -0.50210917 4
-2.0008266 0.80716789 -0.48926884 4
nan nan nan 0
-2.8791296 1.162659 -0.48572943 3
-3.6015217 1.455109 -0.47224423 9
-3.55896 1.4386355 -0.33249965 11
-3.5858681 1.4502406 -0.2000405 13
-3.5667529 1.4432342 -0.065829329 13
-3.5856359 1.4516033 1.0255491 12
-3.5938148 1.4556446 0.88563704 13
-3.5700002 1.4467241 0.74062735 9
-3.5549343 1.441341 0.60082763 11
-3.5672951 1.4470776 0.46797827 14
-3.5754092 1.4510959 0.33424225 15
-3.579181 1.4533544 0.20044671 14
-3.5323024 1.4350371 0.065882832 15
-1.7709037 0.72125047 -0.50210917 4
-1.9979968 0.81414711 -0.48926884 4
nan nan nan 0
-2.8750534 1.1727021 -0.48572943 3
-3.5596616 1.4526708 -0.46736944 8
-3.5216367 1.43787 -0.32944921 11
-3.5391827 1.4457546 -0.19769323 13
-3.5200441 1.4386536 -0.065051816 12
-3.5403121 1.4476583 1.0139097 11
-3.5526376 1.4534222 0.87664586 13
-3.5285883 1.4443023 0.73300183 10
-3.5178902 1.4406403 0.59535849 6
-3.5208921 1.4425873 0.46249413 13
-3.533452 1.4484535 0.33075604 12
-3.5325089 1.448787 0.19809158 11
-3.4671462 1.4226869 0.064748421 7
-1.7728419 0.72926503 -0.50340325 4
-1.9951427 0.82111645 -0.48926884 4
nan nan nan 0
-2.8709426 1.1827307 -0.48572943 3
-3.517863 1.4499582 -0.46249467 7
-3.4889672 1.4387606 -0.32683456 9
-3.4787252 1.4352475 -0.19456352 7
-3.4687903 1.4318572 -0.064187914 7
-3.4905961 1.4415712 1.0009773 7
-3.5115201 1.4509301 0.86765462 7
-3.4917731 1.4434843 0.72632951 4
-3.4535127 1.4283733 0.58520144 4
-3.4745646 1.4377908 0.45701003 5
-3.4869552 1.4436308 0.32683405 7
-3.4905255 1.4458227 0.19599815 8
-3.4344487 1.4232973 0.064224847 8
-1.7656972 0.73390418 -0.50210917 4
-1.9921198 0.82842356 -0.48926884 4
-2.3057089 0.95930165 -0.47754765 2
-2.8665884 1.1932453 -0.48572943 3
-3.4850371 1.4513943 -0.45883858 5
-3.4606812 1.4419597 -0.32465565 17
-3.4319625 1.4306966 -0.19221623 6
-3.431221 1.4310904 -0.06358318 12
-3.4318006 1.4320354 0.9854582 5
-3.4747071 1.4506516 0.85978723 5
-3.4592848 1.4449221 0.72061038 17
-3.416357 1.4276918 0.57973224 18
-3.4143276 1.4275438 0.44969785 6
-3.4402843 1.4391018 0.32291204 12
-3.4483547 1.4431849 0.19390471 13
-3.4153752 1.4300832 0.063963063 13
-1.7586715 0.73819393 -0.50081509 3
-1.989216 0.83537227 -0.48926884 4
nan nan nan 0
-2.8669581 1.205158 -0.48651159 3
-3.452502 1.4520071 -0.45518249 4
-3.4326711 1.4443721 -0.32247674 10
-3.4315493 1.4446049 -0.19247703 13
-3.4077756 1.435297 -0.063237622 11
-3.4356828 1.447757 0.98804474 18
-3.4381964 1.4495229 0.85191995 17
-3.4270852 1.4455431 0.71489125 13
-3.3294525 1.4050461 0.5656687 12
-3.4001799 1.4355927 0.44847915 8
-3.4214747 1.4452872 0.32160467 10
-3.4248989 1.447438 0.192858 12
-3.3873372 1.4322678 0.063526757 8
-1.7517668 0.74213785 -0.49952096 3
-1.9910679 0.84351796 -0.49039361 4
-2.3038151 0.97648793 -0.47850087 3
-2.863158 1.2141588 -0.48651159 3
-3.420512 1.4512165 -0.45152643 6
-3.4051917 1.4454179 -0.32029784 5
-3.3994186 1.4436675 -0.19091219 9
-3.3894463 1.4401307 -0.062978454 5
-3.4088929 1.4490957 0.98157841 9
-3.4112086 1.4507833 0.84630042 9
-3.3954284 1.4447718 0.70917213 8
-3.2932146 1.4019581 0.5601995 5
-3.3819556 1.4404335 0.44665113 4
-3.394006 1.4462658 0.31942579 5
-3.4019623 1.4503578 0.19181128 6
-3.36443 1.4350507 0.063177705 5
-1.7448555 0.74604416 -0.49822688 3
-1.9881114 0.85046297 -0.49039361 4
-2.3364918 0.99997365 -0.48612636 3
-2.8589022 1.2241457 -0.48651159 3
-3.3926165 1.4533762 -0.44847968 6
-3.3772347 1.4474843 -0.31811893 9
-3.3805914 1.4496214 -0.19012977 4
-3.3798044 1.4499823 -0.062892064 11
-3.3860607 1.4533663 0.97640544 5
-3.3792634 1.4511471 0.83955699 5
-3.3587964 1.4430525 0.70249981 5
-3.3109865 1.4231963 0.56410605 6
-3.3723478 1.4502693 0.44604176 12
-3.3797858 1.4541671 0.31855425 4
-3.3785336 1.4543271 0.19076456 4
-3.3364427 1.4368989 0.062741399 4
-1.7419782 0.75273842 -0.49822688 3
-1.9893028 0.86002368 -0.49151835 5
-2.3236251 1.0050408 -0.48422 3
-2.8496485 1.2331527 -0.48572943 3
-3.3642399 1.4565336 -0.44543296 6
-3.344228 1.4485625 -0.31550428 8
-3.3658373 1.4586204 -0.18960814 11
-3.3329318 1.4450514 -0.062114555 9
-3.3538697 1.4548249 0.96864593 5
-3.3513196 1.4544138 0.83393741 4
-3.3217151 1.4422549 0.69582742 5
-3.2919085 1.429996 0.56176215 4
-3.3394458 1.451339 0.4423857 19
-3.3741772 1.4671338 0.31855425 9
-3.3683457 1.4652971 0.19050287 8
-3.307981 1.4397241 0.062305089 57
-1.7437665 0.76074564 -0.49952096 3
-1.9862887 0.86696237 -0.49151835 5
-2.297612 1.0033243 -0.47945404 3
-2.8453267 1.2430924 -0.48572943 3
-3.340946 1.4603175 -0.44299558 5
-3.311769 1.4482529 -0.31288961 9
-3.3241293 1.4543493 -0.18752168 11
-3.2958088 1.4426441 -0.061509822 11
-3.3443468 1.4645858 0.96735269 9
-3.3194473 1.454372 0.82719404 9
-3.285193 1.4400475 0.68915516 5
-3.3004651 1.4474287 0.56410605 15
-3.2934582 1.4450413 0.4369016 8
-3.3325486 1.4628862 0.31506801 9
-3.3266368 1.4609836 0.18840943 9
-3.2754714 1.4392022 0.061781514 72
-1.7455204 0.76877457 -0.50081509 3
-1.9832503 0.87389052 -0.49151835 5
-2.3030782 1.0152981 -0.48136041 3
-2.8409703 1.2530169 -0.48572943 4
-3.3131266 1.4619534 -0.43994883 4
-3.2747967 1.4457229 -0.30983913 9
-3.2870595 1.451822 -0.18569601 16
-3.2541714 1.4379749 -0.060818698 17
-3.3171265 1.466486 0.96088642 15
-3.2876163 1.4541256 0.8204506 16
-3.2442384 1.4356165 0.68152958 10
-3.2637815 1.4449458 0.55863684 11
-3.2520938 1.4404503 0.4320268 7
-3.2955446 1.460384 0.31201756 10
-3.2941289 1.4604446 0.18683936 16
-3.238441 1.4364319 0.061170679 54
-1.7472394 0.77682501 -0.50210917 3
-1.9801877 0.88080812 -0.49151835 4
-2.2995203 1.0233312 -0.48136041 3
-2.8410904 1.2649348 -0.48651159 3
-3.2898698 1.465432 -0.43751144 6
-3.2424324 1.44498 -0.30722445 9
-3.2454884 1.4470209 -0.18360955 13
-3.2126074 1.4330329 -0.060127579 7
-3.2634711 1.4564046 0.94666064 11
-3.2513795 1.4516886 0.81258327 9
-3.2078369 1.4329193 0.67485732 6
-3.2226474 1.4402099 0.5523864 8
-3.2062714 1.4335626 0.4265427 7
-3.2631462 1.4596754 0.30940288 10
-3.2297626 1.4454188 0.18343751 7
-3.201468 1.433427 0.06055985 51
-1.7445171 0.78291923 -0.50210917 3
-1.977101 0.88771486 -0.49151835 4
-2.295934 1.0313518 -0.48136041 3
-2.8411624 1.2768687 -0.48729378 3
-3.2575769 1.4646963 -0.43385535 7
-3.2055712 1.4419857 -0.30417401 9
-3.2085443 1.4439964 -0.18178387 8
-3.1711175 1.4278183 -0.059436455 7
-3.2187345 1.4499338 0.9350214 8
-3.2107575 1.4470147 0.80359203 7
-3.1714938 1.4299854 0.668185 5
-3.1860883 1.4372351 0.54691726 7
-3.1695838 1.4304557 0.42227724 7
-3.230793 1.4587586 0.30678821 10
-3.174643 1.434073 0.18055904 7
-3.1599998 1.4281225 0.059861749 50
-1.7417736 0.78900397 -0.50210917 3
-1.9739902 0.89461082 -0.49151835 4
-2.2967901 1.0413867 -0.48231363 3
-2.8411849 1.2888184 -0.48807591 3
-3.2253296 1.4637529 -0.43019927 8
-3.1733062 1.440811 -0.30155933 10
-3.167115 1.4386668 -0.17969741 7
-3.1342552 1.4244001 -0.058831725 6
-3.1696863 1.4411697 0.9220888 7
-3.1746438 1.4440924 0.79572469 7
-3.1396785 1.4288487 0.66246587 5
-3.1495898 1.4340229 0.54144806 7
-3.1374738 1.4291677 0.41862118 8
-3.1984863 1.457634 0.30417356 10
-3.1332719 1.4285746 0.1784656 6
-3.123157 1.4246211 0.059250917 50
-1.7390088 0.79507911 -0.50210917 3
-1.9708555 0.90149587 -0.49151835 4
-2.2931411 1.0493977 -0.48231363 3
-2.8411591 1.300784 -0.4888581 3
-3.1931291 1.4626025 -0.42654318 8
-3.1410882 1.4394287 -0.29894465 9
-3.1303015 1.4351467 -0.17787173 6
-3.1019998 1.4228264 -0.058313385 8
-3.1339085 1.4381244 0.91303611 7
-3.1341619 1.438903 0.78673345 7
-3.1079097 1.4275074 0.65674675 6
-3.11764 1.4326357 0.53676021 12
-3.1009026 1.4255999 0.41435575 7
-3.1662271 1.4563016 0.30155888 10
-3.1101224 1.4311539 0.17741889 7
-3.0909185 1.4229708 0.058727346 64
-1.7362229 0.80114448 -0.50210917 3
-1.9676967 0.90836996 -0.49151835 4
-2.289464 1.0573958 -0.48231363 3
-2.832118 1.308622 -0.48807591 3
-3.156471 1.4591627 -0.42227775 8
-3.1089191 1.4378392 -0.29632998 9
-3.0935519 1.4313874 -0.17604607 8
-3.0697937 1.4210451 -0.057795044 10
-3.1025732 1.4368768 0.9052766 13
-3.1025968 1.4375453 0.77999008 11
-3.076189 1.4259619 0.65102762 8
-3.0857389 1.431043 0.53207237 10
-3.068897 1.4238832 0.41069967 8
-3.1340165 1.4547616 0.29894418 10
-3.0779362 1.4293832 0.1758488 9
-3.0587299 1.4211128 0.058203775 56
-1.7334157 0.80720013 -0.50210917 3
-1.9689301 0.91729045 -0.49264312 4
-2.285759 1.0653811 -0.48231363 3
-2.827533 1.3184999 -0.48807591 3
-3.1243742 1.4575832 -0.41862166 7
-3.0767999 1.4360428 -0.2937153 9
-3.0568664 1.427389 -0.17422041 9
-3.0376382 1.4190563 -0.0572767 8
-3.0712857 1.435428 0.89751709 11
-3.071079 1.4359846 0.77324659 9
-3.0445175 1.4242126 0.64530849 7
-3.0538871 1.4292454 0.52738446 8
-3.0369411 1.4219606 0.40704358 8
-3.1018558 1.453015 0.29632953 10
-3.0503218 1.4295241 0.17454042 8
-3.026592 1.4190475 0.057680197 53
-1.7305876 0.81324601 -0.50210917 4
-1.9657162 0.92415768 -0.49264312 4
-2.2864676 1.0754424 -0.4832668 4
-2.8229132 1.3283619 -0.48807591 3
-3.0923269 1.4557977 -0.41496557 8
-3.0447314 1.43404 -0.29110062 9
-3.0247641 1.4252806 -0.17265557 8
-3.0055346 1.4168606 -0.056758359 7
-3.0400457 1.4337784 0.88975751 9
-3.0396109 1.4342217 0.76650316 8
-3.0128958 1.4222594 0.63958937 6
-3.0220861 1.4272428 0.52269661 8
-3.0050366 1.4198323 0.40338752 8
-3.0697455 1.4510618 0.29371485 10
-3.0182297 1.4273549 0.17297032 7
-2.9945061 1.4167753 0.057156626 51
-1.7277383 0.81928194 -0.50210917 3
-1.9624784 0.9310137 -0.49264312 4
-2.2826998 1.0834172 -0.4832668 4
-2.8137984 1.3360895 -0.48729378 3
-3.0603306 1.4538062 -0.41130951 8
-3.0172133 1.4339688 -0.28892171 9
-2.9927142 1.4229655 -0.17109071 8
-2.9779978 1.4166057 -0.056326408 6
-3.0088556 1.4319284 0.881998 8
-3.0081925 1.4322568 0.75975972 7
-2.9813254 1.4201032 0.63387018 6
-2.9903357 1.4250356 0.51800871 8
-2.9731841 1.4174989 0.39973143 8
-3.0376873 1.4489022 0.29110017 10
-2.9906974 1.42713 0.17166193 6
-2.9624736 1.4142967 0.056633055 54
-1.7248678 0.82530785 -0.50210917 4
-1.9636106 0.93996179 -0.49376786 4
-2.2833312 1.0934988 -0.48422 4
-2.8046639 1.3437694 -0.48651159 3
-3.0328612 1.4537542 -0.40826276 8
-2.9852419 1.4315695 -0.28630704 10
-2.9652193 1.4226042 -0.16978666 8
-2.9459929 1.4140128 -0.055808067 10
-2.9777153 1.4298782 0.87423849 8
-2.9768252 1.4300902 0.75301629 8
-2.9498069 1.4177442 0.62815106 7
-2.9586387 1.4226246 0.51332086 12
-2.941385 1.4149605 0.39607537 8
-2.9967051 1.4422165 0.28761396 14
-2.9587045 1.4245641 0.17009185 9
-2.930495 1.4116118 0.056109484 68
-1.7218314 0.83162427 -0.50210917 4
-1.9601523 0.94715244 -0.49376786 4
-2.2793078 1.1018603 -0.48422 5
-2.7997196 1.35404 -0.48651159 3
-3.0007088 1.4518914 -0.40460667 8
-2.9530752 1.4294801 -0.28369236 10
-2.9330215 1.4204048 -0.1682218 14
-2.9137964 1.4117222 -0.055289723 11
-2.9463773 1.4281425 0.86647898 14
-2.945261 1.4282362 0.74627286 13
-2.9180944 1.4156916 0.62243193 10
-2.9267473 1.4205205 0.50863302 9
-2.9138577 1.4148929 0.39302862 8
-2.960037 1.4379549 0.28456348 8
-2.9310091 1.4244858 0.16878346 11
-2.8938298 1.407041 0.055498648 7
-1.7189181 0.8376295 -0.50210917 4
-1.9568343 0.95398891 -0.49376786 4
-2.2754476 1.1098098 -0.48422 5
-2.7905381 1.361639 -0.48572943 3
-2.9733238 1.4514717 -0.40155992 8
-2.9256887 1.4288502 -0.28151348 9
-2.9056139 1.4196742 -0.16691776 10
-2.8819027 1.408712 -0.054771382 8
-2.9153414 1.4256878 0.85871947 10
-2.9139993 1.4256618 0.73952943 8
-2.8866837 1.4129221 0.61671281 6
-2.8995941 1.4198687 0.50472647 8
-2.8821609 1.4119558 0.38937253 8
-2.923691 1.4329339 0.28151307 8
-2.8991194 1.4215187 0.16721338 8
-2.8574796 1.4017278 0.054887816 6
-1.7159836 0.84362453 -0.50210917 4
-1.9534923 0.9608137 -0.49376786 4
-2.2759638 1.1199129 -0.48517317 5
-2.785768 1.3713715 -0.48572943 4
-2.9415269 1.4486859 -0.39790383 8
-2.8983431 1.4280467 -0.27933457 10
-2.8737686 1.4165621 -0.1653529 8
-2.8545492 1.4077076 -0.054339435 7
-2.8843586 1.423034 0.85095996 8
-2.882792 1.4228866 0.73278606 8
-2.8553283 1.409951 0.61099368 6
-2.8680534 1.4168572 0.50003856 7
-2.8549697 1.4110137 0.38632578 8
-2.891881 1.4298844 0.27889836 7
-2.871762 1.4205605 0.16590497 7
-2.8256888 1.3983835 0.054364245 6
-1.7087016 0.84746337 -0.50081509 3
-1.9501265 0.96762681 -0.49376786 4
-2.2720406 1.1278505 -0.48517317 6
-2.785387 1.3832839 -0.48651159 4
-2.9142299 1.4479042 -0.39485711 8
-2.8665783 1.4248528 -0.2767199 10
-2.8419812 1.4132452 -0.16378805 8
-2.8272383 1.4065295 -0.053907484 6
-2.8534305 1.4201813 0.84320045 8
-2.8516397 1.4199111 0.72604263 7
-2.8284223 1.4089665 0.60622776 6
-2.8409901 1.415846 0.49613208 7
-2.8278208 1.4098991 0.38327909 8
-2.8645861 1.428854 0.27671948 7
-2.8399794 1.4171991 0.16433489 7
-2.7939534 1.3948406 0.053840671 6
-1.7057331 0.85342276 -0.50081509 4
-1.9467369 0.97442818 -0.49376786 4
-2.2680898 1.1357746 -0.48517317 6
-2.7761261 1.3907863 -0.48572943 5
-2.8869748 1.4469496 -0.39181039 8
-2.8393242 1.4236873 -0.27454099 10
-2.8147149 1.4119627 -0.16248401 8
-2.7999709 1.4051781 -0.053475533 6
-2.8225574 1.4171301 0.83544099 8
-2.8248975 1.4189224 0.72042304 7
-2.7971725 1.4056078 0.60050863 6
-2.8139687 1.4146631 0.4922255 8
-2.8007138 1.408612 0.38023233 8
-2.8373334 1.4276503 0.27454057 8
-2.8127155 1.4158787 0.1630265 6
-2.7667422 1.3933418 0.053404361 8
-1.7070553 0.86154771 -0.50210917 4
-1.9433237 0.98121756 -0.49376786 4
-2.2684929 1.1458979 -0.48612636 7
-2.7888849 1.4093778 -0.4888581 8
-2.859762 1.4458226 -0.38876364 8
-2.8121135 1.4223491 -0.27236211 10
-2.7874928 1.4105071 -0.16117996 9
-2.772747 1.4036535 -0.053043582 13
-2.7960496 1.4160631 0.82897466 10
-2.7938511 1.4155624 0.71367961 9
-2.770359 1.4042674 0.5957427 9
-2.7825859 1.4110755 0.48753765 9
-2.7692254 1.4049079 0.37657624 7
-2.8101249 1.4262742 0.2723617 8
-2.7854955 1.4143851 0.1617181 11
-2.7395761 1.3916701 0.052968048 9
-1.7040375 0.8675012 -0.50210917 4
-1.9398868 0.98799509 -0.49376786 4
-2.2644792 1.1538094 -0.48612636 7
-2.7663491 1.4101332 -0.48572943 14
-2.8325925 1.4445233 -0.38571692 8
-2.7849469 1.4208384 -0.27018321 10
-2.7647626 1.4111488 -0.16013673 12
-2.7455685 1.4019561 -0.052611627 10
-2.7695837 1.4148284 0.82250839 11
-2.7672014 1.4142203 0.70806009 11
-2.7435892 1.4027569 0.59097672 8
-2.7556596 1.4095351 0.4836311 9
-2.7422149 1.403262 0.37352949 8
-2.7785268 1.4224557 0.26974702 8
-2.7583206 1.4127189 0.16040969 11
-2.7124557 1.3898261 0.052531742 7
-1.700999 0.87344408 -0.50210917 4
-1.9364262 0.99476051 -0.49376786 4
-2.2604377 1.1617069 -0.48612636 8
-2.7306664 1.4039741 -0.4802542 14
-2.8054671 1.4430522 -0.38267016 9
-2.7578256 1.4191555 -0.26800433 10
-2.7376227 1.4093636 -0.15883268 10
-2.718436 1.4000863 -0.052179679 8
-2.7474546 1.4156386 0.81733537 10
-2.7405951 1.4127096 0.70244062 9
-2.7168641 1.4010772 0.58621085 7
-2.7287779 1.4078239 0.47972456 8
-2.7152503 1.4014449 0.3704828 9
-2.7514157 1.4207194 0.26756814 8
-2.7311914 1.4108803 0.15910131 8
-2.6853819 1.3878098 0.052095428 7
-1.7022283 0.88159746 -0.50340325 4
-1.932942 1.0015138 -0.49376786 5
-2.2607262 1.171849 -0.48707953 8
-2.7038286 1.4021301 -0.4763433 12
-2.7827921 1.4436947 -0.38023278 9
-2.7307498 1.4173006 -0.26582542 10
-2.7105296 1.4074064 -0.15752864 9
-2.6913502 1.3980442 -0.051747728 7
-2.7210681 1.4140846 0.81086916 9
-2.7140336 1.4110305 0.69682103 8
-2.6901844 1.3992277 0.58144486 6
-2.701942 1.4059424 0.47581798 8
-2.6883318 1.3994566 0.36743605 9
-2.719933 1.4165106 0.26495346 8
-2.704109 1.4088696 0.1577929 8
-2.6583555 1.3856215 0.051659122 6
-1.6991407 0.88753402 -0.50340325 5
-1.9294344 1.008255 -0.49376786 4
-2.2566218 1.1797333 -0.48707953 8
-2.6726615 1.3978274 -0.47165027 10
-2.7557499 1.4418961 -0.37718606 9
-2.6948953 1.4106542 -0.26277497 10
-2.67906 1.4029609 -0.15596379 8
-2.6598837 1.3935103 -0.051229388 7
-2.690448 1.4101214 0.80310965 9
-2.6875174 1.4091834 0.69120157 8
-2.6635509 1.3972093 0.57667893 6
-2.6751533 1.403891 0.47191146 8
-2.6614606 1.3972977 0.36438933 8
-2.6929231 1.4144156 0.26277456 8
-2.6770744 1.4066875 0.1564845 7
-2.631377 1.3832616 0.051222809 6
-1.6960322 0.89345974 -0.50340325 5
-1.9259031 1.0149838 -0.49376786 5
-2.2524903 1.1876031 -0.48707953 8
-2.6459258 1.3956283 -0.46773943 9
-2.7331433 1.4422423 -0.37474868 9
-2.654716 1.4014497 -0.25928873 10
-2.6476548 1.3983128 -0.15439893 8
-2.6284821 1.3887739 -0.050711047 7
-2.6641593 1.4082189 0.79664338 9
-2.6567402 1.4048908 0.68445808 7
-2.6369648 1.3950224 0.571913 6
-2.6484113 1.4016696 0.46800488 8
-2.6346374 1.3949684 0.36134258 8
-2.6615601 1.4098181 0.26015988 8
-2.6456759 1.4019957 0.15491442 7
-2.6000309 1.3783888 0.050699238 6
-1.6929032 0.89937454 -0.50340325 5
-1.9223485 1.0217003 -0.49376786 4
-2.2483311 1.1954585 -0.48707953 7
-2.6192379 1.3932596 -0.46382856 8
-2.7061875 1.440117 -0.37170193 9
-2.6190307 1.3943226 -0.25623828 17
-2.6163151 1.393463 -0.15283407 8
-2.597146 1.3838353 -0.050192706 7
-2.6336546 1.4038783 0.78888386 9
-2.6303251 1.4026932 0.67883861 8
-2.6017652 1.388046 0.56524068 6
-2.6130047 1.3946282 0.46253574 8
-2.6034856 1.3901315 0.35768652 9
-2.6302619 1.4050189 0.25754523 8
-2.6143434 1.3971021 0.15334433 7
-2.5687513 1.3733141 0.050175667 6
-1.6897535 0.90527838 -0.50340325 6
-1.9187704 1.0284044 -0.49376786 5
-2.2441444 1.2032994 -0.48707953 7
-2.5925992 1.3907218 -0.45991769 8
-2.6705339 1.4331279 -0.36743647 9
-2.5702624 1.3798956 -0.25188047 12
-2.585042 1.3884114 -0.15126921 12
-2.565877 1.3786951 -0.049674366 6
-2.6032128 1.3993421 0.78112435 9
-2.5996673 1.398021 0.67209518 8
-2.5709693 1.3831666 0.55952156 7
-2.5776796 1.387357 0.45706654 8
-2.5767689 1.3874469 0.35463977 9
-2.5946448 1.3976562 0.25449476 9
-2.5830774 1.3920069 0.15177426 7
-2.5375392 1.3680381 0.049652096 6
-1.686583 0.91117126 -0.50340325 7
-1.9151689 1.0350958 -0.49376786 4
-2.2399304 1.2111256 -0.48707953 8
-2.5660107 1.3880153 -0.45600685 8
-2.6349626 1.4259076 -0.36317107 9
-2.543529 1.3770022 -0.24970159 12
-2.5538359 1.3831587 -0.14970437 10
-2.5258849 1.3685905 -0.048983242 7
-2.5728354 1.3946105 0.77336484 8
-2.5690744 1.3931521 0.66535175 8
-2.531611 1.3734083 0.55189604 6
-2.5424373 1.3798561 0.45159736 9
-2.5501037 1.3845931 0.35159305 8
-2.5591118 1.3900625 0.25144431 8
-2.5474923 1.3843267 0.14994252 7
-2.502003 1.3601732 0.04904126 7
-1.6832322 0.91734672 -0.50340325 6
-1.9113622 1.0421083 -0.49376786 4
-2.2397854 1.2216775 -0.48803276 8
-2.5392306 1.3855834 -0.45209596 9
-2.599227 1.4189103 -0.35890561 13
-2.5122356 1.3719912 -0.24708691 22
-2.5268402 1.3805397 -0.14840032 11
-2.5033045 1.3682483 -0.048637681 11
-2.5422804 1.390128 0.76560533 10
-2.5340307 1.3861916 0.65748441 9
-2.500726 1.3685399 0.54617691 9
-2.502708 1.3701923 0.44534689 27
-2.5188961 1.3796266 0.34793696 10
-2.5190542 1.3802847 0.24795809 16
-2.5073736 1.3744535 0.14784908 11
-2.4926174 1.3669305 0.048953995 26
-1.6800199 0.9232167 -0.50340325 6
-1.9077129 1.0487739 -0.49376786 5
-2.2355072 1.2294884 -0.48803276 8
-2.5170717 1.3849159 -0.44896728 12
-2.5594773 1.4088299 -0.35403085 14
-2.4943416 1.3735442 -0.24577957 24
-2.5045118 1.3797144 -0.14735709 28
-2.4897566 1.3721521 -0.048464898 33
-2.5120349 1.3850019 0.75784576 29
-2.5035799 1.38091 0.65074098 31
-2.4873388 1.3725181 0.54427052 31
-2.4892628 1.3741466 0.44378427 31
-2.4966879 1.3788141 0.34549958 30
-2.4924214 1.3770257 0.24577919 32
-2.4894502 1.3759513 0.14706403 32
-2.4790776 1.3707908 0.048779473 34
-1.6727241 0.9264428 -0.50210917 6
-1.9044087 1.0547619 -0.49376786 5
-2.2316337 1.2365054 -0.48803276 8
-2.4954314 1.38324 -0.44583857 14
-2.520318 1.3976099 -0.34915608 12
-2.4725916 1.3717083 -0.24403645 17
-2.4783359 1.3754605 -0.14605305 24
-2.4723213 1.372687 -0.04820573 17
-2.4865603 1.3811606 0.75137955 34
-2.4821944 1.3793026 0.64624536 29
-2.4701445 1.373171 0.54141092 20
-2.4676695 1.3723589 0.44065902 18
-2.474997 1.3769997 0.34306216 27
-2.4793787 1.3800042 0.24490763 22
-2.472028 1.3764781 0.14627899 24
-2.4616601 1.3712679 0.048517689 35
-1.6696428 0.93198466 -0.50210917 7
-1.9007152 1.0614032 -0.49376786 5
-2.2273037 1.2442877 -0.48803276 9
-2.4690337 1.3798959 -0.44192773 14
-2.4937658 1.3942896 -0.34610933 13
-2.454747 1.3730361 -0.24272911 14
-2.4560897 1.3743501 -0.1450098 15
-2.454428 1.3739828 -0.047946557 17
-2.4606538 1.3780321 0.74491328 17
-2.4603631 1.3784333 0.64174974 17
-2.4524915 1.3745857 0.53855139 19
-2.4499412 1.3737183 0.43831509 13
-2.4528623 1.3759189 0.34062478 15
-2.4615149 1.3813375 0.24360029 20
-2.4541464 1.3777658 0.14549395 15
-2.4437821 1.3725082 0.048255898 32
-1.6660519 0.93838876 -0.50210917 7
-1.8966258 1.0686935 -0.49376786 5
-2.2225096 1.2528307 -0.48803276 11
-2.4465106 1.3796629 -0.43879902 14
-2.4754269 1.3965392 -0.34428129 11
-2.4321058 1.3726588 -0.24098599 13
-2.4334025 1.3739507 -0.14396657 14
-2.4360754 1.3760208 -0.047687389 15
-2.4385247 1.3779656 0.73974025 13
-2.438087 1.3782797 0.63725412 13
-2.4343781 1.3767438 0.5356918 16
-2.4274549 1.3733877 0.43518984 12
-2.4346044 1.3779936 0.33879676 14
-2.4431901 1.3834163 0.24229297 16
-2.4358041 1.3797957 0.14470892 13
-2.4210966 1.3720224 0.047906853 29
-1.6627661 0.94419861 -0.50210917 7
-1.8928838 1.0753074 -0.49376786 5
-2.218123 1.2605811 -0.48803276 12
-2.4245071 1.3784312 -0.43567032 14
-2.4532816 1.3953573 -0.34184387 12
-2.4099827 1.3712867 -0.23924288 12
-2.4112344 1.3725561 -0.14292334 12
-2.4138808 1.3746204 -0.047341831 14
-2.4127169 1.3745153 0.73327404 12
-2.4163294 1.3771321 0.63275844 12
-2.4125018 1.3755085 0.53187907 15
-2.4054871 1.3720653 0.43206459 11
-2.4125378 1.3766452 0.33635938 13
-2.4210432 1.3820586 0.24054985 15
-2.4136295 1.3783852 0.14366218 13
-2.398926 1.3705512 0.047557805 28
-1.6636516 0.95239645 -0.50340325 7
-1.8848913 1.0794872 -0.49264312 5
-2.2094505 1.2658761 -0.48707953 12
-2.4025426 1.3770628 -0.43254164 14
-2.431175 1.3940378 -0.33940649 12
-2.3878989 1.3697771 -0.23749976 12
-2.3891053 1.3710234 -0.1418801 12
-2.3917253 1.3730818 -0.046996269 15
-2.3911512 1.3733071 0.72810096 12
-2.3946102 1.3758496 0.62826282 12
-2.3906639 1.3741373 0.52806634 15
-2.383558 1.3706064 0.42893937 12
-2.3905108 1.3751596 0.333922 12
-2.3989356 1.3805634 0.23880674 16
-2.3914945 1.3768368 0.14261547 12
-2.3768024 1.3689306 0.047208756 27
-1.6603169 0.95819795 -0.50340325 7
-1.8811117 1.0860602 -0.49264312 5
-2.2050183 1.2735809 -0.48707953 11
-2.3806174 1.375558 -0.42941296 15
-2.4091082 1.3925813 -0.33696911 12
-2.3701673 1.3706235 -0.23619244 12
-2.3670168 1.3693531 -0.14083686 12
-2.3696103 1.3714055 -0.046650708 14
-2.3654437 1.3695453 0.72163475 12
-2.3729291 1.3744323 0.6237672 12
-2.3688655 1.3726306 0.52425355 14
-2.3616688 1.3690113 0.42581412 11
-2.3642306 1.3710477 0.33087525 12
-2.3811767 1.3814303 0.2374994 15
-2.3693995 1.3751508 0.14156875 12
-2.3547161 1.3671781 0.046859708 29
-1.656962 0.96398765 -0.50340325 7
-1.8815197 1.0950704 -0.49376786 5
-2.2048008 1.2837398 -0.48803276 11
-2.3587322 1.3739171 -0.42628425 12
-2.3870811 1.3909879 -0.33453172 13
-2.3481557 1.3688546 -0.23444931 13
-2.3449693 1.3675454 -0.13979362 12
-2.3475361 1.3695916 -0.046305142 14
-2.3439631 1.3680553 0.71646172 12
-2.355495 1.3753371 0.62039554 12
-2.3513448 1.3734642 0.52139401 14
-2.344084 1.3697718 0.42347023 11
-2.342293 1.3692737 0.32843786 12
-2.3591413 1.3796756 0.23575628 15
-2.3473461 1.3733274 0.14052203 12
-2.3326712 1.3652881 0.046510659 29
-1.6577531 0.97220892 -0.50469732 7
-1.8776857 1.1016314 -0.49376786 4
-2.2003064 1.2914281 -0.48803276 11
-2.341146 1.3746407 -0.42393777 12
-2.3650947 1.3892576 -0.33209434 13
-2.3261855 1.3669486 -0.23270617 13
-2.3272679 1.368131 -0.1390112 12
-2.3298135 1.3701748 -0.046045974 14
-2.3225224 1.3664324 0.71128875 12
-2.333885 1.3736659 0.61589992 13
-2.329618 1.3717018 0.51758122 15
-2.3222673 1.3679198 0.42034498 11
-2.3203967 1.3673633 0.32600048 13
-2.3371475 1.3777839 0.23401317 15
-2.3296351 1.3739032 0.139737 13
-2.3149738 1.3658013 0.046248872 27
-1.6543494 0.97798961 -0.50469732 7
-1.8738289 1.1081791 -0.49376786 4
-2.195785 1.2991008 -0.48803276 11
-2.3193343 1.3727431 -0.42080906 12
-2.3431497 1.3873912 -0.32965693 14
-2.3085432 1.3674446 -0.23139885 14
-2.3052955 1.3660644 -0.13796796 12
-2.3078148 1.3681016 -0.045700416 14
-2.3052757 1.3671402 0.70740896 13
-2.3165052 1.3743465 0.6125282 14
-2.3121531 1.3723102 0.51472169 15
-2.3047388 1.3684536 0.41800103 12
-2.2985425 1.365317 0.3235631 13
-2.3194776 1.3783002 0.23270582 15
-2.307657 1.371821 0.13869028 12
-2.293005 1.3636526 0.045899823 29
-1.6509255 0.98375839 -0.50469732 7
-1.869949 1.1147132 -0.49376786 4
-2.1954527 1.3092717 -0.48898596 10
-2.2975638 1.3707099 -0.41768035 13
-2.3212466 1.3853883 -0.32721955 16
-2.2866492 1.3652807 -0.22965574 13
-2.2876527 1.3664217 -0.13718553 12
-2.2901509 1.3684561 -0.045441244 15
-2.2839067 1.365266 0.70223594 13
-2.2991498 1.3749228 0.60915649 13
-2.2905002 1.370293 0.5109089 16
-2.2829974 1.3663455 0.41487581 12
-2.2809889 1.3656843 0.32173505 13
-2.2975602 1.3761506 0.23096271 15
-2.2900052 1.3721687 0.13790524 13
-2.2753675 1.3639374 0.04563804 30
-1.6474816 0.98951524 -0.50469732 7
-1.8702228 1.1237431 -0.49489263 5
-2.1908691 1.3169273 -0.48898596 9
-2.2800686 1.3710866 -0.41533384 13
-2.2993863 1.3832495 -0.32478216 16
-2.2647986 1.3629808 -0.22791262 13
-2.270036 1.3666725 -0.13640311 12
-2.26823 1.3661247 -0.045095682 14
-2.2667165 1.3657523 0.69835621 14
-2.2776458 1.3728794 0.60466087 13
-2.2730935 1.3706764 0.50804937 16
-2.265528 1.3666534 0.41253185 12
-2.259212 1.3633814 0.31929767 13
-2.2799501 1.3764392 0.22965539 15
-2.2723792 1.3724098 0.1371202 13
-2.2534769 1.3615305 0.045288995 30
-1.6398858 0.99275881 -0.50340325 6
-1.8662889 1.1302645 -0.49489263 4
-2.186259 1.3245667 -0.48898596 8
-2.2583756 1.3687985 -0.41220516 12
-2.2775695 1.3809754 -0.32234478 19
-2.2472508 1.3631284 -0.22660528 14
-2.2481768 1.3642269 -0.13535988 13
-2.2506275 1.3662515 -0.044836514 15
-2.2454224 1.363628 0.69318318 14
-2.2603481 1.3732325 0.60128915 13
-2.2515175 1.3684057 0.50423664 16
-2.2438643 1.3642906 0.4094066 12
-2.2417192 1.3635223 0.31746963 13
-2.258111 1.3740326 0.22791228 15
-2.2505145 1.3699485 0.13607349 14
-2.2359011 1.3615879 0.045027204 31
-1.6364105 0.99847698 -0.50340325 6
-1.8623321 1.1367722 -0.49489263 4
-2.1858108 1.334748 -0.48993912 8
-2.240941 1.3689499 -0.40985861 12
-2.2557969 1.3785658 -0.3199074 16
-2.2254801 1.360572 -0.22486216 14
-2.2306216 1.3642503 -0.13457744 13
-2.2287869 1.3636627 -0.044490952 15
-2.2282906 1.3638935 0.68930346 14
-2.2430756 1.3734815 0.59791738 13
-2.2341707 1.3685648 0.50137705 16
-2.2264562 1.3643738 0.40706271 13
-2.2242529 1.3635578 0.31564158 14
-2.2405627 1.3740944 0.22660492 15
-2.2329509 1.3699626 0.13528845 14
-2.2140918 1.3589242 0.044678159 31
-1.6329153 1.0041831 -0.50340325 5
-1.8583527 1.1432661 -0.49489263 5
-2.1811383 1.3423698 -0.48993912 9
-2.2235329 1.3689965 -0.40751213 13
-2.2382946 1.3786236 -0.31807932 16
-2.2079957 1.3604934 -0.22355483 13
-2.2130945 1.3641683 -0.13379502 13
-2.2112474 1.3635623 -0.04423178 15
-2.211184 1.364056 0.68542367 14
-2.2216835 1.3710682 0.59342182 14
-2.2126739 1.3660417 0.49756429 16
-2.2048726 1.3617568 0.40393746 13
-2.2068143 1.3634881 0.31381357 13
-2.2188046 1.3714316 0.22486182 16
-2.2154145 1.3698705 0.13450339 14
-2.1965799 1.3587544 0.044416368 32
-1.6294 1.0098768 -0.50340325 5
-1.8502098 1.1471785 -0.49376786 5
-2.1806104 1.3525625 -0.49089235 11
-2.2019558 1.3663346 -0.40438342 12
-2.2166028 1.375959 -0.31564194 16
-2.186307 1.3576815 -0.2218117 14
-2.1913533 1.3613454 -0.13275178 14
-2.1937361 1.3633562 -0.043972608 15
-2.190002 1.3615656 0.68025064 14
-2.2044728 1.3710957 0.5900501 14
-2.1953897 1.3659781 0.49470475 16
-2.1875277 1.3616158 0.40159351 12
-2.18519 1.36069 0.31137615 13
-2.2013206 1.3712676 0.22355449 17
-2.1936686 1.3670324 0.13345668 14
-2.1790967 1.3584796 0.044154584 31
-1.6258649 1.0155584 -0.50340325 6
-1.8461943 1.15363 -0.49376786 5
-2.1758759 1.360166 -0.49089235 11
-2.1846118 1.3661572 -0.40203691 13
-2.1991646 1.3757919 -0.31381392 16
-2.1688879 1.3573776 -0.22050437 14
-2.1738918 1.3610375 -0.13196936 13
-2.1720161 1.3603908 -0.04362705 15
-2.1729577 1.3615086 0.67637092 14
-2.1831605 1.3684322 0.58555448 14
-2.1781332 1.3658104 0.49184516 16
-2.1702106 1.3613703 0.39924955 13
-2.1678164 1.3603957 0.30954811 13
-2.1796463 1.3683498 0.22181135 17
-2.176198 1.3667146 0.13267164 14
-2.1616421 1.3580991 0.043892797 31
-1.62231 1.0212276 -0.50340325 6
-1.8421559 1.1600673 -0.49376786 5
-2.1669619 1.3651366 -0.48993912 12
-2.1672955 1.3658752 -0.39969036 13
-2.1775563 1.3728729 -0.31137651 17
-2.1514974 1.3569686 -0.21919702 14
-2.1564589 1.360624 -0.13118692 14
-2.1545718 1.3599591 -0.043367881 16
-2.1559403 1.3613491 0.67249113 14
-2.1660135 1.3682386 0.58218277 15
-2.1609046 1.365539 0.48898563 16
-2.1529222 1.3610208 0.39690566 13
-2.1504714 1.3599968 0.30772007 14
-2.1622288 1.3679607 0.22050403 16
-2.1545377 1.3636215 0.13162492 15
-2.1442168 1.3576136 0.043631013 31
-1.6228137 1.0294714 -0.50469732 6
-1.8380954 1.1664907 -0.49376786 5
