# .PCD v0.7 - Point Cloud Data file format
VERSION 0.7
FIELDS x y z intensity
SIZE 4 4 4 4
TYPE F F F F
COUNT 1 1 1 1
WIDTH 1319
HEIGHT 1
VIEWPOINT 0 0 0 1 0 0 0
POINTS 1319
DATA ascii
-1.6751778 -1.9921588 -0.044318173 15
-1.6724395 -1.9881978 0.68542367 13
-1.6777732 -1.9938323 0.59229791 16
-1.6714605 -1.9856266 0.49661112 14
-1.6756052 -1.9898452 0.40550008 14
-1.6712391 -1.9839578 0.31381357 15
-1.6872685 -2.0022769 0.22573337 18
-1.6884644 -2.0029864 0.13528845 17
-1.6682842 -1.9783467 0.044503633 61
-1.227721 -1.4533261 -0.49952096 3
-1.3862888 -1.6404516 -0.48701933 3
-1.6756155 -1.9821215 -0.49661148 3
-1.7020452 -2.0126731 -0.41142297 12
-1.6978271 -2.0069749 -0.31807932 18
-1.6785877 -1.9835299 -0.2239906 17
-1.6829921 -1.9880308 -0.13405582 16
-1.6756599 -1.978669 -0.04414539 17
-1.6700034 -1.9712921 0.68154395 14
-1.6784232 -1.98053 0.5900501 16
-1.6688595 -1.9685482 0.49375153 14
-1.6761522 -1.9764512 0.40393746 16
-1.6717331 -1.9705431 0.31259486 13
-1.6845788 -1.9849821 0.22442605 18
-1.6857511 -1.985661 0.13450339 19
-1.6687076 -1.9648902 0.044329111 60
-1.2390456 -1.4563888 -0.50210917 3
-1.4014795 -1.6467329 -0.49039361 3
-1.6793422 -1.972523 -0.49565825 4
-1.7026564 -1.9992003 -0.40985861 12
-1.6983855 -1.9934808 -0.31686065 18
-1.6758084 -1.9662855 -0.22268325 16
-1.6802027 -1.9707447 -0.13327339 16
-1.6760682 -1.9652004 -0.043972608 15
-1.6674699 -1.9544278 0.67766416 14
-1.6758378 -1.9635415 0.58667839 16
-1.6693468 -1.955245 0.49184516 13
-1.6766264 -1.9630775 0.40237483 15
-1.6689304 -1.9533762 0.31076682 14
-1.6850249 -1.971517 0.22355449 19
-1.6861825 -1.9721743 0.13398004 19
-1.6658078 -1.9476557 0.044067323 60
-1.2252678 -1.4300495 -0.49434459 3
-1.4103894 -1.6455296 -0.49151835 3
-1.6862173 -1.9666491 -0.49565825 4
-1.7031943 -1.9857477 -0.40829429 12
-1.6988705 -1.9800075 -0.31564194 20
-1.6761736 -1.9528646 -0.2218117 17
-1.6805662 -1.9572911 -0.13275178 15
-1.6731459 -1.9479609 -0.043713439 16
-1.6679866 -1.9412687 0.67507768 14
-1.67633 -1.9502902 0.58443058 16
-1.6665615 -1.9382409 0.48898563 13
-1.6738073 -1.9459807 0.40003088 16
-1.6692652 -1.940015 0.30954811 14
-1.6853975 -1.9580727 0.22268291 20
-1.6865404 -1.958709 0.13345668 20
-1.6660711 -1.9342535 0.043892797 62
-1.2460277 -1.4440466 -0.50081509 3
-1.4224914 -1.6479723 -0.49376786 3
-1.6898642 -1.9570361 -0.49470508 4
-1.7004311 -1.9685788 -0.40594777 12
-1.6960377 -1.9628001 -0.31381392 20
-1.6764656 -1.9394653 -0.22094014 16
-1.6775905 -1.9400822 -0.13196936 17
-1.6733941 -1.9345466 -0.04354066 16
-1.6652716 -1.9244776 0.67119795 14
-1.6767502 -1.9370594 0.58218277 16
-1.666891 -1.9249905 0.4870792 14
-1.6741229 -1.9326606 0.39846826 15
-1.6662771 -1.9229246 0.30772007 15
-1.6824346 -1.9408864 0.22137558 20
-1.6835537 -1.9414927 0.13267164 21
-1.6629853 -1.9170969 0.043631013 62
-1.244725 -1.4323974 -0.49822688 3
-1.4282353 -1.6429969 -0.49376786 3
-1.6966852 -1.9511255 -0.49470508 5
-1.7008098 -1.9551792 -0.40438342 12
-1.6963632 -1.9493804 -0.31259522 19
-1.6766844 -1.9260876 -0.22006857 16
-1.6777942 -1.9266833 -0.13144773 17
-1.6735693 -1.9211546 -0.043367881 16
-1.665633 -1.9113704 0.66861141 15
-1.6738971 -1.9201772 0.57881105 15
-1.6639224 -1.9080625 0.48421967 15
-1.6711193 -1.9156401 0.39612433 15
-1.666453 -1.9096183 0.30650139 15
-1.6826479 -1.9274973 0.22050403 20
-1.6837519 -1.9280823 0.13214828 20
-1.663089 -1.9037505 0.043456491 61
-1.252898 -1.4316782 -0.49952096 3
-1.4339617 -1.6380014 -0.49376786 3
-1.7002519 -1.9414985 -0.49375188 5
-1.7011158 -1.9418013 -0.4028191 13
-1.6966157 -1.9359823 -0.31137651 19
-1.6768305 -1.9127322 -0.21919702 16
-1.677925 -1.9133067 -0.13092612 16
-1.6703744 -1.9040267 -0.043108709 16
-1.6659231 -1.8982842 0.66602492 15
-1.6741613 -1.9070001 0.57656324 16
-1.6640952 -1.8948669 0.48231328 14
-1.6712772 -1.902375 0.39456171 15
-1.6665566 -1.8963341 0.30528268 15
-1.6827885 -1.9141302 0.21963248 22
-1.683877 -1.9146943 0.13162492 21
-1.6631202 -1.8904268 0.043281965 62
-1.257888 -1.4272959 -0.49952096 3
-1.4428927 -1.6366407 -0.49489263 3
-1.7070187 -1.9355516 -0.49375188 7
-1.6980822 -1.9247415 -0.40047255 13
-1.6967955 -1.9226066 -0.31015781 20
-1.6736072 -1.8956654 -0.2178897 17
-1.6779826 -1.899953 -0.1304045 17
-1.6703905 -1.8906913 -0.042935926 15
-1.6661423 -1.8852197 0.66343844 15
-1.6743534 -1.8938441 0.57431537 15
-1.6641959 -1.8816932 0.48040691 14
-1.6713626 -1.8891319 0.39299908 16
-1.6632987 -1.8793564 0.30345467 15
-1.6795543 -1.8970562 0.21832512 21
-1.6839293 -1.901329 0.13110156 21
-1.6630783 -1.8771259 0.043107443 62
-1.2628624 -1.4228965 -0.49952096 3
-1.4485968 -1.6315941 -0.49489263 3
-1.7105051 -1.9259114 -0.49279872 8
-1.6982305 -1.9114189 -0.3989082 13
-1.6969025 -1.9092531 -0.30893913 21
-1.6735951 -1.8823671 -0.21701814 18
-1.6779678 -1.8866221 -0.12988289 16
-1.6703341 -1.8773792 -0.042763148 16
-1.6630795 -1.8685688 0.65955865 16
-1.6744744 -1.8807104 0.57206756 17
-1.664225 -1.8685418 0.47850055 14
-1.6713762 -1.8759117 0.39143646 15
-1.6632448 -1.8661295 0.30223596 16
-1.6795366 -1.8837464 0.21745357 21
-1.6839087 -1.8879867 0.1305782 21
-1.6629641 -1.8638488 0.04293292 63
-1.2678216 -1.4184796 -0.49952096 3
-1.4575305 -1.6301591 -0.49601737 3
-1.7172174 -1.919929 -0.49279872 11
-1.6950133 -1.894438 -0.39656168 13
-1.6936276 -1.8922247 -0.30711108 20
-1.6701876 -1.8653809 -0.21571079 17
-1.6778804 -1.8733146 -0.12936127 17
-1.6702051 -1.8640906 -0.042590369 16
-1.6631446 -1.8555588 0.65697211 15
-1.6745243 -1.867599 0.56981981 17
-1.6641828 -1.8554136 0.47659415 15
-1.6713177 -1.8627143 0.38987383 15
-1.663119 -1.8529258 0.30101728 16
-1.6794462 -1.8704596 0.21658202 20
-1.6838157 -1.874668 0.13005485 20
-1.6627775 -1.8505952 0.042758394 61
-1.2727653 -1.4140453 -0.49952096 3
-1.4632118 -1.6250615 -0.49601737 3
-1.7173389 -1.906629 -0.49089235 12
-1.6950045 -1.8811723 -0.39499733 13
-1.6935772 -1.8789288 -0.30589241 19
-1.6700181 -1.852141 -0.21483923 18
-1.6777205 -1.8600308 -0.12883966 17
-1.6700035 -1.8508258 -0.042417586 16
-1.6631392 -1.8425713 0.65438563 15
-1.6745031 -1.8545103 0.567572 18
-1.6640692 -1.8423082 0.47468778 14
-1.671188 -1.8495406 0.38831124 15
-1.6629211 -1.8397458 0.29979858 16
-1.6792839 -1.8571968 0.21571046 20
-1.680301 -1.8576697 0.12926981 20
-1.6625186 -1.8373657 0.042583872 61
-1.280937 -1.4131724 -0.50081509 3
-1.4721482 -1.6235533 -0.49714214 3
-1.7206862 -1.8969872 -0.48993912 12
-1.6949235 -1.8679297 -0.39343297 13
-1.6901189 -1.8619815 -0.30406433 20
-1.6697761 -1.8389251 -0.21396768 17
-1.6741313 -1.8430749 -0.12805721 16
-1.6697301 -1.8375851 -0.042244807 16
-1.6630634 -1.8296067 0.65179914 15
-1.6744108 -1.8414446 0.56532419 18
-1.6638846 -1.8292267 0.47278142 15
-1.6709864 -1.8363903 0.38674861 17
-1.6593108 -1.8229197 0.29797053 16
-1.6790494 -1.8439578 0.21483891 21
-1.6800503 -1.8444104 0.12874645 22
-1.6621878 -1.8241607 0.042409342 61
-1.2858621 -1.4086925 -0.50081509 3
-1.4778064 -1.6184046 -0.49714214 3
-1.7206767 -1.8837214 -0.48803276 13
-1.6947708 -1.8547105 -0.39186865 13
-1.6899117 -1.8487446 -0.30284566 17
-1.6694626 -1.8257335 -0.21309611 18
-1.6738142 -1.8298513 -0.1275356 17
-1.6693846 -1.8243693 -0.042072024 16
-1.6629176 -1.8166652 0.64921266 16
-1.6742481 -1.8284022 0.56307638 19
-1.6636288 -1.8161688 0.47087502 14
-1.6707134 -1.823264 0.38518599 16
-1.6589572 -1.8098 0.29675183 15
-1.6787429 -1.8307432 0.21396735 21
-1.6797279 -1.8311757 0.12822309 22
-1.6617851 -1.8109806 0.042234819 62
-1.2907715 -1.4041953 -0.50081509 3
-1.4834467 -1.6132363 -0.49714214 3
-1.720596 -1.8704789 -0.48612636 13
-1.6912029 -1.8378816 -0.38952214 12
-1.6896324 -1.8355318 -0.30162695 16
-1.6690774 -1.8125668 -0.21222456 18
-1.6734254 -1.8166524 -0.12701398 17
-1.6655794 -1.8075016 -0.041812852 16
-1.6627017 -1.8037468 0.64662611 15
-1.670712 -1.8118019 0.55970466 18
-1.6633023 -1.8031349 0.46896866 15
-1.6670203 -1.8065327 0.38284209 16
-1.658532 -1.796705 0.29553315 15
-1.678365 -1.8175534 0.21309578 20
-1.6793334 -1.8179655 0.12769973 22
-1.6579182 -1.7941539 0.041973036 62
-1.2956651 -1.3996812 -0.50081509 3
-1.4890689 -1.6080483 -0.49714214 3
-1.7171078 -1.8536589 -0.4832668 13
-1.6908946 -1.8247222 -0.38795781 13
-1.6892818 -1.8223437 -0.30040827 17
-1.6686205 -1.7994248 -0.211353 18
-1.6695693 -1.7998179 -0.12623155 17
-1.6650776 -1.7943474 -0.041640073 17
-1.65913 -1.7873125 0.64274633 16
-1.6703956 -1.7988187 0.55745685 18
-1.6629051 -1.7901257 0.46706229 16
-1.6665925 -1.7934673 0.38127947 16
-1.6580359 -1.783635 0.29431444 15
-1.6779152 -1.8043885 0.21222423 21
-1.6754664 -1.8011247 0.12691469 22
-1.6573595 -1.7810363 0.04179851 62
-1.3005431 -1.3951499 -0.50081509 3
-1.4913502 -1.5992775 -0.49601737 3
-1.7135239 -1.8368865 -0.48040724 14
-1.6905154 -1.8115877 -0.38639346 13
-1.6888596 -1.8091804 -0.29918957 17
-1.6680925 -1.7863084 -0.21048145 18
-1.6690245 -1.7866814 -0.12570994 17
-1.6645043 -1.7812191 -0.041467294 17
-1.6587621 -1.7744534 0.64015985 15
-1.6700091 -1.7858601 0.55520904 19
-1.6624377 -1.7771413 0.4651559 15
-1.6660937 -1.7804269 0.37971681 17
-1.6574689 -1.7705905 0.29309577 16
-1.6773943 -1.7912492 0.21135268 21
-1.6749163 -1.7879773 0.12639134 23
-1.6567296 -1.7679446 0.041623987 62
-1.3020996 -1.3870804 -0.49952096 3
-1.4969237 -1.594062 -0.49601737 3
-1.7064829 -1.8165845 -0.47659451 10
-1.6900648 -1.798478 -0.3848291 13
-1.6883664 -1.7960424 -0.29797086 17
-1.667493 -1.7732176 -0.20960988 18
-1.6684085 -1.7735708 -0.12518832 17
-1.6638596 -1.7681166 -0.041294511 16
-1.6583248 -1.761619 0.63757336 16
-1.6695526 -1.7729259 0.55296123 18
-1.6618996 -1.764182 0.46324947 15
-1.6655246 -1.7674119 0.37815419 16
-1.6568309 -1.7575717 0.29187706 16
-1.6768019 -1.7781352 0.21048112 22
-1.6742946 -1.7748556 0.12586798 22
-1.6560285 -1.7548789 0.041449465 62
-1.3069335 -1.3825269 -0.49952096 3
-1.5024788 -1.588827 -0.49601737 3
-1.7026942 -1.7999196 -0.47373492 10
-1.6895436 -1.7853936 -0.38326478 13
-1.6878021 -1.7829299 -0.29675218 17
-1.6702476 -1.7637693 -0.2091741 18
-1.6711555 -1.7641114 -0.12492751 17
-1.6631439 -1.7550404 -0.041121732 16
-1.6578186 -1.7488093 0.63498682 16
-1.669026 -1.7600168 0.55071342 18
-1.6612916 -1.7512482 0.46134311 14
-1.6648849 -1.7544228 0.37659156 15
-1.6561226 -1.7445792 0.29065838 16
-1.6761388 -1.7650476 0.20960957 22
-1.6736019 -1.7617604 0.12534462 22
-1.6552565 -1.7418396 0.041274939 64
-1.3117515 -1.3779563 -0.49952096 3
-1.5080156 -1.5835726 -0.49601737 3
-1.6988105 -1.7833036 -0.47087535 10
-1.6889518 -1.7723352 -0.38170043 13
-1.6871667 -1.7698433 -0.29553348 17
-1.6695193 -1.7507191 -0.20830254 17
-1.6704102 -1.7510413 -0.1244059 17
-1.6623572 -1.7419908 -0.040948953 17
-1.6572428 -1.7360246 0.63240033 16
-1.6684301 -1.7471331 0.54846561 18
-1.6606135 -1.7383401 0.45943674 15
-1.6641749 -1.7414597 0.37502894 16
-1.6553437 -1.731613 0.28943968 16
-1.6754048 -1.7519864 0.208738 22
-1.6728382 -1.7486914 0.12482125 22
-1.6578703 -1.7324393 0.041187678 63
-1.3198956 -1.3768555 -0.50081509 3
-1.5101624 -1.574783 -0.49489263 3
-1.6948314 -1.7667366 -0.46801579 10
-1.6882892 -1.7593023 -0.38013604 13
-1.686461 -1.7567831 -0.2943148 17
-1.66872 -1.7376952 -0.20743097 18
-1.6730529 -1.7415988 -0.12414508 16
-1.664964 -1.7325732 -0.040862564 16
-1.6565981 -1.7232654 0.62981385 16
-1.6677642 -1.7342747 0.5462178 17
-1.6598657 -1.7254584 0.45753035 15
-1.6633947 -1.7285229 0.37346631 17
-1.6544942 -1.7186737 0.288221 17
-1.6780549 -1.7425394 0.20830221 23
-1.672004 -1.7356495 0.12429789 22
-1.6569693 -1.719442 0.041013151 63
-1.3246937 -1.3722399 -0.50081509 3
-1.5156503 -1.5695019 -0.49489263 3
-1.6941676 -1.7537496 -0.4661094 10
-1.6909883 -1.7498471 -0.37935388 13
-1.6856844 -1.7437495 -0.2930961 18
-1.6678504 -1.7246987 -0.20655942 18
-1.6721786 -1.7285706 -0.12362346 16
-1.6640487 -1.7195656 -0.040689785 17
-1.6558849 -1.7105319 0.62722731 16
-1.667029 -1.7214427 0.54396999 18
-1.6590484 -1.7126033 0.45562398 15
-1.6625447 -1.7156132 0.37190372 17
-1.6535749 -1.7057614 0.2870023 17
-1.6771922 -1.7295197 0.20743066 23
-1.6710988 -1.7226348 0.12377454 22
-1.6594799 -1.71006 0.04092589 62
-1.3328421 -1.3710705 -0.50210917 3
-1.517723 -1.5607089 -0.49376786 3
-1.6934342 -1.7407887 -0.46420303 10
-1.6901979 -1.7368554 -0.37778956 13
-1.6848375 -1.7307426 -0.29187742 17
-1.6669105 -1.7117293 -0.20568787 18
-1.6712339 -1.7155697 -0.12310185 17
-1.6665517 -1.7101661 -0.040603392 17
-1.6551026 -1.6978245 0.62464082 17
-1.666225 -1.7086372 0.54172218 17
-1.6581615 -1.6997749 0.45371762 15
-1.6616247 -1.7027303 0.37034109 18
-1.6560524 -1.6964277 0.28639293 16
-1.6762592 -1.7165276 0.20655911 23
-1.6736126 -1.7132192 0.12351285 23
-1.658451 -1.6971061 0.040751368 63
-1.3376199 -1.3664097 -0.50210917 3
-1.519753 -1.5519209 -0.49264312 4
-1.6926308 -1.7278544 -0.46229663 10
-1.6893374 -1.7238905 -0.3762252 13
-1.6839205 -1.7177631 -0.29065871 19
-1.6693879 -1.7023439 -0.2052521 18
-1.6702189 -1.7025969 -0.12258023 17
-1.6655082 -1.697202 -0.040430613 17
-1.6542521 -1.6851434 0.62205434 16
-1.6653519 -1.6958582 0.53947437 18
-1.6572055 -1.6869736 0.45181125 16
-1.6640968 -1.6933975 0.36955979 18
-1.6550059 -1.6835586 0.28517425 18
-1.6752558 -1.7035629 0.20568755 22
-1.6725795 -1.7002479 0.12298949 24
-1.6608583 -1.6877433 0.040664103 64
-1.3389909 -1.3582927 -0.50081509 3
-1.5217401 -1.5431374 -0.49151835 4
-1.6917579 -1.714947 -0.46039027 11
-1.6884072 -1.7109531 -0.37466085 13
-1.6829336 -1.7048112 -0.28944001 17
-1.6683204 -1.6894181 -0.20438054 18
-1.6691338 -1.6896518 -0.12205861 17
-1.6643943 -1.6842661 -0.04025783 17
-1.6533333 -1.6724889 0.61946785 17
-1.6644098 -1.6831062 0.53722656 19
-1.6561801 -1.6741996 0.44990486 16
-1.6630503 -1.6805577 0.36799717 17
-1.6538897 -1.6707174 0.28395554 17
-1.6741824 -1.6906264 0.20481598 24
-1.6714762 -1.6873044 0.12246613 24
-1.6597016 -1.6748334 0.04048958 64
-1.3403215 -1.3501829 -0.49952096 3
-1.5236847 -1.5343595 -0.49039361 4
-1.6908153 -1.7020669 -0.4584839 10
-1.687407 -1.6980431 -0.3730965 13
-1.6853752 -1.6954066 -0.28883067 17
-1.667183 -1.6765206 -0.20350897 18
-1.6679786 -1.6767353 -0.12153699 17
-1.6632107 -1.6713588 -0.040085051 17
-1.6523464 -1.6598617 0.61688131 17
-1.6633991 -1.6703815 0.53497875 19
-1.655086 -1.6614535 0.44799849 16
-1.6654202 -1.6712439 0.36721584 17
-1.656208 -1.6614195 0.28334624 17
-1.6765567 -1.6812452 0.20438023 25
-1.6703032 -1.6743897 0.12194277 25
-1.658475 -1.6619525 0.040315058 65
-1.341612 -1.3420805 -0.49822688 3
-1.5290314 -1.5290315 -0.49039361 4
-1.6898038 -1.6892142 -0.45657751 11
-1.6898308 -1.6886517 -0.3723143 13
-1.6842612 -1.6824986 -0.28761196 18
-1.6659758 -1.6636515 -0.20263742 18
-1.6667538 -1.6638474 -0.12101538 17
-1.665496 -1.6620116 -0.039998662 17
-1.6547107 -1.6506726 0.61558807 17
-1.6657698 -1.6611248 0.53385484 20
-1.6539234 -1.6487356 0.44609213 16
-1.6642476 -1.6584485 0.36565322 18
-1.6549655 -1.6486232 0.28212753 18
-1.675356 -1.6683531 0.20350866 25
-1.6690602 -1.6615036 0.12141941 26
-1.6607229 -1.652627 0.040227797 66
-1.3428621 -1.3339856 -0.49693277 3
-1.5343593 -1.5236849 -0.49039361 5
-1.6887233 -1.6763897 -0.45467114 11
-1.6887044 -1.6757858 -0.37074998 13
-1.6830773 -1.6696188 -0.28639328 17
-1.6646993 -1.6508114 -0.20176587 18
-1.6690055 -1.6545041 -0.12075458 18
-1.6641854 -1.64915 -0.039825883 18
-1.6536002 -1.6380885 0.61300153 17
-1.6646346 -1.6484438 0.53160703 20
-1.652692 -1.6360463 0.44418573 18
-1.6630058 -1.6456815 0.36409062 18
-1.6571821 -1.6393461 0.28151816 18
-1.6740861 -1.6554903 0.20263711 26
-1.667748 -1.648647 0.12089606 18
-1.6593693 -1.6397917 0.040053267 65
-1.3475105 -1.3292899 -0.49693277 4
-1.5431373 -1.5217402 -0.49151835 5
-1.6875738 -1.6635932 -0.45276478 11
-1.6875085 -1.6629481 -0.36918563 13
-1.68536 -1.6602511 -0.28578395 18
-1.6633534 -1.6380005 -0.20089431 20
-1.6676539 -1.6416622 -0.12023295 18
-1.6628051 -1.6363176 -0.0396531 19
-1.6558648 -1.6289194 0.61170834 17
-1.6669046 -1.6392069 0.53048313 20
-1.6548927 -1.6268265 0.44323257 17
-1.6616951 -1.6329435 0.362528 19
-1.6558137 -1.6265959 0.28029948 17
-1.6763008 -1.6461465 0.20220132 27
-1.6663662 -1.6358196 0.1203727 19
-1.6579469 -1.6269864 0.039878745 65
-1.3521423 -1.3245782 -0.49693277 4
-1.5449592 -1.512936 -0.49039361 5
-1.6898628 -1.6542585 -0.45181155 11
-1.6862439 -1.6501395 -0.36762127 14
-1.6840497 -1.6474172 -0.28456524 17
-1.6654998 -1.6287018 -0.20045851 20
-1.6662331 -1.6288501 -0.11971132 18
-1.661356 -1.6235155 -0.039480317 17
-1.6546311 -1.6163793 0.6091218 18
-1.665645 -1.6265705 0.52823532 20
-1.6535368 -1.6141826 0.4413262 17
-1.6638508 -1.6236842 0.3617467 18
-1.6543769 -1.6138753 0.27908078 18
-1.6749043 -1.63333 0.20132977 27
-1.6684908 -1.6265074 0.12011101 19
-1.6564554 -1.6142112 0.039704222 65
-1.3567578 -1.3198502 -0.49693277 4
-1.5502309 -1.5075338 -0.49039361 5
-1.6885884 -1.6415074 -0.44990519 11
-1.6849105 -1.6373601 -0.36605695 14
-1.6826708 -1.6346128 -0.28334656 18
-1.6640282 -1.6159381 -0.19958696 18
-1.6647432 -1.616068 -0.11918971 18
-1.6598375 -1.6107432 -0.039307538 18
-1.6533297 -1.6038678 0.60653532 18
-1.6643175 -1.613963 0.52598751 21
-1.6556368 -1.6049844 0.440373 17
-1.6624153 -1.6109927 0.36018407 20
-1.6564356 -1.6046374 0.27847141 18
-1.6734394 -1.6205435 0.20045821 25
-1.666983 -1.6137275 0.11958765 21
-1.6548948 -1.6014662 0.039529696 66
-1.3648301 -1.3184617 -0.49822688 4
-1.5519791 -1.4987289 -0.48926884 5
-1.6907766 -1.632194 -0.44895202 11
-1.687062 -1.6280395 -0.36527479 14
-1.6812229 -1.6218381 -0.28212786 18
-1.6624879 -1.6032045 -0.1987154 19
-1.6631845 -1.6033163 -0.11866809 18
-1.6582503 -1.5980015 -0.039134759 20
-1.6519614 -1.591385 0.60394883 19
-1.6629223 -1.6013845 0.5237397 21
-1.6541572 -1.5923874 0.43846661 18
-1.6609113 -1.5983309 0.35862142 20
-1.6548737 -1.5919646 0.27725273 18
-1.6754956 -1.6112394 0.20002241 25
-1.6654067 -1.6009781 0.11906429 19
-1.6532658 -1.5887518 0.039355174 65
-1.3694242 -1.3136895 -0.49822688 3
-1.5536848 -1.4899303 -0.48814404 4
-1.6893773 -1.619489 -0.44704565 11
-1.6856035 -1.6153069 -0.36371043 14
-1.6797067 -1.6090935 -0.28090915 19
-1.6644765 -1.5939466 -0.1982796 21
-1.6615573 -1.5905952 -0.11814647 18
-1.6602064 -1.5887469 -0.03904837 19
-1.6540164 -1.5822701 0.60265553 20
-1.6614599 -1.5888356 0.52149189 20
-1.6561575 -1.5832118 0.43751341 17
-1.6593397 -1.5856997 0.35705879 18
-1.6568322 -1.5827503 0.2766434 18
-1.673905 -1.598501 0.19915086 25
-1.6637615 -1.5882593 0.11854094 19
-1.6515681 -1.5760684 0.039180648 66
-1.3740015 -1.3089014 -0.49822688 4
-1.5588762 -1.4844979 -0.48814404 4
-1.691465 -1.6101978 -0.44609243 11
-1.6840769 -1.6026044 -0.36214611 14
-1.6781218 -1.5963794 -0.27969044 19
-1.6628113 -1.5812619 -0.19740805 21
-1.6634804 -1.5813453 -0.11788567 19
-1.6584944 -1.5760546 -0.038875591 20
-1.6525258 -1.569834 0.60006905 19
-1.65993 -1.5763165 0.51924407 22
-1.6545542 -1.5706625 0.43560702 17
-1.6612824 -1.5764983 0.35627753 20
-1.6551461 -1.5701263 0.27542472 18
-1.6758604 -1.5892209 0.19871509 27
-1.6656718 -1.5790069 0.11827926 19
-1.649802 -1.5634162 0.039006125 66
-1.3750534 -1.3007783 -0.49693277 3
-1.5605088 -1.4756999 -0.48701933 4
-1.6899416 -1.59754 -0.44418606 11
-1.6860714 -1.5933241 -0.36136392 14
-1.6800765 -1.587104 -0.27908111 19
-1.661078 -1.5686083 -0.1965365 21
-1.6617284 -1.5686738 -0.11736406 19
-1.6567138 -1.5633936 -0.038702808 18
-1.6509689 -1.5574275 0.5974825 19
-1.6583332 -1.5638276 0.51699626 23
-1.6564555 -1.5615107 0.43465388 18
-1.6595869 -1.5639157 0.3547149 20
-1.6533922 -1.5575335 0.27420601 18
-1.6741453 -1.576532 0.19784354 27
-1.663902 -1.5663382 0.1177559 20
-1.6516088 -1.554222 0.038918864 67
-1.3795856 -1.2959706 -0.49693277 3
-1.5656505 -1.4702437 -0.48701933 4
-1.6883509 -1.5849128 -0.44227967 11
-1.6844205 -1.5806702 -0.35979956 14
-1.6783674 -1.5744392 -0.27786243 19
-1.6629099 -1.5593933 -0.19610073 22
-1.663551 -1.5594488 -0.11710324 21
-1.6548653 -1.5507642 -0.038530029 20
-1.6493458 -1.5450512 0.59489602 19
-1.6602254 -1.5546991 0.51587236 21
-1.6547295 -1.5490104 0.43274748 18
-1.6578242 -1.5513645 0.35315228 21
-1.6551946 -1.5483621 0.27359664 20
-1.672362 -1.5638742 0.19697198 27
-1.6620643 -1.553701 0.11723254 20
-1.6497188 -1.5416207 0.038744342 66
-1.384101 -1.291147 -0.49693277 3
-1.5707729 -1.4647696 -0.48701933 4
-1.6902826 -1.5756629 -0.4413265 11
-1.6863149 -1.5714141 -0.35901737 14
-1.6765903 -1.5618055 -0.27664372 21
-1.6610527 -1.5467904 -0.19522917 22
-1.6616749 -1.5468282 -0.11658162 19
-1.6566085 -1.5415723 -0.038443636 20
-1.6511923 -1.5359946 0.59360272 19
-1.6585068 -1.542259 0.51362455 22
-1.6529365 -1.5365412 0.43084112 17
-1.6596113 -1.5422063 0.35237095 21
-1.6533175 -1.53582 0.27237797 19
-1.6705109 -1.5512483 0.19610043 28
-1.6638181 -1.5444927 0.11697085 20
-1.6514252 -1.5324521 0.038657077 66
-1.3921427 -1.2895896 -0.49822688 3
-1.5794511 -1.4625878 -0.48814404 5
-1.6849664 -1.5597502 -0.43846694 12
-1.6845405 -1.55881 -0.35745302 14
-1.6747458 -1.5492036 -0.27542502 20
-1.6627848 -1.5376009 -0.19479337 21
-1.6633978 -1.5376291 -0.11632082 19
-1.654636 -1.5289946 -0.038270857 20
-1.6494484 -1.5236672 0.59101623 19
-1.6567214 -1.5298496 0.51137674 21
-1.6510768 -1.5241038 0.42893475 19
-1.6577258 -1.5297055 0.35080832 21
-1.6513728 -1.5233096 0.27115926 19
-1.6685919 -1.5386543 0.19522887 29
-1.6618567 -1.531907 0.11644749 21
-1.6494118 -1.5199028 0.038482554 67
-1.3966357 -1.2847223 -0.49822688 4
-1.5845468 -1.4570656 -0.48814404 7
-1.6795601 -1.5438938 -0.43560734 11
-1.6863352 -1.5495788 -0.35667089 14
-1.6764884 -1.5399909 -0.27481568 20
-1.6608042 -1.5250494 -0.19392182 23
-1.6613981 -1.5250604 -0.1157992 20
-1.65628 -1.5198296 -0.038184468 19
-1.6476384 -1.5113705 0.58842975 19
-1.6548694 -1.5174718 0.50912893 21
-1.6491505 -1.5116978 0.42702836 18
-1.6557733 -1.5172368 0.3492457 20
-1.6493611 -1.5108316 0.26994058 19
-1.6666056 -1.526093 0.19435731 27
-1.6635109 -1.5227253 0.11618582 22
-1.651019 -1.5107613 0.038395293 66
-1.4011116 -1.2798394 -0.49822688 3
-1.582428 -1.4449553 -0.48589453 11
-1.634187 -1.491695 -0.4222627 13
-1.6807899 -1.5336968 -0.35432434 14
-1.6745207 -1.5274407 -0.27359697 22
-1.6587564 -1.5125306 -0.19305027 22
-1.6630211 -1.5158879 -0.11553839 21
-1.6578797 -1.5106716 -0.038098078 18
-1.6493335 -1.5023576 0.58713651 20
-1.6601564 -1.511686 0.50912893 23
-1.6544173 -1.505932 0.42702836 18
-1.6501012 -1.5014768 0.3469018 21
-1.6509538 -1.5017258 0.26933125 19
-1.6682373 -1.5169152 0.19392152 28
-1.6614262 -1.5101923 0.11566246 21
-1.6451826 -1.494903 0.038133506 67
-1.4055706 -1.2749408 -0.49822688 4
-1.5658076 -1.4197878 -0.479146 15
-1.5884708 -1.4398324 -0.40891808 15
-1.6824739 -1.5245045 -0.35354218 14
-1.6761642 -1.5182546 -0.27298763 21
-1.6603339 -1.5033883 -0.1926145 23
-1.6571968 -1.5000213 -0.11475597 21
-1.652022 -1.4948128 -0.03783891 20
-1.6509856 -1.4933511 0.58584327 20
-1.6545817 -1.4960788 0.50575721 23
-1.6487401 -1.4902738 0.4241688 17
-1.6333463 -1.4758419 0.34221393 18
-1.6525027 -1.4926271 0.26872188 19
-1.6624314 -1.5010685 0.1926142 27
-1.6555681 -1.4943469 0.11487742 21
-1.6244092 -1.4657079 0.03752267 64
-1.4136009 -1.2732589 -0.49952096 4
-1.5598927 -1.4045337 -0.47577178 14
-1.5715982 -1.4145768 -0.40319896 18
-1.6400604 -1.4756808 -0.34337392 15
-1.6556252 -1.4891629 -0.26872221 19
-1.6137166 -1.4509585 -0.18651357 20
-1.6512821 -1.4842139 -0.11397354 21
-1.6126057 -1.4489418 -0.036802221 18
-1.6094766 -1.4456228 0.569031 18
-1.6235422 -1.4577446 0.49451819 20
-1.6137518 -1.4484453 0.41368371 16
-1.5907021 -1.4272555 0.33205691 18
-1.6096758 -1.4437727 0.26080036 17
-1.6231582 -1.4553543 0.18738484 24
-1.6161557 -1.448567 0.11173727 17
-1.5811125 -1.41666 0.036388267 62
-1.4180367 -1.2683167 -0.49952096 4
-1.5502585 -1.3860912 -0.47127277 15
-1.5509093 -1.3861861 -0.3965266 14
-1.5862794 -1.4173015 -0.33085918 18
-1.6163975 -1.443704 -0.26141003 18
-1.57047 -1.4021908 -0.18084845 20
-1.6042998 -1.4318924 -0.11032221 19
-1.5691595 -1.4000366 -0.035679154 17
-1.5640501 -1.3949877 0.55092543 18
-1.5922555 -1.4196453 0.48327911 21
-1.5748281 -1.403614 0.40224546 17
-1.5440518 -1.3757001 0.32111856 21
-1.5665286 -1.3952359 0.25287887 17
-1.5835869 -1.4099333 0.1821555 24
-1.5764446 -1.4030812 0.10859711 20
-1.5374937 -1.3679328 0.03525386 63
-1.4224553 -1.2633592 -0.49952096 4
-1.5441579 -1.3709677 -0.46789846 15
-1.5483965 -1.3742477 -0.39462024 15
-1.5505819 -1.3757036 -0.32225525 21
-1.5731599 -1.3952447 -0.25348851 18
-1.5455384 -1.370265 -0.1773622 25
-1.5681834 -1.3898532 -0.10745331 18
-1.5441016 -1.3680288 -0.034988027 21
-1.5327535 -1.3574972 0.53799289 22
-1.5461317 -1.3688644 0.46754444 23
-1.5319363 -1.3558195 0.38985398 21
-1.5414467 -1.363757 0.31955591 23
-1.5342147 -1.3568814 0.2467854 22
-1.551182 -1.3714051 0.17779772 28
-1.5439188 -1.3645037 0.1059803 23
-1.5310196 -1.3526275 0.034992073 67
-1.4268566 -1.2583861 -0.49952096 5
-1.5452797 -1.3623475 -0.46677375 15
-1.5495019 -1.3655893 -0.39366707 15
-1.5405524 -1.3572242 -0.31912658 23
-1.5593992 -1.3733451 -0.25044179 22
-1.5353578 -1.3516963 -0.17561908 25
-1.5392904 -1.3546816 -0.10510603 22
-1.5376074 -1.3527243 -0.034728859 24
-1.530229 -1.3457594 0.53540641 23
-1.5399234 -1.3538086 0.46417275 26
-1.5292858 -1.3439835 0.38794762 22
-1.5350673 -1.3485898 0.31721199 25
-1.5277553 -1.3416935 0.24495737 23
-1.5484731 -1.3594097 0.17692617 31
-1.5411665 -1.3525189 0.10545694 26
-1.5319738 -1.3439783 0.034904812 69
-1.4312406 -1.2533978 -0.49952096 5
-1.5426944 -1.350527 -0.46452424 15
-1.5468719 -1.3537074 -0.39176068 15
-1.5415637 -1.3485869 -0.31834438 25
-1.556712 -1.3613595 -0.24922307 24
-1.5363168 -1.3430505 -0.17518331 26
-1.5402502 -1.3460147 -0.10484522 25
-1.5347898 -1.3407708 -0.03455608 22
-1.5385553 -1.3435867 0.53669971 23
-1.5372993 -1.3420171 0.46192494 25
-1.5302697 -1.33541 0.38699445 24
-1.5360439 -1.3399767 0.31643066 24
-1.5286889 -1.3330907 0.24434802 23
-1.5494543 -1.3507231 0.17649037 28
-1.5421141 -1.3438509 0.10519527 28
-1.5328864 -1.3353387 0.03481755 67
-1.4356071 -1.2483941 -0.49952096 5
-1.5400456 -1.3387414 -0.46227473 16
-1.5478827 -1.3450799 -0.39080748 15
-1.5425335 -1.339959 -0.31756222 27
-1.5577074 -1.3526633 -0.24861374 24
-1.5372338 -1.3344141 -0.17474753 26
-1.5373967 -1.334085 -0.1043236 25
-1.5356842 -1.3321292 -0.03446969 24
-1.5322888 -1.3287153 0.53281993 23
-1.5309299 -1.3270689 0.45855322 25
-1.5312124 -1.3268458 0.38604125 24
-1.5369792 -1.3313733 0.31564939 23
-1.5295813 -1.3244978 0.24373868 25
-1.5466279 -1.3387866 0.17561881 28
-1.5392441 -1.3319252 0.10467191 27
-1.5299762 -1.3234388 0.034643024 68
-1.4399559 -1.2433754 -0.49952096 5
-1.5373333 -1.3269905 -0.46002516 13
-1.5451365 -1.3332556 -0.38890108 15
-1.5434619 -1.3313408 -0.31678003 27
-1.5549029 -1.3407363 -0.24739504 25
-1.5343369 -1.3225361 -0.17387597 27
-1.5344788 -1.3221916 -0.10380199 27
-1.5327493 -1.3202355 -0.034296907 24
-1.5295975 -1.3170556 0.53023344 23
-1.5355529 -1.3217169 0.45855322 25
-1.5283934 -1.3150901 0.38413486 24
-1.537873 -1.3227795 0.31486806 25
-1.5266694 -1.3126795 0.24251999 25
-1.5475142 -1.3301328 0.17518304 29
-1.5400969 -1.32329 0.10441023 27
-1.5270019 -1.3115753 0.034468498 68
-1.4442873 -1.2383415 -0.49952096 4
-1.5382569 -1.3184458 -0.45890042 13
-1.5460535 -1.3246603 -0.38794789 16
-1.5405984 -1.31952 -0.31521568 29
-1.5520338 -1.328845 -0.24617635 24
-1.5351599 -1.3139335 -0.1734402 26
-1.5352907 -1.3135811 -0.10354118 25
-1.5335492 -1.3116276 -0.034210518 25
-1.5305145 -1.3085696 0.52894014 23
-1.53275 -1.3100178 0.45630541 26
-1.5292431 -1.3065587 0.38318169 24
-1.5387259 -1.3141961 0.31408677 25
-1.5274681 -1.3041201 0.24191064 24
-1.5445704 -1.3182558 0.17431149 29
-1.5409081 -1.3146653 0.10414855 26
-1.5239633 -1.2997489 0.034293976 68
-1.4522786 -1.2364233 -0.50081509 4
-1.5354296 -1.3067532 -0.45665091 13
-1.5431912 -1.3128943 -0.38604152 16
-1.541433 -1.310935 -0.31443354 25
-1.552882 -1.3202049 -0.24556699 26
-1.532146 -1.3021153 -0.17256863 27
-1.5360612 -1.304981 -0.10328037 27
-1.5304973 -1.2997943 -0.034037735 25
-1.527709 -1.2969674 0.52635366 24
-1.5335987 -1.301507 0.45518148 27
-1.5263088 -1.2948622 0.38127533 23
-1.5395373 -1.3056227 0.31330544 26
-1.5282254 -1.2955711 0.24130128 26
-1.5453628 -1.3096359 0.1738757 32
-1.537868 -1.3028233 0.10362519 27
-1.524676 -1.2911905 0.034206714 68
-1.4565856 -1.2313464 -0.50081509 4
-1.5362605 -1.2982409 -0.45552614 14
-1.5440152 -1.3043323 -0.38508835 15
-1.5422266 -1.3023601 -0.31365135 24
-1.5498965 -1.3083737 -0.2443483 26
-1.5328753 -1.2935469 -0.17213285 28
-1.532974 -1.2931721 -0.10275874 28
-1.5312033 -1.2912211 -0.033951346 25
-1.5285342 -1.2885139 0.52506042 23
-1.534407 -1.2930065 0.4540576 27
-1.5270655 -1.2863643 0.38032213 24
-1.5365301 -1.2938787 0.31174284 27
-1.5289419 -1.2870327 0.24069193 25
-1.5423025 -1.2978196 0.17300415 27
-1.5385853 -1.294233 0.10336351 28
-1.5215212 -1.2794256 0.034032188 69
-1.4606609 -1.2265093 -0.50081509 4
-1.5366006 -1.2902755 -0.4544014 14
-1.5443457 -1.2963195 -0.38413513 15
-1.5387442 -1.2911599 -0.31208703 24
-1.550197 -1.3003089 -0.24373896 26
-1.5331148 -1.2855245 -0.17169708 28
-1.5332023 -1.2851422 -0.10249794 27
-1.5275884 -1.2799827 -0.033778567 26
-1.5251695 -1.2775029 0.52247393 26
-1.5347259 -1.2850518 0.45293367 26
-1.5273353 -1.27841 0.37936896 23
-1.5367998 -1.2858759 0.31096151 27
-1.5291709 -1.279039 0.24008259 24
-1.5425507 -1.2897727 0.17256837 29
-1.5349814 -1.2829887 0.10284015 27
-1.5216968 -1.2714338 0.033944927 70
-1.4684291 -1.2247523 -0.50210917 3
-1.5336114 -1.2786641 -0.45215189 14
-1.545091 -1.2877784 -0.38318196 15
-1.5394479 -1.2826197 -0.31130484 24
-1.5470998 -1.2885377 -0.24252027 27
-1.5337648 -1.276978 -0.1712613 28
-1.533841 -1.2765883 -0.10223713 26
-1.528204 -1.2714453 -0.033692177 25
-1.525906 -1.2690828 0.52118063 24
-1.5317096 -1.2734573 0.45068586 27
-1.5280137 -1.2699337 0.37841576 24
-1.5336816 -1.2741919 0.30939889 26
-1.5298084 -1.2705227 0.23947324 26
-1.5432111 -1.2811986 0.17213258 30
-1.5356083 -1.274434 0.10257847 28
-1.5222782 -1.2629225 0.033857666 71
-1.4729083 -1.219362 -0.50210917 3
-1.5345342 -1.2699285 -0.45102713 14
-1.5460187 -1.278978 -0.38222876 16
-1.5365272 -1.2706742 -0.30974048 25
-1.5479872 -1.2796967 -0.24191092 27
-1.5345954 -1.268175 -0.17082551 29
-1.5308106 -1.2645977 -0.10171551 27
-1.5289991 -1.2626524 -0.033605788 27
-1.5268226 -1.2604069 0.51988739 24
-1.5288512 -1.2616328 0.44843808 26
-1.5288717 -1.2612013 0.37746257 24
-1.5345312 -1.2654201 0.30861756 26
-1.5267963 -1.2585938 0.23825455 25
-1.5402086 -1.2691988 0.17126103 30
-1.5325611 -1.2624478 0.10205511 28
-1.5230377 -1.2541567 0.033770405 69
-1.4771556 -1.2142131 -0.50210917 3
-1.5351938 -1.2614713 -0.44990239 14
-1.5466809 -1.2704582 -0.38127559 16
-1.5371366 -1.2621691 -0.30895832 26
-1.5447727 -1.267988 -0.24069221 27
-1.5351621 -1.2596509 -0.17038974 28
-1.5313549 -1.2560798 -0.1014547 29
-1.5295314 -1.2541376 -0.033519395 27
-1.5237422 -1.2489461 0.5173009 25
-1.5294772 -1.2532008 0.44731417 28
-1.5256704 -1.2496365 0.37555617 23
-1.5312968 -1.2537985 0.30705497 25
-1.5273399 -1.2501132 0.23764521 26
-1.5407746 -1.2606604 0.17082526 30
-1.5330935 -1.2539293 0.10179343 31
-1.5235358 -1.2456682 0.033683144 69
-1.4851266 -1.2121034 -0.50340325 3
-1.5320381 -1.2499452 -0.44765288 14
-1.5473025 -1.2619493 -0.3803224 16
-1.5377054 -1.2536752 -0.30817613 26
-1.5453424 -1.2594528 -0.24008287 27
-1.5318266 -1.2479924 -0.16951817 29
-1.5318584 -1.2475737 -0.10119389 29
-1.5300229 -1.2456346 -0.033433005 27
-1.5243465 -1.2405709 0.51600766 23
-1.5262837 -1.2417048 0.44506633 27
-1.5262152 -1.2412064 0.374603 24
-1.5318321 -1.2453302 0.30627364 26
-1.5239917 -1.2385147 0.23642652 26
-1.5374336 -1.248993 0.16995369 30
-1.5335852 -1.2454225 0.10153175 27
-1.5239935 -1.2371917 0.033595879 68
-1.4893486 -1.2069118 -0.50340325 3
-1.5326062 -1.2415231 -0.44652811 14
-1.5478836 -1.2534516 -0.37936923 15
-1.5382339 -1.2451929 -0.30739397 28
-1.5458715 -1.250929 -0.23947352 27
-1.5323009 -1.2395052 -0.1690824 29
-1.5284387 -1.2359396 -0.10067227 27
-1.5265859 -1.2340008 -0.033260226 27
-1.5249108 -1.2322068 0.51471442 26
-1.5268188 -1.2333081 0.44394243 28
-1.5229009 -1.2297043 0.37269661 25
-1.528484 -1.2337717 0.30471101 27
-1.5244434 -1.2300709 0.23581716 25
-1.5379071 -1.2404917 0.16951792 31
-1.5340363 -1.2369274 0.10127007 28
-1.5205183 -1.2255899 0.033421356 70
-1.4935524 -1.2017058 -0.50340325 4
-1.5331342 -1.2331123 -0.44540334 14
-1.5445992 -1.2418897 -0.3774628 16
-1.5348724 -1.2336283 -0.30582961 27
-1.5424913 -1.2393086 -0.23825483 27
-1.5327348 -1.2310297 -0.16864662 30
-1.5288502 -1.2274709 -0.10041147 27
-1.5269852 -1.2255353 -0.033173837 27
-1.5216681 -1.2208314 0.51212788 26
-1.5273138 -1.2249227 0.44281852 27
-1.5233545 -1.2213106 0.37174344 26
-1.5289277 -1.2253404 0.30392972 26
-1.5209818 -1.2185364 0.23459847 25
-1.5383401 -1.2320021 0.16908213 32
-1.5305488 -1.225324 0.10074671 30
-1.520884 -1.217151 0.033334095 69
-1.4939647 -1.1934706 -0.50210917 4
-1.5336223 -1.2247131 -0.4442786 14
-1.5450888 -1.2334282 -0.37650964 16
-1.5353092 -1.2251828 -0.30504745 27
-1.5429282 -1.230822 -0.23764548 28
-1.5331283 -1.2225666 -0.16821083 29
-1.5292211 -1.2190143 -0.10015066 29
-1.527344 -1.2170821 -0.033087447 28
-1.5221426 -1.212503 0.51083463 27
-1.5277689 -1.216549 0.44169462 28
-1.5199281 -1.209872 0.36983705 25
-1.5293311 -1.216921 0.30314842 26
-1.5213422 -1.2101302 0.23398913 28
-1.5387325 -1.2235248 0.16864637 30
-1.5309079 -1.216867 0.10048503 30
-1.5212092 -1.2087246 0.033246834 70
-1.4981215 -1.1882483 -0.50210917 4
-1.5302531 -1.2132987 -0.44202909 14
-1.5416917 -1.2219299 -0.37460324 16
-1.5357057 -1.2167492 -0.30426529 26
-1.5394347 -1.2192663 -0.23642679 28
-1.5334812 -1.2141155 -0.16777506 32
-1.5295516 -1.2105701 -0.099889845 28
-1.5276626 -1.2086415 -0.033001054 27
-1.5225776 -1.2041863 0.50954139 26
-1.5281843 -1.2081871 0.44057071 29
-1.5202913 -1.2015158 0.36888388 25
-1.5258194 -1.2054521 0.30158579 27
-1.5177677 -1.1986607 0.23277044 26
-1.5351751 -1.2119733 0.1677748 31
-1.5312266 -1.2084224 0.10022335 30
-1.5214944 -1.2003109 0.033159569 69
-1.4984659 -1.1800237 -0.50081509 4
-1.5306509 -1.2049363 -0.44090432 14
-1.5420903 -1.2135056 -0.37365007 16
-1.5321808 -1.2052746 -0.30270094 26
-1.5397801 -1.2108176 -0.23581745 28
-1.533794 -1.2056772 -0.16733928 31
-1.5259157 -1.1990534 -0.09936823 30
-1.5279409 -1.2002134 -0.032914665 27
-1.5229729 -1.1958814 0.50824809 28
-1.5285599 -1.1998371 0.43944681 30
-1.5206146 -1.1931716 0.36793068 24
-1.5261321 -1.1970708 0.30080447 26
-1.5180372 -1.1902933 0.23216109 29
-1.5354761 -1.2035344 0.16733903 30
-1.5315051 -1.1999905 0.099961676 29
-1.5217392 -1.19191 0.033072308 69
-1.5025758 -1.1747859 -0.50081509 4
-1.531009 -1.1965859 -0.43977955 14
-1.5424491 -1.2050934 -0.37269688 16
-1.5324866 -1.1968793 -0.30191877 26
-1.5400856 -1.2023814 -0.23520809 29
-1.53014 -1.1941868 -0.16646773 30
-1.5261551 -1.1906483 -0.099107422 30
-1.5281789 -1.1917982 -0.032828275 27
-1.5233289 -1.1875883 0.50695485 27
-1.5288961 -1.1914995 0.43832293 28
-1.5208982 -1.18484 0.36697748 26
-1.5264051 -1.188702 0.30002317 28
-1.5182669 -1.1819386 0.23155175 28
-1.5357368 -1.1951082 0.16690324 32
-1.5317434 -1.1915714 0.099699996 31
-1.5219442 -1.183522 0.032985047 70
-1.5066674 -1.1695337 -0.50081509 4
-1.5313276 -1.1882477 -0.43865481 14
-1.5427679 -1.1966937 -0.37174368 16
-1.5288498 -1.1854703 -0.30035442 26
-1.5403509 -1.1939579 -0.23459874 28
-1.5303618 -1.1857876 -0.16603194 31
-1.5263543 -1.1822561 -0.098846614 30
-1.5244241 -1.1803353 -0.032655496 28
-1.5236459 -1.1793075 0.50566161 28
-1.5253391 -1.1801925 0.43607512 29
-1.5211422 -1.1765209 0.36602432 27
-1.526638 -1.1803458 0.29924187 28
-1.5184567 -1.1735969 0.2309424 29
-1.5359576 -1.186695 0.16646747 33
-1.5319418 -1.1831653 0.099438317 30
-1.522109 -1.1751471 0.032897785 71
-1.5107406 -1.1642673 -0.50081509 4
-1.5316066 -1.179922 -0.43753004 15
-1.5391582 -1.1853116 -0.36983731 16
-1.5290654 -1.177114 -0.29957226 27
-1.5405762 -1.185547 -0.2339894 31
-1.5305437 -1.1774013 -0.16559617 31
-1.5265137 -1.1738772 -0.098585807 28
-1.5245714 -1.1719601 -0.032569107 29
-1.5239233 -1.1710389 0.50436836 27
-1.5255858 -1.171893 0.43495122 29
-1.5213469 -1.1682147 0.36507112 25
-1.5268314 -1.1720026 0.29846054 29
-1.5186069 -1.1652682 0.23033305 28
-1.5361383 -1.1782945 0.16603169 32
-1.5321 -1.1747724 0.099176638 31
-1.522234 -1.1667855 0.032810524 70
-1.5109597 -1.156052 -0.49952096 4
-1.5279764 -1.168649 -0.43528053 14
-1.5393871 -1.1769505 -0.36888412 16
-1.5292412 -1.1687706 -0.29879007 28
-1.5407617 -1.1771494 -0.23338005 30
-1.5306858 -1.1690282 -0.16516039 30
-1.5266333 -1.1655115 -0.098324999 31
-1.5246789 -1.1635983 -0.032482713 29
-1.5241617 -1.1627827 0.50307512 26
-1.5257932 -1.1636059 0.43382731 29
-1.5215122 -1.1599213 0.36411792 27
-1.5269852 -1.1636723 0.29767925 28
-1.5187175 -1.1569529 0.22972371 27
-1.5362793 -1.1699077 0.16559592 33
-1.5322185 -1.1663928 0.098914951 31
-1.5223192 -1.1584375 0.032723259 71
-1.5149859 -1.1507708 -0.49952096 4
-1.5281664 -1.160362 -0.43415579 15
-1.5395764 -1.1686022 -0.36793095 16
-1.5293776 -1.1604402 -0.29800791 27
-1.5409073 -1.1687648 -0.23277071 29
-1.5307879 -1.1606686 -0.1647246 32
-1.526713 -1.1571593 -0.098064184 30
-1.5247467 -1.15525 -0.032396324 29
-1.520511 -1.1516231 0.50048864 27
-1.5259613 -1.155332 0.43270341 30
-1.5216379 -1.1516411 0.36316475 27
-1.5270995 -1.1553555 0.29689792 28
-1.5187885 -1.1486508 0.22911435 27
-1.5363804 -1.1615341 0.16516013 32
-1.532297 -1.1580267 0.098653272 31
-1.5223647 -1.150103 0.032635998 70
-1.5189936 -1.1454755 -0.49952096 5
-1.5283172 -1.152088 -0.43303102 15
-1.5397263 -1.160267 -0.36697775 16
-1.5294745 -1.1521233 -0.29722571 28
-1.5410132 -1.1603937 -0.23216136 29
-1.5268711 -1.149327 -0.16385305 32
-1.5267533 -1.148821 -0.097803377 31
-1.5247748 -1.1469156 -0.032309934 29
-1.5206612 -1.1434059 0.49919537 29
-1.5260903 -1.1470711 0.4315795 30
-1.5178007 -1.1404257 0.36125836 27
-1.5271742 -1.1470519 0.29611662 28
-1.5188203 -1.1403626 0.22850502 28
-1.5364418 -1.153174 0.16472435 33
-1.532336 -1.1496744 0.098391593 31
-1.5183713 -1.1387829 0.032461476 70
-1.5191168 -1.1372719 -0.49822688 5
-1.5284289 -1.1438272 -0.43190628 14
-1.5398368 -1.1519451 -0.36602455 16
-1.5295318 -1.1438198 -0.29644355 28
-1.5410795 -1.1520362 -0.23155202 29
-1.5268836 -1.1410086 -0.16341728 32
-1.5227535 -1.137508 -0.097281761 29
-1.5247632 -1.1385949 -0.032223545 29
-1.5207728 -1.1352016 0.4979021 28
-1.5261803 -1.1388234 0.4304556 30
-1.5178379 -1.1321861 0.36030519 28
-1.5272098 -1.138762 0.29533532 28
-1.5188127 -1.1320882 0.22789566 27
-1.5364636 -1.1448277 0.16428858 32
-1.528331 -1.1383533 0.097868234 32
-1.5183272 -1.1304901 0.032374211 70
-1.5230772 -1.1319622 -0.49822688 5
-1.5285016 -1.1355796 -0.43078151 14
-1.5399081 -1.1436367 -0.36507139 16
-1.5295501 -1.1355301 -0.29566139 30
-1.5411063 -1.1436921 -0.23094267 29
-1.5268568 -1.1327043 -0.1629815 31
-1.5227041 -1.1292115 -0.097020954 31
-1.5247123 -1.1302884 -0.032137156 31
-1.5208455 -1.1270106 0.49660885 27
-1.5262313 -1.130589 0.42933169 31
-1.5178361 -1.1239599 0.35935199 29
-1.5272062 -1.1304859 0.294554 28
-1.5187658 -1.1238276 0.22728632 30
-1.536446 -1.1364955 0.1638528 33
-1.5282804 -1.1300428 0.097606555 32
-1.5182439 -1.1222118 0.032286949 71
-1.5231328 -1.1237714 -0.49693277 5
-1.5285355 -1.1273454 -0.42965677 15
-1.53994 -1.1353419 -0.36411819 16
-1.5295291 -1.1272542 -0.2948792 29
-1.5410936 -1.1353621 -0.23033331 30
-1.5267907 -1.1244138 -0.16254571 31
-1.5226153 -1.1209291 -0.096760139 32
-1.5205956 -1.1190329 -0.031964373 30
-1.5169894 -1.115971 0.49402237 29
-1.5262434 -1.1223682 0.42820778 30
-1.5177954 -1.1157477 0.3583988 27
-1.5271634 -1.1222235 0.2937727 29
-1.5186797 -1.1155814 0.22667697 27
-1.536389 -1.1281773 0.16341703 35
-1.5281906 -1.1217467 0.097344875 31
-1.5181214 -1.1139479 0.032199688 71
-1.5270463 -1.1184479 -0.49693277 5
-1.5285304 -1.1191249 -0.428532 15
-1.5399328 -1.1270607 -0.36316499 16
-1.5294689 -1.1189923 -0.29409704 30
-1.5410417 -1.1270462 -0.22972398 31
-1.5226643 -1.113198 -0.16167414 32
-1.5224874 -1.1126611 -0.096499331 31
-1.5204556 -1.110769 -0.031877983 30
-1.516975 -1.1078204 0.4927291 28
-1.5262169 -1.1141611 0.42708388 30
-1.5177161 -1.1075494 0.35744563 28
-1.5270816 -1.1139754 0.29299137 31
-1.5185546 -1.1073492 0.22606762 28
-1.5362926 -1.1198733 0.16298124 35
-1.5280614 -1.1134648 0.097083189 32
-1.5179596 -1.1056983 0.032112423 70
-1.5348474 -1.1159508 -0.49822688 5
-1.5284866 -1.1109184 -0.42740726 14
-1.5438576 -1.1216784 -0.36316499 17
-1.5293698 -1.1107447 -0.29331487 30
-1.5409504 -1.1187445 -0.22911462 30
-1.5225096 -1.1049505 -0.16123837 31
-1.5223205 -1.1044078 -0.096238516 31
-1.5202765 -1.1025199 -0.03179159 29
-1.5169225 -1.0996836 0.49143586 28
-1.5261517 -1.105968 0.42595997 30
-1.5175979 -1.0993655 0.35649243 27
-1.5269607 -1.1057416 0.29221007 29
-1.5183908 -1.0991317 0.22545826 29
-1.536157 -1.1115837 0.16254546 34
-1.5278931 -1.1051977 0.096821509 32
-1.5177588 -1.0974636 0.032025162 71
-1.5387335 -1.1105864 -0.49822688 5
-1.5244534 -1.0998751 -0.42515776 15
-1.5437826 -1.1134113 -0.36221182 16
-1.5292319 -1.1025113 -0.29253268 30
-1.5367939 -1.1075557 -0.22789593 29
-1.5223159 -1.0967177 -0.16080259 32
-1.5221144 -1.0961691 -0.095977709 31
-1.5200585 -1.0942858 -0.031705201 30
-1.5168315 -1.0915607 0.49014261 28
-1.5260479 -1.0977888 0.42483607 30
-1.5174413 -1.0911957 0.35553923 30
-1.5268012 -1.0975223 0.29142877 29
-1.5181881 -1.090929 0.22484893 29
-1.5359824 -1.103309 0.16210969 35
-1.5276858 -1.0969453 0.09655983 32
-1.5175191 -1.0892439 0.031937901 72
-1.5426008 -1.1052085 -0.49822688 5
-1.5243226 -1.0917103 -0.42403299 14
-1.543669 -1.1051586 -0.36125863 16
-1.5290551 -1.0942925 -0.29175052 30
-1.5366145 -1.0992969 -0.22728659 30
-1.5220833 -1.0884998 -0.1603668 32
-1.5218694 -1.0879455 -0.095716901 30
-1.5238692 -1.088973 -0.031705201 29
-1.5167024 -1.0834519 0.48884934 29
-1.5259056 -1.0896239 0.42371216 29
-1.5172461 -1.0830405 0.35458606 28
-1.526603 -1.0893174 0.29064745 28
-1.5179466 -1.082741 0.22423957 28
-1.5357686 -1.0950489 0.1616739 35
-1.5274395 -1.0887078 0.096298151 32
-1.5172406 -1.0810392 0.03185064 71
-1.5464492 -1.099817 -0.49822688 5
-1.5241534 -1.08356 -0.42290825 15
-1.5435164 -1.0969201 -0.36030543 16
-1.5288397 -1.0860883 -0.29096836 31
-1.5404423 -1.0939264 -0.22728659 31
-1.521812 -1.0802968 -0.15993103 32
-1.5215857 -1.0797368 -0.095456094 31
-1.5235835 -1.0807546 -0.031618811 31
-1.5165352 -1.0753573 0.4875561 30
-1.525725 -1.0814735 0.42258826 30
-1.5170124 -1.0748999 0.35363284 29
-1.5263659 -1.0811275 0.28986612 29
-1.5176666 -1.074568 0.22363023 28
-1.5314503 -1.0839262 0.16080233 34
-1.5271543 -1.0804856 0.096036471 30
-1.5169233 -1.0728496 0.031763379 71
-1.5504699 -1.0941416 -0.49822688 5
-1.5241336 -1.0751581 -0.42178348 15
-1.5395038 -1.0855982 -0.35839906 16
-1.5287735 -1.0776322 -0.29018617 30
-1.5363278 -1.082556 -0.22606787 31
-1.5257612 -1.0747118 -0.15993103 34
-1.5214504 -1.0712781 -0.095195286 33
-1.5234463 -1.0722858 -0.031532422 30
-1.5165164 -1.0670124 0.48626286 29
-1.5256937 -1.0730714 0.42146435 30
-1.5169266 -1.0665096 0.35267967 27
-1.5222372 -1.0698464 0.28830349 30
-1.5175341 -1.0661453 0.22302088 30
-1.5313367 -1.0754431 0.16036656 34
-1.5270176 -1.0720121 0.095774792 31
-1.5167532 -1.0644109 0.031676114 71
-1.5542797 -1.0887228 -0.49822688 5
-1.5238866 -1.067037 -0.42065874 15
-1.5392628 -1.0774032 -0.35744587 17
-1.5284796 -1.0694581 -0.28940398 31
-1.5360307 -1.0743421 -0.22545853 32
-1.5254213 -1.0665253 -0.15949525 33
-1.521088 -1.0631003 -0.094934478 32
-1.5230818 -1.0640984 -0.031446032 30
-1.5162719 -1.0589468 0.48496959 29
-1.5254351 -1.0649502 0.42034045 32
-1.5166153 -1.0583991 0.35172647 29
-1.5219121 -1.0617007 0.2875222 29
-1.5171758 -1.0580029 0.22241154 30
-1.5309951 -1.0672429 0.15993078 34
-1.5266538 -1.0638206 0.095513113 35
-1.5163612 -1.0562471 0.031588852 72
-1.5580707 -1.0832907 -0.49822688 6
-1.5236014 -1.0589308 -0.41953397 15
-1.5389832 -1.069223 -0.35649267 16
-1.5281472 -1.0612992 -0.28862181 31
-1.5356948 -1.0661438 -0.22484918 32
-1.5250427 -1.0583541 -0.15905946 32
-1.520687 -1.0549382 -0.094673663 29
-1.5226789 -1.0559264 -0.031359643 29
-1.5159898 -1.0508959 0.48367634 27
-1.5211341 -1.054069 0.41809264 31
-1.5162656 -1.0503038 0.35077327 29
-1.5256088 -1.0563817 0.2875222 30
-1.5167791 -1.0498762 0.22180219 28
-1.5306152 -1.0590581 0.15949501 36
-1.5262513 -1.0556448 0.095251434 31
-1.515923 -1.0481099 0.031501591 71
-1.5618424 -1.0778455 -0.49822688 6
-1.5232782 -1.0508394 -0.41840923 15
-1.5346248 -1.0582716 -0.3545863 17
-1.5277765 -1.0531557 -0.28783965 31
-1.5353204 -1.0579607 -0.22423984 31
-1.5246258 -1.0501988 -0.1586237 32
-1.5202476 -1.0467918 -0.094412856 32
-1.5181193 -1.0449358 -0.03118686 33
-1.5156699 -1.0428602 0.4823831 28
-1.52079 -1.0459918 0.4169687 33
-1.5158781 -1.0422239 0.34982011 28
-1.5252169 -1.0482527 0.2867409 30
-1.5163442 -1.041765 0.22119285 29
-1.5343027 -1.0537088 0.15949501 31
-1.5258105 -1.0474848 0.094989754 34
-1.5154504 -1.0399834 0.03141433 73
-1.5616108 -1.0696577 -0.49693277 8
-1.5229172 -1.0427632 -0.41728443 14
-1.534259 -1.0501359 -0.35363311 16
-1.5273677 -1.0450277 -0.28705746 30
-1.5349078 -1.0497935 -0.22363049 32
-1.5241705 -1.0420593 -0.15818791 30
-1.5197698 -1.0386614 -0.094152048 30
-1.5176296 -1.0368102 -0.031100471 32
-1.5153124 -1.0348393 0.48108983 29
-1.520408 -1.03793 0.41584483 31
-1.5154526 -1.0341594 0.34886691 29
-1.5247869 -1.0401392 0.28595957 32
-1.5158712 -1.0336697 0.2205835 29
-1.5338556 -1.0455412 0.15905923 34
-1.5253311 -1.0393406 0.094728075 32
-1.5149395 -1.0318727 0.031327069 70
-1.5653352 -1.0642003 -0.49693277 8
-1.5225184 -1.0347025 -0.41615969 15
-1.5338553 -1.0420158 -0.35267991 16
-1.5269208 -1.0369154 -0.2862753 31
-1.534457 -1.0416418 -0.22302115 32
-1.5236771 -1.0339357 -0.15775214 31
-1.519254 -1.030547 -0.093891241 33
-1.517102 -1.0287007 -0.031014081 30
-1.5149174 -1.0268334 0.47979656 31
-1.5199884 -1.0298836 0.41472092 31
-1.5149895 -1.0261108 0.34791371 29
-1.5243191 -1.0320417 0.28517827 30
-1.5153602 -1.0255904 0.21997416 29
-1.5333704 -1.0373895 0.15862344 36
-1.5248139 -1.0312128 0.094466396 34
-1.5143906 -1.0237784 0.031239806 73
-1.5690403 -1.0587296 -0.49693277 9
-1.522082 -1.0266573 -0.41503492 15
-1.5334136 -1.0339113 -0.35172671 17
-1.5264359 -1.0288191 -0.28549314 30
-1.5339679 -1.0335063 -0.2224118 32
-1.5272769 -1.0286108 -0.15775214 34
-1.5187 -1.0224491 -0.093630433 31
-1.5206835 -1.0233988 -0.031014081 32
-1.5144849 -1.0188433 0.47850332 31
-1.5195312 -1.0218527 0.41359702 34
-1.5144885 -1.0180779 0.34696054 29
-1.5238131 -1.0239601 0.28439695 31
-1.5148114 -1.0175273 0.21936481 30
-1.5328469 -1.0292541 0.15818767 33
-1.5284041 -1.0258839 0.094466396 33
-1.5179549 -1.018486 0.031239806 72
-1.5727264 -1.0532463 -0.49693277 10
-1.521608 -1.0186279 -0.41391018 15
-1.5329341 -1.0258226 -0.35077354 17
-1.525913 -1.0207387 -0.28471094 33
-1.5334407 -1.0253868 -0.22180244 31
-1.5267172 -1.0205053 -0.15731636 34
-1.518108 -1.0143676 -0.093369626 32
-1.5200893 -1.0153077 -0.03092769 31
-1.5140154 -1.0108687 0.47721007 31
-1.5190365 -1.0138378 0.41247311 31
-1.51395 -1.0100611 0.34600735 31
-1.5232694 -1.0158947 0.28361565 31
-1.5142248 -1.0094807 0.21875545 29
-1.5322855 -1.021135 0.15775189 33
-1.5278203 -1.0177742 0.094204716 36
-1.5173399 -1.0104103 0.031152545 73
-1.5763934 -1.04775 -0.49693277 13
-1.5210965 -1.0106142 -0.41278541 15
-1.5324168 -1.0177499 -0.34982035 17
-1.5253525 -1.0126746 -0.28392878 33
-1.5328757 -1.0172838 -0.2211931 34
-1.5261192 -1.0124164 -0.15688057 34
-1.5174782 -1.0063026 -0.09310881 31
-1.5194572 -1.0072331 -0.0308413 29
-1.5135087 -1.0029097 0.4759168 30
-1.5185045 -1.0058388 0.41134921 31
-1.5133741 -1.0020604 0.34505415 31
-1.522688 -1.0078454 0.28283435 31
-1.5136005 -1.0014505 0.21814612 30
-1.5316862 -1.0130323 0.15731612 35
