# .PCD v0.7 - Point Cloud Data file format
VERSION 0.7
FIELDS x y z intensity
SIZE 4 4 4 4
TYPE F F F F
COUNT 1 1 1 1
WIDTH 1353
HEIGHT 1
VIEWPOINT 0 0 0 1 0 0 0
POINTS 1353
DATA ascii
-0.29968503 -1.8836254 -0.50081509 3
-0.34396544 -2.1595142 -0.49601737 3
-1.2117529 -7.5991955 -1.4869747 17
-1.2119275 -7.5917702 -1.2115859 21
-1.2152741 -7.604208 -0.94083238 17
-1.213969 -7.587543 -0.66892135 20
-1.2143112 -7.5812006 -0.39903775 26
-1.2178942 -7.5950804 -0.13226339 29
-0.79763633 -4.9687042 1.3372228 18
-0.83480251 -5.1944304 1.204826 14
-0.87306976 -5.4264965 1.0599453 15
-0.91471034 -5.6789904 0.90397602 23
-0.91540998 -5.6770225 0.70135802 29
-1.2261497 -7.5956759 0.66979188 22
-1.2256809 -7.5843582 0.40063173 18
-1.2268971 -7.5834794 0.13342364 20
-0.30625829 -1.8825679 -0.50081509 3
-0.35150144 -2.1583004 -0.49601737 3
-1.2382717 -7.5949192 -1.4869747 16
-1.239216 -7.5923676 -1.2123681 21
-1.2426107 -7.6048179 -0.94144171 17
-1.240447 -7.5832596 -0.66892135 21
-1.2407671 -7.5769157 -0.39903775 25
-1.2443985 -7.5907831 -0.13226339 28
-0.81497544 -4.9658895 1.3372228 17
-0.85292941 -5.1914849 1.204826 14
-0.89200652 -5.4234161 1.0599453 15
-0.93533057 -5.6806359 0.90475738 23
-0.93602794 -5.6786885 0.70196736 29
-1.252656 -7.5913496 0.66979188 24
-1.2529616 -7.58496 0.40089342 19
-1.2541766 -7.5840826 0.1335109 22
-0.3128278 -1.8814873 -0.50081509 3
-0.35903317 -2.1570604 -0.49601737 3
-1.2655821 -7.5953927 -1.487928 16
-1.2657107 -7.5879955 -1.2123681 21
-1.2699664 -7.605329 -0.94205111 17
-1.2677313 -7.583796 -0.66935712 20
-1.2680322 -7.5774632 -0.39929858 25
-1.2717137 -7.5913234 -0.13234979 29
-0.83310336 -4.9677773 1.338516 19
-0.87104583 -5.1884756 1.204826 15
-0.91093224 -5.420269 1.0599453 15
-0.955154 -5.6773367 0.90475738 23
-0.95584458 -5.6753869 0.70196736 28
-1.2799753 -7.5918422 0.67022771 24
-1.2794305 -7.5805397 0.40089342 19
-1.2806424 -7.579659 0.1335109 21
-0.31825739 -1.8756779 -0.49952096 3
-0.36499307 -2.1511188 -0.49489263 3
-1.2902595 -7.5962181 -1.4888812 16
-1.2903706 -7.58885 -1.2131503 19
-1.2938529 -7.6013021 -0.94205111 17
-1.2915502 -7.5797758 -0.66935712 20
-1.2926707 -7.5783644 -0.39955938 24
-1.2955562 -7.5872908 -0.13234979 27
-0.84870595 -4.9651356 1.338516 17
-0.88734156 -5.1857138 1.204826 13
-0.92878473 -5.4222188 1.0608987 15
-0.97381973 -5.6791754 0.90553868 23
-0.97450924 -5.6772475 0.70257676 28
-1.3038194 -7.5877838 0.67022771 22
-1.3040856 -7.5814042 0.40115508 18
-1.3052965 -7.5805244 0.13359816 23
-0.32447562 -1.8746122 -0.49952096 3
-0.37249964 -2.1498315 -0.49489263 3
-1.3167673 -7.5916686 -1.4888812 16
-1.3176976 -7.5891652 -1.2139324 19
-1.3212281 -7.6016278 -0.94266039 17
-1.3188546 -7.5801287 -0.66979295 21
-1.3199731 -7.5787249 -0.39982021 25
-1.3228916 -7.5876474 -0.13243617 29
-0.86603236 -4.9621429 1.338516 18
-0.90543771 -5.1825843 1.204826 14
-0.94770616 -5.4189439 1.0608987 15
-0.99363786 -5.6757417 0.90553868 22
-0.99432051 -5.673811 0.70257676 28
-1.3311584 -7.5880923 0.67066342 22
-1.331405 -7.5817232 0.40141675 18
-1.3317494 -7.5759225 0.13359816 22
-0.33134425 -1.8734105 -0.49952096 3
-0.3803767 -2.1484518 -0.49489263 3
-1.3454398 -7.5916238 -1.4898344 17
-1.3455045 -7.5842853 -1.2139324 19
-1.3490807 -7.596734 -0.94266039 17
-1.3466282 -7.5752439 -0.66979295 21
-1.3486164 -7.578752 -0.40008101 26
-1.3515694 -7.5876694 -0.13252255 28
-0.88421369 -4.9589353 1.338516 18
-0.9252829 -5.1840277 1.20595 14
-0.96842444 -5.4202657 1.0618517 15
-1.0144339 -5.6720619 0.90553868 23
-1.0159841 -5.675014 0.70318609 29
-1.3589612 -7.5831623 0.67066342 20
-1.3591846 -7.5767927 0.40141675 19
-1.3603913 -7.575911 0.13368542 21
-0.33788162 -1.8722425 -0.49952096 3
-0.38787386 -2.1471109 -0.49489263 3
-1.3719313 -7.5868812 -1.4898344 17
-1.3728499 -7.5844016 -1.2147146 19
-1.3764747 -7.5968618 -0.94326979 17
-1.3739513 -7.5753984 -0.67022872 20
-1.3750629 -7.573998 -0.40008101 27
-1.3780471 -7.5829053 -0.13252255 29
-0.90151829 -4.9558187 1.338516 18
-0.94337285 -5.1807666 1.20595 14
-0.98733884 -5.416852 1.0618517 14
-1.0351132 -5.6733441 0.90631998 23
-1.0357873 -5.671433 0.70318609 29
-1.3863188 -7.583272 0.67109919 23
-1.3865231 -7.5769138 0.40167844 18
-1.3868279 -7.571116 0.13368542 21
-0.34441492 -1.8710515 -0.49952096 2
-0.39624906 -2.1505349 -0.49601737 3
-1.3992963 -7.5868726 -1.4907875 17
-1.3993161 -7.5795636 -1.2147146 20
-1.4038863 -7.5968914 -0.94387913 17
-1.4003862 -7.5705562 -0.67022872 19
-1.4024019 -7.5740619 -0.40034181 25
-1.4054191 -7.5829644 -0.13260895 28
-0.9188118 -4.9526415 1.338516 18
-0.96145135 -5.1774416 1.20595 13
-1.0062412 -5.4133725 1.0618517 15
-1.0549105 -5.6696963 0.90631998 22
-1.055578 -5.6677828 0.70318609 28
-1.4127809 -7.5783868 0.67109919 21
-1.4138789 -7.5769362 0.40194014 18
-1.4141655 -7.5711436 0.13377269 20
-0.35094401 -1.869838 -0.49952096 2
-0.40465298 -2.1539271 -0.49714214 3
-1.4266781 -7.5867658 -1.4917407 17
-1.4266787 -7.5794854 -1.2154968 20
-1.4303958 -7.5919447 -0.94387913 17
-1.4277267 -7.5705161 -0.67066443 20
-1.429758 -7.5740275 -0.40060264 24
-1.4328082 -7.5829244 -0.13269535 27
-0.93609416 -4.9494042 1.338516 17
-0.97951812 -5.1740541 1.20595 14
-1.0260451 -5.4146495 1.0628049 15
-1.0756154 -5.6708317 0.90710127 23
-1.0762815 -5.6689396 0.70379543 29
-1.4401559 -7.5783024 0.67153502 21
-1.4412518 -7.57686 0.4022018 17
-1.44152 -7.5710716 0.13385995 20
-0.35746884 -1.8686016 -0.49952096 2
-0.41179347 -2.1525733 -0.49714214 2
-1.4518288 -7.5819936 -1.4917407 16
-1.4527348 -7.5795627 -1.2162789 20
-1.4564989 -7.5920334 -0.94448847 17
-1.453763 -7.5706315 -0.67110026 20
-1.4548664 -7.5692444 -0.40060264 24
-1.4588907 -7.5830412 -0.13278173 28
-0.95341516 -4.9510159 1.3398093 17
-0.99759275 -5.1755619 1.2070739 15
-1.043995 -5.4112172 1.0628049 15
-1.0944146 -5.6672335 0.90710127 22
-1.0950744 -5.665339 0.70379543 29
-1.4662246 -7.5783758 0.67197078 22
-1.4663696 -7.5720387 0.4022018 18
-1.4675701 -7.5711579 0.13394721 21
-0.36366338 -1.8674059 -0.49952096 3
-0.41930482 -2.1511228 -0.49714214 2
-1.4792259 -7.5816965 -1.4926939 15
-1.4801302 -7.5792928 -1.2170612 19
-1.4839431 -7.5917735 -0.9450978 18
-1.4811369 -7.5703993 -0.67153603 21
-1.4822388 -7.5690203 -0.40086344 26
-1.4853516 -7.5779028 -0.13278173 27
-0.97069162 -4.9476576 1.3398093 16
-1.0156527 -5.1720481 1.2070739 15
-1.0628773 -5.4075398 1.0628049 14
-1.1151437 -5.6682243 0.90788263 21
-1.1158023 -5.6663508 0.70440477 29
-1.4936322 -7.5780978 0.67240655 22
-1.4937586 -7.5717735 0.4024635 18
-1.4949578 -7.5708938 0.13403447 21
-0.37017962 -1.866125 -0.49952096 3
-0.42548791 -2.1449416 -0.49601737 2
-1.5053155 -7.5815639 -1.4936471 16
-1.5052558 -7.5743427 -1.2170612 19
-1.5100783 -7.5916786 -0.94570714 17
-1.5072058 -7.5703311 -0.6719718 20
-1.5083063 -7.5689602 -0.40112427 25
-1.5114505 -7.5778379 -0.13286813 28
-0.98709327 -4.9444113 1.3398093 18
-1.0337529 -5.173429 1.2081978 14
-1.0817661 -5.4087987 1.0637581 14
-1.133934 -5.6644955 0.90788263 21
-1.1345866 -5.6626201 0.70440477 30
-1.5187539 -7.573103 0.67240655 21
-1.5198419 -7.5716734 0.40272516 18
-1.5200555 -7.5658941 0.13403447 20
-0.37636587 -1.8648872 -0.49952096 3
-0.43297252 -2.1434431 -0.49601737 2
-1.5327436 -7.5810742 -1.4946003 17
-1.5326656 -7.5738826 -1.2178433 18
-1.5375541 -7.5912247 -0.94631654 17
-1.5346115 -7.5699053 -0.67240757 21
-1.5357105 -7.5685425 -0.40138504 24
-1.5388877 -7.5774145 -0.13295451 28
-1.0053086 -4.9456692 1.3411026 17
-1.0518053 -5.1697888 1.2081978 15
-1.1006398 -5.4049902 1.0637581 14
-1.1546862 -5.6653423 0.90866393 23
-1.1553378 -5.6634874 0.70501411 28
-1.5461762 -7.5726357 0.67284232 20
-1.5472624 -7.5712137 0.40298685 18
-1.5474582 -7.5654407 0.13412173 21
-0.38222572 -1.8587646 -0.49822688 3
-0.43984368 -2.1370702 -0.49489263 2
-1.5615096 -7.5802126 -1.4955535 16
-1.5614122 -7.573051 -1.2186255 20
-1.5663701 -7.5903988 -0.94692588 18
-1.563354 -7.5691085 -0.67284334 20
-1.5634403 -7.5628624 -0.40138504 25
-1.5676631 -7.5766191 -0.1330409 29
-1.0234287 -4.9419513 1.3411026 17
-1.0717353 -5.17067 1.2093217 15
-1.1214397 -5.4057255 1.0647113 14
-1.1754431 -5.6610718 0.90866393 21
-1.1760877 -5.659215 0.70501411 28
-1.5749353 -7.5717955 0.67327809 21
-1.5760196 -7.5703807 0.40324852 20
-1.5761963 -7.5646119 0.13420901 21
-0.38871172 -1.8574191 -0.49822688 2
-0.44730076 -2.1355219 -0.49489263 2
-1.58796 -7.5747161 -1.4955535 17
-1.5888517 -7.5723872 -1.2194076 19
-1.592856 -7.5848846 -0.94692588 17
-1.59079 -7.5684795 -0.67327917 20
-1.5908581 -7.5622458 -0.40164587 25
-1.5951309 -7.5759926 -0.1331273 28
-1.041669 -4.9430747 1.3423959 17
-1.0897777 -5.1668978 1.2093217 15
-1.1403024 -5.4017782 1.0647113 15
-1.1962174 -5.6617661 0.90944523 22
-1.1968616 -5.6599302 0.70562345 28
-1.6013563 -7.5662513 0.67327809 20
-1.6024355 -7.5648332 0.40324852 17
-1.6025921 -7.5590639 0.13420901 20
-0.39519295 -1.856051 -0.49822688 2
-0.45576775 -2.1387122 -0.49601737 2
-1.6154149 -7.5739274 -1.4965067 16
-1.6163055 -7.5716248 -1.2201898 19
-1.6203594 -7.5841312 -0.94753516 17
-1.618241 -7.5677514 -0.67371494 20
-1.6182904 -7.5615287 -0.40190667 24
-1.6215663 -7.5703783 -0.1331273 27
-1.0589173 -4.9394088 1.3423959 17
-1.1078069 -5.1630621 1.2093217 15
-1.1601816 -5.4025631 1.0656645 15
-1.2159735 -5.6575556 0.90944523 22
-1.2176549 -5.6605701 0.70623285 28
-1.628806 -7.565485 0.67371392 21
-1.6298836 -7.5640745 0.40351021 17
-1.6300222 -7.55831 0.13429625 20
-0.40166938 -1.8546602 -0.49822688 2
-0.46323049 -2.1371081 -0.49601737 2
-1.6428837 -7.5730395 -1.4974599 16
-1.6437734 -7.5707626 -1.2209719 18
-1.6478769 -7.5832787 -0.94814456 18
-1.6457058 -7.5669236 -0.67415071 19
-1.6457373 -7.5607128 -0.4021675 25
-1.6490462 -7.5695572 -0.13321368 29
-1.0771813 -4.9404006 1.343689 17
-1.1258227 -5.1591635 1.2093217 14
-1.179033 -5.3984804 1.0656645 15
-1.2367692 -5.6581016 0.91022652 22
-1.2374066 -5.6562853 0.70623285 28
-1.6562698 -7.5646191 0.67414963 22
-1.6573461 -7.5632162 0.40377188 18
-1.6574667 -7.5574579 0.13438351 20
-0.4081409 -1.8532468 -0.49822688 2
-0.47068757 -2.1354783 -0.49601737 2
-1.6703658 -7.572051 -1.498413 16
-1.6701903 -7.5649791 -1.2209719 19
-1.6743374 -7.5774803 -0.94814456 17
-1.6731849 -7.5659962 -0.67458647 19
-1.6721191 -7.5549226 -0.4021675 25
-1.6765399 -7.5686355 -0.13330007 28
-1.09442 -4.9366107 1.343689 17
-1.1448799 -5.1599584 1.2104456 14
-1.1989341 -5.3991237 1.0666177 15
-1.2575835 -5.6585712 0.91100788 22
-1.2582206 -5.656775 0.70684212 27
-1.6837475 -7.563653 0.67458546 23
-1.6837366 -7.557385 0.40377188 19
-1.6849251 -7.5565057 0.13447079 20
-0.41460744 -1.8518108 -0.49822688 3
-0.47813889 -2.1338222 -0.49601737 2
-1.697861 -7.5709634 -1.4993663 16
-1.6976684 -7.5639215 -1.2217542 20
-1.7018652 -7.5764322 -0.94875389 18
-1.7006775 -7.5649695 -0.67502224 19
-1.6995765 -7.5539107 -0.40242827 24
-1.7040474 -7.5676141 -0.13338646 28
-1.1127071 -4.9374719 1.3449823 17
-1.1628845 -5.1559305 1.2104456 14
-1.2188541 -5.399694 1.0675709 14
-1.277328 -5.6541467 0.91100788 22
-1.2779586 -5.652349 0.70684212 28
-1.7101394 -7.5577297 0.67458546 22
-1.7112094 -7.5563316 0.40403357 18
-1.712397 -7.5554538 0.13455805 20
-0.42106897 -1.8503523 -0.49822688 3
-0.48558441 -2.1321402 -0.49601737 2
-1.725369 -7.5697765 -1.5003195 17
-1.7251594 -7.5627646 -1.2225363 19
-1.7294061 -7.5752835 -0.94936323 17
-1.7281833 -7.5638428 -0.67545807 20
-1.7270472 -7.5527997 -0.4026891 24
-1.730453 -7.5616202 -0.13338646 29
-1.1299354 -4.9335575 1.3449823 17
-1.1819634 -5.1565886 1.2115695 14
-1.2376951 -5.3954062 1.0675709 14
-1.2981619 -5.6544671 0.91178918 22
-1.2987927 -5.6526904 0.70745152 28
-1.7376266 -7.5565681 0.67502123 21
-1.7386953 -7.5551782 0.40429524 17
-1.7398819 -7.5543017 0.1346453 20
-0.42752531 -1.8488712 -0.49822688 3
-0.49302402 -2.1304321 -0.49601737 2
-1.7528895 -7.5684896 -1.5012727 17
-1.7526629 -7.5615067 -1.2233185 18
-1.7569597 -7.5740347 -0.94997257 17
-1.7545755 -7.5577641 -0.67545807 20
-1.7545309 -7.551589 -0.4029499 23
-1.7579696 -7.5604029 -0.13347286 27
-1.1482445 -4.9342875 1.3462756 17
-1.2010614 -5.1571765 1.2126935 14
-1.2576351 -5.395833 1.0685241 14
-1.3190135 -5.6547098 0.91257042 21
-1.3196446 -5.6529555 0.70806086 28
-1.7651265 -7.5553074 0.675457 20
-1.766194 -7.553925 0.40455693 19
-1.7662407 -7.548182 0.1346453 21
-0.43287197 -1.8426659 -0.49693277 3
-0.50045758 -2.1286983 -0.49601737 2
-1.7804219 -7.567102 -1.5022258 16
-1.7801787 -7.5601497 -1.2241007 18
-1.7845255 -7.5726862 -0.95058191 17
-1.7820896 -7.5564413 -0.67589378 18
-1.7820272 -7.5502787 -0.40321073 24
-1.785499 -7.5590863 -0.13355924 26
-1.1654614 -4.9302492 1.3462756 18
-1.2201774 -5.1576939 1.2138174 14
-1.2764624 -5.3914104 1.0685241 14
-1.338744 -5.6500711 0.91257042 21
-1.3405141 -5.6531434 0.7086702 28
-1.7926388 -7.553946 0.67589277 20
-1.7937051 -7.5525723 0.40481859 18
-1.7937341 -7.5468349 0.13473257 20
-0.43930146 -1.8411437 -0.49693277 2
-0.5078851 -2.1269383 -0.49601737 2
-1.8079659 -7.5656152 -1.503179 16
-1.8077064 -7.5586929 -1.2248828 18
-1.8121034 -7.5712376 -0.95119131 17
-1.8084556 -7.5501747 -0.67589378 20
-1.8095356 -7.5488672 -0.40347153 23
-1.8130403 -7.5576682 -0.13364564 27
-1.1837918 -4.9308481 1.3475689 16
-1.2381737 -5.1534033 1.2138174 14
-1.2964216 -5.3916936 1.0694772 14
-1.3596139 -5.6501656 0.91335177 21
-1.3614008 -5.6532536 0.70927954 28
-1.818996 -7.5476422 0.67589277 21
-1.8212281 -7.5511184 0.40508029 18
-1.8212395 -7.5453873 0.13481984 21
-0.4454045 -1.8396769 -0.49693277 2
-0.51456457 -2.1253324 -0.49601737 2
-1.8317251 -7.5598979 -1.503179 17
-1.8326075 -7.557776 -1.2256651 19
-1.8370506 -7.5703301 -0.95180064 17
-1.8333417 -7.5492959 -0.67632961 20
-1.8332422 -7.5431452 -0.40347153 24
-1.8379558 -7.5567927 -0.13373202 26
-1.1992766 -4.9271049 1.3475689 17
-1.2555106 -5.1542215 1.2149411 14
-1.3133537 -5.3875947 1.0694772 14
-1.3785282 -5.6506643 0.91413307 22
-1.3791542 -5.6489491 0.70927954 28
-1.8438809 -7.5467296 0.67632854 21
-1.8461277 -7.5502105 0.40534195 17
-1.8461233 -7.5444846 0.1349071 20
-0.45265466 -1.84288 -0.49822688 2
-0.52198023 -2.1235232 -0.49601737 2
-1.8592755 -7.5582247 -1.5041322 16
-1.8601583 -7.556128 -1.2264472 18
-1.8646519 -7.5686903 -0.95240998 17
-1.8608749 -7.5476866 -0.67676538 20
-1.8607576 -7.5415478 -0.40373233 25
-1.8643228 -7.5503306 -0.13373202 28
-1.2164681 -4.9228888 1.3475689 17
-1.2734945 -5.1498075 1.2149411 14
-1.3333311 -5.387742 1.0704304 14
-1.3994315 -5.6506119 0.91491443 21
-1.4000583 -5.6489172 0.70988888 28
-1.8714117 -7.5450816 0.67676437 20
-1.8736746 -7.5485668 0.40560365 17
-1.8736525 -7.5428462 0.13499436 20
-0.46057528 -1.8458945 -0.49952096 2
-0.52975982 -2.1215956 -0.49601737 2
-1.8881551 -7.5561209 -1.5050853 15
-1.8890384 -7.5540504 -1.2272294 19
-1.8935848 -7.5666189 -0.95301932 16
-1.8897361 -7.5456476 -0.67720115 19
-1.8896002 -7.5395203 -0.40399316 24
-1.8931998 -7.5482965 -0.13381842 27
-1.2345031 -4.9183969 1.3475689 17
-1.2935479 -5.1498308 1.2160652 14
-1.3542659 -5.3875794 1.0713836 14
-1.4213374 -5.6502337 0.91569567 22
-1.4219648 -5.648561 0.71049827 28
-1.90027 -7.5430021 0.67720014 21
-1.9025494 -7.5464897 0.40586531 17
-1.9025086 -7.5407753 0.13508162 20
-0.46820143 -1.8489573 -0.50081509 2
-0.53716236 -2.1197336 -0.49601737 2
-1.9157258 -7.5542412 -1.5060385 15
-1.9166105 -7.5521975 -1.2280116 18
-1.9212073 -7.5647731 -0.95362866 17
-1.9172907 -7.5438323 -0.67763692 19
-1.9171374 -7.5377183 -0.40425396 22
-1.9207699 -7.5464869 -0.13390481 27
-1.252856 -4.9187374 1.3488621 16
-1.3115163 -5.1452842 1.2160652 14
-1.3742769 -5.3875751 1.0723369 15
-1.4422731 -5.650023 0.91647702 22
-1.4416733 -5.6435628 0.71049827 27
-1.9278222 -7.5411487 0.67763591 22
-1.9301175 -7.5446401 0.40612701 18
-1.9300591 -7.5389314 0.13516888 21
-0.47585455 -1.8519895 -0.50210917 2
-0.54455835 -2.1178458 -0.49601737 2
-1.9433066 -7.5522618 -1.5069917 16
-1.9429607 -7.5454607 -1.2280116 18
-1.9488399 -7.5628266 -0.95423806 16
-1.9448557 -7.5419173 -0.67807269 19
-1.9446847 -7.5358138 -0.40451476 25
-1.9496003 -7.549417 -0.13407758 27
-1.2700181 -4.9143343 1.3488621 17
-1.3306884 -5.1453915 1.2171891 14
-1.3930746 -5.3827453 1.0723369 14
-1.4619867 -5.6449542 0.91647702 20
-1.4626094 -5.6433005 0.71110761 28
-1.956635 -7.5440164 0.67850745 21
-1.9576957 -7.5426893 0.4063887 18
-1.9576201 -7.5369873 0.13525614 22
-0.48475274 -1.8596641 -0.50469732 2
-0.55194765 -2.115932 -0.49601737 2
-1.9696569 -7.5454321 -1.5069917 15
-1.9705358 -7.5434113 -1.2287937 18
-1.9752272 -7.5559773 -0.95423806 17
-1.9724308 -7.5399013 -0.67850852 20
-1.9722422 -7.5338106 -0.40477556 22
-1.977208 -7.5474019 -0.13416398 28
-1.2883894 -4.9145432 1.3501554 16
-1.348641 -5.1407151 1.2171891 14
-1.4131018 -5.382597 1.07329 14
-1.4829372 -5.6445932 0.91725832 23
-1.4835609 -5.6429601 0.71171689 28
-1.984224 -7.5419579 0.67894322 21
-1.9865553 -7.5454674 0.40691203 18
-1.9851907 -7.5349422 0.1353434 21
-0.49000669 -1.8532914 -0.50340325 2
-0.55933028 -2.1139922 -0.49601737 2
-1.9997523 -7.5527453 -1.5098512 16
-1.9968551 -7.5364866 -1.2287937 19
-2.0054061 -7.5634279 -0.95606607 18
-2.0000153 -7.5377851 -0.67894429 22
-1.9998096 -7.5317068 -0.40503639 24
-2.0048249 -7.5452857 -0.13425037 28
-1.3067776 -4.9146838 1.3514485 16
-1.3678302 -5.1406846 1.218313 14
-1.4331449 -5.3823748 1.0742432 14
-1.5039032 -5.644155 0.91803968 23
-1.5045283 -5.6425419 0.71232629 27
-2.0131063 -7.5446105 0.67981476 22
-2.0128818 -7.538487 0.40691203 19
-2.0140615 -7.5376263 0.13551793 21
-0.49272043 -1.8375751 -0.49952096 2
-0.56670612 -2.1120272 -0.49601737 2
-2.0273771 -7.5504599 -1.5108045 17
-2.0269947 -7.5437784 -1.2311403 21
-2.0317953 -7.5563817 -0.95606607 20
-2.0301974 -7.545187 -0.6802516 29
-2.0286844 -7.5343227 -0.40555799 24
-2.0324512 -7.5430684 -0.13433675 31
-1.323925 -4.9100924 1.3514485 17
-1.3857661 -5.1358786 1.218313 14
-1.4519242 -5.3773394 1.0742432 14
-1.5248837 -5.6436377 0.91882092 22
-1.5255105 -5.6420469 0.71293563 28
-2.0407307 -7.5423455 0.68025059 23
-2.0417938 -7.5410538 0.40743542 23
-2.0429752 -7.5402002 0.13569245 27
-0.49786472 -1.8311836 -0.49822688 3
-0.57535404 -2.1147373 -0.49714214 2
-2.0562994 -7.5528088 -1.5127109 19
-2.0559111 -7.5461855 -1.2327045 23
-2.0555489 -7.5396676 -0.9548474 11
-2.0421019 -7.4851956 -0.67545807 7
-2.0549717 -7.5271955 -0.40555799 28
-2.0600867 -7.5407505 -0.13442315 29
-1.3423301 -4.9101 1.3527418 17
-1.4049709 -5.1357093 1.2194368 13
-1.4719818 -5.3769722 1.0751964 14
-1.5458792 -5.643044 0.91960222 22
-1.5465076 -5.6414733 0.71354496 28
-2.0670459 -7.5351763 0.68025059 18
-2.0694265 -7.5386963 0.40769708 22
-2.0533924 -7.4751749 0.1346453 7
-0.4965536 -1.8014987 -0.4904623 3
-0.58273232 -2.112716 -0.49714214 2
-2.0500035 -7.4273005 -1.4888812 7
-2.0506859 -7.4247189 -1.2139324 8
-2.0514474 -7.4224281 -0.94083238 10
-2.0536122 -7.4252133 -0.67066443 32
-2.0692475 -7.4766665 -0.40321073 9
-2.0543725 -7.4178834 -0.13234979 16
-1.3607512 -4.9100385 1.354035 17
-1.4241912 -5.1354685 1.2205608 13
-1.4920545 -5.3765311 1.0761496 14
-1.5668893 -5.6423717 0.92038357 22
-1.5661905 -5.6360407 0.71354496 28
-2.0613091 -7.4127417 0.66979188 14
-2.0622647 -7.4111671 0.40115508 11
-2.0687449 -7.4294338 0.13394721 31
-0.50803733 -1.8183603 -0.4956387 2
-0.59010351 -2.1106689 -0.49714214 2
-2.0732722 -7.410645 -1.4869747 15
-2.0739276 -7.4080043 -1.2123681 17
-2.0813601 -7.4295578 -0.94266039 17
-2.0835521 -7.4323883 -0.6719718 25
-2.0899386 -7.4501672 -0.4021675 19
-2.0802536 -7.4106674 -0.13234979 27
-1.3778821 -4.9052587 1.354035 16
-1.4434271 -5.1351566 1.2216847 13
-1.510813 -5.3712902 1.0761496 14
-1.5879134 -5.6416225 0.92116487 22
-1.5871998 -5.6353159 0.7141543 28
-2.0885229 -7.4102955 0.67022771 19
-2.0881219 -7.403923 0.40115508 17
-2.0905924 -7.4077339 0.13368542 32
-0.51701319 -1.8258697 -0.49822688 2
-0.59746754 -2.1085963 -0.49714214 2
-2.1031444 -7.4175296 -1.4898344 16
-2.1038177 -7.4149723 -1.2147146 18
-2.1086371 -7.4270215 -0.94326979 16
-2.1053994 -7.4106956 -0.67066443 22
-2.1091046 -7.4188118 -0.40086344 21
-2.1088445 -7.4129777 -0.13252255 27
-1.3963187 -4.9050651 1.3553283 16
-1.4613434 -5.1300864 1.2216847 13
-1.5308986 -5.3707042 1.0771028 14
-1.6089513 -5.6407943 0.92194623 22
-1.6082232 -5.6345134 0.71476364 28
-2.1157451 -7.4077492 0.67066342 22
-2.1153257 -7.4013896 0.40141675 19
-2.1178119 -7.4051976 0.13377269 35
-0.52604753 -1.8333384 -0.50081509 3
-0.60347974 -2.101815 -0.49601737 2
-2.130379 -7.4148602 -1.4907875 17
-2.1310523 -7.4123297 -1.2154968 22
-2.1372933 -7.4291549 -0.94448847 20
-2.1340108 -7.4128747 -0.67153603 25
-2.1322241 -7.4018083 -0.40034181 25
-2.1360927 -7.4103756 -0.13260895 29
-1.4134321 -4.9001608 1.3553283 15
-1.480593 -5.1296358 1.2228086 13
-1.5509983 -5.3700423 1.078056 14
-1.6300026 -5.6398878 0.92272747 22
-1.6292603 -5.6336331 0.71537304 28
-2.1457438 -7.4146729 0.67197078 27
-2.1453152 -7.408349 0.4022018 24
-2.146431 -7.4073634 0.13394721 37
-0.53379208 -1.8361287 -0.50210917 3
-0.61081278 -2.0996957 -0.49601737 2
-2.1603642 -7.4215174 -1.4936471 21
-2.1582942 -7.4095864 -1.2162789 24
-2.1646016 -7.4264131 -0.9450978 18
-2.1542952 -7.3862534 -0.66979295 9
-2.160846 -7.4039068 -0.40086344 29
-2.1605451 -7.3980746 -0.13252255 17
-1.4318831 -4.8998332 1.3566216 16
-1.4984897 -5.1244359 1.2228086 13
-1.5711122 -5.369307 1.0790092 13
-1.6496795 -5.6341634 0.92272747 23
-1.6503109 -5.6326742 0.71598238 28
-2.1660075 -7.3880191 0.67022771 9
-2.164134 -7.3768592 0.40089342 12
-2.1441114 -7.3038893 0.13220197 5
-0.54019815 -1.8342541 -0.50210917 3
-0.61813831 -2.0975506 -0.49601737 2
-2.1640444 -7.3386045 -1.4783961 6
-2.1617832 -7.3262234 -1.2037642 6
-2.1624048 -7.3236198 -0.93291086 5
-2.140547 -7.2449369 -0.65759104 5
-2.1696897 -7.3388596 -0.39773375 8
-2.1509013 -7.2706409 -0.13036281 6
-1.4489779 -4.894805 1.3566216 15
-1.5177517 -5.1238446 1.2239324 13
-1.5912399 -5.3684959 1.0799624 14
-1.6707407 -5.6331058 0.92350882 22
-1.6713743 -5.6316366 0.71659166 28
-2.1520791 -7.246716 0.65802586 5
-2.1528909 -7.2448168 0.39408973 4
-2.1439457 -7.2101059 0.13063125 14
-0.5465976 -1.8323573 -0.50210917 3
-0.62545639 -2.0953803 -0.49601737 2
-2.1629584 -7.2416492 -1.4602855 11
-2.1618886 -7.2334638 -1.1896851 14
-2.1666265 -7.2447071 -0.92377067 15
-2.1429756 -7.1610708 -0.65061861 14
-2.1594853 -7.2116575 -0.39121351 5
-2.1446993 -7.1577334 -0.12846223 6
-1.4674423 -4.8943439 1.3579149 16
-1.5356281 -5.1185155 1.2239324 13
-1.6099699 -5.3629088 1.0799624 13
-1.6918145 -5.631969 0.92429012 21
-1.6924508 -5.6305208 0.71720105 27
-2.1529725 -7.1580715 0.6506176 16
-2.158021 -7.1703196 0.39042622 16
-2.1359439 -7.0924807 0.12862423 14
-0.55299044 -1.8304383 -0.50210917 3
-0.63417667 -2.0978479 -0.49714214 2
-2.149853 -7.1072068 -1.4345493 11
-2.1556504 -7.1218863 -1.1724772 14
-2.1545005 -7.1136093 -0.90792763 10
-2.1361771 -7.0486755 -0.6410315 14
-2.1585629 -7.1180658 -0.38651896 9
-2.1420906 -7.05931 -0.1268208 6
-1.4845177 -4.8891916 1.3579149 16
-1.5549021 -5.1177859 1.2250564 13
-1.6301079 -5.3619528 1.0809156 14
-1.7129008 -5.630754 0.92507148 22
-1.71354 -5.6293263 0.71781039 26
-2.1460168 -7.0456867 0.64103049 13
-2.1510117 -7.0576653 0.38466927 12
-2.1329808 -6.9941268 0.12696624 14
-0.55937642 -1.8284967 -0.50210917 3
-0.64149559 -2.0956213 -0.49714214 2
-2.1487737 -7.0151834 -1.417392 12
-2.1501069 -7.0151634 -1.1560516 14
-2.1502163 -7.0111532 -0.89574069 10
-2.1300817 -6.9411778 -0.6318801 14
-2.1511512 -7.005477 -0.38078114 10
-2.1358843 -6.9514351 -0.12500662 15
-1.5029945 -4.8885965 1.3592081 17
-1.5741897 -5.1169844 1.2261803 14
-1.6502584 -5.3609204 1.0818686 13
-1.7339991 -5.6294603 0.92585272 22
-1.7346413 -5.6280537 0.71841973 27
-2.1397712 -6.9381976 0.63187915 13
-2.1461875 -6.9546919 0.37943569 12
-2.1264074 -6.8863282 0.12513375 14
-0.56432676 -1.8219196 -0.50081509 2
-0.64880681 -2.0933695 -0.49714214 2
-2.1427166 -6.9091916 -1.397375 12
-2.1423814 -6.903851 -1.1388438 14
-2.1423001 -6.8993349 -0.88233501 11
-2.1232622 -6.8338103 -0.62272877 15
-2.1459446 -6.9025631 -0.37556496 10
-2.1319218 -6.8532386 -0.1233652 15
-1.5200498 -4.8833203 1.3592081 16
-1.5934905 -5.1161094 1.2273042 12
-1.6704221 -5.3598132 1.0828218 14
-1.7551093 -5.628088 0.92663407 22
-1.7557547 -5.6267018 0.71902913 27
-2.1357708 -6.8403482 0.62359935 13
-2.1391819 -6.8470716 0.37394041 13
-2.1205993 -6.7834334 0.12338851 14
-0.56923789 -1.8153301 -0.49952096 3
-0.65756851 -2.0957401 -0.49826688 2
-2.1374166 -6.8080115 -1.3783113 12
-2.1353855 -6.7973905 -1.1224182 15
-2.1336303 -6.7876596 -0.86892939 11
-2.1157191 -6.7265763 -0.61357737 15
-2.1400464 -6.7997732 -0.37034878 10
-2.1257985 -6.7503872 -0.1216374 15
-1.538538 -4.8825908 1.3605013 17
-1.6113393 -5.1105161 1.2273042 13
-1.6905979 -5.3586311 1.0837752 14
-1.7762311 -5.6266365 0.92741537 22
-1.7768794 -5.6252708 0.71963841 27
-2.1296127 -6.737864 0.61488378 13
-2.1329572 -6.744349 0.36870682 13
-2.1156073 -6.6854305 0.12173053 14
-0.57557112 -1.8133322 -0.49952096 2
-0.66487998 -2.0934319 -0.49826688 2
-2.1329231 -6.7116318 -1.3602006 12
-2.1291692 -6.6957703 -1.1067747 11
-2.1287212 -6.6903176 -0.85735178 12
-2.105943 -6.6147327 -0.6039902 11
-2.1334569 -6.6971092 -0.3651326 10
-2.1205013 -6.6524262 -0.11999598 16
-1.5555719 -4.8771906 1.3605013 16
-1.6306497 -5.1095014 1.228428 13
-1.7107857 -5.3573728 1.0847284 14
-1.798867 -5.6298103 0.92897797 22
-1.7980158 -5.6237612 0.72024781 27
-2.1242831 -6.6402507 0.60660398 13
-2.1275637 -6.6465082 0.36373487 13
-2.1114821 -6.5923071 0.12015981 15
-0.58189732 -1.811312 -0.49952096 2
-0.6706925 -2.0864604 -0.49714214 2
-2.1262803 -6.6106939 -1.3411369 12
-2.1237833 -6.598979 -1.0919135 11
-2.1231589 -6.5930934 -0.84577423 12
-2.1015224 -6.5220041 -0.59614617 11
-2.1292412 -6.6040797 -0.36043805 11
-2.1145468 -6.5545859 -0.11835457 11
-1.5740708 -4.876328 1.3617946 16
-1.6499727 -5.1084146 1.229552 13
-1.7309854 -5.3560386 1.0856814 14
-1.8200275 -5.6281962 0.92975926 22
-1.8191633 -5.6221719 0.72085714 26
-2.1182983 -6.542758 0.59832418 13
-2.1215141 -6.5487895 0.35876298 13
-2.1051919 -6.4945393 0.11850183 15
-0.58790064 -1.8093724 -0.49952096 2
-0.67724401 -2.0843432 -0.49714214 2
-2.1182041 -6.5152936 -1.3230263 12
-2.1139498 -6.4983501 -1.07627 11
-2.1162124 -6.5014482 -0.83480597 13
-2.0957789 -6.4348564 -0.58873791 12
-2.1221299 -6.5119033 -0.35574347 11
-2.1056814 -6.4576044 -0.11671315 11
-1.5908808 -4.8759503 1.3630879 16
-1.6675252 -5.1078372 1.2306759 13
-1.7493275 -5.3552399 1.0866346 14
-1.8392342 -5.6271448 0.93054062 24
-1.8383595 -5.6211462 0.72146648 26
-2.1125073 -6.4555936 0.59091592 13
-2.1141098 -6.4566779 0.35405272 13
-2.0975683 -6.4023795 0.11693112 16
-0.59389752 -1.807413 -0.49952096 2
-0.68299389 -2.077338 -0.49601737 2
-2.1117907 -6.4192724 -1.3049157 12
-2.1088271 -6.4064965 -1.0621909 12
-2.1125011 -6.4138894 -0.82444704 12
-2.0917244 -6.3470793 -0.5813297 12
-2.1167014 -6.4191003 -0.35104892 11
-2.1000144 -6.3647594 -0.11515813 11
-1.6094053 -4.8749537 1.3643812 16
-1.6868728 -5.1066117 1.2317998 13
-1.7680101 -5.3491011 1.0866346 14
-1.8604161 -5.6253796 0.93132192 23
-1.8595288 -5.6194062 0.72207582 27
-2.1068473 -6.3630672 0.58307195 13
-2.1099398 -6.3686819 0.34960416 14
-2.0915892 -6.3096032 0.11536039 11
-0.60051805 -1.8052241 -0.49952096 2
-0.68906462 -2.0701985 -0.49489263 2
-2.1073875 -6.3276663 -1.2877582 12
-2.1041908 -6.3143916 -1.0481118 12
-2.1077392 -6.3213606 -0.81347877 12
-2.0897517 -6.2637706 -0.57435721 12
-2.1133366 -6.3307824 -0.34661517 11
-2.0964036 -6.2764101 -0.1136895 12
-1.6287929 -4.8736024 1.3656744 16
-1.7071233 -5.1050153 1.2329236 14
-1.789161 -5.3472395 1.0875878 14
-1.8825893 -5.6232057 0.93210322 22
-1.8832653 -5.6219649 0.72329456 27
-2.1016617 -6.2702928 0.57522792 14
-2.1062779 -6.2804275 0.34515563 14
-2.0860739 -6.2165842 0.11378969 12
-0.60527533 -1.7985396 -0.49822688 2
-0.69784135 -2.0723975 -0.49601737 2
-2.1028204 -6.2411985 -1.2715541 11
-2.1009777 -6.2321334 -1.035597 12
-2.1028268 -6.234024 -0.80311984 13
-2.0845251 -6.176208 -0.56694895 13
-2.1082633 -6.2429442 -0.34218141 12
-2.0910935 -6.188539 -0.11222087 12
-1.647342 -4.8724627 1.3669676 16
-1.7264938 -5.1036401 1.2340477 13
-1.8093891 -5.3456111 1.088541 15
-1.9037906 -5.6212773 0.93288451 20
-1.9044708 -5.6200571 0.72390389 27
-2.0963461 -6.1827264 0.56781965 13
-2.1025212 -6.197382 0.34096873 14
-2.0804427 -6.128788 0.11230623 12
-0.61466253 -1.8055596 -0.50081509 2
-0.69721711 -2.0468907 -0.49039361 2
-2.0992591 -6.1594853 -1.2563031 13
-2.0972159 -6.1499753 -1.0230823 13
-2.0973306 -6.1467996 -0.79276091 13
-2.0803225 -6.0934725 -0.55997652 12
-2.102603 -6.1552205 -0.33774766 11
-2.086813 -6.1055131 -0.11083862 12
-1.665903 -4.871253 1.3682609 16
-1.7442985 -5.0975823 1.2340477 12
-1.8296278 -5.3439059 1.0894942 14
-1.9250016 -5.6192703 0.93366587 18
-1.925686 -5.6180696 0.72451317 28
-2.0904448 -6.095274 0.56041139 14
-2.0982106 -6.11444 0.33678186 14
-2.0742247 -6.0411072 0.11082277 12
-0.61309952 -1.7805706 -0.49434459 2
-0.70911849 -2.0582628 -0.49376786 2
-2.0951533 -6.0778751 -1.241052 13
-2.092907 -6.0679207 -1.0105675 13
-2.0928705 -6.0643811 -0.78301138 13
-2.0771937 -6.0155516 -0.5534398 13
-2.0979867 -6.0723319 -0.33357471 12
-2.083612 -6.027318 -0.10954276 12
-1.6828966 -4.8654084 1.3682609 16
-1.7636751 -5.096067 1.2351716 13
-1.8498764 -5.3421249 1.0904474 14
-1.9478383 -5.6218491 0.93522841 17
-1.9469105 -5.6160021 0.72512257 27
-2.0872238 -6.0173516 0.55387473 14
-2.0933471 -6.0316048 0.33259499 15
-2.0723398 -5.9677129 0.1096011 13
-0.62438887 -1.7919936 -0.49822688 2
-0.71665764 -2.05565 -0.49376786 2
-2.0915501 -5.9960041 -1.225801 13
-2.09235 -5.9949322 -0.99961704 13
-2.0905411 -5.9863915 -0.77387118 13
-2.0745831 -5.9373646 -0.54690313 14
-2.0938632 -5.9891868 -0.32940179 12
-2.080929 -5.9488573 -0.10824692 12
-1.7023137 -4.8637662 1.3695542 15
-1.7823412 -5.0895686 1.2351716 13
-1.8710668 -5.339941 1.0914006 15
-1.9700643 -5.6193323 0.93600976 17
-1.9691238 -5.6135116 0.72573191 27
-2.0845208 -5.9391623 0.54733807 14
-2.0889692 -5.9485145 0.32840812 14
-2.0709972 -5.8940463 0.10837944 13
-0.63064027 -1.7898033 -0.49822688 2
nan nan nan 0
-2.0879757 -5.9192348 -1.2115031 13
-2.0886092 -5.9177389 -0.98788446 13
-2.0866373 -5.9088645 -0.76473099 13
-2.0720639 -5.864337 -0.54080224 13
-2.089792 -5.9112263 -0.32548964 13
-2.0766749 -5.8708615 -0.10695107 12
-1.7208923 -4.8623471 1.3708473 15
-1.8017228 -5.0879087 1.2362955 13
-1.8913345 -5.3380036 1.0923538 14
-1.9929676 -5.6217308 0.93757242 15
-1.9920247 -5.6159582 0.72695059 23
-2.0802503 -5.8614388 0.54080141 15
-2.0846577 -5.8706064 0.32448292 15
-2.0681329 -5.8208284 0.10715777 13
nan nan nan 0
-0.73027539 -2.0508518 -0.49376786 2
-2.0818515 -5.8432922 -1.1972053 13
-2.0823166 -5.841372 -0.97615182 13
-2.0818491 -5.8368397 -0.75620013 13
-2.0670388 -5.7921214 -0.53470129 13
-2.0848453 -5.8387985 -0.32183832 12
-2.0715611 -5.7983985 -0.10574161 13
-1.737785 -4.861465 1.3721406 15
-1.8176981 -5.0822234 1.2362955 13
-1.9097488 -5.336657 1.0933069 15
-2.0106192 -5.6154418 0.93757242 16
-2.0113316 -5.6143446 0.72755992 28
-2.0751243 -5.7892299 0.53470045 14
-2.0778062 -5.7935286 0.32055771 14
-2.0627637 -5.7484283 0.1059361 12
nan nan nan 0
nan nan nan 0
-2.0772843 -5.7667217 -1.1829075 13
-2.0792518 -5.7690253 -0.96520144 13
-2.0803251 -5.768847 -0.74827862 14
-2.0635774 -5.7192764 -0.52860039 13
-2.0814772 -5.7657342 -0.318187 12
-2.0663135 -5.7206035 -0.10444576 12
-1.7563858 -4.8599119 1.3734338 16
-1.8370839 -5.0804291 1.2374194 13
-1.9300354 -5.3345737 1.0942601 14
-2.0318894 -5.6130328 0.93835366 19
-2.0342972 -5.6166215 0.72877866 28
-2.0698643 -5.7117071 0.52816379 15
-2.0741885 -5.7205224 0.3168942 16
-2.0589483 -5.6753998 0.10471444 12
nan nan nan 0
nan nan nan 0
-2.0748818 -5.6945057 -1.1695628 12
-2.0767016 -5.6964097 -0.95425099 13
-2.0793471 -5.7005739 -0.7403571 13
-2.0606184 -5.6461673 -0.5224995 13
-2.0786178 -5.6924019 -0.31453565 13
-2.0632484 -5.6472521 -0.10323629 13
-1.7758446 -4.8579779 1.3747271 17
-1.8573657 -5.0782371 1.2385432 13
-1.9512614 -5.3320732 1.0952133 15
-2.0473545 -5.5916357 0.93600976 12
-2.0548694 -5.609128 0.72877866 31
-2.0667856 -5.638608 0.5220629 15
-2.0727913 -5.6519399 0.31349236 15
-2.0556257 -5.6021094 0.10349277 11
nan nan nan 0
nan nan nan 0
-2.0709965 -5.6227469 -1.1562183 13
-2.0726657 -5.6242523 -0.94330055 13
-2.075197 -5.6280932 -0.73182619 13
-2.0579023 -5.5781894 -0.51683432 13
-2.0742688 -5.6195321 -0.31088433 12
-2.0604327 -5.5790501 -0.10211321 13
-1.7927912 -4.8517494 1.3747271 15
-1.8767704 -5.076293 1.2396672 14
-1.9715649 -5.329833 1.0961666 15
-2.0377195 -5.5057187 0.92272747 9
-2.0658195 -5.5786514 0.72573191 16
-2.0639586 -5.5706401 0.51639777 16
-2.0682099 -5.5791249 0.30982885 15
-2.0508292 -5.5292783 0.10227109 12
nan nan nan 0
nan nan nan 0
-2.0683484 -5.5556855 -1.1438267 11
-2.0698757 -5.5568213 -0.93313229 13
-2.0722997 -5.5603619 -0.72390473 14
-2.0529974 -5.5056329 -0.51073343 13
-2.0711823 -5.5514407 -0.30749381 13
-2.055418 -5.5062537 -0.10090375 14
-1.8114061 -4.8499866 1.3760203 16
-1.8961838 -5.0742745 1.2407911 13
-1.9918761 -5.3275156 1.0971197 15
-2.0378921 -5.4476914 0.91413307 7
-2.0609255 -5.5063362 0.71720105 10
-2.0606825 -5.5027614 0.51073265 11
-2.0648971 -5.5110869 0.30642703 15
-2.0473044 -5.4612322 0.10113669 12
nan nan nan 0
nan nan nan 0
-2.063529 -5.4841175 -1.1304821 10
-2.0649006 -5.484858 -0.92218196 13
-2.0689549 -5.4927197 -0.71598321 13
-2.0493674 -5.4378414 -0.5050683 13
-2.0676453 -5.4834394 -0.30410329 14
-2.0516856 -5.4382386 -0.099780679 14
-1.8283247 -4.8436341 1.3760203 16
-1.9173275 -5.0767403 1.2430388 14
-2.0121956 -5.3251219 1.0980729 16
-2.0376844 -5.3897314 0.90553868 5
-2.0537965 -5.4294829 0.70806086 10
-2.0569582 -5.4349747 0.50506753 11
-2.0611353 -5.4431415 0.30302519 15
-2.04333 -5.3932781 0.10000229 12
nan nan nan 0
nan nan nan 0
-2.0582354 -5.4126515 -1.1171374 8
-2.0612044 -5.417613 -0.91201371 12
-2.0651636 -5.4251695 -0.7080617 13
-2.0452895 -5.370142 -0.49940318 13
-2.0654376 -5.4201984 -0.30097359 13
-2.0492842 -5.3749886 -0.09874399 14
-1.8469424 -4.8417354 1.3773136 16
-1.9367741 -5.0745683 1.2441628 12
-2.0325227 -5.3226514 1.0990261 21
-2.0370972 -5.3318386 0.89694422 16
-2.0532441 -5.3712888 0.70135802 7
-2.0545652 -5.3719335 0.49983817 12
-2.0587087 -5.3799529 0.29988503 15
-2.0389061 -5.3254189 0.098867878 13
nan nan nan 0
nan nan nan 0
-2.0542293 -5.3458724 -1.1047461 7
-2.0570645 -5.3504615 -0.9018454 12
-2.060926 -5.3577132 -0.70014018 13
-2.0425534 -5.3071871 -0.49417382 14
-2.0610192 -5.3523798 -0.29758307 12
-2.0446696 -5.3071575 -0.097620927 13
-1.8655691 -4.8397655 1.3786069 16
-1.9562291 -5.0723228 1.2452867 12
-2.0422547 -5.2926273 1.0942601 9
-2.0361311 -5.2740169 0.88834983 12
-2.0487349 -5.3039079 0.69343656 9
-2.049962 -5.3043303 0.49417308 11
-2.0540657 -5.3121915 0.29648319 16
-2.0340338 -5.2576571 0.097733468 13
nan nan nan 0
nan nan nan 0
-2.0551116 -5.2929139 -1.0952141 6
-2.0524809 -5.2834058 -0.89167714 13
-2.0580409 -5.2949796 -0.692828 14
-2.039403 -5.2443171 -0.48894444 13
-2.0579636 -5.2893124 -0.29445338 13
-2.0414197 -5.2440829 -0.096584238 14
-1.8859572 -4.8422246 1.3811933 16
-1.975692 -5.070003 1.2464106 13
-2.0393217 -5.2305903 1.0828218 8
-2.0329912 -5.2116656 0.87897414 12
-2.0455842 -5.2412462 0.68612432 7
-2.0449121 -5.236825 0.48850796 12
-2.0507922 -5.2491794 0.29334304 16
-2.0305336 -5.1946507 0.096686326 13
nan nan nan 0
nan nan nan 0
-2.0484796 -5.2217383 -1.0818695 4
-2.0492589 -5.2210445 -0.88229108 14
-2.0529289 -5.2277122 -0.68490648 13
-2.0358388 -5.1815343 -0.48371509 14
-2.0544932 -5.2263322 -0.29132366 11
-2.037755 -5.181097 -0.095547557 14
-1.904617 -4.840106 1.3824866 17
-1.9969471 -5.0721421 1.2486584 14
-2.0341818 -5.164072 1.0704304 7
-2.0294416 -5.1494021 0.86959845 12
-2.0402014 -5.1740561 0.67820287 8
-2.0394158 -5.1694202 0.48284283 12
-2.0452704 -5.1816106 0.28994119 12
-2.0266185 -5.1317339 0.095639184 14
nan nan nan 0
nan nan nan 0
-2.0703113 -5.2236819 -1.0837759 6
-2.0456271 -5.158771 -0.87290502 14
-2.0492032 -5.1651587 -0.6775943 14
-2.0318615 -5.1188416 -0.47848576 15
-2.0506082 -5.1634412 -0.28819397 12
-2.0355217 -5.1228471 -0.094597265 13
-1.9232849 -4.8379173 1.3837799 17
-2.011039 -5.056087 1.2464106 17
-2.0322323 -5.1067748 1.0599453 7
-2.0254822 -5.0872278 0.8602227 11
-2.0343745 -5.1069679 0.67028135 10
-2.0297861 -5.0928645 0.47630611 12
-2.041152 -5.1187844 0.28680104 13
-2.0241413 -5.0735512 0.094679296 14
nan nan nan 0
nan nan nan 0
nan nan nan 0
-2.0415854 -5.0965877 -0.86351895 14
-2.0450659 -5.1026959 -0.67028213 15
-2.0274715 -5.0562401 -0.47325641 15
-2.0463092 -5.1006413 -0.28506422 13
-2.0310447 -5.0600371 -0.093560584 13
-1.9419606 -4.8356562 1.3850732 17
-2.026859 -5.0445147 1.2452867 14
-2.0280771 -5.045001 1.0485071 7
-2.0229564 -5.0297256 0.85162824 13
-2.0318093 -5.0491915 0.66357851 9
-2.0326691 -5.0487838 0.47281989 12
-2.0366201 -5.0560498 0.28366089 12
-2.0212836 -5.0154495 0.093719415 13
nan nan nan 0
nan nan nan 0
-2.0736527 -5.1324711 -1.0675716 3
-2.0353777 -5.0352068 -0.85413289 14
-2.0406187 -5.0456376 -0.66357929 15
-2.0227945 -4.9990549 -0.46846285 14
-2.0417125 -5.0432763 -0.28219533 13
-2.0262864 -5.0026617 -0.092610285 14
-1.9589565 -4.8340073 1.3863664 18
-2.0298827 -5.0065174 1.2374194 8
-2.0236208 -4.9885726 1.038022 8
-2.0183184 -4.9730091 0.84303385 13
-2.0271237 -4.9922042 0.65687573 9
-2.0297728 -4.9962263 0.46846214 11
-2.031812 -4.998744 0.2807824 12
-2.0163143 -4.9581347 0.092759535 14
nan nan nan 0
nan nan nan 0
-0.97325814 -2.3848965 -0.49279872 4
-2.0324073 -4.9777784 -0.84552896 14
-2.037575 -4.9879479 -0.6568765 14
-2.0195034 -4.9412456 -0.46366924 13
-2.0385158 -4.98528 -0.27932644 13
-2.0229142 -4.9446616 -0.09166 15
-1.9758183 -4.8271394 1.3863664 18
-2.0233436 -4.9407892 1.2228086 8
-2.0205522 -4.9315186 1.027537 8
-2.0150602 -4.915668 0.8344394 12
-2.023823 -4.9345913 0.65017295 8
-2.0282917 -4.9430294 0.46410432 11
-2.0283895 -4.9408116 0.27790391 11
-2.0146148 -4.9048223 0.091886915 14
nan nan nan 0
nan nan nan 0
-0.98386389 -2.3858511 -0.49375188 5
-2.0299196 -4.9200792 -0.83692509 14
-2.0350139 -4.9299865 -0.65017366 13
-2.016686 -4.8831687 -0.45887569 15
-2.0357995 -4.9270124 -0.27645755 13
-2.0200148 -4.8863935 -0.090709709 15
-1.9953433 -4.8243284 1.3876597 23
-2.024673 -4.8928232 1.2126935 17
-2.0179605 -4.8741946 1.0170519 7
-2.0122745 -4.8580608 0.825845 12
-2.0209961 -4.876709 0.64347011 8
-2.0254102 -4.8849497 0.45931077 11
-2.0254395 -4.8826118 0.27502546 13
-2.0114985 -4.8466148 0.090927035 14
-0.72524446 -1.7431456 -0.4956387 2
nan nan nan 0
-0.98652494 -2.368809 -0.49089235 6
-2.0280874 -4.8673778 -0.82910329 15
-2.0312054 -4.8724656 -0.64347082 14
-2.0126281 -4.825531 -0.45408213 14
-2.0318339 -4.8691874 -0.27358866 14
-2.0177989 -4.8331785 -0.089845806 14
-2.0158944 -4.8262477 1.3902462 28
-2.0229537 -4.8407726 1.2014544 13
-2.0141354 -4.8173079 1.0065668 7
-2.0101616 -4.8054466 0.81803191 12
-2.0188472 -4.8238449 0.63737667 8
-2.0232115 -4.8319049 0.45495296 11
-2.0231776 -4.8294582 0.27240863 12
-2.0071471 -4.7888465 0.089967147 14
nan nan nan 0
nan nan nan 0
-1.002399 -2.3834488 -0.49470508 6
-2.0239971 -4.8101983 -0.82049942 14
-2.0270202 -4.815032 -0.63676804 15
-2.0101259 -4.7725716 -0.44972432 14
-2.0294285 -4.816051 -0.27098054 14
-2.0132942 -4.775434 -0.088895515 14
-2.0195892 -4.7880301 1.3811933 11
-2.0208964 -4.7887955 1.1902153 13
-2.0118473 -4.7650299 0.99703497 7
-2.0057847 -4.7483578 0.80943751 12
-2.0144219 -4.7664847 0.63067383 8
-2.0187278 -4.7743483 0.45015943 11
-2.0186243 -4.7717819 0.26953018 12
-2.0043659 -4.7357726 0.089094535 13
-0.73550981 -1.7335939 -0.49434459 2
-0.85252225 -2.0084167 -0.49489263 2
-1.0068754 -2.3708997 -0.49279872 6
-2.0214634 -4.7576518 -0.81267768 15
-2.022459 -4.7576885 -0.6300652 16
-2.0053296 -4.715106 -0.44493076 14
-2.0247223 -4.7583981 -0.26811165 14
-2.0103693 -4.7223787 -0.088031612 14
-2.0154717 -4.7320719 1.3669676 9
-2.0185008 -4.7368908 1.1789763 13
-2.0092189 -4.7128272 0.98750305 8
-2.0029716 -4.6959014 0.80162442 12
-2.0115695 -4.7137794 0.62458038 8
-2.0158229 -4.7214632 0.44580162 12
-2.0156548 -4.7187891 0.26691335 12
-2.0012386 -4.6827769 0.088221908 15
-0.73394948 -1.7132584 -0.48916823 3
-0.85185081 -1.987517 -0.49039361 2
-1.0170796 -2.3718817 -0.49375188 7
-2.0185881 -4.7051826 -0.804856 15
-2.0175226 -4.7004352 -0.62336236 11
-2.0021219 -4.6623092 -0.44057295 14
-2.0216095 -4.7054243 -0.26550356 14
-2.0070994 -4.6694036 -0.08716771 14
-2.0109882 -4.6762013 1.3527418 9
-2.0157676 -4.6850615 1.1677371 13
-2.0062509 -4.6607018 0.97797126 8
-1.9978632 -4.6389871 0.79302996 13
-2.0083735 -4.6611519 0.61848688 9
-2.0106018 -4.6640835 0.44100806 12
-2.0123401 -4.6658754 0.26429656 13
-1.997766 -4.6298614 0.087349296 14
-0.74375999 -1.7195516 -0.49175641 2
-0.85684842 -1.9800601 -0.48926884 2
-1.0253528 -2.3683169 -0.49375188 7
-2.0153711 -4.6527915 -0.7970342 15
-2.014185 -4.6478291 -0.61726892 10
-1.9985706 -4.6095924 -0.43621519 14
-2.018152 -4.6525311 -0.26289546 13
-2.0034838 -4.616509 -0.086303808 14
-2.0080631 -4.6248503 1.3398093 8
-2.0126979 -4.6333113 1.1564982 13
-2.0029433 -4.6086545 0.96843934 8
-1.9963207 -4.5912237 0.78599817 12
-2.0048351 -4.6086059 0.61239344 8
-2.0069926 -4.6113648 0.43665025 12
-2.0086803 -4.6130424 0.26167977 12
-1.9939483 -4.5770268 0.086476669 14
-0.75169051 -1.7213708 -0.49305049 3
-0.87350714 -1.9993792 -0.49489263 2
-1.0355794 -2.3692207 -0.49470508 7
-2.0118134 -4.6004815 -0.78921252 14
-2.0124936 -4.5998502 -0.61178482 11
-1.996673 -4.5615215 -0.43229315 14
-2.0143499 -4.5997195 -0.26028737 14
-1.9995236 -4.5636969 -0.085439898 14
-2.0048046 -4.5735779 1.3268769 8
-2.0092912 -4.5816383 1.1452591 12
-1.9992974 -4.5566878 0.95890737 7
-1.9924846 -4.5390067 0.77818513 12
-2.0029497 -4.5606847 0.60690933 9
-2.0030403 -4.5587296 0.43229249 13
-2.0066864 -4.5648642 0.25932464 12
-1.9917995 -4.5288534 0.08569131 15
-0.76159108 -1.7275749 -0.4956387 3
-0.87458289 -1.982945 -0.49151835 2
-1.0438433 -2.3655913 -0.49470508 6
-2.0099096 -4.5527706 -0.78217298 15
-2.0104921 -4.55194 -0.60630065 11
-1.9924511 -4.5089636 -0.42793536 14
-2.0102038 -4.5469923 -0.25767931 14
-1.997242 -4.5155416 -0.0846624 14
-2.0012124 -4.5223842 1.3139442 9
-2.0055487 -4.5300469 1.1340201 13
-1.9973011 -4.5092912 0.95032871 7
-1.990309 -4.4913878 0.77115333 13
-1.9987433 -4.508297 0.60081583 9
-2.0007646 -4.5107312 0.42837048 12
-2.0023551 -4.5121918 0.25670785 12
-1.9873101 -4.476181 0.084818684 14
-0.76958042 -1.7293184 -0.49693277 3
-0.88149929 -1.9798801 -0.49151835 2
-1.0520943 -2.3619335 -0.49470508 6
-2.0056872 -4.5006189 -0.77435124 15
-2.0081811 -4.5041008 -0.60081655 11
-1.9899161 -4.461041 -0.42401332 15
-2.0057149 -4.49435 -0.25507119 14
-1.9926103 -4.462893 -0.08379849 15
-1.9972874 -4.471272 1.3010117 8
-2.0034587 -4.482986 1.1239049 12
-1.992995 -4.4574838 0.94079685 7
-1.9878256 -4.4438405 0.76412147 12
-1.996223 -4.4605241 0.59533167 9
-1.996143 -4.4582586 0.42401269 12
-1.9997224 -4.4641633 0.25435272 13
-1.984522 -4.4281588 0.084033333 15
-0.77759117 -1.7310271 -0.49822688 3
-0.88640803 -1.9723476 -0.49039361 2
-1.0603327 -2.3582466 -0.49470508 6
-2.0031514 -4.4530568 -0.76731163 15
-2.0055606 -4.4563332 -0.59533238 12
-1.9850261 -4.4086494 -0.41965556 15
-2.0029335 -4.4463482 -0.25272393 14
-1.9896898 -4.4148903 -0.083020978 14
-1.9950155 -4.4246459 1.2893724 9
-2.0010648 -4.4359961 1.1137898 12
-1.9903709 -4.4102359 0.93221813 7
-1.9850347 -4.3963652 0.75708967 12
-1.9933937 -4.4128246 0.58984756 9
-1.9932311 -4.4104128 0.42009068 13
-1.996779 -4.4162087 0.25199762 13
-1.9834838 -4.3847656 0.083335236 14
-0.78163451 -1.7239035 -0.49693277 3
-0.89328736 -1.9692414 -0.49039361 2
-1.0665295 -2.3500612 -0.49375188 6
-2.0003083 -4.4055676 -0.76027209 15
-2.0026317 -4.4086399 -0.58984828 11
-1.9818558 -4.3608823 -0.41573355 15
-1.9977752 -4.3938756 -0.25011584 14
-1.9864587 -4.3669629 -0.082243465 14
-1.9924431 -4.3780913 1.2777332 8
-1.9983674 -4.3890772 1.1036747 13
-1.9874417 -4.363061 0.92363942 7
-1.9819368 -4.3489637 0.75005788 13
-1.9902562 -4.3652 0.58436352 9
-1.9920769 -4.3671741 0.41660443 13
-1.993525 -4.3683295 0.24964251 13
-1.9800904 -4.3368859 0.082549877 15
-0.78764725 -1.7211647 -0.49693277 3
-0.89812773 -1.9616814 -0.48926884 2
-1.0747263 -2.3463242 -0.49375188 7
-1.9971585 -4.3581529 -0.7532326 15
-2.0014625 -4.3655329 -0.58497345 11
-1.9804528 -4.317718 -0.4122473 15
-1.9943578 -4.3460317 -0.24776855 14
-1.9850034 -4.3236561 -0.081552342 15
-1.9895698 -4.3316083 1.266094 8
-1.9953671 -4.3422313 1.0935595 12
-1.984207 -4.3159599 0.9150607 8
-1.9805962 -4.3061256 0.74380744 13
-1.9868106 -4.3176513 0.57887936 9
-1.9885625 -4.3194733 0.41268241 13
-1.9920505 -4.3250623 0.24754907 13
-1.9784794 -4.2936249 0.08185178 14
-0.79162544 -1.7140201 -0.4956387 3
-0.90496981 -1.9585344 -0.48926884 2
-1.0829099 -2.3425584 -0.49375188 8
-1.9957752 -4.3152971 -0.74697518 15
-1.9979329 -4.3179841 -0.57948941 11
-1.9766805 -4.2700973 -0.40832528 15
-1.9927293 -4.3027964 -0.24568209 14
-1.9811684 -4.2758765 -0.080774829 15
-1.9863967 -4.2851996 1.2544546 9
-1.9920641 -4.2954607 1.0834444 13
-1.9806685 -4.2689362 0.9064821 8
-1.9769013 -4.2588701 0.73677564 13
-1.9851477 -4.2746816 0.57400459 9
-1.9868382 -4.2763677 0.4091962 13
-1.9881938 -4.2773314 0.24519394 13
-1.9765908 -4.2504282 0.081153691 15
-0.79760361 -1.7112465 -0.4956387 3
-0.9118008 -1.9553635 -0.48926884 2
-1.0910804 -2.338764 -0.49375188 8
-1.9920285 -4.2680292 -0.73993564 15
-1.9961957 -4.2750106 -0.57461458 12
-1.9747082 -4.2270684 -0.40483907 15
-1.9887091 -4.2551026 -0.2433348 14
-1.9791417 -4.2327051 -0.080083713 14
-1.9829237 -4.2388659 1.2428154 8
-1.9905245 -4.2531796 1.0744531 12
-1.9789072 -4.2264352 0.89885652 7
-1.9749959 -4.2161655 0.73052514 13
-1.9811031 -4.227282 0.56852049 9
-1.9848374 -4.2333269 0.40570998 13
-1.9861486 -4.234201 0.24310051 14
-1.9744248 -4.2072973 0.080455594 15
-0.80357218 -1.7084519 -0.4956387 3
-0.91862077 -1.9521687 -0.48926884 2
-1.0992376 -2.3349411 -0.49375188 7
-1.9900806 -4.2253079 -0.73367828 15
-1.9920678 -4.227613 -0.56913048 12
-1.9745837 -4.1886115 -0.40178862 15
-1.9865106 -4.2120061 -0.24124834 14
-1.9768381 -4.1896014 -0.07939259 15
-1.9812139 -4.1969771 1.2324693 9
-1.9887142 -4.2109618 1.0654619 13
-1.9747767 -4.1795607 0.89027792 8
-1.9728168 -4.1735268 0.72427464 13
-1.978874 -4.1844506 0.56364572 9
-1.9825604 -4.1903534 0.40222374 13
-1.983827 -4.1911373 0.24100707 14
-1.9741215 -4.1687517 0.07984475 15
-0.80953085 -1.7056364 -0.4956387 3
-0.92542952 -1.9489503 -0.48926884 2
-1.1073813 -2.3310897 -0.49375188 7
-1.9878588 -4.182653 -0.72742087 15
-1.9897645 -4.1847787 -0.56425571 12
-1.9720755 -4.1457095 -0.39830235 16
-1.9840357 -4.1689768 -0.23916186 15
-1.9742577 -4.1465654 -0.078701466 16
-1.9771587 -4.1507916 1.2208301 8
-1.9845376 -4.1644106 1.0553467 12
-1.9724557 -4.137198 0.8826524 7
-1.9703642 -4.1309552 0.71802419 13
-1.9742328 -4.137207 0.55816156 9
-1.980008 -4.1474471 0.39873752 13
-1.9812291 -4.1481423 0.23891364 14
-1.9714181 -4.1257496 0.079146661 15
-0.81339365 -1.6984444 -0.49434459 3
-0.93222702 -1.945708 -0.48926884 2
-1.1155117 -2.3272102 -0.49375188 6
-1.985364 -4.1400652 -0.72116351 15
-1.9871866 -4.1420121 -0.55938089 11
-1.9714473 -4.107367 -0.3952519 15
-1.983446 -4.1305175 -0.23733619 15
-1.9735662 -4.1081052 -0.07809674 15
-1.9748977 -4.1090393 1.210484 9
-1.982172 -4.1223316 1.0463555 13
-1.9698629 -4.094902 0.87502682 8
-1.9697804 -4.0929017 0.71255505 13
-1.9714389 -4.0945187 0.55328679 9
-1.9771805 -4.1046109 0.39525127 13
-1.9805226 -4.1097145 0.23708187 14
-1.9684386 -4.0828171 0.078448564 15
-0.8193174 -1.6955948 -0.49434459 2
-0.94113362 -1.9468286 -0.49039361 2
-1.1257653 -2.3277206 -0.49470508 6
-1.980445 -4.093101 -0.71412396 16
-1.9864969 -4.1037817 -0.55511546 12
-1.9684047 -4.0645967 -0.39176565 16
-1.9804351 -4.0876203 -0.23524971 15
-1.9704498 -4.0652022 -0.077405617 15
-1.9723697 -4.0673542 1.2001381 9
