# .PCD v0.7 - Point Cloud Data file format
VERSION 0.7
FIELDS x y z intensity
SIZE 4 4 4 4
TYPE F F F F
COUNT 1 1 1 1
WIDTH 1387
HEIGHT 1
VIEWPOINT 0 0 0 1 0 0 0
POINTS 1387
DATA ascii
1.6966958 -2.7730994 0.28107727 15
1.7003087 -2.7800941 0.16878346 13
1.6992651 -2.7794776 0.056196745 32
nan nan nan 0
1.1488062 -1.8835247 -0.50051636 3
1.3894336 -2.2789402 -0.51090926 4
1.6955669 -2.78215 -0.5099768 6
1.7007383 -2.7917318 -0.39668515 6
1.7064282 -2.8021722 -0.28369236 10
1.6996902 -2.7922044 -0.16874342 15
1.7012411 -2.795851 -0.055894457 14
1.7040353 -2.801544 0.86777228 16
1.6980051 -2.7927275 0.74514896 15
1.6998053 -2.7967877 0.62815106 14
1.7045478 -2.8056943 0.51332086 12
1.6968386 -2.7941041 0.39668468 15
1.6973445 -2.7960365 0.28282037 15
1.698365 -2.7988188 0.16956849 12
1.6973307 -2.7982154 0.056458529 32
nan nan nan 0
1.13718 -1.8791872 -0.49826688 3
1.3814702 -2.283776 -0.51090926 4
1.7037321 -2.8176334 -0.51545197 5
1.6986847 -2.8103936 -0.3985132 6
1.7043638 -2.8209014 -0.28499973 9
1.6976774 -2.8109431 -0.16952586 15
1.6992229 -2.8146122 -0.056153629 14
1.7042277 -2.8240156 0.87294525 16
1.6957961 -2.8111532 0.74852067 14
1.6976359 -2.8153138 0.63101065 14
1.7023921 -2.8243163 0.51566482 13
1.6947589 -2.8127625 0.39851275 14
1.6978536 -2.8190117 0.28456348 14
1.6988865 -2.821841 0.17061521 12
1.6978638 -2.8212566 0.056807578 32
0.99946225 -1.6640422 -0.50987375 4
1.1381367 -1.895676 -0.50164115 3
1.3709642 -2.2843759 -0.50995612 4
1.6989675 -2.8320329 -0.51701629 5
1.6965209 -2.8290741 -0.40034124 6
1.7047502 -2.8439224 -0.28674284 10
1.6955544 -2.8297014 -0.17030828 14
1.6996628 -2.8376813 -0.056499191 14
1.7018026 -2.8423789 0.87682498 15
1.695981 -2.8337774 0.75301629 13
1.6978776 -2.8380709 0.63482338 15
1.7026619 -2.8471956 0.51879007 13
1.6951154 -2.8356998 0.40095013 14
1.6982228 -2.8420243 0.28630662 14
1.6967074 -2.8406136 0.17140025 13
1.695694 -2.8400431 0.057069365 31
0.99393862 -1.6673476 -0.50987375 4
1.1246917 -1.8866879 -0.49826688 3
1.363781 -2.2886717 -0.50995612 4
1.6900618 -2.8373563 -0.51701629 5
1.6952415 -2.8471825 -0.40216929 6
1.7059973 -2.8663847 -0.28848594 9
1.6943153 -2.8478878 -0.17109071 15
1.6984056 -2.8558974 -0.056758359 14
1.7027367 -2.8643179 0.881998 15
1.6945366 -2.8516569 0.75638807 13
1.6964734 -2.856051 0.63768297 15
1.7012728 -2.8652699 0.52113402 13
1.6937972 -2.8538141 0.40277815 14
1.699452 -2.8644805 0.28804973 14
1.695416 -2.8588142 0.17218529 12
1.6969608 -2.8625579 0.057418413 30
0.98840398 -1.6706343 -0.50987375 4
1.1255392 -1.9031827 -0.50164115 3
1.3557837 -2.2934182 -0.50995612 4
1.6826599 -2.8474903 -0.51779848 5
1.6953887 -2.8701742 -0.40460667 6
1.7035788 -2.8851898 -0.28979328 9
1.691978 -2.8666849 -0.17187312 14
1.6985877 -2.8790312 -0.057103917 14
1.7000887 -2.8827252 0.88587779 16
1.6919949 -2.8701456 0.75975972 13
1.6964611 -2.87887 0.64149576 14
1.7012868 -2.8882117 0.52425927 12
1.6938975 -2.8768151 0.40521553 15
1.699549 -2.8875656 0.28979284 14
1.6955543 -2.8819292 0.173232 12
1.694561 -2.8813915 0.057680197 31
0.98471814 -1.6784114 -0.51116782 4
1.1234852 -1.9157001 -0.50389069 3
1.3498509 -2.3026063 -0.51090926 4
1.6747086 -2.857899 -0.51858068 4
1.6923826 -2.8892155 -0.40643471 6
1.70306 -2.9086077 -0.29153642 9
1.6890262 -2.8857951 -0.17265557 13
1.6955978 -2.8981829 -0.057363093 15
1.6992645 -2.9056137 0.89105082 15
1.691299 -2.893152 0.76425534 13
1.6933271 -2.8977818 0.6443553 15
1.6981622 -2.9072211 0.52660316 13
1.6908489 -2.8958611 0.40704358 14
1.6989974 -2.9109831 0.29153597 14
1.6925284 -2.9010627 0.17401704 11
1.6940627 -2.9048572 0.058029246 31
0.97399461 -1.6734902 -0.50857961 4
1.1143414 -1.915399 -0.50276589 2
1.3418052 -2.3073041 -0.51090926 4
1.6647224 -2.8637276 -0.51858068 4
1.6922605 -2.9122691 -0.40887213 6
1.700402 -2.9274561 -0.29284373 9
1.6864642 -2.9046273 -0.17343798 14
1.6955085 -2.9213791 -0.057708651 15
1.6963826 -2.9240606 0.8949306 15
1.6885221 -2.9116819 0.76762706 13
1.6930479 -2.9206607 0.64816803 15
1.6979078 -2.930223 0.52972841 12
1.6881924 -2.914629 0.40887165 14
1.6988087 -2.9341385 0.29327908 14
1.6923962 -2.9242396 0.17506377 12
1.6939263 -2.928062 0.058378298 29
0.96814704 -1.6768799 -0.50857961 4
1.1076486 -1.9192771 -0.50276589 3
1.333743 -2.3119738 -0.51090926 4
1.6571832 -2.8737991 -0.51936287 4
1.6919979 -2.9353569 -0.41130951 6
1.697633 -2.9463212 -0.2941511 9
1.683791 -2.9234774 -0.17422041 11
1.6927838 -2.9402773 -0.057967823 14
1.6958019 -2.9467092 0.90010357 16
1.6880656 -2.9344509 0.77212268 13
1.6926295 -2.9435728 0.65198076 14
1.6975133 -2.9532585 0.53285366 12
1.6878977 -2.9377162 0.41130903 14
1.6984791 -2.9573276 0.29502219 14
1.6896362 -2.9431202 0.1758488 12
1.6911598 -2.9469652 0.058640081 31
0.95988762 -1.6760581 -0.50728554 4
1.1009423 -1.9231317 -0.50276589 3
1.3256646 -2.3166156 -0.51090926 4
1.6495936 -2.8838527 -0.520145 4
1.6915946 -2.958478 -0.41374689 6
1.6972247 -2.9695272 -0.29589421 8
1.6834836 -2.9466791 -0.17526364 5
1.6924267 -2.9635332 -0.058313385 13
1.6950835 -2.9693885 0.9052766 15
1.6874709 -2.9572518 0.7766183 13
1.6920717 -2.9665172 0.65579355 14
1.6945328 -2.9720371 0.53519756 12
1.6850047 -2.9565251 0.41313705 14
1.6980081 -2.9805501 0.2967653 13
1.689236 -2.9663558 0.17689553 11
1.6907551 -2.9702291 0.05898913 29
0.95403117 -1.6793985 -0.50728554 4
1.091817 -1.9227268 -0.50164115 3
1.31757 -2.3212287 -0.51090926 4
1.6419541 -2.8938887 -0.52092719 4
1.6934986 -2.9859483 -0.41679361 7
1.6942183 -2.9884326 -0.29720154 8
1.6805731 -2.96557 -0.17604607 14
1.6894639 -2.9824724 -0.058572553 12
1.696607 -2.9963017 0.91174281 16
1.6867372 -2.9800842 0.78111392 12
1.6889572 -2.9852214 0.65865314 14
1.6938725 -2.9951289 0.53832281 13
1.6844434 -2.9796696 0.41557443 14
1.6973956 -3.0038049 0.29850841 13
1.6862384 -2.9852769 0.17768057 11
1.6902087 -2.9935257 0.059338178 28
0.94816315 -1.6827185 -0.50728554 4
1.0850989 -1.9265262 -0.50164115 3
1.3094594 -2.3258138 -0.51090926 3
1.6342647 -2.9039063 -0.52170938 4
1.6879318 -3.0004921 -0.41801229 9
1.693542 -3.0116949 -0.29894465 9
1.6799976 -2.9888291 -0.17708932 9
1.688838 -3.0057847 -0.058918115 13
1.695598 -3.0190501 0.91691583 15
1.6858647 -3.0029471 0.78560954 12
1.6881347 -3.0082204 0.66246587 14
1.6930716 -3.0182521 0.54144806 12
1.6837407 -3.0028458 0.41801181 13
1.6942059 -3.0227466 0.29981574 14
1.6855696 -3.0085692 0.17872728 11
1.6895199 -3.0168548 0.059687223 28
0.9446398 -1.6902338 -0.50857961 4
1.0783674 -1.9303021 -0.50164115 3
1.2989397 -2.3260851 -0.50995612 4
1.6217111 -2.9052813 -0.52092719 4
1.6774478 -3.0063658 -0.41801229 9
1.6902976 -3.0306385 -0.30025199 8
1.6792799 -3.0121198 -0.17813255 10
1.6856364 -3.0247629 -0.059177287 13
1.6944509 -3.0418282 0.9220888 15
1.6872232 -3.030097 0.79122907 12
1.684785 -3.0269611 0.66532546 14
1.6921299 -3.0414062 0.54457331 12
1.6828966 -3.0260534 0.4204492 13
1.693325 -3.0460565 0.30155888 14
1.6847588 -3.0318928 0.179774 11
1.6886888 -3.0402153 0.060036272 29
0.93873405 -1.693521 -0.50857961 4
1.0716228 -1.9340546 -0.50164115 3
1.2908123 -2.330605 -0.50995612 4
1.6067761 -2.9022834 -0.51936287 4
1.6645406 -3.0078609 -0.41740298 8
1.6893525 -3.0539544 -0.3019951 8
1.6784202 -3.0354421 -0.17917578 10
1.684741 -3.0481298 -0.059522845 13
1.6908296 -3.0604069 0.92596859 16
1.6860571 -3.0530274 0.79572469 13
1.6836972 -3.0500119 0.66913819 14
1.6910468 -3.06459 0.54769856 12
1.6819112 -3.0492921 0.42288661 13
1.6923015 -3.0693963 0.30330199 13
1.6838052 -3.0552473 0.18082072 11
1.6877152 -3.0636065 0.060385324 28
0.93281686 -1.6967874 -0.50857961 4
1.0648651 -1.9377835 -0.50164115 3
1.2826691 -2.3350968 -0.50995612 3
1.5942585 -2.9035454 -0.51858068 4
1.6492555 -3.0049517 -0.41618428 7
1.6882651 -3.0773005 -0.30373824 8
1.6774179 -3.0587947 -0.18021902 9
1.6837032 -3.0715275 -0.059868407 13
1.68942 -3.0832331 0.93114161 15
1.6847514 -3.0759866 0.80022031 13
1.6824685 -3.0730915 0.67295092 14
1.6898226 -3.0878031 0.55082375 11
1.6807837 -3.0725598 0.42532399 13
1.6911359 -3.092766 0.3050451 13
1.6827093 -3.0786319 0.18186744 10
1.6865985 -3.0870275 0.060734373 29
0.92688829 -1.7000333 -0.50857961 4
1.0580945 -1.9414887 -0.50164115 3
1.2745103 -2.3395598 -0.50995612 3
1.57939 -2.9004185 -0.51701629 4
1.634011 -3.0019727 -0.41496557 6
1.6870351 -3.1006763 -0.30548134 8
1.6738874 -3.0777907 -0.18100145 10
1.6825222 -3.0949545 -0.060213968 13
1.6878716 -3.1060865 0.93631458 15
1.6809803 -3.0946922 0.80359203 12
1.6810994 -3.0961998 0.67676371 14
1.6884568 -3.1110451 0.553949 12
1.6795142 -3.0958567 0.42776138 13
1.687453 -3.1117861 0.30635244 13
1.6814704 -3.1020458 0.18291415 10
1.6853389 -3.1104782 0.061083421 29
0.92094839 -1.7032584 -0.50857961 4
1.051311 -1.9451703 -0.50164115 3
1.266336 -2.3439944 -0.50995612 3
1.5692561 -2.9059138 -0.51701629 4
1.6188077 -2.998924 -0.41374689 7
1.6856624 -3.1240804 -0.30722445 7
1.6726148 -3.1011939 -0.18204468 10
1.6811981 -3.1184108 -0.060559526 11
1.686184 -3.1289663 0.94148761 15
1.6794099 -3.1176987 0.80808765 11
1.6819162 -3.1236575 0.68152958 14
1.6869491 -3.1343148 0.55707425 12
1.6781024 -3.1191819 0.43019876 13
1.6860172 -3.1352048 0.30809554 12
1.6800885 -3.1254883 0.18396087 11
1.683936 -3.1339574 0.06143247 28
0.91499728 -1.7064626 -0.50857961 4
1.0468161 -1.9531221 -0.50276589 2
1.2581462 -2.3484006 -0.50995612 4
1.5591029 -2.9113739 -0.51701629 4
1.6036452 -2.9958057 -0.41252819 6
1.6841468 -3.1475124 -0.30896756 7
1.6711991 -3.1246254 -0.18308793 9
1.6797305 -3.1418951 -0.060905088 5
1.6866337 -3.156132 0.94795388 14
1.6776991 -3.1407313 0.81258327 11
1.6802499 -3.1468284 0.68534243 14
1.6852998 -3.1576121 0.5601995 12
1.6765481 -3.142535 0.43263614 13
1.6844381 -3.1586511 0.30983865 13
1.6785634 -3.1489587 0.18500759 11
1.6823897 -3.1574643 0.061781514 28
0.90903503 -1.7096462 -0.50857961 4
1.039992 -1.9567642 -0.50276589 2
1.249941 -2.352778 -0.50995612 4
1.5489309 -2.9167984 -0.51701629 4
1.5908514 -2.9970019 -0.41191885 6
1.682488 -3.1709721 -0.3107107 7
1.6696402 -3.1480846 -0.18413116 9
1.6781197 -3.1654072 -0.061250649 15
1.6846526 -3.1790707 0.95312691 15
1.6781281 -3.1680951 0.81820279 12
1.6784422 -3.1700256 0.68915516 13
1.685818 -3.1853001 0.56410605 12
1.6771717 -3.1703014 0.43568286 13
1.6827158 -3.1821249 0.31158176 12
1.6768945 -3.1724565 0.18605432 11
1.6806996 -3.1809983 0.062130563 26
0.90306175 -1.712809 -0.50857961 4
1.0354269 -1.9646926 -0.50389069 3
1.2417207 -2.3571267 -0.50995612 4
1.5364391 -2.9178178 -0.51623416 4
1.5780687 -2.9981453 -0.41130951 6
1.6806859 -3.1944585 -0.31245384 8
1.6679376 -3.171571 -0.18517439 9
1.6786909 -3.1933711 -0.061682601 10
1.6825318 -3.2020345 0.95829988 15
1.6761211 -3.1911869 0.82269841 11
1.6764928 -3.193248 0.69296789 13
1.6838684 -3.2086573 0.5672313 12
1.6753166 -3.1937158 0.43812028 13
1.6831632 -3.2100358 0.31376067 12
1.6750822 -3.1959805 0.18710104 11
1.6788654 -3.2045588 0.062479611 26
0.89737689 -1.7157942 -0.50857961 4
1.028906 -1.9681156 -0.50389069 3
1.2361705 -2.3655815 -0.51090926 4
1.5267547 -2.9228969 -0.51623416 4
1.563524 -2.9945631 -0.4100908 6
1.6816064 -3.2220931 -0.31463271 8
1.666649 -3.1947925 -0.18621762 9
1.6773381 -3.2166514 -0.062028162 10
1.6830664 -3.2290111 0.9647662 14
1.6767856 -3.2183313 0.82831794 12
1.6772301 -3.2205565 0.69773382 14
1.6823405 -3.2317457 0.57035655 11
1.6738796 -3.2168634 0.44055766 13
1.6817027 -3.2332757 0.31550378 12
1.6759911 -3.2236686 0.18840943 11
1.679756 -3.2322886 0.062915921 27
0.89138216 -1.7189162 -0.50857961 4
1.0220296 -1.9716951 -0.50389069 3
1.2279056 -2.3698823 -0.51090926 4
1.5165426 -2.9282084 -0.51623416 4
1.5644692 -3.0220387 -0.41313753 5
1.6795055 -3.2456381 -0.31637582 8
1.6646628 -3.2183309 -0.18726087 10
1.6752837 -3.2402501 -0.06237372 10
1.6806545 -3.2520292 0.96993917 14
1.6744854 -3.2414792 0.83281356 11
1.6749859 -3.2438364 0.70154655 13
1.6823746 -3.259541 0.5742631 11
1.6717421 -3.2403281 0.44299504 12
1.6818212 -3.2612612 0.31768268 12
1.6738793 -3.247252 0.18945615 11
1.6776223 -3.2559085 0.063264973 25
0.88316828 -1.7177221 -0.50728554 4
1.015141 -1.9752505 -0.50389069 3
1.2173829 -2.3697882 -0.50995612 3
1.506312 -2.9334843 -0.51623416 4
1.5584431 -3.0363114 -0.41435623 13
1.6772606 -3.269208 -0.31811893 12
1.6648113 -3.2463372 -0.18856491 10
1.6753653 -3.2683222 -0.062805675 10
1.6781024 -3.27507 0.9751122 15
1.6720442 -3.2646501 0.83730918 11
1.6748363 -3.2715087 0.70631254 13
1.6799855 -3.2829792 0.57738835 12
1.6694609 -3.2638171 0.44543242 12
1.6794971 -3.2848518 0.31942579 13
1.6716231 -3.2708597 0.19050287 10
1.6776181 -3.2840044 0.063701279 26
0.87716693 -1.7207943 -0.50728554 3
1.0082399 -1.9787821 -0.50389069 2
1.2091033 -2.374023 -0.50995612 3
1.4960631 -2.9387245 -0.51623416 4
1.554587 -3.055002 -0.41618428 13
1.6726135 -3.288362 -0.3194263 18
1.6670471 -3.2788343 -0.19012977 14
1.6730063 -3.2919776 -0.063151233 10
1.6775972 -3.3024378 0.98157841 14
1.6716673 -3.2921875 0.84292871 13
1.6745137 -3.2992194 0.71107846 13
1.6796875 -3.3108449 0.58129489 11
1.6670361 -3.2873292 0.44786981 13
1.6792805 -3.3129082 0.32160467 12
1.6714793 -3.2989454 0.19181128 10
1.6751794 -3.3076799 0.064050324 27
0.8711549 -1.7238457 -0.50728554 3
0.99912983 -1.9779407 -0.50276589 3
1.1985968 -2.3738477 -0.50900286 3
1.488021 -2.9483373 -0.51701629 4
1.5394431 -3.0515485 -0.41496557 12
1.652154 -3.2763903 -0.31768319 9
1.6510968 -3.2757158 -0.18960814 13
1.6705024 -3.3156557 -0.063496798 10
1.674749 -3.3255286 0.98675144 14
1.6689277 -3.3154094 0.84742433 11
1.6718116 -3.3225825 0.71489125 13
1.6769962 -3.3343358 0.58442014 11
1.6666962 -3.3152978 0.45091653 13
1.6766521 -3.3365524 0.32334781 12
1.6689184 -3.3226078 0.192858 10
1.6725957 -3.3313782 0.064399377 28
0.86513221 -1.7268761 -0.50728554 3
0.99221945 -1.9814162 -0.50276589 2
1.1903032 -2.3780169 -0.50900286 3
1.47993 -2.9579303 -0.51779848 4
1.526562 -3.0524647 -0.41435623 12
1.6384799 -3.2776821 -0.31724739 7
1.6374204 -3.2769926 -0.18934733 13
1.6678536 -3.3393564 -0.063842356 10
1.6739172 -3.3529606 0.99321771 14
1.6682216 -3.3430121 0.85304385 11
1.6711576 -3.3503587 0.71965712 13
1.6763649 -3.3622675 0.58832669 12
1.6639681 -3.3388624 0.45335394 12
1.6760999 -3.364677 0.32552668 12
1.6684381 -3.3507612 0.19416638 11
1.6698669 -3.3550982 0.064748421 12
0.85909903 -1.7298855 -0.50728554 3
0.98529696 -1.9848676 -0.50276589 2
1.1819952 -2.3821576 -0.50900286 3
1.469596 -2.9630783 -0.51779848 4
1.5136935 -3.0533285 -0.41374689 12
1.6226054 -3.2744553 -0.31637582 7
1.6215392 -3.2737396 -0.18882571 12
1.6650596 -3.3630788 -0.064187914 9
1.6729143 -3.3804274 0.99968398 14
1.6673431 -3.3706496 0.85866338 11
1.6703299 -3.3781712 0.72442311 13
1.6733707 -3.3858082 0.59145188 12
1.6632934 -3.3668971 0.45640066 12
1.6731662 -3.3883715 0.32726982 11
1.6655715 -3.3744748 0.19521311 10
1.6669929 -3.3788402 0.065097474 21
0.85305536 -1.7328738 -0.50728554 3
0.97836244 -1.9882948 -0.50276589 2
1.1758389 -2.3906734 -0.50995612 4
1.4592439 -2.96819 -0.51779848 4
1.5008373 -3.0541399 -0.41313753 13
1.6045778 -3.2666872 -0.31506851 7
1.6079012 -3.2748978 -0.18856491 10
1.6621201 -3.3868222 -0.06453348 9
1.6717397 -3.4079275 1.0061502 14
1.666292 -3.3983216 0.86428291 11
1.6693283 -3.406018 0.72918904 13
1.6724054 -3.4138036 0.59535849 12
1.6624432 -3.394968 0.45944741 12
1.6722772 -3.4165604 0.3294487 12
1.6647538 -3.4026935 0.19652151 10
1.6661694 -3.4070935 0.06553378 17
0.84700131 -1.7358409 -0.50728554 3
0.97141606 -1.9916979 -0.50276589 2
1.1696377 -2.3991752 -0.51090926 3
1.4488741 -2.9732656 -0.51779848 4
1.4879941 -3.0548983 -0.41252819 13
1.5997061 -3.2857034 -0.31637582 5
1.594275 -3.2760005 -0.1883041 11
1.661222 -3.4150815 -0.064965427 9
1.6703935 -3.4354603 1.0126165 14
1.662938 -3.4216452 0.86877853 11
1.666008 -3.4294844 0.73300183 13
1.6691074 -3.4373908 0.59848374 11
1.661417 -3.4230735 0.46249413 12
1.6712117 -3.4447839 0.33162761 12
1.6615807 -3.426455 0.19756822 9
1.6629885 -3.4308832 0.065882832 17
0.8409369 -1.7387869 -0.50728554 3
0.96445781 -1.9950765 -0.50276589 2
1.1633914 -2.4076629 -0.51186246 3
1.4384866 -2.9783049 -0.51779848 4
1.4730062 -3.0511358 -0.41130951 12
1.588227 -3.2912672 -0.31637582 11
1.5784913 -3.2725511 -0.18778248 10
1.6579754 -3.4388723 -0.065310992 9
1.6688752 -3.4630249 1.0190828 14
1.6615558 -3.4493759 0.87439805 11
1.6646732 -3.4573908 0.73776776 12
1.6678069 -3.4654465 0.60239029 11
1.660215 -3.4512129 0.46554089 13
1.6678108 -3.4685526 0.33337072 12
1.6604249 -3.454736 0.19887663 9
1.6618265 -3.4591982 0.066319138 16
0.83486229 -1.7417117 -0.50728554 3
0.95538288 -1.9940377 -0.50164115 2
1.1571 -2.416136 -0.51281571 3
1.4280816 -2.9833081 -0.51779848 4
1.4559208 -3.0428288 -0.40948144 13
1.5788779 -3.3012848 -0.31681162 11
1.5649049 -3.2735362 -0.18752168 12
1.6588937 -3.4717033 -0.065829329 9
1.6671848 -3.4906204 1.0255491 14
1.657901 -3.4727414 0.87889361 10
1.6631638 -3.4853294 0.74253368 13
1.6663305 -3.4935343 0.60629684 11
1.6588366 -3.4793856 0.46858761 12
1.6664071 -3.4968357 0.33554959 11
1.6569446 -3.4785423 0.19992335 9
1.6604868 -3.4875467 0.066755451 16
0.82877755 -1.7446154 -0.50728554 3
0.95050615 -2.0017612 -0.50276589 2
1.1486591 -2.4201603 -0.51281571 3
1.4155425 -2.9838128 -0.51701629 4
1.4389116 -3.03444 -0.40765342 9
1.5673447 -3.306776 -0.31681162 11
1.549193 -3.269954 -0.18700007 8
1.6574631 -3.5000637 -0.066261277 9
1.6653219 -3.5182464 1.0320153 14
1.6582707 -3.5049314 0.88563704 11
1.6614795 -3.5132992 0.74729961 13
1.6646783 -3.5216541 0.61020339 11
1.6572814 -3.5075901 0.47163433 12
1.6648263 -3.5251513 0.3377285 11
1.6554495 -3.5068817 0.20123175 9
1.6568363 -3.5114067 0.067104504 15
0.82298762 -1.747354 -0.50728554 3
0.94421273 -2.0047374 -0.50276589 2
1.1431409 -2.4281979 -0.51376885 3
1.4061615 -2.9882452 -0.51701629 4
1.4230348 -3.0254731 -0.40582538 10
1.5548291 -3.3071756 -0.31637582 13
1.5346651 -3.2657666 -0.18647844 9
1.6570865 -3.5278785 -0.066693231 10
1.664524 -3.5453207 1.0384815 13
1.6576005 -3.5321765 0.89125663 10
1.660856 -3.5407205 0.75206554 12
1.6640891 -3.5492239 0.61410993 11
1.6567839 -3.5352483 0.47468108 12
1.664308 -3.552917 0.33990738 11
1.6571281 -3.5391972 0.20280182 8
1.6563921 -3.5392337 0.06754081 15
0.81718868 -1.7500737 -0.50728554 3
0.93720913 -2.0080211 -0.50276589 2
1.134658 -2.4321733 -0.51376885 3
1.395722 -2.9931355 -0.51701629 4
1.408272 -3.0214257 -0.40460667 9
1.541172 -3.308068 -0.31594005 12
1.5211483 -3.2665772 -0.18621762 9
1.6532 -3.5517707 -0.067038789 15
1.6623253 -3.573005 1.0449479 13
1.6575872 -3.5644474 0.89800006 10
1.658831 -3.5687511 0.75683153 13
1.664175 -3.5818837 0.61879778 11
1.6548847 -3.5635149 0.4777278 12
1.6602845 -3.5767767 0.34165052 11
1.6552713 -3.5676069 0.20411022 10
1.6545442 -3.5676706 0.067977123 16
0.81046283 -1.7531985 -0.50728554 3
0.929492 -2.011605 -0.50276589 2
1.1273688 -2.4409683 -0.51472205 3
1.3821492 -2.993989 -0.51623416 5
1.394581 -3.0223045 -0.4039973 9
1.5242865 -3.3049154 -0.31506851 11
1.5044134 -3.2633247 -0.18569601 9
1.637458 -3.5535519 -0.066952407 14
1.6607168 -3.6056828 1.0527073 14
1.6540755 -3.5929139 0.90361959 10
1.6574265 -3.6018474 0.76255065 12
1.6607277 -3.6106811 0.62270433 11
1.6515546 -3.5923884 0.48077455 13
1.6569376 -3.6057553 0.34382939 11
1.6540651 -3.6011605 0.2056803 5
1.6512623 -3.5967135 0.068413429 14
0.8043381 -1.7560169 -0.50728554 3
0.92246449 -2.014837 -0.50276589 3
1.1188413 -2.4448886 -0.51472205 3
1.3716898 -2.9987953 -0.51623416 5
1.3819592 -3.0226407 -0.40338799 10
1.5106705 -3.3056855 -0.31463271 12
1.4909385 -3.2640142 -0.18543519 10
1.6229674 -3.5546982 -0.06686601 11
1.6581465 -3.6334276 1.0591736 13
1.6536554 -3.6252613 0.91036296 10
1.6550248 -3.6299412 0.76731664 12
1.6583539 -3.6389256 0.62661088 10
1.6513481 -3.6252291 0.48443061 13
1.6546611 -3.6341832 0.3460083 10
1.6538941 -3.6341803 0.20725037 12
1.6490412 -3.6252112 0.068849742 13
0.79851049 -1.7586745 -0.50728554 3
0.91613019 -2.0177252 -0.50276589 2
1.1131834 -2.4528608 -0.51567525 3
1.362262 -3.0030897 -0.51623416 5
1.3704071 -3.0224476 -0.40277863 9
1.4982219 -3.3058784 -0.31419694 11
1.4786167 -3.2641342 -0.18517439 8
1.607668 -3.5506711 -0.066693231 10
1.6586721 -3.6650202 1.0669332 14
1.6522983 -3.6526339 0.91598248 9
1.6537236 -3.6574841 0.77208251 12
1.6570833 -3.6666191 0.63051742 11
1.6501662 -3.6530123 0.48747736 12
1.6534845 -3.6620619 0.34818718 10
1.6527387 -3.6621139 0.20855878 10
1.6479287 -3.6531568 0.069286048 13
0.79267418 -1.7613127 -0.50728554 3
0.91108018 -2.0253539 -0.50389069 3
1.1066273 -2.4612083 -0.51662844 3
1.3497466 -3.0033224 -0.51545197 5
1.3578149 -3.022686 -0.40216929 10
1.4825926 -3.3020003 -0.31332538 13
1.4631249 -3.2601647 -0.18465278 8
1.593218 -3.5517001 -0.066606842 10
1.6577249 -3.6972306 1.0746926 13
1.6514934 -3.6850553 0.92272598 10
1.6529859 -3.6901112 0.77780163 12
1.6563829 -3.6994255 0.63520533 10
1.6495678 -3.6859288 0.49113342 12
1.6528946 -3.6950922 0.35080189 10
1.6521736 -3.6952102 0.21012886 10
1.6474051 -3.6862717 0.069809623 13
0.78621328 -1.7642062 -0.50728554 3
0.90365076 -2.0286796 -0.50389069 2
1.0995954 -2.4697316 -0.51758158 3
1.3387299 -3.0082493 -0.51545197 6
1.3447101 -3.0231075 -0.40155992 11
1.4684566 -3.3028605 -0.31288961 12
1.449138 -3.2609422 -0.18439196 8
1.5781602 -3.5529466 -0.066520452 9
1.6539618 -3.725353 1.0811589 13
1.6478568 -3.7133498 0.9283455 10
1.6494006 -3.7185788 0.78256762 12
1.6548226 -3.7325602 0.63989311 10
1.6461004 -3.7146363 0.49418014 11
1.6494263 -3.7238965 0.35298073 10
1.6507471 -3.7286358 0.21169895 10
1.6439984 -3.7151437 0.070245937 13
0.78200078 -1.7713581 -0.50857961 3
0.89656383 -2.0318217 -0.50389069 3
1.0929486 -2.4780459 -0.51853484 3
1.328221 -3.0129039 -0.51545197 7
1.3301471 -3.0187004 -0.40034124 10
1.4549109 -3.3034079 -0.31245384 11
1.4357347 -3.2614112 -0.18413116 7
1.5617216 -3.5492821 -0.066347674 11
1.6526147 -3.7576311 1.0889184 13
1.6466486 -3.7458398 0.93508887 10
1.6482569 -3.7512753 0.78828669 11
1.6517127 -3.7609227 0.64379972 10
1.6450924 -3.7476249 0.49783626 12
1.6484253 -3.7569993 0.35559544 9
1.6497539 -3.7618113 0.21326901 9
1.6430621 -3.7483311 0.070769504 13
0.7758128 -1.7740771 -0.50857961 3
0.89141715 -2.0394027 -0.50501537 2
1.0842919 -2.4818461 -0.51853484 3
1.3176959 -3.0175219 -0.51545197 7
1.3176166 -3.0187769 -0.3997319 10
1.4413793 -3.303901 -0.31201804 11
1.42035 -3.2572489 -0.18360955 8
1.5473253 -3.5501289 -0.066261277 11
1.6491328 -3.7855165 1.0953847 13
1.6432886 -3.7738998 0.94070846 10
1.6469051 -3.7840095 0.79400587 12
1.6503949 -3.7938371 0.64848763 10
1.6418952 -3.7761002 0.50088298 11
1.6472131 -3.7901394 0.35821012 10
1.6465597 -3.7904458 0.21457741 9
1.6439054 -3.7861431 0.071380332 14
0.76961541 -1.7767744 -0.50857961 3
0.88429284 -2.0425019 -0.50501537 3
1.0775714 -2.4901202 -0.51948798 3
1.3071548 -3.0221031 -0.51545197 7
1.3051016 -3.0188024 -0.39912254 10
1.4258862 -3.2997673 -0.31114647 12
1.4069915 -3.2576027 -0.18334873 7
1.5329422 -3.5509186 -0.066174895 9
1.6473901 -3.8178575 1.1031442 13
1.6416819 -3.8064549 0.94745183 9
1.6453444 -3.8167787 0.79972494 12
1.648867 -3.8267875 0.65317541 10
1.6404818 -3.8091559 0.50453907 12
1.6457895 -3.8233168 0.36082476 10
1.6451592 -3.8236904 0.2161475 9
1.6425292 -3.8194139 0.071903907 19
0.76531279 -1.7838883 -0.50987375 3
0.87715775 -2.0455761 -0.50501537 3
1.0688726 -2.4938664 -0.51948798 3
1.2965977 -3.0266476 -0.51545197 6
1.2926028 -3.0187778 -0.3985132 9
1.4123993 -3.3001451 -0.3107107 11
1.3916839 -3.2533126 -0.18282712 6
1.5185724 -3.5516515 -0.066088498 9
1.6454415 -3.8502328 1.1109037 13
1.6398677 -3.8390446 0.95419526 10
1.6435751 -3.8495834 0.80544412 12
1.6471294 -3.8597736 0.65786332 10
1.6369108 -3.8376834 0.50758582 12
1.6441541 -3.85653 0.36343947 11
1.6415889 -3.8523765 0.21745588 9
1.635064 -3.838922 0.07216569 28
0.75908118 -1.7865489 -0.50987375 3
0.87001204 -2.0486257 -0.50501537 2
1.0582432 -2.4930644 -0.51853484 3
1.2860248 -3.0311549 -0.51545197 7
1.2781823 -3.0141335 -0.39729452 9
1.3989272 -3.3004694 -0.31027493 11
1.3783716 -3.2535532 -0.1825663 6
1.5042163 -3.5523269 -0.066002108 9
1.6432867 -3.8826399 1.1186632 12
1.6378462 -3.8716681 0.96093875 9
1.6415968 -3.8824224 0.81116331 11
1.6451812 -3.8927934 0.66255116 10
1.6350914 -3.8708031 0.51124185 11
1.6423067 -3.8897781 0.36605412 5
1.6397798 -3.8856854 0.21902597 8
1.6099963 -3.8169692 0.071642123 8
0.75315261 -1.7890564 -0.50987375 3
0.86321378 -2.0514994 -0.50501537 2
1.04997 -2.4965599 -0.51853484 3
1.2740523 -3.0308504 -0.51466984 7
1.2662576 -3.0137801 -0.39668515 9
1.3841175 -3.2959054 -0.30940336 11
1.3637098 -3.248898 -0.18204468 6
1.48856 -3.5480757 -0.065829329 10
1.6416088 -3.9147928 1.1264228 12
1.6362979 -3.904038 0.96768212 9
1.6400921 -3.9150071 0.81688237 12
1.6456151 -3.9301155 0.66802037 9
1.6337421 -3.903672 0.51489794 11
1.640932 -3.9227741 0.36866879 12
1.6365157 -3.9141352 0.22033437 8
1.5954024 -3.8176744 0.071554862 7
0.74690306 -1.7916744 -0.50987375 3
0.85604751 -2.0545001 -0.50501537 3
1.039362 -2.4956787 -0.51758158 3
1.2634649 -3.0352793 -0.51466984 7
1.2538236 -3.0136001 -0.39607581 10
1.3706917 -3.2961175 -0.30896756 12
1.3504443 -3.249028 -0.18178387 6
1.4742477 -3.5486331 -0.06574294 10
1.6390468 -3.9472625 1.1341822 13
1.633866 -3.9367251 0.97442561 9
1.6377004 -3.9479103 0.8226015 12
1.6432354 -3.9632077 0.67270821 10
1.6315056 -3.9368591 0.51855403 11
1.6405717 -3.96069 0.37171924 10
1.6343027 -3.9475043 0.22190444 8
1.5782433 -3.8139811 0.071380332 7
0.7388016 -1.7898065 -0.50857961 3
0.84887069 -2.0574758 -0.50501537 3
1.0306439 -2.4992914 -0.51758158 3
1.2528621 -3.0396712 -0.51466984 8
1.2414062 -3.0133696 -0.39546645 10
1.3572812 -3.2962763 -0.30853182 13
1.3352942 -3.244487 -0.18126225 6
1.458048 -3.5445108 -0.065570161 7
1.6362782 -3.9797621 1.1419418 13
1.6330774 -3.9739492 0.98229289 8
1.6350988 -3.9808443 0.82832062 11
1.6406448 -3.996331 0.67739606 10
1.629057 -3.9700773 0.52221012 11
1.6399668 -3.9986517 0.37476969 10
1.6318766 -3.9809051 0.22347453 8
1.563025 -3.814841 0.071293078 6
0.73254955 -1.7923744 -0.50857961 3
0.84168357 -2.0604262 -0.50501537 3
1.0219135 -2.5028737 -0.51758158 3
1.240378 -3.0394535 -0.51388764 10
1.2290057 -3.0130894 -0.39485711 11
1.3438865 -3.2963815 -0.30809602 12
1.3220764 -3.2445045 -0.18100145 6
1.4437808 -3.5449488 -0.065483771 10
1.6351231 -4.0167632 1.1509944 12
1.6302127 -4.0067024 0.98903638 9
1.6341363 -4.0183549 0.834993 11
1.6397022 -4.034059 0.6828652 9
1.6263964 -4.0033264 0.52586621 10
1.6372428 -4.0320425 0.37738436 10
1.6292372 -4.0143366 0.22504459 7
1.5459409 -3.8110087 0.071118549 7
0.72447693 -1.7904435 -0.50728554 3
0.83448619 -2.0633519 -0.50501537 3
1.0150102 -2.5109763 -0.51853484 3
1.2260609 -3.0346069 -0.51232326 11
1.2166222 -3.0127594 -0.39424777 11
1.3305075 -3.2964339 -0.30766025 12
1.3070068 -3.2398381 -0.18047984 5
1.4276589 -3.540694 -0.065310992 9
1.6319245 -4.049325 1.158754 12
1.6289593 -4.044003 0.99690366 9
1.6310983 -4.051353 0.84071207 11
1.6366725 -4.0672474 0.68755311 9
1.6235235 -4.0366054 0.52952224 10
1.6361631 -4.0700831 0.38043481 10
1.6282458 -4.0524321 0.22687636 8
1.5307654 -3.8117423 0.071031287 6
0.71822274 -1.7929616 -0.50728554 3
0.82727873 -2.066252 -0.50501537 3
1.0098863 -2.5236182 -0.52044117 3
1.2099588 -3.0251126 -0.5099768 13
1.2042563 -3.0123796 -0.39363843 10
1.3152963 -3.2918069 -0.30678868 11
1.2938378 -3.2397437 -0.18021902 5
1.4134374 -3.541013 -0.065224595 13
1.6303079 -4.0863991 1.1678067 12
1.6274651 -4.0813427 1.004771 9
1.6296669 -4.0889382 0.84738433 12
1.6352584 -4.105051 0.69302225 10
1.6204377 -4.069912 0.53317839 10
1.6329962 -4.103538 0.38304949 10
1.6270078 -4.0905681 0.22870812 9
1.513757 -3.8077714 0.070856765 6
0.71195978 -1.7954577 -0.50728554 3
0.82006115 -2.0691273 -0.50501537 3
1.0046864 -2.5362544 -0.52234757 3
1.1939378 -3.0155425 -0.50763023 12
1.1919075 -3.0119503 -0.39302906 10
1.3019657 -3.2917464 -0.30635291 11
1.2806854 -3.2395968 -0.17995821 6
1.3992314 -3.541276 -0.065138213 11
1.6266783 -4.1190186 1.1755663 12
1.6257303 -4.118722 1.0126384 9
1.6279931 -4.1265635 0.85405672 12
1.6317887 -4.1382999 0.6977101 10
1.6153195 -4.098629 0.53622508 10
1.6314408 -4.1416535 0.38609993 9
1.6236944 -4.1240988 0.23027821 12
1.4967951 -3.8037283 0.070682235 6
0.70568806 -1.7979319 -0.50728554 3
0.81105441 -2.0674422 -0.50389069 2
1.0029939 -2.5580244 -0.5261603 3
1.1779987 -3.005898 -0.50528377 13
1.1795768 -3.011472 -0.39241973 10
1.2886517 -3.2916329 -0.30591714 11
1.26755 -3.2393975 -0.17969741 6
1.3832197 -3.5368266 -0.064965427 9
1.6245989 -4.1561604 1.1846191 12
1.623754 -4.1561375 1.0205057 9
1.6260761 -4.1642256 0.86072904 11
1.6299024 -4.1761756 0.7031793 10
1.6118238 -4.1319828 0.53988117 10
1.6296393 -4.1798081 0.38915038 9
1.6129144 -4.1390457 0.23080155 14
1.4816941 -3.8042717 0.070594981 7
0.69940782 -1.8003843 -0.50728554 3
0.80383271 -2.0702605 -0.50389069 2
0.99228293 -2.5569341 -0.5252071 3
1.1639272 -3.0007832 -0.50371939 12
1.1672637 -3.0109437 -0.39181039 11
1.2753543 -3.2914665 -0.30548134 12
1.2544314 -3.2391462 -0.17943659 7
1.3690609 -3.5369711 -0.064879037 10
1.6222799 -4.193337 1.1936718 12
1.6215359 -4.1935887 1.028373 8
1.6239159 -4.2019238 0.8674013 11
1.6277711 -4.214087 0.70864844 10
1.6099023 -4.1699915 0.54414654 5
1.6275911 -4.2180009 0.39220086 9
1.5948634 -4.135334 0.23027821 13
1.4648094 -3.8000908 0.070420451 7
0.69485217 -1.8073226 -0.50857961 3
0.7966013 -2.0730541 -0.50389069 2
0.97983193 -2.5512183 -0.52330071 3
1.1516757 -3.0002174 -0.5029372 14
1.1549687 -3.0103664 -0.39120105 11
1.2620736 -3.2912476 -0.30504557 11
1.24133 -3.2388427 -0.17917578 7
1.3549178 -3.5370603 -0.064792648 9
1.6197211 -4.2305484 1.2027246 12
1.6190764 -4.2310758 1.0362405 8
1.6215122 -4.2396579 0.87407368 11
1.6253952 -4.2520347 0.71411759 9
1.6059638 -4.2034016 0.54780269 8
1.625296 -4.2562289 0.39525127 9
1.5804188 -4.1408753 0.23027821 11
1.4497539 -3.8005099 0.07033319 6
0.68853927 -1.8097372 -0.50857961 3
0.78936011 -2.0758219 -0.50389069 2
0.96917677 -2.5500348 -0.52234757 3
1.1411959 -3.0042193 -0.5029372 13
1.1426921 -3.0097404 -0.39059168 10
1.2470431 -3.286319 -0.30417401 11
1.2264755 -3.2338185 -0.17865416 5
1.3390191 -3.5324192 -0.064619869 10
1.6186333 -4.2723093 1.2130706 12
1.6163745 -4.2685957 1.0441077 9
1.6188647 -4.2774258 0.88074601 11
1.6245211 -4.2946358 0.72036815 9
1.6035665 -4.2414761 0.55206805 9
1.6227534 -4.2944918 0.39830172 9
1.5624264 -4.1370249 0.22975484 11
1.4329479 -3.7961936 0.070158668 5
0.6822179 -1.8121296 -0.50857961 3
0.78382498 -2.0831242 -0.50501537 2
0.95854181 -2.5488081 -0.52139437 3
1.1289648 -3.003562 -0.50215507 13
1.1304338 -3.0090647 -0.38998231 11
1.2338132 -3.2859888 -0.30373824 11
1.2099167 -3.2240555 -0.17787173 5
1.3249247 -3.5323906 -0.06453348 10
1.6155781 -4.3095908 1.2221234 12
1.6134304 -4.3061481 1.051975 8
1.615973 -4.3152266 0.88741827 11
1.6216381 -4.3326569 0.72583729 9
1.6026614 -4.2842326 0.55694282 9
1.6182194 -4.3281236 0.40091643 9
1.5462281 -4.1377759 0.22949316 11
1.4179389 -3.7964888 0.070071407 6
0.67588818 -1.8145 -0.50857961 3
0.77654868 -2.0858476 -0.50501537 3
0.94792736 -2.5475385 -0.52044117 3
1.116752 -3.0028555 -0.50137287 13
1.1181943 -3.0083406 -0.38937297 9
1.220601 -3.2856069 -0.30330247 11
1.2125596 -3.265707 -0.17995821 10
1.310847 -3.5323069 -0.06444709 8
1.6139617 -4.3514314 1.2324693 11
1.6119369 -4.3483 1.0609663 8
1.6145426 -4.3576617 0.89504379 11
1.6202244 -4.3753409 0.73208779 9
1.5997549 -4.3223805 0.56120831 8
1.6151981 -4.3664474 0.40396684 10
1.5300437 -4.1384649 0.22923149 10
1.4029452 -3.7967257 0.069984145 6
0.66955036 -1.8168482 -0.50857961 3
0.77094692 -2.0931172 -0.50614017 3
0.93563777 -2.5416198 -0.51853484 3
1.104558 -3.0021005 -0.50059068 13
1.1059736 -3.0075679 -0.38876364 10
1.2074062 -3.2851717 -0.30286667 10
1.2080395 -3.2886677 -0.18100145 11
1.2967858 -3.5321681 -0.064360693 9
1.6120728 -4.393312 1.2428154 11
1.6084917 -4.3859196 1.0688336 9
1.6111461 -4.3955307 0.90171617 11
1.6168332 -4.4134297 0.73755693 9
1.5966012 -4.3605595 0.56547374 9
1.6136404 -4.4094791 0.40745309 13
1.5121582 -4.1344018 0.22870812 9
1.386251 -3.7922094 0.069809623 5
0.66154999 -1.8146367 -0.50728554 3
0.76363587 -2.0957956 -0.50614017 3
0.92508042 -2.5402579 -0.51758158 3
1.092383 -3.0012975 -0.49980852 13
1.0937719 -3.0067463 -0.3881543 10
1.1942295 -3.2846854 -0.3024309 11
1.1982578 -3.2975574 -0.18126225 11
1.2810353 -3.5272753 -0.064187914 9
1.6099108 -4.4352326 1.2531614 11
1.6064643 -4.4281468 1.0778248 9
1.6091778 -4.4380426 0.90934163 11
1.613196 -4.4515486 0.74302614 8
1.5948907 -4.4034348 0.5703485 8
1.599934 -4.4197688 0.40788886 17
1.4943199 -4.1302648 0.22818477 10
1.3713051 -3.7923236 0.069722362 6
0.65521175 -1.8169349 -0.50728554 3
0.75631559 -2.0984485 -0.50614017 3
0.9128809 -2.5342362 -0.51567525 3
1.080227 -3.0004458 -0.49902633 13
1.0815895 -3.0058761 -0.38754493 9
1.1810709 -3.284147 -0.3019951 11
1.1833621 -3.2923222 -0.18074064 12
1.2670249 -3.5270205 -0.064101525 7
1.607476 -4.4771914 1.2635074 11
1.6041619 -4.4704137 1.0868161 8
1.6069323 -4.4805937 0.91696715 11
1.6076458 -4.4850464 0.74771398 9
1.5912261 -4.441679 0.57461393 8
1.5761012 -4.4018798 0.40570998 9
1.4782109 -4.130754 0.22792308 10
1.3563756 -3.7923803 0.069635101 7
0.64886546 -1.819211 -0.50728554 3
0.74735004 -2.0964866 -0.50501537 3
0.89908731 -2.5235364 -0.51281571 3
1.0680904 -2.9995461 -0.49824417 12
1.0694267 -3.0049582 -0.38693559 9
1.1679307 -3.2835569 -0.30155933 10
1.17019 -3.2917283 -0.18047984 11
1.2513582 -3.5220003 -0.063928746 7
1.6047676 -4.5191865 1.2738534 11
1.6015836 -4.5127177 1.0958073 8
1.604409 -4.5231829 0.92459267 10
1.6018813 -4.5185595 0.75240189 6
1.5889715 -4.4846287 0.57948875 8
1.5590636 -4.4026594 0.40527421 8
1.460451 -4.1264749 0.22739972 9
1.3414623 -3.7923789 0.069547832 6
0.64090472 -1.8169104 -0.50599146 3
0.74002737 -2.0990825 -0.50501537 3
0.89516652 -2.5405474 -0.51567525 3
1.0576135 -3.0032561 -0.49824417 12
1.0572832 -3.0039914 -0.38632622 9
1.154809 -3.2829149 -0.30112356 10
1.1570365 -3.2910824 -0.18021902 11
1.2373992 -3.5216305 -0.063842356 7
1.6017855 -4.5612168 1.2841994 11
1.6003431 -4.5596547 1.1059225 8
1.6016079 -4.5658088 0.93221813 11
1.5942681 -4.5474257 0.75630838 3
1.5864362 -4.5276165 0.58436352 8
1.5403935 -4.3986726 0.40440264 7
1.4443885 -4.1268344 0.22713803 8
1.3265655 -3.7923195 0.069460578 5
0.63455862 -1.8191365 -0.50599146 3
0.73109204 -2.0970528 -0.50389069 3
0.89113784 -2.5575616 -0.51853484 3
1.0454996 -3.0022655 -0.49746197 13
1.0451596 -3.0029767 -0.38571692 10
1.141706 -3.2822211 -0.30068776 10
1.1439018 -3.2903848 -0.17995821 11
1.2234579 -3.5212059 -0.063755967 7
1.5985293 -4.603281 1.2945455 11
1.5971966 -4.6020346 1.1149137 8
1.6001371 -4.6131067 0.94079685 11
1.6026493 -4.6229553 0.76802808 13
1.5836197 -4.5706406 0.58923829 7
1.5233999 -4.3993158 0.40396684 7
1.4267083 -4.1224146 0.22661468 10
1.3116856 -3.7922022 0.06937331 5
0.62820476 -1.8213404 -0.50599146 3
0.72376746 -2.0995922 -0.50389069 3
0.8854025 -2.5699382 -0.52044117 3
1.0334055 -3.0012274 -0.49667984 12
1.033056 -3.001914 -0.38510755 10
1.1286219 -3.2814765 -0.30025199 9
1.1307862 -3.2896357 -0.17969741 13
1.209535 -3.5207272 -0.063669577 8
1.5965673 -4.6499457 1.3061846 11
1.595355 -4.6490564 1.1250288 7
1.5967631 -4.655807 0.94842237 10
1.6041169 -4.6799102 0.77662247 13
1.5821306 -4.6183944 0.59472239 9
1.5048072 -4.3951817 0.4030953 6
1.4106932 -4.1226454 0.22635299 9
1.2968227 -3.7920275 0.069286048 6
0.62184328 -1.8235222 -0.50599146 3
0.71643406 -2.1021056 -0.50389069 3
0.87959141 -2.5823052 -0.52234757 3
1.0213314 -3.0001414 -0.49589765 12
1.0209726 -3.0008037 -0.38449821 9
1.1155571 -3.2806802 -0.29981622 9
1.1176896 -3.288835 -0.17943659 12
1.1956302 -3.5201941 -0.06358318 8
1.5927463 -4.6920786 1.3165307 11
1.5947696 -4.7007346 1.1362679 18
1.5946866 -4.7031879 0.95700109 10
1.6052064 -4.7369323 0.78521693 13
1.5755513 -4.6520915 0.59837842 11
1.487859 -4.3956895 0.40265954 6
1.3930938 -4.1180849 0.22582965 9
1.2835782 -3.7965312 0.069286048 6
0.61547416 -1.8256817 -0.50599146 3
0.70909208 -2.1045938 -0.50389069 3
0.87213856 -2.5900116 -0.52330071 3
1.0092777 -2.9990079 -0.49511549 12
1.0089095 -2.9996452 -0.38388884 9
1.1025115 -3.2798331 -0.29938045 10
1.1046125 -3.2879832 -0.17917578 12
1.1817439 -3.5196068 -0.063496798 8
1.590187 -4.7388201 1.3281701 11
1.5922936 -4.7478456 1.146383 12
1.5922984 -4.7506099 0.96557975 10
1.6043482 -4.7893343 0.79302996 13
1.5671806 -4.6810932 0.60142517 13
1.4693452 -4.3914099 0.401788 6
1.3771272 -4.1181874 0.22556797 10
1.2734872 -3.8104715 0.069460578 4
0.6090976 -1.827819 -0.50599146 3
0.70174128 -2.1070561 -0.50389069 2
0.8646425 -2.597697 -0.52425396 3
0.99724424 -2.9978266 -0.4943333 12
0.99686706 -2.9984398 -0.38327953 9
1.0894853 -3.2789345 -0.29894465 10
1.091555 -3.2870803 -0.17891496 12
1.1678764 -3.518966 -0.063410401 7
1.5873204 -4.7856002 1.3398093 11
1.5895081 -4.7949963 1.1564982 13
1.5895984 -4.7980728 0.97415841 10
1.6015912 -4.8370996 0.80006176 12
1.5430354 -4.6629772 0.59837842 13
1.4524434 -4.3917828 0.4013522 6
1.3611765 -4.118228 0.22530627 10
1.2695867 -3.843375 0.069984145 63
0.60422444 -1.8345211 -0.50728554 3
0.69590527 -2.11412 -0.50501537 2
0.85863727 -2.6100245 -0.5261603 3
0.98523146 -2.996598 -0.49355114 13
0.98484516 -2.9971862 -0.38267016 8
1.076479 -3.2779851 -0.29850888 11
1.0785172 -3.2861264 -0.17865416 12
1.1540277 -3.518271 -0.063324012 8
1.5841467 -4.832418 1.3514485 11
1.5864125 -4.8421845 1.1666133 13
1.585059 -4.840909 0.98178399 9
1.5985205 -4.8849039 0.80709356 12
1.5267491 -4.6683354 0.59837842 10
1.4340094 -4.3873568 0.40048063 6
1.3452424 -4.1182079 0.22504459 9
1.2515086 -3.8335261 0.069722362 72
0.59781712 -1.8366191 -0.50728554 3
0.6888907 -2.1164162 -0.50501537 2
0.85453242 -2.6268599 -0.52901983 3
0.97376198 -2.995152 -0.49276894 13
0.97336721 -2.9957159 -0.38206083 8
1.0640645 -3.2767994 -0.29807308 10
1.0660728 -3.2849352 -0.17839335 12
1.1408118 -3.517323 -0.063237622 7
1.5815169 -4.8789954 1.3630879 11
1.5853612 -4.8937674 1.1778524 13
1.5826041 -4.8881655 0.99036258 9
1.5959961 -4.932467 0.81412542 11
1.5097332 -4.6686506 0.59776908 11
1.4179207 -4.3873482 0.40004483 6
1.3300442 -4.1178956 0.22478293 8
1.2341824 -3.8233829 0.069460578 46
0.59172338 -1.8385915 -0.50728554 3
0.68299067 -2.123446 -0.50614017 2
0.83934963 -2.6111357 -0.5252071 3
0.96179056 -2.9938312 -0.49198681 13
0.9613871 -2.99437 -0.38145146 9
1.0510981 -3.2757511 -0.29763731 9
1.053075 -3.2838821 -0.17813255 12
1.1270014 -3.5165231 -0.063151233 7
1.579209 -4.9304829 1.3760203 11
1.581637 -4.9410324 1.1879675 12
1.5774959 -4.9310589 0.9979881 10
1.5892965 -4.9709353 0.81959456 18
1.4919169 -4.6691651 0.5971598 9
1.4010824 -4.3875265 0.39960909 5
1.3141438 -4.1177559 0.22452125 8
1.2177904 -3.8181419 0.069286048 45
0.58530188 -1.8406457 -0.50728554 3
0.67742157 -2.1303418 -0.50726491 3
0.82622635 -2.5998714 -0.52234757 3
0.95036256 -2.9922974 -0.49120462 12
0.94995081 -2.9928117 -0.38084212 9
1.0387235 -3.2744708 -0.29720154 9
1.0406704 -3.2825963 -0.17787173 10
1.113824 -3.515475 -0.063064843 7
1.5759721 -4.9771333 1.3876597 10
1.5799426 -4.9927006 1.1992066 12
1.5729758 -4.9737024 1.0056137 7
1.5668501 -4.9573426 0.81646931 10
1.4749304 -4.6693544 0.59655041 10
1.3835258 -4.382648 0.39873752 5
1.298979 -4.1173291 0.22425956 7
1.2021157 -3.8126235 0.069111526 44
0.5791949 -1.8425766 -0.50728554 3
0.66998118 -2.1326933 -0.50726491 2
0.81273544 -2.5886908 -0.51948798 3
0.93843323 -2.9908848 -0.49042246 12
0.93949819 -2.9961095 -0.38084212 9
1.0257976 -3.2733238 -0.29676577 9
1.0277133 -3.2814438 -0.17761093 11
1.1000526 -3.5145707 -0.062978454 7
1.5730081 -5.0287004 1.4005922 11
1.5770421 -5.0446863 1.2104456 12
1.562923 -5.0025873 1.0103796 4
1.5480642 -4.9580674 0.81568795 9
1.4556656 -4.6649995 0.59533167 9
1.3667363 -4.3826957 0.39830172 5
1.2816278 -4.1123047 0.22373621 8
1.1858265 -3.8072503 0.068936996 44
0.57243764 -1.844687 -0.50728554 3
0.6664893 -2.1490946 -0.51063919 2
0.80033576 -2.5822756 -0.51758158 3
0.92600358 -2.9895866 -0.48964027 12
0.92704302 -2.9947917 -0.38023278 9
1.0137933 -3.2770615 -0.29676577 9
1.0142045 -3.2804182 -0.17735012 11
1.0856879 -3.5138025 -0.062892064 7
1.5688164 -5.0805802 1.4135246 10
1.5729083 -5.0969868 1.2216847 12
1.5662748 -5.0786371 1.0246774 13
1.528427 -4.9589887 0.81490666 9
1.4370968 -4.6655607 0.59472239 9
1.3477329 -4.3781548 0.39743018 6
1.2650785 -4.1122017 0.22347453 8
1.1703951 -3.8067925 0.068849742 40
0.5702408 -1.8605268 -0.51116782 3
0.65612978 -2.1420915 -0.50838971 2
0.78988045 -2.5803604 -0.51662844 3
0.91556239 -2.992801 -0.48964027 12
0.91513258 -2.9932635 -0.37962344 8
1.0008926 -3.2758164 -0.29632998 9
1.0027475 -3.2839386 -0.17735012 11
1.0719568 -3.512789 -0.062805675 8
1.5665703 -5.1368437 1.4277505 10
1.5693105 -5.1490502 1.2329236 12
1.5656991 -5.1404176 1.0361156 13
1.5082313 -4.9548445 0.81334406 7
1.4179137 -4.6610532 0.59350365 9
1.3309933 -4.378067 0.39699441 6
1.2478136 -4.1070375 0.22295116 8
1.1556473 -3.806071 0.068762474 41
0.55534804 -1.8347709 -0.50340325 2
0.64582741 -2.1350424 -0.50614017 2
0.79081053 -2.6159899 -0.52330071 3
0.90368176 -2.9912512 -0.4888581 12
0.90324426 -2.991689 -0.37901407 8
0.98801291 -3.2745218 -0.29589421 10
0.98983687 -3.2826385 -0.17708932 11
1.0582458 -3.5117233 -0.062719285 8
1.5625573 -5.1885271 1.4406829 10
1.5653685 -5.2011495 1.2441628 12
1.564711 -5.2022548 1.0475539 13
1.4895049 -4.9553494 0.8125627 8
1.3987793 -4.6564679 0.59228498 7
1.3142707 -4.3779159 0.39655861 6
1.232035 -4.1065865 0.22268949 8
1.1394831 -3.8005047 0.068587951 42
0.55170614 -1.8459531 -0.50599146 2
0.63697642 -2.1326156 -0.50501537 2
0.77325088 -2.5905149 -0.51758158 3
0.89182311 -2.989655 -0.48807591 11
0.89137805 -2.9900677 -0.37840474 8
0.97515446 -3.2731769 -0.29545841 10
0.97837234 -3.2860737 -0.17708932 11
1.0445555 -3.5106041 -0.062632896 7
1.559579 -5.244875 1.4549088 10
1.5624696 -5.2579546 1.2565256 11
1.5619127 -5.2594423 1.0580389 13
1.4707932 -4.9557843 0.81178141 6
1.3811055 -4.6565642 0.59167564 7
1.2975656 -4.3777018 0.39612287 6
1.2162746 -4.1060739 0.22242782 8
1.124791 -3.7996655 0.06850069 41
nan nan nan 0
nan nan nan 0
nan nan nan 0
0.87998676 -2.9880128 -0.48729378 12
0.87953407 -2.9884002 -0.37779537 8
0.96231765 -3.2717826 -0.29502264 10
0.96689576 -3.2894685 -0.17708932 11
1.0308858 -3.5094323 -0.062546499 8
1.5562263 -5.3012638 1.4691346 10
1.5578214 -5.3101268 1.2677648 11
1.5573531 -5.3119631 1.0675709 13
1.4507084 -4.9514098 0.81021881 6
1.3620538 -4.6518316 0.5904569 7
1.2808778 -4.3774233 0.39568707 5
1.2019343 -4.1102948 0.22242782 8
1.1115209 -3.8035686 0.06850069 45
nan nan nan 0
nan nan nan 0
nan nan nan 0
0.86955136 -2.9910662 -0.48729378 13
0.86771274 -2.9866865 -0.37718606 8
0.94950223 -3.2703383 -0.29458687 9
0.95401609 -3.288028 -0.1768285 10
1.0172371 -3.5082078 -0.062460113 7
1.5524985 -5.3576927 1.4833603 10
1.554183 -5.3670101 1.2801276 11
1.5524459 -5.3645153 1.0771028 12
1.4320438 -4.9516993 0.80943751 6
1.3444295 -4.6517897 0.58984756 8
1.2655898 -4.3818679 0.39568707 7
1.1861948 -4.1096673 0.22216612 7
1.0968516 -3.8026218 0.068413429 42
nan nan nan 0
nan nan nan 0
0.73795378 -2.5701642 -0.51186246 3
0.85774314 -2.9893365 -0.48651159 13
0.85591406 -2.9849267 -0.37657669 8
0.93808085 -3.2736328 -0.29458687 9
0.94115829 -3.2865381 -0.1765677 11
1.0036094 -3.5069308 -0.06237372 7
1.5497241 -5.4188046 1.4988794 10
1.5515052 -5.428616 1.2936145 11
1.5485384 -5.4218168 1.0875878 12
1.4133949 -4.9519186 0.80865616 7
1.3268224 -4.6516824 0.58923829 5
1.2475556 -4.376678 0.3948155 4
1.1704742 -4.1089811 0.22190444 7
1.0835712 -3.8064275 0.068413429 42
nan nan nan 0
nan nan nan 0
nan nan nan 0
0.84595776 -2.9875605 -0.48572943 12
0.8454895 -2.9878962 -0.37657669 8
0.92529267 -3.2720942 -0.2941511 9
0.92832249 -3.2849982 -0.17630689 11
0.99000317 -3.5056019 -0.062287334 9
1.5465412 -5.47996 1.5143985 9
1.5470935 -5.485579 1.3059776 11
1.5482441 -5.493329 1.1009325 13
1.3947622 -4.9520688 0.80787492 6
1.3092322 -4.6515083 0.58862889 9
1.2268759 -4.3618269 0.3930724 7
1.156124 -4.1130419 0.22190444 8
1.0675738 -3.8005605 0.068238907 40
nan nan nan 0
nan nan nan 0
0.74510306 -2.665067 -0.52997309 3
0.83419514 -2.985739 -0.48494723 12
0.83372009 -2.9860494 -0.37596735 9
0.91252661 -3.2705061 -0.2937153 9
0.91550905 -3.2834091 -0.17604607 12
0.97776037 -3.5090361 -0.062287334 8
1.5429504 -5.5411592 1.5299174 10
1.5436089 -5.5472708 1.3194644 11
1.5382643 -5.5318017 1.1076049 18
1.3748231 -4.9473906 0.80631226 7
1.2916596 -4.651268 0.58801955 8
1.2183026 -4.3900809 0.39525127 4
1.139091 -4.107429 0.2213811 8
1.0516306 -3.7946286 0.068064377 41
nan nan nan 0
0.58050883 -2.1032217 -0.49489263 3
nan nan nan 0
0.8237679 -2.9886327 -0.48494723 13
0.82329178 -2.9889414 -0.37596735 9
0.89978296 -3.2688696 -0.29327953 10
0.90271789 -3.2817702 -0.17578526 11
0.96418047 -3.5076072 -0.062200941 6
1.5389508 -5.6023993 1.5454364 10
1.5410022 -5.6137023 1.3340752 11
1.5150499 -5.5229373 1.1047453 13
1.3562393 -4.9473968 0.80553091 5
1.2741045 -4.6509619 0.58741021 9
1.2082316 -4.4135237 0.39699441 11
1.1207938 -4.0969319 0.22059603 9
1.0370601 -3.7934542 0.067977123 43
nan nan nan 0
0.58212221 -2.1381402 -0.50276589 3
0.72132516 -2.6512594 -0.5261603 3
0.81203496 -2.9867246 -0.48416507 11
0.81285334 -2.991797 -0.37596735 8
0.88706189 -3.2671835 -0.29284373 11
0.88994938 -3.2800827 -0.17552446 12
0.95062262 -3.5061266 -0.062114555 7
1.5358055 -5.6683397 1.5622487 9
1.5366768 -5.6754799 1.3475621 10
1.4931982 -5.5187168 1.1028389 10
1.3363835 -4.9425659 0.80396837 5
1.2552731 -4.6457996 0.58619153 8
1.1980118 -4.4369493 0.39873752 11
1.1025839 -4.0863571 0.21981101 7
1.0212092 -3.7873974 0.067802593 44
nan nan nan 0
nan nan nan 0
nan nan nan 0
0.80032539 -2.9847708 -0.48338288 12
0.80112064 -2.9898226 -0.37535799 8
0.8743636 -3.2654488 -0.29240796 11
0.8772037 -3.2783453 -0.17526364 11
0.9370867 -3.5045938 -0.062028162 7
1.5322185 -5.7343268 1.579061 10
1.5331957 -5.742002 1.3621728 10
1.4713943 -5.51441 1.1009325 11
1.3165778 -4.9376569 0.80240571 5
1.2377707 -4.6453576 0.58558214 7
1.1850799 -4.4507313 0.39960909 11
1.0818936 -4.0660543 0.2185026 8
1.0079825 -3.7909391 0.067802593 40
nan nan nan 0
nan nan nan 0
0.69777662 -2.6372504 -0.52234757 3
0.78990167 -2.9875462 -0.48338288 12
0.79067928 -2.9926009 -0.37535799 8
0.86168814 -3.2636645 -0.29197219 11
0.86320722 -3.2717316 -0.17474203 13
0.92357326 -3.5030096 -0.061941773 7
1.5281892 -5.8003564 1.5958734 10
1.5292687 -5.8085685 1.3767836 10
1.4496388 -5.5100193 1.0990261 9
1.2968227 -4.9326701 0.80084312 7
1.2190257 -4.6400504 0.58436352 8
1.167007 -4.4452047 0.39873752 11
1.0714949 -4.0842953 0.21928765 8
0.99474359 -3.7944345 0.067802593 40
nan nan nan 0
nan nan nan 0
nan nan nan 0
0.7782228 -2.9855068 -0.48260072 12
0.77897745 -2.9905403 -0.37474868 8
0.8502906 -3.2666526 -0.29197219 11
0.84549665 -3.2505627 -0.17343798 16
0.9088245 -3.4965351 -0.06176899 9
1.5249316 -5.8711019 1.6139787 9
1.5261194 -5.8798919 1.3925182 10
1.4291642 -5.5102944 1.0980729 7
1.2771186 -4.9276052 0.79928046 6
1.2015773 -4.639473 0.58375412 7
1.1502352 -4.4444289 0.39830172 13
1.0584817 -4.0928445 0.21954931 7
0.98149246 -3.7978837 0.067802593 44
nan nan nan 0
nan nan nan 0
0.67812592 -2.6373036 -0.52139437 3
0.7677967 -2.9882052 -0.48260072 12
0.76729953 -2.9884341 -0.37413931 7
0.83764482 -3.2647762 -0.29153642 10
0.83042479 -3.2389839 -0.17265557 7
0.89537305 -3.4948432 -0.061682601 8
1.5211984 -5.9418945 1.6320844 9
1.5212829 -5.9465437 1.4071289 10
1.4074897 -5.5057392 1.0961666 10
1.2586879 -4.927248 0.79849911 5
1.1841477 -4.6388302 0.58314478 7
1.1322521 -4.4387646 0.39743018 12
1.045422 -4.1013532 0.21981101 7
0.96822941 -3.8012865 0.067802593 43
nan nan nan 0
nan nan nan 0
0.6580646 -2.5968335 -0.51281571 3
0.75614893 -2.9860795 -0.48181856 13
0.75564593 -2.9862831 -0.37352994 6
0.82624352 -3.2676802 -0.29153642 11
0.81055129 -3.2079756 -0.17082989 8
0.88194448 -3.4931002 -0.061596207 8
