# .PCD v0.7 - Point Cloud Data file format
VERSION 0.7
FIELDS x y z intensity
SIZE 4 4 4 4
TYPE F F F F
COUNT 1 1 1 1
WIDTH 1349
HEIGHT 1
VIEWPOINT 0 0 0 1 0 0 0
POINTS 1349
DATA ascii
-2.2598159 -6.4386091 -1.0747056 12
-2.2637758 -6.4462905 -0.83419657 13
-2.2434583 -6.3848696 -0.58873791 11
-2.2682648 -6.4518685 -0.35522187 13
-2.2538819 -6.4073834 -0.11671315 16
-1.7107999 -4.8607879 1.3695542 17
-1.7944583 -5.0956411 1.2374194 15
-1.8820151 -5.3412971 1.0923538 15
-1.9782269 -5.6112275 0.93522841 16
-1.9805692 -5.6147466 0.72634125 26
-2.2606597 -6.4052162 0.59091592 14
-2.2656119 -6.415679 0.35457608 14
-2.244499 -6.3523607 0.11693112 13
nan nan nan 0
-0.73880619 -2.0840125 -0.50164115 2
-2.2591064 -6.3689208 -1.3049157 15
-2.2558494 -6.3562174 -1.0621909 13
-2.2596929 -6.363523 -0.82444704 13
-2.2357152 -6.2925162 -0.58089393 12
-2.2623396 -6.3639307 -0.35078812 12
-2.2477531 -6.3194041 -0.11524453 10
-1.729376 -4.8593364 1.3708473 16
-1.8122345 -5.0893464 1.2374194 14
-1.9022955 -5.3393183 1.0933069 15
-1.9978017 -5.6042881 0.93522841 15
-2.0034907 -5.6171474 0.72755992 25
-2.256218 -6.322227 0.58394349 13
-2.2611279 -6.3324938 0.35038921 13
-2.2397482 -6.2691622 0.11553492 13
nan nan nan 0
-0.73292524 -2.0447319 -0.49264312 2
-2.2531557 -6.2824535 -1.2887114 11
-2.2513354 -6.2739325 -1.0496762 13
-2.2567372 -6.2855349 -0.81530684 13
-2.2340908 -6.2190456 -0.57479298 12
-2.2575173 -6.2808132 -0.34661517 13
-2.2427292 -6.2362504 -0.11386228 12
-1.7479631 -4.8578148 1.3721406 16
-1.8316387 -5.0875731 1.2385432 15
-1.922585 -5.3372631 1.0942601 15
-2.0173521 -5.5972805 0.93522841 14
-2.0247695 -5.6147881 0.72816932 25
-2.2529154 -6.2440333 0.57740682 13
-2.2560914 -6.2494187 0.34620234 13
-2.2361429 -6.1907773 0.114226 13
nan nan nan 0
nan nan nan 0
-2.243283 -6.1868782 -1.2706009 11
-2.2479591 -6.1963997 -1.0379435 13
-2.2515714 -6.2029796 -0.80555725 13
-2.231981 -6.1456642 -0.56869209 12
-2.2521427 -6.1978073 -0.34244224 14
-2.2388613 -6.1579089 -0.11256643 13
-1.7665604 -4.8562226 1.3734338 15
-1.851053 -5.0857267 1.2396672 14
-1.9428835 -5.3351321 1.0952133 15
-2.0368779 -5.5902042 0.93522841 15
-2.046056 -5.6123486 0.72877866 25
-2.2473874 -6.1612601 0.57043433 14
-2.2505026 -6.1664572 0.34201545 14
-2.2337322 -6.1171908 0.11300433 12
nan nan nan 0
nan nan nan 0
-2.2429059 -6.1190996 -1.2582095 11
-2.2457695 -6.1236043 -1.0269932 14
-2.2475669 -6.1251984 -0.79641706 13
-2.2293868 -6.0723753 -0.5625912 11
-2.2479379 -6.1196032 -0.33853009 14
-2.2361984 -6.084363 -0.11135696 11
-1.7851679 -4.8545594 1.3747271 16
-1.8704765 -5.0838065 1.2407911 14
-1.9631906 -5.3329239 1.0961666 14
-2.0563788 -5.5830603 0.93522841 14
-2.0690663 -5.6144853 0.72999734 27
-2.2430329 -6.0832767 0.56389767 14
-2.2460907 -6.0882959 0.33809027 14
-2.2308354 -6.0436964 0.11178266 13
nan nan nan 0
nan nan nan 0
-2.2403779 -6.0467973 -1.2448648 10
-2.2413828 -6.0462699 -1.0152605 14
-2.243047 -6.0475206 -0.78727686 14
-2.2263081 -5.9991789 -0.55649024 11
-2.2432151 -6.0415049 -0.33461794 14
-2.2330499 -6.0109119 -0.11014751 11
-1.8037854 -4.8528261 1.3760203 16
-1.8899093 -5.0818133 1.241915 14
-1.9835054 -5.3306379 1.0971197 15
-2.0827472 -5.5943613 0.93835366 10
-2.0903845 -5.6118793 0.73060668 28
-2.2381616 -6.0053997 0.55736101 15
-2.2411609 -6.010241 0.33416507 14
-2.2274537 -5.9702992 0.11056099 13
nan nan nan 0
nan nan nan 0
-2.2356517 -5.9699917 -1.230567 10
-2.2382166 -5.9736667 -1.0043101 14
-2.2380123 -5.9699497 -0.77813661 14
-2.2227461 -5.9260793 -0.55038935 13
-2.2397292 -5.9681897 -0.33096662 14
-2.2294159 -5.9375577 -0.10893804 12
-1.8224125 -4.8510213 1.3773136 16
-1.9093506 -5.0797458 1.2430388 15
-2.0038285 -5.3282762 1.0980729 16
-2.10748 -5.600924 0.94069767 11
-2.1134577 -5.6138372 0.73182535 29
-2.23453 -5.9322925 0.55126005 15
-2.2392352 -5.9416409 0.33076322 15
-2.2235863 -5.8969989 0.10933932 13
nan nan nan 0
nan nan nan 0
-2.2321539 -5.8978839 -1.2172223 8
-2.2345715 -5.9011593 -0.99335968 14
-2.2342224 -5.8971305 -0.76960582 14
-2.2187009 -5.8530784 -0.54428846 13
-2.2375295 -5.8996425 -0.3275761 14
-2.225297 -5.8643017 -0.10772857 13
-1.841049 -4.8491459 1.3786069 16
-1.9288007 -5.0776043 1.2441628 13
-2.0241594 -5.3258371 1.0990261 14
-2.1322844 -5.6073813 0.94304156 10
-2.1348054 -5.611064 0.73243469 24
-2.2304153 -5.8592849 0.54515916 15
-2.2350814 -5.8684626 0.32709971 12
-2.2192349 -5.8237991 0.10811765 14
nan nan nan 0
nan nan nan 0
-2.2229204 -5.8121209 -1.2010181 7
-2.2322121 -5.8333635 -0.98319143 14
-2.2317259 -5.8290448 -0.76168424 15
-2.2141736 -5.7801781 -0.5381875 13
-2.234879 -5.8311834 -0.32418558 14
-2.2206945 -5.7911491 -0.10651912 12
-1.8596946 -4.847199 1.3799002 15
-1.9482592 -5.0753894 1.2452867 14
-2.0444973 -5.3233209 1.0999793 14
-2.1589305 -5.6183443 0.94616681 11
-2.1561599 -5.6082101 0.73304409 25
-2.2293952 -5.7956767 0.53992981 15
-2.2322378 -5.8000455 0.32369789 15
-2.2161963 -5.7553678 0.10698324 13
nan nan nan 0
nan nan nan 0
-2.2272708 -5.7631211 -1.1924393 6
-2.2276263 -5.7610507 -0.97224098 14
-2.2287817 -5.7610493 -0.75376272 15
-2.2091649 -5.7073827 -0.53208661 13
-2.2317784 -5.7628169 -0.32079509 13
-2.2174151 -5.7227621 -0.10539604 12
-1.876603 -4.8406782 1.3799002 16
-1.9677256 -5.0731001 1.2464106 15
-2.0648427 -5.3207283 1.1009325 15
-2.1695914 -5.5877552 0.94226027 15
-2.1793172 -5.6099019 0.73426276 30
-2.2261541 -5.7275057 0.53426468 14
-2.2271342 -5.727067 0.32003435 14
-2.2108948 -5.6823711 0.10576158 15
nan nan nan 0
nan nan nan 0
-2.2134528 -5.6684422 -1.1743288 6
-2.2243602 -5.6934423 -0.96207279 14
-2.2271967 -5.6977687 -0.7464506 15
-2.2073035 -5.643971 -0.52685732 12
-2.2282274 -5.6945424 -0.31740457 14
-2.2136853 -5.654469 -0.10427297 13
-1.8952502 -4.8385949 1.3811933 16
-1.9871995 -5.0707364 1.2475344 14
-2.0851943 -5.3180575 1.1018857 14
-2.1926901 -5.5893426 0.94382292 18
-2.2006993 -5.6068797 0.7348721 30
-2.2224646 -5.6594286 0.52859962 14
-2.2233746 -5.6588426 0.31663251 13
-2.2051108 -5.6094818 0.10453991 14
nan nan nan 0
nan nan nan 0
-2.2114532 -5.6112294 -1.1638438 4
-2.2186854 -5.6267014 -0.95190454 14
-2.2232308 -5.6353459 -0.73913842 14
-2.2012496 -5.5767775 -0.52119213 14
-2.2222636 -5.62714 -0.31401405 14
-2.2093933 -5.5916929 -0.10323629 13
-1.9122174 -4.8371086 1.3824866 16
-2.0049119 -5.0689988 1.2486584 14
-2.1036975 -5.3160443 1.1028389 17
-2.1920586 -5.5365086 0.93600976 9
-2.2164752 -5.595325 0.73426276 27
-2.2182102 -5.5968513 0.52337021 15
-2.2172143 -5.5914893 0.31323066 14
-2.1969123 -5.5374703 0.10331824 15
nan nan nan 0
nan nan nan 0
-2.2346578 -5.612596 -1.16575 9
-2.2145545 -5.5592809 -0.94173628 14
-2.222677 -5.5768399 -0.73243558 15
-2.1985636 -5.5135398 -0.51596278 12
-2.217839 -5.5590577 -0.31062353 16
-2.2066586 -5.5282307 -0.10219961 13
-1.9308819 -4.8348899 1.3837799 16
-2.0244017 -5.066494 1.2497823 14
-2.124063 -5.3132262 1.1037921 17
-2.1838608 -5.4600425 0.92429012 9
-2.2083359 -5.5184407 0.72512257 11
-2.2136655 -5.5289612 0.51770514 15
-2.2144382 -5.5280948 0.31009051 15
-2.1939106 -5.474082 0.10227109 15
nan nan nan 0
nan nan nan 0
-2.2277291 -5.5360661 -1.1514523 6
-2.2127829 -5.4961538 -0.93235022 13
-2.2208512 -5.5134163 -0.72512341 15
-2.1964145 -5.4500055 -0.51073343 12
-2.2157919 -5.4953213 -0.30749381 15
-2.2044618 -5.4644709 -0.10116293 12
-1.9503975 -4.8322592 1.3850732 17
-2.0447819 -5.0635576 1.2509062 15
-2.1453614 -5.3099566 1.1047453 16
-2.187201 -5.4107938 0.91725832 7
-2.2080798 -5.459702 0.71841973 9
-2.2114952 -5.4654026 0.51247573 16
-2.2122004 -5.4644022 0.30695036 16
-2.1914382 -5.4104018 0.10122395 14
nan nan nan 0
nan nan nan 0
-2.2267096 -5.4782386 -1.1409671 5
-2.2077699 -5.4289255 -0.92218196 13
-2.2176392 -5.450469 -0.71781123 14
-2.1928892 -5.3869448 -0.50550407 12
-2.2104766 -5.4274359 -0.30410329 14
-2.2008851 -5.4011869 -0.10012624 12
-1.9690764 -4.8298936 1.3863664 16
-2.0642846 -5.0609002 1.25203 14
-2.1675925 -5.3115239 1.1066515 17
-2.1836731 -5.3482599 0.90788263 16
-2.2046037 -5.396831 0.71110761 9
-2.2079465 -5.4023209 0.50724643 14
-2.2085831 -5.4011869 0.30381021 14
-2.1894879 -5.3518224 0.10026407 14
nan nan nan 0
nan nan nan 0
-2.2271781 -5.4250269 -1.1314353 3
-2.2041912 -5.3663688 -0.91279584 13
-2.2140155 -5.3876114 -0.71049905 14
-2.1889508 -5.323976 -0.50027472 13
-2.206614 -5.364274 -0.30097359 14
-2.1968935 -5.3379946 -0.099089555 13
-1.9877628 -4.827457 1.3876597 16
-2.0837936 -5.0581689 1.253154 14
-2.1898611 -5.3130016 1.1085581 19
-2.1835012 -5.2949486 0.90006948 15
-2.2007158 -5.3340516 0.70379543 9
-2.2039845 -5.3393312 0.50201708 14
-2.2045517 -5.3380637 0.30067006 15
-2.1871562 -5.2933235 0.099304192 13
nan nan nan 0
nan nan nan 0
-0.98844254 -2.3839579 -0.49375188 3
-2.2002029 -5.3039036 -0.90340978 14
-2.20998 -5.3248467 -0.70318693 14
-2.1845996 -5.2611003 -0.49504536 14
-2.2042532 -5.3058167 -0.29810467 15
-2.1944065 -5.2795138 -0.098139264 13
-2.0064564 -4.8249488 1.3889529 16
-2.1033087 -5.0553622 1.2542779 15
-2.1895311 -5.2600112 1.0990261 11
-2.1810853 -5.2371454 0.89147508 16
-2.1983252 -5.2759461 0.69709259 9
-2.19961 -5.2764359 0.49678773 16
-2.202029 -5.279644 0.2977916 15
-2.1844423 -5.2349052 0.098344304 15
nan nan nan 0
nan nan nan 0
-2.2441442 -5.3595443 -1.1209502 2
-2.1977136 -5.2460871 -0.89480585 14
-2.2055335 -5.2621765 -0.69587475 14
-2.1817629 -5.2029147 -0.49025181 14
-2.19958 -5.2428374 -0.29497498 15
-2.1896038 -5.2165065 -0.097102582 13
-2.0251565 -4.8223686 1.3902462 17
-2.1228299 -5.0524817 1.2554018 15
-2.1869562 -5.2025638 1.088541 9
-2.1802075 -5.1839767 0.88366199 11
-2.1936316 -5.2133489 0.68978047 9
-2.1967561 -5.2182269 0.49199417 12
-2.1971874 -5.2167053 0.29465142 16
-2.1813481 -5.1765728 0.097384423 15
nan nan nan 0
-0.84178019 -1.9918032 -0.49039361 2
-1.00315 -2.3724782 -0.49279872 5
-2.192924 -5.183805 -0.88541979 15
-2.2006772 -5.1996026 -0.68856257 15
-2.1785469 -5.1448135 -0.48545823 13
-2.1964417 -5.1845536 -0.29210609 15
-2.1863389 -5.1581998 -0.096152291 13
-2.0438631 -4.8197169 1.3915395 17
-2.1423562 -5.0495257 1.2565256 16
-2.1840069 -5.1451983 1.078056 9
-2.1770546 -5.1263328 0.87506759 11
-2.1904685 -5.155417 0.68307763 9
-2.1935227 -5.1601028 0.48720059 12
-2.1938877 -5.1584606 0.29177293 12
-2.1778734 -5.1183257 0.096424542 14
-0.74262643 -1.7410635 -0.49693277 2
-0.84872776 -1.9888527 -0.49039361 2
-1.01528 -2.3779905 -0.49470508 6
-2.1896665 -5.126163 -0.87681592 15
-2.1954105 -5.1371274 -0.68125039 15
-2.174952 -5.0867987 -0.48066467 14
-2.1929238 -5.1263566 -0.2892372 15
-2.182694 -5.0999799 -0.095201991 13
-2.0606744 -4.8125534 1.3915395 17
-2.1638064 -5.0509734 1.2587736 17
-2.1806846 -5.0879183 1.0675709 9
-2.1735265 -5.0687747 0.8664732 11
-2.186928 -5.0975709 0.67637479 8
-2.1899109 -5.102066 0.48240703 12
-2.1902084 -5.1003032 0.28889447 12
-2.1740189 -5.0601664 0.095464654 15
-0.7506097 -1.7428964 -0.49822688 3
-0.86530399 -2.0082488 -0.49601737 2
-1.0235745 -2.3744318 -0.49470508 7
-2.1860335 -5.0686069 -0.86821198 15
-2.1936674 -5.0838666 -0.67515695 15
-2.1729529 -5.0334454 -0.47630686 14
-2.1910064 -5.0728312 -0.28662908 15
-2.1806526 -5.0464392 -0.094338097 13
-2.0812941 -4.8141971 1.3941259 17
-2.1794901 -5.0389175 1.2576497 17
-2.1769888 -5.030725 1.0570859 9
-2.1715851 -5.0158358 0.85866004 11
-2.1849835 -5.0443678 0.67028135 9
-2.1859207 -5.0441179 0.47761348 12
-2.1861498 -5.0422339 0.28601599 12
-2.1717744 -5.0066833 0.094592042 16
-0.75668895 -1.7402656 -0.49822688 2
-0.8625918 -1.982879 -0.49039361 2
-1.0298978 -2.366344 -0.49375188 8
-2.1839974 -5.015667 -0.86039031 15
-2.1895971 -5.0261307 -0.66845405 15
-2.1706083 -4.9801683 -0.47194907 14
-2.1867466 -5.0148058 -0.28376019 16
-2.176265 -4.9883924 -0.093387797 14
-2.0980859 -4.8069024 1.3941259 16
-2.181468 -4.9955602 1.2486584 10
-2.1748855 -4.978117 1.0475539 9
-2.1673231 -4.9584479 0.85006565 12
-2.1807055 -4.9866929 0.66357851 9
-2.1815529 -4.9862599 0.47281989 12
-2.1837156 -4.9888315 0.28339919 12
-2.1671779 -4.948699 0.093632154 15
-0.7588765 -1.7287691 -0.4956387 2
-0.87146693 -1.9843163 -0.49151835 2
-1.044075 -2.3762157 -0.49661148 8
-2.1796308 -4.9582825 -0.85178632 15
-2.187149 -4.9730296 -0.66236061 15
-2.1679184 -4.92697 -0.46759126 14
-2.1841202 -4.961442 -0.2811521 15
-2.1735144 -4.9350138 -0.092523903 14
-2.1187475 -4.8083897 1.3967124 17
-2.1733432 -4.9299598 1.2340477 10
-2.172442 -4.9255857 1.038022 9
-2.1646807 -4.9056697 0.84225255 12
-2.1780567 -4.933651 0.65748507 9
-2.1788206 -4.9330511 0.46846214 12
-2.1789167 -4.9309397 0.28052071 11
-2.1642249 -4.895381 0.092759535 15
-0.76686305 -1.730525 -0.49693277 2
-0.8764137 -1.9768088 -0.49039361 2
-1.0523632 -2.3725567 -0.49661148 8
-2.1768939 -4.9055052 -0.84396464 15
-2.1823437 -4.9154711 -0.65565783 15
-2.1648839 -4.8738513 -0.4632335 14
-2.1811481 -4.9081583 -0.27854401 16
-2.1704175 -4.8817158 -0.09166 14
-2.135519 -4.8009644 1.3967124 19
-2.1746919 -4.886734 1.2250564 8
-2.1696584 -4.8731332 1.0284902 9
-2.1616969 -4.8529716 0.8344394 11
-2.1750638 -4.8806882 0.65139163 8
-2.1737154 -4.8753734 0.46366853 12
-2.1757748 -4.8777032 0.27790391 12
-2.1609261 -4.8421435 0.091886915 15
-0.77289903 -1.7278377 -0.49693277 3
-0.88330877 -1.9737375 -0.49039361 2
-1.0646501 -2.3778281 -0.49851784 8
-2.1738153 -4.852807 -0.8361429 15
-2.1791923 -4.862536 -0.64956433 15
-2.161505 -4.8208146 -0.45887569 14
-2.1778312 -4.8549566 -0.27593592 15
-2.1690223 -4.8330607 -0.090882488 14
-2.1562212 -4.8022928 1.3992989 26
-2.1717727 -4.834671 1.2138174 8
-2.1665351 -4.8207603 1.0189582 9
-2.1583714 -4.800354 0.82662636 12
-2.1717284 -4.8278074 0.64529818 9
-2.1702783 -4.8223343 0.45931077 11
-2.1722882 -4.8245497 0.27528712 12
-2.1593356 -4.7935481 0.091101557 15
-0.7789256 -1.7251292 -0.49693277 2
-0.89019299 -1.9706421 -0.49039361 2
-1.0729438 -2.3740973 -0.49851784 8
-2.1724303 -4.8046908 -0.82910329 15
-2.1756985 -4.8096833 -0.64347082 16
-2.1577826 -4.7678609 -0.45451787 14
-2.1741695 -4.8018389 -0.27332783 15
-2.1652513 -4.779922 -0.090018585 14
-2.1689837 -4.7859387 1.3967124 17
-2.1705289 -4.7871256 1.2037022 9
-2.1630733 -4.7684693 1.0094265 9
-2.1547053 -4.7478189 0.8188132 12
-2.1680503 -4.7750096 0.63920468 8
-2.1664979 -4.7693791 0.45495296 11
-2.1705227 -4.7760258 0.27293199 12
-2.1553633 -4.7404723 0.090228938 15
-0.78494275 -1.7223998 -0.49693277 2
-0.89706641 -1.9675227 -0.49039361 2
-1.0791873 -2.3658719 -0.49756464 7
-2.1686857 -4.7521515 -0.82128161 16
-2.1718626 -4.7569146 -0.63737738 11
-2.1557868 -4.7195239 -0.45059589 13
-2.1701641 -4.748806 -0.27071977 16
-2.1611362 -4.7268686 -0.089154683 14
-2.1615679 -4.7256317 1.3811933 11
-2.1669519 -4.7352176 1.1924632 9
-2.1592727 -4.7162614 0.9998945 9
-2.1527555 -4.6998591 0.81178141 12
-2.1640301 -4.7222962 0.63311118 9
-2.1623745 -4.7165098 0.4505952 12
-2.166364 -4.7230353 0.2703152 12
-2.153132 -4.6920266 0.089443579 15
-0.79065007 -1.7197874 -0.49693277 2
-0.90324312 -1.9646949 -0.49039361 2
-1.0845636 -2.3580108 -0.49661148 7
-2.1650245 -4.7049384 -0.81424206 12
-2.1681182 -4.7094965 -0.63189328 12
-2.1497653 -4.6674862 -0.4462381 13
-2.1641753 -4.6966152 -0.26811165 16
-2.1571383 -4.6791954 -0.08837717 13
-2.1581981 -4.6793456 1.3695542 9
-2.1634459 -4.6885724 1.182348 9
-2.1555636 -4.6693473 0.99131578 9
-2.1468029 -4.6482377 0.80396837 12
-2.1580389 -4.6704245 0.62701774 9
-2.1583705 -4.6690021 0.44667318 12
-2.1623273 -4.6754189 0.26796007 13
-2.1468687 -4.6398678 0.088570952 15
-0.79634875 -1.7171559 -0.49693277 2
-0.91214603 -1.9659491 -0.49151835 2
-1.092788 -2.3542106 -0.49661148 7
-2.1627142 -4.6570411 -0.80720252 11
-2.1636333 -4.6568928 -0.62579978 12
-2.1471491 -4.6193023 -0.44231606 13
-2.1616073 -4.648284 -0.26576436 15
-2.1544793 -4.6308427 -0.087599657 13
-2.1561756 -4.6323748 1.3579149 9
-2.1612885 -4.641242 1.1722327 8
-2.1531944 -4.6217523 0.98273712 9
-2.144238 -4.60043 0.79693651 12
-2.1554523 -4.6223826 0.62153363 9
-2.1535966 -4.6162996 0.4423154 12
-2.1575165 -4.6225963 0.26534328 12
-2.1440153 -4.591578 0.087785594 15
-0.80293626 -1.7140856 -0.49693277 2
-0.92141217 -1.9670048 -0.49264312 2
-1.0993263 -2.3457448 -0.49565825 7
-2.1609006 -4.6088405 -0.80016291 12
-2.1617196 -4.6084943 -0.62031561 12
-2.1429045 -4.5663104 -0.4379583 14
-2.1574092 -4.5951324 -0.26315629 15
-2.1523089 -4.582191 -0.086822152 13
-2.1546521 -4.5850992 1.3462756 9
-2.1575563 -4.5891986 1.1609938 9
-2.1513178 -4.5738559 0.97415841 9
-2.1421602 -4.5523229 0.78990471 12
-2.1512415 -4.569551 0.61544013 10
-2.1514006 -4.5678201 0.43839338 13
-2.1552899 -4.574007 0.26298818 12
-2.1416442 -4.5429912 0.087000236 15
-0.80861598 -1.7114136 -0.49693277 3
-0.92827272 -1.9637765 -0.49264312 2
-1.1075077 -2.3418932 -0.49565825 7
-2.1579669 -4.5610933 -0.79312336 11
-2.1586843 -4.5605502 -0.61483157 12
-2.1396446 -4.5182867 -0.43403628 14
-2.1541955 -4.5469618 -0.260809 15
-2.14902 -4.5339923 -0.086044639 14
-2.1540887 -4.5426378 1.3359296 9
-2.154768 -4.5420227 1.1508787 9
-2.1483295 -4.5264101 0.96557975 9
-2.1389728 -4.5046668 0.78287292 13
-2.1480138 -4.5216703 0.60995609 9
-2.1480892 -4.5197935 0.43447137 13
-2.1519461 -4.5258713 0.26063305 13
-2.1403093 -4.499372 0.086302139 16
-0.81458497 -1.7085805 -0.49693277 3
-0.93477976 -1.9606873 -0.49264312 2
-1.1131548 -2.3337777 -0.49470508 6
-2.153939 -4.5137997 -0.78608388 11
-2.1566911 -4.5175381 -0.6099568 13
-2.1374424 -4.4752097 -0.43055004 15
-2.1520395 -4.5037508 -0.25872254 16
-2.1446378 -4.4862475 -0.085267127 14
-2.1503859 -4.4962549 1.3242903 9
-2.1508925 -4.4952984 1.1407635 8
-2.1442544 -4.4794164 0.95700109 9
-2.1368341 -4.4619155 0.77662247 13
-2.1458421 -4.4787178 0.60508126 9
-2.1458418 -4.4767127 0.43098512 13
-2.1475112 -4.4781899 0.25827792 12
-2.135756 -4.451684 0.085516788 15
-0.8223393 -1.7102225 -0.49822688 3
-0.94161814 -1.9574124 -0.49264312 2
-1.1212944 -2.3298779 -0.49470508 6
-2.1504004 -4.4662075 -0.77904427 11
-2.1530638 -4.4697433 -0.60447264 12
-2.133589 -4.4273372 -0.42662802 15
-2.1482313 -4.4557319 -0.25637525 16
-2.1407373 -4.4382086 -0.084489614 14
-2.147176 -4.4495726 1.312651 9
-2.1475074 -4.4482756 1.1306484 8
-2.1406651 -4.4321265 0.94842237 8
-2.1330583 -4.4144096 0.76959068 12
-2.1420231 -4.4309883 0.59959716 10
-2.1419375 -4.4288383 0.42706317 12
-2.1457319 -4.4347091 0.25618449 13
-2.1338568 -4.4082031 0.084818684 16
-0.82860202 -1.707197 -0.49822688 3
-0.94878608 -1.953948 -0.49264312 2
-1.1319709 -2.3301671 -0.49565825 6
-2.1494863 -4.4227629 -0.77278692 12
-2.1520712 -4.4261165 -0.59959787 12
-2.1323709 -4.3836541 -0.42314178 14
-2.1470683 -4.4119105 -0.25428879 16
-2.1394827 -4.3943739 -0.08379849 13
-2.1444352 -4.4025931 1.3010117 9
-2.1445887 -4.4009576 1.1205331 9
-2.139688 -4.3889551 0.94079685 9
-2.1319039 -4.3710513 0.76334018 12
-2.1408389 -4.3874269 0.59472239 9
-2.1406748 -4.385149 0.42357689 12
-2.1422505 -4.3864346 0.25382939 13
-2.1324422 -4.364419 0.084120594 16
-0.83455622 -1.7042942 -0.49822688 3
-0.95345747 -1.946249 -0.49151835 2
-1.1400979 -2.3262014 -0.49565825 7
-2.145344 -4.3753262 -0.76574737 12
-2.150023 -4.3829331 -0.59472311 12
-2.1301043 -4.3404117 -0.41965556 15
-2.1426499 -4.3640494 -0.2519415 16
-2.1349723 -4.3464947 -0.083020978 14
-2.1427491 -4.3604031 1.2906657 9
-2.1405926 -4.354095 1.1104181 9
-2.135499 -4.3418198 0.93221813 9
-2.1297057 -4.3281341 0.75708967 13
-2.1386058 -4.3443074 0.58984756 9
-2.1383634 -4.3419018 0.42009068 13
-2.1398945 -4.3430982 0.25173596 13
-2.129981 -4.3210759 0.083422497 16
-0.83836108 -1.6970406 -0.49693277 3
-0.96240401 -1.9472767 -0.49264312 2
-1.1482108 -2.3222077 -0.49565825 7
-2.1430864 -4.3323984 -0.75948995 11
-2.1476998 -4.339819 -0.58984828 12
-2.127562 -4.2972398 -0.41616932 15
-2.1401405 -4.3207488 -0.24985503 16
-2.1323738 -4.3031802 -0.082329854 14
-2.1407945 -4.3182788 1.2803197 9
-2.1384597 -4.3116784 1.1014268 9
-2.1331885 -4.2991648 0.92459267 9
-2.1272337 -4.285285 0.75083923 13
-2.1338909 -4.296813 0.58436352 9
-2.1379926 -4.3031864 0.41704023 12
-2.1372619 -4.2998319 0.24964251 12
-2.1272438 -4.2778039 0.0827244 16
-0.84427977 -1.6941038 -0.49693277 3
-0.96919537 -1.9439054 -0.49264312 2
-1.1563098 -2.3181856 -0.49565825 6
-2.1405559 -4.2895408 -0.7532326 12
-2.145102 -4.2967739 -0.58497345 11
-2.1247442 -4.254138 -0.41268307 14
-2.1373549 -4.2775192 -0.24776855 16
-2.129499 -4.2599373 -0.081638739 14
-2.1385722 -4.2762218 1.2699736 10
-2.1360574 -4.26933 1.0924356 10
-2.1306067 -4.2565794 0.91696715 10
-2.1244891 -4.242507 0.74458873 12
-2.1310935 -4.2538414 0.57948875 10
-2.1351459 -4.2600737 0.41355398 13
-2.1365914 -4.2611012 0.24781074 14
-2.1242306 -4.2346044 0.082026303 17
-0.85018814 -1.6911465 -0.49693277 3
-0.97597492 -1.9405104 -0.49264312 2
-1.1643947 -2.3141351 -0.49565825 5
-2.1377523 -4.2467542 -0.74697518 12
-2.14223 -4.2538009 -0.58009869 12
-2.1238928 -4.2155571 -0.40963262 15
-2.1342938 -4.2343616 -0.24568209 16
-2.1285996 -4.2212315 -0.081034005 14
-2.1360826 -4.2342329 1.2596277 9
-2.1333859 -4.2270522 1.0834444 9
-2.1277537 -4.2140641 0.90934163 10
-2.1236985 -4.2042089 0.73911959 13
-2.1280222 -4.2109423 0.57461393 9
-2.1320243 -4.2170329 0.41006777 13
-2.1334233 -4.2179718 0.24571729 14
-2.1209419 -4.1914783 0.081328206 40
-0.85608613 -1.6881684 -0.49693277 3
-0.98274267 -1.9370918 -0.49264312 2
-1.1724654 -2.3100567 -0.49565825 4
-2.1369121 -4.2084432 -0.74149996 12
-2.1413321 -4.2153254 -0.57583332 12
-2.1205416 -4.1725941 -0.40614638 15
-2.1332204 -4.1957288 -0.2438564 17
-2.1251895 -4.1781278 -0.080342889 15
-2.1333263 -4.1923141 1.2492816 9
-2.1326556 -4.189187 1.075577 9
-2.1246302 -4.1716218 0.90171617 9
-2.1204243 -4.1615672 0.73286909 12
-2.1269317 -4.1725388 0.5703485 10
-2.1308916 -4.1785045 0.40701732 13
-2.1322498 -4.1793652 0.24388555 15
-2.117378 -4.148427 0.080630116 40
-0.86197376 -1.6851698 -0.49693277 3
-0.98727894 -1.9293125 -0.49151835 2
-1.1805218 -2.3059499 -0.49565825 4
-2.1335795 -4.1657939 -0.73524255 12
-2.137929 -4.1724916 -0.5709585 12
-2.1191888 -4.1341391 -0.40309593 15
-2.1296251 -4.1527128 -0.24176994 17
-2.1237864 -4.1395478 -0.079738148 15
-2.1303034 -4.1504664 1.2389357 10
-2.1294618 -4.1470447 1.0665858 9
-2.1212363 -4.1292524 0.89409065 9
-2.1191359 -4.1233931 0.72739989 13
-2.1233296 -4.1297803 0.56547374 10
-2.1272376 -4.1356053 0.4035311 13
-2.1308327 -4.1408181 0.24205379 14
-2.1158285 -4.1098971 0.08001928 39
-0.8678509 -1.6821507 -0.49693277 3
-0.99400747 -1.9258544 -0.49151835 2
-1.1863122 -2.2974539 -0.49470508 4
-2.1322422 -4.1276083 -0.72976738 12
-2.1365316 -4.1341419 -0.56669313 12
-2.1175933 -4.0957441 -0.40004545 15
-2.1280499 -4.1142087 -0.23994428 16
-2.1198428 -4.0965886 -0.079047032 14
-2.1270149 -4.1086917 1.2285897 10
-2.1282403 -4.1093025 1.0587184 10
-2.1198308 -4.0913162 0.88741827 9
-2.1153345 -4.0808945 0.72114944 12
-2.1217401 -4.0915041 0.56120831 10
-2.1256042 -4.0972052 0.40048063 14
-2.1291728 -4.1023321 0.24022202 14
-2.1117318 -4.0669923 0.079321183 38
-0.87371737 -1.6791111 -0.49693277 3
-0.99847442 -1.9180518 -0.49039361 2
-1.1920574 -2.2889457 -0.49375188 3
-2.1283824 -4.085103 -0.72351003 13
-2.1348925 -4.0958529 -0.56242764 12
-2.115756 -4.0574112 -0.39699501 15
-2.1262321 -4.0757666 -0.23811863 16
-2.1179383 -4.0581408 -0.078442298 15
-2.1256957 -4.0712724 1.2195368 9
-2.124526 -4.0673013 1.0497272 9
-2.1159134 -4.0490909 0.87979275 10
-2.1135504 -4.0428495 0.71568024 13
-2.1199093 -4.0532894 0.55694282 10
-2.1237285 -4.058867 0.39743018 13
-2.1249547 -4.0594854 0.23812859 13
-2.1096809 -4.028595 0.078710347 39
-0.87957323 -1.676051 -0.49693277 3
-1.0028988 -1.910241 -0.48926884 2
-1.1954753 -2.2760799 -0.49184549 3
-2.1265492 -4.0470467 -0.71803474 12
-2.1330123 -4.0576267 -0.55816221 13
-2.113677 -4.0191422 -0.39394456 15
-2.1241717 -4.0373869 -0.23629294 16
-2.1157916 -4.0197558 -0.077837572 14
-2.1218915 -4.0296383 1.2091908 10
-2.1228151 -4.0296865 1.0418599 9
-2.1140158 -4.0112848 0.87312049 10
-2.1092234 -4.0004983 0.7094298 12
-2.1178379 -4.0151386 0.55267745 10
-2.1216116 -4.0205922 0.39437976 13
-2.1227946 -4.0211334 0.23629683 14
-2.1073878 -3.990262 0.078099512 39
-0.88571036 -1.6728159 -0.49693277 3
-1.0098935 -1.9065524 -0.48926884 2
-1.199213 -2.2630088 -0.48993912 2
-2.1251762 -4.0086827 -0.71255958 12
-2.1315932 -4.0190916 -0.55389678 13
-2.1120517 -3.9805684 -0.39089411 15
-2.1225679 -3.998702 -0.2344673 17
-2.1140976 -3.9810669 -0.077232838 14
-2.1207848 -3.9919775 1.2001381 9
-2.1192782 -3.9874618 1.0328686 9
-2.1125734 -3.9731734 0.86644816 9
-2.1076369 -3.9622207 0.70396066 13
-2.1162202 -3.9766827 0.54841202 10
-2.1199484 -3.9820123 0.39132926 13
-2.121088 -3.9824769 0.23446508 14
-2.1055427 -3.9516273 0.077488683 38
-0.89154422 -1.669714 -0.49693277 3
-1.018838 -1.907313 -0.49039361 2
-1.2024783 -2.2501512 -0.48803276 2
-2.1228578 -3.9707546 -0.70708436 13
-2.1292253 -3.9809935 -0.54963136 13
-2.109484 -3.9424286 -0.38784364 15
-2.1200178 -3.9604535 -0.23264164 12
-2.1114604 -3.9428136 -0.076628104 14
-2.1187406 -3.9547489 1.1910853 9
-2.1170735 -3.9499807 1.0250013 9
-2.1101935 -3.9354947 0.85977584 10
-2.1074479 -3.9287276 0.69927275 12
-2.1136618 -3.9386609 0.54414654 10
-2.1173429 -3.9438684 0.38827884 13
-2.120801 -3.9486556 0.23289499 14
-2.1027656 -3.9134235 0.07687784 40
-0.89736712 -1.6665918 -0.49693277 3
-1.0277998 -1.908034 -0.49151835 2
-1.2103255 -2.2459402 -0.48803276 2
-2.1203008 -3.9328916 -0.70160919 13
-2.1266179 -3.9429615 -0.54536593 12
-2.1090415 -3.90874 -0.38522899 16
-2.1195984 -3.9266653 -0.23107678 12
-2.1109576 -3.9090259 -0.07610976 15
-2.1164622 -3.9175832 1.1820325 9
-2.1146331 -3.9125645 1.017134 9
-2.1075766 -3.8978815 0.85310352 10
-2.1047013 -3.8909409 0.69380361 13
-2.1108639 -3.9007065 0.53988117 9
-2.1144969 -3.9057915 0.3852284 14
-2.1179261 -3.910495 0.23106325 14
-2.102118 -3.8796902 0.076354273 37
-0.90087467 -1.659205 -0.4956387 2
-1.0367794 -1.9087158 -0.49264312 2
-1.2181579 -2.2417016 -0.48803276 2
-2.1175051 -3.8950946 -0.69613391 12
-2.1237712 -3.9049962 -0.5411005 13
-2.1060088 -3.8707268 -0.38217852 15
-2.1165822 -3.8885436 -0.22925112 12
-2.1078544 -3.8708999 -0.075505033 15
-2.1139503 -3.880482 1.1729797 9
-2.1119571 -3.8752129 1.0092666 9
-2.1070724 -3.8646445 0.84738433 9
-2.1040814 -3.8575561 0.6891157 13
-2.1078272 -3.8628201 0.53561574 10
-2.1137981 -3.872155 0.38261372 13
-2.1172037 -3.8767846 0.22949316 14
-2.0988691 -3.8416183 0.075743437 39
-0.90666085 -1.6560502 -0.4956387 3
-1.045776 -1.909358 -0.49376786 2
-1.2283342 -2.2417405 -0.48898596 2
-2.1168458 -3.861697 -0.69144094 12
-2.1206853 -3.8670998 -0.53683501 13
-2.1051326 -3.8371506 -0.37956384 16
-2.1157281 -3.8548679 -0.22768626 12
-2.1069169 -3.8372259 -0.074986689 15
-2.1112058 -3.8434467 1.1639271 10
-2.1090465 -3.8379285 1.0013993 9
-2.1039977 -3.827158 0.84071207 9
-2.1008744 -3.8198974 0.68364656 13
-2.1045518 -3.8250029 0.53135031 10
-2.1104884 -3.8342078 0.37956327 14
-2.1138637 -3.8387539 0.2276614 14
-2.0977929 -3.807996 0.07521987 40
-0.91010201 -1.6486471 -0.49434459 3
-1.0547898 -1.9099607 -0.49489263 2
-1.2361518 -2.2374392 -0.48898596 2
-2.11359 -3.8240283 -0.68596566 13
-2.1173611 -3.8292725 -0.53256965 13
-2.1040478 -3.8036275 -0.37694916 16
-2.1122475 -3.8168776 -0.2258606 13
-2.1033487 -3.799232 -0.074381955 15
-2.1082284 -3.8064778 1.1548742 10
-2.108263 -3.8049736 0.99465585 9
-2.1030667 -3.7940331 0.834993 10
-2.0998254 -3.7866268 0.67895865 13
-2.1034458 -3.791595 0.52769423 10
-2.1093566 -3.8006859 0.37694857 14
-2.1127079 -3.8051591 0.22609131 14
-2.0940802 -3.7700582 0.074609034 38
-0.91585129 -1.6454601 -0.49434459 3
-1.0614505 -1.9062672 -0.49489263 2
-1.2439544 -2.2331104 -0.48898596 2
-2.1125019 -3.7907448 -0.68127269 13
-2.1162155 -3.7958505 -0.5289135 13
-2.1027548 -3.7701592 -0.37433451 15
-2.1109605 -3.7833188 -0.22429574 12
-2.1019778 -3.7656755 -0.073863626 16
-2.1073737 -3.7737947 1.1471148 10
-2.1048992 -3.767818 0.98678851 9
-2.0995352 -3.7566767 0.82832062 10
-2.0985699 -3.7534108 0.67427087 12
-2.1021323 -3.7582421 0.52403814 10
-2.1080172 -3.7672198 0.37433392 13
-2.1089046 -3.7672625 0.22425956 14
-2.0925708 -3.7365544 0.074085459 38
-0.91922587 -1.6380414 -0.49305049 3
-1.065713 -1.8983021 -0.49376786 2
-1.2517419 -2.2287548 -0.48898596 2
-2.1112068 -3.7575154 -0.67657959 12
-2.1148624 -3.7624836 -0.52525747 12
-2.101254 -3.7367463 -0.37171981 16
-2.1094649 -3.7498162 -0.22273089 13
-2.1003983 -3.7321746 -0.073345274 15
-2.1039472 -3.7369547 1.138062 10
-2.1036928 -3.7349777 0.98004514 9
-2.0981789 -3.7236683 0.8226015 10
-2.0946832 -3.7159476 0.66880161 13
-2.1006119 -3.7249451 0.52038211 11
-2.1064694 -3.7338088 0.37171924 13
-2.107317 -3.7337883 0.22268949 15
-2.0908535 -3.7031076 0.073561884 38
-0.92465276 -1.6349843 -0.49305049 3
-1.0692732 -1.8907043 -0.49264312 2
-1.2587376 -2.2248113 -0.48898596 2
-2.1084056 -3.7250776 -0.67188662 13
-2.1120005 -3.7299099 -0.52160138 13
-2.098253 -3.7041233 -0.36910516 16
-2.1064641 -3.7171059 -0.22116603 12
-2.0973196 -3.6994641 -0.072826929 15
-2.1013803 -3.7051189 1.1303024 9
-2.1009903 -3.7029254 0.97330165 9
-2.0953293 -3.6914465 0.81688237 9
-2.0917151 -3.6835816 0.66411382 13
-2.0975957 -3.6924369 0.51672596 10
-2.1009619 -3.6968596 0.36866879 14
-2.1042295 -3.7011054 0.2211194 15
-2.087647 -3.6704476 0.073038317 37
-0.93006951 -1.6319089 -0.49305049 3
-1.0734534 -1.8827277 -0.49151835 2
-1.2664958 -2.2204039 -0.48898596 2
-2.1067104 -3.6919596 -0.66719353 13
-2.1102455 -3.6966555 -0.51794529 13
-2.0963492 -3.6708245 -0.36649045 15
-2.1045647 -3.683717 -0.21960118 13
-2.0953362 -3.6660783 -0.072308592 14
-2.0999165 -3.6726038 1.1225429 10
-2.0993888 -3.6701946 0.96655822 9
-2.0935755 -3.6585495 0.81116331 10
-2.0898387 -3.6505418 0.65942591 13
-2.0956743 -3.6592536 0.51306993 10
-2.0989964 -3.6635718 0.36605412 14
-2.1022379 -3.6677454 0.21954931 14
-2.085526 -3.6371167 0.072514743 39
-0.93604445 -1.6284891 -0.49305049 2
-1.0779183 -1.8745575 -0.49039361 2
-1.2746255 -2.2157471 -0.48898596 2
-2.1054485 -3.6585317 -0.66250056 13
-2.1089232 -3.6630905 -0.5142892 13
-2.0948734 -3.6372182 -0.36387578 16
-2.105588 -3.6543469 -0.21829714 13
-2.0937791 -3.6323862 -0.071790248 15
-2.0988867 -3.6397789 1.1147834 10
-2.0982194 -3.6371543 0.95981485 9
-2.0947034 -3.629596 0.80639732 9
-2.0883892 -3.6171963 0.65473807 13
-2.0941792 -3.6257634 0.50941384 10
-2.0974581 -3.6299775 0.36343947 14
-2.1006739 -3.6340783 0.21797925 14
-2.0863297 -3.6078103 0.072078437 40
-0.94172329 -1.6252117 -0.49305049 2
-1.0844551 -1.8707836 -0.49039361 2
-1.2823521 -2.2112842 -0.48898596 2
-2.1008589 -3.6212587 -0.65702528 13
-2.1067505 -3.6299536 -0.51063311 13
-2.0950518 -3.608346 -0.3616969 16
-2.1032836 -3.6210682 -0.21673228 12
-2.0913758 -3.5991211 -0.071271911 15
-2.0970151 -3.6073763 1.1070238 10
-2.0962069 -3.604538 0.95307136 9
-2.0925508 -3.5968063 0.80067813 10
-2.0860975 -3.5842743 0.65005016 13
-2.09184 -3.5926991 0.50575775 10
-2.0950742 -3.5968096 0.36082476 13
-2.0982628 -3.6008387 0.21640916 15
-2.0838044 -3.5745919 0.071554862 39
-0.94739056 -1.6219146 -0.49305049 2
-1.0909787 -1.8669866 -0.49039361 2
-1.2900631 -2.2067945 -0.48898596 2
-2.0985286 -3.5883257 -0.65233225 13
-2.1068783 -3.6011603 -0.50758636 13
-2.0925384 -3.5752182 -0.35908222 16
-2.1007731 -3.5878513 -0.21516743 13
-2.0887656 -3.5659163 -0.070753567 15
-2.0949433 -3.5750322 1.0992644 10
-2.0939927 -3.5719807 0.94632798 9
-2.0901952 -3.5640769 0.79495907 9
-2.0836017 -3.5514138 0.64536238 13
-2.0892959 -3.5596955 0.50210166 11
-2.0924845 -3.5637028 0.35821012 14
-2.0956459 -3.5676608 0.2148391 14
-2.0810721 -3.541435 0.071031287 41
-0.95304632 -1.6185977 -0.49305049 3
-1.0974891 -1.863167 -0.49039361 2
-1.2977585 -2.2022779 -0.48898596 2
-2.0959938 -3.5554531 -0.64763921 13
-2.1043096 -3.5681353 -0.50393027 13
-2.089819 -3.5421519 -0.35646752 16
-2.0980561 -3.5546958 -0.21360257 12
-2.088491 -3.5370793 -0.07032162 15
-2.0926712 -3.5427463 1.0915048 11
-2.0915768 -3.5394828 0.93958449 10
-2.0901344 -3.5356328 0.79019308 10
-2.0809021 -3.5186136 0.64067447 13
-2.0865467 -3.5267534 0.49844557 10
-2.092226 -3.5349448 0.35603121 13
-2.0953665 -3.5388415 0.21353069 15
-2.0806825 -3.5126431 0.070594981 40
-0.95869046 -1.6152611 -0.49305049 2
-1.1039861 -1.8593248 -0.49039361 2
-1.305438 -2.1977346 -0.48898596 2
-2.0932553 -3.5226426 -0.64294618 13
-2.1015363 -3.5351734 -0.50027424 13
-2.0894411 -3.5134304 -0.35428864 16
-2.0976865 -3.5258944 -0.21229851 13
-2.085484 -3.5039918 -0.069803283 15
-2.09267 -3.5146699 1.0850385 11
-2.0914528 -3.5112314 0.93396497 9
-2.087388 -3.5030162 0.78447396 10
-2.0805278 -3.4901183 0.63676792 14
-2.0861354 -3.4981368 0.49539888 10
-2.0892408 -3.5019546 0.35341653 14
-2.0923526 -3.50578 0.2119606 15
-2.0775542 -3.4796045 0.070071407 41
-0.96432292 -1.6119047 -0.49305049 3
-1.1104697 -1.8554598 -0.49039361 2
-1.3131015 -2.1931643 -0.48898596 2
-2.0928507 -3.4941308 -0.63903534 13
-2.0985587 -3.5022736 -0.49661812 13
-2.0863268 -3.4804819 -0.35167396 16
-2.0945737 -3.4928575 -0.21073368 12
-2.0848434 -3.4752557 -0.069371328 15
-2.0900135 -3.4824965 1.0772791 11
-2.0886497 -3.4788475 0.9272216 9
-2.0844398 -3.4704628 0.77875489 10
-2.0774364 -3.4574354 0.63208008 13
-2.0829928 -3.4653125 0.49174276 11
-2.0886178 -3.4732971 0.35123762 13
-2.0917082 -3.4770622 0.21065222 15
-2.0767987 -3.4509141 0.069635101 42
-0.97243762 -1.6126648 -0.49434459 3
-1.1169397 -1.8515722 -0.49039361 2
-1.3207492 -2.1885674 -0.48898596 2
-2.089721 -3.4614377 -0.63434225 13
-2.0979431 -3.4736867 -0.49357137 13
-2.0855842 -3.4518619 -0.34949505 16
-2.0938389 -3.4641583 -0.20942962 13
-2.084028 -3.4465675 -0.06893938 16
-2.087158 -3.4503839 1.0695195 10
-2.0881686 -3.4506941 0.92160207 9
-2.0812898 -3.4379723 0.77303571 10
-2.0767009 -3.4290414 0.62817353 14
-2.0822186 -3.4367979 0.48869604 11
-2.0878203 -3.4446874 0.34905878 14
-2.0908885 -3.4483914 0.20934382 15
-2.0758684 -3.422272 0.069198787 43
-0.97806102 -1.6092606 -0.49434459 3
-1.123396 -1.8476621 -0.49039361 2
-1.3258299 -2.17975 -0.48803276 2
-2.0889552 -3.433028 -0.63043135 13
-2.0945733 -3.440908 -0.48991531 13
-2.0820768 -3.4190354 -0.34688041 16
-2.0903318 -3.4312432 -0.20786478 13
-2.0830376 -3.417927 -0.068507425 16
-2.0866184 -3.4224584 1.0630534 10
-2.0849791 -3.4184272 0.91485858 9
-2.0779388 -3.4055471 0.76731664 10
-2.0757926 -3.4006948 0.62426692 14
-2.0786846 -3.4040961 0.48503998 11
-2.0868487 -3.4161253 0.34687987 14
-2.0898943 -3.4197693 0.20803542 15
-2.0747635 -3.3936787 0.068762474 44
-0.98367238 -1.6058366 -0.49434459 3
-1.1298388 -1.8437295 -0.49039361 2
-1.3334304 -2.1751087 -0.48803276 2
-2.0854354 -3.4004567 -0.62573838 13
-2.093595 -3.412425 -0.48686856 13
-2.080971 -3.390521 -0.3447015 16
-2.0892329 -3.4026499 -0.20656073 12
-2.0818729 -3.3893361 -0.068075471 16
-2.0833805 -3.3904634 1.0552938 10
-2.084142 -3.3903761 0.90923911 10
-2.0769579 -3.3773677 0.76255065 10
-2.074712 -3.3723967 0.62036043 14
-2.0775487 -3.3756874 0.48199323 11
-2.0830917 -3.3833709 0.34426516 15
-2.0887258 -3.3911958 0.20672701 16
-2.0734844 -3.365135 0.068326168 42
-0.98927176 -1.6023933 -0.49434459 3
-1.1362677 -1.8397744 -0.49039361 2
-1.3435949 -2.1746166 -0.48898596 2
-2.0843101 -3.3721526 -0.62182748 13
-2.0950539 -3.3882124 -0.48443118 13
-2.0796919 -3.3620563 -0.34252259 17
-2.0879602 -3.3741066 -0.20525669 13
-2.0805342 -3.360795 -0.067643523 16
-2.0824878 -3.3626394 1.0488275 11
-2.0831344 -3.3623722 0.90361959 10
-2.0732203 -3.3450658 0.75683153 10
-2.0734594 -3.3441477 0.61645383 14
-2.0762398 -3.3473277 0.47894648 11
-2.081758 -3.354917 0.34208629 14
-2.0873837 -3.362673 0.20541862 16
-2.0720315 -3.3366416 0.067889854 43
-0.9974106 -1.6030309 -0.4956387 3
-1.1426827 -1.8357968 -0.49039361 2
-1.3563663 -2.1782463 -0.49089235 2
-2.0830128 -3.3438978 -0.61791664 14
-2.0937448 -3.3598194 -0.48138443 14
-2.0782397 -3.333642 -0.34034371 16
-2.086514 -3.345614 -0.20395264 13
-2.0790215 -3.332305 -0.067211576 16
-2.0814264 -3.3348632 1.0423613 10
-2.0819566 -3.3344171 0.89800006 11
-2.0718825 -3.3169935 0.75206554 10
-2.0720344 -3.3159487 0.61254728 14
-2.0747588 -3.3190193 0.47589979 11
-2.0802512 -3.3265138 0.33990738 14
-2.0858681 -3.3342009 0.20411022 16
-2.0704052 -3.3081999 0.067453548 45
-1.0030001 -1.5995395 -0.4956387 3
-1.149084 -1.831797 -0.49039361 2
-1.3691795 -2.1818135 -0.49279872 2
-2.0815439 -3.3156939 -0.6140058 14
-2.092263 -3.3314774 -0.47833771 14
-2.0766144 -3.3052788 -0.33816481 16
-2.0848944 -3.3171728 -0.20264859 13
-2.0773358 -3.3038666 -0.066779621 15
-2.0801969 -3.3071358 1.0358951 11
-2.0806098 -3.3065114 0.89238054 10
-2.0703745 -3.2889719 0.74729961 10
-2.067807 -3.283622 0.60785943 13
-2.0731053 -3.2907619 0.47285303 12
-2.0785718 -3.2981625 0.3377285 14
-2.0841794 -3.3057809 0.20280182 16
-2.0712729 -3.284039 0.067104504 44
-1.0111575 -1.6001114 -0.49693277 3
-1.1554711 -1.8277748 -0.49039361 2
-1.3872812 -2.1936142 -0.49661148 2
-2.0799034 -3.2875409 -0.6100949 14
-2.0906091 -3.3031864 -0.47529095 13
-2.0748165 -3.2769685 -0.3359859 17
-2.0831015 -3.2887836 -0.20134455 13
-2.0754769 -3.2754807 -0.066347674 16
-2.0762131 -3.2753782 1.0281355 11
-2.079093 -3.278656 0.88676101 10
-2.0686963 -3.2610016 0.74253368 10
-2.066025 -3.2555351 0.60395288 14
-2.07128 -3.2625568 0.46980631 11
-2.0767198 -3.2698638 0.33554959 14
-2.0823174 -3.2774131 0.20149343 15
-2.0693152 -3.2556932 0.06666819 47
-1.0167367 -1.596572 -0.49693277 3
-1.1618441 -1.8237302 -0.49039361 2
-1.384378 -2.1722016 -0.49279872 2
-2.0780921 -3.2594399 -0.60618407 14
-2.0887833 -3.2749481 -0.47224423 14
-2.0728467 -3.2487106 -0.33380702 16
-2.0784497 -3.2562389 -0.19977969 13
-2.0734451 -3.2471483 -0.065915719 15
-2.0746334 -3.2477593 1.0216693 11
-2.0774076 -3.2508516 0.88114142 11
-2.0668478 -3.2330832 0.73776776 11
-2.0640726 -3.2275007 0.60004634 14
-2.0692835 -3.2344048 0.46675956 11
-2.0773807 -3.2458134 0.33380648 14
-2.0802832 -3.249099 0.20018502 16
-2.0671852 -3.2274013 0.066231877 44
-1.0223037 -1.5930133 -0.49693277 3
-1.1682031 -1.8196636 -0.49039361 2
-1.3866472 -2.1590962 -0.49089235 2
-2.0787795 -3.2355473 -0.60305536 15
-2.086786 -3.246763 -0.46919748 14
-2.0707049 -3.2205067 -0.33162811 16
-2.0762975 -3.2279665 -0.19847564 13
-2.0712409 -3.2188704 -0.065483771 16
-2.0728865 -3.2201922 1.015203 11
-2.0755537 -3.2230992 0.87552196 11
-2.0648303 -3.2052178 0.73300183 11
-2.064625 -3.2036712 0.59692109 14
-2.0671155 -3.2063065 0.46371281 11
-2.0751996 -3.2176127 0.33162761 14
-2.0780771 -3.2208397 0.19887663 16
-2.064883 -3.1991646 0.065795571 43
-1.0304807 -1.5934906 -0.49822688 3
-1.1745478 -1.8155746 -0.49039361 2
-1.388842 -2.1460018 -0.48898596 2
-2.0766416 -3.2075436 -0.59914452 14
-2.0873156 -3.2227974 -0.4667601 15
-2.0683916 -3.192358 -0.32944921 17
-2.0739737 -3.1997492 -0.19717161 13
-2.0688653 -3.1906476 -0.065051816 15
-2.0709722 -3.1926765 1.0087367 11
-2.0735314 -3.1953998 0.86990243 10
-2.0653155 -3.1815228 0.72918904 11
-2.0623467 -3.175736 0.59301454 14
-2.0647771 -3.1782637 0.46066609 11
-2.0728471 -3.1894672 0.3294487 14
-2.0784204 -3.1968215 0.1978299 16
-2.0624092 -3.1709831 0.065359257 46
-1.0360368 -1.5898838 -0.49822688 3
-1.1808782 -1.8114636 -0.49039361 2
-1.390962 -2.1329179 -0.48707953 2
-2.0770316 -3.1837308 -0.59601581 15
-2.0849907 -3.1947117 -0.46371335 15
-2.0659075 -3.1642649 -0.3272703 17
-2.0742083 -3.1757684 -0.19612837 13
-2.0690522 -3.1666663 -0.064706258 16
-2.0688915 -3.1652141 1.0022705 11
-2.071341 -3.1677542 0.86428291 11
-2.062974 -3.1537564 0.72442311 11
-2.0626028 -3.1519878 0.58988929 14
-2.062268 -3.1502759 0.45761937 11
-2.0703237 -3.1613772 0.32726982 15
-2.0758855 -3.1686635 0.19652151 17
-2.0597637 -3.1428583 0.064922951 45
-1.0415802 -1.5862578 -0.49822688 3
-1.1871942 -1.8073306 -0.49039361 2
-1.3983988 -2.1280494 -0.48707953 2
-2.0745685 -3.155828 -0.59210491 15
-2.0824957 -3.1666822 -0.46066663 15
-2.0632522 -3.1362281 -0.32509142 12
-2.0715561 -3.1476538 -0.19482432 14
-2.0663478 -3.1385469 -0.064274311 16
-2.0666444 -3.1378047 0.99580419 12
-2.0689831 -3.1401625 0.85866338 11
-2.0604641 -3.1260452 0.71965712 11
-2.0627184 -3.1282768 0.58676404 14
-2.0623214 -3.1264875 0.45518199 12
-2.0703728 -3.137502 0.32552668 15
-2.0759304 -3.1447299 0.19547479 16
-2.0597022 -3.1189623 0.064573899 48
-1.0444459 -1.5785844 -0.49693277 3
-1.1934956 -1.8031754 -0.49039361 2
-1.4058186 -2.1231551 -0.48707953 2
-2.0719361 -3.1279817 -0.58819407 15
-2.0825713 -3.1428461 -0.45822924 15
-2.0631788 -3.1124003 -0.32334828 13
-2.0687332 -3.1195967 -0.19352028 14
-2.0662363 -3.114651 -0.063928746 16
-2.0642314 -3.1104503 0.98933792 11
-2.0691528 -3.1166854 0.85416776 12
-2.0605016 -3.1024792 0.71584439 11
-2.0599608 -3.1004906 0.58285755 15
-2.0594871 -3.098604 0.45213524 11
-2.0675225 -3.1095166 0.32334781 15
-2.0730679 -3.116677 0.19416638 17
-2.0567296 -3.0909436 0.064137593 46
-1.0472709 -1.5709105 -0.4956387 3
-1.2024857 -1.8030514 -0.49151835 2
-1.4132211 -2.1182351 -0.48707953 2
-2.0718763 -3.1042998 -0.58506536 15
-2.0797508 -3.1149206 -0.45518249 14
-2.0601978 -3.0844696 -0.32116941 13
-2.0685136 -3.0957496 -0.19247703 14
-2.0659831 -3.0907946 -0.06358318 17
-2.0643375 -3.0871661 0.98416495 11
-2.0664749 -3.0891957 0.84854823 12
-2.0576701 -3.0748718 0.71107846 11
-2.0597816 -3.0768652 0.57973224 15
-2.0592449 -3.0749025 0.44969785 12
-2.067275 -3.0857282 0.32160467 16
-2.0728154 -3.0928307 0.19311966 17
-2.0563707 -3.0671358 0.063788541 47
-1.050055 -1.5632361 -0.49434459 3
-1.2087721 -1.798843 -0.49151835 2
-1.4206066 -2.1132889 -0.48707953 2
-2.0689206 -3.0765586 -0.58115453 16
-2.0795307 -3.0911713 -0.45274511 15
-2.059828 -3.06073 -0.3194263 13
-2.0681529 -3.0719426 -0.1914338 14
-2.065589 -3.0669782 -0.063237622 16
-2.064306 -3.0639193 0.97899193 11
-2.0663538 -3.0658035 0.84405261 11
-2.0574148 -3.0513916 0.70726568 12
-2.0594628 -3.0532796 0.57660699 15
-2.0588624 -3.0512402 0.44726047 11
-2.0668864 -3.0619793 0.31986156 16
-2.0696273 -3.0648863 0.19181128 17
-2.0558708 -3.0433688 0.063439496 49
-1.0582123 -1.563561 -0.4956387 3
-1.215044 -1.7946126 -0.49151835 2
-1.4279746 -2.1083174 -0.48707953 2
-2.0685668 -3.0529644 -0.57802582 15
-2.0763862 -3.0633535 -0.44969836 16
-2.0593178 -3.0370309 -0.31768319 12
-2.0648487 -3.0440435 -0.19012977 14
-2.0650535 -3.0432022 -0.062892064 17
-2.0614254 -3.0367146 0.97252572 11
-2.0633574 -3.0384195 0.83843309 12
-2.0570211 -3.0279515 0.70345294 12
-2.0590048 -3.0297337 0.5734818 15
-2.0583398 -3.0276186 0.44482309 11
-2.0663576 -3.0382712 0.31811845 16
-2.0690782 -3.0411301 0.19076456 17
-2.0552301 -3.0196428 0.063090444 45
-1.0636636 -1.5598576 -0.4956387 2
-1.221301 -1.7903603 -0.49151835 2
-1.438092 -2.1073742 -0.48803276 2
-2.065289 -3.025332 -0.57411492 16
-2.0758715 -3.0396941 -0.44726098 16
-2.0586674 -3.0133727 -0.31594005 13
-2.0641923 -3.0203276 -0.18908653 14
-2.0615561 -3.0153408 -0.062460113 17
-2.0611062 -3.0135539 0.96735269 12
-2.0629463 -3.0151145 0.83393741 12
-2.0564888 -3.0045509 0.69964021 12
-2.0584073 -3.0062284 0.57035655 15
-2.0576777 -3.0040381 0.4423857 12
-2.0656884 -3.0146041 0.31637534 16
-2.0683887 -3.0174155 0.18971784 17
-2.0544491 -2.9959586 0.062741399 49
-1.0691022 -1.5561352 -0.4956387 3
-1.2303026 -1.7901016 -0.49264312 2
-1.4454393 -2.1023414 -0.48803276 2
-2.0646427 -3.0018287 -0.57098627 16
-2.0724041 -3.0119872 -0.44421425 15
-2.0578771 -2.9897563 -0.31419694 13
-2.0633953 -2.9966538 -0.1880433 14
-2.0607255 -2.9916582 -0.062114555 17
-2.0579102 -2.9864552 0.96088642 11
-2.0623977 -2.9918499 0.82944185 11
-2.0558183 -2.9811916 0.69582742 11
-2.0548668 -2.9786994 0.56645 15
-2.0540576 -2.9764144 0.43933898 12
-2.0648794 -2.9909794 0.31463224 17
-2.0647213 -2.989634 0.18840943 18
-2.0506859 -2.9682035 0.062305089 49
-1.0742567 -1.5525814 -0.4956387 2
-1.2362319 -1.7860118 -0.49264312 2
-1.4524031 -2.0975366 -0.48803276 2
-2.0633373 -2.9787269 -0.56785756 16
-2.0710745 -2.9887819 -0.44177687 16
-2.0535917 -2.9624479 -0.31201804 13
-2.06194 -2.9733822 -0.18700007 15
-2.0563869 -2.9642699 -0.061682601 17
-2.0567877 -2.963743 0.95571339 12
-2.0584154 -2.9649837 0.82382232 12
-2.0516939 -2.954201 0.69106156 11
-2.053462 -2.9556456 0.56332475 14
-2.052587 -2.9532862 0.4369016 12
-2.0634127 -2.967757 0.31288913 16
-2.0632195 -2.9663742 0.18736272 17
-2.0490963 -2.9449723 0.061956041 48
-1.0796696 -1.5488219 -0.4956387 2
-1.2424588 -1.7816857 -0.49264312 2
-1.459716 -2.092454 -0.48803276 2
-2.0624177 -2.9553072 -0.56472886 15
-2.0672905 -2.9611883 -0.43873012 16
-2.0525122 -2.9389267 -0.31027493 14
-2.0608675 -2.9497938 -0.18595681 14
-2.0552661 -2.9406831 -0.061337039 16
-2.0532827 -2.9367537 0.94924712 12
-2.0575831 -2.9418108 0.8193267 12
-2.0507379 -2.9309344 0.68724877 12
-2.052439 -2.932276 0.5601995 14
-2.0514975 -2.9298422 0.43446419 12
-2.0623291 -2.9442174 0.31114599 16
-2.0621002 -2.9427977 0.186316 17
-2.0478911 -2.9214232 0.061606992 50
-1.0853391 -1.5448545 -0.4956387 2
-1.2489808 -1.7771199 -0.49264312 2
-1.4673754 -2.0870898 -0.48803276 2
-2.0618713 -2.9315708 -0.56160021 16
-2.0667069 -2.9373565 -0.43629274 15
-2.0489352 -2.9110181 -0.30809602 14
-2.0601664 -2.9258897 -0.18491358 15
-2.0545149 -2.9167819 -0.060991481 17
-2.0529048 -2.9134159 0.94407409 12
-2.0571237 -2.9183211 0.81483108 13
-2.0501521 -2.9073534 0.68343604 12
-2.0517852 -2.9085913 0.55707425 15
-2.0507765 -2.9060843 0.4320268 12
-2.0616157 -2.920362 0.30940288 17
-2.0613508 -2.9189053 0.18526928 17
-2.0470409 -2.8975692 0.061257944 49
-1.0879349 -1.5371144 -0.49434459 2
-1.2523611 -1.7687731 -0.49151835 2
-1.4689778 -2.0739446 -0.48612636 2
-2.0606716 -2.9082379 -0.5584715 16
-2.0654683 -2.9139292 -0.43385535 16
-2.0475595 -2.8875957 -0.30635291 13
-2.0588114 -2.9023902 -0.18387035 14
-2.0560045 -2.8973613 -0.060732309 17
-2.0518789 -2.8904781 0.93890113 12
-2.0560141 -2.8952332 0.81033546 12
-2.0460751 -2.8801723 0.67867005 12
-2.0504825 -2.8853095 0.553949 15
-2.0494058 -2.8827291 0.42958942 12
-2.06025 -2.8969114 0.30765978 17
-2.0599489 -2.8954182 0.18422256 18
-2.0455532 -2.8741102 0.060908895 48
-1.093026 -1.5334982 -0.49434459 2
-1.2579116 -1.7648299 -0.49151835 2
-1.4840348 -2.0813086 -0.48898596 3
-2.0583267 -2.8856678 -0.55534279 15
-2.063082 -2.8912671 -0.43141797 16
-2.0450454 -2.8649325 -0.30460978 13
-2.0563128 -2.8796537 -0.18282712 15
-2.0534728 -2.8746159 -0.060386747 17
-2.0497169 -2.8682995 0.9337281 12
-2.0537663 -2.872906 0.80583984 12
-2.0436928 -2.8577602 0.67485732 12
-2.048043 -2.862787 0.55082375 15
-2.0468996 -2.8601339 0.42715204 13
-2.0577426 -2.8742249 0.30591667 17
-2.0574057 -2.8726947 0.18317585 18
-2.0429206 -2.8514185 0.06055985 50
-1.0981053 -1.5298651 -0.49434459 2
-1.261223 -1.7564712 -0.49039361 2
-1.4998813 -2.0880749 -0.49184549 2
-2.0568597 -2.8624237 -0.55221415 16
-2.0644717 -2.8719587 -0.4295899 16
-2.0463097 -2.845645 -0.30330247 14
-2.0546887 -2.856245 -0.18178387 14
-2.0518146 -2.8511996 -0.060041185 16
-2.0484293 -2.845448 0.92855507 13
-2.0523932 -2.8499053 0.80134422 12
-2.0421793 -2.8346791 0.67104459 12
-2.0464735 -2.8395946 0.54769856 15
-2.0452616 -2.836869 0.42471462 13
-2.0561085 -2.8508646 0.30417356 16
-2.0557346 -2.8492982 0.18212913 13
-2.0440841 -2.8321087 0.060298059 50
-1.1037053 -1.52583 -0.49434459 3
-1.2676523 -1.7518367 -0.49039361 2
-1.5104026 -2.0865395 -0.49279872 2
-2.0557516 -2.8388665 -0.54908544 15
-2.0633385 -2.8482971 -0.42715251 16
-2.0450344 -2.8219924 -0.30155933 14
-2.0534208 -2.8325245 -0.18074064 14
-2.0505109 -2.827472 -0.059695628 16
-2.0474999 -2.8222835 0.9233821 13
-2.0513783 -2.8265915 0.7968486 12
-2.0410209 -2.8112879 0.6672318 12
-2.0452588 -2.8160911 0.54457331 15
-2.0439773 -2.8132937 0.42227724 12
-2.0548296 -2.8271928 0.30243042 17
-2.0544188 -2.8255906 0.18108241 14
-2.0426884 -2.8084259 0.059949014 50
-1.1090245 -1.5219681 -0.49434459 3
-1.2708896 -1.7434639 -0.48926884 2
-1.5321364 -2.1010835 -0.49756464 2
-2.0540071 -2.8157144 -0.54595673 15
-2.0615668 -2.825042 -0.42471513 16
-2.0431249 -2.7987447 -0.29981622 14
-2.0515163 -2.8092098 -0.17969741 14
-2.0485721 -2.8041501 -0.059350066 17
