# .PCD v0.7 - Point Cloud Data file format
VERSION 0.7
FIELDS x y z intensity
SIZE 4 4 4 4
TYPE F F F F
COUNT 1 1 1 1
WIDTH 1355
HEIGHT 1
VIEWPOINT 0 0 0 1 0 0 0
POINTS 1355
DATA ascii
1.5889937 -1.0134706 -0.4262825 14
1.5756365 -1.0053383 -0.3555395 10
1.5974253 -1.0196331 -0.29409704 18
1.6049446 -1.0248269 -0.22911462 18
1.5853604 -1.012711 -0.16123837 21
1.5721636 -1.0046674 -0.095456094 19
1.569645 -1.003444 -0.031532422 21
1.5865524 -1.0146426 0.49402237 22
1.5876397 -1.0157284 0.42595997 18
1.5824995 -1.0128292 0.35744563 18
1.583566 -1.0139014 0.29142877 22
1.57008 -1.0056533 0.22423957 16
1.5923327 -1.0202982 0.16210969 22
1.5875599 -1.0176309 0.096821509 22
1.5514045 -0.99483722 0.031501591 17
1.6046675 -1.0309694 -0.50081509 15
1.5772496 -1.0137428 -0.42403299 15
1.559732 -1.0028685 -0.35267991 9
1.5813962 -1.0171882 -0.29175052 19
1.5930109 -1.0250521 -0.22789593 19
1.5692509 -1.0101507 -0.15993103 22
1.560251 -1.0047425 -0.094934478 20
1.5577276 -1.0035021 -0.031359643 21
1.5708215 -1.0123253 0.49014261 22
1.5718 -1.0133443 0.42258826 19
1.5665799 -1.0103661 0.35458606 18
1.5675676 -1.0113904 0.28908482 22
1.558221 -1.0057453 0.22302088 17
1.5803925 -1.0204465 0.16123812 23
1.5756096 -1.0177478 0.096298151 22
1.5395247 -0.99482006 0.031327069 18
1.5888966 -1.0286902 -0.49693277 15
1.5655231 -1.0139455 -0.42178348 15
1.543864 -1.0003 -0.34982035 10
1.5654036 -1.0146439 -0.28940398 20
1.5769309 -1.0225064 -0.22606787 18
1.5573577 -1.010201 -0.15905946 22
1.5441685 -1.0020286 -0.094152048 19
1.5416355 -1.0007674 -0.031100471 20
1.5551263 -1.0099108 0.48626286 21
1.5600821 -1.0135163 0.42034045 20
1.5548124 -1.0104789 0.35267967 18
1.5557468 -1.0114723 0.2875222 22
1.5422202 -1.0030608 0.22119285 18
1.5642958 -1.0178075 0.15993078 23
1.5594932 -1.0150701 0.095513113 21
1.5276639 -0.99473214 0.031152545 18
1.5772063 -1.0289525 -0.49434459 14
1.5538146 -1.0140786 -0.41953397 15
1.5239233 -0.99494982 -0.34600759 10
1.5535829 -1.0147009 -0.28783965 21
1.5650432 -1.0225757 -0.22484918 20
1.5454832 -1.0101805 -0.15818791 25
1.5323032 -1.0019473 -0.093630433 20
1.5255818 -0.99793249 -0.0308413 22
1.5394673 -1.0073991 0.4823831 24
1.5443058 -1.0109503 0.4169687 20
1.5389574 -1.0078329 0.34982011 19
1.5398138 -1.0087777 0.28517827 27
1.5304079 -1.0029975 0.21997416 18
1.5524025 -1.0177996 0.15905923 24
1.54759 -1.0150306 0.094989754 21
1.5158228 -0.99457365 0.03097802 21
1.5695692 -1.0317986 -0.49305049 15
1.5421242 -1.0141425 -0.41728443 16
1.5163405 -0.99756563 -0.34505439 11
1.5376558 -1.0119731 -0.28549314 28
1.549029 -1.0198456 -0.22302115 24
1.5336281 -1.0100896 -0.15731636 30
1.5204574 -1.0017955 -0.09310881 23
1.5053927 -0.99224657 -0.03049574 26
1.5278769 -1.0074492 0.47979656 25
1.5326337 -1.0109695 0.41472092 25
1.5313332 -1.0104953 0.34886691 26
1.5280398 -1.008705 0.28361565 24
1.518615 -1.0028639 0.21875545 21
1.5405282 -1.0177211 0.15818767 29
1.5357062 -1.0149206 0.094466396 27
1.5081716 -0.99710166 0.030890757 27
1.5619316 -1.0346042 -0.49175641 15
1.5304525 -1.0141371 -0.41503492 19
1.5169402 -1.0055646 -0.34600759 13
1.5299984 -1.0146049 -0.28471094 33
1.5413241 -1.0225029 -0.2224118 30
1.5259427 -1.0126826 -0.15688057 38
1.5127913 -1.0043352 -0.092848003 27
1.5102489 -1.003027 -0.030668519 30
1.520328 -1.0101035 0.47850332 31
1.5209802 -1.0109195 0.41247311 29
1.5237094 -1.013117 0.34791371 29
1.5203974 -1.0112976 0.28283435 30
1.5109736 -1.0054096 0.21814612 27
1.53282 -1.0203325 0.15775189 35
1.527998 -1.0175074 0.094204716 33
1.5046818 -1.0023601 0.030890757 33
1.5542935 -1.0373689 -0.4904623 16
1.5230289 -1.0165021 -0.41391018 16
1.5176793 -1.0133148 -0.34696078 16
1.5225188 -1.0169301 -0.28392878 38
1.5337986 -1.0248514 -0.22180244 39
1.5225761 -1.0177373 -0.15688057 39
1.5094525 -1.0093461 -0.092848003 35
1.5110697 -1.0108092 -0.030754911 38
1.51697 -1.0151395 0.47850332 33
1.5176196 -1.0159577 0.41247311 36
1.5203414 -1.0181642 0.34791371 36
1.5170355 -1.0163337 0.28283435 37
1.5076312 -1.0104146 0.21814612 36
1.5294281 -1.0254098 0.15775189 40
1.5246154 -1.0225688 0.094204716 39
1.5013497 -1.0073444 0.030890757 36
1.5468367 -1.0398231 -0.48916823 14
1.5194713 -1.0218123 -0.41391018 16
1.5182055 -1.0213461 -0.34791398 16
1.5230567 -1.0249957 -0.28471094 43
1.5343286 -1.0329707 -0.2224118 41
1.5231457 -1.0258282 -0.15731636 41
1.510061 -1.0173991 -0.09310881 38
1.5116776 -1.0188718 -0.0308413 41
1.5134172 -1.0204285 0.47850332 38
1.518103 -1.0239733 0.41359702 38
1.5167781 -1.0234649 0.34791371 36
1.517572 -1.0243862 0.28361565 39
1.5082078 -1.0184484 0.21875545 38
1.5258394 -1.0307423 0.15775189 48
1.5210367 -1.0278846 0.094204716 43
1.5019658 -1.0153787 0.03097802 38
1.5391989 -1.0425079 -0.48787412 15
1.5201082 -1.0295776 -0.41503492 17
1.5188736 -1.0291281 -0.34886715 15
1.5196493 -1.0300407 -0.28471094 47
1.5350022 -1.0408382 -0.22302115 43
1.5197356 -1.0308735 -0.15731636 43
1.5066789 -1.022401 -0.09310881 40
1.5124269 -1.0266869 -0.03092769 39
1.510025 -1.0254416 0.47850332 39
1.514699 -1.029002 0.41359702 39
1.5133759 -1.0284891 0.34791371 36
1.5141666 -1.029413 0.28361565 36
1.5089259 -1.0262351 0.21936481 40
1.5265311 -1.0385983 0.15818767 48
1.5176198 -1.0329229 0.094204716 40
1.5027227 -1.0231675 0.031065281 38
1.5357335 -1.0476062 -0.48787412 15
1.516505 -1.0348775 -0.41503492 16
1.515272 -1.0344237 -0.34886715 16
1.5201228 -1.0381242 -0.28549314 44
1.5354574 -1.0489895 -0.22363049 42
1.5202402 -1.0389826 -0.15775214 42
1.5072228 -1.0304722 -0.093369626 41
1.5088339 -1.0319601 -0.03092769 40
1.5104226 -1.0334337 0.47979656 39
1.5151185 -1.0370349 0.41472092 42
1.5097766 -1.0337654 0.34791371 36
1.5146385 -1.037483 0.28439695 36
1.5094283 -1.0343012 0.21997416 40
1.527005 -1.0467368 0.15862344 46
1.5181229 -1.0410379 0.094466396 41
1.5032645 -1.0312347 0.031152545 38
1.5318834 -1.053228 -0.48787412 15
1.5167159 -1.0431896 -0.41615969 17
1.5155141 -1.0427527 -0.34982035 15
1.5163077 -1.0436888 -0.28549314 43
1.5356897 -1.0574247 -0.22423984 40
1.5164218 -1.0445477 -0.15775214 38
1.5075474 -1.0388227 -0.093630433 42
1.5091574 -1.0403206 -0.031014081 41
1.5066247 -1.0389627 0.47979656 39
1.5113074 -1.0425811 0.41472092 39
1.510017 -1.0420799 0.34886691 38
1.5108258 -1.0430274 0.28439695 37
1.5097107 -1.0426468 0.2205835 39
1.5231581 -1.0523266 0.15862344 44
1.5142971 -1.0465951 0.094466396 40
1.5035869 -1.0395806 0.031239806 36
1.5281976 -1.0585688 -0.48787412 15
1.5170697 -1.0512525 -0.41728443 16
1.511865 -1.0480365 -0.34982035 15
1.5167134 -1.0517894 -0.2862753 44
1.5360669 -1.0656075 -0.22484918 39
1.5168586 -1.0526743 -0.15818791 41
1.503912 -1.0440787 -0.093630433 38
1.5055169 -1.0455823 -0.031014081 39
1.5069555 -1.0469713 0.48108983 39
1.5116596 -1.0506308 0.41584483 38
1.5063703 -1.0473446 0.34886691 38
1.5112301 -1.0511148 0.28517827 37
1.5060619 -1.0479102 0.2205835 41
1.5235636 -1.0604825 0.15905923 45
1.5147322 -1.0547278 0.094728075 41
1.504051 -1.0476801 0.031327069 37
1.5284538 -1.0666608 -0.48916823 16
1.5173856 -1.0593305 -0.41840923 17
1.5122216 -1.0561179 -0.35077354 15
1.5130328 -1.0570774 -0.2862753 44
1.5323379 -1.0709629 -0.22484918 39
1.5131748 -1.0579628 -0.15818791 41
1.5043501 -1.0521837 -0.093891241 38
1.505954 -1.0536971 -0.031100471 41
1.5072485 -1.0549948 0.4823831 38
1.507983 -1.0559011 0.41584483 38
1.5067254 -1.0554124 0.34982011 36
1.5115962 -1.0592176 0.28595957 38
1.5064586 -1.0560097 0.22119285 39
1.5239308 -1.0686542 0.15949501 44
1.5110413 -1.0600088 0.094728075 39
1.5003847 -1.0529239 0.031327069 38
1.528672 -1.0747674 -0.4904623 16
1.5176635 -1.0674235 -0.41953397 17
1.5085258 -1.0613902 -0.35077354 15
1.5133719 -1.0651948 -0.28705746 45
1.532648 -1.0791624 -0.22545853 40
1.5135448 -1.0661067 -0.1586237 40
1.5047497 -1.0603046 -0.094152048 40
1.5022668 -1.0589474 -0.031100471 40
1.5035567 -1.0602496 0.4823831 37
1.5082691 -1.0639668 0.4169687 40
1.5030321 -1.0606655 0.34982011 37
1.5119241 -1.0673357 0.2867409 35
1.5068171 -1.0641245 0.22180219 38
1.5242594 -1.0768411 0.15993078 48
1.5114096 -1.0681586 0.094989754 40
1.5007824 -1.0610409 0.03141433 34
1.5288522 -1.0828884 -0.49175641 16
1.5179034 -1.0755311 -0.42065874 17
1.5088161 -1.0694878 -0.35172671 15
1.5136729 -1.0733275 -0.28783965 42
1.5288717 -1.0845057 -0.22545853 39
1.5098143 -1.0713834 -0.1586237 41
1.505111 -1.068441 -0.094412856 36
1.5026373 -1.0670794 -0.03118686 39
1.5037841 -1.0682887 0.48367634 38
1.5085174 -1.0720475 0.41809264 40
1.5033211 -1.0687495 0.35077327 37
1.5122138 -1.075469 0.2875222 35
1.5030935 -1.0693778 0.22180219 38
1.5204912 -1.0821552 0.15993078 47
1.5117393 -1.076324 0.095251434 40
1.5011413 -1.0691733 0.031501591 34
1.5250629 -1.0882183 -0.49175641 16
1.5141398 -1.0808231 -0.42065874 17
1.5090681 -1.0776004 -0.35267991 16
1.5139357 -1.0814753 -0.28862181 42
1.5291144 -1.0927212 -0.22606787 39
1.5101172 -1.0795439 -0.15905946 39
1.5054338 -1.0765929 -0.094673663 37
1.5029693 -1.0752269 -0.03127325 38
1.5039736 -1.0763423 0.48496959 38
1.5087274 -1.0801429 0.41921654 38
1.5035716 -1.0768485 0.35172647 36
1.5124651 -1.0836174 0.28830349 35
1.5033852 -1.077509 0.22241154 38
1.5207525 -1.0903585 0.16036656 43
1.5120304 -1.0845045 0.095513113 40
1.4974 -1.0744067 0.031501591 35
1.5251765 -1.0963542 -0.49305049 15
1.5143132 -1.0889461 -0.42178348 17
1.5092818 -1.0857277 -0.35363311 15
1.5141598 -1.0896379 -0.28940398 41
1.5252907 -1.0980523 -0.22606787 39
1.5063397 -1.0848086 -0.15905946 40
1.5016667 -1.0818413 -0.094673663 38
1.4992068 -1.0804667 -0.03127325 38
1.5041251 -1.0844102 0.48626286 38
1.5088995 -1.0882525 0.42034045 40
1.5037839 -1.0849622 0.35267967 37
1.5126778 -1.0917804 0.28908482 37
1.5036384 -1.0856555 0.22302088 38
1.520975 -1.0985767 0.16080233 46
1.5082357 -1.0897759 0.095513113 39
1.4976922 -1.0825557 0.031588852 36
1.5213401 -1.1016713 -0.49305049 14
1.5144483 -1.0970836 -0.42290825 17
1.5094572 -1.0938697 -0.3545863 15
1.510347 -1.0949167 -0.28940398 40
1.5254662 -1.1062833 -0.22667724 39
1.5065756 -1.092985 -0.15949525 39
1.5019224 -1.0900093 -0.094934478 38
1.4994717 -1.0886303 -0.031359643 37
1.5042385 -1.0924921 0.4875561 38
1.5090332 -1.0963768 0.42146435 38
1.4999876 -1.0902048 0.35267967 38
1.512852 -1.0999583 0.28986612 36
1.503853 -1.0938165 0.22363023 39
1.5211586 -1.1068097 0.16123812 45
1.5084593 -1.0979724 0.095774792 38
1.4979457 -1.0907197 0.031676114 36
1.5213872 -1.1098214 -0.49434459 13
1.5106095 -1.1023633 -0.42290825 16
1.509594 -1.1020261 -0.3555395 15
1.510504 -1.1030946 -0.29018617 40
1.5256025 -1.114529 -0.22728659 39
1.5067726 -1.1011763 -0.15993103 37
1.5021391 -1.0981923 -0.095195286 39
1.4996977 -1.096809 -0.031446032 36
1.5043138 -1.1005882 0.48884934 37
1.5091285 -1.104515 0.42258826 38
1.5001333 -1.0983336 0.35363284 35
1.5090032 -1.1052325 0.28986612 36
1.5000256 -1.0990593 0.22363023 36
1.5172859 -1.1121129 0.16123812 43
1.5086442 -1.1061838 0.096036471 38
1.4941293 -1.0959419 0.031676114 35
1.517504 -1.1151253 -0.49434459 12
1.5106777 -1.1105151 -0.42403299 16
1.5096923 -1.1101967 -0.35649267 15
1.5106224 -1.111287 -0.29096836 39
1.5256999 -1.1227891 -0.22789593 40
1.5029196 -1.1064292 -0.15993103 38
1.502317 -1.1063899 -0.095456094 36
1.499885 -1.1050025 -0.031532422 37
1.5004629 -1.1058325 0.48884934 37
1.5091852 -1.1126673 0.42371216 38
1.5002404 -1.1064768 0.35458606 36
1.5091101 -1.1134253 0.29064745 35
1.5001729 -1.1072358 0.22423957 37
1.5174017 -1.1203611 0.1616739 44
1.50879 -1.1144096 0.096298151 37
1.4943154 -1.1041216 0.031763379 34
1.5174839 -1.123289 -0.4956387 11
1.5067921 -1.1157815 -0.42403299 16
1.5058078 -1.1154597 -0.35649267 15
1.506734 -1.1165532 -0.29096836 43
1.5257579 -1.1310633 -0.22850528 37
1.5030491 -1.1146356 -0.1603668 36
1.4984459 -1.1116272 -0.095456094 38
1.5000331 -1.1132107 -0.031618811 36
1.5004717 -1.1139423 0.49014261 36
1.5052921 -1.1179285 0.42371216 38
1.5003089 -1.114634 0.35553923 36
1.5052143 -1.1186862 0.29064745 36
1.5002815 -1.1154265 0.22484893 37
1.5174786 -1.1286236 0.16210969 46
1.5088968 -1.12265 0.09655983 39
1.4904522 -1.109331 0.031763379 35
1.5135537 -1.1285793 -0.4956387 10
1.5067933 -1.1239474 -0.42515776 16
1.5058388 -1.1236445 -0.35744587 15
1.5067848 -1.12476 -0.29175052 40
1.5257769 -1.1393516 -0.22911462 39
1.5031397 -1.1228564 -0.16080259 38
1.4985563 -1.11984 -0.095716901 36
1.5001423 -1.1214333 -0.031705201 37
1.500442 -1.1220657 0.49143586 36
1.5052818 -1.1260947 0.42483607 38
1.5003388 -1.1228052 0.35649243 36
1.5052537 -1.1268933 0.29142877 35
1.500351 -1.1236317 0.22545826 37
1.517516 -1.1369001 0.16254546 41
1.5089644 -1.1309047 0.096821509 39
1.4905708 -1.1175258 0.03185064 34
1.5096051 -1.1338556 -0.4956387 9
1.5067556 -1.1321267 -0.4262825 16
1.5058308 -1.1318431 -0.35839906 15
1.5067967 -1.1329807 -0.29253268 40
1.5217906 -1.1446707 -0.22911462 37
1.5031911 -1.1310912 -0.16123837 38
1.4986274 -1.1280669 -0.095977709 38
1.4962186 -1.126663 -0.031705201 38
1.500374 -1.1302023 0.4927291 37
1.5052328 -1.1342742 0.42595997 38
1.5003296 -1.13099 0.35744563 34
1.5013109 -1.1321408 0.29142877 35
1.4964197 -1.128862 0.22545826 39
1.5135381 -1.1421903 0.16254546 41
1.5050076 -1.136165 0.096821509 38
1.4906501 -1.1257347 0.031937901 34
1.505638 -1.1391182 -0.4956387 8
1.5066793 -1.1403195 -0.42740726 16
1.505784 -1.1400554 -0.35935223 15
1.5067694 -1.1412152 -0.29331487 39
1.5217413 -1.1529728 -0.22972398 37
1.5032034 -1.1393403 -0.16167414 37
1.4986594 -1.1363081 -0.096238516 37
1.4962598 -1.1348999 -0.03179159 36
1.5002674 -1.1383522 0.49402237 38
1.5051451 -1.1424673 0.42708388 38
1.5002817 -1.1391885 0.3583988 34
1.5012825 -1.1403615 0.29221007 35
1.4964215 -1.137081 0.22606762 38
1.5135075 -1.150481 0.16298124 42
1.5050071 -1.144434 0.097083189 39
1.4906904 -1.1339579 0.032025162 34
1.5018523 -1.1441048 -0.4956387 7
1.5069649 -1.1479995 -0.428532 16
1.506099 -1.1477554 -0.36030543 14
1.507104 -1.1489371 -0.29409704 39
1.5220577 -1.1607572 -0.23033331 39
1.5035769 -1.1470783 -0.16210994 37
1.4990515 -1.14404 -0.096499331 37
1.4966606 -1.1426286 -0.031877983 37
1.5005223 -1.1459914 0.49531561 36
1.50542 -1.1501479 0.42820778 38
1.4966954 -1.1438962 0.3583988 37
1.5016159 -1.1480719 0.29299137 34
1.4967839 -1.1447916 0.22667697 37
1.5138415 -1.1582566 0.16341703 40
1.5053694 -1.1521914 0.097344875 37
1.4910899 -1.1416746 0.032112423 33
1.4942179 -1.1461395 -0.49434459 6
1.5029484 -1.1532528 -0.428532 16
1.5020834 -1.1530056 -0.36030543 15
1.5070013 -1.1571985 -0.2948792 40
1.5219322 -1.1690862 -0.23094267 37
1.5035131 -1.1553547 -0.16254571 37
1.4990077 -1.1523087 -0.096760139 38
1.496626 -1.1508936 -0.031964373 36
1.5003409 -1.1541671 0.49660885 36
1.505257 -1.158367 0.42933169 38
1.4965827 -1.1521078 0.35935199 35
1.5015121 -1.1563199 0.2937727 35
1.4927788 -1.1500095 0.22667697 36
1.5137346 -1.1665745 0.1638528 45
1.5052928 -1.1604875 0.097606555 36
1.4910544 -1.1499256 0.032199688 35
1.4976497 -1.1575152 -0.49693277 6
1.5025655 -1.1617336 -0.42965677 16
1.5017298 -1.1615062 -0.36125863 14
1.5027497 -1.1627142 -0.2948792 39
1.5215616 -1.1776942 -0.23155202 38
1.5032068 -1.1639071 -0.1629815 36
1.4947742 -1.1577951 -0.096760139 37
1.4963495 -1.1594331 -0.032050762 38
1.499918 -1.1626172 0.4979021 35
1.5010014 -1.1638764 0.42933169 38
1.4962282 -1.1605936 0.36030519 33
1.5011655 -1.164843 0.294554 31
1.4924738 -1.158516 0.22728632 37
1.5094488 -1.1721148 0.1638528 42
1.5049725 -1.1690601 0.097868234 38
1.4907773 -1.1584504 0.032286949 33
1.5164659 -1.1805365 -0.50469732 5
1.502345 -1.1699648 -0.43078151 16
1.5015382 -1.1697576 -0.36221182 14
1.5025772 -1.1709886 -0.29566139 37
1.5213553 -1.1860495 -0.23216136 37
1.499135 -1.1691471 -0.1629815 37
1.4946606 -1.1660773 -0.097020954 35
1.4962343 -1.1677252 -0.032137156 34
1.4996576 -1.1708181 0.49919537 34
1.5007693 -1.1721077 0.4304556 35
1.4960358 -1.1688312 0.36125836 33
1.5009813 -1.173117 0.29533532 31
1.4923304 -1.1667756 0.22789566 33
1.5092715 -1.1804452 0.16428858 43
1.504815 -1.1773832 0.098129913 38
1.490661 -1.1667284 0.032374211 34
1.5465413 -1.2126433 -0.51634425 8
1.5020852 -1.1782086 -0.43190628 16
1.4974458 -1.1749917 -0.36221182 14
1.5023651 -1.1792754 -0.29644355 40
1.5211092 -1.1944177 -0.23277071 35
1.4989617 -1.1774498 -0.16341728 39
1.490581 -1.1712875 -0.097020954 37
1.4960794 -1.1760304 -0.032223545 32
1.4955615 -1.1760457 0.49919537 35
1.5004981 -1.1803515 0.4315795 35
1.4958038 -1.1770815 0.36221156 34
1.5007577 -1.181404 0.29611662 35
1.4921476 -1.175048 0.22850502 38
1.5090544 -1.1887887 0.16472435 44
1.5046179 -1.1857193 0.098391593 40
1.4905055 -1.1750197 0.032461476 30
1.5309285 -1.2090544 -0.5124619 7
1.5017861 -1.1864648 -0.43303102 15
1.4971861 -1.1832551 -0.36316499 15
1.5021136 -1.1875753 -0.29722571 39
1.520823 -1.2027986 -0.23338005 37
1.4987488 -1.1857655 -0.16385305 34
1.4903988 -1.1795822 -0.097281761 33
1.4958847 -1.1843487 -0.032309934 38
1.4990195 -1.1872565 0.50178188 35
1.5001873 -1.1886075 0.43270341 38
1.4955326 -1.1853445 0.36316475 32
1.5004946 -1.1897037 0.29689792 36
1.4919249 -1.1833332 0.22911435 33
1.5087975 -1.197145 0.16516013 35
1.5043806 -1.1940683 0.098653272 33
1.4903098 -1.183324 0.032548737 31
1.5380379 -1.2234105 -0.51634425 6
1.5014477 -1.1947333 -0.43415579 16
1.4968868 -1.1915309 -0.36411819 14
1.5018222 -1.1958877 -0.29800791 39
1.520497 -1.2111919 -0.2339894 32
1.4984959 -1.1940939 -0.16428883 34
1.4862721 -1.1847775 -0.097281761 39
1.4956501 -1.19268 -0.032396324 35
1.4948661 -1.1924818 0.50178188 36
1.4998374 -1.1968758 0.43382731 37
1.4913858 -1.1905577 0.36316475 33
1.5001917 -1.198016 0.29767925 35
1.4916626 -1.1916314 0.22972371 37
1.5085007 -1.2055138 0.16559592 42
1.5002034 -1.1993123 0.098653272 34
1.4900746 -1.1916413 0.032635998 27
1.5450656 -1.237831 -0.52022654 5
1.5010698 -1.2030138 -0.43528053 16
1.4965481 -1.199819 -0.36507139 13
1.5014911 -1.2042125 -0.29879007 38
1.5162598 -1.2164921 -0.2339894 35
1.4982033 -1.2024351 -0.1647246 36
1.486021 -1.1930845 -0.097542569 32
1.4914776 -1.1978936 -0.032396324 37
1.4944596 -1.2007177 0.50307512 34
1.4956503 -1.202104 0.43382731 37
1.4910462 -1.1988318 0.36411792 34
1.499849 -1.2063404 0.29846054 33
1.487494 -1.196831 0.22972371 32
1.5081636 -1.2138953 0.16603169 39
1.499897 -1.2076732 0.098914951 31
1.4859059 -1.1968354 0.032635998 33
1.5219424 -1.2280526 -0.51375604 6
1.5006523 -1.2113061 -0.4364053 15
1.4923508 -1.2050356 -0.36507139 14
1.5011202 -1.2125496 -0.29957226 33
1.5158644 -1.2248966 -0.23459874 34
1.4978706 -1.2107888 -0.16516039 38
1.4857301 -1.201404 -0.097803377 31
1.491174 -1.2062366 -0.032482713 34
1.4940139 -1.2089652 0.50436836 34
1.4952319 -1.2103828 0.43495122 34
1.4906669 -1.2071182 0.36507112 33
1.4994663 -1.2146771 0.29924187 28
1.4871629 -1.2051405 0.23033305 32
1.5077865 -1.2222891 0.16646747 39
1.4956723 -1.2129015 0.098914951 38
1.4856015 -1.2051644 0.032723259 28
1.5064021 -1.2242198 -0.50987375 5
1.500195 -1.2196102 -0.43753004 14
1.4919432 -1.2133343 -0.36602455 14
1.5007092 -1.2208986 -0.30035442 37
1.5154285 -1.233313 -0.23520809 35
1.4974977 -1.2191547 -0.16559617 33
1.4853988 -1.2097359 -0.098064184 38
1.4908302 -1.2145921 -0.032569107 35
1.4935286 -1.2172242 0.50566161 34
1.4947739 -1.2186735 0.43607512 36
1.4902477 -1.2154164 0.36602432 35
1.4990437 -1.2230259 0.30002317 29
1.4867917 -1.2134622 0.2309424 34
1.5035107 -1.2275448 0.16646747 40
1.4952966 -1.2212734 0.099176638 33
1.485257 -1.2135059 0.032810524 35
1.4983823 -1.2264117 -0.50857961 6
1.4996983 -1.2279258 -0.43865481 14
1.491496 -1.221645 -0.36697775 14
1.4964384 -1.2261297 -0.30035442 35
1.5149524 -1.2417413 -0.23581745 36
1.4970846 -1.2275327 -0.16603194 31
1.4850276 -1.21808 -0.098324999 39
1.4904461 -1.2229598 -0.032655496 38
1.4930038 -1.2254946 0.50695485 35
1.4942762 -1.2269756 0.43719903 34
1.4897889 -1.2237264 0.36697748 31
1.4985811 -1.2313864 0.30080447 33
1.4863807 -1.221796 0.23155175 34
1.5030639 -1.235949 0.16690324 39
1.4910245 -1.2264855 0.099176638 36
1.4848723 -1.2218595 0.032897785 32
1.5052722 -1.2408506 -0.5124619 5
1.4991615 -1.2362529 -0.43977955 14
1.4872227 -1.2268438 -0.36697775 13
1.4959582 -1.2344888 -0.30113658 38
1.5144359 -1.2501813 -0.23642679 34
1.4966313 -1.2359228 -0.16646773 32
1.4846162 -1.2264365 -0.098585807 34
1.4900217 -1.2313396 -0.032741886 38
1.4887168 -1.2306987 0.50695485 34
1.4899842 -1.2321839 0.43719903 34
1.4892901 -1.2320479 0.36793068 29
1.4942737 -1.2366101 0.30080447 35
1.4859296 -1.2301418 0.23216109 36
1.5025767 -1.2443653 0.16733903 36
1.4905792 -1.2348682 0.099438317 40
1.4844475 -1.2302253 0.032985047 32
1.5046477 -1.2491825 -0.51375604 5
1.4985849 -1.244591 -0.44090432 15
1.4867064 -1.2351643 -0.36793095 15
1.495438 -1.2428597 -0.30191877 37
1.5100627 -1.25546 -0.23642679 30
1.4961376 -1.2443244 -0.16690351 30
1.4841645 -1.2348049 -0.098846614 32
1.489557 -1.2397313 -0.032828275 32
1.4881238 -1.238978 0.50824809 33
1.4894176 -1.2404956 0.43832293 33
1.4887514 -1.2403808 0.36888388 31
1.4937415 -1.2449802 0.30158579 35
1.4816265 -1.235321 0.23216109 37
1.5020491 -1.2527931 0.1677748 42
1.4900935 -1.2432625 0.099699996 38
1.4839821 -1.2386029 0.033072308 30
1.5039831 -1.257525 -0.51505011 7
1.4979683 -1.2529402 -0.44202909 15
1.4861501 -1.2434961 -0.36888412 13
1.4948773 -1.251242 -0.30270094 36
1.5094761 -1.2639095 -0.23703614 31
1.4956033 -1.2527378 -0.16733928 34
1.4836725 -1.2431849 -0.099107422 36
1.4890518 -1.2481347 -0.032914665 34
1.4874908 -1.2472683 0.50954139 33
1.488811 -1.248818 0.43944681 33
1.4881725 -1.2487249 0.36983705 32
1.4931693 -1.2533619 0.30236709 35
1.4811059 -1.2436767 0.23277044 33
1.5014808 -1.2612321 0.16821058 33
1.4895674 -1.2516686 0.099961676 33
1.4834763 -1.2469921 0.033159569 34
1.5032786 -1.2658781 -0.51634425 5
1.4973116 -1.2613002 -0.44315383 16
1.485554 -1.251839 -0.36983731 13
1.4942765 -1.2596354 -0.3034831 38
1.505055 -1.2691709 -0.23703614 35
1.4950286 -1.2611624 -0.16777506 34
1.4831399 -1.2515765 -0.09936823 30
1.4846859 -1.2533249 -0.032914665 31
1.486818 -1.2555692 0.51083463 33
1.4881645 -1.2571514 0.44057071 32
1.4875535 -1.2570802 0.37079024 32
1.4925567 -1.2617548 0.30314842 30
1.480545 -1.2520437 0.23337978 34
1.5008719 -1.2696828 0.16864637 42
1.4928122 -1.2633115 0.10048503 31
1.4829301 -1.2553929 0.033246834 32
1.502534 -1.2742416 -0.51763833 5
1.4966147 -1.2696707 -0.4442786 14
1.4849174 -1.2601928 -0.37079051 13
1.4936352 -1.2680398 -0.30426529 37
1.5043982 -1.2776291 -0.23764548 33
1.4906173 -1.2663734 -0.16777506 34
1.4825668 -1.2599796 -0.099629037 35
1.4841108 -1.2617379 -0.033001054 33
1.4861054 -1.2638806 0.51212788 35
1.4874779 -1.2654953 0.44169462 35
1.4868944 -1.2654462 0.37174344 33
1.4919037 -1.2701585 0.30392972 27
1.4799438 -1.260422 0.23398913 33
1.5002222 -1.2781442 0.16908213 32
1.4921935 -1.2717534 0.10074671 28
1.4785389 -1.2605617 0.033246834 27
1.498077 -1.2794787 -0.51763833 4
1.4995818 -1.2812165 -0.44652811 15
1.4842407 -1.2685575 -0.37174368 13
1.4929533 -1.276455 -0.30504745 36
1.5037007 -1.2860985 -0.23825483 32
1.4899725 -1.2748071 -0.16821083 34
1.4819531 -1.2683939 -0.099889845 26
1.4834949 -1.2701621 -0.033087447 37
1.4890212 -1.2753441 0.51471442 32
1.4867513 -1.2738498 0.44281852 34
1.4861947 -1.2738229 0.37269661 31
1.4874609 -1.2753586 0.30392972 31
1.479302 -1.2688111 0.23459847 32
1.4995317 -1.2866167 0.16951792 35
1.491534 -1.2802066 0.10100839 33
1.4779227 -1.2689718 0.033334095 27
1.4936018 -1.2847002 -0.51763833 5
1.4987934 -1.2896208 -0.44765288 14
1.4835235 -1.2769327 -0.37269688 12
1.4922309 -1.284881 -0.30582961 32
1.5029625 -1.2945783 -0.23886417 30
1.4892869 -1.2832516 -0.16864662 33
1.4812987 -1.2768191 -0.10015066 32
1.4790522 -1.2753327 -0.033087447 27
1.4882176 -1.2836887 0.51600766 34
1.4859844 -1.2822148 0.44394243 35
1.4854549 -1.2822101 0.37364981 31
1.4867377 -1.2837706 0.30471101 29
1.4786197 -1.2772112 0.23520783 34
1.4988004 -1.2950999 0.16995369 40
1.4908336 -1.2886704 0.10127007 33
1.4772656 -1.2773929 0.033421356 30
1.4891082 -1.2899059 -0.51763833 5
1.4979645 -1.2980351 -0.44877762 15
1.4864749 -1.2885334 -0.37460324 13
1.4914677 -1.2933173 -0.30661181 35
1.5021832 -1.3030685 -0.23947352 33
1.4885604 -1.2917069 -0.1690824 34
1.4806035 -1.2852552 -0.10041147 32
1.4783661 -1.2837657 -0.033173837 32
1.4873738 -1.2920431 0.5173009 34
1.485177 -1.2905897 0.44506633 35
1.4846745 -1.2906077 0.374603 32
1.4859743 -1.2921931 0.30549234 31
1.4816409 -1.288879 0.23642652 34
1.4980279 -1.3035934 0.17038947 39
1.4900925 -1.297145 0.10153175 35
1.4765679 -1.2858247 0.033508617 29
1.4845965 -1.295096 -0.51763833 4
1.4970951 -1.3064594 -0.44990239 15
1.4856654 -1.2969421 -0.37555644 13
1.4906639 -1.301764 -0.30739397 36
1.5013629 -1.3115693 -0.24008287 33
1.4877932 -1.3001728 -0.16951817 36
1.4761081 -1.2904158 -0.10041147 32
1.4814024 -1.2955003 -0.033346616 33
1.4864898 -1.3004072 0.51859415 35
1.4879959 -1.3021833 0.44731417 34
1.4838533 -1.2990153 0.37555617 31
1.4851699 -1.3006258 0.30627364 29
1.4808657 -1.2973133 0.23703586 33
1.4972146 -1.3120975 0.17082526 37
1.4893101 -1.30563 0.10179343 34
1.4758291 -1.2942673 0.033595879 29
1.4800668 -1.3002703 -0.51763833 5
1.4961849 -1.3148932 -0.45102713 14
1.4848156 -1.3053609 -0.37650964 13
1.489819 -1.3102207 -0.30817613 34
1.5005015 -1.32008 -0.24069221 32
1.4869847 -1.3086488 -0.16995396 33
1.4753423 -1.2988597 -0.10067227 34
1.4806229 -1.3039675 -0.033433005 33
1.4855657 -1.3087808 0.51988739 34
1.4870964 -1.3105905 0.44843808 33
1.4829917 -1.307433 0.37650937 32
1.4843247 -1.3090687 0.30705497 31
1.4800497 -1.3057578 0.23764521 36
1.4926254 -1.3173158 0.17082526 38
1.4884866 -1.3141254 0.10205511 33
1.4750494 -1.3027203 0.033683144 29
1.4755189 -1.3054287 -0.51763833 4
1.4952344 -1.3233367 -0.45215189 14
1.483925 -1.3137896 -0.3774628 13
1.4889336 -1.3186874 -0.30895832 34
1.5033138 -1.3318918 -0.24191092 32
1.4861352 -1.3171352 -0.17038974 32
1.4745357 -1.3073143 -0.10093308 32
1.4798025 -1.3124452 -0.033519395 33
1.4846009 -1.3171638 0.52118063 33
1.4861563 -1.3190075 0.44956198 33
1.4820892 -1.3158603 0.37746257 30
1.4834386 -1.3175215 0.30783626 31
1.4791927 -1.3142123 0.23825455 35
1.4917408 -1.3258269 0.17126103 37
1.4876219 -1.3226308 0.10231679 35
1.4742285 -1.3111837 0.033770405 28
1.4747883 -1.3135267 -0.5189324 4
1.4947075 -1.331268 -0.45327663 15
1.4797902 -1.318445 -0.3774628 13
1.4884701 -1.3266444 -0.30974048 33
1.5028263 -1.3399106 -0.24252027 33
1.4857074 -1.3251129 -0.17082551 33
1.4741472 -1.3152645 -0.10119389 33
1.4831314 -1.3237454 -0.033692177 32
1.4840585 -1.3250382 0.52247393 33
1.485639 -1.3269154 0.45068586 34
1.4816083 -1.3237804 0.37841576 30
1.4829744 -1.3254664 0.30861756 30
1.4787563 -1.3221607 0.2388639 32
1.491281 -1.3338275 0.17169681 38
1.4871806 -1.3306272 0.10257847 33
1.4738271 -1.3191427 0.033857666 30
1.4704244 -1.31841 -0.5189324 4
1.4936782 -1.3397303 -0.4544014 14
1.4788325 -1.3268805 -0.37841603 13
1.4875053 -1.3351308 -0.31052268 33
1.5018326 -1.3484639 -0.24312961 32
1.4847783 -1.3336194 -0.1712613 33
1.4732612 -1.3237394 -0.1014547 33
1.4822197 -1.3322563 -0.033778567 32
1.4830157 -1.3334397 0.52376711 34
1.4846205 -1.3353513 0.45180979 33
1.4806271 -1.332227 0.37936896 32
1.4820093 -1.3339387 0.30939889 30
1.47782 -1.3306352 0.23947324 34
1.490317 -1.3423584 0.17213258 36
1.4825267 -1.3358103 0.10257847 33
1.4729269 -1.3276263 0.033944927 31
1.4655823 -1.3237906 -0.5189324 4
1.4923725 -1.348462 -0.45552614 14
1.4776005 -1.3355829 -0.37936923 13
1.4899279 -1.3471981 -0.31208703 32
1.5005606 -1.3572884 -0.24373896 31
1.483574 -1.3423945 -0.17169708 30
1.4721016 -1.332481 -0.10171551 32
1.4810326 -1.3410355 -0.033864956 34
1.481698 -1.3421087 0.52506042 32
1.4833266 -1.3440551 0.45293367 33
1.479371 -1.3409412 0.38032213 30
1.4807688 -1.342679 0.31018022 30
1.476609 -1.3393769 0.24008259 32
1.4927646 -1.354506 0.17300415 36
1.4813179 -1.344591 0.10284015 31
1.471752 -1.3363767 0.034032188 28
1.4609524 -1.3288983 -0.5189324 4
1.4912599 -1.3569421 -0.45665091 14
1.4765592 -1.3440366 -0.3803224 13
1.4888678 -1.3557156 -0.31286919 33
1.4994824 -1.3658599 -0.2443483 33
1.4825608 -1.3509196 -0.17213285 30
1.4748217 -1.344339 -0.10223713 31
1.4800366 -1.3495655 -0.033951346 32
1.4805725 -1.3505274 0.52635366 31
1.4858236 -1.3557925 0.45518148 34
1.4783063 -1.349406 0.38127533 29
1.4833667 -1.3544999 0.31174284 29
1.4755888 -1.3478701 0.24069193 32
1.4917043 -1.3630685 0.17343993 36
1.4803009 -1.3531225 0.10310183 33
1.474457 -1.348253 0.034206714 28
1.4563048 -1.33399 -0.5189324 4
1.490106 -1.3654306 -0.45777565 15
1.4754769 -1.3524991 -0.38127559 13
1.4877661 -1.3642422 -0.31365135 34
1.4983628 -1.3744406 -0.24495766 32
1.4815061 -1.3594542 -0.17256863 32
1.4737984 -1.3528554 -0.10249794 31
1.478999 -1.3581049 -0.034037735 31
1.4829631 -1.3622221 0.52894014 31
1.4846696 -1.3642675 0.45630541 31
1.4772005 -1.3578798 0.38222849 31
1.4822649 -1.3630124 0.31252414 31
1.4745275 -1.3563725 0.24130128 32
1.4906026 -1.37164 0.1738757 35
1.4792422 -1.3616631 0.10336351 33
1.4734193 -1.3567781 0.034293976 27
1.4516395 -1.3390653 -0.5189324 5
1.4889112 -1.3739276 -0.45890042 14
1.4743532 -1.3609705 -0.38222876 13
1.4866232 -1.3727773 -0.31443354 32
1.4972013 -1.3830297 -0.24556699 32
1.4804101 -1.3679979 -0.17300442 31
1.4727339 -1.3613812 -0.10275874 31
1.4742494 -1.3632593 -0.034037735 34
1.4817445 -1.3706701 0.53023344 30
1.4834743 -1.3727506 0.45742929 31
1.4760537 -1.3663622 0.38318169 29
1.4847453 -1.3748891 0.31408677 30
1.4734246 -1.3648839 0.24191064 32
1.4894592 -1.3802203 0.17431149 34
1.4818038 -1.3736073 0.10388687 33
1.4723401 -1.3653122 0.034381237 28
1.4469565 -1.3441243 -0.5189324 5
1.487675 -1.3824328 -0.46002516 14
1.4767834 -1.3727922 -0.38413513 13
1.4854386 -1.3813212 -0.31521568 33
1.4959981 -1.3916277 -0.24617635 31
1.4792722 -1.3765503 -0.1734402 31
1.4716275 -1.3699158 -0.10301955 32
1.4731402 -1.371804 -0.034124129 31
1.4804853 -1.3791262 0.53152668 30
1.4822377 -1.381242 0.45855322 32
1.4748653 -1.374853 0.38413486 28
1.4835486 -1.3834316 0.31486806 30
1.4722801 -1.3734039 0.24251999 31
1.4882736 -1.3888092 0.17474726 35
1.4806502 -1.3821787 0.10414855 33
1.4712191 -1.3738555 0.034468498 28
1.4422557 -1.3491669 -0.5189324 5
1.4863976 -1.3909461 -0.46114993 14
1.4755658 -1.3812932 -0.38508835 12
1.4842125 -1.3898736 -0.31599787 32
1.4947532 -1.400234 -0.24678569 31
1.4780927 -1.3851115 -0.17387597 31
1.4668366 -1.3750443 -0.10301955 31
1.4719895 -1.3803574 -0.034210518 29
1.4791846 -1.3875901 0.53281993 30
1.48096 -1.3897414 0.4596771 32
1.4736359 -1.3833523 0.38508809 29
1.4823107 -1.3919823 0.31564939 29
1.4747113 -1.3853306 0.24373868 30
1.4870467 -1.3974068 0.17518304 35
1.4794543 -1.3907586 0.10441023 32
1.4700563 -1.3824074 0.034555763 28
1.4375374 -1.3541931 -0.5189324 4
1.4850789 -1.3994675 -0.46227473 14
1.4743068 -1.3898022 -0.38604152 13
1.4829447 -1.398434 -0.31678003 33
1.4970763 -1.4122539 -0.24800438 32
1.4768714 -1.393681 -0.17431176 31
1.4656587 -1.3835837 -0.10328037 30
1.4707969 -1.3889197 -0.034296907 30
1.4813539 -1.3993782 0.53540641 29
1.479641 -1.3982489 0.46080104 30
1.4723649 -1.3918595 0.38604125 27
1.4810308 -1.4005412 0.31643066 28
1.4734716 -1.3938801 0.24434802 30
1.4857776 -1.4060128 0.17561881 34
1.4818429 -1.4027795 0.10493358 30
1.4724818 -1.3944054 0.034730289 27
1.4328017 -1.3592029 -0.5189324 4
1.4837188 -1.4079964 -0.46339944 14
1.4765661 -1.4016987 -0.38794789 13
1.4852165 -1.4104034 -0.31834438 33
1.4957355 -1.4208893 -0.24861374 31
1.4792188 -1.4056902 -0.17518331 30
1.4680581 -1.3955719 -0.10380199 30
1.4731852 -1.4009354 -0.03446969 30
1.4799596 -1.4078696 0.53669971 31
1.4782808 -1.406764 0.46192494 33
1.4710525 -1.4003749 0.38699445 29
1.4797095 -1.4091083 0.31721199 29
1.4721905 -1.4024382 0.24495737 30
1.4844667 -1.4146268 0.1760546 34
1.4805514 -1.411389 0.10519527 31
1.4712234 -1.4029868 0.03481755 28
1.4280485 -1.3641959 -0.5189324 4
1.4823171 -1.4165329 -0.46452424 14
1.4752122 -1.4102361 -0.38890108 12
1.4838532 -1.4189922 -0.31912658 32
1.4943526 -1.4295322 -0.24922307 31
1.4779017 -1.4142888 -0.17561908 30
1.4667846 -1.4041408 -0.1040628 31
1.4718968 -1.4095269 -0.03455608 30
1.478524 -1.4163681 0.53799289 31
1.4768786 -1.4152864 0.46304882 32
1.4696985 -1.4088979 0.38794762 30
1.4783462 -1.417683 0.31799328 28
1.4708674 -1.4110039 0.24556671 31
1.4867072 -1.4266974 0.17692617 35
1.4792176 -1.4200062 0.10545694 32
1.4699229 -1.4115765 0.034904812 28
1.4232779 -1.3691725 -0.5189324 4
1.4808738 -1.4250767 -0.46564895 14
1.4738165 -1.4187808 -0.38985425 13
1.4824481 -1.4275887 -0.31990871 32
1.4929277 -1.4381827 -0.24983244 30
1.4765425 -1.4228954 -0.17605488 31
1.4654691 -1.4127177 -0.1043236 31
1.4705662 -1.4181265 -0.034642469 32
1.477047 -1.4248738 0.5392862 31
1.4789411 -1.4271995 0.46529663 31
1.4718343 -1.4208375 0.38985398 29
1.4769411 -1.4262654 0.31877461 27
1.4695024 -1.4195776 0.24617606 30
1.4852998 -1.4353396 0.17736192 34
1.4814318 -1.4321018 0.1059803 32
1.4685801 -1.4201741 0.034992073 25
1.4219589 -1.3774928 -0.52022654 4
1.479389 -1.4336276 -0.46677375 14
1.4723792 -1.4273332 -0.39080748 12
1.4810013 -1.4361928 -0.3206909 33
1.4914606 -1.4468409 -0.25044179 29
1.4751412 -1.4315094 -0.17649063 30
1.4676944 -1.4247805 -0.10484522 28
1.4727799 -1.4302167 -0.034815248 30
1.4755285 -1.4333862 0.54057944 29
1.4774443 -1.4357486 0.46642056 30
1.4703852 -1.4293878 0.39080721 27
1.4754939 -1.4348551 0.31955591 27
1.4680954 -1.428159 0.2467854 30
1.4838504 -1.4439895 0.17779772 33
1.4800016 -1.4407471 0.10624199 30
1.4671956 -1.4287796 0.035079334 27
1.4171419 -1.382448 -0.52022654 4
1.4778625 -1.4421855 -0.46789846 14
1.4709005 -1.4358928 -0.39176068 12
1.4795122 -1.4448042 -0.32147309 33
1.489951 -1.4555061 -0.25105113 31
1.4736979 -1.4401315 -0.17692643 31
1.4662825 -1.4333853 -0.10510603 29
1.4713528 -1.4388442 -0.034901641 30
1.4739687 -1.4419057 0.54187268 30
1.4759055 -1.4443046 0.46754444 31
1.4688941 -1.4379452 0.39176041 30
1.4740051 -1.4434524 0.32033724 27
1.4666466 -1.4367479 0.24739476 29
1.4859158 -1.4561327 0.17866927 32
1.4785291 -1.4493998 0.10650366 31
1.4693381 -1.4408929 0.03525386 28
1.4123075 -1.3873862 -0.52022654 4
1.476294 -1.4507501 -0.46902326 14
1.4693793 -1.4444592 -0.39271384 12
1.4779811 -1.4534223 -0.32225525 34
1.488399 -1.4641783 -0.2516605 29
1.4722121 -1.4487604 -0.1773622 30
1.4648286 -1.4419979 -0.10536684 27
1.4698833 -1.4474791 -0.034988027 29
1.4723672 -1.4504315 0.54316592 31
1.4777955 -1.4562871 0.46979225 30
1.4673613 -1.4465096 0.39271358 27
1.4724739 -1.4520564 0.32111856 27
1.4651552 -1.4453437 0.24800409 29
1.4843694 -1.4648093 0.17910506 33
1.4770143 -1.45806 0.10676534 30
1.4678565 -1.4495258 0.035341118 26
1.407456 -1.3923076 -0.52022654 4
1.474684 -1.4593214 -0.47014797 13
1.4678167 -1.4530329 -0.39366707 12
1.4764075 -1.4620475 -0.32303745 35
1.4868047 -1.4728575 -0.25226983 28
1.4742219 -1.4609026 -0.17823376 29
1.4668783 -1.4541329 -0.10588846 29
1.4683716 -1.4561213 -0.03507442 29
1.4741532 -1.462365 0.54575241 31
1.4761615 -1.4648685 0.47091618 30
1.4657865 -1.4550807 0.39366677 28
1.4709007 -1.4606674 0.32189986 27
1.463622 -1.4539469 0.24861345 28
1.4827802 -1.4734927 0.17954083 31
1.4754567 -1.466727 0.10702702 29
1.4663327 -1.4581658 0.035428382 26
1.3991656 -1.3938035 -0.5189324 4
1.4730319 -1.467899 -0.47127277 12
1.4662118 -1.4616127 -0.39462024 12
1.4747919 -1.4706792 -0.32381961 36
1.485168 -1.4815434 -0.25287917 30
1.4726392 -1.4695581 -0.17866954 30
1.4653271 -1.4627719 -0.10614926 29
1.4668173 -1.4647706 -0.03516081 30
1.4724566 -1.4709154 0.54704571 30
1.4744854 -1.4734563 0.47204006 29
1.4641697 -1.4636586 0.39461994 26
1.4727769 -1.4727769 0.32346249 27
1.4620464 -1.4625567 0.24922279 28
1.4811488 -1.4821831 0.17997661 33
1.4773856 -1.4789336 0.10755039 29
1.4647661 -1.4668127 0.035515644 25
1.3942919 -1.398679 -0.5189324 4
1.4747767 -1.4799336 -0.47352228 12
1.4680289 -1.4736766 -0.3965266 12
1.4731342 -1.4793177 -0.3246018 33
1.4834884 -1.4902354 -0.25348851 30
1.4710143 -1.4782206 -0.17910534 28
1.4637338 -1.4714179 -0.10641007 29
1.4652206 -1.4734267 -0.035247199 28
1.4707183 -1.4794717 0.54833895 30
1.4727672 -1.4820501 0.47316399 28
1.4659698 -1.4757248 0.39652634 28
1.4711072 -1.4814134 0.32424381 26
1.463925 -1.4746954 0.25044149 28
1.4794744 -1.4908798 0.18041238 33
1.4757308 -1.4876264 0.10781206 29
1.4666775 -1.4790165 0.035690166 28
1.3894011 -1.4035375 -0.5189324 4
1.4730287 -1.4885355 -0.47464699 12
1.4663278 -1.4822814 -0.3974798 12
1.4714338 -1.4879622 -0.32538396 30
1.4817665 -1.4989343 -0.25409788 29
1.4728476 -1.4904321 -0.1799769 29
1.4620976 -1.4800705 -0.10667088 28
1.4635811 -1.4820895 -0.035333589 29
1.4689381 -1.4880337 0.54963219 30
1.471007 -1.4906497 0.47428787 29
1.4642568 -1.4843274 0.39747953 26
1.4693946 -1.4900558 0.32502508 26
1.4622524 -1.4833307 0.25105083 28
1.4777575 -1.4995829 0.18084818 32
1.4740331 -1.4963257 0.10807375 31
1.4650137 -1.4876893 0.035777431 27
1.3844935 -1.4083788 -0.5189324 4
1.4712385 -1.4971431 -0.47577178 11
1.4645844 -1.4908923 -0.39843297 12
1.4696912 -1.4966131 -0.32616612 27
1.4800018 -1.5076389 -0.25470722 29
1.4711245 -1.4991192 -0.18041267 29
1.4604191 -1.4887297 -0.10693169 29
1.461899 -1.4907587 -0.035419982 27
1.4671159 -1.496601 0.55092543 30
1.4692048 -1.4992552 0.4754118 30
1.4659361 -1.496442 0.3993859 25
1.4710951 -1.5022328 0.32658771 27
1.4640088 -1.4955186 0.25226954 29
1.4759976 -1.508292 0.18128394 32
1.4757842 -1.5086005 0.10859711 29
1.463307 -1.4963682 0.035864696 27
1.3795688 -1.4132031 -0.5189324 5
1.469406 -1.5057563 -0.47689649 11
1.4662259 -1.5030222 -0.40033937 12
1.464458 -1.5017343 -0.32616612 24
1.4781944 -1.5163496 -0.25531656 30
1.469359 -1.5078126 -0.18084845 27
1.4586978 -1.4973952 -0.10719251 27
1.4636619 -1.5030156 -0.035592761 28
1.4686209 -1.5086347 0.55351192 29
1.4707582 -1.5113578 0.47765961 30
1.4641261 -1.5050681 0.40033907 27
1.4727284 -1.5144398 0.32815033 27
1.4622388 -1.5041783 0.25287887 28
1.4776665 -1.5205792 0.1821555 32
1.4739883 -1.5173243 0.10885879 29
1.4615575 -1.5050534 0.035951953 25
1.3746274 -1.4180101 -0.5189324 4
1.4675316 -1.514375 -0.47802129 11
1.4643859 -1.5116566 -0.40129256 11
1.4626423 -1.5103844 -0.32694829 21
1.476344 -1.5250657 -0.25592589 28
1.4710145 -1.5200913 -0.18172 27
1.4569336 -1.5060664 -0.10745331 28
1.4618819 -1.5117096 -0.035679154 29
1.4667028 -1.5172246 0.55480522 30
1.4688591 -1.5199858 0.47878349 28
1.4656839 -1.51723 0.40224546 26
1.4742942 -1.5266762 0.32971296 26
1.460426 -1.5128436 0.25348821 28
1.4758084 -1.5293123 0.18259129 32
1.4756162 -1.5296472 0.10938215 28
1.4597653 -1.5137447 0.036039218 25
1.3699176 -1.4225607 -0.5189324 4
1.4695255 -1.5259963 -0.4802708 11
1.4630334 -1.5197856 -0.40224573 11
1.4613144 -1.5185304 -0.32773048 18
1.4784266 -1.5368493 -0.2571446 27
1.4731369 -1.5318855 -0.18259157 26
1.4591157 -1.5178354 -0.10797492 28
1.4605894 -1.5198992 -0.03576554 27
1.4652752 -1.5253079 0.55609846 30
1.4674515 -1.5281072 0.47990742 28
1.4677082 -1.5289086 0.40415183 26
1.4694906 -1.5313003 0.32971296 26
1.4591017 -1.5210056 0.25409758 28
1.4778918 -1.5411311 0.18346284 31
1.4708034 -1.5342755 0.10938215 29
1.4619205 -1.5255423 0.036213744 25
1.3685312 -1.4305857 -0.52022654 4
1.4675568 -1.5346376 -0.48139551 10
1.4611112 -1.5284314 -0.40319896 12
1.4594169 -1.5271925 -0.32851264 15
1.4799092 -1.5491776 -0.25836328 26
1.4712205 -1.5406206 -0.18302734 26
1.4572566 -1.5265313 -0.10823574 27
1.4656293 -1.5358386 -0.036024712 28
1.4666095 -1.5374029 0.55868495 27
1.4654706 -1.5367459 0.4810313 30
1.4589758 -1.5304701 0.40319866 25
1.4811716 -1.5542965 0.33361951 25
1.4606296 -1.5332761 0.25531626 28
1.475938 -1.5498877 0.18389861 30
1.4723244 -1.5466332 0.1099055 27
1.484157 -1.5596079 0.036911838 24
1.3632787 -1.4355919 -0.52022654 4
1.4652764 -1.5435394 -0.48252031 10
1.4588782 -1.5373366 -0.4041521 12
1.4606071 -1.5396969 -0.33007699 14
1.5015399 -1.5833995 -0.26323807 27
1.4964051 -1.5785364 -0.18694936 25
1.472259 -1.5536081 -0.10980059 25
1.4943711 -1.5774933 -0.036888614 27
1.4775696 -1.5603025 0.56515121 26
1.4866235 -1.5704123 0.49002257 26
1.4870933 -1.5714579 0.41273054 26
1.5060097 -1.5920039 0.34065133 24
1.4822787 -1.5674657 0.26019105 24
1.4976214 -1.584244 0.18738484 31
1.4975109 -1.584681 0.11226062 26
1.5024618 -1.5904759 0.03752267 24
1.3582592 -1.4403419 -0.52022654 4
1.4632214 -1.5521898 -0.48364502 10
1.4568691 -1.5459919 -0.40510532 11
1.4518375 -1.5411913 -0.32929483 11
1.5232221 -1.6175349 -0.26811287 24
1.5181991 -1.6127646 -0.19043559 25
1.497624 -1.5914644 -0.11214787 26
1.5196842 -1.6154718 -0.037666127 27
1.5085101 -1.6041543 0.579377 26
1.5111656 -1.6075404 0.50013769 25
1.5017661 -1.5981001 0.41844967 24
1.5241123 -1.6224473 0.34612048 23
1.5039759 -1.6015716 0.26506582 25
1.5193551 -1.6185147 0.19087109 29
1.5227212 -1.622668 0.11461575 24
1.531104 -1.6321718 0.038395293 22
1.3499219 -1.4415491 -0.5189324 4
1.4644532 -1.5644013 -0.48589453 9
1.4715861 -1.5725712 -0.41082445 10
1.4700646 -1.5714949 -0.33477002 9
1.551463 -1.6590899 -0.27420634 25
1.5465748 -1.6544415 -0.19479337 25
1.5227422 -1.6295165 -0.11449515 22
1.5413373 -1.6499927 -0.03835725 25
1.5358655 -1.6447107 0.59230953 26
1.5387909 -1.6484199 0.51137674 25
1.5229681 -1.6320407 0.42607516 22
1.5453895 -1.6566476 0.35237095 24
1.5288373 -1.6394773 0.27054995 24
1.5476598 -1.6602427 0.19522887 28
1.5510882 -1.6645029 0.11723254 25
1.5390275 -1.6521382 0.038744342 22
1.3448819 -1.4462525 -0.5189324 4
1.4689344 -1.5802085 -0.48926884 7
1.4861348 -1.5992714 -0.41654357 9
1.504903 -1.6200353 -0.34415612 16
1.555793 -1.675405 -0.27603436 24
1.5543454 -1.674432 -0.1965365 24
1.5374231 -1.6567824 -0.11606 23
1.5423682 -1.6626933 -0.038530029 25
1.5498196 -1.6713108 0.60006905 26
1.5495883 -1.6716465 0.51699626 24
1.5406152 -1.6625484 0.43274748 22
1.5463096 -1.669278 0.35393357 24
1.5399647 -1.6630105 0.27359664 23
1.5553895 -1.6802561 0.19697198 26
1.5486597 -1.6735718 0.11749421 24
1.5400406 -1.6648402 0.038918864 22
1.3365488 -1.44739 -0.51763833 4
1.4832366 -1.6068053 -0.49601737 5
1.5171579 -1.6441283 -0.42702866 7
1.5360713 -1.6652075 -0.35275999 13
1.5566638 -1.6881222 -0.27725306 25
1.551867 -1.6835099 -0.19697228 24
1.5451651 -1.6768267 -0.11710324 22
1.5467161 -1.6790979 -0.038789198 24
1.5472478 -1.6802635 0.60136229 25
1.5470433 -1.68063 0.51812023 26
1.5480968 -1.6823635 0.43656024 23
1.5471603 -1.6819347 0.3554962 24
1.5442278 -1.6793351 0.27542472 25
1.5562568 -1.6930093 0.19784354 26
1.5461869 -1.682644 0.1177559 24
1.5409837 -1.6775692 0.03909339 21
1.3282242 -1.4484869 -0.51634425 4
1.507247 -1.644295 -0.50614017 7
1.5379376 -1.6783644 -0.43465418 6
1.5569352 -1.699692 -0.35901737 12
1.5574646 -1.7008659 -0.27847174 25
1.5493441 -1.6925907 -0.19740805 23
1.5426732 -1.6858938 -0.11736406 24
1.5442199 -1.6881756 -0.038875591 23
1.5478919 -1.692783 0.60394883 24
1.5477415 -1.6932119 0.52036798 25
1.5455256 -1.6913804 0.43751341 21
1.5479412 -1.6946179 0.35705879 22
1.5417027 -1.6883799 0.27603403 24
1.5536956 -1.7021101 0.19827931 27
1.5470353 -1.6954079 0.11827926 25
1.5418566 -1.6903249 0.039267913 22
1.3231599 -1.4531144 -0.51634425 3
1.4982184 -1.6459434 -0.50501537 6
1.5750133 -1.7309169 -0.44704565 13
1.5543157 -1.7087696 -0.35979956 12
1.5581954 -1.7136356 -0.27969044 24
1.550127 -1.7053603 -0.1982796 23
1.5401369 -1.6949639 -0.11762486 22
1.5450401 -1.7009566 -0.03904837 25
1.5452201 -1.7017514 0.60524201 26
1.548371 -1.7058194 0.52261579 26
1.5429106 -1.7004001 0.43846661 21
1.5486524 -1.7073265 0.35862142 23
1.5424669 -1.7011039 0.27725273 24
1.5544348 -1.7149041 0.19915086 27
1.5478132 -1.7081978 0.11880261 24
1.542659 -1.7031071 0.039442439 22
1.3180796 -1.4577243 -0.51634425 4
1.4989976 -1.6583915 -0.50726491 6
1.5755429 -1.743688 -0.44895202 13
1.5516518 -1.7178496 -0.36058176 12
1.5588559 -1.7264311 -0.28090915 24
1.5475023 -1.7144583 -0.1987154 22
1.5375559 -1.7040368 -0.11788567 22
1.5424417 -1.7100517 -0.039134759 23
1.5457391 -1.7143089 0.60782856 26
1.548931 -1.7184516 0.5248636 24
1.5435367 -1.7130682 0.440373 22
1.5492939 -1.7200613 0.36018407 21
1.5398403 -1.7101659 0.2778621 24
1.5551039 -1.7277241 0.20002241 27
1.5485206 -1.721014 0.11932597 24
1.5400479 -1.7121984 0.039529696 23
1.3162099 -1.4659101 -0.51763833 3
1.4931997 -1.6636139 -0.50726491 6
1.5661688 -1.7455236 -0.44799879 14
1.5522408 -1.7306081 -0.36214611 13
1.5594461 -1.739252 -0.28212786 24
1.5481573 -1.727268 -0.19958696 25
1.5382625 -1.7168311 -0.11840729 23
1.543134 -1.7228731 -0.039307538 24
1.5429676 -1.7232926 0.6091218 24
1.5461721 -1.7274781 0.52598751 24
1.5408206 -1.7221037 0.4413262 20
1.5465724 -1.7291397 0.36096537 22
1.5404769 -1.7229297 0.27908078 24
1.5557022 -1.7405695 0.200894 26
1.5491573 -1.7338557 0.11984934 24
1.5407223 -1.7250209 0.039704222 22
1.3110847 -1.4704955 -0.51763833 4
1.4873835 -1.668816 -0.50726491 6
1.5665966 -1.7583095 -0.44990519 13
1.5494748 -1.7397037 -0.36292824 12
1.5566654 -1.7483913 -0.2827372 24
1.5487416 -1.740103 -0.20045851 22
1.5388983 -1.7296511 -0.11892891 22
1.5404332 -1.7319849 -0.039393932 26
1.5433611 -1.7358868 0.61170834 25
1.5466058 -1.7401481 0.52823532 27
1.5380597 -1.7311409 0.44227937 19
1.5470862 -1.7419127 0.362528 22
1.5377483 -1.7320075 0.27969012 23
1.5529233 -1.7497145 0.20132977 27
1.5497231 -1.7467227 0.1203727 23
1.5413257 -1.7378687 0.039878745 22
1.3091452 -1.4786791 -0.5189324 3
1.4815491 -1.6739978 -0.50726491 6
1.5637017 -1.7674433 -0.45085838 13
1.5499361 -1.7525001 -0.3644926 12
1.5571271 -1.7612503 -0.28395587 23
1.5459567 -1.7492309 -0.20089431 23
1.5361573 -1.7387544 -0.11918971 23
1.5409964 -1.7448454 -0.039566711 24
1.5404888 -1.7448844 0.61300153 25
1.5437461 -1.749189 0.52935922 25
1.535255 -1.74018 0.44323257 22
1.5442632 -1.7510065 0.36330932 22
1.538257 -1.74481 0.28090885 23
1.553393 -1.7625983 0.20220132 26
1.5469172 -1.7558682 0.12063438 24
1.5385541 -1.7469902 0.03996601 21
1.3039757 -1.4832398 -0.5189324 3
1.4756967 -1.6791592 -0.50726491 8
1.5640018 -1.7802657 -0.45276478 13
1.5503267 -1.765321 -0.36605695 12
1.5542439 -1.7704047 -0.28456524 23
1.5464125 -1.7621042 -0.20176587 22
1.5366644 -1.751613 -0.11971132 24
1.5414889 -1.7577313 -0.03973949 23
1.5407565 -1.7575146 0.61558807 26
1.5440532 -1.7618953 0.53160703 25
1.5356398 -1.7529122 0.44513896 20
1.5413952 -1.7601014 0.36409062 22
1.535426 -1.7539029 0.28151816 23
1.5505111 -1.7717584 0.20263711 27
1.547354 -1.7687736 0.12115774 22
1.5390286 -1.7598767 0.040140532 22
1.2987902 -1.4877825 -0.5189324 4
1.4698263 -1.6842999 -0.50726491 9
1.5610044 -1.7894129 -0.45371795 13
1.5506465 -1.7781658 -0.36762127 12
1.5545769 -1.7833011 -0.28578395 24
1.5435245 -1.7712466 -0.20220163 22
1.5371003 -1.7644962 -0.12023295 23
1.5386271 -1.7668716 -0.039825883 24
1.5409546 -1.7701679 0.61817455 25
1.5410918 -1.7709496 0.53273094 24
1.5327331 -1.7619652 0.44609213 20
1.5417231 -1.7729244 0.36565322 21
1.5358059 -1.7667426 0.28273687 24
1.5508513 -1.7846793 0.20350866 25
1.5477192 -1.781703 0.1216811 23
1.5394317 -1.7727875 0.040315058 21
1.293589 -1.4923072 -0.5189324 4
1.4671286 -1.6931024 -0.50838971 9
1.5611759 -1.8022709 -0.45562431 13
1.547663 -1.7873012 -0.36840346 12
1.5515903 -1.7924687 -0.28639328 23
1.5438507 -1.7841568 -0.20307319 23
1.5341983 -1.7736273 -0.12049376 20
1.5389901 -1.7797948 -0.039998662 22
1.5379248 -1.7791902 0.61946785 24
1.5412714 -1.7836912 0.53497875 22
1.5329902 -1.7747334 0.44799849 20
1.5387527 -1.7820332 0.36643454 20
1.5361151 -1.7796062 0.28395554 24
1.5478661 -1.7938529 0.20394443 25
1.5447519 -1.7908756 0.12194277 22
1.5364989 -1.7819365 0.040402319 20
1.2915227 -1.500474 -0.52022654 4
1.4643872 -1.7019062 -0.50951445 8
1.5580761 -1.8114305 -0.45657751 13
1.5478542 -1.8001819 -0.36996782 12
1.5517937 -1.805401 -0.28761196 24
1.5441058 -1.7970909 -0.20394474 23
1.5345047 -1.7865475 -0.12101538 22
1.5360247 -1.7889489 -0.040085051 22
1.5379962 -1.7918776 0.62205434 23
1.5382084 -1.7927579 0.53610265 23
1.5299816 -1.7837995 0.44895169 19
1.538952 -1.794892 0.36799717 19
