# .PCD v0.7 - Point Cloud Data file format
VERSION 0.7
FIELDS x y z intensity
SIZE 4 4 4 4
TYPE F F F F
COUNT 1 1 1 1
WIDTH 1416
HEIGHT 1
VIEWPOINT 0 0 0 1 0 0 0
POINTS 1416
DATA ascii
-0.0083223982 -3.1789577 -0.16404887 12
-0.0096836165 -3.4677246 -0.059263673 12
-0.022783987 -7.6790466 2.0459251 10
-0.024119642 -7.6775808 1.7622828 9
-0.017998265 -5.427536 1.0466007 6
-0.0170619 -4.8879037 0.76724672 13
-0.016765067 -4.5741544 0.55694282 11
-0.016613787 -4.3268361 0.37520546 13
-0.016208427 -4.0377288 0.2096055 12
-0.01571903 -3.7526512 0.064835683 32
-0.0097270207 -1.9217807 -0.50469732 3
-0.01152612 -2.2013216 -0.49939165 3
-0.014361387 -2.6543362 -0.50804973 3
-0.016403757 -2.9370694 -0.45913553 12
-0.017227152 -2.991025 -0.3625617 12
-0.018907215 -3.1861689 -0.27541256 6
-0.019418981 -3.1789091 -0.16404887 13
-0.021788174 -3.4676695 -0.059263673 13
-0.15469719 -23.955193 6.4041853 2
nan nan nan 0
-0.03694379 -5.4274397 1.0466007 6
-0.034123763 -4.887814 0.76724672 13
-0.032731745 -4.5740681 0.55694282 9
-0.031717163 -4.3267517 0.37520546 13
-0.030302631 -4.0376477 0.2096055 12
-0.02881813 -3.7525735 0.064835683 38
-0.016435228 -1.9217349 -0.50469732 3
-0.019210095 -2.2012677 -0.49939165 3
-0.023670349 -2.6591778 -0.50900286 3
-0.026655942 -2.9369943 -0.45913553 12
-0.027667671 -2.9909465 -0.3625617 10
-0.030028908 -3.1860836 -0.27541256 6
-0.030515324 -3.178822 -0.16404887 11
-0.033892468 -3.4675725 -0.059263673 11
nan nan nan 0
nan nan nan 0
-0.055888865 -5.427278 1.0466007 6
-0.051133495 -4.8827271 0.76646543 13
-0.048698019 -4.573926 0.55694282 9
-0.046820153 -4.3266149 0.37520546 13
-0.044341564 -4.0325241 0.20934382 11
-0.041916881 -3.75245 0.064835683 35
-0.023201395 -1.9264952 -0.50599146 3
-0.026893837 -2.2011874 -0.49939165 3
-0.032952469 -2.6590791 -0.50900286 3
-0.036907803 -2.9368832 -0.45913553 12
-0.038107857 -2.9908319 -0.3625617 10
-0.041150231 -3.1859593 -0.27541256 6
-0.041611299 -3.1786962 -0.16404887 9
-0.045996346 -3.467433 -0.059263673 14
-0.10981652 -8.1709881 2.1778369 3
nan nan nan 0
-0.074765593 -5.422142 1.0456475 6
-0.068177082 -4.8825188 0.76646543 14
-0.064663708 -4.5737281 0.55694282 11
-0.061851285 -4.3214445 0.37476969 14
-0.058417432 -4.0323448 0.20934382 11
-0.054941826 -3.747282 0.064748421 33
-0.029925978 -1.9264024 -0.50599146 3
-0.034500726 -2.1962085 -0.49826688 3
-0.042234186 -2.6589477 -0.50900286 3
-0.047159214 -2.9367366 -0.45913553 11
-0.048547577 -2.9906807 -0.3625617 10
-0.052271053 -3.185796 -0.27541256 6
-0.05262398 -3.1735389 -0.16378805 9
-0.058015909 -3.4622526 -0.059177287 12
-0.13866496 -8.1898708 2.1830096 2
nan nan nan 0
-0.093691945 -5.4218483 1.0456475 7
-0.085133649 -4.8773136 0.76568419 9
-0.080628611 -4.5734744 0.55694282 11
-0.07693556 -4.3212023 0.37476969 15
-0.072492585 -4.0321164 0.20934382 11
-0.068021953 -3.7470672 0.064748421 32
-0.036558323 -1.9214575 -0.50469732 3
-0.04216671 -2.1960747 -0.49826688 3
-0.051420312 -2.653877 -0.50804973 3
-0.057313517 -2.9316165 -0.45835334 11
-0.058986701 -2.9904928 -0.3625617 10
-0.063391238 -3.1855943 -0.27541256 8
-0.063701376 -3.173336 -0.16378805 9
-0.070101075 -3.4620292 -0.059177287 12
nan nan nan 0
nan nan nan 0
-0.11261716 -5.4214883 1.0456475 7
-0.10205471 -4.8720489 0.76490283 9
-0.096592516 -4.5731654 0.55694282 12
-0.091912858 -4.315928 0.37433392 14
-0.086674042 -4.0368309 0.2096055 11
-0.081101239 -3.7468071 0.064748421 33
-0.043700151 -1.9406317 -0.50987375 3
-0.049721662 -2.1910439 -0.49714214 3
-0.060683757 -2.6536813 -0.50804973 4
-0.06754642 -2.9313986 -0.45835334 11
-0.069425106 -2.9902687 -0.3625617 11
-0.074394166 -3.1803741 -0.27497679 7
-0.074777998 -3.1730943 -0.16378805 9
-0.08218538 -3.4617634 -0.059177287 12
-0.19479793 -8.1452475 2.1713705 5
nan nan nan 0
-0.131541 -5.421062 1.0456475 7
-0.11906072 -4.8716631 0.76490283 10
-0.11255526 -4.5728002 0.55694282 12
-0.10685427 -4.3106012 0.37389815 16
-0.10076468 -4.0365038 0.2096055 10
-0.094179541 -3.7465012 0.064748421 33
-0.049971625 -1.9211555 -0.50469732 3
-0.05736953 -2.1908569 -0.49714214 3
-0.069817111 -2.6485465 -0.50709653 3
-0.077778496 -2.931145 -0.45835334 11
-0.079862677 -2.9900084 -0.3625617 11
-0.085495301 -3.1800952 -0.27497679 7
-0.085853703 -3.1728139 -0.16378805 10
-0.094268687 -3.4614553 -0.059177287 12
-0.21648015 -7.8982873 2.1054146 12
-0.21411051 -7.7623634 1.7825133 12
-0.15046322 -5.4205694 1.0456475 7
-0.13592736 -4.8662815 0.76412147 10
-0.12851661 -4.5723796 0.55694282 14
-0.12190042 -4.3102021 0.37389815 13
-0.1148541 -4.0361276 0.2096055 11
-0.1072567 -3.7461498 0.064748421 37
-0.05724714 -1.9402794 -0.50987375 3
-0.064872161 -2.1857734 -0.49601737 3
-0.079061836 -2.6482868 -0.50709653 4
-0.088009626 -2.9308555 -0.45835334 12
-0.090299264 -2.9897113 -0.3625617 11
-0.096595377 -3.1797774 -0.27497679 8
-0.096775889 -3.1675041 -0.16352725 9
-0.10635085 -3.4611051 -0.059177287 11
-0.23644075 -7.6512785 2.0394588 3
-0.23954022 -7.7080021 1.7701503 2
-0.16938363 -5.4200115 1.0456475 11
-0.15291303 -4.865777 0.76412147 11
-0.14447641 -4.5719032 0.55694282 14
-0.13678689 -4.3047719 0.37346235 14
-0.12878266 -4.0307112 0.20934382 10
-0.12033255 -3.7457523 0.064748421 32
nan nan nan 0
-0.072340026 -2.1806648 -0.49489263 3
-0.088305607 -2.6479945 -0.50709653 4
-0.098239683 -2.9305305 -0.45835334 12
-0.10073476 -2.989378 -0.3625617 12
-0.10769428 -3.1794207 -0.27497679 9
-0.10783195 -3.1671469 -0.16352725 12
-0.11843171 -3.4607129 -0.059177287 9
nan nan nan 0
nan nan nan 0
-0.18830197 -5.4193873 1.0456475 8
-0.16972446 -4.8602777 0.76334018 10
-0.16043447 -4.5713711 0.55694282 15
-0.15181252 -4.3042679 0.37346235 13
-0.14285168 -4.0302372 0.20934382 10
-0.13322897 -3.7403135 0.06466116 38
nan nan nan 0
-0.079951525 -2.1803989 -0.49489263 3
-0.097729012 -2.6525755 -0.50804973 4
-0.10846855 -2.9301698 -0.45835334 12
-0.11098458 -2.9840488 -0.36195236 11
-0.11879188 -3.1790254 -0.27497679 8
-0.11888669 -3.1667511 -0.16352725 10
-0.13051113 -3.4602783 -0.059177287 13
nan nan nan 0
nan nan nan 0
-0.20721801 -5.4186969 1.0456475 7
-0.18668896 -4.8596559 0.76334018 9
-0.17639056 -4.5707831 0.55694282 14
-0.16683629 -4.3037119 0.37346235 11
-0.15691896 -4.0297141 0.20934382 11
-0.1462843 -3.7398257 0.06466116 42
nan nan nan 0
-0.087562047 -2.1801066 -0.49489263 3
-0.10817464 -2.6816437 -0.51376885 3
-0.11869609 -2.9297731 -0.45835334 12
-0.12119841 -2.9786844 -0.361343 12
-0.12988803 -3.1785915 -0.27497679 8
-0.12973526 -3.1613278 -0.16326644 12
-0.14258896 -3.4598017 -0.059177287 11
nan nan nan 0
nan nan nan 0
-0.22613153 -5.4179406 1.0456475 8
-0.2036512 -4.8589745 0.76334018 9
-0.19213581 -4.5651817 0.55633354 13
-0.18185803 -4.303103 0.37346235 13
-0.17098433 -4.0291414 0.20934382 9
-0.15933783 -3.7392924 0.06466116 15
nan nan nan 0
-0.095171504 -2.1797876 -0.49489263 3
-0.11538514 -2.6322141 -0.504237 5
-0.12892218 -2.9293408 -0.45835334 13
-0.13137616 -2.9732854 -0.36073366 13
-0.1409826 -3.1781187 -0.27497679 10
-0.14076956 -3.1608558 -0.16326644 14
-0.15466505 -3.4592829 -0.059177287 11
nan nan nan 0
nan nan nan 0
-0.24482051 -5.4122152 1.0446944 8
-0.22083499 -4.8631678 0.76412147 8
-0.2080701 -4.5644832 0.55633354 14
-0.19687755 -4.3024421 0.37346235 14
-0.18504763 -4.0285201 0.20934382 12
-0.17238942 -3.7387135 0.06466116 16
nan nan nan 0
-0.10277981 -2.1794422 -0.49489263 3
-0.12271604 -2.5925727 -0.49661148 5
-0.13914672 -2.9288731 -0.45835334 11
-0.14128132 -2.9628947 -0.35951498 15
-0.15207542 -3.1776071 -0.27497679 7
-0.15180215 -3.1603451 -0.16326644 14
-0.16673927 -3.4587219 -0.059177287 11
nan nan nan 0
nan nan nan 0
-0.26371115 -5.4113274 1.0446944 9
-0.23780927 -4.8623672 0.76412147 9
-0.22400184 -4.5637288 0.55633354 12
-0.21189469 -4.3017287 0.37346235 16
-0.19910865 -4.0278497 0.20934382 14
-0.18543892 -3.7380888 0.06466116 18
nan nan nan 0
-0.11063331 -2.1839354 -0.49601737 3
-0.13251258 -2.6068344 -0.49947101 3
-0.14936954 -2.9283695 -0.45835334 10
-0.1513692 -2.957427 -0.35890561 9
-0.16316642 -3.177057 -0.27497679 8
-0.16283289 -3.159796 -0.16326644 13
-0.17855328 -3.4531262 -0.059090894 12
nan nan nan 0
nan nan nan 0
-0.28259861 -5.4103737 1.0446944 8
-0.25478065 -4.8615074 0.76412147 9
-0.23967029 -4.5579638 0.5557242 14
-0.22690924 -4.3009629 0.37346235 13
-0.21316725 -4.0271301 0.20934382 16
-0.19848616 -3.7374187 0.06466116 28
nan nan nan 0
-0.11851948 -2.188401 -0.49714214 4
-0.14214391 -2.6161582 -0.5013774 4
-0.15959054 -2.9278305 -0.45835334 10
-0.16142066 -2.9519253 -0.35829625 10
-0.17425543 -3.1764681 -0.27497679 8
-0.17413603 -3.1641939 -0.16352725 12
-0.19033028 -3.4474902 -0.059004504 12
nan nan nan 0
nan nan nan 0
-0.30120948 -5.4044538 1.0437412 10
-0.27092189 -4.8457961 0.76177758 9
-0.25557908 -4.5570993 0.5557242 17
-0.24164122 -4.2951713 0.37302655 17
-0.22694193 -4.0213766 0.20908214 8
-0.21040078 -3.716738 0.064312115 25
nan nan nan 0
-0.12643813 -2.1928375 -0.49826688 4
-0.15155855 -2.6205463 -0.5023306 3
-0.16952361 -2.9223254 -0.45757118 13
-0.17172381 -2.9513438 -0.35829625 9
-0.1856325 -3.1808128 -0.27541256 8
-0.18459649 -3.1535976 -0.16300564 12
-0.20353511 -3.4667678 -0.059350066 13
-1.4033763 -23.8323 6.3821998 3
nan nan nan 0
-0.32065317 -5.4131689 1.0456475 10
-0.28783521 -4.8448205 0.76177758 10
-0.27207512 -4.5660868 0.55694282 10
-0.25663269 -4.294302 0.37302655 14
-0.24008158 -4.0056071 0.2082971 9
-0.22247341 -3.7010105 0.064050324 25
nan nan nan 0
-0.13409179 -2.1923828 -0.49826688 4
-0.16070503 -2.6200011 -0.5023306 4
-0.18002661 -2.926645 -0.45835334 12
-0.18171933 -2.9457734 -0.35768694 8
-0.19642694 -3.1751742 -0.27497679 9
-0.19714937 -3.1778522 -0.16430967 10
-0.21563515 -3.4660361 -0.059350066 11
-1.4886634 -23.860998 6.3912525 3
nan nan nan 0
-0.33893204 -5.4022193 1.0437412 8
nan nan nan 0
-0.28801209 -4.5651093 0.55694282 10
-0.27225006 -4.3033218 0.37389815 16
-0.25406227 -4.0047445 0.2082971 8
-0.23539101 -3.7002113 0.064050324 31
nan nan nan 0
-0.14174382 -2.1919012 -0.49826688 4
-0.16921435 -2.6096282 -0.50042421 4
-0.18960059 -2.9161425 -0.45678899 12
-0.19200088 -2.945121 -0.35768694 9
-0.20880878 -3.1943507 -0.2767199 7
-0.20693468 -3.1572146 -0.16326644 11
-0.22871608 -3.4802275 -0.059609234 10
-1.5722623 -23.860479 6.3925462 3
nan nan nan 0
-0.35746279 -5.3961058 1.042788 8
nan nan nan 0
nan nan nan 0
-0.2866061 -4.2924056 0.37302655 15
nan nan nan 0
nan nan nan 0
nan nan nan 0
-0.14939412 -2.1913931 -0.49826688 4
-0.17765325 -2.5992279 -0.49851784 4
-0.20045389 -2.9253166 -0.45835334 13
-0.2012597 -2.9295795 -0.35585886 10
-0.21858886 -3.1737254 -0.27497679 8
-0.21795413 -3.1564732 -0.16326644 13
nan nan nan 0
nan nan nan 0
nan nan nan 0
nan nan nan 0
nan nan nan 0
-0.31709895 -4.5233827 0.55206805 5
nan nan nan 0
-0.28306699 -4.0178161 0.20908214 9
-0.26192182 -3.7084513 0.064224847 21
nan nan nan 0
-0.15704261 -2.1908584 -0.49826688 4
-0.18391088 -2.5594265 -0.49089235 4
-0.20959951 -2.9098222 -0.45600685 8
-0.21041238 -2.9140098 -0.35403085 8
-0.22822751 -3.1530712 -0.27323368 4
nan nan nan 0
-0.25010562 -3.4386573 -0.058918115 8
nan nan nan 0
nan nan nan 0
nan nan nan 0
-0.15941416 -2.1708086 0.33830738 4
nan nan nan 0
-0.15822396 -2.1443534 0.18477017 9
nan nan nan 0
nan nan nan 0
nan nan nan 0
-0.16468915 -2.1902966 -0.49826688 4
-0.18472864 -2.4510918 -0.46992216 5
nan nan nan 0
nan nan nan 0
nan nan nan 0
nan nan nan 0
nan nan nan 0
-0.29438642 -3.852263 1.0242558 2
nan nan nan 0
nan nan nan 0
nan nan nan 0
-0.16588406 -2.150949 0.26019105 10
nan nan nan 0
nan nan nan 0
nan nan nan 0
nan nan nan 0
-0.17233373 -2.1897085 -0.49826688 4
-0.18479241 -2.3427835 -0.44895202 5
-0.18359573 -2.3224413 -0.36292824 5
-0.18332335 -2.3138552 -0.28029981 5
-0.17571753 -2.2129509 -0.19087137 8
nan nan nan 0
-0.17354943 -2.1760199 -0.037061393 7
-0.30513775 -3.8175106 1.015203 2
nan nan nan 0
-0.17470865 -2.1761765 0.41654328 9
-0.17456523 -2.1696429 0.33830738 8
nan nan nan 0
-0.1731904 -2.1431963 0.18477017 16
nan nan nan 0
-0.17537379 -2.1608202 0.037173621 51
nan nan nan 0
-0.1799762 -2.1890938 -0.49826688 4
-0.18732667 -2.2736402 -0.43560734 7
-0.18682505 -2.2627261 -0.35354218 7
-0.18566991 -2.2439597 -0.27176896 7
-0.18344109 -2.2123241 -0.19087137 10
-0.1826165 -2.1977215 -0.1131911 11
-0.18238865 -2.190347 -0.037320562 21
-0.31966639 -3.8308616 1.0190828 2
-0.28453666 -3.4027023 0.77886611 2
-0.18148413 -2.165771 0.41463691 9
-0.18213764 -2.1690204 0.33830738 9
-0.17964794 -2.1349025 0.25836298 14
-0.18150754 -2.1525054 0.18564172 15
-0.1886262 -2.2322729 0.11540078 9
-0.18586801 -2.195065 0.037784457 58
-0.16382042 -1.9148103 -0.50469732 3
-0.1880326 -2.1933064 -0.49939165 5
-0.19526201 -2.2729723 -0.43560734 7
-0.19938129 -2.3161829 -0.36214611 9
-0.19904602 -2.3075747 -0.27969044 9
-0.19373597 -2.2414451 -0.19348605 8
-0.19157942 -2.2119946 -0.11397354 12
-0.19003327 -2.1896968 -0.037320562 10
-0.33052605 -3.8008521 1.0113232 2
-0.29768139 -3.4162495 0.78223783 2
-0.18989684 -2.1749039 0.41654328 9
-0.19013825 -2.1732912 0.33908868 9
-0.18623225 -2.1243749 0.2571443 12
-0.18945594 -2.1568205 0.18607752 16
-0.19685493 -2.2365746 0.11566246 12
-0.19396828 -2.1993828 0.037871718 53
-0.17050336 -1.9142268 -0.50469732 3
-0.19568753 -2.1926367 -0.49939165 5
-0.20887822 -2.3358312 -0.44799879 6
nan nan nan 0
nan nan nan 0
nan nan nan 0
-0.20109235 -2.2312043 -0.11501677 8
-0.29928952 -3.3142729 -0.056844749 9
nan nan nan 0
-0.3096045 -3.4151895 0.78223783 2
-0.19748752 -2.1742277 0.41654328 8
-0.1977233 -2.1726141 0.33908868 8
-0.19409724 -2.1286542 0.25775367 12
-0.19562398 -2.1412654 0.18477017 12
-0.20693655 -2.2607358 0.11697085 9
-0.34455058 -3.7569146 0.065184735 67
-0.17673895 -1.908811 -0.50340325 3
-0.20289002 -2.187089 -0.49826688 5
-0.23292877 -2.5061412 -0.48136041 5
-0.27003437 -2.8998773 -0.45522466 12
-0.27231464 -2.9188466 -0.35524952 14
-0.29930949 -3.2021527 -0.27802724 13
nan nan nan 0
-0.32299855 -3.44262 -0.059090894 12
nan nan nan 0
nan nan nan 0
-0.20461473 -2.1686382 0.41559011 8
-0.2057707 -2.1768274 0.33987001 8
-0.20152643 -2.1279635 0.25775367 12
-0.20262673 -2.1356108 0.1843344 12
-0.22285923 -2.3445022 0.12141941 6
-0.35481891 -3.7258286 0.06466116 52
-0.18432498 -1.9177972 -0.50599146 3
-0.21052316 -2.1863675 -0.49826688 5
-0.24921612 -2.583483 -0.49661148 4
-0.28158033 -2.9136639 -0.45757118 14
-0.28441462 -2.9376369 -0.35768694 12
-0.31000444 -3.1961308 -0.27759147 11
-0.30648595 -3.1541264 -0.16352725 12
-0.3364667 -3.4563992 -0.059350066 11
-3.5693607 -36.600491 9.8364763 2
nan nan nan 0
-0.21218345 -2.1679111 0.41559011 8
-0.21384993 -2.1810112 0.34065133 8
-0.2089532 -2.1272473 0.25775367 12
-0.21008019 -2.1348906 0.1843344 10
nan nan nan 0
-0.36634836 -3.7096422 0.064399377 31
-0.19006054 -1.9075305 -0.50340325 3
-0.21766987 -2.1807716 -0.49714214 4
-0.25823262 -2.5825973 -0.49661148 5
-0.29224139 -2.917577 -0.45835334 16
-0.29417166 -2.9316881 -0.35707757 13
-0.32115912 -3.1950293 -0.27759147 4
-0.31899482 -3.1679416 -0.16430967 14
-0.34752625 -3.4452555 -0.059177287 2
-3.6946704 -36.563778 9.8300095 2
nan nan nan 0
-0.2207399 -2.1769235 0.4174965 8
-0.22245991 -2.1900778 0.34221393 10
-0.21687977 -2.1314421 0.25836298 11
-0.81909126 -8.0359049 0.70334685 6
-0.256973 -2.5167453 0.1305782 2
-0.82743919 -8.0898113 0.14127722 75
-0.1967179 -1.9068555 -0.50340325 3
-0.2244004 -2.1751916 -0.49601737 4
-0.26729992 -2.5866089 -0.49756464 4
-0.29988086 -2.8969431 -0.45522466 9
-0.30440375 -2.9356329 -0.35768694 13
nan nan nan 0
-0.32949835 -3.1668663 -0.16430967 5
-0.84400797 -8.098177 -0.14003851 8
nan nan nan 0
nan nan nan 0
-0.22846895 -2.181061 0.41844967 6
-0.23023662 -2.1942399 0.34299523 11
-0.22498417 -2.1405823 0.25958169 11
-0.22512844 -2.1383646 0.18477017 4
-0.85548139 -8.1121254 0.42549133 3
-0.85058522 -8.0522213 0.14066638 7
-0.20252866 -1.9013902 -0.50210917 3
-0.23199187 -2.1743948 -0.49601737 4
-0.27580568 -2.5807798 -0.49661148 3
-0.30788869 -2.8762369 -0.45209596 3
-0.31517825 -2.9394867 -0.35829625 5
-0.81681478 -7.6054406 -0.6658709 26
-0.87194341 -8.1054249 -0.42381462 5
-0.87227076 -8.0951815 -0.14003851 10
nan nan nan 0
nan nan nan 0
-0.23713766 -2.1900098 0.42035604 5
-0.23842706 -2.1983325 0.34377655 12
-0.23352678 -2.1496515 0.26080036 11
-0.8743093 -8.0350952 0.70378262 14
-0.88433373 -8.1140518 0.425753 3
-0.87977254 -8.0591431 0.1408409 7
-0.2091645 -1.9006716 -0.50210917 3
-0.23920116 -2.1736138 -0.49601737 3
-0.28436235 -2.5798509 -0.49661148 2
-4.0685697 -36.852654 -5.8662972 4
-0.84364009 -7.6293902 -0.93778563 31
-0.84148246 -7.5977392 -0.66543514 20
-0.89936763 -8.1074505 -0.42407545 10
-0.89911056 -8.0922441 -0.14003851 16
nan nan nan 0
nan nan nan 0
-0.24712156 -2.2136016 0.42512199 4
-0.24626443 -2.2024376 0.34455785 12
-0.24175864 -2.1587288 0.26201907 11
-0.90150511 -8.0371017 0.70421839 14
-0.91123605 -8.1110744 0.425753 2
-0.90593386 -8.0512133 0.14075364 6
-0.21546622 -1.8999676 -0.50210917 3
-0.24678703 -2.1727655 -0.49601737 3
nan nan nan 0
-4.1988616 -36.852951 -5.8686438 3
-0.86970389 -7.6214685 -0.93717635 21
-0.86856401 -7.5997047 -0.6658709 20
-0.92595893 -8.0893793 -0.42329299 5
-0.92450523 -8.0642223 -0.13960657 4
nan nan nan 0
nan nan nan 0
-0.24979264 -2.1688409 0.41654328 2
-0.25451681 -2.2064707 0.34533918 11
-0.24986212 -2.162802 0.26262844 11
-0.92955428 -8.033906 0.70421839 14
-0.94126767 -8.1227245 0.42653802 3
-0.93633771 -8.0678654 0.1411027 4
-0.22242849 -1.899165 -0.50210917 3
-0.25474897 -2.1718464 -0.49601737 3
nan nan nan 0
-4.337368 -36.866737 -5.8733368 3
-0.89821279 -7.623158 -0.93778563 23
-0.8969962 -7.6014166 -0.66630667 19
-0.95325762 -8.0660963 -0.42224979 4
-0.95816904 -8.0955324 -0.14021128 9
nan nan nan 0
nan nan nan 0
-0.25368389 -2.1337926 0.40987095 2
-0.26260224 -2.205523 0.34533918 11
-0.2577875 -2.1618717 0.26262844 10
-0.95899379 -8.0304451 0.70421839 14
-0.96925384 -8.1043463 0.425753 2
-0.9676851 -8.0792704 0.14136447 52
-0.22905646 -1.8983771 -0.50210917 3
-0.26232857 -2.170944 -0.49601737 4
nan nan nan 0
-4.4589014 -36.792545 -5.8639507 3
-0.92481709 -7.619976 -0.93778563 22
-0.92352468 -7.5982394 -0.66630667 18
-0.98502779 -8.0924597 -0.42381462 4
-0.98823678 -8.1070271 -0.14047046 10
nan nan nan 0
nan nan nan 0
-0.69834387 -5.7040157 1.1085581 15
-0.27029932 -2.2045929 0.34533918 10
-0.26533225 -2.1609585 0.26262844 10
-0.98762733 -8.031992 0.70465422 14
-0.9969272 -8.0959597 0.42549133 2
-0.99771672 -8.0907288 0.14162627 54
-0.23568164 -1.897566 -0.50210917 3
-0.26990497 -2.1700151 -0.49601737 4
nan nan nan 0
-4.5915833 -36.811058 -5.8694263 3
-0.95141011 -7.6167011 -0.93778563 23
-0.95004177 -7.5949693 -0.66630667 19
-1.0145109 -8.0988808 -0.42433625 4
-1.0171518 -8.1084881 -0.14055686 10
nan nan nan 0
nan nan nan 0
-0.71702331 -5.6918035 1.1066515 11
-0.27861124 -2.2085354 0.34612048 10
-0.27287379 -2.1600192 0.26262844 10
-1.0156583 -8.0284958 0.70465422 13
-1.0251814 -8.0924301 0.42549133 2
-1.0265816 -8.0921555 0.14171353 56
-0.24230394 -1.8967317 -0.50210917 3
-0.27809632 -2.1738923 -0.49714214 4
nan nan nan 0
-4.7194214 -36.789909 -5.8686438 2
-0.97862393 -7.6182566 -0.93839496 21
-0.97654742 -7.5916066 -0.66630667 20
-1.0446888 -8.1101465 -0.42511865 6
-1.0448101 -8.0999298 -0.14047046 17
-1.0468243 -8.1043978 2.1778369 2
nan nan nan 0
-0.73688704 -5.6892657 1.1066515 10
-0.28631875 -2.2075496 0.34612048 9
-0.28041202 -2.1590536 0.26262844 10
-1.0436767 -8.0249014 0.70465422 13
-1.0547123 -8.0987034 0.42601463 2
-1.0554689 -8.093482 0.14180079 40
-0.24829456 -1.8910857 -0.50081509 3
-0.28568292 -2.1729085 -0.49714214 4
nan nan nan 0
nan nan nan 0
-1.0052106 -7.6147943 -0.93839496 22
-1.003041 -7.5881519 -0.66630667 19
-1.0736474 -8.1114016 -0.42537948 6
-1.0711069 -8.0813646 -0.14021128 12
-1.0604924 -7.9905725 2.1480918 13
-1.0069363 -7.5768991 1.7544156 5
-0.75738925 -5.6915245 1.1076049 8
-0.29402283 -2.2065368 0.34612048 9
-0.28794682 -2.1580615 0.26262844 10
-1.0716825 -8.0212097 0.70465422 14
-1.083638 -8.0999222 0.42627633 2
-1.0850415 -8.099658 0.14197533 58
-0.25489417 -1.8902075 -0.50081509 3
-0.29326606 -2.1718979 -0.49714214 4
-4.9420619 -36.552288 -7.1555896 2
nan nan nan 0
-1.0317851 -7.611239 -0.93839496 23
-1.0301925 -7.5895395 -0.66674244 19
-1.1012824 -8.1026564 -0.42511865 5
-1.0979614 -8.0676699 -0.14003851 15
-4.9582095 -36.38472 9.8222504 2
-1.0360131 -7.5926476 1.7589113 4
-0.77725178 -5.6888456 1.1076049 10
-0.30172327 -2.205497 0.34612048 9
-0.29547808 -2.1570435 0.26262844 9
-1.0996752 -8.0174198 0.70465422 13
-1.1132641 -8.1059837 0.42679971 3
-1.1105837 -8.0760098 0.14162627 48
-0.26149067 -1.8893063 -0.50081509 3
-0.3001768 -2.1660352 -0.49601737 4
-1.1325459 -8.1618204 -1.5927787 2
nan nan nan 0
-1.058347 -7.6075907 -0.93839496 21
-1.0566787 -7.5858974 -0.66674244 19
-1.1323183 -8.1185436 -0.42616192 14
-1.1240418 -8.0489349 -0.13977934 9
-5.0938811 -36.429375 9.8390636 9
nan nan nan 0
-0.79642338 -5.6812372 1.1066515 10
-0.30942005 -2.2044303 0.34612048 8
-0.30300578 -2.1559987 0.26262844 9
-1.1283486 -8.018465 0.70508999 13
-1.1408558 -8.0971031 0.42653802 2
-1.1415609 -8.0918856 0.14197533 57
-0.26876283 -1.8931637 -0.50210917 3
-0.30773583 -2.164974 -0.49601737 4
-1.1575711 -8.1335201 -1.5880128 10
nan nan nan 0
-1.0855969 -7.6087632 -0.93900436 20
-1.0831519 -7.5821624 -0.66674244 18
-1.1549944 -8.0749989 -0.42407545 8
-1.1507136 -8.0350647 -0.13960657 4
-5.2264962 -36.449615 9.8494091 7
nan nan nan 0
-0.78552157 -5.4646549 1.0647113 12
-0.31711307 -2.2033367 0.34612048 8
-0.31052977 -2.154928 0.26262844 8
-1.1563314 -8.0144777 0.70508999 14
-1.1662576 -8.0733051 0.42549133 4
-1.1626437 -8.0383739 0.1411027 74
-0.27536955 -1.8922139 -0.50210917 3
-0.31529114 -2.1638865 -0.49601737 3
-1.1824125 -8.1051455 -1.5832468 12
nan nan nan 0
-1.11215 -7.6049275 -0.93900436 22
-1.1096121 -7.5783358 -0.66674244 20
-1.1766562 -8.0264549 -0.42172816 14
-1.1780281 -8.0260525 -0.13952017 25
nan nan nan 0
nan nan nan 0
-0.80173069 -5.4424558 1.0608987 24
-0.32552284 -2.2071023 0.3469018 8
-0.31805 -2.153831 0.26262844 8
-1.1850286 -8.0153198 0.70552576 15
-1.192238 -8.0543661 0.42470625 17
-1.1870311 -8.0095396 0.14066638 72
-0.28197294 -1.8912412 -0.50210917 3
-0.32212338 -2.1579547 -0.49489263 3
-1.2070701 -8.0766973 -1.578481 18
-1.2012496 -8.0281658 -1.2796348 18
-1.1386893 -7.6009984 -0.93900436 22
-1.1360586 -7.5744157 -0.66674244 21
-1.2031835 -8.0124226 -0.42120653 20
-1.2038074 -8.0070601 -0.13926099 21
nan nan nan 0
-0.78471994 -5.207159 1.20595 30
-0.81999117 -5.4347706 1.0599453 17
-0.33322507 -2.2059526 0.3469018 7
-0.32556632 -2.1527076 0.26262844 8
-1.2115086 -8.0012846 0.70465422 12
-1.2143588 -8.0106621 0.42261282 14
-1.2097315 -7.9707494 0.14005555 10
-0.28857291 -1.8902454 -0.50210917 3
-0.32965407 -2.156817 -0.49489263 3
-1.2285738 -8.0287676 -1.5699022 10
-1.224031 -7.9897532 -1.2741597 8
-1.1652148 -7.5969777 -0.93900436 22
-1.1632473 -7.5753279 -0.66717821 18
-1.2273513 -7.9834986 -0.4199025 9
-1.2287079 -7.9830456 -0.13891543 13
-0.76787251 -4.9831643 1.3398093 32
-0.80066305 -5.1899433 1.2025783 27
-0.83745867 -5.4221735 1.0580389 13
-0.34092325 -2.204776 0.3469018 8
-0.33307868 -2.1515579 0.26262844 8
-1.239431 -7.9970069 0.70465422 14
-1.2415482 -8.00144 0.42235115 15
-1.2406167 -7.9862375 0.14040461 26
-0.29516932 -1.8892267 -0.50210917 3
-0.3379336 -2.1604664 -0.49601737 3
-1.2573514 -8.0292797 -1.5708554 28
-1.2542076 -8.0000687 -1.2765063 30
-1.191726 -7.592864 -0.93900436 22
-1.1896831 -7.5712209 -0.66717821 19
-1.2567631 -7.9890294 -0.4204241 17
-1.2550108 -7.9688306 -0.13874266 18
-0.78526235 -4.9804535 1.3398093 30
-0.81877452 -5.1871166 1.2025783 16
-0.85791272 -5.4289136 1.0599453 15
-0.34861729 -2.2035728 0.3469018 7
-0.34058702 -2.1503823 0.26262844 9
-1.2610977 -7.9532747 0.70116794 17
-1.264774 -7.9674692 0.42078108 16
nan nan nan 0
-0.30176213 -1.8881848 -0.50210917 3
-0.34547296 -2.1592736 -0.49601737 3
nan nan nan 0
nan nan nan 0
-1.2190095 -7.5935583 -0.9396137 24
-1.2168946 -7.5719399 -0.66761404 19
nan nan nan 0
nan nan nan 0
-0.8011049 -4.9681463 1.3372228 22
-0.83920521 -5.1986566 1.20595 21
-0.87764108 -5.4307318 1.0608987 15
-0.35630706 -2.2023423 0.3469018 8
-0.34809116 -2.1491802 0.26262844 9
nan nan nan 0
nan nan nan 0
-1.232993 -7.5875559 0.1335109 84
-0.30835131 -1.88712 -0.50210917 3
-0.35300812 -2.1580546 -0.49601737 3
nan nan nan 0
-1.246913 -7.6061206 -1.2147146 26
-1.2455084 -7.5892563 -0.9396137 22
-1.2433183 -7.567646 -0.66761404 20
-1.2484877 -7.5908289 -0.39982021 10
-1.2456366 -7.565248 -0.13183144 37
-0.81922752 -4.9700847 1.338516 18
-0.85655349 -5.1908879 1.204826 20
-0.89739245 -5.4324775 1.0618517 15
-0.36479825 -2.2059572 0.3476831 8
-0.35640156 -2.1528478 0.26323774 8
-1.2563267 -7.5806451 0.66892034 31
-1.2558049 -7.5693059 0.40010837 35
-1.2570137 -7.5684104 0.13324912 32
-0.31414127 -1.8812684 -0.50081509 3
-0.36053902 -2.1568091 -0.49601737 3
-1.2652136 -7.5606203 -1.4812557 3
-1.2685601 -7.5724978 -1.2100215 31
-1.2728131 -7.589757 -0.94022304 23
-1.2705513 -7.5681725 -0.66804981 20
-1.2716669 -7.5667281 -0.39877698 31
-1.2745249 -7.575644 -0.13209061 35
-0.8373735 -4.9719577 1.3398093 26
-0.87547791 -5.1926708 1.20595 20
-0.91634989 -5.4293118 1.0618517 15
-0.37249625 -2.2046704 0.3476831 8
-0.36391425 -2.1515908 0.26323774 8
-1.2819488 -7.5713019 0.66848451 22
-1.2813847 -7.5599532 0.3998467 33
-1.2834247 -7.5639763 0.13324912 58
-0.32070619 -1.8801605 -0.50081509 3
-0.36806548 -2.1555374 -0.49601737 3
nan nan nan 0
-1.2949852 -7.5680242 -1.2100215 22
-1.2992985 -7.5852675 -0.94022304 23
-1.2969614 -7.5636911 -0.66804981 21
-1.2972273 -7.557322 -0.39851615 23
-1.300961 -7.5711489 -0.13209061 29
-0.85472381 -4.9690042 1.3398093 17
-0.89359844 -5.1895833 1.20595 20
-0.93612981 -5.4309168 1.0628049 15
-0.38018972 -2.2033567 0.3476831 7
-0.3714225 -2.1503072 0.26323774 9
-1.3092185 -7.5716901 0.66892034 25
-1.3103207 -7.5701942 0.40063173 27
-1.3106736 -7.5643764 0.13333638 59
-0.32693928 -1.8790866 -0.50081509 3
-0.37483549 -2.1543705 -0.49601737 3
nan nan nan 0
-1.3162098 -7.5493226 -1.2076751 6
-1.3239752 -7.5860372 -0.94083238 23
-1.3215743 -7.564486 -0.66848558 20
-1.321823 -7.5581279 -0.39877698 25
-1.3256021 -7.5719485 -0.132177 29
-0.8703301 -4.9662943 1.3398093 17
-0.91073936 -5.1915493 1.2070739 20
-0.95318687 -5.427949 1.0628049 15
-0.38710985 -2.2021515 0.3476831 7
-0.37817603 -2.1491299 0.26323774 8
-1.3329992 -7.5675392 0.66892034 24
-1.3323627 -7.5562062 0.40010837 17
-1.3335624 -7.5552983 0.13324912 20
-0.33316877 -1.8779922 -0.50081509 3
-0.38150156 -2.1482525 -0.49489263 4
nan nan nan 0
nan nan nan 0
-1.3513176 -7.586256 -0.94144171 23
-1.3479712 -7.5598269 -0.66848558 19
-1.3481977 -7.5534678 -0.39877698 25
-1.352025 -7.5672755 -0.132177 29
-0.88766038 -4.9632263 1.3398093 16
-0.92885578 -5.1883388 1.2070739 20
-0.97212815 -5.4245892 1.0628049 16
-0.39566645 -2.2056479 0.34846443 7
-0.38567558 -2.1477966 0.26323774 8
-1.3602879 -7.5677428 0.66935611 24
-1.3596147 -7.5564227 0.40037003 17
-1.3599272 -7.5505977 0.13324912 21
-0.34004968 -1.8767583 -0.50081509 3
-0.38937271 -2.1468396 -0.49489263 3
nan nan nan 0
nan nan nan 0
-1.3791136 -7.5812516 -0.94144171 9
-1.3756703 -7.5548353 -0.66848558 20
-1.3767687 -7.5533872 -0.39903775 26
-1.3806487 -7.5671873 -0.13226339 29
-0.90584558 -4.9599395 1.3398093 17
-0.94786566 -5.1848993 1.2070739 20
-0.9920038 -5.4209895 1.0628049 15
-0.40374789 -2.2041829 0.34846443 7
-0.39354506 -2.1463685 0.26323774 8
-1.3889152 -7.567605 0.66979188 23
-1.3873013 -7.5513887 0.40037003 17
-1.3884965 -7.5504789 0.13333638 18
-0.34659871 -1.8755599 -0.50081509 3
-0.39686424 -2.1454675 -0.49489263 4
nan nan nan 0
nan nan nan 0
nan nan nan 0
-1.4020333 -7.5499873 -0.66848558 19
-1.4040391 -7.5534449 -0.39929858 24
-1.4070548 -7.5623221 -0.13226339 28
-0.92315352 -4.9567475 1.3398093 16
-0.9659586 -5.1815591 1.2070739 19
-1.0118209 -5.4223185 1.0637581 15
-0.41143945 -2.20276 0.34846443 7
-0.40103489 -2.1449819 0.26323774 8
-1.4153227 -7.5627112 0.66979188 23
-1.4145715 -7.5514088 0.40063173 17
-1.414844 -7.5455861 0.13333638 21
-0.35403776 -1.8790848 -0.50210917 3
-0.40344796 -2.1392815 -0.49376786 3
-0.69085503 -3.6597488 -0.71584493 5
nan nan nan 0
-1.4476851 -7.6543355 -0.95180064 2
nan nan nan 0
-1.4303972 -7.5484977 -0.39929858 24
-1.4343752 -7.5622759 -0.13234979 29
-0.94045019 -4.9534945 1.3398093 16
-0.98403978 -5.1781554 1.2070739 19
-1.0307422 -5.4187536 1.0637581 15
-0.42004973 -2.206162 0.3492457 7
-0.40759081 -2.1386943 0.26262844 8
-1.4426461 -7.5626178 0.67022771 24
-1.4409223 -7.5464249 0.40063173 16
-1.4421129 -7.5455117 0.13342364 19
-0.36150563 -1.8825804 -0.50340325 3
-0.41091299 -2.1378601 -0.49376786 3
-0.70362574 -3.657315 -0.71584493 7
nan nan nan 0
-1.4743949 -7.6492362 -0.95180064 2
-0.64133608 -3.3241622 -0.29284373 2
-1.458631 -7.5532637 -0.39982021 24
-1.4607637 -7.5572228 -0.13234979 29
-0.95773536 -4.950182 1.3398093 17
-1.0030351 -5.179472 1.2081978 19
-1.0496509 -5.415123 1.0637581 15
-0.42774814 -2.2046824 0.3492457 7
-0.41505378 -2.1372585 0.26262844 8
-1.4690357 -7.5575352 0.67022771 22
-1.468209 -7.5462499 0.40089342 17
-1.4693986 -7.5453391 0.1335109 19
-0.36622018 -1.8718276 -0.50081509 2
-0.41837302 -2.1364126 -0.49376786 3
-0.71733201 -3.6596534 -0.71679813 11
-0.66243643 -3.3764672 -0.53891718 2
-1.4991741 -7.6343026 -0.95058191 2
-0.63948649 -3.253479 -0.28674284 2
-1.484988 -7.5481267 -0.39982021 23
-1.4881004 -7.556983 -0.13243617 28
-0.97594297 -4.9515476 1.3411026 17
-1.0211087 -5.1759396 1.2081978 18
-1.0694976 -5.4162416 1.0647113 15
-0.43544129 -2.2031755 0.3492457 8
-0.42251164 -2.1357965 0.26262844 7
-1.496375 -7.5572476 0.67066342 23
-1.4955121 -7.5459776 0.40115508 17
-1.4957278 -7.5401635 0.1335109 20
-0.37275186 -1.8705378 -0.50081509 3
-0.42582792 -2.1349392 -0.49376786 3
-0.73298496 -3.671567 -0.71965766 9
-0.67325079 -3.3692915 -0.53813499 7
nan nan nan 0
-0.63226295 -3.1584294 -0.27846304 2
-1.5113268 -7.5428972 -0.39982021 10
-1.5154531 -7.556644 -0.13252255 28
-0.99322116 -4.9481106 1.3411026 17
-1.0391699 -5.1723433 1.2081978 18
-1.0883974 -5.4124751 1.0647113 15
-0.44312915 -2.2016423 0.3492457 7
-0.43094441 -2.1391735 0.26323774 8
-1.52373 -7.5568604 0.67109919 23
-1.522831 -7.5456047 0.40141675 16
-1.5230285 -7.5397968 0.13359816 20
-0.37831858 -1.8644922 -0.49952096 3
-0.43327767 -2.1334398 -0.49376786 3
-0.71646512 -3.524688 -0.69106203 6
-0.68303853 -3.3572423 -0.53657061 8
nan nan nan 0
-0.62836277 -3.0829935 -0.27192634 2
nan nan nan 0
-1.5418215 -7.5513077 -0.13252255 28
-1.0104872 -4.9446135 1.3411026 17
-1.0581949 -5.1734581 1.2093217 18
-1.1072838 -5.4086432 1.0647113 15
-0.45081159 -2.2000821 0.3492457 7
-0.43840891 -2.1376562 0.26323774 8
-1.5511007 -7.5563755 0.67153502 22
-1.5501658 -7.5451345 0.40167844 17
-1.548331 -7.5295382 0.1335109 19
-0.38482457 -1.8631601 -0.49952096 3
-0.44072214 -2.1319144 -0.49376786 3
-0.70191264 -3.39239 -0.66532594 9
-0.69475329 -3.3548377 -0.53657061 8
nan nan nan 0
-0.61989683 -2.988116 -0.26364651 2
-0.64120853 -3.088136 -0.16274482 2
-1.5681709 -7.5458798 -0.13252255 6
-1.027741 -4.9410563 1.3411026 17
-1.0762471 -5.169733 1.2093217 18
-1.1271578 -5.4095492 1.0656645 16
-0.45949683 -2.2033296 0.35002702 7
-0.44586805 -2.1361127 0.26323774 7
-1.5774679 -7.5509148 0.67153502 23
-1.5775157 -7.5445652 0.40194014 16
-1.5766529 -7.533874 0.13368542 18
-0.39132586 -1.8618056 -0.49952096 3
-0.44916418 -2.1351306 -0.49489263 3
-0.70667106 -3.3562982 -0.65865356 4
-0.70747805 -3.3572245 -0.5373528 8
nan nan nan 0
-0.61489159 -2.9128306 -0.25710985 2
nan nan nan 0
nan nan nan 0
-1.0459824 -4.9421639 1.3423959 17
-1.0952959 -5.1707106 1.2104456 20
-1.1460338 -5.405582 1.0656645 16
-0.46718508 -2.2017121 0.35002702 7
-0.45332175 -2.1345434 0.26323774 7
-1.6048516 -7.5502348 0.67197078 23
-1.6038415 -7.5390129 0.40194014 17
-1.6029413 -7.5283246 0.13368542 16
-0.39883232 -1.865151 -0.50081509 3
-0.45661443 -2.1335499 -0.49489263 3
-0.69473761 -3.2434239 -0.63673025 2
-0.70573515 -3.2919612 -0.52718455 7
-0.66289341 -3.0894914 -0.38327953 8
-0.61668903 -2.8717067 -0.2536236 2
-0.62917691 -2.9273694 -0.15439893 2
nan nan nan 0
-1.0632273 -4.9384823 1.3423959 16
-1.1133384 -5.1668558 1.2104456 18
-1.1659306 -5.4063468 1.0666177 15
-0.47486764 -2.200068 0.35002702 7
-0.46181789 -2.137799 0.26384711 7
-1.6322495 -7.5494547 0.67240655 24
-1.6301478 -7.5333686 0.40194014 16
nan nan nan 0
-0.40636685 -1.8684669 -0.50210917 3
-0.46405914 -2.131943 -0.49489263 3
nan nan nan 0
-0.67829657 -3.1109495 -0.49824417 10
-0.67473173 -3.0920069 -0.38388884 9
-0.62245816 -2.8500714 -0.25188047 4
-0.62126517 -2.8422291 -0.14996518 2
nan nan nan 0
-1.0804592 -4.9347415 1.3423959 16
-1.1313673 -5.1629381 1.2104456 18
-1.1847951 -5.4022441 1.0666177 15
-0.48254442 -2.1983969 0.35002702 7
-0.46927738 -2.136174 0.26384711 8
-1.6596617 -7.5485759 0.67284232 23
-1.6564344 -7.5276322 0.40194014 16
-0.60174656 -2.7323527 0.048168641 32
-0.41288656 -1.8670369 -0.50210917 3
-0.47149819 -2.1303101 -0.49489263 3
-0.68233395 -3.0803542 -0.60527498 7
-0.68594497 -3.0940986 -0.49589765 8
-0.68444586 -3.0847883 -0.38327953 8
-0.63240296 -2.8478813 -0.25188047 4
-0.62359965 -2.8059232 -0.14813951 2
-0.61398232 -2.7603745 -0.04820573 2
-1.0976782 -4.9309397 1.3423959 16
-1.1493824 -5.1589575 1.2104456 18
-1.2036453 -5.3980756 1.0666177 15
-0.4902153 -2.1966994 0.35002702 7
-0.47781289 -2.1393661 0.26445645 7
-1.6860011 -7.5427365 0.67284232 24
nan nan nan 0
nan nan nan 0
-0.4194012 -1.8655844 -0.50210917 3
-0.47786203 -2.123898 -0.49376786 3
-0.69092578 -3.068377 -0.60336864 3
-0.69239843 -3.0724149 -0.49276894 3
-0.6984852 -3.0969036 -0.38510755 6
-0.64234012 -2.8456564 -0.25188047 5
-0.62348777 -2.7598951 -0.14579223 2
-0.61148691 -2.7045767 -0.047255438 2
-1.1159496 -4.9317884 1.343689 16
-1.1684595 -5.1596651 1.2115695 19
-1.2224808 -5.3938408 1.0666177 16
-0.49897271 -2.199791 0.35080832 7
-0.48527777 -2.1376853 0.26445645 8
-1.7134235 -7.5416627 0.67327809 23
nan nan nan 0
-0.60749584 -2.6695898 0.047121495 23
-0.42591077 -1.8641089 -0.50210917 3
-0.48527291 -2.1222172 -0.49376786 3
-1.7319744 -7.5682683 -1.5003195 31
-1.7295535 -7.5516281 -1.2209719 32
-0.70374727 -3.07026 -0.38206083 3
-0.64113241 -2.7948482 -0.24752268 7
-0.61859322 -2.6944366 -0.14240173 2
-0.61308759 -2.6683197 -0.046650708 2
-1.133158 -4.9278626 1.343689 16
-1.186463 -5.1555552 1.2115695 18
-1.2413013 -5.3895411 1.0666177 15
-0.50664836 -2.198036 0.35080832 7
-0.49385223 -2.1408141 0.26506582 7
-1.7397383 -7.5356359 0.67327809 18
-0.59199941 -2.5621912 0.13581181 2
-0.59653765 -2.5797801 0.045550779 23
-0.4324151 -1.8626109 -0.50210917 3
-0.49267787 -2.1205103 -0.49376786 3
-1.7550471 -7.5478339 -1.4974599 7
-1.7503064 -7.5214949 -1.2170612 4
-0.66268021 -2.8454492 -0.35403085 5
-0.64749253 -2.7780406 -0.24621536 10
-0.61665213 -2.6436338 -0.13979362 4
-0.60307771 -2.5834012 -0.045182075 2
-1.1503525 -4.9238772 1.343689 15
-1.2055613 -5.1561265 1.2126935 17
-1.2601068 -5.3851752 1.0666177 16
-0.51431787 -2.196254 0.35080832 7
-0.50132203 -2.1390772 0.26506582 7
nan nan nan 0
-0.60664475 -2.5844145 0.1371202 2
-0.59753615 -2.5436149 0.044939946 25
-0.43891421 -1.8610902 -0.50210917 3
-0.50007683 -2.1187775 -0.49376786 3
nan nan nan 0
-0.6575051 -2.7814426 -0.44662076 8
-0.66232598 -2.7996538 -0.34854671 7
-0.65833324 -2.7806103 -0.24665113 9
-0.6293301 -2.6560416 -0.14057605 5
-0.61093825 -2.5764158 -0.045095682 2
-1.1686482 -4.9245315 1.3449823 16
-1.2235522 -5.1518874 1.2126935 18
-1.2788968 -5.380744 1.0666177 16
-0.52312392 -2.1992497 0.35158965 7
-0.50878578 -2.1373143 0.26506582 7
nan nan nan 0
-0.60408235 -2.533711 0.13450339 2
-0.59712934 -2.5026116 0.044241846 25
-0.44508338 -1.8596245 -0.50210917 3
-0.50673068 -2.1171961 -0.49376786 3
-0.66974932 -2.7961562 -0.5509432 6
-0.66623998 -2.7793634 -0.44662076 6
-0.67227572 -2.8023851 -0.34915608 4
-1.8135715 -7.5540695 -0.67632961 24
-0.64117062 -2.6686165 -0.14135848 6
-0.6061731 -2.5210159 -0.04414539 2
-1.1841133 -4.9208355 1.3449823 16
-1.2408719 -5.1527543 1.2138174 17
-1.2957946 -5.3766994 1.0666177 15
-0.53003043 -2.1975954 0.35158965 7
-0.5154978 -2.1357052 0.26506582 7
nan nan nan 0
nan nan nan 0
-0.59558427 -2.4618506 0.043543749 26
-0.45124769 -1.8581383 -0.50210917 3
-0.51411802 -2.1154144 -0.49376786 3
-0.67834574 -2.7890322 -0.54999006 4
-0.66893005 -2.7482309 -0.44192773 3
-0.67265767 -2.7614474 -0.34428129 2
-0.67204159 -2.7568259 -0.24490802 2
-0.65048194 -2.666362 -0.14135848 6
-0.60785508 -2.4897449 -0.04362705 6
-1.2024294 -4.9213643 1.3462756 15
-1.2588508 -5.1483917 1.2138174 18
-1.3157216 -5.3769116 1.0675709 15
-0.5388729 -2.2005286 0.35237095 7
-0.5229497 -2.1338928 0.26506582 8
nan nan nan 0
-0.60778105 -2.4763074 0.13162492 2
-0.59344178 -2.4160626 0.042758394 26
-0.45689812 -1.8517829 -0.50081509 3
-0.5207001 -2.1087861 -0.49264312 3
-1.8707217 -7.5705681 -1.5069917 22
-1.8645134 -7.5397935 -1.2241007 27
-1.8690001 -7.5522804 -0.95058191 12
-1.8556062 -7.4925504 -0.6719718 2
-0.66145146 -2.6688063 -0.14161928 6
-0.61817992 -2.4923527 -0.043713439 7
-1.220459 -4.916924 1.3462756 16
-1.2777121 -5.143743 1.2138174 17
-1.334236 -5.3672895 1.0666177 15
-0.5469346 -2.1985388 0.35237095 8
-0.53076726 -2.1319618 0.26506582 7
-0.60289925 -2.4198964 0.21483891 2
-0.59631795 -2.391701 0.12717636 2
-0.58655959 -2.3508146 0.041623987 26
-0.46335927 -1.8501767 -0.50081509 3
-0.52805799 -2.1069558 -0.49264312 4
-0.60395426 -2.4080002 -0.47468811 2
-0.5960061 -2.3745542 -0.38170043 2
-0.61502498 -2.4485173 -0.30528304 2
-0.62375182 -2.4814274 -0.22050437 7
-0.63787442 -2.5357382 -0.13457744 8
-0.62443519 -2.4804835 -0.04354066 15
-1.2387948 -4.9173179 1.3475689 16
-1.2956594 -5.1392517 1.2138174 17
-1.3553647 -5.3721175 1.0685241 15
-0.55581468 -2.2014048 0.35315228 8
-0.53820598 -2.130096 0.26506582 7
-0.60890055 -2.4081194 0.21396735 2
-0.58751488 -2.3218367 0.12351285 2
-0.58739871 -2.319675 0.041100416 44
-0.46981475 -1.8485479 -0.50081509 3
-0.53540939 -2.1050997 -0.49264312 4
-0.64141244 -2.5200367 -0.49756464 6
-0.63964081 -2.5112426 -0.40438342 8
-0.63582605 -2.4944453 -0.31137651 7
-0.63117868 -2.4744086 -0.22006857 8
-0.63313681 -2.4802775 -0.13170855 11
-0.62195385 -2.4346955 -0.042763148 9
-1.2559519 -4.9129634 1.3475689 15
-1.3135908 -5.1346974 1.2138174 17
-1.3753258 -5.3721085 1.0694772 15
-0.56349564 -2.1994512 0.35315228 9
-0.54563814 -2.1282043 0.26506582 7
-0.59502101 -2.3191345 0.20612334 2
nan nan nan 0
-0.59673643 -2.3224523 0.041187678 46
-0.47626454 -1.8468968 -0.50081509 3
-0.54275429 -2.1032178 -0.49264312 4
-0.65143245 -2.5225351 -0.49851784 5
-0.64840287 -2.5089946 -0.40438342 5
-0.65322739 -2.5258434 -0.31564194 5
-0.63981211 -2.4721904 -0.22006857 5
-0.64053899 -2.4732189 -0.13144773 10
-0.64048266 -2.4712245 -0.043454267 12
-1.2743062 -4.9132242 1.3488621 16
-1.3327302 -5.1347966 1.2149411 17
nan nan nan 0
-0.57116967 -2.1974709 0.35315228 12
-0.55306363 -2.1262867 0.26506582 7
-0.60060328 -2.3074028 0.20525178 2
nan nan nan 0
-0.60736161 -2.3300302 0.0413622 49
-0.48148623 -1.8405507 -0.49952096 3
-0.55132633 -2.1060233 -0.49376786 4
-0.65525836 -2.5012534 -0.49470508 3
-0.65214759 -2.487608 -0.40125474 3
-0.65322489 -2.4899457 -0.31137651 3
-1.9752153 -7.5237241 -0.67720115 32
-0.65170568 -2.4806266 -0.13196936 5
-0.65164715 -2.4786434 -0.04362705 9
-1.2914487 -4.9087462 1.3488621 16
-1.3506458 -5.1301131 1.2149411 17
nan nan nan 0
-0.57631874 -2.1859128 0.35158965 9
-0.56174845 -2.129142 0.26567516 9
-0.59593874 -2.257133 0.200894 2
nan nan nan 0
-0.61676913 -2.3327293 0.041449465 51
-0.48790804 -1.8388587 -0.49952096 3
-0.5586744 -2.1040859 -0.49376786 4
-2.0063426 -7.5509973 -1.5098512 31
-1.9996241 -7.5204229 -1.2264472 33
-2.0069013 -7.5424914 -0.95362866 27
-2.0040293 -7.5264101 -0.67807269 24
-1.9999535 -7.5058341 -0.40373233 35
-0.66029531 -2.4763536 -0.04362705 4
-1.3085755 -4.9042082 1.3488621 16
-1.3698019 -5.130075 1.2160652 17
nan nan nan 0
-0.58139402 -2.1743457 0.35002702 6
-0.56661159 -2.1175797 0.26445645 8
-0.58191234 -2.1732438 0.19348575 2
-0.59661376 -2.226593 0.11880261 6
-0.6236133 -2.3257332 0.0413622 52
-0.49432385 -1.8371444 -0.49952096 3
-0.56728238 -2.1068275 -0.49489263 4
-2.0263035 -7.5202518 -1.5050853 8
-2.0310056 -7.5324702 -1.2295759 13
-2.0332174 -7.53544 -0.95362866 6
-2.0121114 -7.4520459 -0.6719718 2
-2.0326538 -7.5229092 -0.40503639 28
-2.0364234 -7.5316401 -0.13416398 20
-1.3269479 -4.904273 1.3501554 16
-1.3877009 -5.1252618 1.2160652 17
-0.57991982 -2.1403644 0.42321563 4
-0.58639568 -2.16277 0.34846443 6
-0.57270032 -2.1107996 0.26384711 6
-0.5855794 -2.1567783 0.19217841 3
-0.60569155 -2.2293155 0.11906429 6
-0.62123519 -2.2849495 0.040664103 50
-0.50200486 -1.840067 -0.50081509 3
-0.57463306 -2.1048346 -0.49489263 4
nan nan nan 0
nan nan nan 0
-0.58235806 -2.1287429 -0.26628482 2
-0.59930158 -2.1891766 -0.19522917 7
nan nan nan 0
nan nan nan 0
-1.344059 -4.899611 1.3501554 16
-1.4068727 -5.1250849 1.2171891 16
-0.59258807 -2.157259 0.42702836 6
-0.59001464 -2.1464241 0.34612048 7
-0.57874864 -2.1040025 0.26323774 5
-0.59310436 -2.154721 0.19217841 6
-0.61612147 -2.2368155 0.11958765 8
-0.60928106 -2.2104743 0.039355174 59
-0.50842482 -1.8383036 -0.50081509 3
-0.58197683 -2.1028159 -0.49489263 4
-0.61151522 -2.2080457 -0.43751371 6
-0.60900068 -2.1974752 -0.35510653 8
-0.61100495 -2.2032127 -0.27603436 6
-0.60827148 -2.1918707 -0.19566494 9
-0.60477787 -2.1778066 -0.11606 11
-0.60721862 -2.1851165 -0.038530029 15
-1.3624476 -4.8995428 1.3514485 16
-1.424754 -5.1201429 1.2171891 16
-0.59748143 -2.1457205 0.42512199 7
-0.59750342 -2.1443515 0.34612048 7
-0.58475667 -2.0971894 0.26262844 5
-0.60329944 -2.1622331 0.19304997 8
-0.61318368 -2.1961775 0.11749421 9
-0.60892195 -2.179445 0.038831603 59
-0.51614219 -1.8411679 -0.50210917 3
-0.58931345 -2.1007717 -0.49489263 5
-0.62187213 -2.215349 -0.43942013 7
-0.62067413 -2.2095993 -0.35745302 10
-0.6227206 -2.2153995 -0.27786243 6
-0.61861622 -2.1993241 -0.1965365 8
-0.61508185 -2.1852951 -0.11658162 11
-0.60942113 -2.1637356 -0.038184468 8
-1.3795419 -4.8947573 1.3514485 14
-1.4439405 -5.1198277 1.218313 16
-0.60896707 -2.1577933 0.42798153 7
-0.604985 -2.1422527 0.34612048 7
-0.58937442 -2.0855837 0.26140973 6
-0.61219877 -2.1649072 0.19348575 8
-0.61948651 -2.1892192 0.11723254 9
-0.61652595 -2.1773062 0.038831603 53
-0.52388585 -1.8440009 -0.50340325 3
-0.59664291 -2.0987017 -0.49489263 4
-0.62825829 -2.2084439 -0.43846694 4
-0.62703121 -2.2026696 -0.35667089 6
-0.63316917 -2.2227578 -0.27908111 5
-2.1405396 -7.509449 -0.67981583 31
-0.62544543 -2.1927381 -0.11710324 8
-0.61834228 -2.1664021 -0.038270857 6
-1.3979459 -4.894556 1.3527418 15
-1.4618033 -5.1147561 1.218313 17
-0.61514592 -2.1509354 0.42702836 7
-0.61381805 -2.144876 0.3469018 7
-0.59665084 -2.0835137 0.26140973 6
-0.62112409 -2.1675451 0.19392152 7
-0.63538229 -2.2158418 0.11880261 13
-2.1518497 -7.4994531 0.13551793 84
-0.53031939 -1.8421609 -0.50340325 3
-0.60261649 -2.0919244 -0.49376786 4
-2.1694767 -7.5261893 -1.5136641 30
-2.1676309 -7.5148563 -1.2327045 32
-2.1726768 -7.5274167 -0.95728481 32
-2.1695037 -7.5115023 -0.68068743 28
-2.1664097 -7.495882 -0.40555799 34
-2.171725 -7.5093598 -0.13442315 34
-1.4150225 -4.8896465 1.3527418 16
-1.4810033 -5.1143017 1.2194368 17
-0.62265033 -2.1487751 0.42702836 7
-0.62267655 -2.1474633 0.3476831 6
-0.60253721 -2.0766523 0.26080036 6
-0.63146406 -2.1749306 0.19479308 7
-0.65007842 -2.2375848 0.12011101 11
-2.1794102 -7.4966965 0.13560519 32
-0.534042 -1.8310256 -0.50081509 3
-0.60991496 -2.0898082 -0.49376786 4
-2.1971107 -7.5232816 -1.5146172 26
-2.1938493 -7.5072441 -1.2327045 28
-2.1975462 -7.5150232 -0.95667541 24
-2.1943116 -7.4991031 -0.6802516 18
-2.1939652 -7.4930663 -0.40581879 32
-2.2007358 -7.5113287 -0.13459593 30
-1.4320819 -4.8846774 1.3527418 15
-1.5002179 -5.1137757 1.2205608 16
-0.63429469 -2.160717 0.42988792 6
-0.6301688 -2.1452768 0.3476831 7
-0.61258137 -2.0840588 0.26201907 5
-0.63764668 -2.1679347 0.19435731 7
-0.66070461 -2.2448821 0.12063438 6
-2.2069776 -7.4938388 0.13569245 61
-0.54043019 -1.8291503 -0.50081509 3
-0.6172061 -2.0876665 -0.49376786 4
-2.2233584 -7.5155659 -1.5146172 16
-2.2186394 -7.4948053 -1.2319224 18
-2.2279935 -7.5215812 -0.95850343 17
-2.2218904 -7.4961734 -0.68068743 22
-2.217268 -7.4757886 -0.40529719 21
-2.2240968 -7.4940157 -0.13442315 26
-1.4504988 -4.8842783 1.354035 14
-1.5180593 -5.1085081 1.2205608 17
-0.64183313 -2.1584897 0.42988792 5
-0.63765335 -2.143064 0.3476831 4
-0.62126851 -2.0866644 0.26262844 5
-0.64947677 -2.1800165 0.19566463 6
-2.2348161 -7.496542 0.40795875 31
-2.2345517 -7.4908795 0.13577971 61
-0.5454272 -1.8226259 -0.49952096 3
-0.62309217 -2.0808325 -0.49264312 4
-2.2481704 -7.5030584 -1.5136641 16
-2.2462058 -7.4917455 -1.2327045 19
-2.2556615 -7.5185118 -0.95911282 17
-2.2509079 -7.4979124 -0.68155897 22
-2.2447863 -7.4727845 -0.40555799 23
-2.2531207 -7.4957819 -0.13459593 28
-1.4675393 -4.8791852 1.354035 14
-1.5372862 -5.1078434 1.2216847 17
nan nan nan 0
-1.692454 -5.6163054 0.92194623 32
-0.62854862 -2.0844831 0.26262844 3
-0.6570825 -2.1777363 0.19566463 4
-2.2609701 -7.4886956 0.40795875 27
-2.2606862 -7.4830341 0.13577971 17
-0.5503853 -1.8160888 -0.49822688 3
-0.63035184 -2.078645 -0.49264312 4
-2.2771976 -7.5045586 -1.5155704 17
-2.2752128 -7.49331 -1.2342689 18
-2.2818923 -7.5105925 -0.95911282 16
-2.2785156 -7.4947762 -0.68199474 22
-2.2737639 -7.4744582 -0.40607962 23
-2.2807279 -7.4926529 -0.13468231 27
-1.4859692 -4.878654 1.3553283 14
-1.5565269 -5.1071067 1.2228086 17
-1.6347864 -5.360528 1.0809156 29
-1.7134895 -5.6150866 0.92272747 30
-1.7112054 -5.6040969 0.71476364 32
-2.2918894 -7.5011153 0.68286526 34
-2.2885568 -7.4855332 0.40822044 17
-2.2882555 -7.4798779 0.13586697 18
-0.55813813 -1.8187736 -0.49952096 3
-0.63760382 -2.076432 -0.49264312 4
-2.3048213 -7.5012555 -1.5165237 16
-2.3028069 -7.4900432 -1.2350512 18
-2.3095543 -7.5073247 -0.95972216 17
-2.306129 -7.4915376 -0.68243051 22
-2.3027804 -7.4760189 -0.40660122 21
-2.3083408 -7.4894242 -0.13476871 28
-1.5029899 -4.8734369 1.3553283 15
-1.5743445 -5.1016426 1.2228086 17
-1.6534882 -5.3547888 1.0809156 23
-1.7316217 -5.604353 0.92194623 18
-1.7307569 -5.5980892 0.71476364 28
-2.3180592 -7.4930692 0.68286526 32
-2.3161485 -7.4822688 0.40848213 17
-2.3158305 -7.4766202 0.13595425 18
-0.56448346 -1.8168143 -0.49952096 3
-0.64484805 -2.0741935 -0.49264312 4
-2.3324494 -7.4978514 -1.5174769 16
-2.3318734 -7.4913898 -1.2366154 20
-2.3372216 -7.5039554 -0.9603315 18
-2.3337474 -7.4881973 -0.68286633 22
-2.3303492 -7.4727025 -0.40686205 23
-2.3374479 -7.4908657 -0.13494149 27
-1.5214317 -4.8727713 1.3566216 15
-1.5935957 -5.1007652 1.2239324 18
-1.6692407 -5.3396149 1.0790092 14
-1.751174 -5.5982742 0.92194623 22
-1.7517697 -5.5967503 0.71537304 27
-2.3456891 -7.4896851 0.68330103 22
-2.3437459 -7.4789028 0.4087438 17
-2.3449061 -7.4780312 0.13612875 19
-0.57082182 -1.8148328 -0.49952096 3
-0.65208441 -2.0719299 -0.49264312 3
-2.3600819 -7.4943457 -1.51843 16
-2.3594935 -7.4879146 -1.2373977 18
-2.3648932 -7.500484 -0.96094084 17
-2.3613701 -7.4847555 -0.68330204 21
-2.3594258 -7.4740453 -0.40738368 23
-2.3650875 -7.4874282 -0.13502789 27
-1.5384316 -4.8674312 1.3566216 15
-1.6128602 -5.0998173 1.2250564 17
-1.6878692 -5.3337555 1.0790092 14
-1.7736865 -5.6015434 0.92350882 20
-1.7727944 -5.5953326 0.71598238 27
-2.3733239 -7.4861994 0.6837368 21
-2.3728573 -7.4801946 0.40926716 18
-2.3725076 -7.4745655 0.13621603 18
-0.57568818 -1.8082273 -0.49822688 3
-0.65931284 -2.0696411 -0.49264312 3
-2.3877182 -7.4907379 -1.5193832 16
-2.3871174 -7.4843378 -1.2381798 18
-2.394078 -7.5016394 -0.96215957 17
-2.3889978 -7.4812121 -0.68373787 20
-2.3885403 -7.4752765 -0.40790528 22
-2.3927314 -7.4838881 -0.13511427 26
-1.5568843 -4.8666315 1.3579149 15
-1.6321374 -5.0987964 1.2261803 17
-1.7079743 -5.3325057 1.0799624 14
-1.7947359 -5.6000209 0.92429012 21
-1.7938302 -5.5938358 0.71659166 27
-2.4009633 -7.4826126 0.68417257 19
