# .PCD v0.7 - Point Cloud Data file format
VERSION 0.7
FIELDS x y z intensity
SIZE 4 4 4 4
TYPE F F F F
COUNT 1 1 1 1
WIDTH 1353
HEIGHT 1
VIEWPOINT 0 0 0 1 0 0 0
POINTS 1353
DATA ascii
nan nan nan 0
-1.1844522 1.9073509 -0.50951445 3
-1.4076854 2.2677114 -0.51090926 4
-1.4366376 2.3152542 -0.42550209 10
-1.4405825 2.322516 -0.33087564 8
-1.434898 2.3142531 -0.23488508 14
-1.4274421 2.3031254 -0.13953282 13
-1.4261148 2.3018811 -0.046132363 11
-1.4747182 2.3812597 0.73974025 9
-1.4639256 2.3647542 0.63275844 10
-1.430346 2.3114128 0.52044082 7
-1.4282467 2.3089211 0.42347023 9
-1.4190682 2.2949781 0.32660982 10
-1.4342843 2.3204916 0.23532051 12
-1.4320856 2.3178387 0.14078373 14
-1.4176412 2.2953563 0.046423398 13
nan nan nan 0
-1.1803429 1.9156216 -0.51063919 3
-1.3920389 2.2600741 -0.50804973 4
-1.425958 2.3160493 -0.4247199 10
-1.4272643 2.3190775 -0.32965693 8
-1.4242011 2.3150055 -0.23444931 13
-1.4167782 2.3038406 -0.139272 13
-1.412835 2.2983272 -0.045959584 12
-1.4638686 2.382278 0.73844707 9
-1.4531122 2.3656988 0.63163459 9
-1.4197007 2.3122089 0.51948762 8
-1.4150116 2.3054743 0.4219076 10
-1.4084533 2.2956877 0.32600048 11
-1.4235712 2.3212378 0.23488472 13
-1.4213763 2.3185666 0.14052203 13
-1.4070083 2.2960281 0.046336137 14
nan nan nan 0
-1.173649 1.9197301 -0.51063919 4
-1.3790224 2.2565429 -0.50614333 4
-1.412716 2.3125842 -0.42315558 11
-1.4165744 2.3198102 -0.32904762 9
-1.4135162 2.3157108 -0.23401353 13
-1.4061271 2.3045099 -0.1390112 14
-1.3995973 2.2947087 -0.045786802 12
-1.4530296 2.3832493 0.73715377 10
-1.4397745 2.3624358 0.62938678 9
-1.4065136 2.3087671 0.51758122 7
-1.4043868 2.3061814 0.42112628 9
-1.3952706 2.2921121 0.32478178 11
-1.4102817 2.3176825 0.23401317 12
-1.4080849 2.3149819 0.13999867 14
-1.3963877 2.296654 0.046248872 15
nan nan nan 0
-1.1669407 1.9238153 -0.51063919 3
-1.3660474 2.252949 -0.504237 4
-1.4020753 2.3132782 -0.42237341 11
-1.4033248 2.3162518 -0.32782891 8
-1.4002638 2.3121099 -0.23314197 13
-1.3954884 2.3051324 -0.13875039 13
-1.3864022 2.2910261 -0.045614023 11
-1.4397019 2.3800416 0.73456728 10
-1.4289984 2.3632782 0.62826282 9
-1.3959072 2.3094621 0.51662809 7
-1.3912205 2.3026159 0.41956365 8
-1.3821298 2.2884724 0.3235631 11
-1.3996086 2.318327 0.23357739 12
-1.3948358 2.3113329 0.13947532 13
-1.383198 2.2929528 0.046074349 12
nan nan nan 0
-1.1602181 1.9278769 -0.51063919 3
-1.3581749 2.2577035 -0.504237 4
-1.3889019 2.3096938 -0.42080906 11
-1.3901174 2.312629 -0.32661018 10
-1.389619 2.3127141 -0.23270617 13
-1.3848624 2.3057091 -0.13848959 12
-1.37325 2.2872796 -0.045441244 12
-1.4289 2.3809116 0.73327404 10
-1.4182339 2.3640738 0.62713897 9
-1.3853127 2.310111 0.51567489 7
-1.380635 2.3032219 0.41878232 9
-1.3715823 2.2890258 0.32295373 10
-1.3863885 2.314652 0.23270582 12
-1.3841943 2.311904 0.13921364 14
-1.3726183 2.2934775 0.045987088 14
nan nan nan 0
-1.1534816 1.931915 -0.51063919 3
-1.3502856 2.2624307 -0.504237 4
-1.3757706 2.3060455 -0.41924468 11
-1.3794945 2.313205 -0.32600087 9
-1.3764367 2.3089936 -0.23183462 14
-1.3716937 2.3019505 -0.13796796 13
-1.3626993 2.2877643 -0.045354854 11
-1.4131676 2.3734348 0.72939426 11
-1.4074812 2.3648233 0.62601501 9
-1.3747311 2.3107145 0.51472169 7
-1.3700626 2.3037827 0.41800103 9
-1.3610477 2.2895339 0.32234439 10
-1.375756 2.3151956 0.23227006 12
-1.3710158 2.3081355 0.13869028 14
-1.3620517 2.293956 0.045899823 14
-0.99941868 1.6865635 -0.51505011 3
-1.1467309 1.9359297 -0.51063919 3
-1.3423802 2.2671301 -0.504237 5
-1.3626819 2.3023343 -0.41768035 11
-1.3688846 2.313735 -0.3253915 9
-1.365833 2.3094971 -0.23139885 14
-1.3611091 2.3024261 -0.13770714 14
-1.3521619 2.2882028 -0.045268461 11
-1.3950486 2.3617191 0.72422123 12
-1.3967408 2.3655269 0.62489116 9
-1.3641618 2.3112721 0.51376849 6
-1.359503 2.3042977 0.4172197 9
-1.3505266 2.2899959 0.32173505 10
-1.3651366 2.3156929 0.23183426 12
-1.3604157 2.3086054 0.1384286 14
-1.3489615 2.2900817 0.045725301 14
-0.99352539 1.6900419 -0.51505011 3
-1.1424344 1.9441209 -0.51176393 3
-1.3344582 2.2718022 -0.504237 5
-1.3521366 2.3028183 -0.41689819 11
-1.3582878 2.3142195 -0.32478216 9
-1.352722 2.3056583 -0.2305273 14
-1.3480117 2.2985492 -0.13718553 14
-1.341638 2.2885962 -0.045182075 12
-1.3794703 2.354073 0.72034144 10
-1.3860126 2.3661838 0.6237672 9
-1.3511256 2.3075488 0.5118621 6
-1.346462 2.3005047 0.41565707 9
-1.3400187 2.2904129 0.32112572 11
-1.352016 2.3118446 0.23096271 12
-1.3498288 2.3090296 0.13816692 14
-1.3384372 2.2904603 0.04563804 14
-0.98762 1.6934996 -0.51505011 4
-1.1331878 1.9438882 -0.51063919 3
-1.3265201 2.2764466 -0.504237 5
-1.3391187 2.2989895 -0.41533384 12
-1.3477041 2.3146577 -0.32417279 9
-1.34216 2.3060613 -0.23009151 14
-1.3374693 2.2989247 -0.13692473 14
-1.3311279 2.2889435 -0.045095682 11
-1.3615353 2.3421714 0.71516848 10
-1.3728491 2.3625827 0.62151939 9
-1.3405972 2.3080063 0.5109089 6
-1.3359438 2.3009198 0.41487581 8
-1.3270334 2.2864921 0.31990701 10
-1.3414383 2.3122416 0.23052694 12
-1.3392558 2.3094079 0.13790524 14
-1.3279266 2.2907932 0.045550779 14
-0.96961027 1.6760343 -0.50857961 3
-1.1239564 1.9436142 -0.50951445 3
-1.3185657 2.2810631 -0.504237 5
-1.328615 2.2993739 -0.41455165 12
-1.3371342 2.3150508 -0.32356349 10
-1.329121 2.3021047 -0.22921994 14
-1.3244447 2.2949297 -0.13640311 15
-1.3206317 2.2892458 -0.045009293 11
-1.3461132 2.334358 0.71128875 10
-1.3621607 2.3631394 0.62039554 8
-1.3276317 2.3041663 0.50900251 6
-1.3229744 2.2970102 0.41331318 9
-1.3165678 2.2868092 0.31929767 9
-1.3308744 2.3125927 0.23009115 12
-1.3286965 2.3097405 0.13764356 14
-1.3174303 2.2910807 0.045463517 14
-0.96856159 1.6877865 -0.51116782 3
-1.114741 1.9433 -0.50838971 3
-1.3105952 2.2856519 -0.504237 5
-1.3181248 2.2997131 -0.41376951 12
-1.3241109 2.3110919 -0.32234478 9
-1.3186018 2.3024082 -0.22878417 14
-1.3139451 2.2952058 -0.1361423 14
-1.3101497 2.2895026 -0.044922903 11
-1.3331604 2.3306575 0.70870227 10
-1.3490669 2.359421 0.61814773 9
-1.317145 2.3045251 0.50804937 5
-1.3124983 2.2973258 0.41253185 8
-1.3036551 2.2827721 0.31807896 10
-1.3203247 2.3128986 0.22965539 12
-1.3156767 2.305691 0.1371202 15
-1.3044709 2.2869804 0.045288995 14
-0.96266425 1.6911571 -0.51116782 4
-1.1055413 1.9429449 -0.50726491 4
-1.3026088 2.2902126 -0.504237 5
-1.3076484 2.3000071 -0.41298732 11
-1.3135835 2.3113854 -0.32173541 9
-1.3080966 2.3026657 -0.22834839 14
-1.3034596 2.2954364 -0.1358815 14
-1.2972143 2.2853668 -0.04475012 11
-1.3226333 2.3310962 0.70740896 11
-1.338419 2.3598776 0.61702383 8
-1.3042512 2.3005691 0.50614297 5
-1.3020364 2.2975969 0.41175056 8
-1.2932328 2.2829909 0.31746963 10
-1.3073345 2.3088248 0.22878383 12
-1.3051606 2.3059242 0.13685852 14
-1.2940124 2.2871723 0.04520173 14
-0.95645934 1.694674 -0.51116782 4
-1.1008067 1.9512271 -0.50838971 4
-1.294206 2.2949717 -0.504237 5
-1.2967846 2.3004825 -0.41220516 12
-1.3002305 2.3075371 -0.32051674 9
-1.2947592 2.2987649 -0.22747684 14
-1.2901385 2.2914965 -0.13535988 13
-1.2863775 2.2857494 -0.044663735 12
-1.3117125 2.3317189 0.70611572 11
-1.3273727 2.3605208 0.61589992 8
-1.2934054 2.3010552 0.50518978 5
-1.2911874 2.2980483 0.41096923 8
-1.2824262 2.2833884 0.31686029 9
-1.296425 2.3092573 0.22834805 12
-1.2942567 2.3063378 0.13659684 14
-1.280735 2.2831762 0.045027204 14
-0.95289713 1.7022167 -0.5124619 4
-1.0939889 1.9550577 -0.50838971 4
-1.2861872 2.2994754 -0.504237 5
-1.2863364 2.3006847 -0.41142297 12
-1.2897469 2.3077297 -0.3199074 10
-1.2842979 2.2989221 -0.22704107 14
-1.2796973 2.2916262 -0.13509907 14
-1.2759542 2.2858603 -0.044577342 11
-1.2988585 2.327848 0.70352924 11
-1.3143786 2.3566298 0.61365211 9
-1.2805852 2.2969818 0.50328338 5
-1.2807537 2.2982273 0.41018793 7
-1.2696178 2.27918 0.31564158 9
-1.2859331 2.3094168 0.22791228 12
-1.28377 2.306479 0.13633516 15
-1.2703211 2.2832675 0.044939946 14
-0.94929397 1.7097551 -0.51375604 4
-1.0895218 1.9631242 -0.50951445 4
-1.2781527 2.303951 -0.504237 5
-1.2759029 2.300842 -0.41064081 12
-1.2792774 2.3078771 -0.31929803 9
-1.2714373 2.2946775 -0.22616951 14
-1.2692711 2.2917113 -0.13483825 14
-1.265546 2.2859268 -0.044490952 11
-1.2883862 2.3281415 0.70223594 12
-1.303786 2.35694 0.6125282 9
-1.2701844 2.2971427 0.50233024 5
-1.2703346 2.2983615 0.4094066 7
-1.2592545 2.2792542 0.31503224 10
-1.275456 2.3095312 0.22747648 12
-1.2708848 2.3022034 0.13581181 15
-1.2599337 2.2833076 0.044852681 13
-0.94564962 1.7172889 -0.51505011 3
-1.0826626 1.9669154 -0.50951445 3
-1.2724687 2.3126986 -0.50519013 5
-1.2631038 2.2966275 -0.40907648 12
-1.2688229 2.3079798 -0.31868869 9
-1.2610207 2.2947364 -0.22573371 14
-1.2564559 2.2873752 -0.13431664 14
-1.2527466 2.2815661 -0.044318173 11
-1.2779279 2.3283906 0.70094275 12
-1.290864 2.3529339 0.61028039 9
-1.2621582 2.3015625 0.50233024 5
-1.2599303 2.2984512 0.4086253 8
-1.2489059 2.2792838 0.31442288 9
-1.2649938 2.3096008 0.22704072 12
-1.260443 2.3022456 0.13555013 14
-1.2495559 2.2833064 0.04476542 14
-0.93964934 1.7205794 -0.51505011 3
-1.0781246 1.9749589 -0.51063919 3
-1.2643881 2.3171263 -0.50519013 6
-1.2527146 2.2966869 -0.40829429 12
-1.2583832 2.3080375 -0.31807932 9
-1.2506193 2.2947505 -0.22529794 14
-1.246075 2.2873621 -0.13405582 14
-1.242384 2.2815344 -0.04423178 12
-1.2651744 2.324353 0.69835621 12
-1.2803144 2.3531461 0.60915649 10
-1.2611517 2.3188896 0.50518978 5
-1.2495407 2.2984962 0.40784398 7
-1.2385726 2.2792687 0.31381357 9
-1.2545465 2.3096254 0.22660492 11
-1.2500166 2.3022435 0.13528845 14
-1.2391934 2.2832601 0.044678159 13
-0.92903757 1.7153553 -0.5124619 3
-1.0712242 1.9787102 -0.51063919 3
-1.2562921 2.3215258 -0.50519013 6
-1.2423406 2.2967019 -0.40751213 12
-1.2479585 2.3080506 -0.31747001 10
-1.2402332 2.2947199 -0.22486216 14
-1.2333363 2.2829115 -0.13353421 15
-1.2320368 2.2814584 -0.04414539 11
-1.254759 2.3245049 0.69706297 13
-1.2674656 2.3490252 0.60690868 10
-1.2553794 2.3275979 0.50614297 10
-1.2368226 2.2941499 0.40628135 7
-1.2282546 2.2792096 0.3132042 8
-1.2441148 2.3096056 0.22616915 12
-1.2396053 2.3021965 0.13502677 14
-1.2264771 2.2787676 0.044503633 14
-0.9230442 1.7185878 -0.5124619 4
-1.0643107 1.9824374 -0.51063919 3
-1.2481807 2.3258967 -0.50519013 6
-1.2319815 2.2966728 -0.40672994 12
-1.2352041 2.3036456 -0.31625131 9
-1.2298627 2.2946451 -0.22442639 14
-1.223002 2.2828014 -0.13327339 14
-1.2193453 2.276931 -0.043972608 11
-1.2420785 2.3203542 0.69447643 14
-1.2546612 2.3448441 0.60466087 10
-1.2518768 2.3406222 0.50804937 10
-1.2264787 2.2940981 0.40550008 7
-1.2179521 2.2791061 0.31259486 8
-1.2336981 2.3095405 0.22573337 12
-1.2268579 2.2977002 0.13450339 15
-1.2161614 2.2786243 0.044416368 13
-0.91476923 1.7175366 -0.51116782 4
-1.0573843 1.9861406 -0.51063919 3
-1.2400542 2.3302395 -0.50519013 6
-1.2193187 2.2922392 -0.40516558 11
-1.2248254 2.3035612 -0.31564194 9
-1.2195076 2.2945259 -0.2239906 14
-1.2126836 2.2826474 -0.13301259 14
-1.2090454 2.2767582 -0.043886222 11
-1.2294424 2.3161438 0.69188994 11
-1.2419014 2.3406014 0.602413 11
-1.243699 2.3449776 0.50804937 10
-1.2161502 2.2940021 0.40471876 6
-1.2076654 2.2789586 0.31198549 8
-1.2232974 2.3094313 0.2252976 12
-1.2164936 2.2975562 0.13424173 14
-1.2058617 2.2784374 0.044329111 14
-0.90846801 1.7208778 -0.51116782 4
-1.0500975 1.9900026 -0.51063919 3
-1.2315052 2.334769 -0.50519013 8
-1.2086059 2.2923245 -0.40438342 12
-1.2117467 2.2992542 -0.31442326 10
-1.2087681 2.2945733 -0.22355483 15
-1.1996561 2.2782404 -0.13249098 14
-1.1983639 2.2767501 -0.043799829 11
-1.2164474 2.3120856 0.68930346 11
-1.228779 2.3365135 0.60016519 11
-1.2328119 2.3451757 0.50709617 9
-1.2054368 2.2940722 0.40393746 6
-1.1969968 2.278976 0.31137615 8
-1.2125093 2.3094893 0.22486182 11
-1.2057441 2.2975779 0.13398004 14
-1.1951803 2.2784145 0.044241846 14
-0.90469527 1.7283174 -0.5124619 4
-1.0431447 1.993656 -0.51063919 3
-1.2233478 2.3390536 -0.50519013 9
-1.1983087 2.2921526 -0.40360126 12
-1.2014151 2.2990718 -0.31381392 10
-1.198445 2.2943635 -0.22311905 14
-1.1893852 2.2779877 -0.13223016 14
-1.1857831 2.2720554 -0.04362705 11
-1.2039014 2.3077533 0.68671691 11
-1.21611 2.3321486 0.59791738 11
-1.2223495 2.3451121 0.50614297 9
-1.1951398 2.2938864 0.40315613 6
-1.1867422 2.2787387 0.31076682 8
-1.1998403 2.3048713 0.22399026 11
-1.1954119 2.2973433 0.13371836 15
-1.1849071 2.2781405 0.044154584 14
-0.89865679 1.7314649 -0.5124619 3
-1.0361792 1.9972852 -0.51063919 3
-1.2151755 2.3433096 -0.50519013 9
-1.1880279 2.2919376 -0.4028191 12
-1.1910993 2.2988448 -0.31320456 10
-1.1881381 2.2941098 -0.22268325 14
-1.1791308 2.2776916 -0.13196936 14
-1.1755475 2.2717407 -0.04354066 11
-1.1914005 2.3033617 0.68413043 12
-1.2034868 2.3277235 0.59566957 12
-1.2119026 2.3450041 0.50518978 9
-1.1848587 2.2936563 0.40237483 6
-1.1742268 2.2740483 0.30954811 8
-1.189503 2.3046193 0.22355449 11
-1.1828068 2.2926273 0.133195 14
-1.1746622 2.2778163 0.044067323 13
-0.89481729 1.7388856 -0.51375604 3
-1.0292011 2.00089 -0.51063919 3
-1.2069885 2.347537 -0.50519013 10
-1.1777627 2.2916782 -0.40203691 12
-1.1807998 2.2985742 -0.31259522 10
-1.1778477 2.2938125 -0.22224748 14
-1.1688929 2.2773511 -0.13170855 13
-1.1653284 2.2713823 -0.043454267 11
-1.1811491 2.3032088 0.68283719 13
-1.1909093 2.3232391 0.59342182 10
-1.2014714 2.3448522 0.50423664 9
-1.1723427 2.2889872 0.40081221 6
-1.1640202 2.2737157 0.30893877 8
-1.1791821 2.3043232 0.22311871 11
-1.172523 2.2922966 0.13293332 15
-1.1644282 2.2774518 0.043980062 14
-0.88874203 1.7419986 -0.51375604 3
-1.0244236 2.0088103 -0.51176393 3
-1.1987866 2.3517361 -0.50519013 12
-1.1675142 2.2913752 -0.40125474 12
-1.170517 2.2982597 -0.31198588 9
-1.1653142 2.2890322 -0.22137593 14
-1.1586719 2.2769675 -0.13144773 14
-1.1551262 2.2709806 -0.043367881 11
-1.1687243 2.2987068 0.68025064 13
-1.1761705 2.3143523 0.5900501 10
-1.191056 2.3446558 0.50328338 10
-1.1621094 2.288662 0.40003088 5
-1.1515841 2.2689142 0.30772007 7
-1.1688777 2.3039832 0.22268291 10
-1.1622559 2.2919223 0.13267164 14
-1.154211 2.2770433 0.043892797 14
-0.88483566 1.7493999 -0.51505011 3
-1.0152073 2.0080264 -0.51063919 3
-1.1927842 2.3602872 -0.50614333 14
-1.1550553 2.2866201 -0.39969036 12
-1.1580137 2.2934713 -0.31076717 9
-1.1550726 2.2886393 -0.22094014 14
-1.1484677 2.27654 -0.13118692 14
-1.1449411 2.270535 -0.043281488 11
-1.1585193 2.2984598 0.67895746 13
-1.1637005 2.3097417 0.58780229 11
-1.1806568 2.3444152 0.50233024 10
-1.1496725 2.2838821 0.39846826 5
-1.1414266 2.2684872 0.30711073 7
-1.1585902 2.3035996 0.22224714 11
-1.1520059 2.2915044 0.13240996 15
-1.1417663 2.2721243 0.043718275 13
-0.87872374 1.7524779 -0.51505011 3
-1.0081918 2.0115578 -0.51063919 3
-1.1713469 2.3381059 -0.50042421 13
-1.1448554 2.2862229 -0.3989082 13
-1.1477796 2.293062 -0.31015781 10
-1.144848 2.2882028 -0.22050437 14
-1.1382807 2.2760694 -0.13092612 14
-1.1347731 2.270046 -0.043195099 11
-1.1483303 2.2981691 0.67766416 13
-1.1534539 2.3094311 0.58667839 11
-1.1702735 2.3441305 0.50137705 10
-1.139488 2.2834623 0.39768693 5
-1.131286 2.2680168 0.30650139 7
-1.1460969 2.2987144 0.22137558 11
-1.1417729 2.2910428 0.13214828 14
-1.1315991 2.2716215 0.043631013 14
-0.87260115 1.7555345 -0.51505011 3
-1.0033315 2.0194275 -0.51176393 3
-1.1566287 2.3289921 -0.49756464 16
-1.1346722 2.2857816 -0.39812601 12
-1.1375625 2.292609 -0.30954847 10
-1.1368537 2.2921851 -0.22050437 14
-1.1281109 2.2755551 -0.1306653 14
-1.1246226 2.2695136 -0.043108709 11
-1.1360136 2.2935073 0.67507768 14
-1.141062 2.3047109 0.58443058 12
-1.1577299 2.3394034 0.49947065 11
-1.1293206 2.2829995 0.39690566 5
-1.118963 2.2630544 0.30528268 6
-1.135859 2.2982357 0.2209398 10
-1.1315571 2.2905376 0.1318866 14
-1.1214492 2.271075 0.043543749 14
-0.86433333 1.7542375 -0.51375604 3
-0.99412394 2.0185473 -0.51063919 3
-1.1398208 2.3154011 -0.49375188 15
-1.124506 2.2852974 -0.39734387 12
-1.1273625 2.2921124 -0.30893913 10
-1.1266479 2.2916694 -0.22006857 14
-1.1179588 2.2749979 -0.1304045 13
-1.1144896 2.2689385 -0.04302232 11
-1.1258724 2.2931235 0.67378443 13
-1.1308637 2.304306 0.58330667 13
-1.1452334 2.3346169 0.49756429 11
-1.1191702 2.2824934 0.39612433 5
-1.1088727 2.2624905 0.30467334 6
-1.1256386 2.2977135 0.22050403 10
-1.1213588 2.289989 0.13162492 15
-1.1113172 2.2704856 0.043456491 13
-0.8582046 1.757244 -0.51375604 3
-0.98707187 2.0220051 -0.51063919 3
-1.1252743 2.3061318 -0.49089235 16
-1.1143571 2.28477 -0.39656168 12
-1.1171801 2.291573 -0.30832979 10
-1.1164598 2.2911105 -0.21963282 13
-1.1078242 2.2743974 -0.13014369 14
-1.1043743 2.2683201 -0.042935926 11
-1.1157475 2.2926965 0.67249113 14
-1.120682 2.3038583 0.58218277 13
-1.1306384 2.3253579 0.49470475 12
-1.1090374 2.2819443 0.39534304 5
-1.0987997 2.2618833 0.30406398 6
-1.1154355 2.297148 0.22006825 10
-1.1111783 2.2893975 0.13136324 14
-1.0990207 2.2653553 0.043281965 13
-0.85206544 1.7602289 -0.51375604 4
-0.98000771 2.0254383 -0.51063919 3
-1.1129436 2.3012087 -0.48898596 17
-1.1020763 2.2797537 -0.39499733 12
-1.1070149 2.2909901 -0.30772042 10
-1.1041229 2.2860236 -0.21876125 14
-1.0977075 2.2737539 -0.12988289 14
-1.094277 2.2676589 -0.042849541 10
-1.1056395 2.2922273 0.67119795 14
-1.1084015 2.2989788 0.57993495 13
-1.116122 2.3160255 0.49184516 10
-1.0989219 2.2813525 0.39456171 5
-1.0887446 2.2612338 0.30345467 6
-1.1052501 2.2965395 0.21963248 10
-1.1010154 2.2887628 0.13110156 14
-1.0889399 2.2646723 0.043194704 13
-0.84591591 1.7631925 -0.51375604 4
-0.97293168 2.0288467 -0.51063919 3
-1.1006608 2.2962272 -0.48707953 13
-1.091978 2.2791331 -0.39421517 13
-1.0968677 2.2903645 -0.30711108 10
-1.0939857 2.2853706 -0.21832547 14
-1.0876088 2.2730677 -0.12962207 13
-1.0841978 2.2669549 -0.042763148 11
-1.095548 2.2917149 0.66990465 14
-1.0982692 2.2984378 0.57881105 14
-1.1037999 2.3110492 0.4899388 10
-1.0909519 2.2851744 0.39456171 5
-1.0829822 2.2694993 0.30406398 5
-1.0950824 2.2958877 0.21919669 10
-1.0908706 2.288085 0.13083988 14
-1.0788776 2.2639465 0.043107443 14
-0.83975607 1.7661346 -0.51375604 4
-0.96584374 2.0322306 -0.51063919 4
-1.0905328 2.2956219 -0.48612636 13
-1.0818973 2.2784698 -0.39343297 13
-1.0867382 2.289696 -0.30650172 10
-1.0838667 2.2846754 -0.2178897 14
-1.0775282 2.2723386 -0.12936127 13
-1.0741369 2.2662082 -0.042676758 11
-1.085474 2.2911606 0.66861141 14
-1.0860692 2.2934511 0.57656324 14
-1.0915263 2.3060153 0.4880324 11
-1.0808564 2.2845044 0.39378041 5
-1.0771753 2.2777524 0.30467334 5
-1.084933 2.2951932 0.21876092 10
-1.0807439 2.2873642 0.1305782 14
-1.0688334 2.2631781 0.043020178 14
-0.83358598 1.7690551 -0.51375604 4
-0.95874405 2.0355897 -0.51063919 4
-1.0783316 2.2905328 -0.48422 14
-1.0718347 2.2777641 -0.39265084 12
-1.0766268 2.2889848 -0.30589241 10
-1.0716467 2.2794297 -0.21701814 13
-1.0674661 2.2715669 -0.12910046 14
-1.0640943 2.2654188 -0.042590369 11
-1.0754172 2.2905636 0.66731817 14
-1.075987 2.2928176 0.57543933 14
-1.0813857 2.3053675 0.4870792 11
-1.0707788 2.2837918 0.39299908 5
-1.0713238 2.2859919 0.30528268 12
-1.0748018 2.2944555 0.21832512 10
-1.0706358 2.2866008 0.13031653 14
-1.0609269 2.2668953 0.043020178 14
-0.82740581 1.7719541 -0.51375604 4
-0.95163268 2.038924 -0.51063919 4
-1.0682544 2.2898347 -0.4832668 14
-1.0617902 2.2770157 -0.39186865 12
-1.0665336 2.2882307 -0.30528304 9
-1.0615799 2.2786415 -0.21658234 13
-1.0574225 2.2707527 -0.12883966 13
-1.0540705 2.2645869 -0.042503979 11
-1.0653776 2.2899244 0.66602492 15
-1.0638684 2.287724 0.57319152 15
-1.071263 2.3046772 0.48612604 11
-1.0586387 2.278558 0.39143646 5
-1.0675181 2.2987199 0.30650139 12
-1.0646889 2.2936757 0.21788937 9
-1.0605459 2.2857947 0.13005485 13
-1.0509044 2.2660499 0.04293292 14
-0.82121545 1.7748314 -0.51375604 4
-0.94450974 2.0422335 -0.51063919 4
-1.0581954 2.2890947 -0.48231363 14
-1.0538354 2.2807081 -0.39186865 13
-1.056459 2.2874343 -0.3046737 10
-1.0515319 2.2778108 -0.21614657 13
-1.0473977 2.2698963 -0.12857884 13
-1.0440652 2.2637129 -0.042417586 11
-1.0533338 2.284857 0.66343844 15
-1.0538372 2.2869987 0.57206756 11
-1.0611582 2.3039443 0.48517281 12
-1.0486133 2.2777538 0.39065516 5
-1.0594877 2.3024321 0.30650139 11
-1.056676 2.2973781 0.21788937 9
-1.0504749 2.2849462 0.12979317 14
-1.0409003 2.2651618 0.042845655 13
-0.81702787 1.7820773 -0.51505011 4
-0.93737525 2.0455179 -0.51063919 4
-1.0481545 2.288312 -0.48136041 14
-1.043812 2.2798827 -0.39108649 13
-1.0464027 2.2865956 -0.30406433 10
-1.0415025 2.2769377 -0.21571079 13
-1.0373917 2.2689974 -0.12831803 13
-1.0340792 2.2627966 -0.0423312 11
-1.0433449 2.2841265 0.66214514 15
-1.0418007 2.2817996 0.56981981 11
-1.0490339 2.2987039 0.48326644 12
-1.0386064 2.2769067 0.38987383 5
-1.0493854 2.3016009 0.30589205 12
-1.0465847 2.29652 0.21745357 8
-1.0424926 2.288599 0.12979317 13
-1.0309156 2.2642317 0.042758394 13
-0.81279969 1.7893157 -0.51634425 3
-0.92821509 2.0443413 -0.50951445 4
-1.038132 2.2874873 -0.48040724 14
-1.0338074 2.2790151 -0.3903043 12
-1.0363653 2.2857144 -0.30345502 10
-1.029436 2.2714858 -0.21483923 13
-1.0274048 2.2680566 -0.12805721 13
-1.0241122 2.2618382 -0.042244807 10
-1.0313827 2.2789543 0.65955865 11
-1.0318214 2.2809832 0.5686959 12
-1.0389814 2.2978795 0.48231328 13
-1.0286185 2.2760181 0.38909256 5
-1.0393019 2.3007271 0.30528268 11
-1.0365121 2.2956195 0.2170178 8
-1.0324435 2.287673 0.12953149 13
-1.0209501 2.2632592 0.042671129 13
-0.80654889 1.7921419 -0.51634425 3
-0.92107338 2.0475688 -0.50951445 4
-1.028128 2.2866204 -0.47945404 14
-1.0238215 2.2781055 -0.38952214 13
-1.0263468 2.2847912 -0.30284566 9
-1.0194607 2.2705216 -0.21440347 13
-1.0174371 2.2670734 -0.12779641 13
-1.0141646 2.260838 -0.042158417 10
-1.0214453 2.2781332 0.65826535 11
-1.0218605 2.2801251 0.567572 12
-1.0269409 2.2925334 0.48040691 13
-1.0186493 2.2750874 0.38831124 5
-1.0292374 2.2998114 0.30467334 11
-1.0264589 2.2946768 0.21658202 8
-1.0224138 2.2867048 0.12926981 13
-1.0110039 2.2622449 0.042583872 13
-0.8002882 1.7949464 -0.51634425 3
-0.91193742 2.0463219 -0.50838971 5
-1.0181427 2.2857118 -0.47850087 14
-1.0118458 2.2726424 -0.38795781 13
-1.0163474 2.2838259 -0.30223632 10
-1.0095043 2.269515 -0.21396768 13
-1.0074887 2.2660487 -0.1275356 13
-1.0042363 2.2597959 -0.042072024 11
-1.0095657 2.272857 0.65567887 12
-1.0119182 2.2792253 0.56644809 12
-1.0149504 2.2871313 0.47850055 11
-1.0086991 2.2741148 0.38752994 5
-1.0191917 2.2988532 0.30406398 11
-1.0164247 2.2936919 0.21614625 8
-1.0124032 2.2856944 0.12900813 13
-1.0010772 2.261189 0.042496607 14
-0.79206651 1.7933111 -0.51505011 3
-0.90478885 2.0494926 -0.50838971 5
-1.0081763 2.2847612 -0.47754765 13
-1.0019138 2.271642 -0.38717562 12
-1.0063673 2.2828183 -0.30162695 9
-1.0015762 2.273025 -0.21396768 13
-0.99756008 2.2649822 -0.1272748 13
-0.9943279 2.2587118 -0.041985635 11
-0.99968052 2.2719464 0.65438563 12
-1.0019945 2.2782838 0.56532419 12
-1.0030102 2.2816734 0.47659415 12
-0.99876815 2.2731006 0.38674861 5
-1.0091655 2.297853 0.30345467 11
-1.0064099 2.292665 0.21571046 7
-1.0024124 2.2846417 0.12874645 12
-0.99117017 2.2600911 0.042409342 13
-0.78580189 1.7960651 -0.51505011 3
-0.89762932 2.0526383 -0.50838971 5
-0.99822927 2.2837691 -0.47659451 13
-0.99200112 2.2706003 -0.38639346 13
-0.99640667 2.2817695 -0.30101761 9
-0.99164319 2.2719424 -0.21353191 13
-0.98964781 2.2684505 -0.1272748 14
-0.98443919 2.2575865 -0.041899245 10
-0.98981416 2.2709942 0.65309232 12
-0.99208999 2.2773011 0.56420028 13
-0.99308002 2.2806606 0.47564095 12
-0.98885667 2.2720449 0.38596731 6
-0.99915874 2.2968109 0.3028453 11
-0.99641472 2.2915964 0.21527469 7
-0.99045104 2.2789686 0.12822309 12
-0.98128307 2.2589521 0.042322084 14
-0.77921367 1.798933 -0.51505011 3
-0.89009994 2.0559146 -0.50838971 5
-0.98790264 2.2829077 -0.47564128 14
-0.98171175 2.2696881 -0.38561127 13
-0.98606747 2.2808509 -0.30040827 10
-0.98133367 2.2709894 -0.21309611 13
-0.97934693 2.2674785 -0.12701398 13
-0.97417659 2.2565897 -0.041812852 11
-0.97957027 2.2701724 0.65179914 13
-0.98180705 2.2764482 0.56307638 12
-0.98082817 2.2752705 0.47373459 13
-0.97856832 2.2711184 0.38518599 6
-0.98877084 2.2958996 0.30223596 11
-0.98603946 2.2906578 0.21483891 7
-0.98011804 2.2779965 0.12796141 12
-0.97102201 2.2579408 0.042234819 13
-0.77292955 1.8016421 -0.51505011 3
-0.88483799 2.0634863 -0.50951445 5
-0.97799432 2.281831 -0.47468811 15
-0.97183847 2.2685618 -0.3848291 13
-0.9761464 2.279717 -0.29979894 9
-0.97144073 2.2698219 -0.21266034 13
-0.96946216 2.2662923 -0.12675317 13
-0.96432835 2.2553797 -0.041726466 11
-0.96974194 2.2691364 0.65050584 13
-0.97194099 2.2753811 0.56195247 13
-0.97095281 2.2741663 0.47278142 13
-0.96869642 2.2699783 0.38440469 6
-0.97880346 2.2947719 0.30162659 11
-0.97608417 2.2895038 0.21440314 7
-0.97020304 2.2768104 0.12769973 12
-0.9611693 2.2567198 0.042147558 13
-0.76474732 1.7998842 -0.51375604 3
-0.8776297 2.0665624 -0.50951445 5
-0.96810532 2.2807126 -0.47373492 15
-0.96198487 2.2673941 -0.38404691 13
-0.96624517 2.2785413 -0.29918957 9
-0.96156776 2.2686129 -0.21222456 12
-0.95959765 2.265065 -0.12649237 13
-0.95450032 2.2541285 -0.041640073 11
-0.9599328 2.26806 0.64921266 12
-0.96209431 2.2742729 0.56082857 13
-0.96109694 2.2730207 0.47182819 13
-0.95884418 2.2687967 0.38362336 6
-0.96885622 2.2936034 0.30101728 11
-0.96808636 2.2928972 0.21440314 7
-0.96030819 2.2755828 0.12743805 12
-0.95134926 2.2554524 0.042060297 13
-0.75845987 1.8025427 -0.51375604 3
-0.87041068 2.0696135 -0.50951445 5
-0.95823628 2.2795537 -0.47278175 14
-0.95215142 2.2661853 -0.38326478 13
-0.95636421 2.2773249 -0.29858023 10
-0.95364296 2.2719557 -0.21222456 13
-0.94782174 2.259192 -0.12597075 13
-0.94469291 2.2528362 -0.041553684 10
-0.95200998 2.2713969 0.64921266 12
-0.95414972 2.2776172 0.56082857 13
-0.95126116 2.2718344 0.47087502 13
-0.94901222 2.2675743 0.38284209 6
-0.95892894 2.2923927 0.30040792 11
-0.95815533 2.291667 0.21396735 7
-0.95043379 2.2743139 0.12717636 12
-0.9415437 2.2541466 0.041973036 13
-0.75030559 1.8007209 -0.5124619 4
-0.86318105 2.072639 -0.50951445 5
-0.94838709 2.2783532 -0.47182852 13
-0.94233817 2.2649357 -0.38248259 13
-0.9465034 2.2760668 -0.29797086 10
-0.94379473 2.2706709 -0.21178877 13
-0.93801433 2.2578757 -0.12570994 13
-0.93490613 2.2515032 -0.041467294 10
-0.94222397 2.2702451 0.64791936 13
-0.94432682 2.2764339 0.55970466 13
-0.94332522 2.2751412 0.47087502 13
-0.9392004 2.2663109 0.38206074 7
-0.94712281 2.286556 0.29918921 12
-0.95015007 2.2949975 0.21396735 7
-0.94248909 2.2776177 0.12717636 11
-0.93175876 2.2527995 0.041885771 13
-0.74401534 1.803329 -0.5124619 4
-0.85594094 2.0756395 -0.50951445 5
-0.93855798 2.2771118 -0.47087535 13
-0.93254524 2.2636452 -0.38170043 13
-0.93666315 2.2747681 -0.29736155 9
-0.93396717 2.2693455 -0.211353 13
-0.9282276 2.2565184 -0.12544914 13
-0.92514026 2.2501292 -0.041380905 10
-0.9324578 2.269053 0.64662611 13
-0.9345237 2.2752097 0.55858076 13
-0.93351364 2.2738798 0.46992183 13
-0.92940897 2.2650065 0.38127947 7
-0.93725246 2.2852571 0.2985799 13
-0.94024408 2.2936916 0.21353158 6
-0.9326399 2.2762735 0.12691469 11
-0.92199475 2.2514119 0.04179851 12
-0.73588961 1.8014442 -0.51116782 4
-0.84869039 2.0786147 -0.50951445 5
-0.92689449 2.2712851 -0.46896899 12
-0.92277282 2.2623136 -0.38091823 13
-0.92684358 2.2734282 -0.29675218 9
-0.92416042 2.2679791 -0.2109172 13
-0.9184618 2.2551205 -0.12518832 13
-0.9172802 2.253345 -0.041380905 10
-0.92271149 2.2678204 0.64533287 13
-0.92474073 2.2739446 0.55745685 14
-0.92372239 2.2725773 0.46896866 14
-0.91963816 2.2636614 0.38049814 7
-0.92553538 2.2793183 0.2973612 10
-0.93035871 2.2923443 0.21309578 7
-0.92468858 2.279515 0.12691469 11
-0.91225177 2.2499835 0.041711248 12
-0.72959691 1.8040019 -0.51116782 4
-0.84142947 2.0815644 -0.50951445 4
-0.91712189 2.2699556 -0.46801579 13
-0.9148702 2.265521 -0.38091823 12
-0.91704464 2.2720475 -0.29614282 9
-0.91437459 2.266572 -0.21048145 13
-0.90871722 2.2536819 -0.12492751 13
-0.9075402 2.2518961 -0.041294511 10
-0.91298503 2.2665474 0.64403963 13
-0.91497797 2.2726393 0.55633295 14
-0.91395164 2.2712343 0.46801546 14
-0.90988797 2.2622757 0.37971681 8
-0.91387135 2.2733259 0.29614249 10
-0.9204942 2.290956 0.21266001 6
-0.91486514 2.2780955 0.126653 11
-0.90253019 2.2485151 0.041623987 12
-0.72329533 1.8065377 -0.51116782 4
-0.83234841 2.0799661 -0.50838971 4
-0.90737003 2.2685862 -0.46706262 13
-0.90512329 2.2641149 -0.38013604 13
-0.90726674 2.2706265 -0.29553348 9
-0.9046098 2.2651243 -0.21004565 13
-0.89899373 2.2522027 -0.1246667 13
-0.89782161 2.250407 -0.041208126 10
-0.90327883 2.2652342 0.64274633 13
-0.90523565 2.2712936 0.55520904 14
-0.90420157 2.269851 0.46706229 14
-0.90015888 2.26085 0.37893552 8
-0.90409541 2.2718909 0.29553315 11
-0.91065073 2.2895267 0.21222423 6
-0.90506303 2.2766354 0.12639134 10
-0.8928299 2.2470057 0.041536722 12
-0.71698493 1.8090515 -0.51116782 4
-0.8250829 2.0828588 -0.50838971 4
-0.89763862 2.2671757 -0.4661094 12
-0.89721453 2.2672606 -0.38013604 12
-0.89750993 2.2691646 -0.29492414 9
-0.89486635 2.2636359 -0.20960988 13
-0.88929176 2.2506833 -0.1244059 13
-0.88812441 2.2488773 -0.041121732 10
-0.89359295 2.263881 0.64145315 13
-0.89551371 2.2699072 0.55408514 14
-0.89447224 2.2684271 0.46610907 14
-0.89045072 2.2593837 0.37815419 8
-0.89252198 2.2657983 0.29431444 11
-0.90082848 2.2880569 0.21178845 6
-0.89711058 2.2797806 0.12639134 10
-0.88498092 2.2501085 0.041536722 12
-0.71242958 1.8160392 -0.5124619 4
-0.81780738 2.085726 -0.50838971 4
-0.88792843 2.2657256 -0.46515623 13
-0.88749379 2.2657804 -0.37935388 12
-0.88958365 2.2722838 -0.29492414 10
-0.88514429 2.2621071 -0.2091741 13
-0.87961125 2.2491236 -0.12414508 13
-0.87844896 2.2473078 -0.041035343 10
-0.8839274 2.2624874 0.64015985 13
-0.88581276 2.2684813 0.55296123 14
-0.88476413 2.2669635 0.4651559 14
-0.88076383 2.2578773 0.37737289 9
-0.88280463 2.264276 0.29370511 11
-0.89102775 2.2865465 0.21135268 6
-0.887335 2.2782454 0.12612964 9
-0.87530768 2.2485254 0.041449465 11
-0.70608604 1.8185149 -0.5124619 4
-0.80875915 2.0840261 -0.50726491 4
-0.87823915 2.264235 -0.46420303 12
-0.87779427 2.2642601 -0.37857169 12
-0.87985343 2.2707477 -0.2943148 9
-0.87724268 2.2651832 -0.2091741 12
-0.871755 2.2521801 -0.12414508 13
-0.86879516 2.2456977 -0.040948953 10
-0.8742826 2.2610545 0.6388666 13
-0.87613261 2.267015 0.55183733 14
-0.87507683 2.2654591 0.4642027 14
-0.87109834 2.2563307 0.37659156 9
-0.87310892 2.2627139 0.29309577 12
-0.88304079 2.2896428 0.21135268 5
-0.87758112 2.27667 0.12586798 9
-0.8656562 2.246902 0.0413622 11
-0.69973397 1.8209686 -0.5124619 4
-0.80147964 2.0868366 -0.50726491 4
-0.87033015 2.267287 -0.46420303 13
-0.8681162 2.2626998 -0.37778956 12
-0.87014478 2.2691712 -0.29370543 9
-0.86754781 2.2635806 -0.20873833 13
-0.86210203 2.2505469 -0.12388428 13
-0.85916358 2.2440484 -0.040862564 10
-0.86465853 2.2595813 0.63757336 14
-0.86647338 2.2655089 0.55071342 15
-0.86541098 2.2639153 0.46324947 15
-0.86145443 2.2547448 0.37581027 9
-0.86343479 2.2611117 0.2924864 12
-0.87326694 2.2880576 0.21091689 5
-0.86784911 2.2750542 0.12560628 8
-0.85602677 2.2452388 0.041274939 11
-0.69509 1.8279145 -0.51375604 4
-0.79592121 2.0941758 -0.50838971 4
-0.86066747 2.2657225 -0.4632498 13
-0.86021268 2.2657163 -0.37778956 12
-0.86045796 2.267555 -0.2930961 9
-0.85787481 2.2619379 -0.20830254 13
-0.85247099 2.2488732 -0.12362346 13
-0.85132515 2.2470336 -0.040862564 10
-0.85505551 2.2580693 0.63628012 14
-0.85683554 2.263963 0.54958951 14
-0.85576665 2.2623315 0.46229634 15
-0.85183209 2.2531183 0.37502894 9
-0.85378265 2.2594695 0.29187706 12
-0.86351496 2.286432 0.21048112 5
-0.8581391 2.2733984 0.12534462 9
-0.84641963 2.2435358 0.041187678 11
-0.68870515 1.8303297 -0.51375604 4
-0.78860635 2.0969412 -0.50838971 4
-0.85102659 2.2641187 -0.46229663 12
-0.8505618 2.264082 -0.37700737 12
-0.85079294 2.2658987 -0.29248673 9
-0.84822392 2.2602553 -0.20786677 12
-0.84286225 2.2471602 -0.12336266 13
-0.84172148 2.2453103 -0.040776171 9
-0.84547359 2.2565174 0.63498682 14
-0.84721905 2.2623777 0.54846561 15
-0.84614384 2.2607079 0.46134311 15
-0.84223181 2.2514527 0.37424764 10
-0.84415245 2.2577875 0.29126769 13
-0.85378498 2.2847664 0.21004534 5
-0.84845126 2.2717023 0.12508292 9
-0.83858311 2.2464767 0.041187678 10
-0.68231195 1.8327225 -0.51375604 4
-0.78298074 2.1042471 -0.50951445 4
-0.84311813 2.2670755 -0.46229663 13
-0.84093291 2.2624083 -0.3762252 12
-0.84287834 2.2688546 -0.29248673 10
-0.83859509 2.2585325 -0.20743097 13
-0.83327579 2.2454073 -0.12310185 13
-0.8338787 2.2482347 -0.040776171 9
-0.83591282 2.2549262 0.63369364 14
-0.83762395 2.2607524 0.5473417 15
-0.83654296 2.2590451 0.46038994 15
-0.83265334 2.249747 0.37346631 10
-0.83454442 2.2560661 0.29065838 13
-0.84407723 2.283061 0.20960957 6
-0.83878571 2.2699664 0.12482125 8
-0.82900435 2.2447007 0.041100416 10
-0.6755901 1.835211 -0.51375604 4
-0.77358091 2.1025307 -0.50838971 4
-0.83310908 2.2655435 -0.46134344 12
-0.83093143 2.2608399 -0.37544301 12
-0.83284575 2.2672703 -0.29187742 9
-0.8303116 2.261591 -0.20743097 12
-0.82504034 2.2484462 -0.12310185 13
-0.82391167 2.2465827 -0.040689785 9
-0.82598031 2.2534401 0.63240033 14
-0.82765633 2.2592325 0.5462178 15
-0.82656986 2.2574866 0.45943674 15
-0.82270491 2.2481463 0.37268505 10
-0.8228606 2.2497883 0.28943968 13
-0.83399361 2.2814612 0.20917377 6
-0.82874668 2.2683356 0.12455957 8
-0.82077152 2.2477241 0.041100416 10
-0.67083246 1.8420961 -0.51505011 4
-0.76457065 2.1006401 -0.50726491 4
-0.82351792 2.2638257 -0.46039027 13
-0.8213473 2.2590857 -0.37466085 12
-0.82323158 2.2654996 -0.29126805 8
-0.82071179 2.259794 -0.20699522 13
-0.81548315 2.2466192 -0.12284105 12
-0.81606454 2.249445 -0.040689785 9
-0.81810933 2.2563095 0.63240033 13
-0.81976503 2.2621078 0.5462178 15
-0.81701332 2.2557435 0.45848358 11
-0.81485248 2.2510042 0.37268505 10
-0.8133139 2.2479799 0.28883031 15
-0.82433105 2.2796745 0.208738 6
-0.82082367 2.2712145 0.12455957 8
-0.81122214 2.2458732 0.041013151 9
-0.66439831 1.8444265 -0.51505011 3
-0.75558317 2.0987122 -0.50614017 4
-0.81394881 2.2620678 -0.45943707 13
-0.81178534 2.2572918 -0.37387866 12
-0.81363988 2.263689 -0.29065871 9
-0.81281865 2.262645 -0.20699522 13
-0.80763608 2.2494521 -0.12284105 12
-0.80651903 2.2475741 -0.040603392 8
-0.80859792 2.2546053 0.63110709 13
-0.81021994 2.2603695 0.54509389 16
-0.80747885 2.2539606 0.45753035 12
-0.80532521 2.2491853 0.37190372 10
-0.80378991 2.2461326 0.288221 12
-0.81469089 2.2778478 0.20830221 6
-0.81121004 2.2693644 0.12429789 7
-0.8016957 2.2439837 0.04092589 8
-0.657956 1.8467344 -0.51505011 4
-0.74988687 2.1059263 -0.50726491 3
-0.80440211 2.2602711 -0.4584839 13
-0.80224597 2.2554588 -0.3730965 12
-0.80407071 2.2618392 -0.29004934 9
-0.80324799 2.2607749 -0.20655942 13
-0.79810822 2.2475522 -0.12258023 12
-0.79699659 2.2456646 -0.040517002 8
-0.79910821 2.252862 0.62981385 13
-0.80069685 2.2585917 0.54396999 15
-0.79796702 2.2521393 0.45657721 11
-0.79582065 2.2473273 0.37112242 11
-0.79428881 2.2442465 0.28761163 11
-0.80507374 2.2759819 0.20786645 6
-0.80328351 2.2721822 0.12429789 7
-0.79385787 2.2467682 0.04092589 8
-0.65150565 1.8490199 -0.51505011 4
-0.74253124 2.1085312 -0.50726491 4
-0.79487783 2.2584352 -0.45753068 13
-0.79272932 2.2535865 -0.3723143 12
-0.79617053 2.2646322 -0.29004934 9
-0.79370034 2.2588658 -0.20612365 12
-0.79025793 2.2503245 -0.12258023 12
-0.78915286 2.2484329 -0.040517002 8
-0.78964067 2.25108 0.62852055 13
-0.79119623 2.2567751 0.54284608 15
-0.7884776 2.2502789 0.45562398 12
-0.78633887 2.2454307 0.37034109 11
-0.78481066 2.2423213 0.2870023 12
-0.79547954 2.2740767 0.20743066 6
-0.79369938 2.2702589 0.12403621 7
-0.78436124 2.2448061 0.040838629 8
-0.64663649 1.8558435 -0.51634425 3
-0.73516661 2.1111102 -0.50726491 4
-0.78698963 2.2611964 -0.45753068 13
-0.78485799 2.25634 -0.3723143 12
-0.78663111 2.2627103 -0.28944001 9
-0.78581065 2.2616227 -0.20612365 13
-0.78075999 2.2483523 -0.12231942 12
-0.7796604 2.2464507 -0.040430613 8
-0.78177816 2.2538226 0.62852055 14
-0.7817179 2.25492 0.54172218 15
-0.78061789 2.2530174 0.45562398 12
-0.77688015 2.2434952 0.36955979 11
-0.77535558 2.2403572 0.28639293 13
-0.78590852 2.2721324 0.20699489 6
-0.78576982 2.2730157 0.12403621 7
-0.77652061 2.2475305 0.040838629 8
-0.64015448 1.8580893 -0.51634425 3
-0.72779298 2.1136637 -0.50726491 4
-0.77749455 2.2592883 -0.45657751 13
-0.7753709 2.2543962 -0.37153217 12
-0.77711469 2.2607491 -0.28883067 8
-0.77629292 2.2596409 -0.20568787 12
-0.77128553 2.2463412 -0.12205861 12
-0.77019143 2.2444301 -0.040344223 8
-0.77233922 2.2519693 0.62722731 13
-0.77226228 2.253026 0.54059827 15
-0.77115798 2.251085 0.45467082 12
-0.76904416 2.2461934 0.36955979 11
-0.76592392 2.2383547 0.28578362 13
-0.77636069 2.2701488 0.20655911 7
-0.77621585 2.2710197 0.12377454 7
-0.76705462 2.2454967 0.040751368 7
-0.63366461 1.8603127 -0.51634425 3
-0.72041041 2.1161911 -0.50726491 4
-0.76960343 2.2619886 -0.45657751 13
-0.76590711 2.2524135 -0.37074998 12
-0.76762164 2.258749 -0.28822133 8
-0.76679862 2.2576206 -0.2052521 13
-0.76183468 2.2442918 -0.12179781 11
-0.76235223 2.2471049 -0.040344223 7
-0.7629227 2.2500772 0.62593406 14
-0.76439303 2.255708 0.54059827 15
-0.76172101 2.2491143 0.45371762 12
-0.75961536 2.2441862 0.36877847 11
-0.75810599 2.2410147 0.28578362 13
-0.76683635 2.2681265 0.20612334 8
-0.76668537 2.268985 0.12351285 7
-0.75921166 2.2481606 0.040751368 7
-0.62716705 1.8625133 -0.51634425 3
-0.71146536 2.1140759 -0.50614017 4
-0.76013821 2.2600091 -0.45562431 13
-0.75646651 2.2503922 -0.36996782 12
-0.75815207 2.2567105 -0.28761196 9
-0.75732791 2.2555616 -0.20481631 12
-0.75399595 2.2469375 -0.12179781 12
-0.75291407 2.2450123 -0.04025783 7
-0.75506383 2.2527268 0.62593406 14
-0.75496691 2.2537427 0.53947437 16
-0.75230724 2.2471051 0.45276445 12
-0.75177705 2.246824 0.36877847 12
-0.74870485 2.2389407 0.28517425 13
-0.7573356 2.2660651 0.20568755 7
-0.75876045 2.2716472 0.12351285 7
-0.74977648 2.2460549 0.040664103 7
-0.62066185 1.8646911 -0.51634425 3
-0.70408148 2.1165464 -0.50614017 4
-0.75069624 2.2579911 -0.45467114 13
-0.74860662 2.2530191 -0.36996782 12
-0.75027001 2.2593431 -0.28761196 9
-0.74788105 2.2534642 -0.20438054 13
-0.7445761 2.2448163 -0.12153699 11
-0.74349999 2.2428818 -0.040171444 7
-0.74567693 2.2507639 0.62464082 14
-0.74556392 2.2517395 0.53835046 15
-0.74291682 2.2450576 0.45181125 12
-0.74237901 2.244746 0.36799717 12
-0.74088484 2.2415404 0.28517425 13
-0.74785864 2.2639654 0.20525178 8
-0.74926108 2.2695408 0.12325118 7
-0.74036533 2.243911 0.040576845 7
-0.61565834 1.871434 -0.51763833 3
-0.69516736 2.114363 -0.50501537 4
-0.74280977 2.2605977 -0.45467114 12
-0.73919666 2.2509265 -0.36918563 11
-0.74083132 2.2572331 -0.28700262 9
-0.74001044 2.2560608 -0.20438054 12
-0.7367357 2.2474017 -0.12153699 11
-0.73410982 2.2407124 -0.040085051 7
-0.73781574 2.2533531 0.62464082 14
-0.73618406 2.2496977 0.53722656 16
-0.73354995 2.2429721 0.45085809 13
-0.73453879 2.2473235 0.36799717 12
-0.73151499 2.2393956 0.28456491 13
-0.73995137 2.2665622 0.20525178 9
-0.73978549 2.2673955 0.12298949 7
-0.73252821 2.2464817 0.040576845 7
-0.60912204 1.8735716 -0.51763833 3
-0.68778265 2.1167765 -0.50501537 4
-0.73339832 2.2585084 -0.45371795 12
-0.72981054 2.2487957 -0.36840346 12
-0.73294759 2.2598052 -0.28700262 9
-0.73059487 2.2538919 -0.20394474 12
-0.72734749 2.2452095 -0.12127619 10
-0.72628385 2.2432613 -0.040085051 6
-0.72845864 2.2513196 0.62334752 14
-0.72682762 2.247618 0.53610265 16
-0.72420657 2.2408485 0.44990486 13
-0.72517174 2.2451742 0.36721584 12
-0.72369355 2.2419355 0.28456491 13
-0.7305057 2.2643907 0.20481598 9
-0.7303341 2.2652116 0.12272782 7
-0.72314876 2.2442665 0.04048958 6
-0.60405552 1.8802845 -0.5189324 3
-0.68187886 2.1238034 -0.50614017 4
-0.72401059 2.2563813 -0.45276478 12
-0.72195637 2.2513297 -0.36840346 11
-0.72354025 2.2576239 -0.28639328 9
-0.72272289 2.2564285 -0.20394474 12
-0.71950585 2.2477348 -0.12127619 11
-0.71692574 2.2410216 -0.039998662 6
-0.71912479 2.2492483 0.62205434 14
-0.71749461 2.2455006 0.53497875 16
-0.71488708 2.2386873 0.44895169 13
-0.71582878 2.2429872 0.36643454 13
-0.71435529 2.2397196 0.28395554 14
-0.72259712 2.2669268 0.20481598 10
-0.72090697 2.2629898 0.12246613 8
-0.71379381 2.2420135 0.040402319 6
-0.59894961 1.8869851 -0.52022654 3
-0.67446125 2.1261706 -0.50614017 5
-0.71464658 2.2542157 -0.45181155 12
-0.71260172 2.2491281 -0.36762127 11
-0.71565527 2.2601359 -0.28639328 9
-0.71333939 2.2541888 -0.20350897 12
-0.71014971 2.2454717 -0.12101538 10
-0.71060532 2.2482772 -0.040085051 6
-0.70981425 2.2471392 0.62076104 14
-0.70818532 2.2433455 0.53385484 13
-0.70706826 2.241169 0.44895169 14
-0.70799488 2.2454722 0.36643454 13
-0.70653284 2.2421997 0.28395554 13
-0.71318352 2.2646847 0.20438023 9
-0.71300328 2.2654922 0.12246613 7
-0.70596337 2.2444916 0.040402319 6
-0.59091407 1.8844558 -0.5189324 3
-0.66703546 2.1285119 -0.50614017 5
-0.70530665 2.2520127 -0.45085838 13
-0.70327139 2.2468891 -0.36683914 11
-0.70628011 2.257884 -0.28578395 9
-0.70398015 2.2519107 -0.20307319 12
-0.70081818 2.243171 -0.12075458 10
-0.70722294 2.2650602 -0.040344223 5
-0.70052725 2.2449925 0.61946785 14
-0.69889981 2.2411525 0.53273094 13
-0.69778025 2.2389374 0.44799849 13
-0.6986838 2.2432148 0.36565322 13
-0.69722694 2.2399139 0.28334624 15
-0.70379436 2.262404 0.20394443 10
-0.70360863 2.2631996 0.12220446 8
-0.69664097 2.2421679 0.040315058 6
-0.58290356 1.8818938 -0.51763833 3
-0.65960151 2.1308274 -0.50614017 5
-0.69599074 2.2497721 -0.44990519 12
-0.69542396 2.2493303 -0.36683914 12
-0.6983943 2.2603354 -0.28578395 8
-0.69611526 2.2543545 -0.20307319 12
-0.69151151 2.2408326 -0.12049376 10
-0.70373207 2.2818465 -0.040603392 13
-0.69126391 2.2428086 0.61817455 14
-0.68963838 2.2389226 0.53160703 13
-0.68996072 2.2413595 0.44799849 13
-0.69084924 2.2456398 0.36565322 13
-0.68794549 2.2375903 0.28273687 14
-0.69589281 2.2648468 0.20394443 11
-0.6942386 2.2608685 0.12194277 8
-0.68734354 2.2398069 0.040227797 5
-0.57491809 1.8792986 -0.51634425 3
-0.65215951 2.1331167 -0.50614017 5
-0.6881333 2.2521877 -0.44990519 13
-0.68612587 2.2470207 -0.36605695 12
-0.68905145 2.2580128 -0.28517458 9
-0.68678886 2.2520063 -0.20263742 12
-0.68222964 2.2384562 -0.12023295 10
-0.69721937 2.2890716 -0.040689785 13
-0.68343085 2.2452078 0.61817455 14
-0.68040079 2.2366548 0.53048313 13
-0.68070501 2.2390583 0.44704533 14
-0.68157065 2.2433124 0.36487195 13
-0.68013066 2.2399781 0.28273687 14
-0.68653649 2.262496 0.20350866 11
-0.68489349 2.2584996 0.1216811 8
-0.67807096 2.2374082 0.040140532 5
-0.56695789 1.8766707 -0.51505011 3
-0.64470953 2.1353803 -0.50614017 5
-0.67884964 2.249877 -0.44895202 13
-0.67685246 2.244674 -0.36527479 11
-0.6797334 2.2556527 -0.28456524 9
-0.67892373 2.25439 -0.20263742 12
-0.67297274 2.2360427 -0.11997214 10
-0.68778473 2.2867038 -0.040603392 13
-0.67419916 2.2429545 0.61688131 15
-0.6725893 2.2390163 0.53048313 13
-0.67288512 2.2414207 0.44704533 14
-0.67373586 2.2456779 0.36487195 13
-0.67088223 2.2375851 0.28212753 15
-0.67863476 2.2648785 0.20350866 10
-0.67700565 2.2608769 0.1216811 9
-0.66882348 2.2349718 0.040053267 5
-0.55902308 1.8740103 -0.51375604 3
-0.63725173 2.1376176 -0.50614017 5
-0.67099202 2.252233 -0.44895202 12
-0.6690129 2.2470229 -0.36527479 11
-0.67044026 2.2532549 -0.28395587 8
-0.66963065 2.2519717 -0.20220163 12
-0.6651634 2.2383783 -0.11997214 9
-0.67552888 2.2747138 -0.040344223 10
-0.66499144 2.2406638 0.61558807 14
-0.66338432 2.2366796 0.52935922 13
-0.66366214 2.2390499 0.44609213 14
-0.66449028 2.2432806 0.36409062 13
-0.66165882 2.2351546 0.28151816 15
-0.6693117 2.2624574 0.20307288 11
-0.66769391 2.2584379 0.12141941 9
-0.65960145 2.2324986 0.03996601 5
-0.55111372 1.8713171 -0.5124619 4
-0.62978619 2.1398292 -0.50614017 5
-0.66174114 2.2498524 -0.44799879 13
-0.65977257 2.2446065 -0.3644926 12
-0.66117221 2.2508202 -0.28334656 9
-0.66036278 2.2495162 -0.20176587 12
-0.65734595 2.2406867 -0.11997214 9
-0.66477162 2.2674634 -0.040171444 10
-0.657166 2.2429714 0.61558807 15
-0.65557277 2.2389817 0.52935922 12
-0.65584236 2.2413528 0.44609213 14
-0.65665573 2.2455866 0.36409062 14
-0.65246063 2.232687 0.28090885 15
-0.66141015 2.2647798 0.20307288 12
-0.65840757 2.2559619 0.12115774 9
-0.65040475 2.2299881 0.039878745 6
-0.54727471 1.8825048 -0.51505011 4
-0.62231296 2.1420145 -0.50614017 5
-0.6538837 2.2521486 -0.44799879 13
-0.65193337 2.2468958 -0.3644926 11
-0.65192926 2.2483478 -0.2827372 8
-0.65112013 2.2470233 -0.20133008 12
-0.64813167 2.2381713 -0.11971132 9
-0.65546286 2.2649677 -0.040085051 9
-0.64799082 2.2406123 0.61429483 14
-0.6477533 2.2412565 0.52935922 12
-0.64665258 2.2389131 0.44513896 14
-0.64881319 2.247865 0.36409062 14
-0.64328766 2.2301826 0.28029948 15
-0.65212095 2.2622888 0.20263711 11
-0.65052885 2.2582462 0.12115774 10
-0.64123374 2.2274408 0.039791483 6
-0.53537202 1.8658344 -0.50987375 4
-0.61483216 2.1441736 -0.50614017 5
-0.64466614 2.2496991 -0.44704565 12
-0.64272678 2.2444103 -0.36371043 11
-0.64407706 2.2506099 -0.2827372 9
-0.64190298 2.2444935 -0.20089431 12
-0.640315 2.2404201 -0.11971132 8
-0.64617974 2.2624347 -0.039998662 8
-0.63884008 2.2382159 0.61300153 14
-0.63858944 2.2388186 0.52823532 13
-0.63748789 2.2364364 0.44418573 13
-0.63960975 2.2453668 0.36330932 13
-0.635499 2.2324145 0.28029948 15
-0.64422011 2.2645514 0.20263711 10
-0.64127666 2.2557003 0.12089606 11
-0.63208836 2.2248566 0.039704222 6
-0.53280336 1.8816328 -0.51375604 4
-0.60734379 2.1463068 -0.50614017 5
-0.63547367 2.2472126 -0.44609243 13
-0.63354546 2.2418878 -0.36292824 11
-0.63486832 2.2480683 -0.28212786 10
-0.63271141 2.2419267 -0.20045851 11
-0.63113517 2.2378359 -0.11945052 8
-0.63827848 2.2646768 -0.039998662 8
-0.63102335 2.2404325 0.61300153 14
-0.63077068 2.241034 0.52823532 12
-0.62967736 2.2386479 0.44418573 14
-0.63176805 2.2475858 0.36330932 13
-0.62636042 2.2298412 0.27969012 14
-0.63496524 2.2619908 0.20220132 12
-0.63205028 2.2531176 0.12063438 11
-0.6243183 2.2270494 0.039704222 6
-0.52363276 1.8741781 -0.51116782 4
-0.59984815 2.1484137 -0.50614017 5
-0.62630653 2.2446895 -0.44513926 12
-0.62571591 2.2440858 -0.36292824 11
-0.62701726 2.2502708 -0.28212786 8
-0.62488174 2.2441216 -0.20045851 12
-0.62331986 2.2400253 -0.11945052 6
-0.63036937 2.266891 -0.039998662 8
-0.62190574 2.2379677 0.61170834 14
-0.62164044 2.2385278 0.52711141 13
-0.62054676 2.2361028 0.44323257 14
-0.62259883 2.245018 0.362528 15
-0.61857307 2.2320142 0.27969012 15
-0.62573612 2.259393 0.20176555 12
-0.6228497 2.2504978 0.1203727 12
-0.61520809 2.2243967 0.039616961 6
nan nan nan 0
-0.59234512 2.1504946 -0.50614017 4
-0.61716461 2.2421296 -0.44418606 12
-0.61656904 2.2414947 -0.36214611 11
-0.61784309 2.2476606 -0.28151849 10
-0.6157251 2.2414861 -0.20002273 10
-0.61417514 2.2373722 -0.11918971 8
-0.62245262 2.2690775 -0.039998662 7
-0.61409003 2.2401249 0.61170834 15
-0.61253554 2.235985 0.52598751 13
-0.61144143 2.233521 0.44227937 12
-0.61475849 2.2471776 0.362528 13
-0.60946941 2.2293727 0.27908078 15
-0.61784554 2.2615635 0.20176555 13
-0.61367518 2.2478411 0.12011101 12
-0.6074397 2.2265308 0.039616961 7
nan nan nan 0
-0.58483487 2.152549 -0.50614017 4
-0.60933441 2.2442701 -0.44418606 12
-0.6074478 2.238867 -0.36136392 11
-0.60999358 2.2498035 -0.28151849 9
-0.6078971 2.2436218 -0.20002273 11
-0.60505652 2.2346828 -0.11892891 7
-0.61322254 2.2664106 -0.039912272 6
-0.6050061 2.2375925 0.61041504 14
-0.60472679 2.2381096 0.52598751 13
-0.60364127 2.2356417 0.44227937 14
-0.60562414 2.2445419 0.3617467 14
-0.60039175 2.2266948 0.27847141 16
-0.60865152 2.2588968 0.20132977 13
-0.60452682 2.2451484 0.11984934 11
-0.59836495 2.22381 0.039529696 8
nan nan nan 0
-0.57731748 2.1545775 -0.50614017 4
-0.60022718 2.2416422 -0.44323289 12
-0.59962898 2.2409737 -0.36136392 10
-0.60085469 2.2471249 -0.28090915 8
-0.59877592 2.2409179 -0.19958696 10
-0.59467614 2.227133 -0.11840729 5
-0.60401875 2.2637072 -0.039825883 8
-0.59719175 2.2396908 0.61041504 14
