# .PCD v0.7 - Point Cloud Data file format
VERSION 0.7
FIELDS x y z intensity
SIZE 4 4 4 4
TYPE F F F F
COUNT 1 1 1 1
WIDTH 1330
HEIGHT 1
VIEWPOINT 0 0 0 1 0 0 0
POINTS 1330
DATA ascii
-2.3579383 -2.7172835 0.062130563 57
-1.2227954 -1.4066653 -0.48916823 3
-1.4253253 -1.6390716 -0.49264312 2
-1.6519258 -1.8989842 -0.48136041 2
-2.3689742 -2.7223132 -0.56551105 15
-2.3809795 -2.7351453 -0.44055817 15
-2.3574076 -2.7071126 -0.3107107 13
-2.3668828 -2.7170358 -0.18621762 13
-2.3636312 -2.712347 -0.061509822 15
-2.3610191 -2.708395 0.95183361 12
-2.3658907 -2.7130275 0.82157451 11
-2.3547471 -2.6992974 0.68820196 11
-2.3501077 -2.6930304 0.5594182 10
-2.3619504 -2.7056479 0.43629223 12
-2.3710144 -2.7150741 0.31201756 15
-2.3673675 -2.7099435 0.18657768 14
-2.3542502 -2.6939785 0.061781514 56
-1.2404231 -1.4169239 -0.49434459 3
-1.4246187 -1.6267561 -0.49039361 2
-1.6747161 -1.9116663 -0.48612636 3
-2.365443 -2.6991711 -0.5623824 15
-2.3774266 -2.7118905 -0.43812078 15
-2.3569903 -2.6876326 -0.30940336 12
-2.3664739 -2.6974969 -0.18543519 13
-2.3598945 -2.68905 -0.06116426 15
-2.3577132 -2.6856189 0.94666064 12
-2.3624868 -2.6901095 0.81707889 12
-2.3511972 -2.6763117 0.68438917 11
-2.3464534 -2.6699722 0.55629295 10
-2.3582737 -2.6824777 0.43385485 12
-2.370609 -2.6955602 0.31071022 15
-2.3669188 -2.6904168 0.18579264 14
-2.3537312 -2.6744854 0.061519727 57
-1.2325859 -1.3980944 -0.48916823 3
-1.4173986 -1.6071576 -0.48589453 2
-1.7041093 -1.931573 -0.49279872 3
-2.3617792 -2.6760869 -0.55925363 15
-2.3770247 -2.692414 -0.43629274 16
-2.3531687 -2.6644554 -0.30766025 13
-2.3626516 -2.6742518 -0.18439196 13
-2.3560238 -2.6658123 -0.060818698 15
-2.3574758 -2.666517 0.94278091 12
-2.358952 -2.6672485 0.81258327 12
-2.3475153 -2.6533837 0.68057644 11
-2.3426669 -2.6469724 0.5531677 10
-2.3544643 -2.6593666 0.43141747 13
-2.3700967 -2.6760824 0.30940288 15
-2.3663621 -2.6709261 0.18500759 13
-2.3497891 -2.651288 0.061170679 58
-1.2470782 -1.4046181 -0.49305049 2
-1.4359407 -1.6167707 -0.49039361 2
-1.6978014 -1.9109359 -0.48898596 3
-2.3579831 -2.6530616 -0.55612499 12
-2.3732185 -2.669265 -0.43385535 15
-2.3525243 -2.6450591 -0.30635291 13
-2.3620152 -2.6547971 -0.18360955 13
-2.3553438 -2.646369 -0.060559526 16
-2.3539226 -2.6438427 0.93760788 13
-2.3585267 -2.648083 0.80921155 12
-2.3469677 -2.6341791 0.67771685 10
-2.3420343 -2.6277184 0.55082375 10
-2.3538246 -2.6400192 0.42958942 12
-2.3661616 -2.6529238 0.30765978 15
-2.3656981 -2.6514726 0.18422256 14
-2.3490429 -2.6318805 0.060908895 57
-1.2519736 -1.4002564 -0.49305049 2
-1.4350797 -1.6044859 -0.48814404 2
-1.7044615 -1.9049977 -0.48898596 3
-2.3507621 -2.6264157 -0.55221415 7
-2.3725903 -2.6498725 -0.43202728 15
-2.3484499 -2.62199 -0.30460978 13
-2.3579397 -2.6316607 -0.1825663 13
-2.3512201 -2.62324 -0.060213968 15
-2.3534641 -2.6248214 0.9337281 13
-2.3547437 -2.6253266 0.80471593 13
-2.3430367 -2.6113575 0.67390412 12
-2.3379974 -2.6048262 0.54769856 10
-2.3497636 -2.6170161 0.42715204 12
-2.3654225 -2.6335313 0.30635244 15
-2.3615906 -2.6283422 0.18317585 14
-2.3481898 -2.6125104 0.060647108 58
-1.2568538 -1.3958777 -0.49305049 2
-1.4439323 -1.6030866 -0.48926884 2
-1.7111007 -1.8990364 -0.48898596 3
-2.3400776 -2.5961847 -0.54752111 5
-2.371856 -2.6305175 -0.43019927 16
-2.3475797 -2.6026807 -0.30330247 14
-2.3537314 -2.6085854 -0.18152307 13
-2.3503139 -2.6038835 -0.0599548 16
-2.3529019 -2.6058364 0.92984837 12
-2.3540962 -2.6062443 0.80134422 12
-2.3422658 -2.5922375 0.67104459 10
-2.3338294 -2.5819943 0.54457331 9
-2.3488991 -2.5977552 0.42532399 12
-2.3645768 -2.6141763 0.3050451 16
-2.3607001 -2.6089752 0.18239079 13
-2.3438754 -2.5894723 0.060298059 58
-1.2617186 -1.3914819 -0.49305049 2
-1.4495193 -1.5980365 -0.48926884 2
-1.7177192 -1.8930521 -0.48898596 3
-2.3557639 -2.5953138 -0.54908544 12
-2.3676791 -2.6075261 -0.42776188 15
-2.3466034 -2.5834091 -0.3019951 14
-2.3527491 -2.589267 -0.18074064 14
-2.3493009 -2.5845654 -0.059695628 16
-2.3489859 -2.5833132 0.92467535 12
-2.3500659 -2.5835948 0.7968486 12
-2.3413901 -2.5731544 0.668185 10
-2.332855 -2.5628755 0.54222941 10
-2.3445878 -2.5748622 0.42288661 13
-2.3602707 -2.5911772 0.30330199 16
-2.3563409 -2.5859559 0.18134408 14
-2.3427968 -2.5701909 0.060036272 58
-1.2665681 -1.3870692 -0.49305049 2
-1.4550886 -1.5929672 -0.48926884 2
-1.7243166 -1.8870447 -0.48898596 3
-2.3581452 -2.5797846 -0.54752111 12
-2.3667197 -2.588258 -0.42593384 15
-2.345521 -2.5641761 -0.30068776 13
-2.34829 -2.5663037 -0.17969741 13
-2.3481817 -2.5652864 -0.059436455 15
-2.3482041 -2.5644116 0.92079562 12
-2.3491974 -2.5645981 0.79347688 12
-2.3370938 -2.5504909 0.66437227 10
-2.3284383 -2.5401545 0.5391041 10
-2.3434989 -2.5556891 0.42105857 13
-2.3592002 -2.5719106 0.30199465 16
-2.3552256 -2.5666783 0.18055904 14
-2.3416121 -2.5509489 0.059774488 57
-1.2714022 -1.3826396 -0.49305049 2
-1.4606403 -1.5878781 -0.48926884 2
-1.7342166 -1.8846258 -0.48993912 3
-2.363791 -2.567904 -0.54673892 12
-2.3656552 -2.5690289 -0.42410579 15
-2.3409586 -2.5413191 -0.29894465 14
-2.3470829 -2.5470753 -0.17891496 14
-2.3469567 -2.5460465 -0.059177287 16
-2.3440447 -2.5419967 0.91562259 12
-2.3482249 -2.5456386 0.79010516 12
-2.3359969 -2.5314956 0.66151267 10
-2.3272417 -2.5211251 0.53676021 10
-2.3389387 -2.5329092 0.41862118 12
-2.3580241 -2.5526834 0.30068731 16
-2.3506157 -2.5437725 0.17951232 14
-2.340322 -2.5317464 0.059512701 58
-1.2762208 -1.3781931 -0.49305049 2
-1.466174 -1.5827699 -0.48926884 2
-1.7341121 -1.8713603 -0.48803276 3
-2.3660259 -2.5523937 -0.54517454 11
-2.3611104 -2.5461998 -0.42166841 15
-2.339653 -2.522177 -0.29763731 14
-2.3423738 -2.5242262 -0.17787173 13
-2.3422251 -2.5231829 -0.058831725 15
-2.3430438 -2.5231814 0.91174281 13
-2.3438332 -2.5231481 0.78560954 13
-2.3347952 -2.5125394 0.65865314 11
-2.3259404 -2.5021346 0.53441626 9
-2.3376274 -2.5138266 0.41679314 13
-2.3533499 -2.5298488 0.29894418 16
-2.3492765 -2.524586 0.17872728 13
-2.33552 -2.508925 0.059163652 57
-1.2810237 -1.3737299 -0.49305049 3
-1.4683669 -1.5740799 -0.48814404 2
-1.7506802 -1.8760614 -0.49089235 3
-2.3648114 -2.5332894 -0.54282802 10
-2.3598228 -2.527061 -0.41984037 16
-2.3382418 -2.5030749 -0.29632998 14
-2.3409433 -2.50509 -0.17708932 14
-2.3407764 -2.5040352 -0.058572553 16
-2.3386414 -2.5008764 0.90656978 12
-2.3426416 -2.5042775 0.78223783 12
-2.3301368 -2.4900389 0.65484035 11
-2.3279104 -2.4867895 0.53285366 10
-2.3362114 -2.4947844 0.41496509 13
-2.3519509 -2.5107133 0.29763687 15
-2.3478317 -2.5054398 0.17794225 13
-2.3340065 -2.4898152 0.058901869 59
-1.2858112 -1.3692501 -0.49305049 3
-1.4738524 -1.5689448 -0.48814404 2
-1.7538568 -1.8663621 -0.48993912 3
-2.3567274 -2.5070283 -0.53891718 9
-2.3584299 -2.5079622 -0.41801229 16
-2.3333137 -2.4803858 -0.29458687 13
-2.3394077 -2.4859941 -0.17630689 13
-2.3392229 -2.4849288 -0.058313385 15
-2.3374236 -2.4821491 0.90269005 13
-2.338006 -2.4818995 0.77774227 12
-2.3287158 -2.4711733 0.65198076 11
-2.3264141 -2.4678676 0.53050971 10
-2.3346913 -2.4757824 0.41313705 12
-2.3504467 -2.4916184 0.29632953 15
-2.3462822 -2.4863346 0.17715721 14
-2.3323882 -2.470747 0.058640081 58
-1.2905829 -1.3647534 -0.49305049 2
-1.4759721 -1.5602514 -0.48701933 2
nan nan nan 0
-2.345094 -2.477268 -0.53422415 7
-2.3569331 -2.4889042 -0.41618428 15
-2.331681 -2.4613779 -0.29327953 14
-2.3377676 -2.4669402 -0.17552446 14
-2.3375647 -2.4658639 -0.058054212 16
-2.3361032 -2.4634612 0.89881027 13
-2.336596 -2.4631195 0.77437049 12
-2.3271918 -2.4523485 0.64912122 11
-2.3248141 -2.4489868 0.52816576 11
-2.3330672 -2.4568219 0.41130903 13
-2.3488381 -2.4725652 0.29502219 15
-2.3446281 -2.4672709 0.17637217 14
-2.3306651 -2.4517205 0.058378298 58
-1.2953389 -1.36024 -0.49305049 2
-1.4780492 -1.5515623 -0.48589453 2
nan nan nan 0
-2.2787614 -2.3904281 -0.51701629 6
-2.3553319 -2.4698873 -0.41435623 15
-2.3299444 -2.4424112 -0.29197219 14
-2.3360229 -2.447928 -0.17474203 14
-2.3323498 -2.4432249 -0.057708651 15
-2.3346813 -2.4448128 0.8949306 12
-2.331718 -2.4408565 0.76987487 12
-2.3255646 -2.4335647 0.64626163 12
-2.3231106 -2.4301472 0.52582186 11
-2.3313389 -2.4379029 0.40948096 14
-2.3471251 -2.453553 0.29371485 15
-2.3428698 -2.4482493 0.17558713 14
-2.3288379 -2.4327362 0.058116511 59
-1.3000792 -1.3557101 -0.49305049 2
-1.483456 -1.5463935 -0.48589453 3
nan nan nan 0
-2.2255325 -2.3183329 -0.5029372 5
-2.353627 -2.4509122 -0.41252819 15
-2.3315544 -2.4270794 -0.29110062 14
-2.3341742 -2.4289579 -0.17395961 14
-2.3304703 -2.4242566 -0.057449479 15
-2.3331575 -2.426204 0.89105082 12
-2.330091 -2.4221687 0.76650316 13
-2.3238351 -2.4148221 0.6434021 11
-2.3213041 -2.4113498 0.52347791 11
-2.3329499 -2.4226007 0.40826228 13
-2.3453083 -2.4345834 0.29240751 16
-2.341007 -2.42927 0.17480208 14
-2.3269069 -2.4137948 0.057854723 58
-1.3048036 -1.3511639 -0.49305049 2
-1.4888449 -1.5412059 -0.48589453 2
nan nan nan 0
-2.1786931 -2.2537403 -0.49042246 5
-2.3518181 -2.4319792 -0.41070014 15
-2.3296227 -2.408186 -0.28979328 14
-2.3322217 -2.4100308 -0.17317718 14
-2.3284869 -2.4053311 -0.05719031 16
-2.3315325 -2.4076362 0.88717103 12
-2.328362 -2.4035227 0.76313144 13
-2.3220029 -2.3961213 0.64054251 12
-2.3193948 -2.3925946 0.52113402 11
-2.3310275 -2.4037545 0.40643427 13
-2.3433876 -2.4156566 0.29110017 16
-2.3390405 -2.4103336 0.17401704 13
-2.3248718 -2.3948963 0.05759294 58
-1.309512 -1.346601 -0.49305049 2
-1.4976127 -1.5394914 -0.48701933 2
nan nan nan 0
-2.1934361 -2.2531986 -0.49198681 3
-2.349906 -2.4130888 -0.40887213 14
-2.3275876 -2.3893359 -0.28848594 13
-2.3301654 -2.3911469 -0.17239475 14
-2.3263998 -2.3864493 -0.056931138 17
-2.3298063 -2.3891096 0.8832913 13
-2.3299334 -2.3884056 0.76088363 12
-2.3200686 -2.3774629 0.63768297 12
-2.3173831 -2.3738818 0.51879007 11
-2.3290019 -2.3849511 0.40460619 13
-2.3413634 -2.3967726 0.28979284 16
-2.3369706 -2.3914406 0.173232 14
-2.3227334 -2.3760419 0.057331149 58
-1.3175837 -1.3454723 -0.49434459 3
-1.5063866 -1.5377346 -0.48814404 2
nan nan nan 0
-2.2082024 -2.2525816 -0.49355114 3
-2.3444161 -2.390698 -0.40643471 9
-2.3289375 -2.3740852 -0.28761441 14
-2.3280063 -2.3723071 -0.17161232 14
-2.3277116 -2.3711791 -0.056758359 16
-2.3279796 -2.3706241 0.87941152 13
-2.3280134 -2.3698311 0.75751191 13
-2.3214729 -2.3623481 0.63577664 11
-2.315269 -2.3552127 0.51644611 10
-2.3233943 -2.3626533 0.40216881 14
-2.3392363 -2.3779328 0.2884855 16
-2.3347976 -2.372592 0.17244697 14
-2.3204918 -2.3572316 0.057069365 57
-1.3222723 -1.3408649 -0.49434459 3
-1.5117453 -1.532467 -0.48814404 2
-1.8265134 -1.8509035 -0.49756464 3
-2.2021744 -2.2308018 -0.49042246 3
-2.3387988 -2.3683753 -0.4039973 6
-2.3267088 -2.3553104 -0.28630704 13
-2.3257437 -2.3535116 -0.17082989 14
-2.3254309 -2.3523734 -0.056499191 16
-2.3260522 -2.352181 0.87553179 13
-2.3259926 -2.3512995 0.75414026 12
-2.3193474 -2.3437638 0.63291705 12
-2.3130529 -2.3365872 0.51410222 10
-2.3211513 -2.3439498 0.40034077 13
-2.3370063 -2.3591366 0.28717816 16
-2.3325214 -2.3537874 0.17166193 14
-2.3181472 -2.3384659 0.056807578 58
-1.3303479 -1.3396682 -0.4956387 3
-1.5205188 -1.530637 -0.48926884 2
-1.8364229 -1.8479983 -0.49851784 3
-2.2169108 -2.2301059 -0.49198681 3
-2.3260555 -2.3390832 -0.40034124 5
-2.3243778 -2.3365803 -0.28499973 14
-2.3269007 -2.3383002 -0.17030828 13
-2.3230467 -2.3336127 -0.056240018 16
-2.3240244 -2.3337798 0.87165201 13
-2.3238704 -2.3328109 0.75076848 13
-2.3171203 -2.3252232 0.63005745 11
-2.310735 -2.3180063 0.51175827 11
-2.3188064 -2.3252912 0.39851275 13
-2.3346739 -2.3403857 0.28587085 16
-2.3336692 -2.3385625 0.17113857 15
-2.319232 -2.3232837 0.056633055 59
-1.3350161 -1.3350163 -0.4956387 3
-1.5258524 -1.5253201 -0.48926884 2
-1.8393905 -1.838107 -0.49756464 3
-2.2246821 -2.2223539 -0.49198681 3
-2.3552759 -2.35199 -0.4039973 12
-2.3184195 -2.3143768 -0.28325659 13
-2.3244455 -2.3195825 -0.16952586 13
-2.3205607 -2.3148975 -0.05598085 16
-2.3218968 -2.3154221 0.86777228 14
-2.3216479 -2.3143659 0.74739677 14
-2.3147929 -2.3067269 0.62719792 11
-2.3083162 -2.2994699 0.50941437 11
-2.3163593 -2.3066769 0.39668468 13
-2.3322387 -2.3216794 0.28456348 17
-2.3312001 -2.3198357 0.17035353 14
-2.3166952 -2.3045969 0.056371272 60
-1.339668 -1.330348 -0.4956387 3
-1.5311675 -1.5199846 -0.48926884 2
-1.8423116 -1.828218 -0.49661148 3
-2.2359319 -2.2180526 -0.49276894 3
-2.3705192 -2.3507428 -0.40521601 12
-2.3158715 -2.2957497 -0.28194925 14
-2.321888 -2.3009105 -0.16874342 14
-2.3179719 -2.2962282 -0.055721678 16
-2.3196692 -2.2971072 0.8638925 13
-2.3193252 -2.2959652 0.74402505 14
-2.3123641 -2.2882752 0.62433833 12
-2.3057957 -2.2809789 0.50707042 11
-2.3138108 -2.2881088 0.39485666 13
-2.3332441 -2.3065209 0.28369194 16
-2.328629 -2.3011553 0.16956849 14
-2.3140557 -2.2859559 0.056109484 59
-1.3443036 -1.3256636 -0.4956387 3
-1.536464 -1.5146306 -0.48926884 2
-1.8451858 -1.8183305 -0.49565825 3
-2.247179 -2.2137001 -0.49355114 3
-2.3822465 -2.3459361 -0.40582538 12
-2.3132222 -2.2771688 -0.28064194 14
-2.3227878 -2.2857871 -0.1682218 14
-2.3188453 -2.2811112 -0.055548895 16
-2.3173423 -2.2788367 0.86001271 13
-2.3169022 -2.2776086 0.74065334 13
-2.3098352 -2.2698691 0.6214788 12
-2.3066976 -2.2659945 0.50550777 11
-2.314702 -2.2730639 0.39363798 13
-2.3306177 -2.2878945 0.2823846 16
-2.3259561 -2.282521 0.16878346 14
-2.3113151 -2.2673619 0.055847697 59
-1.3454722 -1.3175839 -0.49434459 3
-1.5417416 -1.509258 -0.48926884 3
-1.8480139 -1.8084458 -0.49470508 3
-2.2548923 -2.2058425 -0.49355114 3
-2.3726799 -2.3202572 -0.40277863 12
-2.3104715 -2.2586348 -0.27933457 14
-2.320039 -2.2671959 -0.16743939 14
-2.3160655 -2.2625227 -0.055289723 16
-2.3149161 -2.2606103 0.85613298 14
-2.3143797 -2.2592974 0.73728162 14
-2.3107188 -2.2549362 0.6195724 11
-2.3039882 -2.2475834 0.50316387 10
-2.3119633 -2.2545757 0.39180991 13
-2.3278897 -2.2693141 0.28107727 17
-2.3267572 -2.2674184 0.1682601 14
-2.3084726 -2.2488148 0.05558591 59
-1.3498341 -1.3131149 -0.49434459 3
-1.5464755 -1.504407 -0.48926884 2
-1.8466485 -1.7957873 -0.49279872 3
-2.2618113 -2.1987476 -0.49355114 3
-2.3728395 -2.3058748 -0.40155992 12
-2.3104103 -2.2444236 -0.27846304 15
-2.3164039 -2.2494602 -0.16665696 14
-2.3124011 -2.2447889 -0.055030555 16
-2.3116083 -2.2432361 0.8522532 15
-2.314472 -2.2452309 0.73503381 14
-2.3072207 -2.2374148 0.61671281 12
-2.303946 -2.2334592 0.50160128 11
-2.3119071 -2.2403941 0.39059123 14
-2.3278522 -2.2550583 0.2802057 16
-2.3231082 -2.2496769 0.16747504 15
-2.3083422 -2.234597 0.055411387 60
-1.3541812 -1.3086314 -0.49434459 3
-1.5517174 -1.4989997 -0.48926884 3
-1.8529058 -1.7893304 -0.49279872 3
-2.2694724 -2.1908391 -0.49355114 3
-2.3701608 -2.2872396 -0.3997319 12
-2.3074763 -2.2259705 -0.27715567 14
-2.3134589 -2.2309625 -0.16587453 14
-2.313024 -2.2297642 -0.054857776 17
-2.312469 -2.2284505 0.84966671 14
-2.3117688 -2.2269976 0.73166209 14
-2.3044102 -2.2191336 0.61385328 12
-2.3010542 -2.2151282 0.4992573 10
-2.3089857 -2.221987 0.38876316 13
-2.3249407 -2.2365592 0.27889836 17
-2.3201499 -2.2311711 0.16669002 15
-2.3053164 -2.2161322 0.0551496 58
-1.3589684 -1.3036593 -0.49434459 3
-1.5572011 -1.4933023 -0.48926884 2
-1.8629947 -1.7859238 -0.49375188 3
-2.277487 -2.1825063 -0.49355114 3
-2.3677769 -2.2682378 -0.39790383 12
-2.3084242 -2.210608 -0.27628413 14
-2.3107998 -2.2121098 -0.1650921 14
-2.3103454 -2.2109022 -0.054598603 16
-2.3101511 -2.2099438 0.84578699 13
-2.3128734 -2.2117751 0.72941428 13
-2.3054323 -2.2038891 0.61194688 13
-2.2984464 -2.1964433 0.49691334 11
-2.3063488 -2.2032251 0.38693514 13
-2.325918 -2.2211428 0.27802682 17
-2.3210886 -2.2157569 0.16616665 15
-2.3061898 -2.2007649 0.054975078 58
-1.3635107 -1.2989078 -0.49434459 3
-1.55182 -1.4777784 -0.48589453 3
-1.8727725 -1.7827941 -0.49470508 3
-2.2815139 -2.1711385 -0.49276894 4
-2.3684886 -2.253118 -0.39668515 12
-2.3089077 -2.1956718 -0.27541256 14
-2.3112695 -2.1971498 -0.16457048 14
-2.3071771 -2.192493 -0.054339435 16
-2.3073459 -2.1918869 0.8419072 14
-2.3099813 -2.1936235 0.72604263 14
-2.3024321 -2.1856904 0.60908735 11
-2.2953527 -2.1782086 0.49456945 11
-2.3068244 -2.1883299 0.38571647 14
-2.3228142 -2.202728 0.27671948 17
-2.3179379 -2.1973355 0.16538161 15
-2.3029718 -2.1823854 0.05471329 59
-1.3715448 -1.2974592 -0.4956387 3
-1.5498896 -1.4656577 -0.48364502 3
-1.8825508 -1.7796178 -0.49565825 3
-2.2890787 -2.1631613 -0.49276894 3
-2.3655164 -2.2346129 -0.39485711 12
-2.3093152 -2.1807592 -0.27454099 15
-2.3080323 -2.1787856 -0.16378805 15
-2.3075445 -2.1775639 -0.054166656 16
-2.3044431 -2.1738768 0.83802748 14
-2.3069906 -2.1755192 0.72267085 14
-2.3029044 -2.1709065 0.60718095 12
-2.2921596 -2.160022 0.4922255 11
-2.3036122 -2.1700556 0.38388839 14
-2.3196104 -2.1843624 0.27541214 17
-2.314687 -2.1789639 0.16459657 15
-2.3032944 -2.1674812 0.054538768 61
-1.3760656 -1.2926638 -0.4956387 3
-1.5514448 -1.4569037 -0.48252031 3
-1.8887514 -1.7730356 -0.49565825 3
-2.2966156 -2.1551578 -0.49276894 4
-2.3660634 -2.2195516 -0.39363843 12
-2.3060133 -2.1624634 -0.27323368 15
-2.3083377 -2.1638858 -0.16326644 15
-2.304188 -2.1592405 -0.053907484 16
-2.3014429 -2.1559136 0.83414769 13
-2.3074579 -2.1607926 0.72042304 16
-2.2997184 -2.1527915 0.60432136 13
-2.2924736 -2.1452589 0.49066287 12
-2.3003006 -2.1518304 0.38206038 13
-2.3199449 -2.1694479 0.27454057 17
-2.3149836 -2.1640511 0.16407321 15
-2.2998884 -2.1491878 0.05427698 60
-1.3805695 -1.2878525 -0.4956387 3
-1.5636468 -1.4581244 -0.48476982 3
-1.9021095 -1.7731255 -0.49756464 3
-2.3005118 -2.1437614 -0.49198681 4
-2.3629029 -2.2011306 -0.39181039 12
-2.3062572 -2.1476119 -0.27236211 15
-2.3085675 -2.1490107 -0.16274482 15
-2.3043914 -2.1443729 -0.053734701 16
-2.2983453 -2.1379981 0.83026797 14
-2.3042829 -2.1427715 0.71705133 15
-2.2964342 -2.1347256 0.60146183 13
-2.2890949 -2.1271584 0.48831898 12
-2.3005259 -2.1370327 0.3808417 14
-2.3165538 -2.1511683 0.27323326 16
-2.3115449 -2.1457658 0.16328818 16
-2.3000474 -2.1343458 0.054102458 61
-1.3850565 -1.2830255 -0.4956387 3
-1.5723019 -1.4559675 -0.48589453 3
-1.9118894 -1.7698096 -0.49851784 3
-2.3079808 -2.1357181 -0.49198681 5
-2.3632858 -2.1861293 -0.39059168 12
-2.3027687 -2.1294031 -0.27105477 15
-2.3050551 -2.1307712 -0.16196239 15
-2.3008478 -2.1261375 -0.053475533 17
-2.2986984 -2.1234076 0.82768142 15
-2.3010106 -2.1247993 0.71367961 16
-2.293052 -2.1167088 0.59860224 12
-2.289247 -2.1124568 0.48675635 12
-2.2970281 -2.1188946 0.37901363 15
-2.316725 -2.1363156 0.2723617 17
-2.3080072 -2.1275315 0.16250314 16
-2.2964544 -2.1161408 0.053840671 61
-1.3895266 -1.278183 -0.4956387 3
-1.5809606 -1.453768 -0.48701933 3
-1.921669 -1.7664465 -0.49947101 2
-2.3154218 -2.1276484 -0.49198681 5
-2.3635926 -2.1711521 -0.38937297 13
-2.299181 -2.1112452 -0.26974744 15
-2.3051221 -2.1159592 -0.16144077 15
-2.3008885 -2.1113331 -0.053302754 16
-2.295419 -2.1055763 0.8238017 15
-2.2976406 -2.1068759 0.7103079 16
-2.2931902 -2.1020584 0.59669584 12
-2.289325 -2.09778 0.48519373 13
-2.2970915 -2.1041591 0.37779495 15
-2.3168211 -2.1214883 0.27149016 17
-2.3080535 -2.1127193 0.16197978 16
-2.2964509 -2.1013622 0.053666148 60
-1.3904139 -1.2700677 -0.49434459 3
-1.5896232 -1.4515256 -0.48814404 3
-1.9314485 -1.763037 -0.50042421 3
-2.3228345 -2.1195533 -0.49198681 6
-2.3638241 -2.1561997 -0.3881543 12
-2.2991757 -2.0964944 -0.2688759 15
-2.3051138 -2.1011724 -0.16091916 15
-2.3008537 -2.0965543 -0.053129975 16
-2.2956135 -2.0910463 0.82121515 15
-2.2977765 -2.0922825 0.70806009 16
-2.2896247 -2.0841291 0.59383631 12
-2.2893281 -2.0831287 0.4836311 12
-2.29708 -2.0894494 0.37657624 14
-2.3131564 -2.1033351 0.27018279 18
-2.3043294 -2.0945742 0.16119474 15
-2.2926722 -2.0832472 0.053404361 61
-1.3948388 -1.2652065 -0.49434459 3
-1.5982894 -1.4492404 -0.48926884 2
-1.9412276 -1.7595806 -0.5013774 3
-2.330219 -2.1114321 -0.49198681 6
-2.3603015 -2.1379402 -0.38632622 13
-2.295403 -2.0784264 -0.26756853 15
-2.3013282 -2.0830607 -0.16013673 15
-2.2970371 -2.0784473 -0.052870803 16
-2.2921529 -2.0733004 0.81733537 16
-2.2942245 -2.0744462 0.70468843 14
-2.2896032 -2.0695412 0.59192997 12
-2.289257 -2.0685027 0.48206848 12
-2.2933111 -2.071439 0.37474823 14
-2.3130906 -2.0885718 0.26931125 17
-2.3042138 -2.0798266 0.16067138 16
-2.2925069 -2.0685339 0.053229839 60
-1.3992467 -1.2603298 -0.49434459 3
-1.6069592 -1.4469126 -0.49039361 2
-1.9473579 -1.7527937 -0.5013774 3
-2.333904 -2.0999823 -0.49120462 7
-2.3603706 -2.1230507 -0.38510755 13
-2.2952361 -2.0637405 -0.26669699 15
-2.3011584 -2.0683391 -0.15961511 15
-2.2968411 -2.0637341 -0.05269802 16
-2.2921896 -2.0588319 0.81474888 15
-2.2942011 -2.0599153 0.70244062 15
-2.2895076 -2.0549793 0.59002358 12
-2.2854359 -2.0506046 0.47972456 12
-2.293139 -2.0567939 0.37352949 15
-2.3129499 -2.0738347 0.26843968 17
-2.3040233 -2.0651054 0.16014802 16
-2.2885432 -2.0505104 0.052968048 62
-1.4036375 -1.2554379 -0.49434459 3
-1.612 -1.4412946 -0.49039361 3
-1.9534644 -1.7459855 -0.5013774 3
-2.3412201 -2.0918224 -0.49120462 10
-2.3566632 -2.104881 -0.38327953 13
-2.2949951 -2.0490813 -0.26582542 14
-2.3009138 -2.0536444 -0.1590935 15
-2.2928398 -2.0457189 -0.052438848 16
-2.2885489 -2.0411735 0.81086916 14
-2.2941046 -2.0454099 0.70019281 15
-2.2856743 -2.0371776 0.58716398 12
-2.2852051 -2.0360439 0.47816193 12
-2.2928927 -2.0421753 0.37231082 15
-2.3090143 -2.0558116 0.26713234 18
-2.3037581 -2.0504112 0.15962467 17
-2.2882171 -2.0358634 0.052793525 61
-1.4080113 -1.2505306 -0.49434459 3
-1.6170212 -1.4356588 -0.49039361 3
-1.963218 -1.7424141 -0.5023306 3
-2.3411195 -2.0770824 -0.48964027 12
-2.3565705 -2.0900559 -0.38206083 13
-2.2909524 -2.0311446 -0.26451808 15
-2.2968578 -2.0356643 -0.15831105 15
-2.2924829 -2.0310726 -0.052266069 16
-2.2884288 -2.026768 0.80828267 15
-2.290287 -2.0277009 0.69682103 15
-2.2854207 -2.0226808 0.58525759 13
-2.2812021 -2.0182374 0.47581798 12
-2.2888548 -2.024296 0.3704828 14
-2.308713 -2.0411408 0.26626077 18
-2.2996771 -2.0324371 0.15883961 16
-2.2878165 -2.0212436 0.052619003 61
-1.4123679 -1.2456081 -0.49434459 3
-1.6220227 -1.4300057 -0.49039361 3
-1.9692882 -1.7355505 -0.5023306 3
-2.329828 -2.0525751 -0.48572943 14
-2.3564031 -2.0752573 -0.38084212 12
-2.2905514 -2.0165524 -0.26364651 15
-2.296453 -2.0210369 -0.15778944 15
-2.2882986 -2.0131519 -0.0520069 16
-2.2846091 -2.0091987 0.80440289 15
-2.2900329 -2.0132601 0.69457322 16
-2.2814064 -2.0049703 0.58239806 13
-2.2808127 -2.0037432 0.47425535 12
-2.2884493 -2.0097446 0.3692641 15
-2.3083375 -2.0264971 0.26538923 18
-2.299252 -2.0178103 0.15831625 16
-2.2835841 -2.0033548 0.052357219 60
-1.4167073 -1.2406704 -0.49434459 3
-1.6270046 -1.424335 -0.49039361 3
-1.9790281 -1.7318984 -0.50328374 3
-2.3221111 -2.0314236 -0.48260072 11
-2.3524253 -2.0572183 -0.37901407 13
-2.2900763 -2.0019882 -0.26277497 15
-2.2922144 -2.0031517 -0.15700702 14
-2.2877817 -1.9985738 -0.051834121 16
-2.2843325 -1.9948577 0.8018164 15
-2.289706 -1.9988461 0.69232541 14
-2.2809949 -1.9905401 0.58049166 13
-2.2766287 -1.98603 0.47191146 13
-2.2879701 -1.9952205 0.36804542 15
-2.3041334 -2.0086079 0.2640819 18
-2.2949884 -1.9999311 0.15753123 16
-2.2830241 -1.988804 0.052182693 61
-1.4210294 -1.2357175 -0.49434459 3
-1.6319665 -1.4186471 -0.49039361 3
-1.9850615 -1.7249798 -0.50328374 3
-2.3105469 -2.0071123 -0.47868985 11
-2.3520977 -2.0424864 -0.37779537 13
-2.2895277 -1.9874517 -0.26190341 15
-2.2916503 -1.988593 -0.15648541 15
-2.2834146 -1.9807481 -0.051574945 17
-2.2803352 -1.9773793 0.79793668 15
-2.285625 -1.9812676 0.6889537 15
-2.2805104 -1.9761372 0.57858527 12
-2.2723489 -1.9683706 0.46956751 12
-2.2874174 -1.9807247 0.36682671 15
-2.3035986 -1.994033 0.26321036 18
-2.2944038 -1.9853733 0.15700787 16
-2.2823906 -1.9742817 0.052008171 61
-1.4253341 -1.2307498 -0.49434459 3
-1.6369085 -1.4129417 -0.49039361 3
-1.9910707 -1.7180401 -0.50328374 3
-2.3063202 -1.9893578 -0.4763433 12
-2.3516963 -2.0277822 -0.37657669 13
-2.2889056 -1.9729437 -0.26103184 16
-2.2872298 -1.9708034 -0.15570298 15
-2.2827394 -1.9662403 -0.051402166 16
-2.2799034 -1.9631045 0.79535013 15
-2.2851419 -1.9669206 0.68670589 15
-2.2762327 -1.9585606 0.57572573 13
-2.2717178 -1.9539856 0.46800488 13
-2.2830286 -1.9630214 0.36499867 15
-2.3029904 -1.9794862 0.26233879 18
-2.293746 -1.9708443 0.1564845 17
-2.2778909 -1.9565303 0.051746383 60
-1.4296216 -1.2257669 -0.49434459 3
-1.6418307 -1.4072192 -0.49039361 3
-1.9970558 -1.7110795 -0.50328374 3
-2.3057489 -1.9748703 -0.47477898 11
-2.3512208 -2.0131056 -0.37535799 13
-2.2882099 -1.9584641 -0.2601603 16
-2.2865071 -1.9563153 -0.15518135 15
-2.2819905 -1.9517612 -0.051229388 17
-2.2794001 -1.9488567 0.79276359 14
-2.2845864 -1.952601 0.68445808 15
-2.2755921 -1.9442264 0.57381934 13
-2.271014 -1.9396293 0.46644226 12
-2.2823184 -1.9485955 0.36377996 16
-2.2985198 -1.9617344 0.26103145 19
-2.2930143 -1.956344 0.15596114 16
-2.2770991 -1.9420789 0.051571857 61
-1.4338917 -1.2207692 -0.49434459 3
-1.6467328 -1.4014796 -0.49039361 3
-1.9992779 -1.7009174 -0.5023306 3
-2.3088667 -1.9636105 -0.47399682 10
-2.3506715 -1.9984571 -0.37413931 13
-2.2836463 -1.9407881 -0.25885296 16
-2.2857113 -1.9418563 -0.15465973 15
-2.2811685 -1.9373114 -0.051056605 17
-2.278825 -1.9346366 0.79017711 14
-2.2802446 -1.9351569 0.68108642 14
-2.2748795 -1.9299209 0.571913 13
-2.2664711 -1.9221076 0.46409836 13
-2.2815354 -1.9341984 0.36256129 16
-2.2977538 -1.9472585 0.26015988 19
-2.2922099 -1.9418728 0.15543778 16
-2.2762344 -1.927657 0.051397335 62
-1.4381442 -1.2157565 -0.49434459 3
-1.6516148 -1.3957229 -0.49039361 3
-2.0014534 -1.6907609 -0.5013774 3
-2.3081608 -1.9491665 -0.47243246 11
-2.3500488 -1.9838371 -0.3729206 13
-2.2827935 -1.9263802 -0.25798139 16
-2.2848427 -1.9274266 -0.15413812 15
-2.2802734 -1.9228911 -0.050883826 17
-2.2781785 -1.9204443 0.78759056 14
-2.2795343 -1.9209067 0.67883861 14
-2.2740943 -1.9156439 0.57000661 13
-2.2656114 -1.9078223 0.46253574 13
-2.2806799 -1.9198308 0.36134258 15
-2.2969146 -1.9328121 0.25928834 20
-2.291332 -1.9274313 0.15491442 17
-2.2752967 -1.9132648 0.051222809 61
-1.4423792 -1.210729 -0.49434459 3
-1.6564766 -1.3899491 -0.49039361 3
-2.0035825 -1.6806098 -0.50042421 3
-2.3035979 -1.9315784 -0.47008595 11
-2.3493526 -1.9692458 -0.37170193 13
-2.2780502 -1.9088027 -0.25667405 16
-2.283901 -1.9130268 -0.1536165 15
-2.2831388 -1.9117104 -0.050797433 16
-2.2774611 -1.9062802 0.78500408 15
-2.2787526 -1.9066851 0.6765908 14
-2.2732372 -1.9013959 0.56810021 14
-2.2646799 -1.8935666 0.46097311 13
-2.2759442 -1.90231 0.35951456 15
-2.2960026 -1.918395 0.25841677 18
-2.2903817 -1.9130198 0.15439107 17
-2.2781239 -1.9021068 0.051135547 62
-1.4465966 -1.2056868 -0.49434459 3
-1.6650612 -1.3872769 -0.49151835 3
-2.0056653 -1.6704646 -0.49947101 3
-2.3027358 -1.9172059 -0.4685216 10
-2.3485832 -1.9546837 -0.37048322 13
-2.2770412 -1.8944678 -0.25580251 16
-2.2828867 -1.8986571 -0.15309489 15
-2.2821095 -1.8973368 -0.050624654 17
-2.2766724 -1.8921447 0.7824176 14
-2.2778993 -1.8924923 0.67434299 14
-2.2723088 -1.8871773 0.56619388 13
-2.2674761 -1.882495 0.46019179 14
-2.2749326 -1.888015 0.35829583 15
-2.2950182 -1.9040083 0.25754523 18
-2.2893581 -1.898638 0.15386769 16
-2.2770522 -1.8877617 0.050961021 62
-1.4507965 -1.2006299 -0.49434459 3
-1.6698936 -1.3814564 -0.49151835 3
-2.0114841 -1.6634532 -0.49947101 3
-2.2979956 -1.8997169 -0.46617511 10
-2.3477411 -1.940151 -0.36926451 13
-2.27596 -1.8801633 -0.25493094 17
-2.2818003 -1.884318 -0.15257327 15
-2.2810078 -1.8829942 -0.050451875 17
-2.2720876 -1.8749636 0.77853787 14
-2.2769749 -1.8783287 0.67209518 16
-2.2675219 -1.8698659 0.56333429 14
-2.266412 -1.868286 0.45862916 15
-2.2738492 -1.8737506 0.35707715 15
-2.2939613 -1.8896515 0.25667366 18
-2.2882631 -1.8842872 0.15334433 17
-2.2759085 -1.8734473 0.050786499 63
-1.4512472 -1.1924922 -0.49305049 3
-1.6747055 -1.3756189 -0.49151835 3
-2.0172784 -1.6564218 -0.49947101 3
-2.2969785 -1.8854172 -0.46461076 10
-2.3468261 -1.9256479 -0.36804584 13
-2.2709556 -1.8627305 -0.2536236 16
-2.2767804 -1.8668436 -0.15179083 16
-2.2759676 -1.8655131 -0.050192706 17
-2.2711468 -1.8608991 0.77595139 14
-2.2722101 -1.8611076 0.6687234 15
-2.2664397 -1.8557203 0.56142789 14
-2.2690978 -1.8572352 0.45784783 14
-2.2726943 -1.8595166 0.35585845 15
-2.2928324 -1.8753257 0.25580209 20
-2.2870953 -1.869967 0.15282097 17
-2.2746925 -1.8591641 0.050611973 64
-1.4554009 -1.1874192 -0.49305049 3
-1.6832727 -1.372844 -0.49264312 3
-2.0230482 -1.6493702 -0.49947101 3
-2.2920613 -1.8680279 -0.46226421 11
-2.3419912 -1.9080404 -0.36621779 13
-2.2697196 -1.8485013 -0.25275204 16
-2.2755384 -1.8525798 -0.15126921 16
-2.2747109 -1.851246 -0.050019924 18
-2.2663889 -1.8438158 0.7720716 15
-2.2711332 -1.8470167 0.66647559 15
-2.2652867 -1.8416052 0.55952156 14
-2.2679019 -1.8430741 0.45628521 15
-2.2714677 -1.8453135 0.35463977 16
-2.2916315 -1.8610308 0.25493056 19
-2.2819791 -1.8525311 0.15203595 17
-2.2734046 -1.8449123 0.05043745 63
-1.4595368 -1.1823316 -0.49305049 3
-1.6918406 -1.3700258 -0.49376786 3
-2.0326083 -1.6453865 -0.50042421 3
-2.29089 -1.8538027 -0.46069989 11
-2.3409204 -1.8936117 -0.36499909 13
-2.2722852 -1.8374355 -0.25231627 17
-2.274225 -1.8383476 -0.1507476 16
-2.2733822 -1.8370103 -0.049847145 17
-2.2652967 -1.8298235 0.76948506 16
-2.2699852 -1.8329562 0.66422778 14
-2.2640626 -1.827521 0.55761516 14
-2.2666349 -1.8289441 0.45472261 14
-2.2701695 -1.8311422 0.35342106 15
-2.2903588 -1.8467669 0.25405899 20
-2.2806566 -1.8382875 0.15151259 17
-2.2681525 -1.8275557 0.050175667 62
-1.4636551 -1.1772296 -0.49305049 3
-1.6966126 -1.3641117 -0.49376786 3
-2.042165 -1.6413562 -0.5013774 3
-2.2896476 -1.8396086 -0.45913553 11
-2.3397775 -1.8792135 -0.36378038 14
-2.2709172 -1.8232555 -0.2514447 17
-2.27284 -1.8241471 -0.15022598 16
-2.2719817 -1.8228065 -0.049674366 17
-2.2641346 -1.8158612 0.76689857 15
-2.2687671 -1.8189262 0.66198003 16
-2.262768 -1.8134677 0.55570877 14
-2.2652967 -1.8148452 0.45315999 15
-2.2688007 -1.8170021 0.35220239 16
-2.2890143 -1.8325351 0.25318745 20
-2.2792628 -1.8240755 0.15098923 17
-2.2667105 -1.813381 0.050001144 62
-1.4715294 -1.1751271 -0.49434459 3
-1.7013639 -1.358181 -0.49376786 3
-2.0517185 -1.6372793 -0.5023306 3
-2.2921944 -1.8285253 -0.45835334 11
-2.3346829 -1.8617524 -0.36195236 13
-2.2694778 -1.8091079 -0.25057316 17
-2.2713835 -1.8099787 -0.14970437 16
-2.2705104 -1.8086351 -0.049501583 18
-2.2629027 -1.8019298 0.76431209 14
-2.2674792 -1.8049272 0.65973222 17
-2.2614028 -1.7994457 0.55380243 14
-2.2638881 -1.800778 0.45159736 15
-2.2673602 -1.802894 0.35098368 16
-2.2875986 -1.8183348 0.25231588 21
-2.2777975 -1.8098958 0.15046588 18
-2.2651973 -1.7992389 0.049826618 63
-1.4756224 -1.1699834 -0.49434459 3
-1.7099127 -1.3552603 -0.49489263 3
-2.0612681 -1.6331556 -0.50328374 3
-2.2908206 -1.8143805 -0.45678899 10
-2.3294947 -1.8443497 -0.36012432 14
-2.2679675 -1.7949924 -0.24970159 17
-2.269856 -1.7958429 -0.14918275 16
-2.2689676 -1.7944963 -0.049328804 20
-2.2653902 -1.7910243 0.76301885 16
-2.2661209 -1.7909594 0.65748441 18
-2.2599676 -1.7854555 0.55189604 14
-2.2624087 -1.7867429 0.45003474 14
-2.2658496 -1.7888182 0.349765 16
-2.2861118 -1.8041673 0.25144431 22
-2.2762611 -1.7957485 0.14994252 18
-2.2636132 -1.7851297 0.049652096 63
-1.4796973 -1.1648254 -0.49434459 3
-1.714633 -1.3492833 -0.49489263 3
-2.0630987 -1.6229159 -0.5023306 3
-2.289376 -1.8002678 -0.45522466 11
-2.3242135 -1.8270061 -0.35829625 11
-2.2663865 -1.7809099 -0.24883004 17
-2.2682576 -1.78174 -0.14866114 16
-2.2673538 -1.7803903 -0.049156025 18
-2.2640297 -1.7771412 0.7604323 16
-2.2646928 -1.777023 0.6552366 18
-2.258462 -1.7714974 0.54998964 14
-2.2608593 -1.7727404 0.44847211 14
-2.2642682 -1.7747751 0.3485463 16
-2.2845542 -1.7900321 0.25057277 21
-2.2746539 -1.7816342 0.14941916 18
-2.2619581 -1.7710533 0.04947757 64
-1.4875597 -1.1626273 -0.4956387 3
-1.7193325 -1.3432899 -0.49489263 3
-2.064883 -1.6126832 -0.5013774 3
-2.2878611 -1.7861874 -0.45366031 11
-2.3149278 -1.8066688 -0.35585886 10
-2.268662 -1.7699239 -0.24839425 17
-2.2665887 -1.7676702 -0.14813951 17
-2.2656691 -1.7663172 -0.048983242 17
-2.2626002 -1.7632898 0.75784576 16
-2.263195 -1.7631187 0.65298879 18
-2.2568872 -1.7575717 0.54808331 14
-2.2592397 -1.7587702 0.44690952 15
-2.2626164 -1.7607647 0.34732762 16
-2.2829256 -1.7759297 0.2497012 21
-2.2729757 -1.7675529 0.1488958 17
-2.2641795 -1.7600784 0.049390309 63
-1.491609 -1.1574277 -0.4956387 4
-1.7240109 -1.3372802 -0.49489263 3
-2.0627418 -1.5994502 -0.49947101 3
-2.2862754 -1.7721394 -0.45209596 11
-2.3094513 -1.7894583 -0.35403085 10
-2.2669504 -1.7558937 -0.24752268 17
-2.2648489 -1.7536336 -0.14761789 17
-2.2678676 -1.7553378 -0.048896853 19
-2.2611015 -1.7494698 0.75525928 16
-2.2654819 -1.7522272 0.65186483 18
-2.2552423 -1.7436785 0.54617691 15
-2.25755 -1.7448331 0.44534689 15
-2.2608945 -1.7467878 0.34610891 16
-2.2812266 -1.761861 0.24882965 21
-2.2712274 -1.7535053 0.14837244 18
-2.2623942 -1.7460556 0.049215782 64
-1.4994659 -1.1551614 -0.49693277 4
-1.7286685 -1.331254 -0.49489263 3
-2.0683124 -1.5922402 -0.49947101 3
-2.28462 -1.7581245 -0.4505316 11
-2.3078165 -1.775334 -0.35281214 11
-2.2651689 -1.7418973 -0.24665113 17
-2.2630391 -1.7396309 -0.14709628 17
-2.2620888 -1.7382725 -0.048637681 18
-2.2595339 -1.7356821 0.75267279 17
-2.2638562 -1.7383739 0.64961702 18
-2.2535281 -1.7298182 0.54427052 15
-2.2557907 -1.7309294 0.44378427 15
-2.2551651 -1.7298239 0.3442809 16
-2.2794573 -1.7478255 0.24795809 21
-2.2733712 -1.7425288 0.14811075 18
-2.2605388 -1.7320666 0.04904126 65
-1.5032884 -1.1501826 -0.49693277 4
-1.7328421 -1.3258166 -0.49489263 3
-2.077203 -1.5887164 -0.50042421 3
-2.2822857 -1.7449394 -0.44896728 11
-2.3054965 -1.7620479 -0.35159346 11
-2.2627141 -1.7287246 -0.24577957 18
-2.2645247 -1.7294819 -0.14683546 16
-2.2595913 -1.72509 -0.048464898 19
-2.2534573 -1.7197844 0.74879307 17
-2.261559 -1.725343 0.64736921 17
-2.2511456 -1.716777 0.54236418 14
-2.2533627 -1.7178459 0.44222164 15
-2.2526939 -1.7167144 0.34306216 17
-2.2770126 -1.7346189 0.24708654 21
-2.2708895 -1.7293282 0.14758739 19
-2.2580135 -1.7189003 0.048866734 63
-1.5070943 -1.1451912 -0.49693277 3
-1.7413388 -1.3227066 -0.49601737 3
-2.0866451 -1.5844243 -0.5013774 3
-2.2804956 -1.7309906 -0.44740292 11
-2.3037264 -1.74799 -0.35037476 11
-2.2607975 -1.7147954 -0.24490802 18
-2.2625902 -1.7155331 -0.14631385 16
-2.2616153 -1.7141724 -0.048378512 19
-2.2517476 -1.7060745 0.74620652 16
-2.2598004 -1.7115551 0.6451214 18
-2.2492983 -1.7029831 0.54045779 15
-2.2554076 -1.7069894 0.44144034 15
-2.2507572 -1.7028521 0.34184349 17
-2.2751081 -1.720651 0.24621499 21
-2.2689459 -1.7153683 0.14706403 18
-2.2560229 -1.7049794 0.048692212 62
-1.5076237 -1.1364888 -0.4956387 3
-1.7464049 -1.3160106 -0.49601737 3
-2.0966341 -1.5793537 -0.5023306 3
-2.2792354 -1.7162802 -0.44583857 11
-2.3024912 -1.7331622 -0.34915608 11
-2.2594051 -1.7001123 -0.24403645 17
-2.2651706 -1.7038316 -0.14605305 16
-2.2601891 -1.6994669 -0.04820573 20
-2.2505598 -1.6916118 0.74362004 17
-2.2585654 -1.6970122 0.64287359 19
-2.2479713 -1.6884385 0.53855139 15
-2.2540467 -1.6923863 0.43987769 15
-2.2493408 -1.6882392 0.34062478 17
-2.2737296 -1.7059238 0.2453434 22
-2.2675269 -1.7006516 0.14654067 18
-2.2545531 -1.6903067 0.048517689 64
-1.5115817 -1.1312193 -0.4956387 3
-1.750988 -1.3099065 -0.49601737 3
-2.1021342 -1.5720253 -0.5023306 3
-2.2773015 -1.7023998 -0.44427425 11
-2.3005762 -1.7191732 -0.34793738 11
-2.257345 -1.6862534 -0.2431649 17
-2.2631028 -1.6899391 -0.14553143 17
-2.2580953 -1.6855861 -0.048032951 18
-2.2525802 -1.6808572 0.7423268 17
-2.2566648 -1.6832919 0.64062583 18
-2.2499163 -1.6776472 0.53759819 15
-2.2559807 -1.6815563 0.43909642 15
-2.2512407 -1.6774122 0.34001544 17
-2.2716813 -1.692026 0.24447185 22
-2.2654395 -1.6867622 0.14601731 18
-2.252423 -1.6764516 0.048343163 64
-1.5116444 -1.1230557 -0.49434459 3
-1.7594612 -1.3066913 -0.49714214 3
-2.1076088 -1.564678 -0.5023306 3
-2.2752988 -1.6885543 -0.44270989 11
-2.2985919 -1.7052187 -0.34671867 11
-2.2552154 -1.6724296 -0.24229334 18
-2.2609653 -1.676082 -0.1450098 16
-2.2559321 -1.6717407 -0.047860172 19
-2.2506716 -1.6672339 0.73974025 17
-2.2546959 -1.6696057 0.63837802 17
-2.247869 -1.6639429 0.5356918 15
-2.253897 -1.6677961 0.4375338 15
-2.2491026 -1.6636412 0.33879676 17
-2.2695634 -1.6781632 0.24360029 21
-2.2672982 -1.6758761 0.14575563 18
-2.2542365 -1.6656132 0.048255898 63
-1.5155554 -1.1177722 -0.49434459 3
-1.7600901 -1.2976506 -0.49601737 3
-2.1091065 -1.5543996 -0.5013774 3
-2.2772033 -1.6776725 -0.44192773 11
-2.2965381 -1.6912988 -0.34549999 11
-2.2570283 -1.6615942 -0.24185754 17
-2.2627807 -1.6652199 -0.14474899 16
-2.2577267 -1.6608933 -0.047773778 20
-2.2486956 -1.6536447 0.73715377 16
-2.2526591 -1.6559538 0.63613021 18
-2.245753 -1.6502732 0.53378546 15
-2.2517445 -1.6540711 0.43597117 15
-2.250896 -1.6528429 0.3381874 17
-2.2713923 -1.6672833 0.24316452 21
-2.2650831 -1.6620439 0.14523228 19
-2.2519746 -1.6518208 0.048081376 64
-1.5194478 -1.112475 -0.49434459 3
-1.764609 -1.2914988 -0.49601737 3
-2.1105583 -1.5441297 -0.50042421 3
-2.2750731 -1.6638826 -0.44036335 11
-2.2944155 -1.6774142 -0.34428129 11
-2.2547717 -1.6478276 -0.24098599 18
-2.2605159 -1.6514201 -0.14422737 17
-2.2554359 -1.6471055 -0.047600996 18
-2.2505534 -1.6429377 0.73586053 16
-2.2505546 -1.6423366 0.6338824 18
-2.2435691 -1.6366388 0.53187907 16
-2.2495239 -1.6403813 0.43440855 16
-2.248631 -1.639129 0.33696872 17
-2.2691472 -1.6534779 0.24229297 23
-2.262799 -1.6482475 0.14470892 18
-2.249644 -1.6380644 0.047906853 64
-1.5272286 -1.1100039 -0.4956387 3
-1.7651652 -1.2824677 -0.49489263 3
-2.111964 -1.5338688 -0.49947101 3
-2.2728748 -1.6501284 -0.43879902 11
-2.2962401 -1.6664801 -0.34367192 11
-2.2524464 -1.634097 -0.24011444 18
-2.2581823 -1.6376566 -0.14370576 16
-2.2530768 -1.6333541 -0.047428217 18
-2.2484527 -1.6294034 0.73327404 17
-2.2483828 -1.6287543 0.63163459 18
-2.2413175 -1.6230396 0.52997267 15
-2.2472353 -1.6267272 0.43284592 16
-2.2503185 -1.6283605 0.33635938 17
-2.2668333 -1.6397083 0.24142142 22
-2.2604463 -1.6344874 0.14418554 19
-2.2472451 -1.6243445 0.047732327 64
-1.531094 -1.1046662 -0.4956387 3
-1.769631 -1.2762984 -0.49489263 3
-2.1133239 -1.5236169 -0.49851784 3
-2.2746146 -1.6392974 -0.43801686 12
-2.2939901 -1.6526527 -0.34245324 11
-2.2540948 -1.6233138 -0.23967867 18
-2.2598329 -1.6268471 -0.14344496 17
-2.2506487 -1.6196392 -0.047255438 20
-2.246285 -1.6159039 0.73068756 16
-2.2500987 -1.6180514 0.63051063 19
-2.2429838 -1.6123412 0.52901947 16
-2.2448788 -1.6131094 0.43128332 15
-2.2479277 -1.6147052 0.33514068 18
-2.2644515 -1.6259753 0.24054985 23
-2.2580252 -1.6207639 0.14366218 18
-2.2447777 -1.6106614 0.047557805 65
-1.5349406 -1.0993149 -0.4956387 3
-1.7740755 -1.2701135 -0.49489263 3
-2.1186297 -1.5162308 -0.49851784 3
-2.27229 -1.6256006 -0.43645251 11
-2.2957079 -1.6417483 -0.34184387 11
-2.2516434 -1.6096423 -0.23880711 18
-2.2573729 -1.6131425 -0.14292334 17
-2.2481527 -1.6059612 -0.047082655 18
-2.2440507 -1.6024395 0.72810096 17
-2.2517679 -1.6073568 0.62938678 19
-2.2406073 -1.5987999 0.52711314 15
-2.242455 -1.5995278 0.4297207 15
-2.2454686 -1.6010863 0.333922 17
-2.266057 -1.6151698 0.24011406 23
-2.2555361 -1.6070772 0.14313883 19
-2.2422423 -1.5970155 0.047383279 65
-1.5387685 -1.0939503 -0.4956387 3
-1.7784982 -1.263913 -0.49489263 3
-2.1199079 -1.5059834 -0.49756464 3
-2.2698977 -1.6119404 -0.43488818 11
-2.2933314 -1.6279794 -0.3406252 11
-2.2491241 -1.5960075 -0.23793554 18
-2.2548449 -1.5994753 -0.14240173 17
-2.2496669 -1.5952123 -0.046996269 19
-2.2417498 -1.5890104 0.72551447 17
-2.2494142 -1.5938534 0.62713897 20
-2.2381637 -1.5852951 0.52520674 15
-2.2399635 -1.5859828 0.42815807 16
-2.2429423 -1.5875043 0.33270329 18
-2.2635489 -1.6014962 0.23924251 22
-2.2529786 -1.5934277 0.14261547 20
-2.239639 -1.5834067 0.047208756 65
-1.5465239 -1.091357 -0.49693277 3
-1.7828993 -1.2576971 -0.49489263 3
-2.1251516 -1.4985743 -0.49756464 3
-2.2674377 -1.5983164 -0.43332383 11
-2.2908864 -1.6142471 -0.33940649 12
-2.2506094 -1.5852785 -0.23749976 18
-2.2522488 -1.5858452 -0.1418801 17
-2.2470455 -1.5815948 -0.04682349 21
-2.2433329 -1.5783964 0.72422123 17
-2.2509789 -1.5831889 0.62601501 18
-2.2356534 -1.5718267 0.52330035 15
-2.2374051 -1.5724748 0.42659545 17
-2.2444091 -1.5768121 0.33209395 17
-2.2650495 -1.5907226 0.23880674 24
-2.2544405 -1.5826848 0.1423538 21
-2.2410605 -1.5727077 0.047121495 67
-1.5424125 -1.0804102 -0.49434459 3
-1.7872785 -1.2514662 -0.49489263 3
-2.1263487 -1.4883326 -0.49661148 4
-2.2649102 -1.5847296 -0.43175948 11
-2.2924409 -1.6033963 -0.33879715 11
-2.2479651 -1.5717046 -0.2366282 18
-2.2495854 -1.572253 -0.14135848 18
-2.2443562 -1.5680153 -0.046650708 20
-2.2409093 -1.5650252 0.72163475 17
-2.2485018 -1.5697439 0.6237672 19
-2.2371016 -1.5612043 0.52234721 16
-2.2347796 -1.5590041 0.42503282 16
-2.2417583 -1.5632908 0.33087525 17
-2.2624159 -1.5771097 0.23793519 23
-2.2517581 -1.5690963 0.14183044 19
-2.2383325 -1.5591605 0.046946973 66
-1.5620359 -1.0860478 -0.49952096 3
-1.7916361 -1.2452197 -0.49489263 3
-2.131531 -1.4809012 -0.49661148 4
-2.2663722 -1.5739969 -0.43097728 12
-2.2898705 -1.5897241 -0.33757848 12
-2.2493453 -1.5610082 -0.23619244 19
-2.2468545 -1.5586988 -0.14083686 17
-2.2415996 -1.5544739 -0.046477929 19
-2.2384198 -1.5516901 0.71904826 17
-2.2459586 -1.5563357 0.62151939 21
-2.2344677 -1.5477961 0.52044082 17
-2.2361476 -1.5483822 0.4242515 17
-2.2390404 -1.5498073 0.32965657 18
-2.2597151 -1.5635344 0.23706363 26
-2.2531149 -1.5583862 0.14156875 21
-2.2396491 -1.5484946 0.046859708 67
-1.5300428 -1.0559001 -0.48787412 3
-1.7999817 -1.2417244 -0.49601737 3
-2.1366875 -1.4734519 -0.49661148 3
-2.2637205 -1.5604705 -0.42941296 12
-2.2872326 -1.5760895 -0.33635977 14
-2.2465768 -1.547496 -0.23532088 19
-2.2481692 -1.5480144 -0.14057605 18
-2.2387757 -1.5409706 -0.046305142 22
-2.2358646 -1.5383917 0.71646172 17
-2.2433491 -1.5429645 0.61927158 20
-2.2317681 -1.5344255 0.51853442 17
-2.2333989 -1.5349728 0.4226889 19
-2.2362556 -1.5363616 0.32843786 19
-2.2569473 -1.5499974 0.23619208 25
-2.250308 -1.5448599 0.14104539 22
-2.2367966 -1.5350099 0.046685185 66
-1.5496572 -1.0614699 -0.49305049 3
-1.8043052 -1.2354337 -0.49601737 3
-2.1418176 -1.4659843 -0.49661148 4
-2.2650783 -1.5497706 -0.4286308 11
-2.2845278 -1.5624927 -0.33514106 15
-2.247853 -1.5368334 -0.23488508 19
-2.2453141 -1.5345225 -0.14005443 17
-2.2400134 -1.5303264 -0.046218757 23
-2.2332442 -1.5251302 0.71387523 18
-2.2406735 -1.5296304 0.61702383 19
-2.2330561 -1.523859 0.51758122 17
-2.2305837 -1.5216012 0.42112628 17
-2.2375052 -1.5257505 0.32782853 19
-2.2541125 -1.5364989 0.23532051 25
-2.2515607 -1.5341839 0.14078373 21
-2.2338777 -1.5215641 0.046510659 67
-1.5733231 -1.0696309 -0.49952096 3
-1.8126364 -1.2318665 -0.49714214 3
-2.1469219 -1.4584991 -0.49661148 4
-2.2663884 -1.53908 -0.42784861 12
-2.2776499 -1.5461466 -0.33331302 12
-2.2449605 -1.5233836 -0.23401353 19
-2.2465246 -1.5238725 -0.13979362 18
-2.2370663 -1.5168867 -0.046045974 22
-2.2305582 -1.5119054 0.71128875 18
-2.2379327 -1.5163341 0.61477602 18
-2.2302339 -1.5105499 0.51567489 16
-2.2317924 -1.5110371 0.42034498 18
-2.2345972 -1.5123674 0.32660982 19
-2.2553365 -1.5258299 0.23488472 25
-2.24863 -1.5207207 0.14026035 23
-2.2350335 -1.5109571 0.046423398 67
nan nan nan 0
-1.8169253 -1.2255317 -0.49714214 3
-2.152 -1.4509959 -0.49661148 4
-2.263557 -1.5256393 -0.42628425 12
-2.2748015 -1.5326408 -0.33209434 13
-2.2420018 -1.5099732 -0.23314197 20
-2.2435462 -1.5104444 -0.139272 17
-2.2381999 -1.5062772 -0.045959584 21
-2.2318146 -1.5014142 0.70999545 19
-2.2351263 -1.5030754 0.6125282 21
-2.2273464 -1.4972792 0.51376849 16
-2.2288549 -1.4977285 0.41878232 18
-2.235743 -1.5017908 0.32600048 20
-2.2523785 -1.5123948 0.23401317 25
-2.2456329 -1.5072967 0.139737 21
-2.2319913 -1.4975754 0.046248872 69
-1.5366105 -1.0290596 -0.48528594 3
-1.821192 -1.2191819 -0.49714214 3
-2.1570516 -1.4434752 -0.49661148 3
-2.2647638 -1.5149829 -0.42550209 12
-2.2718868 -1.5191737 -0.33087564 15
-2.238977 -1.4966021 -0.23227042 21
-2.2446535 -1.4998298 -0.1390112 20
-2.2351296 -1.4929019 -0.045786802 21
-2.2290084 -1.4882507 0.70740896 19
-2.2322545 -1.4898548 0.61028039 22
-2.2284763 -1.4867712 0.5128153 17
-2.2299607 -1.4871992 0.41800103 17
-2.2327132 -1.4884719 0.32478178 19
-2.253499 -1.5017611 0.23357739 25
-2.2425697 -1.4939123 0.13921364 23
-2.2330444 -1.4870044 0.046161614 69
nan nan nan 0
-1.8294945 -1.2155133 -0.49826688 3
-2.1661656 -1.4386523 -0.49756464 3
-2.2618098 -1.5016053 -0.42393777 12
-2.2689059 -1.5057458 -0.32965693 17
-2.2358859 -1.4832703 -0.23139885 20
-2.2415526 -1.4864662 -0.13848959 18
-2.2361605 -1.4823287 -0.045700416 21
-2.2261374 -1.4751252 0.70482248 18
-2.2333798 -1.4793634 0.60915649 20
-2.2254674 -1.4735634 0.5109089 18
-2.2310202 -1.4766803 0.4172197 20
-2.2337565 -1.4779308 0.32417244 19
-2.2545731 -1.4911381 0.23314162 25
-2.2436056 -1.4833214 0.13895196 22
-2.2340505 -1.4764442 0.046074349 69
-1.5921357 -1.0502189 -0.50081509 3
-1.8337262 -1.2091198 -0.49826688 3
-2.1711743 -1.4310822 -0.49756464 4
-2.25879 -1.4882668 -0.42237341 12
-2.2658589 -1.4923573 -0.32843825 15
-2.2368896 -1.4727175 -0.23096307 22
-2.2425568 -1.4758877 -0.13822877 19
-2.2329681 -1.4690187 -0.045527633 24
-2.2272375 -1.4646918 0.70352924 18
-2.2303877 -1.4662058 0.60690868 22
-2.2264957 -1.4630908 0.50995576 17
-2.2279058 -1.4634607 0.41565707 17
-2.2306051 -1.4646767 0.32295373 19
-2.2514362 -1.4777925 0.23227006 25
-2.2404203 -1.4700025 0.1384286 22
-2.2350104 -1.4658951 0.045987088 66
-1.6159959 -1.057881 -0.50728554 2
-1.8379357 -1.2027115 -0.49826688 3
-2.172049 -1.420808 -0.49661148 4
-2.2598381 -1.4776703 -0.42159122 13
-2.2627463 -1.4790083 -0.32721955 18
-2.2336771 -1.4594513 -0.23009151 20
-2.2393339 -1.4625897 -0.13770714 19
-2.2338965 -1.4584821 -0.045441244 20
-2.2242475 -1.4516289 0.70094275 18
-2.2314117 -1.4557494 0.60578477 22
-2.2233665 -1.4499476 0.50804937 17
-2.2288635 -1.4529779 0.41487581 20
-2.2315464 -1.454172 0.32234439 22
-2.2524073 -1.4672059 0.23183426 24
-2.2413535 -1.4594485 0.13816692 22
-2.231734 -1.4526302 0.045812566 66
-1.6561289 -1.0759138 -0.5189324 2
-1.833951 -1.1909819 -0.49601737 3
-2.1728783 -1.4105449 -0.49565825 4
-2.2566967 -1.4643965 -0.42002687 13
-2.2595682 -1.4656994 -0.32600087 19
-2.2345786 -1.4489355 -0.22965574 22
-2.2402353 -1.4520482 -0.13744634 18
-2.2347784 -1.4479573 -0.045354854 22
-2.2252471 -1.4412303 0.69964945 20
-2.2283001 -1.4426558 0.60353696 22
-2.2242937 -1.4395109 0.50709617 17
-2.2297752 -1.4425064 0.41409445 16
-2.2282743 -1.4409839 0.32112572 22
-2.2491488 -1.4539264 0.23096271 26
-2.2422404 -1.4489058 0.13790524 22
-2.2325916 -1.4421184 0.045725301 65
-1.5908686 -1.025638 -0.49693277 3
-1.8380971 -1.1845728 -0.49601737 3
-2.1736629 -1.4002934 -0.49470508 4
-2.2576427 -1.4538364 -0.41924468 13
-2.2604978 -1.4551169 -0.3253915 16
-2.2312453 -1.4357361 -0.22878417 21
-2.2368915 -1.438817 -0.13692473 20
-2.2356138 -1.4374439 -0.045268461 23
-2.2262013 -1.4308425 0.69835621 19
-2.2292233 -1.4322352 0.602413 23
-2.221045 -1.4264332 0.50518978 19
-2.2264853 -1.4293782 0.41253185 17
-2.2291138 -1.4305165 0.32051635 21
-2.2500179 -1.4433771 0.23052694 27
-2.238878 -1.4356796 0.13738188 24
-2.2334034 -1.4316188 0.04563804 69
-1.5903707 -1.0174757 -0.4956387 3
-1.817595 -1.1624007 -0.48926884 3
-2.1702666 -1.3874099 -0.49279872 4
-2.2543812 -1.4406285 -0.41768035 13
-2.2571986 -1.4418743 -0.32417279 17
-2.2320452 -1.425258 -0.22834839 21
-2.2376914 -1.4283136 -0.13666391 18
-2.2321889 -1.4242532 -0.045095682 24
-2.2230382 -1.4178687 0.69576973 20
-2.2301011 -1.421826 0.60128915 22
-2.2218716 -1.4160339 0.50423664 19
-2.2272961 -1.4189442 0.41175056 20
-2.2257218 -1.4173954 0.31929767 21
-2.2466388 -1.4301647 0.22965539 26
-2.2396634 -1.425175 0.1371202 23
-2.2299507 -1.4184477 0.045463517 69
nan nan nan 0
