# .PCD v0.7 - Point Cloud Data file format
VERSION 0.7
FIELDS x y z intensity
SIZE 4 4 4 4
TYPE F F F F
COUNT 1 1 1 1
WIDTH 1348
HEIGHT 1
VIEWPOINT 0 0 0 1 0 0 0
POINTS 1348
DATA ascii
-0.99244338 1.6794673 -0.5124619 3
-1.1369314 1.924745 -0.50726491 3
-1.3446004 2.2772217 -0.50614333 4
-1.3849698 2.3465266 -0.42550209 12
-1.3887527 2.3538744 -0.33087564 9
-1.3857831 2.3497779 -0.23532088 15
-1.3785809 2.3384986 -0.13979362 14
-1.3772839 2.3372307 -0.046218757 12
-1.4191269 2.409199 0.73844707 11
-1.4185699 2.4092147 0.63613021 9
-1.3812546 2.3467772 0.52139401 6
-1.3867383 2.3570352 0.42659545 11
-1.3728858 2.3344223 0.32782853 10
-1.3850251 2.3560045 0.23575628 12
-1.3803614 2.34901 0.14078373 14
-1.3689511 2.3305235 0.046510659 14
-0.98657483 1.6829214 -0.5124619 3
-1.1351321 1.9371085 -0.50951445 3
-1.3391241 2.2861364 -0.50709653 4
-1.3742751 2.3470852 -0.4247199 11
-1.375514 2.3501418 -0.32965693 9
-1.3725419 2.3460026 -0.23444931 15
-1.367889 2.3389862 -0.13953282 14
-1.3640711 2.3333924 -0.046045974 11
-1.4009613 2.3974574 0.73327404 12
-1.4076943 2.409945 0.63500631 9
-1.3705794 2.3473456 0.52044082 6
-1.3735235 2.3533311 0.42503282 11
-1.359727 2.330627 0.32660982 11
-1.371774 2.3522193 0.23488472 13
-1.3671242 2.3451865 0.14026035 13
-1.3582907 2.3309681 0.046423398 13
-0.98069441 1.686355 -0.5124619 3
-1.1283634 1.9410591 -0.50951445 3
-1.3311359 2.2907968 -0.50709653 4
-1.3611132 2.3433273 -0.42315558 11
-1.3648103 2.350637 -0.32904762 9
-1.3618439 2.3464711 -0.23401353 15
-1.3547047 2.335109 -0.1390112 13
-1.3534099 2.3338151 -0.045959584 12
-1.3853173 2.3897972 0.72939426 9
-1.3968307 2.4106286 0.6338824 9
-1.3574572 2.3436213 0.51853442 5
-1.3628259 2.3538373 0.4242515 11
-1.3490974 2.331064 0.32600048 10
-1.3610609 2.3526821 0.23444895 13
-1.3564301 2.3456218 0.13999867 14
-1.345142 2.327039 0.046248872 14
-0.9748019 1.689768 -0.5124619 3
-1.121581 1.944986 -0.50951445 3
-1.3206803 2.2911773 -0.50614333 4
-1.3504597 2.3437853 -0.42237341 11
-1.3516431 2.346786 -0.32782891 9
-1.3486745 2.3425772 -0.23314197 15
-1.3440548 2.3354955 -0.13875039 13
-1.3402693 2.3298581 -0.045786802 12
-1.3697441 2.3820574 0.72551447 10
-1.3835517 2.4070418 0.63163459 9
-1.3492682 2.3483453 0.51853442 5
-1.3521417 2.3542976 0.42347023 10
-1.3360106 2.3271513 0.32478178 11
-1.3503609 2.3530984 0.23401317 13
-1.3432651 2.3416803 0.13947532 14
-1.3345243 2.3273838 0.046161614 14
-0.96889758 1.6931603 -0.5124619 4
-1.1147848 1.9488891 -0.50951445 3
-1.310238 2.2915123 -0.50519013 4
-1.337369 2.3399098 -0.42080906 11
-1.3409811 2.3471806 -0.32721955 9
-1.3380191 2.3429453 -0.23270617 15
-1.333419 2.3358366 -0.13848959 13
-1.3296508 2.3301804 -0.045700416 11
-1.3566347 2.3784335 0.72292799 10
-1.3727279 2.4076238 0.63051063 9
-1.343493 2.3573048 0.51948762 5
-1.3390262 2.350421 0.4219076 10
-1.3254232 2.3274879 0.32417244 10
-1.3396747 2.3534689 0.23357739 13
-1.3326136 2.342015 0.13921364 14
-1.3214488 2.3233366 0.045987088 14
-0.9629814 1.6965321 -0.5124619 3
-1.1079751 1.9527687 -0.50951445 3
-1.2998098 2.2918024 -0.504237 4
-1.3267574 2.3402679 -0.42002687 11
-1.3303329 2.3475294 -0.32661018 9
-1.3249224 2.3389337 -0.23183462 15
-1.3203366 2.3317871 -0.13796796 14
-1.3165838 2.3261061 -0.045527633 11
-1.3435677 2.3747473 0.72034144 10
-1.361917 2.4081602 0.62938678 8
-1.3352562 2.3619802 0.51948762 11
-1.3283838 2.3507807 0.42112628 9
-1.3124093 2.3234584 0.32295373 11
-1.3265533 2.3494561 0.23270582 13
-1.3195218 2.3379555 0.13869028 14
-1.3108743 2.323581 0.045899823 14
-0.95705354 1.6998832 -0.5124619 3
-1.1011521 1.9566243 -0.50951445 3
-1.2893956 2.292048 -0.50328374 5
-1.3137392 2.3362758 -0.41846254 11
-1.3172671 2.3435066 -0.3253915 9
-1.3143101 2.3392019 -0.23139885 15
-1.309744 2.3320282 -0.13770714 13
-1.3060089 2.3263285 -0.045441244 11
-1.3305427 2.3709989 0.71775496 11
-1.3511192 2.4086504 0.62826282 8
-1.3318044 2.3751893 0.52139401 10
-1.3177553 2.3510957 0.42034498 10
-1.3018652 2.3236959 0.32234439 10
-1.3159105 2.3497264 0.23227006 13
-1.3089138 2.3381906 0.1384286 14
-1.3003143 2.3237801 0.045812566 14
-0.95317078 1.7075968 -0.51375604 3
-1.0915995 1.9563929 -0.50838971 3
-1.2833769 2.3010452 -0.504237 5
-1.3027627 2.3367617 -0.41768035 12
-1.306253 2.3439839 -0.32478216 9
-1.3033037 2.3396521 -0.23096307 14
-1.2987587 2.3324504 -0.13744634 14
-1.2950424 2.3267314 -0.045354854 11
-1.3194954 2.3716388 0.71646172 11
-1.339914 2.4093285 0.62713897 9
-1.32309 2.3800547 0.52139401 10
-1.3043317 2.3472757 0.41878232 9
-1.2885202 2.3197751 0.32112572 10
-1.3024538 2.3458245 0.23139849 13
-1.2979121 2.3386064 0.13816692 14
-1.2893631 2.3241587 0.045725301 14
-0.9495436 1.7151388 -0.51505011 3
-1.0847638 1.9601914 -0.50838971 3
-1.275337 2.3055108 -0.504237 5
-1.2922083 2.3369732 -0.41689819 11
-1.2956622 2.3441856 -0.32417279 9
-1.2903115 2.3354676 -0.23009151 15
-1.2857813 2.3282278 -0.13692473 14
-1.2820807 2.3224845 -0.045182075 11
-1.306542 2.3677731 0.71387523 11
-1.3267896 2.4054587 0.62489116 9
-1.312404 2.3803601 0.52044082 10
-1.2937466 2.3474894 0.41800103 9
-1.2780201 2.3199117 0.32051635 9
-1.2918546 2.3459933 0.23096271 12
-1.2873331 2.3387485 0.13790524 14
-1.2764169 2.3198884 0.045550779 14
-0.94355083 1.7184429 -0.51505011 3
-1.0779148 1.963966 -0.50838971 4
-1.2672814 2.3099484 -0.504237 5
-1.2792937 2.3328094 -0.41533384 11
-1.2850863 2.3443425 -0.32356349 9
-1.2797577 2.3355889 -0.22965574 15
-1.2752478 2.3283224 -0.13666391 14
-1.271565 2.3225603 -0.045095682 11
-1.2936316 2.3638453 0.71128875 12
-1.3160466 2.4058008 0.6237672 10
-1.3017322 2.3806202 0.51948762 10
-1.2808071 2.3433239 0.4164384 9
-1.2651557 2.3156486 0.31929767 10
-1.2788829 2.3417451 0.23009115 13
-1.276769 2.338845 0.13764356 14
-1.2659224 2.3199384 0.045463517 14
-0.93985629 1.7259675 -0.51634425 3
-1.0687234 1.9634373 -0.50726491 4
-1.2615561 2.3186693 -0.50519013 5
-1.2687835 2.3329225 -0.41455165 12
-1.2721545 2.3400936 -0.32234478 9
-1.2692189 2.3356652 -0.22921994 15
-1.2647294 2.328372 -0.13640311 13
-1.258679 2.318198 -0.044922903 11
-1.2807646 2.3598566 0.70870227 12
-1.3029944 2.4018154 0.62151939 10
-1.2910748 2.3808351 0.51853442 10
-1.2702662 2.3434389 0.41565707 9
-1.2547007 2.3156874 0.31868833 9
-1.2683288 2.3418155 0.22965539 12
-1.2662201 2.3388968 0.13738188 14
-1.2554373 2.3199463 0.045376252 13
-0.93352395 1.7294008 -0.51634425 3
-1.06152 1.9673412 -0.50726491 3
-1.2530494 2.3232777 -0.50519013 5
-1.2555372 2.3288631 -0.41298732 11
-1.2612147 2.3403721 -0.32173541 9
-1.2559255 2.3315313 -0.22834839 16
-1.2514526 2.324199 -0.1358815 13
-1.2478049 2.3183937 -0.044836514 11
-1.2675302 2.3560286 0.70611572 14
-1.2918749 2.4022841 0.62039554 10
-1.2800157 2.3812277 0.51758122 9
-1.259331 2.3437283 0.41487581 9
-1.2415084 2.3115265 0.31746963 9
-1.257381 2.3420596 0.2292196 12
-1.2529171 2.3347225 0.13685852 14
-1.2445626 2.3201268 0.045288995 14
-0.92748159 1.7326488 -0.51634425 3
-1.0569447 1.9753305 -0.50838971 3
-1.2449319 2.3276374 -0.50519013 5
-1.245072 2.3288765 -0.41220516 11
-1.2506987 2.3403833 -0.32112607 10
-1.2454325 2.3315077 -0.22791262 15
-1.2409801 2.3241487 -0.13562068 13
-1.2373506 2.3183248 -0.04475012 11
-1.2547516 2.3519158 0.70352924 10
-1.2766038 2.3938818 0.61702383 11
-1.2670782 2.3770185 0.51567489 9
-1.2488198 2.3437517 0.41409445 8
-1.2310991 2.3114657 0.31686029 9
-1.2445165 2.337641 0.22834805 12
-1.242414 2.3346739 0.13659684 14
-1.231755 2.3156328 0.045114469 13
-0.91916341 1.7316099 -0.51505011 3
-1.0500431 1.9790078 -0.50838971 3
-1.2344998 2.3276329 -0.504237 5
-1.234622 2.3288453 -0.41142297 11
-1.2401977 2.3403497 -0.32051674 9
-1.2349547 2.331439 -0.22747684 15
-1.2305233 2.3240538 -0.13535988 14
-1.226912 2.3182113 -0.044663735 11
-1.242017 2.3477428 0.70094275 10
-1.2591298 2.3810959 0.6125282 11
-1.2564795 2.3770878 0.51472169 9
-1.2360169 2.3393631 0.41253185 8
-1.2183878 2.3069725 0.31564158 9
-1.2340238 2.3375661 0.22791228 12
-1.2295964 2.3301647 0.13607349 14
-1.2213379 2.3154931 0.045027204 13
-0.91311336 1.7348077 -0.51505011 3
-1.045397 1.9869725 -0.50951445 3
-1.2263674 2.3319278 -0.504237 5
-1.2241875 2.3287694 -0.41064081 11
-1.227404 2.3358781 -0.31929803 9
-1.2221768 2.3269162 -0.22660528 15
-1.2177614 2.3194928 -0.13483825 13
-1.2164893 2.318053 -0.044577342 11
-1.2293271 2.3435097 0.69835621 11
-1.2440232 2.3725319 0.60915649 9
-1.2458957 2.3771119 0.51376849 9
-1.2255516 2.3392889 0.41175056 7
-1.2080255 2.3068151 0.31503224 8
-1.2235466 2.3374465 0.22747648 12
-1.2191402 2.3300183 0.13581181 14
-1.2109311 2.3153124 0.044939946 14
-0.9048177 1.7337031 -0.51375604 3
-1.0384548 1.9906095 -0.50951445 3
-1.2182199 2.3361945 -0.504237 6
-1.2114859 2.32427 -0.40907648 12
-1.2169498 2.3357472 -0.31868869 9
-1.2117462 2.3267505 -0.22616951 15
-1.2073517 2.3193004 -0.13457744 14
-1.2060828 2.3178506 -0.044490952 11
-1.216682 2.3392169 0.69576973 11
-1.2289916 2.3638916 0.60578477 10
-1.2353271 2.3770909 0.5128153 9
-1.215102 2.3391702 0.41096923 7
-1.1976788 2.3066134 0.31442288 8
-1.2130854 2.3372824 0.22704072 13
-1.2087001 2.3298275 0.13555013 14
-1.1982388 2.3106496 0.04476542 14
-0.89876044 1.7368509 -0.51375604 3
-1.0315 1.9942222 -0.50951445 3
-1.2100576 2.3404326 -0.504237 6
-1.2010978 2.3240974 -0.40829429 12
-1.2042338 2.3311627 -0.31747001 9
-1.2013316 2.3265405 -0.22573371 15
-1.1946682 2.3146267 -0.13405582 14
-1.1934004 2.3131607 -0.044318173 11
-1.2040815 2.3348641 0.69318318 12
-1.2140357 2.3551755 0.602413 10
-1.2247738 2.3770254 0.5118621 8
-1.204668 2.3390071 0.41018793 7
-1.1873485 2.3063676 0.31381357 8
-1.2026403 2.3370736 0.22660492 11
-1.1982763 2.3295925 0.13528845 13
-1.18788 2.3103719 0.044678159 14
-0.89269221 1.7399776 -0.51375604 3
-1.0223095 1.9934759 -0.50838971 3
-1.2018806 2.3446422 -0.504237 6
-1.190726 2.3238809 -0.40751213 12
-1.1938267 2.3309348 -0.31686065 9
-1.1909333 2.3262858 -0.22529794 15
-1.1843067 2.314338 -0.13379502 13
-1.183042 2.3128614 -0.04423178 11
-1.1937255 2.3347528 0.69188994 12
-1.2035902 2.3550606 0.60128915 10
-1.2142359 2.376915 0.5109089 8
-1.1964961 2.3431978 0.41018793 7
-1.1770344 2.306078 0.3132042 8
-1.1922115 2.3368206 0.22616915 12
-1.1878687 2.3293128 0.13502677 14
-1.1775376 2.3100502 0.044590894 14
-0.88661307 1.7430831 -0.51375604 4
-1.0153447 1.9970322 -0.50838971 3
-1.193689 2.3488233 -0.504237 6
-1.1803702 2.3236203 -0.40672994 12
-1.1834363 2.3306632 -0.31625131 9
-1.1782972 2.3215456 -0.22442639 14
-1.1739619 2.3140047 -0.13353421 13
-1.1704394 2.3080599 -0.044059001 12
-1.1833845 2.3345971 0.69059664 13
-1.1931601 2.3549016 0.60016519 11
-1.2014964 2.3723817 0.50900251 9
-1.1860789 2.3429539 0.4094066 7
-1.1667367 2.3057444 0.31259486 8
-1.1817988 2.3365231 0.22573337 12
-1.1752249 2.324533 0.13450339 14
-1.167212 2.3096848 0.044503633 14
-0.88269776 1.7504797 -0.51505011 3
-1.0061747 1.9962136 -0.50726491 3
-1.1854827 2.3529758 -0.504237 7
-1.170031 2.3233156 -0.40594777 12
-1.1708307 2.3259141 -0.3150326 9
-1.1679474 2.3211951 -0.2239906 15
-1.1636338 2.3136277 -0.13327339 13
-1.1601301 2.3076646 -0.043972608 12
-1.1730595 2.3343983 0.68930346 13
-1.180559 2.3503447 0.59791738 11
-1.1910056 2.3721747 0.50804937 9
-1.1756781 2.3426659 0.4086253 7
-1.1564559 2.3053672 0.31198549 7
-1.1714032 2.3361816 0.2252976 12
-1.1648664 2.3241572 0.13424173 13
-1.1546642 2.3048058 0.044329111 14
-0.87658203 1.7535502 -0.51505011 3
-1.0013782 2.004072 -0.50838971 3
-1.1772622 2.3570995 -0.504237 7
-1.159708 2.3229671 -0.40516558 12
-1.1604887 2.3255463 -0.31442326 9
-1.1553912 2.3163433 -0.22311905 15
-1.1510947 2.3087382 -0.13275178 13
-1.1476079 2.3027513 -0.043799829 10
-1.1627502 2.3341556 0.68801016 13
-1.170176 2.3500903 0.59679353 12
-1.1783439 2.3675294 0.50614297 9
-1.1652938 2.3423338 0.40784398 7
-1.1461918 2.3049459 0.31137615 7
-1.1610242 2.3357959 0.22486182 11
-1.1545247 2.3237374 0.13398004 14
-1.1443882 2.3043447 0.044241846 14
-0.86831135 1.7522719 -0.51375604 3
-0.99653888 2.0119207 -0.50951445 3
-1.1690271 2.3611946 -0.504237 8
-1.1494019 2.3225751 -0.40438342 12
-1.1501635 2.325135 -0.31381392 10
-1.1450909 2.315897 -0.22268325 15
-1.1408165 2.3082662 -0.13249098 14
-1.1373487 2.3022611 -0.043713439 11
-1.1524569 2.3338695 0.68671691 13
-1.1576529 2.3454227 0.59454572 13
-1.1679008 2.3672264 0.50518978 10
-1.1549263 2.341958 0.40706271 7
-1.135945 2.3044817 0.31076682 7
-1.1506623 2.3353662 0.22442605 11
-1.1419942 2.3187947 0.13345668 13
-1.1341296 2.3038402 0.044154584 14
-0.86218947 1.7552922 -0.51375604 3
-0.99165714 2.0197604 -0.51063919 3
-1.1607779 2.3652608 -0.504237 9
-1.1391126 2.3221393 -0.40360126 12
-1.1398554 2.3246796 -0.31320456 10
-1.1348079 2.3154075 -0.22224748 15
-1.1305554 2.30775 -0.13223016 14
-1.1271067 2.3017273 -0.04362705 11
-1.1421798 2.33354 0.68542367 14
-1.1430353 2.3363204 0.59117401 13
-1.155318 2.3624699 0.50328338 10
-1.1445752 2.3415382 0.40628135 6
-1.1257153 2.3039739 0.31015745 6
-1.1403174 2.334893 0.22399026 11
-1.1317028 2.3182797 0.133195 14
-1.1238884 2.3032918 0.044067323 14
-0.85605711 1.7582911 -0.51375604 3
-0.98886454 2.031971 -0.51288873 3
-1.1546615 2.3737121 -0.50519013 10
-1.1266811 2.3172188 -0.40203691 12
-1.1295645 2.3241806 -0.31259522 10
-1.1245422 2.3148742 -0.2218117 15
-1.120312 2.3071909 -0.13196936 13
-1.1168824 2.3011501 -0.04354066 10
-1.1298109 2.3288217 0.68283719 14
-1.1306213 2.3315282 0.5889262 11
-1.1427826 2.3576548 0.50137705 11
-1.1342417 2.3410752 0.40550008 7
-1.115503 2.3034229 0.30954811 6
-1.1278197 2.3298924 0.22311871 11
-1.1214287 2.3177214 0.13293332 13
-1.1136651 2.3027005 0.043980062 14
-0.84781522 1.7569188 -0.5124619 3
-0.98176563 2.0354102 -0.51288873 3
-1.1463686 2.377728 -0.50519013 12
-1.1164417 2.316689 -0.40125474 13
-1.1192911 2.3236384 -0.31198588 10
-1.1142942 2.3142979 -0.22137593 15
-1.1100861 2.3065879 -0.13170855 13
-1.106676 2.3005297 -0.043454267 11
-1.1195821 2.3283987 0.68154395 15
-1.118255 2.3266785 0.58667839 11
-1.1302952 2.3527813 0.49947065 12
-1.123925 2.3405681 0.40471876 6
-1.1031609 2.2983549 0.30832943 6
-1.1175253 2.3293242 0.22268291 10
-1.1111726 2.3171194 0.13267164 14
-1.1034595 2.3020658 0.043892797 13
-0.84167731 1.7598675 -0.5124619 3
-0.97465467 2.0388248 -0.51288873 3
-1.1380618 2.3817151 -0.50519013 13
-1.1062196 2.3161156 -0.40047255 12
-1.1090351 2.3230526 -0.31137651 10
-1.1040637 2.313678 -0.22094014 14
-1.0998783 2.3059423 -0.13144773 14
-1.0964875 2.2998662 -0.043367881 11
-1.1093698 2.3279324 0.68025064 14
-1.1059362 2.3217707 0.58443058 11
-1.1178554 2.3478489 0.49756429 12
-1.1136259 2.3400178 0.40393746 6
-1.0929995 2.2977097 0.30772007 5
-1.1072489 2.3287127 0.22224714 10
-1.1009343 2.3164744 0.13240996 13
-1.093272 2.301388 0.04380554 14
-0.83552909 1.7627949 -0.5124619 4
-0.965446 2.0378118 -0.51176393 3
-1.1192377 2.363493 -0.50042421 13
-1.0939026 2.3110356 -0.3989082 12
-1.098797 2.3224239 -0.31076717 10
-1.0938513 2.313015 -0.22050437 15
-1.0896884 2.305253 -0.13118692 13
-1.0863169 2.2991595 -0.043281488 11
-1.0991745 2.3274233 0.67895746 14
-1.0957452 2.3212113 0.58330667 12
-1.1054641 2.3428588 0.49565789 10
-1.1012377 2.3349574 0.40237483 6
-1.0870886 2.306 0.30832943 5
-1.0969902 2.3280575 0.22181135 9
-1.090714 2.3157861 0.13214828 13
-1.0809731 2.296144 0.043631013 14
-0.82937074 1.7657007 -0.5124619 4
-0.95832682 2.0411692 -0.51176393 3
-1.1047251 2.3540554 -0.49756464 16
-1.0837317 2.3103688 -0.39812601 12
-1.08647 2.3172584 -0.30954847 10
-1.083657 2.3123088 -0.22006857 14
-1.0795169 2.3045213 -0.13092612 13
-1.076165 2.2984099 -0.043195099 11
-1.0889963 2.3268714 0.67766416 14
-1.0855715 2.3206089 0.58218277 11
-1.0931213 2.3378108 0.49375153 10
-1.0909894 2.3343132 0.40159351 6
-1.0811329 2.3142767 0.30893877 5
-1.0867497 2.3273592 0.22137558 10
-1.0805119 2.3150547 0.1318866 13
-1.0708379 2.2953727 0.043543749 14
-0.82524031 1.7729635 -0.51375604 4
-0.95119596 2.044502 -0.51176393 3
-1.0882226 2.340095 -0.49375188 14
-1.0735787 2.3096595 -0.39734387 13
-1.0762836 2.3165359 -0.30893913 9
-1.0734811 2.3115599 -0.21963282 14
-1.0693636 2.3037462 -0.1306653 13
-1.0660313 2.2976172 -0.043108709 12
-1.0788352 2.326277 0.67637092 15
-1.0754156 2.3199639 0.58105886 13
-1.0808272 2.3327053 0.49184516 10
-1.080759 2.3336258 0.40081221 5
-1.0751328 2.3225405 0.30954811 13
-1.0765274 2.326618 0.2209398 9
-1.0703284 2.3142803 0.13162492 13
-1.0607214 2.2945592 0.043456491 13
-0.8190465 1.7758334 -0.51375604 4
-0.94405353 2.0478098 -0.51176393 3
-1.0759392 2.3349638 -0.49184549 15
-1.063444 2.3089073 -0.39656168 12
-1.0661155 2.3157711 -0.30832979 9
-1.0633235 2.3107679 -0.21919702 15
-1.0592291 2.3029287 -0.1304045 13
-1.0559164 2.2967825 -0.04302232 10
-1.0666752 2.3212516 0.67378443 14
-1.0652772 2.3192763 0.57993495 12
-1.0685822 2.3275425 0.4899388 11
-1.0705467 2.3328953 0.40003088 6
-1.0690881 2.3307898 0.31015745 12
-1.0663236 2.325834 0.22050403 9
-1.0601634 2.3134632 0.13136324 12
-1.0506235 2.2937026 0.043369226 13
-0.81284267 1.7786816 -0.51375604 4
-0.93689954 2.0510929 -0.51176393 3
-1.063705 2.3297753 -0.48993912 16
-1.0512774 2.3036199 -0.39499733 12
-1.0559658 2.3149631 -0.30772042 9
-1.0531846 2.3099337 -0.21876125 14
-1.0491133 2.3020685 -0.13014369 13
-1.0458204 2.2959046 -0.042935926 11
-1.0565645 2.320565 0.67249113 15
-1.0551568 2.3185463 0.57881105 13
-1.0584188 2.3267908 0.48898563 11
-1.0603529 2.3321226 0.39924955 6
-1.0629989 2.3390255 0.31076682 12
-1.0561384 2.325007 0.22006825 9
-1.0500171 2.3126032 0.13110156 13
-1.0405446 2.2928035 0.043281965 13
-0.80662894 1.7815082 -0.51375604 4
-0.92973423 2.0543506 -0.51176393 3
-1.0515201 2.3245301 -0.48803276 14
-1.0411953 2.3027759 -0.39421517 12
-1.0458349 2.3141127 -0.30711108 10
-1.0430644 2.3090563 -0.21832547 14
-1.0390164 2.3011658 -0.12988289 13
-1.0357435 2.2949848 -0.042849541 11
-1.0444857 2.3154335 0.66990465 15
-1.0450546 2.3177738 0.57768714 13
-1.0482736 2.3259962 0.4880324 12
-1.0501775 2.3313069 0.39846826 7
-1.0527902 2.3381968 0.31015745 13
-1.0459721 2.3241372 0.21963248 9
-1.0398898 2.3117008 0.13083988 13
-1.0304848 2.291862 0.043194704 13
-0.80040538 1.784313 -0.51375604 4
-0.92056441 2.0531383 -0.51063919 3
-1.039385 2.3192284 -0.48612636 15
-1.0311317 2.3018892 -0.39343297 12
-1.0357227 2.3132198 -0.30650172 10
-1.0329633 2.3081369 -0.2178897 14
-1.0268998 2.2956626 -0.12936127 13
-1.0256855 2.2940223 -0.042763148 11
-1.0324558 2.3102465 0.66731817 16
-1.0329835 2.3125107 0.57543933 13
-1.0361458 2.3206773 0.48612604 12
-1.0400206 2.3304484 0.39768693 6
-1.0426003 2.3373251 0.30954811 12
-1.0358244 2.3232248 0.21919669 8
-1.0297816 2.3107557 0.1305782 12
-1.0204443 2.2908785 0.043107443 13
-0.79417211 1.787096 -0.51375604 3
-0.91339207 2.056339 -0.51063919 4
-1.0292913 2.318356 -0.48517317 15
-1.0210873 2.3009605 -0.39265084 12
-1.0276418 2.3168211 -0.30650172 9
-1.0228813 2.3071749 -0.21745391 15
-1.0168573 2.294668 -0.12910046 13
-1.0156471 2.2930179 -0.042676758 11
-1.0224301 2.3094199 0.66602492 12
-1.0229335 2.3116469 0.57431537 13
-1.0260533 2.3197913 0.48517281 13
-1.0278857 2.3250308 0.39612433 7
-1.0324292 2.3364108 0.30893877 12
-1.0256962 2.3222702 0.21876092 8
-1.0196929 2.3097687 0.13031653 12
-1.0104231 2.2898526 0.043020178 13
-0.78792918 1.7898573 -0.51375604 3
-0.90620846 2.059515 -0.51063919 4
-1.0192165 2.3174422 -0.48422 14
-1.0130492 2.3045108 -0.39265084 12
-1.0175519 2.3158507 -0.30589241 10
-1.0128187 2.3061709 -0.21701814 14
-1.0068341 2.2936316 -0.12883966 13
-1.0056281 2.291971 -0.042590369 11
-1.0104829 2.3041284 0.66343844 12
-1.0129023 2.3107417 0.57319152 13
-1.01401 2.3143673 0.48326644 13
-1.0177824 2.3240809 0.39534304 7
-1.0222775 2.3354545 0.30832943 11
-1.0155872 2.3212729 0.21832512 8
-1.0116241 2.313314 0.13031653 12
-1.0024239 2.2933657 0.043020178 13
-0.78329337 1.7971604 -0.51505011 3
-0.89670807 2.0583558 -0.50951445 4
-1.0087562 2.3166618 -0.4832668 15
-1.0026252 2.3036799 -0.39186865 12
-1.0070773 2.3150136 -0.30528304 10
-1.0023731 2.3052998 -0.21658234 15
-0.99643058 2.292727 -0.12857884 13
-0.99522901 2.2910562 -0.042503979 10
-1.0001073 2.303386 0.66214514 12
-1.0005469 2.3054998 0.57094371 14
-1.0035673 2.3135655 0.48231328 14
-1.0053284 2.3187337 0.39378041 7
-1.0117373 2.3346319 0.30772007 12
-1.0070724 2.3249795 0.21832512 7
-1.0011547 2.3124239 0.13005485 12
-0.99202621 2.2924366 0.04293292 13
-0.77701527 1.7998837 -0.51505011 3
-0.88951755 2.0614734 -0.50951445 4
-0.99871957 2.3156621 -0.48231363 15
-0.99262273 2.3026309 -0.39108649 13
-0.99702662 2.3139577 -0.3046737 9
-0.99037957 2.2996352 -0.21571079 14
-0.98644716 2.291605 -0.12831803 13
-0.98327398 2.2853315 -0.0423312 11
-0.99015278 2.3024261 0.66085184 12
-0.99056906 2.3045022 0.56981981 14
-0.99161041 2.3080351 0.48040691 10
-0.99527973 2.3176911 0.39299908 8
-1.0016245 2.3335888 0.30711073 11
-0.99698693 2.3239033 0.21788937 8
-0.99110889 2.3113155 0.12979317 12
-0.98204243 2.2912929 0.042845655 13
-0.76882911 1.7981443 -0.51375604 3
-0.88231629 2.0645659 -0.50951445 5
-0.9887023 2.3146205 -0.48136041 14
-0.98263997 2.3015401 -0.3903043 12
-0.98699546 2.3128591 -0.30406433 9
-0.98039216 2.2984965 -0.21527502 14
-0.97844195 2.2950342 -0.12831803 13
-0.97333091 2.2841506 -0.042244807 11
-0.98021728 2.301425 0.65955865 12
-0.98061049 2.3034632 0.5686959 14
-0.97970426 2.3024495 0.47850055 11
-0.98525065 2.3166065 0.39221779 7
-0.99153107 2.3325038 0.30650139 11
-0.98692107 2.3227851 0.21745357 7
-0.9810831 2.3101652 0.12953149 11
-0.9720912 2.2901027 0.042758394 12
-0.76254773 1.8008171 -0.51375604 3
-0.87510425 2.0676332 -0.50951445 5
-0.97870439 2.3135371 -0.48040724 14
-0.97267687 2.3004076 -0.38952214 12
-0.97505224 2.3071477 -0.30284566 10
-0.97042471 2.2973163 -0.21483923 14
-0.96848261 2.2938356 -0.12805721 13
-0.96340817 2.2829287 -0.042158417 10
-0.97030061 2.3003821 0.65826535 13
-0.97067124 2.3023827 0.567572 14
-0.9678492 2.296809 0.47659415 11
-0.97524112 2.31548 0.39143646 8
-0.97953194 2.3268027 0.30528268 11
-0.97687519 2.3216248 0.2170178 8
-0.97107744 2.3089733 0.12926981 11
-0.96215391 2.2888732 0.042671129 13
-0.75470334 1.7988822 -0.5124619 3
-0.86860424 2.0703721 -0.50951445 5
-0.96953332 2.3120737 -0.47945404 14
-0.96353614 2.2988973 -0.38873994 13
-0.96588176 2.3056223 -0.30223632 9
-0.96127898 2.2957594 -0.21440347 14
-0.95934391 2.2922609 -0.12779641 13
-0.95430207 2.281332 -0.042072024 10
-0.96120596 2.2989631 0.65697211 13
-0.96155477 2.3009257 0.56644809 14
-0.95684528 2.2907801 0.47468778 11
-0.96605945 2.3139751 0.39065516 8
-0.97030628 2.3252888 0.30467334 11
-0.96765935 2.320085 0.21658202 7
-0.96189749 2.3074038 0.12900813 11
-0.95303577 2.2872701 0.042583872 13
-0.74873388 1.801375 -0.5124619 3
-0.86137205 2.0733914 -0.50951445 5
-0.95957446 2.3109109 -0.47850087 15
-0.95361257 2.2976856 -0.38795781 12
-0.95592612 2.3043957 -0.30162695 10
-0.95135158 2.2944994 -0.21396768 14
-0.94942492 2.2909827 -0.1275356 13
-0.94441974 2.2800305 -0.041985635 10
-0.95132768 2.2978418 0.65567887 12
-0.9516542 2.2997661 0.56532419 14
-0.94696718 2.2895703 0.47373459 11
-0.9560895 2.3127689 0.38987383 8
-0.95839316 2.3194883 0.30345467 12
-0.95765364 2.318845 0.21614625 7
-0.95193219 2.3061318 0.12874645 11
-0.9431392 2.2859614 0.042496607 13
-0.73997509 1.7997699 -0.51116782 3
-0.8534044 2.0766835 -0.50951445 5
-0.94882923 2.3100381 -0.47754765 15
-0.94290757 2.2967618 -0.38717562 13
-0.94518703 2.3034582 -0.30101761 9
-0.94253433 2.2981355 -0.21396768 14
-0.93683338 2.2853713 -0.12701398 13
-0.93376273 2.2790139 -0.041899245 10
-0.94066721 2.297008 0.65438563 13
-0.9409712 2.2988944 0.56420028 15
-0.93631041 2.2886469 0.47278142 11
-0.94533294 2.3118522 0.38909256 9
-0.9457249 2.3139634 0.30223596 13
-0.94685924 2.3178937 0.21571046 7
-0.94307023 2.3097701 0.12874645 11
-0.93246585 2.2849371 0.042409342 13
-0.73368818 1.8023418 -0.51116782 3
-0.84615028 2.0796499 -0.50951445 5
-0.93891102 2.3087895 -0.47659451 15
-0.93302518 2.2954643 -0.38639346 12
-0.93527275 2.3021455 -0.30040827 9
-0.93263263 2.2967966 -0.21353191 14
-0.92697251 2.2840009 -0.12675317 13
-0.9239226 2.2776268 -0.041812852 10
-0.93082863 2.2958016 0.65309232 13
-0.92928118 2.2931342 0.56195247 16
-0.92647308 2.2873518 0.47182819 11
-0.93540406 2.3105602 0.38831124 10
-0.93391895 2.3080499 0.30101728 10
-0.93689507 2.3165674 0.21527469 6
-0.93313056 2.3084185 0.12848477 10
-0.92260534 2.2835455 0.042322084 13
-0.72739238 1.8048919 -0.51116782 4
-0.83706558 2.0780721 -0.50838971 5
-0.92901289 2.3074996 -0.47564128 14
-0.92316318 2.2941256 -0.38561127 12
-0.92723107 2.3053963 -0.30040827 9
-0.92275178 2.2954166 -0.21309611 14
-0.91713262 2.2825894 -0.12649237 13
-0.91410357 2.2761989 -0.041726466 10
-0.92101002 2.2945547 0.65179914 13
-0.9194569 2.2918425 0.56082857 11
-0.91848314 2.2905719 0.47182819 12
-0.9254958 2.3092272 0.38752994 9
-0.92401123 2.3066888 0.30040792 11
-0.92880297 2.3198237 0.21527469 6
-0.92321199 2.3070261 0.12822309 10
-0.91277826 2.2821078 0.042234819 11
-0.72108763 1.80742 -0.51116782 4
-0.82980663 2.0809815 -0.50838971 5
-0.91913545 2.306169 -0.47468811 13
-0.91332197 2.2927463 -0.3848291 12
-0.91734236 2.3040082 -0.29979894 9
-0.91289204 2.2939959 -0.21266034 14
-0.90731388 2.2811372 -0.12623155 13
-0.90615255 2.2793758 -0.041726466 10
-0.91121143 2.293267 0.65050584 14
-0.90965307 2.2905099 0.55970466 11
-0.90867114 2.2892022 0.47087502 12
-0.91560823 2.3078532 0.38674861 10
-0.91229504 2.3006732 0.29918921 11
-0.91886431 2.3184209 0.21483891 6
-0.9133144 2.3055925 0.12796141 10
-0.90112603 2.2759838 0.042060297 11
-0.71477419 1.809926 -0.51116782 4
-0.8225376 2.0838652 -0.50838971 4
-0.90927839 2.3047974 -0.47373492 13
-0.90350163 2.291326 -0.38404691 13
-0.90747452 2.3025789 -0.29918957 10
-0.9030534 2.2925339 -0.21222456 14
-0.89751649 2.2796445 -0.12597075 13
-0.89635986 2.2778728 -0.041640073 10
-0.90143317 2.2919393 0.64921266 13
-0.89986968 2.2891371 0.55858076 12
-0.89887995 2.2877917 0.46992183 12
-0.90574157 2.3064382 0.38596731 11
-0.9024455 2.2992246 0.2985799 12
-0.91076589 2.321614 0.21483891 6
-0.90343815 2.3041179 0.12769973 9
-0.89135176 2.274461 0.041973036 11
-0.70845205 1.8124101 -0.51116782 4
-0.81525856 2.0867238 -0.50838971 4
-0.89944237 2.3033853 -0.47278175 13
-0.89549798 2.294466 -0.38404691 13
-0.89762807 2.3011096 -0.29858023 9
-0.89323604 2.2910311 -0.21178877 14
-0.88774061 2.278111 -0.12570994 12
-0.88658881 2.2763295 -0.041553684 10
-0.89167511 2.2905707 0.64791936 13
-0.89010704 2.2877235 0.55745685 12
-0.88910961 2.286341 0.46896866 13
-0.8958959 2.3049827 0.38518599 10
-0.89261711 2.2977345 0.29797053 12
-0.90085357 2.3201361 0.21440314 6
-0.8935833 2.3026025 0.12743805 9
-0.88159907 2.2728975 0.041885771 12
-0.7021212 1.814872 -0.51116782 4
-0.80796951 2.0895569 -0.50838971 4
-0.88962722 2.3019328 -0.47182852 12
-0.88570386 2.2929711 -0.38326478 12
-0.88780278 2.2995989 -0.29797086 9
-0.88344026 2.2894883 -0.211353 14
-0.87798643 2.2765372 -0.12544914 13
-0.87683946 2.2747459 -0.041467294 10
-0.8819378 2.2891626 0.64662611 13
-0.88211596 2.2908168 0.55745685 12
-0.87936032 2.2848496 0.46801546 13
-0.88607162 2.3034868 0.38440469 11
-0.88281024 2.2962043 0.2973612 12
-0.8909626 2.3186169 0.21396735 6
-0.88375002 2.3010464 0.12717636 8
-0.87186831 2.2712939 0.04179851 11
-0.69750875 1.8218222 -0.5124619 4
-0.80067068 2.0923643 -0.50838971 4
-0.8798331 2.3004396 -0.47087535 12
-0.8759312 2.2914362 -0.38248259 12
-0.87799913 2.2980483 -0.29736155 9
-0.87366617 2.287905 -0.2109172 13
-0.87003446 2.279588 -0.12544914 13
-0.86711204 2.2731218 -0.041380905 10
-0.87222111 2.2877142 0.64533287 14
-0.87237924 2.2893293 0.55633295 12
-0.86963236 2.2833185 0.46706229 13
-0.87626845 2.30195 0.38362336 12
-0.87126005 2.289995 0.29614249 13
-0.87932295 2.3124015 0.21309578 6
-0.87393856 2.2994499 0.12691469 9
-0.86215931 2.26965 0.041711248 11
-0.69114512 1.8242458 -0.5124619 4
-0.79336214 2.0951467 -0.50838971 4
-0.86832303 2.2943158 -0.46896899 12
-0.86618012 2.2898607 -0.38170043 12
-0.86821711 2.2964571 -0.29675218 9
-0.86567461 2.2909405 -0.2109172 14
-0.86030775 2.27794 -0.12518832 13
-0.8574065 2.2714574 -0.041294511 9
-0.86252528 2.2862258 0.64403963 13
-0.86266381 2.287802 0.55520904 12
-0.85992593 2.2817471 0.46610907 13
-0.86648709 2.3003733 0.38284209 11
-0.86151266 2.2883778 0.29553315 13
-0.86949164 2.3107948 0.21266001 6
-0.8659066 2.3024864 0.12691469 8
-0.85247278 2.2679663 0.041623987 11
-0.68477315 1.8266473 -0.5124619 4
-0.78433442 2.0933406 -0.50726491 4
-0.85858774 2.2927363 -0.46801579 12
-0.85645056 2.288245 -0.38091823 12
-0.85845679 2.2948251 -0.29614282 9
-0.85592812 2.289283 -0.21048145 13
-0.85060322 2.276252 -0.12492751 12
-0.84772336 2.2697535 -0.041208126 9
-0.85285056 2.2846978 0.64274633 13
-0.85296947 2.2862344 0.55408514 12
-0.85024101 2.2801361 0.4651559 13
-0.8567273 2.2987564 0.38206074 13
-0.85178721 2.2867208 0.29492378 14
-0.85968232 2.3091478 0.21222423 6
-0.85612291 2.3008151 0.126653 8
-0.84455085 2.2709281 0.041623987 10
-0.67839271 1.8290265 -0.5124619 4
-0.77702248 2.0960658 -0.50726491 4
-0.84887415 2.291117 -0.46706262 12
-0.84674287 2.2865894 -0.38013604 12
-0.84871858 2.2931538 -0.29553348 9
-0.84620374 2.2875853 -0.21004565 14
-0.84092087 2.2745237 -0.1246667 12
-0.83806247 2.2680092 -0.041121732 9
-0.84319705 2.2831304 0.64145315 14
-0.84329689 2.2846272 0.55296123 13
-0.84057772 2.2784851 0.4642027 13
-0.84698945 2.2970991 0.38127947 13
-0.84036773 2.2803667 0.29370511 10
-0.84989506 2.3074605 0.21178845 6
-0.84636146 2.299104 0.12639134 8
-0.83489239 2.2691705 0.041536722 10
-0.67366791 1.8359175 -0.51375604 4
-0.76970118 2.0987654 -0.50726491 4
-0.83918214 2.2894573 -0.4661094 13
-0.83705729 2.2848942 -0.37935388 12
-0.83729619 2.286782 -0.2943148 9
-0.8365016 2.2858474 -0.20960988 14
-0.8312611 2.2727561 -0.1244059 12
-0.82842416 2.2662256 -0.041035343 9
-0.83356476 2.281523 0.64015985 14
-0.8336457 2.2829807 0.55183733 12
-0.83093643 2.2767944 0.46324947 14
-0.8372736 2.2954023 0.38049814 13
-0.83070296 2.2786238 0.29309577 11
-0.84013015 2.3057334 0.21135268 6
-0.83662236 2.2973526 0.12612964 8
-0.82696646 2.2720711 0.041536722 9
-0.66725522 1.8382579 -0.51375604 4
-0.76237041 2.1014395 -0.50726491 4
-0.82951236 2.2877584 -0.46515623 12
-0.82739389 2.2831593 -0.37857169 12
-0.82761866 2.2850246 -0.29370543 9
-0.82682198 2.2840698 -0.2091741 14
-0.82162386 2.2709484 -0.12414508 12
-0.81880844 2.2644019 -0.040948953 8
-0.82395416 2.2798767 0.6388666 13
-0.82401639 2.2812943 0.55071342 13
-0.82298392 2.2796812 0.46324947 14
-0.82757974 2.2936652 0.37971681 13
-0.81937689 2.2721727 0.29187706 12
-0.83038759 2.303966 0.21091689 6
-0.82859802 2.3002589 0.12612964 8
-0.81733704 2.2702401 0.041449465 9
-0.66083449 1.8405758 -0.51375604 4
-0.75667596 2.1086736 -0.50838971 4
-0.82152152 2.2906401 -0.46515623 13
-0.81775278 2.2813847 -0.37778956 12
-0.81796378 2.2832279 -0.2930961 9
-0.81716502 2.2822528 -0.20873833 14
-0.81200939 2.2691016 -0.12388428 12
-0.8108992 2.2672462 -0.040948953 8
-0.81436509 2.2781906 0.63757336 13
-0.81440902 2.2795687 0.54958951 12
-0.81337076 2.2779174 0.46229634 14
-0.81956834 2.29654 0.37971681 13
-0.80977333 2.2703447 0.29126769 12
-0.82066768 2.3021586 0.21048112 7
-0.81888777 2.2984338 0.12586798 7
-0.80773032 2.2683697 0.0413622 9
-0.65440565 1.8428713 -0.51375604 4
-0.75094008 2.1158931 -0.50951445 4
-0.81187981 2.288868 -0.46420303 13
-0.80813414 2.2795706 -0.37700737 12
-0.80998886 2.2860692 -0.2930961 9
-0.80753082 2.280396 -0.20830254 14
-0.80408382 2.2719221 -0.12388428 12
-0.80131304 2.2653503 -0.040862564 8
-0.80479795 2.2764659 0.63628012 14
-0.80482382 2.2778041 0.54846561 13
-0.80541438 2.2807429 0.46229634 14
-0.80990338 2.2947299 0.37893552 14
-0.80019259 2.2684774 0.29065838 12
-0.81097049 2.3003118 0.21004534 7
-0.80920035 2.2965689 0.12560628 7
-0.79980731 2.2711754 0.0413622 8
-0.6463685 1.8405875 -0.5124619 4
-0.74354964 2.1185014 -0.50951445 4
-0.80226046 2.287056 -0.4632498 12
-0.79853821 2.2777174 -0.3762252 12
-0.80036294 2.284199 -0.29248673 9
-0.79956585 2.283201 -0.20830254 14
-0.79449886 2.2700019 -0.12362346 11
-0.79340065 2.2681336 -0.040862564 8
-0.79684675 2.2792614 0.63628012 14
-0.79526073 2.276 0.5473417 12
-0.79582995 2.2789063 0.46134311 13
-0.8002609 2.2928803 0.37815419 13
-0.79063463 2.2665708 0.29004902 13
-0.80129629 2.2984252 0.20960957 7
-0.79953605 2.2946646 0.12534462 7
-0.79023057 2.2692323 0.041274939 8
-0.63993973 1.8428326 -0.5124619 4
-0.73774761 2.1256866 -0.51063919 4
-0.79266381 2.2852056 -0.46229663 13
-0.78896499 2.2758248 -0.37544301 12
-0.79238474 2.2869787 -0.29248673 9
-0.78996128 2.2812712 -0.20786677 14
-0.78493732 2.268043 -0.12336266 12
-0.78547853 2.2708893 -0.040862564 8
-0.78730768 2.2774642 0.63498682 14
-0.78731114 2.2787621 0.5473417 13
-0.78626829 2.2770312 0.46038994 15
-0.78903019 2.2863228 0.37659156 13
-0.78109998 2.2646255 0.28943968 13
-0.79164517 2.2964993 0.20917377 7
-0.78989488 2.2927206 0.12508292 6
-0.78067708 2.2672501 0.041187678 7
-0.63350314 1.845055 -0.5124619 4
-0.72874171 2.1236408 -0.50951445 4
-0.7830897 2.2833154 -0.46134344 13
-0.78101611 2.2785649 -0.37544301 11
-0.78278852 2.2850358 -0.29187742 9
-0.78037983 2.2793021 -0.20743097 14
-0.77539891 2.2660446 -0.12310185 12
-0.77592909 2.2688868 -0.040776171 8
-0.77779096 2.2756281 0.63369364 13
-0.77777708 2.276886 0.5462178 14
-0.77672929 2.2751167 0.45943674 14
-0.77944988 2.2843895 0.37581027 14
-0.7731902 2.2673383 0.28943968 13
-0.78201723 2.294534 0.208738 7
-0.78027695 2.2907374 0.12482125 6
-0.77275807 2.2699614 0.041187678 8
-0.62705886 1.8472552 -0.5124619 4
-0.72132438 2.1261716 -0.50951445 4
-0.77353871 2.2813869 -0.46039027 12
-0.77147281 2.2766004 -0.37466085 12
-0.77321553 2.2830541 -0.29126805 9
-0.7724188 2.2820125 -0.20743097 13
-0.76748425 2.2687376 -0.12310185 11
-0.76800454 2.2715816 -0.040776171 7
-0.76829672 2.2737536 0.63240033 13
-0.76826572 2.2749712 0.54509389 13
-0.7672134 2.2731638 0.45848358 15
-0.76989257 2.2824166 0.37502894 14
-0.76368558 2.2653205 0.28883031 13
-0.7724126 2.2925293 0.20830221 8
-0.77068263 2.2887149 0.12455957 6
-0.76323527 2.2679069 0.041100416 7
-0.62214339 1.8540117 -0.51375604 4
-0.7123493 2.1240578 -0.50838971 4
-0.76401055 2.2794192 -0.45943707 12
-0.76195258 2.2745965 -0.37387866 12
-0.76366597 2.2810333 -0.29065871 9
-0.76286799 2.2799714 -0.20699522 14
-0.75797671 2.2666676 -0.12284105 12
-0.75848597 2.2695072 -0.040689785 7
-0.75882506 2.2718406 0.63110709 14
-0.75877714 2.2730174 0.54396999 12
-0.75772041 2.2711716 0.45753035 15
-0.76192075 2.28509 0.37502894 14
-0.75420457 2.2632644 0.288221 14
-0.76283163 2.2904859 0.20786645 8
-0.76111197 2.2866538 0.12429789 6
-0.75531405 2.2705572 0.041100416 7
-0.61566788 1.8561721 -0.51375604 4
-0.70339757 2.1219068 -0.50726491 4
-0.75604928 2.2820721 -0.45943707 12
-0.75245583 2.2725544 -0.3730965 11
-0.7541399 2.2789733 -0.29004934 9
-0.75334078 2.2778912 -0.20655942 13
-0.74849296 2.2645586 -0.12258023 11
-0.74899113 2.2673938 -0.040603392 7
-0.749376 2.2698891 0.62981385 14
-0.75083822 2.2756524 0.54396999 13
-0.7482509 2.2691417 0.45657721 15
-0.75239396 2.2830455 0.37424764 15
-0.74474722 2.2611697 0.28761163 13
-0.75483167 2.2931347 0.20786645 9
-0.75156504 2.2845533 0.12403621 6
-0.74582231 2.2684307 0.041013151 7
-0.61068934 1.8628991 -0.51505011 3
-0.69750333 2.128979 -0.50838971 4
-0.74655145 2.2800329 -0.4584839 12
-0.74298269 2.2704735 -0.3723143 12
-0.74463767 2.2768753 -0.28944001 9
-0.74383736 2.2757726 -0.20612365 14
-0.74058366 2.2671576 -0.12258023 11
-0.74107194 2.2699945 -0.040603392 7
-0.74144804 2.272491 0.62981385 14
-0.74137986 2.2736275 0.54284608 13
-0.74032563 2.2717397 0.45657721 15
-0.7428906 2.280962 0.37346631 15
-0.73684973 2.2637556 0.28761163 14
-0.7452817 2.291019 0.20743066 9
-0.74204206 2.2824144 0.12377454 6
-0.73789948 2.2710202 0.041013151 6
-0.60567129 1.8696139 -0.51634425 3
-0.69006753 2.1314008 -0.50838971 4
-0.737077 2.2779548 -0.45753068 13
-0.7335332 2.2683542 -0.37153217 12
-0.73515916 2.2747383 -0.28883067 9
-0.73588896 2.2783551 -0.20612365 13
-0.73113137 2.264977 -0.12231942 11
-0.73160869 2.2678096 -0.040517002 6
-0.73202896 2.2704685 0.62852055 13
-0.73194462 2.2715642 0.54172218 13
-0.7308867 2.2696378 0.45562398 15
-0.73341113 2.2788403 0.37268505 15
-0.72742367 2.2615895 0.2870023 14
-0.73575574 2.2888646 0.20699489 9
-0.73407042 2.2849908 0.12377454 7
-0.72843933 2.2688222 0.04092589 6
-0.59914148 1.8717167 -0.51634425 3
-0.68410772 2.1384366 -0.50951445 4
-0.72762626 2.2758386 -0.45657751 12
-0.72561067 2.270901 -0.37153217 11
-0.72570473 2.272563 -0.28822133 9
-0.72641712 2.2761648 -0.20568787 14
-0.72322071 2.2675154 -0.12231942 10
-0.72216982 2.2655864 -0.040430613 6
-0.7240991 2.27301 0.62852055 14
-0.72253287 2.2694628 0.54059827 13
-0.72147149 2.267498 0.45467082 15
-0.72395539 2.27668 0.37190372 15
-0.71802169 2.2593851 0.28639293 14
-0.72625381 2.2866716 0.20655911 10
-0.72457922 2.2827799 0.12351285 7
-0.71900362 2.2665858 0.040838629 6
-0.5940606 1.8784015 -0.51763833 3
-0.67663902 2.1408114 -0.50951445 4
-0.71819925 2.2736843 -0.45562431 13
-0.71619266 2.2687106 -0.37074998 12
-0.7177676 2.2750823 -0.28822133 8
-0.71846735 2.2786868 -0.20568787 13
-0.71380049 2.2652638 -0.12205861 11
-0.71275544 2.2633252 -0.040344223 6
-0.71471047 2.2709167 0.62722731 14
-0.71314478 2.2673235 0.53947437 14
-0.71355206 2.2700026 0.45467082 15
-0.71452379 2.2744815 0.37112242 15
-0.71013063 2.2618778 0.28639293 15
-0.71677619 2.28444 0.20612334 11
-0.71511245 2.2805312 0.12325118 7
-0.70959246 2.2643116 0.040751368 6
-0.58605987 1.8758539 -0.51634425 3
-0.66771013 2.1385102 -0.50838971 4
-0.71025819 2.2761774 -0.45562431 12
-0.70826906 2.2711968 -0.37074998 11
-0.70834506 2.2728362 -0.28761196 9
-0.70902765 2.2764251 -0.2052521 13
-0.70440495 2.262974 -0.12179781 10
-0.70485067 2.2657993 -0.040344223 6
-0.70534527 2.2687855 0.62593406 14
-0.70378047 2.2651467 0.53835046 14
-0.70416838 2.267792 0.45371762 16
-0.70511633 2.2722452 0.37034109 15
-0.70076096 2.259603 0.28578362 14
-0.70732307 2.2821705 0.20568755 10
-0.7071476 2.2830133 0.12325118 7
-0.70020592 2.2619989 0.040664103 6
-0.57918066 1.8779892 -0.51634425 3
-0.65986758 2.1409431 -0.50838971 4
-0.70046604 2.2740748 -0.45467114 12
-0.6984871 2.2690578 -0.36996782 11
-0.70000994 2.2754171 -0.28761196 9
-0.70067942 2.2790084 -0.2052521 13
-0.69463944 2.2607675 -0.12153699 10
-0.69654137 2.2683675 -0.040344223 6
-0.69560808 2.2667382 0.62464082 15
-0.69404495 2.2630527 0.53722656 14
-0.69441348 2.2656651 0.45276445 15
-0.69533712 2.2700925 0.36955979 16
-0.69247437 2.2621562 0.28578362 14
-0.69895375 2.2847476 0.20568755 11
-0.69731534 2.2808149 0.12298949 7
-0.68898892 2.254988 0.04048958 6
-0.5726217 1.8799995 -0.51634425 3
-0.65097153 2.1385725 -0.50726491 5
-0.69109517 2.2718098 -0.45371795 12
-0.68912578 2.266757 -0.36918563 11
-0.6906203 2.2730985 -0.28700262 9
-0.69127274 2.2766743 -0.20481631 13
-0.68529379 2.2584004 -0.12127619 10
-0.69006979 2.2755692 -0.040430613 5
-0.68629062 2.2645302 0.62334752 14
-0.68614119 2.2654617 0.53722656 14
-0.68507862 2.2633772 0.45181125 16
-0.68597883 2.2677786 0.36877847 12
-0.68313766 2.259809 0.28517425 15
-0.68953377 2.2824056 0.20525178 11
-0.68934953 2.2832351 0.12298949 7
-0.67966282 2.2525952 0.040402319 5
-0.56605577 1.881987 -0.51634425 3
-0.64210021 2.1361663 -0.50614017 5
-0.68316084 2.2742085 -0.45371795 12
-0.67978925 2.2644188 -0.36840346 12
-0.6826815 2.2754951 -0.28700262 8
-0.68189102 2.2743025 -0.20438054 13
-0.67597312 2.2559958 -0.12101538 9
-0.6835565 2.2827535 -0.040517002 13
-0.67838174 2.266912 0.62334752 14
-0.67683321 2.2631755 0.53610265 13
-0.67717385 2.2657547 0.45181125 16
-0.67664534 2.2654276 0.36799717 12
-0.67524529 2.2621799 0.28517425 15
-0.68013865 2.2800255 0.20481598 11
-0.67994887 2.2808423 0.12272782 7
-0.6689474 2.2453699 0.040227797 5
-0.55810803 1.8793216 -0.51505011 3
-0.63463968 2.1383946 -0.50614017 5
-0.67382264 2.2718737 -0.45276478 12
-0.67188084 2.266778 -0.36840346 11
-0.67332488 2.2731059 -0.28639328 9
-0.67394799 2.2766688 -0.20438054 13
-0.66667765 2.2535536 -0.12075458 9
-0.67700136 2.2899196 -0.040603392 13
-0.66909611 2.2646344 0.62205434 14
-0.6689291 2.2655241 0.53610265 14
-0.66787165 2.2633972 0.45085809 16
-0.66873336 2.2677755 0.36799717 12
-0.66594183 2.259763 0.28456491 15
-0.67076862 2.2776077 0.20438023 12
-0.67057329 2.2784119 0.12246613 8
-0.65828407 2.2380989 0.040053267 5
-0.55697966 1.8997966 -0.52022654 3
-0.62854117 2.145272 -0.50726491 5
-0.66588825 2.2742121 -0.45276478 12
-0.66257727 2.2643695 -0.36762127 11
-0.66538614 2.2754424 -0.28639328 9
-0.66459972 2.2742262 -0.20394474 12
-0.65740746 2.2510738 -0.12049376 9
-0.67040455 2.2970681 -0.040689785 12
-0.66118699 2.2669561 0.62205434 14
-0.65965354 2.2631679 0.53497875 13
-0.65859413 2.2610021 0.44990486 16
-0.65943289 2.2653542 0.36721584 12
-0.6580497 2.2620738 0.28456491 14
-0.66142362 2.275152 0.20394443 12
-0.66261607 2.2807386 0.12246613 7
-0.64907372 2.2355821 0.03996601 6
-0.5355764 1.8506972 -0.50599146 4
-0.62240255 2.1521332 -0.50838971 5
-0.65658283 2.271807 -0.45181155 10
-0.65466911 2.2666686 -0.36762127 11
-0.65606314 2.2729833 -0.28578395 9
-0.65527672 2.2717466 -0.20350897 13
-0.64816272 2.2485571 -0.12023295 9
-0.66238225 2.2993941 -0.040689785 11
-0.65193361 2.2646089 0.62076104 14
-0.65174955 2.2654567 0.53497875 14
-0.64934164 2.2585702 0.44895169 13
-0.65015763 2.2628958 0.36643454 13
-0.64878005 2.2595866 0.28395554 14
-0.65347779 2.277447 0.20394443 12
-0.65327454 2.2782383 0.12220446 10
-0.64264327 2.24264 0.040053267 5
-0.53474504 1.8710377 -0.51116782 4
-0.61526233 2.1541853 -0.50838971 5
-0.64904565 2.2739718 -0.45181155 11
-0.64579445 2.2640784 -0.36683914 11
-0.64852202 2.2751465 -0.28578395 9
-0.64637506 2.2691164 -0.20307319 12
-0.64070266 2.250694 -0.12023295 9
-0.65475351 2.301578 -0.040689785 12
-0.64309955 2.2621126 0.61946785 14
-0.64290202 2.2629189 0.53385484 14
-0.6405077 2.2559893 0.44799849 12
-0.64265001 2.2650394 0.36643454 12
-0.63992965 2.2569516 0.28334624 15
-0.64456415 2.2748094 0.20350866 12
-0.64435565 2.2755878 0.12194277 10
-0.63520288 2.2447586 0.040053267 6
-0.52821064 1.872893 -0.51116782 4
-0.60773909 2.1563201 -0.50838971 5
-0.63977343 2.2714994 -0.45085838 13
-0.63654941 2.261565 -0.36605695 11
-0.63923252 2.2726188 -0.28517458 9
-0.6371026 2.2665639 -0.20263742 12
-0.63149202 2.2481098 -0.11997214 9
-0.64671546 2.3038497 -0.040689785 12
-0.63519943 2.2643435 0.61946785 13
-0.63368392 2.260458 0.53273094 14
-0.63130498 2.2534852 0.44704533 12
-0.63340819 2.2625129 0.36565322 13
-0.63071048 2.2543921 0.28273687 16
-0.63527846 2.2722483 0.20307288 13
-0.63506484 2.2730141 0.1216811 11
-0.62736338 2.2469623 0.040053267 5
nan nan nan 0
-0.59890312 2.1537342 -0.50726491 4
-0.6305263 2.2689896 -0.44990519 12
-0.62865114 2.2637732 -0.36605695 11
-0.63129574 2.2748363 -0.28517458 8
-0.62785584 2.2639742 -0.20220163 12
-0.62364084 2.2503004 -0.11997214 7
-0.63866961 2.306093 -0.040689785 11
-0.62600321 2.2618921 0.61817455 14
-0.62578958 2.2626562 0.53273094 14
-0.62212741 2.2509441 0.44609213 11
-0.62419194 2.2599499 0.36487195 13
-0.62151694 2.251796 0.28212753 16
-0.627343 2.274452 0.20307288 13
-0.62447309 2.26559 0.12115774 11
-0.61951619 2.2491384 0.040053267 7
-0.50489485 1.8392762 -0.50081509 4
-0.59009284 2.1511135 -0.50614017 5
-0.62130463 2.266443 -0.44895202 13
-0.61944056 2.2611909 -0.36527479 10
-0.62204087 2.2722394 -0.28456524 8
-0.618635 2.2613478 -0.20176587 11
-0.61578202 2.2524636 -0.11997214 9
-0.62929839 2.3034856 -0.040603392 9
-0.61683196 2.2594042 0.61688131 14
-0.61660534 2.2601268 0.53160703 14
-0.6129753 2.2483666 0.44513896 12
-0.61629945 2.262115 0.36487195 13
-0.61234921 2.2491636 0.28151816 15
-0.61809224 2.2718217 0.20263711 13
-0.61525095 2.2629375 0.12089606 12
-0.61035073 2.2464631 0.03996601 7
-0.51235574 1.8923069 -0.51505011 3
-0.58258045 2.1531603 -0.50614017 4
-0.61210829 2.2638597 -0.44799879 13
-0.61025554 2.2585716 -0.3644926 11
-0.61410552 2.2743969 -0.28456524 8
-0.61073762 2.2634933 -0.20176587 11
-0.60661584 2.2497783 -0.11971132 7
-0.62125391 2.3056684 -0.040603392 9
-0.60768557 2.2568798 0.61558807 14
-0.60744625 2.2575605 0.53048313 14
-0.60384881 2.2457526 0.44418573 13
-0.60711789 2.2594831 0.36409062 12
-0.60320747 2.2464945 0.28090885 16
-0.61015826 2.2739656 0.20263711 12
-0.60734802 2.2650714 0.12089606 10
-0.60121143 2.2437508 0.039878745 8
-0.49577987 1.8567547 -0.50469732 4
-0.57506096 2.1551807 -0.50614017 4
-0.60420221 2.2659826 -0.44799879 12
-0.60236788 2.2606881 -0.3644926 12
-0.60488564 2.2717309 -0.28395587 10
-0.60155201 2.2607977 -0.20133008 11
-0.60004193 2.2567077 -0.11997214 6
-0.61191815 2.3029914 -0.040517002 9
-0.59980392 2.2589872 0.61558807 15
-0.59956223 2.2596672 0.53048313 13
-0.59474814 2.2431026 0.44323257 13
-0.59922713 2.2615886 0.36409062 12
-0.59536213 2.2485864 0.28090885 16
-0.60094291 2.2712662 0.20220132 13
-0.5981614 2.2623503 0.12063438 12
-0.59082162 2.2361691 0.039704222 7
-0.50248814 1.9099368 -0.5189324 4
-0.56839663 2.1619854 -0.50726491 3
-0.5946458 2.2634346 -0.44704565 12
-0.59282404 2.2581043 -0.36371043 11
-0.59529603 2.2691326 -0.28334656 9
-0.59326172 2.2629874 -0.20133008 11
-0.59176672 2.2588918 -0.11997214 6
-0.60220701 2.3003821 -0.040430613 9
-0.59029794 2.2564981 0.61429483 14
-0.5900439 2.2571359 0.52935922 14
-0.5865227 2.2452674 0.44323257 11
-0.58968663 2.2589915 0.36330932 13
-0.58586389 2.2459512 0.28029948 16
-0.59261423 2.2734535 0.20220132 14
-0.58986545 2.2645273 0.12063438 11
-0.58010304 2.2286434 0.039529696 8
nan nan nan 0
-0.56084639 2.1639564 -0.50726491 4
-0.58674127 2.2654965 -0.44704565 11
-0.58493823 2.2601597 -0.36371043 10
-0.58612901 2.266392 -0.2827372 10
-0.5853588 2.2650447 -0.20133008 11
-0.5838781 2.2609437 -0.11997214 5
-0.59292436 2.2976296 -0.040344223 11
-0.58121169 2.2538679 0.61300153 14
-0.58216149 2.2591817 0.52935922 13
-0.57745767 2.2425475 0.44227937 12
-0.58179772 2.2610362 0.36330932 15
-0.57678473 2.2431762 0.27969012 12
-0.58343524 2.270684 0.20176555 13
-0.58071542 2.2617364 0.1203727 13
-0.56982881 2.2209718 0.039355174 8
nan nan nan 0
-0.55449528 2.1706214 -0.50838971 4
-0.57761562 2.2627749 -0.44609243 13
-0.57582456 2.2574027 -0.36292824 12
-0.57698852 2.2636151 -0.28212786 9
-0.57744879 2.2670741 -0.20133008 9
-0.577214 2.2678068 -0.12023295 6
-0.58366823 2.2948401 -0.04025783 10
-0.57215095 2.2512019 0.61170834 14
-0.57307261 2.2564781 0.52823532 15
-0.56962621 2.2445495 0.44227937 12
-0.57268763 2.2582657 0.362528 11
-0.56773198 2.2403653 0.27908078 14
-0.5755055 2.2727067 0.20176555 13
-0.57281697 2.2637496 0.1203727 12
-0.55717707 2.2035587 0.039006125 9
-0.4718416 1.8729444 -0.50728554 4
-0.54691499 2.1725438 -0.50838971 3
-0.56851619 2.2600176 -0.44513926 11
-0.56673741 2.2546096 -0.36214611 12
-0.56908351 2.2656155 -0.28212786 8
-0.56831908 2.2642448 -0.20089431 9
-0.57050914 2.2746513 -0.12049376 13
-0.57443887 2.2920146 -0.040171444 10
-0.56428933 2.2531853 0.61170834 14
-0.56519258 2.2584646 0.52823532 14
-0.56059712 2.2417629 0.4413262 13
-0.56480134 2.260251 0.362528 13
-0.55870587 2.2375183 0.27847141 14
-0.56636292 2.2698689 0.20132977 15
-0.56370354 2.2608905 0.12011101 13
-0.55069047 2.2103415 0.03909339 10
-0.48508015 1.9542655 -0.52928513 3
-0.53932804 2.1744397 -0.50838971 4
-0.56062382 2.2619884 -0.44513926 12
-0.55886388 2.2565742 -0.36214611 12
-0.55997938 2.2627709 -0.28151849 10
-0.56041193 2.2662146 -0.20089431 10
-0.56256562 2.2766287 -0.12049376 10
-0.56523633 2.2891524 -0.040085051 11
-0.55526382 2.250452 0.61041504 14
-0.55613935 2.2556934 0.52711141 15
-0.55276847 2.243706 0.4413262 12
-0.55572766 2.2574136 0.3617467 12
-0.55089206 2.2394547 0.27847141 13
-0.55724722 2.2669952 0.200894 13
-0.55580813 2.2628443 0.12011101 13
-0.54416323 2.2171052 0.039180648 10
-0.46793154 1.9137242 -0.51763833 4
-0.53173459 2.1763089 -0.50838971 4
-0.55156034 2.2591631 -0.44418606 12
-0.54981309 2.2537134 -0.36136392 11
