# .PCD v0.7 - Point Cloud Data file format
VERSION 0.7
FIELDS x y z intensity
SIZE 4 4 4 4
TYPE F F F F
COUNT 1 1 1 1
WIDTH 1338
HEIGHT 1
VIEWPOINT 0 0 0 1 0 0 0
POINTS 1338
DATA ascii
-0.54849827 2.2706869 0.28212753 14
-0.55358988 2.293519 0.20307288 14
-0.55100763 2.2845688 0.12115774 12
-0.54424179 2.2582457 0.039878745 9
-0.45878384 1.9109713 -0.51634425 4
-0.52488679 2.1879921 -0.51063919 3
-0.54666907 2.2805462 -0.44799879 11
-0.54611969 2.2800095 -0.36527479 13
-0.54836202 2.2911363 -0.28456524 8
-0.54530942 2.2801402 -0.20176587 9
-0.55551094 2.3245897 -0.12284105 10
-0.54880154 2.2982881 -0.040171444 11
-0.54244912 2.2734416 0.61558807 14
-0.54106051 2.269376 0.52935922 13
-0.54120934 2.2717581 0.44609213 14
-0.5418067 2.2760274 0.36409062 14
-0.53942031 2.2677598 0.28151816 15
-0.54442883 2.2905915 0.20263711 14
-0.54302961 2.2864783 0.12115774 14
-0.53520149 2.2552679 0.039791483 10
-0.43988886 1.8608601 -0.50210917 4
-0.51724607 2.189811 -0.51063919 4
-0.53757763 2.2776635 -0.44704565 10
-0.53702402 2.2770953 -0.3644926 12
-0.53922278 2.2882059 -0.28395587 9
-0.53620529 2.2771816 -0.20133008 9
-0.5473932 2.3265147 -0.12284105 10
-0.53963155 2.2953231 -0.040085051 10
-0.53451002 2.2753212 0.61558807 14
-0.53313559 2.271251 0.52935922 12
-0.53327614 2.2736332 0.44609213 14
-0.5338586 2.277905 0.36409062 14
-0.53036958 2.2647967 0.28090885 14
-0.53529501 2.2876279 0.20220132 15
-0.53390819 2.2834978 0.12089606 14
-0.52618849 2.252254 0.039704222 11
-0.44324237 1.9047198 -0.51375604 3
-0.50849563 2.1868577 -0.50951445 4
-0.52851301 2.274745 -0.44609243 11
-0.52795547 2.2741456 -0.36371043 12
-0.53011078 2.2852402 -0.28334656 9
-0.5282532 2.2790394 -0.20133008 8
-0.5381422 2.3235469 -0.12258023 10
-0.53048891 2.2923222 -0.039998662 11
-0.52547634 2.2724676 0.61429483 14
-0.5241074 2.2683511 0.52823532 13
-0.52423227 2.2706985 0.44513896 14
-0.52479392 2.2749426 0.36330932 14
-0.5224607 2.2666345 0.28090885 14
-0.52730644 2.2894826 0.20220132 15
-0.52481425 2.2804816 0.12063438 14
-0.51832342 2.254077 0.039704222 11
-0.43659097 1.9062555 -0.51375604 3
-0.50085896 2.1886194 -0.50951445 4
-0.52056944 2.276576 -0.44609243 11
-0.52001399 2.2759748 -0.36371043 12
-0.52102596 2.2822382 -0.2827372 8
-0.51918685 2.2760131 -0.20089431 8
-0.52891856 2.3205428 -0.12231942 10
-0.52137381 2.2892857 -0.039912272 11
-0.51646906 2.2695787 0.61300153 14
-0.51618618 2.2701666 0.52823532 13
-0.51521546 2.2677281 0.44418573 14
-0.5168497 2.2767606 0.36330932 14
-0.51344764 2.2636042 0.28029948 15
-0.51821047 2.2864516 0.20176555 14
-0.51685065 2.2822995 0.12063438 14
-0.50934881 2.2509966 0.039616961 11
-0.43311957 1.9219021 -0.51763833 3
-0.49321619 2.1903543 -0.50951445 4
-0.5115422 2.2735908 -0.44513926 11
-0.51098299 2.2729578 -0.36292824 12
-0.51305628 2.2840431 -0.2827372 8
-0.51123893 2.2778115 -0.20089431 7
-0.51972252 2.3175027 -0.12205861 11
-0.51228648 2.2862132 -0.039825883 12
-0.50854361 2.2713675 0.61300153 14
-0.507195 2.2672002 0.52711141 13
-0.50729644 2.2695129 0.44418573 14
-0.50782263 2.2737308 0.362528 14
-0.50554311 2.2653828 0.28029948 14
-0.50914204 2.2833848 0.20132977 15
-0.50779498 2.2792161 0.1203727 14
-0.50148821 2.2527609 0.039616961 11
-0.42745352 1.9281174 -0.5189324 4
-0.48556745 2.1920626 -0.50951445 4
-0.50254202 2.27057 -0.44418606 10
-0.5030458 2.2747278 -0.36292824 12
-0.5040096 2.2809744 -0.28212786 9
-0.50221092 2.2747183 -0.20045851 7
-0.51162976 2.3193028 -0.12205861 11
-0.50215077 2.2782233 -0.0396531 14
-0.49957317 2.2684121 0.61170834 15
-0.49823087 2.2641985 0.52598751 13
-0.49831733 2.2664762 0.44323257 14
-0.49988276 2.2754896 0.362528 14
-0.49656838 2.2622864 0.27969012 15
-0.50116843 2.2851481 0.20132977 15
-0.49876711 2.2760973 0.12011101 14
-0.49255231 2.249614 0.039529696 12
-0.42072055 1.9295976 -0.5189324 3
-0.47791275 2.1937442 -0.50951445 4
-0.49356931 2.2675147 -0.44323289 11
-0.49405295 2.2716441 -0.36214611 12
-0.49604449 2.2827196 -0.28212786 8
-0.49426761 2.2764575 -0.20045851 7
-0.50247216 2.316195 -0.12179781 12
-0.49313623 2.2750764 -0.039566711 10
-0.49165186 2.2701421 0.61170834 15
-0.49032432 2.265924 0.52598751 12
-0.48936555 2.2634041 0.44227937 14
-0.49089399 2.2723937 0.3617467 14
-0.48762143 2.259155 0.27908078 14
-0.49213871 2.2820146 0.200894 15
-0.48976725 2.2729435 0.11984934 14
-0.48469666 2.2513196 0.039529696 12
-0.41297007 1.9263322 -0.51763833 3
-0.47025228 2.195399 -0.50951445 4
-0.484624 2.2644241 -0.44227967 10
-0.48612043 2.273355 -0.36214611 12
-0.48703641 2.2795842 -0.28151849 8
-0.4852784 2.2732975 -0.20002273 7
-0.49334255 2.3130515 -0.12153699 12
-0.48414975 2.2718947 -0.039480317 11
-0.48271877 2.2671206 0.61041504 14
-0.48139805 2.2628565 0.5248636 12
-0.48146179 2.2650986 0.44227937 14
-0.48193288 2.2692623 0.36096537 14
-0.4787024 2.2559886 0.27847141 15
-0.48416999 2.2837186 0.200894 15
-0.48183027 2.2746391 0.11984934 15
-0.47580004 2.248107 0.039442439 12
-0.40624338 1.927762 -0.51763833 3
-0.46258602 2.1970272 -0.50951445 4
-0.47671673 2.2661018 -0.44227967 10
-0.47818196 2.275038 -0.36214611 12
-0.47907621 2.2812703 -0.28151849 8
-0.47734016 2.2749777 -0.20002273 7
-0.48321646 2.3049855 -0.12101538 13
-0.47416663 2.2637846 -0.039307538 11
-0.47480211 2.2687917 0.61041504 15
-0.47349623 2.264523 0.5248636 13
-0.47254848 2.261961 0.4413262 14
-0.47400874 2.2709308 0.36096537 14
-0.4698115 2.2527878 0.2778621 14
-0.47517934 2.2805185 0.20045821 16
-0.4728696 2.2714186 0.11958765 14
-0.46693173 2.2448597 0.039355174 12
-0.39853239 1.9244391 -0.51634425 3
-0.45392707 2.1938579 -0.50838971 4
-0.46780998 2.2629454 -0.4413265 10
-0.46923876 2.2718568 -0.36136392 12
-0.47010717 2.2780683 -0.28090915 8
-0.46939611 2.2766302 -0.20002273 7
-0.47416019 2.3017678 -0.12075458 10
-0.46626166 2.2654259 -0.039307538 12
-0.46590686 2.2657046 0.6091218 14
-0.46558872 2.2661619 0.5248636 13
-0.46464989 2.2635968 0.4413262 13
-0.46508667 2.2677338 0.36018407 14
-0.46194494 2.2544141 0.2778621 14
-0.46721593 2.2821634 0.20045821 15
-0.46493798 2.2730553 0.11958765 15
-0.45909286 2.2464759 0.039355174 12
-0.39181241 1.9258186 -0.51634425 3
-0.44626629 2.1954291 -0.50838971 4
-0.45893109 2.2597547 -0.4403733 10
-0.46130562 2.2734809 -0.36136392 11
-0.46215239 2.2796955 -0.28090915 8
-0.46045756 2.2733731 -0.19958696 6
-0.46414191 2.2936208 -0.12023295 11
-0.45736033 2.2621396 -0.039221149 12
-0.45799524 2.2673171 0.6091218 14
-0.45671162 2.2629974 0.5237397 13
-0.45577544 2.2603931 0.440373 14
-0.45619264 2.264502 0.35940275 14
-0.4530935 2.2511473 0.27725273 15
-0.45826489 2.278897 0.20002241 15
-0.45601723 2.2697694 0.11932597 15
-0.45026454 2.2431636 0.039267913 13
-0.38414133 1.9224385 -0.51505011 3
-0.43860012 2.1969736 -0.50838971 4
-0.4510403 2.2613428 -0.4403733 10
-0.45240176 2.2702341 -0.36058176 12
-0.45322287 2.2764275 -0.28029981 8
-0.45251924 2.2749665 -0.19958696 6
-0.45418632 2.2854321 -0.11971132 11
-0.44946119 2.2637224 -0.039221149 12
-0.44913819 2.2641642 0.60782856 14
-0.4488095 2.2645779 0.5237397 13
-0.44788241 2.2619703 0.440373 14
-0.44828528 2.2660806 0.35940275 14
-0.44523275 2.2527153 0.27725273 15
-0.44934234 2.2755961 0.19958664 15
-0.44712508 2.2664485 0.11906429 15
-0.44243172 2.2447214 0.039267913 13
-0.37709263 1.9238335 -0.51505011 4
-0.42960852 2.193785 -0.50726491 4
-0.44180658 2.2581637 -0.43942013 10
-0.44313049 2.2670302 -0.35979956 10
-0.44487628 2.2780733 -0.28029981 8
-0.44322413 2.2717209 -0.19915117 5
-0.4448514 2.2821805 -0.11945052 11
-0.4402056 2.2604473 -0.039134759 13
-0.44083661 2.265795 0.60782856 14
-0.4395768 2.2614253 0.52261579 12
-0.4386532 2.2587786 0.43941984 14
-0.43903601 2.2628601 0.35862142 14
-0.43602878 2.24946 0.2766434 15
-0.44099879 2.2772279 0.19958664 15
-0.43881509 2.2680721 0.11906429 15
-0.43325266 2.2414193 0.039180648 13
-0.37037489 1.9251381 -0.51505011 3
-0.42194816 2.1952713 -0.50726491 4
-0.43392143 2.2596922 -0.43942013 10
-0.43521437 2.2685633 -0.35979956 11
-0.43598744 2.2747383 -0.27969044 8
-0.4343549 2.268362 -0.1987154 5
-0.43594423 2.2788153 -0.11918971 11
-0.43231249 2.26197 -0.039134759 13
-0.432019 2.2625761 0.60653532 14
-0.43076733 2.2581601 0.52149189 13
-0.43076593 2.2602959 0.43941984 14
-0.43021083 2.2595274 0.35784012 14
-0.42817402 2.2509685 0.2766434 14
-0.43211719 2.2738597 0.19915086 16
-0.42996404 2.2646844 0.11880261 16
-0.42542598 2.242918 0.039180648 13
-0.36454853 1.931165 -0.51634425 3
-0.41428268 2.1967309 -0.50726491 4
-0.4251222 2.2563696 -0.43846694 10
-0.42637947 2.2652154 -0.35901737 11
-0.42804447 2.2762465 -0.27969044 7
-0.42643419 2.2698646 -0.1987154 5
-0.42798701 2.280323 -0.11918971 11
-0.42349279 2.2585518 -0.03904837 13
-0.42322916 2.2593229 0.60524201 14
-0.42198601 2.2548611 0.52036798 13
-0.42197135 2.2569613 0.43846661 14
-0.42141417 2.256161 0.35705879 14
-0.41940376 2.2475708 0.27603403 15
-0.42417732 2.2753544 0.19915086 16
-0.4220562 2.2661715 0.11880261 16
-0.41667968 2.2394745 0.03909339 13
-0.35780531 1.9324257 -0.51634425 3
-0.40661216 2.1981635 -0.50726491 4
-0.41724339 2.2578397 -0.43846694 10
-0.41846976 2.26669 -0.35901737 10
-0.41919616 2.2728462 -0.27908111 7
-0.4176057 2.2664404 -0.1982796 5
-0.41912067 2.2768924 -0.11892891 12
-0.41560635 2.2600164 -0.03904837 13
-0.4153401 2.2607865 0.60524201 15
-0.41411251 2.2563205 0.52036798 13
-0.41320527 2.2535923 0.43751341 14
-0.41353613 2.2576182 0.35705879 14
-0.41155571 2.2490211 0.27603403 15
-0.41533652 2.2719214 0.19871509 15
-0.4132461 2.2627192 0.11854094 16
-0.40885991 2.2409155 0.03909339 13
-0.35019496 1.928911 -0.51505011 3
-0.39980611 2.2043633 -0.50838971 4
-0.40848446 2.2544527 -0.43751371 10
-0.40967539 2.2632775 -0.35823521 10
-0.41037679 2.269412 -0.27847174 7
-0.40969181 2.2678845 -0.1982796 6
-0.41028348 2.2734277 -0.11866809 13
-0.40682787 2.2565331 -0.038961977 13
-0.40658987 2.2574692 0.60394883 15
-0.40537119 2.2529571 0.51924407 12
-0.40533626 2.2550209 0.43751341 15
-0.40478024 2.2541871 0.35627753 14
-0.4028264 2.2455592 0.27542472 15
-0.40740353 2.2733574 0.19871509 16
-0.40534523 2.2641478 0.11854094 16
-0.40015501 2.2374077 0.039006125 13
-0.3434597 1.9301215 -0.51505011 3
-0.39210901 2.2057455 -0.50838971 4
-0.40061244 2.2558649 -0.43751371 10
-0.40090993 2.259831 -0.35745302 10
-0.40158656 2.2659442 -0.27786243 7
-0.4009046 2.2643962 -0.19784385 5
-0.40147558 2.2699289 -0.11840729 14
-0.39894861 2.2579396 -0.038961977 14
-0.3978678 2.2541184 0.60265553 14
-0.39750445 2.2543583 0.51924407 13
-0.39661086 2.2515883 0.43656024 14
-0.39690915 2.2555861 0.35627753 14
-0.3949855 2.2469516 0.27542472 14
-0.39860404 2.2698598 0.19827931 15
-0.39657667 2.2606311 0.11827926 16
-0.39234257 2.238791 0.039006125 14
-0.33754975 1.9360666 -0.51634425 3
-0.38440713 2.2071009 -0.50838971 4
-0.39189422 2.252414 -0.43656054 10
-0.3930192 2.2612166 -0.35745302 10
-0.39197654 2.2575531 -0.27664372 6
-0.39214668 2.260874 -0.19740805 6
-0.39184469 2.2614768 -0.11788567 14
-0.39021194 2.2543926 -0.038875591 14
-0.3891741 2.2507343 0.60136229 15
-0.3888036 2.2509315 0.51812023 12
-0.38874891 2.2529593 0.43656024 14
-0.38903329 2.256958 0.35627753 13
-0.38629758 2.2434258 0.27481535 15
-0.38983396 2.2663286 0.19784354 16
-0.38868323 2.2620018 0.11827926 16
-0.38452536 2.2401466 0.039006125 14
-0.33078954 1.9372332 -0.51634425 3
-0.37670055 2.2084291 -0.50838971 4
-0.38402942 2.2537682 -0.43656054 9
-0.38429505 2.2577064 -0.35667089 9
-0.3865895 2.2735848 -0.27847174 7
-0.38425237 2.2622292 -0.19740805 6
-0.38311297 2.2579081 -0.11762486 11
-0.38234028 2.2557411 -0.038875591 14
-0.3805089 2.2473171 0.60006905 14
-0.38094401 2.2522748 0.51812023 13
-0.38006452 2.2494624 0.43560702 14
-0.38033077 2.2534325 0.3554962 14
-0.37846419 2.2447605 0.27481535 15
-0.38192061 2.2676754 0.19784354 15
-0.37995654 2.2584207 0.11801757 16
-0.37670344 2.2414753 0.039006125 14
-0.32402533 1.9383759 -0.51634425 3
-0.36898941 2.2097306 -0.50838971 4
-0.37535241 2.2502534 -0.43560734 9
-0.37641183 2.2590342 -0.35667089 9
-0.38028049 2.2847114 -0.27969044 6
-0.37553644 2.2586434 -0.19697228 6
-0.37441096 2.2543058 -0.11736406 12
-0.37364566 2.2521298 -0.038789198 14
-0.37266201 2.2486315 0.60006905 14
-0.37228405 2.2487843 0.51699626 12
-0.37221012 2.2507753 0.43560702 15
-0.37246248 2.2547462 0.3554962 14
-0.3698183 2.2411716 0.27420601 15
-0.37319246 2.2640798 0.19740775 16
-0.37207088 2.2597332 0.11801757 16
-0.36806563 2.237844 0.038918864 14
-0.31803682 1.9442616 -0.51763833 3
-0.36127377 2.2110052 -0.50838971 4
-0.36749527 2.2515502 -0.43560734 10
-0.36772934 2.25546 -0.35588869 8
-0.37469625 2.3007197 -0.28151849 13
-0.36765 2.2599404 -0.19697228 6
-0.36573878 2.2506704 -0.11710324 12
-0.36578199 2.2534206 -0.038789198 14
-0.36403751 2.2451513 0.5987758 14
-0.36365306 2.2452605 0.51587236 13
-0.36356729 2.247216 0.43465388 15
-0.36380181 2.2511573 0.3547149 14
-0.36199287 2.242449 0.27420601 15
-0.3652871 2.2653689 0.19740775 15
-0.36338666 2.2560885 0.1177559 16
-0.36025187 2.2391152 0.038918864 14
-0.31124815 1.9453598 -0.51763833 3
-0.35355374 2.2122529 -0.50838971 4
-0.35885993 2.2479722 -0.43465418 10
-0.35985407 2.2567298 -0.35588869 8
-0.36822414 2.3118155 -0.2827372 12
-0.35897645 2.2562907 -0.1965365 6
-0.35788026 2.2519336 -0.11710324 12
-0.35713008 2.2497463 -0.038702808 15
-0.35619825 2.2464082 0.5987758 14
-0.35581341 2.246516 0.51587236 13
-0.35495383 2.2436233 0.43370065 14
-0.35594156 2.2524135 0.3547149 14
-0.35338926 2.2387967 0.27359664 14
-0.35660151 2.2617102 0.19697198 16
-0.35550922 2.2573431 0.1177559 16
-0.35165676 2.2354205 0.038831603 14
-0.30445567 1.9464345 -0.51763833 3
-0.34582937 2.2134736 -0.50838971 4
-0.35101086 2.2492111 -0.43465418 9
-0.35121381 2.253093 -0.35510653 8
-0.36091572 2.3179905 -0.28334656 12
-0.35109836 2.2575302 -0.1965365 7
-0.34925094 2.2482352 -0.11684243 13
-0.34850827 2.2460389 -0.038616419 15
-0.34835467 2.247638 0.5987758 14
-0.34722412 2.2429299 0.51474845 13
-0.34711996 2.2448485 0.43370065 15
-0.34732318 2.2487617 0.35393357 14
-0.34557226 2.2400167 0.27359664 15
-0.34870452 2.2629411 0.19697198 16
-0.34686786 2.2536352 0.11749421 16
-0.34309193 2.231693 0.038744342 15
-0.29765949 1.9474853 -0.51763833 3
-0.33810079 2.2146671 -0.50838971 3
-0.34241757 2.2455704 -0.43370095 10
-0.34334689 2.2543051 -0.35510653 7
-0.35282221 2.319236 -0.28334656 12
-0.34246767 2.2538176 -0.19610073 7
-0.34140098 2.2494407 -0.11684243 13
-0.340666 2.2472417 -0.038616419 15
-0.33978373 2.2440646 0.5974825 14
-0.33939275 2.2441282 0.51474845 13
-0.33854878 2.2411933 0.43274748 14
-0.33947143 2.2499604 0.35393357 15
-0.33701149 2.2363019 0.27298734 15
-0.34006181 2.2592189 0.1965362 16
-0.33899912 2.2548323 0.11749421 17
-0.33529979 2.232877 0.038744342 14
-0.29085967 1.9485126 -0.51763833 3
-0.3303681 2.2158339 -0.50838971 3
-0.33457699 2.246752 -0.43370095 9
-0.33474931 2.2506053 -0.35432434 7
-0.34472442 2.3204536 -0.28334656 11
-0.33459833 2.2549992 -0.19610073 7
-0.33281487 2.2456791 -0.11658162 13
-0.33208758 2.2434719 -0.038530029 16
-0.3319484 2.2452369 0.5974825 14
-0.33084548 2.2404795 0.51362455 12
-0.33072349 2.2423615 0.43274748 14
-0.33089581 2.2462459 0.35315228 14
-0.32920328 2.2374647 0.27298734 15
-0.33217362 2.2603922 0.1965362 16
-0.33040115 2.2510619 0.11723254 16
-0.32677838 2.2290874 0.038657077 15
-0.28405634 1.9495159 -0.51763833 3
-0.32192975 2.2121522 -0.50726491 3
-0.32602635 2.2430491 -0.43274778 9
-0.32689118 2.25176 -0.35432434 7
-0.33591029 2.3167312 -0.2827372 11
-0.32601097 2.2512238 -0.19566494 8
-0.32497394 2.2468271 -0.11658162 13
-0.32425439 2.2446175 -0.038530029 15
-0.32341936 2.2416017 0.59618932 15
-0.32302269 2.2416208 0.51362455 13
-0.32289413 2.2435021 0.43274748 15
-0.32305294 2.2473874 0.35315228 14
-0.32068583 2.2336879 0.27237797 15
-0.32428133 2.261538 0.1965362 16
-0.32183358 2.2472587 0.11697085 17
-0.31899545 2.2302146 0.038657077 15
-0.27656984 1.945714 -0.51634425 3
-0.31352121 2.2084394 -0.50614017 3
-0.31819469 2.2441735 -0.43274778 9
-0.3183367 2.2479978 -0.35354218 7
-0.32782134 2.3178897 -0.2827372 11
-0.31815076 2.2523479 -0.19566494 8
-0.31643158 2.2430038 -0.11632082 13
-0.31571969 2.2407851 -0.038443636 16
-0.31559274 2.242717 0.59618932 14
-0.31451795 2.23791 0.51250064 13
-0.31437865 2.2397549 0.43179429 14
-0.31452048 2.2436101 0.35237095 14
-0.31288686 2.2347937 0.27237797 15
-0.31569538 2.2577233 0.19610043 15
-0.31398723 2.2483685 0.11697085 16
-0.31051803 2.2263632 0.038569819 15
-0.26911336 1.9418837 -0.51505011 3
-0.30581039 2.2095201 -0.50614017 3
-0.30968699 2.2404082 -0.43179458 9
-0.31048778 2.2490954 -0.35354218 7
-0.3197284 2.3190198 -0.2827372 10
-0.30960724 2.2485106 -0.19522917 9
-0.3086001 2.2440948 -0.11632082 14
-0.30789599 2.2418735 -0.038443636 17
-0.30710596 2.2390201 0.59489602 15
-0.30670431 2.2389941 0.51250064 13
-0.30655852 2.2408388 0.43179429 15
-0.30668691 2.2446945 0.35237095 14
-0.30441311 2.2309551 0.27176863 15
-0.30781254 2.2588115 0.19610043 16
-0.30546373 2.2445033 0.11670918 17
-0.30274469 2.2274337 0.038569819 15
-0.26168704 1.9380251 -0.51375604 3
-0.29809588 2.2105742 -0.50614017 4
-0.30186462 2.2414756 -0.43179458 9
-0.30197677 2.2452707 -0.35275999 7
-0.31097093 2.3152032 -0.28212786 11
-0.30109435 2.2446408 -0.19479337 10
-0.30010188 2.2402091 -0.11606 14
-0.2994056 2.2379797 -0.03835725 16
-0.29928845 2.2400782 0.59489602 14
-0.29824251 2.2352219 0.51137674 13
-0.29808637 2.2370298 0.43084112 15
-0.29819819 2.2408562 0.35158965 15
-0.29662377 2.2320042 0.27176863 15
-0.2992706 2.2549345 0.19566463 16
-0.29762706 2.2455559 0.11670918 17
-0.29431167 2.2235208 0.038482554 15
-0.25492051 1.9389267 -0.51375604 3
-0.29101193 2.2164314 -0.50726491 3
-0.29403859 2.2425158 -0.43179458 8
-0.29413748 2.2463112 -0.35275999 6
-0.30288744 2.3162746 -0.28212786 10
-0.29325724 2.2456779 -0.19479337 10
-0.29163459 2.2362919 -0.1157992 14
-0.29159179 2.239011 -0.03835725 17
-0.29084435 2.2363198 0.59360272 15
-0.29043832 2.2362492 0.51137674 13
-0.29027587 2.2380567 0.43084112 14
-0.29037431 2.2418833 0.35158965 15
-0.28819418 2.2281041 0.27115926 15
-0.2913976 2.2559655 0.19566463 16
-0.28914803 2.2416289 0.11644749 17
-0.28654832 2.2245347 0.038482554 15
-0.24876364 1.9445953 -0.51505011 3
-0.28327334 2.2174337 -0.50726491 3
-0.28558785 2.2386599 -0.43084142 8
-0.28567052 2.2424254 -0.35197783 6
-0.29417402 2.3123949 -0.28151849 10
-0.28478888 2.2417469 -0.1943576 11
-0.2831983 2.2323425 -0.11553839 15
-0.28314608 2.2350554 -0.038270857 16
-0.28303635 2.2373211 0.59360272 15
-0.28263059 2.2372494 0.51137674 13
-0.28184748 2.2341866 0.42988792 14
-0.28192964 2.2379835 0.35080832 14
-0.28041491 2.2290964 0.27115926 15
-0.28290021 2.2520266 0.19522887 16
-0.28132153 2.2426245 0.11644749 14
-0.27816015 2.2205608 0.038395293 16
-0.24257034 1.9502445 -0.51634425 3
-0.27613184 2.223244 -0.50838971 3
-0.27777171 2.2396431 -0.43084142 8
-0.27784124 2.2434092 -0.35197783 5
-0.28549138 2.3084824 -0.28090915 10
-0.27635148 2.2377837 -0.19392182 11
-0.27540421 2.2333176 -0.11553839 14
-0.27534255 2.2360303 -0.038270857 17
-0.27463552 2.2335021 0.59230953 15
-0.27422565 2.233387 0.51025283 13
-0.27344972 2.2302852 0.42893475 14
-0.27411589 2.2389538 0.35080832 15
-0.27202997 2.2251358 0.27054995 14
-0.27443385 2.2480559 0.19479308 16
-0.27288741 2.2386365 0.11618582 13
-0.27040723 2.2215183 0.038395293 16
-0.23576124 1.9510794 -0.51634425 3
-0.26836959 2.2241943 -0.50838971 3
-0.26995224 2.2405989 -0.43084142 8
-0.26941872 2.2394619 -0.35119566 5
-0.27683958 2.3045375 -0.28029981 10
-0.26853848 2.2387347 -0.19392182 11
-0.26701301 2.2293077 -0.11527758 15
-0.26694205 2.2320142 -0.038184468 12
-0.26683748 2.2344472 0.59230953 15
-0.26642802 2.2343307 0.51025283 13
-0.26566288 2.2312262 0.42893475 15
-0.26571581 2.234993 0.35002702 15
-0.26426116 2.2260716 0.27054995 15
-0.26658499 2.2490003 0.19479308 17
-0.26448455 2.234617 0.11592413 14
-0.26265106 2.2224488 0.038395293 16
-0.2295119 1.9566872 -0.51763833 3
-0.26060405 2.2251177 -0.50838971 3
-0.26155931 2.2366524 -0.42988822 8
-0.26102719 2.2354841 -0.3504135 5
-0.26879358 2.3054898 -0.28029981 11
-0.26014626 2.2347112 -0.19348605 11
-0.25922966 2.2302263 -0.11527758 15
-0.25914922 2.2329323 -0.038184468 13
-0.25903615 2.2353649 0.59230953 15
-0.25806713 2.2304068 0.50912893 14
-0.25730953 2.2272639 0.42798153 15
-0.25791261 2.2359068 0.35002702 14
-0.25592127 2.2220507 0.26994058 15
-0.25816387 2.2449689 0.19435731 16
-0.25668269 2.2355266 0.11592413 13
-0.25489166 2.223352 0.038395293 16
-0.2226804 1.9574765 -0.51763833 3
-0.25228551 2.2211726 -0.50726491 3
-0.25375032 2.2375517 -0.42988822 8
-0.25322229 2.2363815 -0.3504135 5
-0.26018679 2.3014827 -0.27969044 12
-0.2523441 2.2356055 -0.19348605 12
-0.25144315 2.2311175 -0.11527758 15
-0.25079426 2.2288554 -0.038098078 13
-0.25069249 2.2314558 0.59101623 15
-0.25027999 2.2312942 0.50912893 14
-0.24953336 2.2281485 0.42798153 14
-0.25010625 2.2367938 0.35002702 14
-0.24816331 2.2229304 0.26994058 15
-0.25032589 2.2458565 0.19435731 16
-0.24832544 2.2314463 0.11566246 13
-0.24657708 2.2192593 0.038308028 16
-0.21584617 1.9582418 -0.51763833 3
-0.24453065 2.2220397 -0.50726491 4
-0.24593827 2.2384238 -0.42988822 7
-0.24487582 2.2323427 -0.34963131 6
-0.25215152 2.302377 -0.27969044 12
-0.24399742 2.2315211 -0.19305027 12
-0.24311167 2.2270176 -0.11501677 16
-0.24247093 2.2247477 -0.038011689 13
-0.24290171 2.2323174 0.59101623 15
-0.24196362 2.2273109 0.50800502 13
-0.24175413 2.2290058 0.42798153 14
-0.24229686 2.237653 0.35002702 15
-0.23986895 2.2188492 0.26933125 15
-0.24195038 2.2417643 0.19392152 16
-0.23999977 2.227335 0.11540078 13
-0.23882893 2.2201066 0.038308028 16
-0.20849694 1.9541808 -0.51634425 3
-0.23677281 2.2228799 -0.50726491 4
-0.23760422 2.2343881 -0.42893505 7
-0.23656064 2.2282732 -0.34884915 5
-0.24359015 2.2983081 -0.27908111 12
-0.23620647 2.2323594 -0.19305027 12
-0.23533644 2.2278528 -0.11501677 16
-0.23470365 2.2255802 -0.038011689 13
-0.23510799 2.2331517 0.59101623 15
-0.23418738 2.2281418 0.50800502 13
-0.23397198 2.229836 0.42798153 14
-0.23397002 2.2335734 0.3492457 15
-0.23212226 2.2196729 0.26933125 15
-0.23412369 2.2425952 0.19392152 16
-0.23222347 2.2281594 0.11540078 13
-0.23055385 2.215955 0.038220771 16
-0.20133311 1.954932 -0.51634425 3
-0.22862394 2.2237327 -0.50726491 4
-0.22941318 2.235244 -0.42893505 7
-0.22839203 2.229125 -0.34884915 6
-0.23465981 2.2942483 -0.27847174 12
-0.22802287 2.2332101 -0.19305027 13
-0.22666308 2.2237332 -0.11475597 16
-0.22603881 2.221452 -0.037925296 13
-0.22643341 2.2291932 0.58972305 15
-0.22552775 2.224138 0.50688112 13
-0.22530337 2.2257955 0.42702836 14
-0.22578198 2.234416 0.3492457 14
-0.22348711 2.2155709 0.26872188 15
-0.22590259 2.2434382 0.19392152 16
-0.22355592 2.2240276 0.1151391 13
-0.22243708 2.2167845 0.038220771 16
-0.1940299 1.950817 -0.51505011 3
-0.22134162 2.2293653 -0.50838971 3
-0.22112523 2.2311466 -0.42798182 6
-0.22060955 2.2299089 -0.34884915 6
-0.22616225 2.2901149 -0.27786243 12
-0.22022612 2.2339923 -0.19305027 13
-0.2188994 2.2245107 -0.11475597 17
-0.21828312 2.2222273 -0.037925296 14
-0.2186507 2.22997 0.58972305 15
-0.21776268 2.2249117 0.50688112 13
-0.21753252 2.2265685 0.42702836 15
-0.21798104 2.2351904 0.3492457 14
-0.21575196 2.2163374 0.26872188 15
-0.21807015 2.2442131 0.19392152 16
-0.21579126 2.2247944 0.1151391 13
-0.21420927 2.2125721 0.038133506 16
-0.18721908 1.9514823 -0.51505011 3
-0.21355833 2.2301245 -0.50838971 3
-0.21333574 2.231905 -0.42798182 7
-0.2123553 2.225749 -0.34806696 6
-0.21769638 2.2859499 -0.27725306 12
-0.21195535 2.229789 -0.1926145 13
-0.21066146 2.2202904 -0.11449515 12
-0.21005344 2.217999 -0.03783891 13
-0.21041079 2.2259111 0.58842975 15
-0.20999497 2.2256582 0.50688112 13
-0.20929877 2.2224274 0.42607516 15
-0.20971526 2.2310207 0.34846443 14
-0.20755063 2.2121363 0.26811254 14
-0.21023506 2.2449605 0.19392152 17
-0.20802397 2.225534 0.1151391 14
-0.20649129 2.2133055 0.038133506 16
-0.17996158 1.9473149 -0.51375604 3
-0.20621991 2.2357073 -0.50951445 3
-0.20509365 2.2277484 -0.42702866 6
-0.2045847 2.2264767 -0.34806696 7
-0.20926237 2.281754 -0.27664372 13
-0.20417066 2.2305155 -0.1926145 13
-0.20245562 2.2160399 -0.11423435 12
-0.20230991 2.2187188 -0.03783891 13
-0.20263962 2.2266321 0.58842975 14
-0.20178397 2.2215257 0.50575721 13
-0.20153978 2.2231443 0.42607516 15
-0.20192626 2.2317393 0.34846443 15
-0.19982757 2.2128475 0.26811254 15
-0.2019503 2.24072 0.19348575 16
-0.19980679 2.2212734 0.11487742 13
-0.19876418 2.2140129 0.038133506 16
-0.17316307 1.9479313 -0.51375604 3
-0.19841458 2.2364137 -0.50951445 3
-0.19731613 2.2284508 -0.42702866 6
-0.19637689 2.2222581 -0.34728479 7
-0.20086031 2.2775271 -0.27603436 14
-0.19594674 2.2262528 -0.19217871 14
-0.19471896 2.216733 -0.11423435 12
-0.1945639 2.2194114 -0.03783891 13
-0.194866 2.2273259 0.58842975 15
-0.19402817 2.2222164 0.50575721 13
-0.19335227 2.2189448 0.42512199 15
-0.19370694 2.2275105 0.3476831 14
-0.19167298 2.2085872 0.2675032 15
-0.1941275 2.2414114 0.19348575 16
-0.1920519 2.2219574 0.11487742 14
-0.190605 2.2097127 0.038046245 16
-0.16636248 1.9485238 -0.51375604 3
-0.19102044 2.2419472 -0.51063919 3
-0.18912032 2.2242353 -0.42607546 6
-0.18861859 2.22293 -0.34728479 7
-0.19249031 2.2732692 -0.27542502 11
-0.18817447 2.226923 -0.19217871 14
-0.18656039 2.2124236 -0.11397354 12
-0.18681552 2.220077 -0.03783891 14
-0.18668585 2.2231796 0.58713651 14
-0.18586315 2.2180252 0.50463331 13
-0.18560554 2.2196062 0.42512199 15
-0.18593031 2.2281733 0.3476831 15
-0.18396239 2.2092428 0.2675032 15
-0.18588984 2.2371113 0.19304997 16
-0.18388203 2.217638 0.11461575 13
-0.1828905 2.2103646 0.038046245 16
-0.15955985 1.9490926 -0.51375604 3
-0.18319343 2.2426002 -0.51063919 3
-0.18095638 2.2199898 -0.42512229 6
-0.18085796 2.2235749 -0.34728479 7
-0.18415247 2.2689807 -0.27481568 11
-0.17999785 2.2226017 -0.19174294 15
-0.17883645 2.2130613 -0.11397354 13
-0.17866305 2.2157323 -0.037752517 13
-0.17892435 2.2238176 0.58713651 14
-0.17811967 2.2186604 0.50463331 13
-0.1774646 2.2153478 0.4241688 14
-0.17775793 2.223886 0.3469018 15
-0.17624958 2.2098715 0.2675032 15
-0.17807972 2.2377465 0.19304997 16
-0.17613992 2.2182665 0.11461575 13
-0.17477892 2.2060058 0.037958983 16
-0.15275526 1.9496378 -0.51375604 3
-0.17574385 2.2480829 -0.51176393 3
-0.17549619 2.2499685 -0.43084142 5
-0.17271195 2.2192693 -0.3465026 8
-0.17584696 2.264662 -0.27420634 12
-0.17223841 2.2232163 -0.19174294 14
-0.17111033 2.2136722 -0.11397354 13
-0.17092761 2.2163424 -0.037752517 13
-0.17079015 2.2196131 0.58584327 15
-0.1700011 2.2144113 0.5035094 13
-0.16973051 2.2159538 0.4241688 14
-0.16999404 2.2244928 0.3469018 14
-0.16853462 2.2104733 0.2675032 15
-0.17026746 2.2383544 0.19304997 16
-0.16801779 2.2138889 0.11435406 13
-0.16707745 2.2066026 0.037958983 16
-0.14594884 1.9501591 -0.51375604 3
-0.1678955 2.2486827 -0.51176393 3
-0.16837047 2.2603571 -0.43274778 11
-0.16496421 2.2198586 -0.3465026 8
-0.16757382 2.2603128 -0.27359697 12
-0.16447689 2.223804 -0.19174294 14
-0.16338213 2.2142558 -0.11397354 13
-0.1631901 2.2169256 -0.037752517 13
-0.1630412 2.2201958 0.58584327 15
-0.16227034 2.2149909 0.5035094 13
-0.16163659 2.2116375 0.42321563 14
-0.16186893 2.2201469 0.34612048 14
-0.1604576 2.2060983 0.26689386 15
-0.16209266 2.2339673 0.1926142 17
-0.16028884 2.214462 0.11435406 13
-0.15937395 2.2071724 0.037958983 16
-0.13914062 1.9506567 -0.51375604 3
-0.16004512 2.2492549 -0.51176393 3
-0.16186936 2.280515 -0.43656054 10
-0.15686567 2.2154949 -0.34572047 8
-0.15968283 2.2608838 -0.27359697 13
-0.15671337 2.2243645 -0.19174294 15
-0.15530188 2.209832 -0.11371273 14
-0.155101 2.2124949 -0.037666127 13
-0.15529029 2.2207513 0.58584327 15
-0.15419856 2.2106833 0.5023855 13
-0.15391555 2.2121882 0.42321563 15
-0.1541182 2.2206984 0.34612048 14
-0.1527559 2.206645 0.26689386 15
-0.15429367 2.2345195 0.1926142 16
-0.15255795 2.215008 0.11435406 13
-0.15166852 2.2077153 0.037958983 15
-0.13265751 1.9559489 -0.51505011 3
-0.15219279 2.2498 -0.51176393 3
-0.15390791 2.2810659 -0.43656054 11
-0.1487996 2.2111015 -0.34493828 9
-0.15145755 2.2564759 -0.27298763 12
-0.14861523 2.219928 -0.19130714 15
-0.1475872 2.2103603 -0.11371273 13
-0.147377 2.2130227 -0.037666127 13
-0.14721739 2.2164609 0.58455002 15
-0.14648089 2.2112081 0.5023855 13
-0.14586905 2.2078145 0.4222624 15
-0.14636557 2.2212229 0.34612048 15
-0.14505233 2.2071648 0.26689386 15
-0.14616701 2.2300744 0.19217841 17
-0.14482521 2.2155271 0.11435406 13
-0.14363599 2.2032423 0.037871718 16
-0.12551919 1.9515805 -0.51375604 3
-0.14433859 2.2503173 -0.51176393 3
-0.14563122 2.276691 -0.43560734 11
-0.14108051 2.2116075 -0.34493828 9
-0.14358005 2.2569909 -0.27298763 13
-0.14086531 2.2204335 -0.19130714 15
-0.1398707 2.2108622 -0.11371273 13
-0.13965121 2.2135236 -0.037666127 14
-0.13947961 2.2169611 0.58455002 15
-0.13845637 2.2068436 0.50126159 13
-0.13816145 2.2083101 0.4222624 14
-0.13830365 2.2167914 0.34533918 14
-0.13703886 2.2027047 0.2662845 16
-0.13807331 2.2255998 0.19174264 17
-0.13709068 2.2160189 0.11435406 13
-0.13594437 2.2037303 0.037871718 16
-0.11899929 1.9568274 -0.51505011 3
-0.13677752 2.2556708 -0.51288873 3
-0.13738699 2.2722862 -0.43465418 12
-0.13306253 2.2071569 -0.34415612 9
-0.13540304 2.2525246 -0.27237827 13
-0.1331137 2.2209115 -0.19130714 15
-0.1321525 2.2113371 -0.11371273 13
-0.13162634 2.209007 -0.037579738 13
-0.13145366 2.2126129 0.58325672 15
-0.13075222 2.2073138 0.50126159 13
-0.13016279 2.2038791 0.42130923 15
-0.13056476 2.2172606 0.34533918 15
-0.12934916 2.2031696 0.2662845 16
-0.13030367 2.226068 0.19174264 13
-0.12935449 2.2164841 0.11435406 14
-0.12825109 2.2041914 0.037871718 16
-0.11133897 1.9427656 -0.51116782 3
-0.1291808 2.2609982 -0.51401347 3
-0.12917526 2.2678514 -0.43370095 11
-0.1253573 2.207608 -0.34415612 10
-0.12725894 2.2480288 -0.27176896 13
-0.12507981 2.2163899 -0.19087137 15
-0.12415222 2.2067995 -0.11345191 13
-0.12391467 2.2094531 -0.037579738 14
-0.1237294 2.2130582 0.58325672 15
-0.12304646 2.2077565 0.50126159 13
-0.12246902 2.2043202 0.42130923 15
-0.1228243 2.2177029 0.34533918 15
-0.1213843 2.1986525 0.26567516 15
-0.12225875 2.2215357 0.19130686 13
-0.12134325 2.2119367 0.11409239 13
-0.12028328 2.1996338 0.037784457 16
-0.10611375 1.9720783 -0.5189324 3
-0.1215486 2.2663004 -0.51513821 3
-0.1212582 2.2682886 -0.43370095 12
-0.11765055 2.2080321 -0.34415612 11
-0.11941108 2.2484593 -0.27176896 14
-0.11734241 2.2168128 -0.19087137 15
-0.1164483 2.2072194 -0.11345191 13
-0.11593898 2.20488 -0.037493344 14
-0.11600363 2.2134767 0.58325672 15
-0.11508507 2.2033072 0.50013769 13
-0.11477376 2.2047341 0.42130923 16
-0.11482642 2.213186 0.34455785 15
-0.11370883 2.1990628 0.26567516 15
-0.11450339 2.2219491 0.19130686 13
-0.11362141 2.2123468 0.11409239 14
-0.11260439 2.2000406 0.037784457 16
-0.098501287 1.9579662 -0.51505011 2
-0.11485667 2.2910395 -0.52076203 2
-0.11309476 2.2637961 -0.43274778 12
-0.10994236 2.2084293 -0.34415612 11
-0.11131588 2.2439055 -0.27115959 14
-0.10960358 2.2172091 -0.19087137 15
-0.10874294 2.2076125 -0.11345191 13
-0.1082418 2.2052712 -0.037493344 14
-0.10804052 2.2090442 0.58196354 15
-0.10739338 2.2036955 0.50013769 14
-0.1070771 2.2051213 0.42130923 15
-0.10710026 2.2135732 0.34455785 14
-0.10603198 2.1994462 0.26567516 15
-0.10650768 2.21736 0.19087109 13
-0.10565949 2.2077422 0.1138307 14
-0.10492413 2.2004201 0.037784457 16
nan nan nan 0
-0.105724 2.2670937 -0.51513821 2
-0.10519195 2.2641771 -0.43274778 13
-0.10223283 2.2087996 -0.34415612 11
-0.10348251 2.2442806 -0.27115959 14
-0.10163485 2.2126024 -0.19043559 16
-0.10080802 2.2029903 -0.1131911 13
-0.10031567 2.2006416 -0.037406955 14
-0.10032886 2.209408 0.58196354 15
-0.099700406 2.204057 0.50013769 13
-0.09915819 2.2005785 0.42035604 15
-0.099372797 2.2139337 0.34455785 15
-0.098353833 2.1998031 0.26567516 15
-0.098766997 2.2177184 0.19087109 13
-0.097952388 2.2080977 0.1138307 14
-0.097242594 2.2007728 0.037784457 16
nan nan nan 0
-0.097809725 2.2674489 -0.51513821 2
-0.097077176 2.2596264 -0.43179458 13
-0.094522059 2.2091432 -0.34415612 11
-0.095647864 2.2446282 -0.27115959 14
-0.093910806 2.2129436 -0.19043559 15
-0.093117535 2.2033288 -0.1131911 13
-0.092633381 2.2009785 -0.037406955 14
-0.092413716 2.2049191 0.58067024 15
-0.092006199 2.2043915 0.50013769 13
-0.091476135 2.200911 0.42035604 14
-0.091644116 2.214267 0.34455785 15
-0.09067449 2.2001331 0.26567516 15
-0.091025107 2.2180495 0.19087109 13
-0.090040214 2.2034369 0.11356901 14
-0.089356624 2.1961036 0.037697192 17
nan nan nan 0
-0.089508317 2.2580404 -0.51288873 2
-0.088995472 2.2550471 -0.43084142 13
-0.086810134 2.2094595 -0.34415612 11
-0.087618105 2.2399893 -0.27055025 14
-0.085991815 2.2082808 -0.18999982 16
-0.085425921 2.2036405 -0.1131911 13
-0.084949963 2.2012885 -0.037406955 13
-0.084716551 2.2052283 0.58067024 14
-0.084310882 2.2046993 0.50013769 13
-0.083792962 2.2012169 0.42035604 15
-0.083727337 2.2096386 0.34377655 15
-0.082806982 2.1954765 0.26506582 15
-0.083095245 2.213376 0.19043529 12
-0.082348235 2.2037377 0.11356901 14
-0.081690244 2.1964023 0.037697192 16
nan nan nan 0
-0.081625737 2.2583392 -0.51288873 2
-0.0809469 2.2504387 -0.42988822 14
-0.078920484 2.2048137 -0.34337392 12
-0.079798549 2.2402816 -0.27055025 15
-0.078282945 2.2085676 -0.18999982 16
-0.077557258 2.1989353 -0.1129303 14
-0.077265523 2.2015715 -0.037406955 14
-0.07701835 2.2055106 0.58067024 15
-0.076445341 2.2001112 0.49901381 13
-0.075939193 2.1965909 0.41940287 15
-0.076013744 2.2099173 0.34377655 15
-0.075142838 2.1957524 0.26506582 15
-0.075368606 2.2136526 0.19043529 13
-0.074655257 2.2040119 0.11356901 14
-0.074022867 2.1966741 0.037697192 17
nan nan nan 0
-0.073742174 2.2586102 -0.51288873 2
-0.07293161 2.2458019 -0.42893505 11
-0.071223773 2.2050757 -0.34337392 12
-0.071818672 2.2355864 -0.26994088 15
-0.070414051 2.2038486 -0.18956403 16
-0.069881067 2.1991925 -0.1129303 14
-0.06958013 2.2018278 -0.037406955 13
-0.069319218 2.2057657 0.58067024 15
-0.068765052 2.2003644 0.49901381 13
-0.068271197 2.1968427 0.41940287 15
-0.068299234 2.2101693 0.34377655 15
-0.06747777 2.1960013 0.26506582 15
-0.067641065 2.2139022 0.19043529 14
-0.066809751 2.1992683 0.11330734 14
-0.066203676 2.1919222 0.037609935 16
nan nan nan 0
-0.065857701 2.2588539 -0.51288873 2
-0.064949661 2.2411368 -0.42798182 12
-0.063526191 2.2053108 -0.34337392 12
-0.064014584 2.2358234 -0.26994088 15
-0.062720761 2.2040811 -0.18956403 16
-0.062062863 2.1944318 -0.11266948 13
-0.061753429 2.1970599 -0.037320562 14
-0.061619237 2.2059944 0.58067024 14
-0.060948744 2.1957209 0.49788988 13
-0.060602371 2.1970675 0.41940287 15
-0.060583886 2.2103944 0.34377655 15
-0.059676781 2.1912627 0.26445645 15
-0.059777964 2.2091458 0.18999954 13
-0.059132468 2.1994882 0.11330734 13
-0.058552038 2.1921399 0.037609935 16
nan nan nan 0
-0.057972427 2.2590699 -0.51288873 2
-0.057001181 2.236443 -0.42702866 12
-0.055827826 2.2055192 -0.34337392 12
-0.056085002 2.2310722 -0.26933157 16
-0.054902393 2.199307 -0.18912823 16
-0.054402493 2.1946352 -0.11266948 14
-0.05408388 2.197262 -0.037320562 13
-0.053800497 2.2013676 0.579377 14
-0.053283878 2.1959202 0.49788988 13
-0.052932806 2.1972656 0.41940287 15
-0.052749727 2.2056551 0.34299523 15
-0.052027483 2.1914575 0.26445645 15
-0.05206624 2.209341 0.18999954 13
-0.051337693 2.1946893 0.11304566 14
-0.050899684 2.1923308 0.037609935 16
nan nan nan 0
-0.050086446 2.2592587 -0.51288873 2
-0.049086262 2.2317212 -0.42607546 13
-0.048128787 2.2057006 -0.34337392 12
-0.048189364 2.2262926 -0.26872221 13
-0.047225047 2.1994853 -0.18912823 16
-0.046741456 2.1948116 -0.11266948 13
-0.046413675 2.1974375 -0.037320562 14
-0.046115961 2.2015419 0.579377 16
-0.04551718 2.1912222 0.496766 14
-0.045161508 2.1925294 0.41844967 15
-0.045050234 2.2058258 0.34299523 15
-0.044377554 2.1916258 0.26445645 14
-0.044353884 2.2095094 0.18999954 12
-0.043676488 2.194855 0.11304566 14
-0.043246709 2.1924951 0.037609935 16
nan nan nan 0
-0.042108878 2.2545485 -0.51176393 3
-0.0412958 2.231879 -0.42607546 13
-0.040429164 2.2058551 -0.34337392 13
-0.040417861 2.2264471 -0.26872221 12
-0.039547123 2.1996367 -0.18912823 16
-0.039079849 2.1949613 -0.11266948 14
-0.038654786 2.1925876 -0.037234176 14
-0.038430866 2.2016897 0.579377 15
-0.037868112 2.1913676 0.496766 13
-0.037507877 2.1926739 0.41844967 15
-0.037350189 2.2059696 0.34299523 14
-0.036643934 2.1868052 0.26384711 15
-0.036558401 2.2046704 0.18956374 13
-0.036014743 2.1949942 0.11304566 13
-0.035512067 2.1876342 0.03752267 16
nan nan nan 0
-0.034238778 2.2546818 -0.51176393 3
-0.033504836 2.2320094 -0.42607546 13
-0.03265579 2.2010453 -0.34259176 13
-0.032573111 2.2216129 -0.26811287 13
-0.031868715 2.1997614 -0.18912823 16
-0.031417765 2.1950843 -0.11266948 13
-0.031000992 2.1927092 -0.037234176 13
-0.030677866 2.196981 0.57808375 15
-0.030218581 2.1914864 0.496766 14
-0.029853791 2.1927915 0.41844967 15
-0.029649692 2.2060864 0.34299523 15
-0.029010337 2.1869199 0.26384711 15
-0.028862443 2.2047846 0.18956374 12
-0.028352568 2.1951065 0.11304566 14
-0.027875585 2.1877449 0.03752267 16
nan nan nan 0
-0.026368262 2.2547877 -0.51176393 3
-0.025656927 2.2272048 -0.42512229 13
-0.02497251 2.2011459 -0.34259176 13
-0.024818039 2.2217131 -0.26811287 13
-0.024189921 2.1998591 -0.18912823 16
-0.023701271 2.1901879 -0.11240868 14
-0.023346819 2.1928041 -0.037234176 14
-0.023008782 2.1970747 0.57808375 15
-0.022568682 2.1915784 0.496766 14
-0.022149654 2.1879745 0.4174965 15
-0.021899702 2.2012382 0.34221393 15
-0.021376384 2.1870079 0.26384711 15
-0.021166133 2.2048719 0.18956374 13
-0.020690041 2.1951921 0.11304566 14
-0.020192517 2.1828299 0.037435409 16
nan nan nan 0
-0.018457461 2.2499945 -0.51063919 3
-0.017882375 2.2272809 -0.42512229 14
-0.017288927 2.2012198 -0.34259176 14
-0.017024549 2.2168233 -0.2675035 13
-0.016473452 2.1949496 -0.18869248 16
-0.016055943 2.1902573 -0.11240868 14
-0.015692363 2.192872 -0.037234176 14
-0.015339422 2.1971414 0.57808375 15
-0.014918508 2.191644 0.496766 13
-0.014512063 2.1880383 0.4174965 15
-0.014215812 2.2013013 0.34221393 14
-0.013742172 2.1870692 0.26384711 15
-0.013469565 2.2049325 0.18956374 13
-0.012997637 2.1902583 0.11278398 14
-0.012572896 2.1828871 0.037435409 16
nan nan nan 0
-0.010603404 2.2500451 -0.51063919 3
-0.010107605 2.2273297 -0.42512229 13
-0.0095835803 2.1963279 -0.34180957 14
-0.0092862872 2.2168694 -0.2675035 13
-0.0088115484 2.1949937 -0.18869248 17
-0.0083912471 2.1853068 -0.11214787 15
-0.0080377152 2.1929135 -0.037234176 13
-0.0076530143 2.1923521 0.57679051 15
-0.0072681527 2.1916828 0.496766 13
-0.0068742959 2.1880758 0.4174965 14
-0.0065317508 2.2013373 0.34221393 15
-0.0060939328 2.1821411 0.26323774 15
-0.0057728323 2.2049661 0.18956374 13
-0.0053521297 2.1902902 0.11278398 13
-0.0049531213 2.1829178 0.037435409 16
nan nan nan 0
-0.0027432626 2.2451963 -0.50951445 4
-0.0023327123 2.2273514 -0.42512229 15
-0.001916907 2.1963482 -0.34180957 14
-0.0015479136 2.2168882 -0.2675035 13
-0.0011495363 2.1950111 -0.18869248 16
-0.00076305179 2.185323 -0.11214787 14
-0.00038296916 2.1929283 -0.037234176 14
-2.3092207e-07 2.1923654 0.57679051 15
0.00038229206 2.1916947 0.496766 14
0.000761843 2.1831782 0.41654328 15
0.0011523907 2.2013469 0.34221393 15
0.0015231976 2.1821489 0.26323774 15
0.0019196236 2.1999917 0.18912795 13
0.0022934421 2.1902955 0.11278398 14
0.0026667132 2.1829216 0.037435409 16
nan nan nan 0
0.0050828992 2.2403207 -0.50838971 4
0.0054422091 2.2273459 -0.42512229 14
0.0057497905 2.1963415 -0.34180957 14
0.0061904793 2.2168801 -0.2675035 14
0.0065124892 2.1950018 -0.18869248 17
0.0068494673 2.1803191 -0.11188706 14
0.0072552031 2.187917 -0.037147783 13
0.0076525523 2.1923521 0.57679051 15
0.0080148745 2.1868076 0.49564207 14
0.0083825514 2.183162 0.41654328 15
0.008816693 2.1963909 0.3414326 15
0.0091403099 2.1821303 0.26323774 15
0.009599016 2.1999714 0.18912795 13
0.009938986 2.190274 0.11278398 14
0.010286516 2.1828992 0.037435409 16
nan nan nan 0
0.012874986 2.2354174 -0.50726491 4
0.013187938 2.2224052 -0.42416909 14
0.013416417 2.1963079 -0.34180957 14
0.013897615 2.2118824 -0.26689416 14
0.014174434 2.1949656 -0.18869248 17
0.014460159 2.1802819 -0.11188706 13
0.014892414 2.1878781 -0.037147783 13
0.015305243 2.192312 0.57679051 16
0.015648209 2.1867664 0.49564207 14
0.016003158 2.1831195 0.41654328 15
0.016483475 2.1963468 0.3414326 15
0.016719202 2.1771228 0.26262844 16
0.017278291 2.1999247 0.18912795 13
0.01758441 2.1902261 0.11278398 14
0.017906193 2.1828499 0.037435409 16
nan nan nan 0
0.021068113 2.2353551 -0.50726491 4
0.021333372 2.222342 -0.42416909 14
0.021466197 2.196244 -0.34180957 15
0.022004478 2.2118165 -0.26689416 14
0.022219293 2.1948988 -0.18869248 16
0.022399778 2.1752214 -0.11162625 14
0.022858938 2.1828101 -0.037061393 14
0.023340365 2.1922412 0.57679051 15
0.023663005 2.1866944 0.49564207 13
0.024004584 2.1830463 0.41654328 14
0.024478218 2.1913335 0.34065133 15
0.024698643 2.1770468 0.26262844 15
0.025283929 2.1948659 0.18869218 13
0.025611872 2.1901469 0.11278398 14
0.025847284 2.1777706 0.037348147 17
nan nan nan 0
0.028870828 2.2352679 -0.50726491 4
0.029026419 2.2173462 -0.42321593 15
0.02913239 2.1961558 -0.34180957 14
0.029725023 2.2117262 -0.26689416 14
0.029812977 2.1898274 -0.18825668 17
0.02999258 2.1751299 -0.11162625 13
0.03047823 2.1827171 -0.037061393 14
0.03092429 2.1873169 0.57549721 15
0.031295847 2.1865985 0.49564207 13
0.031624693 2.1829493 0.41654328 15
0.03212725 2.1912346 0.34065133 15
0.032297805 2.1769474 0.26262844 15
0.032945286 2.1947644 0.18869218 13
0.033256754 2.1900442 0.11278398 14
0.03345564 2.1776669 0.037348147 16
nan nan nan 0
0.036673192 2.2351534 -0.50726491 4
0.036766224 2.2172315 -0.42321593 15
0.036798228 2.1960406 -0.34180957 14
0.037445206 2.2116091 -0.26689416 14
0.037456717 2.1897101 -0.18825668 16
0.037585016 2.1750119 -0.11162625 14
0.038097147 2.1825974 -0.037061393 14
0.038559262 2.1871953 0.57549721 15
0.038841587 2.1816049 0.49451819 14
0.03915618 2.177918 0.41559011 14
0.039775889 2.1911092 0.34065133 15
0.039896574 2.1768215 0.26262844 15
0.040606245 2.1946361 0.18869218 12
0.040807985 2.1849222 0.1125223 13
0.041050237 2.1775372 0.037348147 16
nan nan nan 0
0.044475116 2.2350118 -0.50726491 5
0.04440707 2.212182 -0.4222627 15
0.044463612 2.1958988 -0.34180957 15
0.0450636 2.2065032 -0.26628482 14
0.045100003 2.1895659 -0.18825668 16
0.045176998 2.1748676 -0.11162625 13
0.0457156 2.182451 -0.037061393 13
0.046193764 2.1870475 0.57549721 15
0.046456572 2.1814561 0.49451819 14
0.046758294 2.177768 0.41559011 15
0.047424044 2.1909571 0.34065133 15
0.047494851 2.1766689 0.26262844 15
0.048266705 2.1944809 0.18869218 13
0.048434537 2.1847665 0.1125223 13
0.04865101 2.1773806 0.037348147 16
nan nan nan 0
0.052276488 2.234843 -0.50726491 5
0.052128755 2.2120135 -0.4222627 12
0.05212846 2.1957302 -0.34180957 15
0.052765463 2.2063324 -0.26628482 14
0.052742742 2.1893952 -0.18825668 17
0.052768428 2.1746964 -0.11162625 13
0.053333499 2.1822782 -0.037061393 14
0.053827703 2.186873 0.57549721 15
0.054070987 2.1812806 0.49451819 13
0.054359838 2.1775916 0.41559011 15
0.055071622 2.1907783 0.34065133 14
0.055092555 2.1764898 0.26262844 16
0.05592658 2.194299 0.18869218 13
0.055932414 2.1795928 0.11226062 14
0.056251191 2.1771975 0.037348147 16
nan nan nan 0
0.060077228 2.2346468 -0.50726491 5
0.059717048 2.2069118 -0.42130953 13
0.059658233 2.1905985 -0.34102744 15
0.060466677 2.2061348 -0.26628482 15
0.060384836 2.1891978 -0.18825668 17
0.060497757 2.1794903 -0.11188706 13
0.060811155 2.1770813 -0.036975004 14
0.061325293 2.181844 0.57420403 15
0.06168475 2.1810784 0.49451819 14
0.06196072 2.1773884 0.41559011 15
0.062577188 2.1856358 0.33987001 15
0.062689587 2.1762843 0.26262844 15
0.063585773 2.1940904 0.18869218 13
0.063540272 2.1793842 0.11226062 14
0.063704126 2.1719906 0.037260886 16
nan nan nan 0
0.067877233 2.2344236 -0.50726491 5
0.067420244 2.2066898 -0.42130953 13
0.067304485 2.1903768 -0.34102744 16
0.068013869 2.2009499 -0.26567549 14
0.067871481 2.1839952 -0.18782091 17
0.068105228 2.179266 -0.11188706 13
0.068410218 2.1768558 -0.036975004 14
0.068940982 2.1816165 0.57420403 15
0.069297761 2.18085 0.49451819 14
0.069404103 2.1722531 0.41463691 15
0.070206098 2.1854041 0.33987001 15
0.070285857 2.1760521 0.26262844 15
0.071244188 2.193855 0.18869218 11
0.070984423 2.1741586 0.11199894 13
0.071285397 2.1717551 0.037260886 16
nan nan nan 0
0.075841352 2.2390423 -0.50838971 6
0.074955598 2.2015355 -0.42035633 13
0.074781001 2.1851928 -0.34024525 14
0.075696208 2.2006991 -0.26567549 15
0.075494632 2.1837449 -0.18782091 16
0.075711869 2.1790149 -0.11188706 12
0.075833976 2.1716075 -0.036888614 14
0.076555818 2.1813626 0.57420403 15
0.076738194 2.1757257 0.49339426 13
0.076986253 2.1719975 0.41463691 14
0.077834152 2.1851456 0.33987001 15
0.077881269 2.1757934 0.26262844 15
0.07890173 2.193593 0.18869218 12
0.078573219 2.1738975 0.11199894 15
0.078865804 2.1714931 0.037260886 16
nan nan nan 0
0.083656602 2.238764 -0.50838971 6
0.082639933 2.2012606 -0.42035633 14
0.082408294 2.1849184 -0.34024525 15
0.083377615 2.2004216 -0.26567549 15
0.083116859 2.1834681 -0.18782091 15
0.083317593 2.1787374 -0.11188706 13
0.083413839 2.1713297 -0.036888614 13
0.084169731 2.1810822 0.57420403 15
0.084332429 2.1754446 0.49339426 13
0.08456748 2.1717155 0.41463691 14
0.085268229 2.1799257 0.33908868 15
0.085280888 2.1705494 0.26201907 14
0.086558327 2.1933043 0.18869218 12
0.085963286 2.1686208 0.11173727 14
0.08644525 2.1712046 0.037260886 16
nan nan nan 0
0.091470838 2.2384584 -0.50838971 5
0.090122007 2.1960545 -0.41940317 13
0.089831218 2.179683 -0.33946306 15
0.091058016 2.2001171 -0.26567549 15
0.090738088 2.1831648 -0.18782091 17
0.090922303 2.1784332 -0.11188706 12
0.090992689 2.1710253 -0.036888614 15
0.091782615 2.1807752 0.57420403 15
0.091925621 2.1751368 0.49339426 13
0.092147663 2.1714072 0.41463691 14
0.092877075 2.1796148 0.33908868 14
0.092856996 2.1702385 0.26201907 15
0.094213858 2.1929889 0.18869218 13
0.093532652 2.1683075 0.11173727 14
0.094023637 2.1708896 0.037260886 17
nan nan nan 0
0.099068046 2.233258 -0.50726491 6
0.097787112 2.1957266 -0.41940317 14
0.097439192 2.1793561 -0.33946306 15
0.098959826 2.2047436 -0.26628482 13
0.098358199 2.1828346 -0.18782091 16
0.098525897 2.1781027 -0.11188706 12
0.098570421 2.1706944 -0.036888614 14
0.099394381 2.1804414 0.57420403 16
0.099517711 2.1748028 0.49339426 13
0.099726729 2.1710722 0.41463691 15
0.10048478 2.1792774 0.33908868 15
0.10020253 2.1649437 0.26140973 15
0.10186824 2.1926465 0.18869218 14
0.10110089 2.1679678 0.11173727 14
0.10136713 2.1655543 0.037173621 16
nan nan nan 0
0.10686296 2.2328987 -0.50726491 7
0.10545103 2.1953719 -0.41940317 14
0.10504597 2.1790028 -0.33946306 16
0.10665522 2.2043846 -0.26628482 14
0.10597711 2.182478 -0.18782091 16
0.1061283 2.1777453 -0.11188706 12
0.10639117 2.1753302 -0.036975004 11
0.10700493 2.1800811 0.57420403 15
0.10710859 2.1744421 0.49339426 14
0.10730458 2.170711 0.41463691 14
0.10809126 2.1789134 0.33908868 15
0.10775898 2.1645808 0.26140973 15
0.10952139 2.1922777 0.18869218 11
0.1086679 2.1676018 0.11173727 14
0.1089257 2.1651874 0.037173621 14
nan nan nan 0
0.11465658 2.232512 -0.50726491 7
0.11311367 2.1949904 -0.41940317 14
0.11265147 2.1786227 -0.33946306 15
0.11434931 2.203999 -0.26628482 14
0.11333578 2.1771202 -0.18738513 16
0.11346895 2.1723752 -0.11162625 13
0.11398384 2.1749456 -0.036975004 12
0.11461419 2.1796944 0.57420403 15
0.11469815 2.1740551 0.49339426 12
0.11462166 2.1654215 0.41368371 14
0.11569644 2.1785226 0.33908868 14
0.11531412 2.1641915 0.26140973 16
0.1171732 2.1918819 0.18869218 11
0.11623357 2.1672091 0.11173727 14
0.11648295 2.1647937 0.037173621 16
nan nan nan 0
0.12244881 2.2320981 -0.50726491 7
0.12077492 2.194582 -0.41940317 15
0.12025559 2.1782162 -0.33946306 15
0.12176757 2.1986313 -0.26567549 14
0.12093465 2.1767113 -0.18738513 16
