# .PCD v0.7 - Point Cloud Data file format
VERSION 0.7
FIELDS x y z intensity
SIZE 4 4 4 4
TYPE F F F F
COUNT 1 1 1 1
WIDTH 1362
HEIGHT 1
VIEWPOINT 0 0 0 1 0 0 0
POINTS 1362
DATA ascii
0.07406354 2.1753347 -0.33868089 15
0.075142369 2.1957524 -0.26506612 15
0.074771039 2.1738019 -0.18694936 15
0.074986532 2.1690476 -0.11136544 14
0.075454958 2.1716208 -0.036888614 16
0.075837977 2.1717222 0.57161748 15
0.076187573 2.1708698 0.49227038 15
0.076434158 2.1671054 0.41368371 14
0.077102885 2.1752882 0.33830738 14
0.076971538 2.1609282 0.26080036 13
0.078340694 2.1886287 0.1882564 16
0.078014307 2.1689212 0.11173727 13
0.078125663 2.161515 0.037086364 16
nan nan nan 0
0.082179442 2.2095675 -0.50164115 4
0.081889175 2.1914651 -0.41844994 13
0.081656419 2.1750631 -0.33868089 14
0.082619481 2.1905174 -0.26445675 15
0.082358561 2.1735277 -0.18694936 15
0.082557455 2.1687727 -0.11136544 14
0.082843833 2.1663487 -0.036802221 15
0.083418243 2.1714442 0.57161748 15
0.083576977 2.1657224 0.49114645 15
0.0839983 2.1668255 0.41368371 14
0.084695593 2.1750057 0.33830738 14
0.084514119 2.1606464 0.26080036 14
0.085979953 2.1883419 0.1882564 16
0.08558479 2.1686356 0.11173727 13
0.085670285 2.1612291 0.037086364 16
nan nan nan 0
0.089891762 2.2092674 -0.50164115 5
0.089538313 2.1911659 -0.41844994 13
0.089248314 2.1747646 -0.33868089 14
0.090265304 2.1902158 -0.26445675 15
0.089739114 2.1682501 -0.18651357 15
0.089920036 2.1634824 -0.11110463 14
0.0904053 2.1660461 -0.036802221 15
0.090997487 2.1711397 0.57161748 15
0.091136247 2.1654174 0.49114645 15
0.091561414 2.1665189 0.41368371 15
0.092287265 2.1746967 0.33830738 14
0.092055663 2.1603382 0.26080036 14
0.093618169 2.1880286 0.1882564 16
0.093154214 2.1683238 0.11173727 13
0.093213856 2.160917 0.037086364 16
nan nan nan 0
0.097603001 2.20894 -0.50164115 5
0.097186372 2.19084 -0.41844994 13
0.096839108 2.1744399 -0.33868089 14
0.097910039 2.1898873 -0.26445675 15
0.097307168 2.1679237 -0.18651357 15
0.097471446 2.1631553 -0.11110463 14
0.097965658 2.1657176 -0.036802221 15
0.098575629 2.1708088 0.57161748 15
0.098694406 2.165086 0.49114645 15
0.099123426 2.1661863 0.41368371 15
0.099877812 2.1743615 0.33830738 14
0.099596091 2.1600039 0.26080036 15
0.10125525 2.1876884 0.1882564 17
0.10049078 2.1629975 0.11147558 13
0.1007563 2.1605785 0.037086364 17
nan nan nan 0
0.10477243 2.2134888 -0.50276589 5
0.10406861 2.1905239 -0.41844994 14
0.10366983 2.174125 -0.33868089 14
0.10478927 2.189569 -0.26445675 16
0.10411742 2.1676073 -0.18651357 15
0.10402627 2.157851 -0.11084383 14
0.10476896 2.1653991 -0.036802221 16
0.10539492 2.1704884 0.57161748 16
0.10549574 2.1647654 0.49114645 15
0.10568845 2.1609619 0.41273054 15
0.10646615 2.1691043 0.33752605 14
0.10613729 2.1547234 0.26019105 15
0.10812756 2.1873596 0.1882564 16
0.10728553 2.1626711 0.11147558 13
0.10729486 2.1552579 0.036999099 16
nan nan nan 0
0.11249831 2.2131095 -0.50276589 5
0.11146428 2.1852453 -0.4174968 14
0.11100587 2.1688178 -0.3378987 15
0.11243165 2.1891899 -0.26445675 15
0.11142681 2.1622565 -0.1860778 14
0.11155795 2.1574748 -0.11084383 14
0.11206796 2.1600277 -0.036715835 15
0.11271961 2.1652842 0.57032424 16
0.11305153 2.1643839 0.49114645 15
0.11323097 2.1605799 0.41273054 14
0.11403709 2.1687193 0.33752605 15
0.11365803 2.15434 0.26019105 14
0.11549894 2.1819949 0.18782063 16
0.11483401 2.1622834 0.11147558 14
0.11481746 2.1548703 0.036999099 16
nan nan nan 0
0.12060901 2.2126822 -0.50276589 6
0.11947286 2.1848221 -0.4174968 14
0.11895424 2.1683962 -0.3378987 14
0.12045468 2.1887629 -0.26445675 15
0.11935113 2.1618335 -0.1860778 15
0.11946473 2.1570513 -0.11084383 14
0.11998411 2.1596024 -0.036715835 16
0.12065502 2.1648564 0.57032424 15
0.12098364 2.163955 0.49114645 15
0.12114912 2.1601503 0.41273054 15
0.12170769 2.1633563 0.33674476 15
0.12155332 2.153909 0.26019105 14
0.12349556 2.1815569 0.18782063 17
0.1227584 2.1618481 0.11147558 13
0.12271469 2.1544352 0.036999099 16
nan nan nan 0
0.12833197 2.2122478 -0.50276589 6
0.12709859 2.1843917 -0.4174968 14
0.12652263 2.1679678 -0.3378987 14
0.12809417 2.1883292 -0.26445675 15
0.1268966 2.1614039 -0.1860778 15
0.12699352 2.1566212 -0.11084383 14
0.12752178 2.1591704 -0.036715835 15
0.12821104 2.164422 0.57032424 15
0.12853651 2.1635194 0.49114645 15
0.12868872 2.1597142 0.41273054 14
0.12925848 2.1629183 0.33674476 14
0.1287742 2.1485174 0.25958169 14
0.13110986 2.1811125 0.18782063 16
0.13030392 2.1614065 0.11147558 14
0.12993929 2.149003 0.036911838 16
nan nan nan 0
0.13643941 2.2117627 -0.50276589 7
0.13510393 2.1839113 -0.4174968 15
0.13446778 2.1674895 -0.3378987 14
0.13580579 2.1828918 -0.26384741 16
0.13481769 2.1609242 -0.1860778 15
0.13489708 2.1561413 -0.11084383 14
0.13512164 2.1536989 -0.036629442 15
0.13614319 2.1639376 0.57032424 14
0.13646534 2.1630337 0.49114645 15
0.13660359 2.1592281 0.41273054 14
0.1371851 2.16243 0.33674476 14
0.13664803 2.148031 0.25958169 14
0.13910316 2.1806173 0.18782063 17
0.13822499 2.1609144 0.11147558 13
0.13780825 2.1485128 0.036911838 17
nan nan nan 0
0.14415906 2.211273 -0.50276589 7
0.14240623 2.1785285 -0.41654357 15
0.14203291 2.167007 -0.3378987 14
0.14342466 2.1824045 -0.26384741 16
0.1426874 2.1654105 -0.18651357 15
0.1424226 2.1556573 -0.11084383 14
0.14263864 2.1532142 -0.036629442 15
0.14369591 2.163449 0.57032424 16
0.14401491 2.1625443 0.49114645 16
0.14413987 2.1587381 0.41273054 15
0.14473256 2.161938 0.33674476 15
0.14414524 2.147541 0.25958169 13
0.14637963 2.1751487 0.18738484 16
0.14576715 2.1604187 0.11147558 14
0.14531377 2.1480184 0.036911838 17
nan nan nan 0
0.15187697 2.2107563 -0.50276589 7
0.15000984 2.1780181 -0.41654357 15
0.14925613 2.1615715 -0.33711654 14
0.15104179 2.1818907 -0.26384741 15
0.15024523 2.1648991 -0.18651357 15
0.14994638 2.1551471 -0.11084383 14
0.15015389 2.1527033 -0.036629442 16
0.15124688 2.1629343 0.57032424 15
0.15156271 2.1620283 0.49114645 15
0.1516744 2.1582217 0.41273054 15
0.15227824 2.1614196 0.33674476 15
0.15164067 2.1470249 0.25958169 15
0.15397143 2.1746244 0.18738484 17
0.15330753 2.1598966 0.11147558 13
0.15280421 2.1474984 0.036911838 16
nan nan nan 0
0.15959302 2.2102125 -0.50276589 8
0.15761162 2.1774812 -0.41654357 16
0.15680051 2.1610372 -0.33711654 15
0.1586571 2.18135 -0.26384741 15
0.15743902 2.159394 -0.1860778 15
0.15746832 2.1546104 -0.11084383 14
0.15766729 2.1521659 -0.036629442 15
0.15844227 2.1575763 0.569031 15
0.15875103 2.1566274 0.49002257 14
0.1588459 2.1527843 0.41177732 14
0.15982208 2.1608748 0.33674476 15
0.15913427 2.1464822 0.25958169 14
0.16156135 2.1740737 0.18738484 17
0.16084604 2.1593485 0.11147558 13
0.16029944 2.1469519 0.036911838 16
0.14515468 1.9260024 -0.50728554 3
0.16653581 2.2097003 -0.50276589 8
0.16445158 2.1769753 -0.41654357 15
0.16358882 2.1605339 -0.33711654 15
0.16550921 2.180841 -0.26384741 15
0.16422218 2.1588886 -0.1860778 15
0.16385685 2.1491263 -0.11058301 15
0.16442776 2.15166 -0.036629442 15
0.16521971 2.157068 0.569031 15
0.16552548 2.1561182 0.49002257 15
0.16560827 2.1522746 0.41177732 15
0.16660987 2.1603622 0.33674476 15
0.16587684 2.1459718 0.25958169 13
0.1683906 2.1735554 0.18738484 17
0.16724248 2.1538544 0.11121391 14
0.16704349 2.1464376 0.036911838 16
0.15154074 1.9255105 -0.50728554 3
0.17424808 2.2091055 -0.50276589 8
0.17204966 2.176388 -0.41654357 15
0.17112949 2.1599498 -0.33711654 14
0.17312077 2.1802499 -0.26384741 15
0.1717571 2.1583023 -0.1860778 15
0.17135771 2.1485412 -0.11058301 14
0.17193745 2.151073 -0.036629442 16
0.17274828 2.1564779 0.569031 15
0.17266083 2.1506705 0.48889863 15
0.1731201 2.1516833 0.41177732 15
0.17414992 2.1597674 0.33674476 15
0.17336667 2.1453798 0.25958169 14
0.17557463 2.16799 0.18694907 17
0.17475982 2.1532576 0.11121391 14
0.17453495 2.1458416 0.036911838 16
0.15853564 1.9201012 -0.50599146 3
0.18272915 2.2084203 -0.50276589 9
0.1804051 2.1757114 -0.41654357 15
0.17942183 2.1592767 -0.33711654 14
0.18149103 2.179569 -0.26384741 15
0.17962889 2.152663 -0.185642 15
0.17960623 2.1478674 -0.11058301 14
0.18019567 2.1503968 -0.036629442 15
0.18102726 2.1557989 0.569031 15
0.18091752 2.1499918 0.48889863 15
0.18096825 2.1461117 0.41082415 15
0.18202569 2.1541615 0.33596343 14
0.18160303 2.1446981 0.25958169 14
0.18389782 2.1672997 0.18694907 17
0.1826034 2.1475954 0.11095222 14
0.18277307 2.1451554 0.036911838 16
0.16440865 1.9099123 -0.50340325 3
0.19085556 2.2126229 -0.50389069 9
0.18799864 2.1750684 -0.41654357 15
0.18695801 2.1586373 -0.33711654 15
0.18909805 2.1789224 -0.26384741 15
0.187142 2.1520228 -0.185642 15
0.18710259 2.1472275 -0.11058301 15
0.18770087 2.1497548 -0.036629442 16
0.18855129 2.1551538 0.569031 16
0.18842128 2.1493471 0.48889863 15
0.18845847 2.145467 0.41082415 15
0.18954401 2.153513 0.33596343 15
0.18865237 2.1391079 0.25897235 14
0.19146198 2.1666446 0.18694907 17
0.19009881 2.1469448 0.11095222 14
0.18982479 2.1395242 0.036824573 17
0.1719365 1.9189477 -0.50599146 3
0.1985779 2.2119431 -0.50389069 9
0.1955899 2.1743989 -0.41654357 16
0.19449192 2.1579714 -0.33711654 14
0.19670275 2.1782489 -0.26384741 15
0.19420399 2.1463957 -0.18520623 14
0.19459668 2.1465614 -0.11058301 15
0.19520377 2.1490865 -0.036629442 16
0.19607304 2.1544826 0.569031 15
0.19592275 2.1486762 0.48889863 15
0.19594641 2.1447961 0.41082415 15
0.19706 2.1528382 0.33596343 15
0.1961181 2.1384363 0.25897235 14
0.19902381 2.1659632 0.18694907 17
0.19759189 2.1462681 0.11095222 13
0.19728532 2.138849 0.036824573 17
0.17863384 1.9183358 -0.50599146 3
0.2062978 2.2112367 -0.50389069 10
0.20317878 2.173703 -0.41654357 16
0.201563 2.1523623 -0.33633435 15
0.20430505 2.1775489 -0.26384741 15
0.20169513 2.1457047 -0.18520623 15
0.20208839 2.1458688 -0.11058301 15
0.2022347 2.143415 -0.036543053 15
0.20359239 2.153785 0.569031 15
0.20342185 2.1479793 0.48889863 15
0.20343195 2.144099 0.41082415 14
0.2045736 2.1521373 0.33596343 15
0.20358144 2.1377387 0.25897235 14
0.20658322 2.1652551 0.18694907 17
0.20508254 2.1455655 0.11095222 14
0.20475009 2.1381474 0.036824573 16
0.18579355 1.9225076 -0.50728554 3
0.2140152 2.2105031 -0.50389069 10
0.21076518 2.1729805 -0.41654357 16
0.20907491 2.1516457 -0.33633435 14
0.21142402 2.1718831 -0.26323807 16
0.2091838 2.1449876 -0.18520623 15
0.20909213 2.1401811 -0.11032221 14
0.20971538 2.1426959 -0.036543053 15
0.21063796 2.1482544 0.5677377 16
0.21091844 2.1472561 0.48889863 15
0.21091501 2.1433759 0.41082415 15
0.21208473 2.1514101 0.33596343 15
0.2110423 2.1370151 0.25897235 14
0.21414012 2.1645207 0.18694907 16
0.21257071 2.1448367 0.11095222 13
0.21221237 2.1374197 0.036824573 17
0.19298458 1.926653 -0.50857961 3
0.22172999 2.2097425 -0.50389069 10
0.21785814 2.1673481 -0.41559041 16
0.2165843 2.1509027 -0.33633435 14
0.21900402 2.1711318 -0.26323807 15
0.21666993 2.1442444 -0.18520623 15
0.21656147 2.1394382 -0.11032221 14
0.21719351 2.1419508 -0.036543053 15
0.21813546 2.147506 0.5677377 15
0.21841249 2.1465068 0.48889863 15
0.21789777 2.1377437 0.40987095 14
0.21959326 2.1506567 0.33596343 15
0.21799561 2.1313283 0.25836298 14
0.22169441 2.1637602 0.18694907 16
0.22005631 2.1440814 0.11095222 14
0.21967207 2.1366658 0.036824573 16
0.19937253 1.9260025 -0.50857961 3
0.22816932 2.2041888 -0.50276589 10
0.22466597 2.1666529 -0.41559041 16
0.22334045 2.1502118 -0.33633435 15
0.22582375 2.170433 -0.26323807 15
0.2234052 2.1435533 -0.18520623 15
0.22328164 2.138747 -0.11032221 14
0.22392155 2.141258 -0.036543053 15
0.22437781 2.1420066 0.56644452 15
0.22515485 2.1458101 0.48889863 15
0.22461261 2.1370485 0.40987095 15
0.22634864 2.1499562 0.33596343 15
0.22469029 2.1306329 0.25836298 14
0.22849095 2.163053 0.18694907 16
0.22679102 2.1433794 0.11095222 13
0.22638351 2.1359651 0.036824573 17
0.20575829 1.9253308 -0.50857961 3
0.23586199 2.2033789 -0.50276589 10
0.23222764 2.1658554 -0.41559041 15
0.23084474 2.1494191 -0.33633435 15
0.23339859 2.1696317 -0.26323807 15
0.23088622 2.1427603 -0.18520623 14
0.2307459 2.1379547 -0.11032221 15
0.23139459 2.1404631 -0.036543053 15
0.23185344 2.1412106 0.56644452 15
0.23264374 2.1450109 0.48889863 15
0.23207094 2.1362514 0.40987095 14
0.23385201 2.1491528 0.33596343 15
0.23212622 2.1298356 0.25836298 13
0.23604003 2.1622424 0.18694907 16
0.23427145 2.1425748 0.11095222 14
0.23383804 2.1351619 0.036824573 16
0.21281359 1.9245636 -0.50857961 4
0.24393621 2.2024996 -0.50276589 10
0.24016432 2.1649899 -0.41559041 16
0.23872121 2.1485584 -0.33633435 15
0.24134913 2.1687615 -0.26323807 15
0.23873828 2.1418996 -0.18520623 15
0.23858033 2.1370945 -0.11032221 15
0.23923822 2.1396008 -0.036543053 15
0.23969983 2.1403463 0.56644452 15
0.24050404 2.1441438 0.48889863 15
0.23989914 2.1353865 0.40987095 15
0.24172747 2.1482813 0.33596343 15
0.2399309 2.1289706 0.25836298 14
0.24396344 2.1613626 0.18694907 16
0.2421228 2.1417017 0.11095222 13
0.24166223 2.1342907 0.036824573 16
0.21953027 1.9238091 -0.50857961 4
0.25162289 2.2016346 -0.50276589 10
0.24772009 2.1641383 -0.41559041 15
0.24621962 2.1477122 -0.33633435 15
0.24891804 2.1679058 -0.26323807 15
0.24621344 2.1410532 -0.18520623 15
0.24603873 2.1362488 -0.11032221 14
0.24613248 2.1337862 -0.036456663 15
0.24716955 2.1394966 0.56644452 15
0.24798703 2.1432915 0.48889863 14
0.24735157 2.134536 0.40987095 14
0.24922492 2.1474245 0.33596343 15
0.24736091 2.1281202 0.25836298 14
0.25150654 2.1604979 0.18694907 16
0.24959727 2.1408436 0.11095222 14
0.2491108 2.1334341 0.036824573 16
0.22657992 1.9229915 -0.50857961 4
0.25969058 2.2006977 -0.50276589 10
0.2556504 2.1632159 -0.41559041 16
0.25408971 2.1467953 -0.33633435 14
0.25686213 2.1669791 -0.26323807 15
0.25405914 2.1401365 -0.18520623 15
0.25386682 2.1353326 -0.11032221 14
0.25395152 2.1328697 -0.036456663 16
0.25500953 2.1385763 0.56644452 15
0.25584093 2.1423681 0.48889863 15
0.25517339 2.1336153 0.40987095 15
0.25709394 2.1464965 0.33596343 14
0.25515923 2.1271992 0.25836298 13
0.25942346 2.1595616 0.18694907 16
0.25744218 2.1399145 0.11095222 13
0.25692856 2.1325066 0.036824573 17
0.23270914 1.9173944 -0.50728554 4
0.26737085 2.1997778 -0.50276589 10
0.26319987 2.1623101 -0.41559041 16
0.2615819 2.1458952 -0.33633435 14
0.26382342 2.1611433 -0.26262873 15
0.26152807 2.1392367 -0.18520623 15
0.26131898 2.1344335 -0.11032221 14
0.2613951 2.1319702 -0.036456663 15
0.26247302 2.1376731 0.56644452 15
0.26331764 2.1414618 0.48889863 15
0.26261953 2.1327114 0.40987095 15
0.26458505 2.1455863 0.33596343 15
0.26258296 2.1262956 0.25836298 14
0.26696014 2.1586428 0.18694907 16
0.26429659 2.1340473 0.11069055 13
0.26376215 2.1266348 0.036737315 16
0.23940068 1.9165705 -0.50728554 4
0.2750479 2.1988311 -0.50276589 10
0.27013603 2.156508 -0.41463721 16
0.26907086 2.1449692 -0.33633435 15
0.27136561 2.1602092 -0.26262873 15
0.2696155 2.1432528 -0.185642 15
0.26876795 2.1335082 -0.11032221 14
0.26883546 2.1310449 -0.036456663 15
0.26993328 2.1367438 0.56644452 15
0.27079111 2.1405299 0.48889863 15
0.27006248 2.1317818 0.40987095 15
0.27145144 2.1397505 0.33518213 15
0.2693781 2.1204429 0.25775367 14
0.27449358 2.1576979 0.18694907 16
0.27174419 2.1331117 0.11069055 13
0.27117726 2.1257019 0.036737315 17
0.24608929 1.9157231 -0.50728554 4
0.28272155 2.1978576 -0.50276589 10
0.27766198 2.1555517 -0.41463721 15
0.27655658 2.1440167 -0.33633435 14
0.2789045 2.1592488 -0.26262873 15
0.2770952 2.1422985 -0.185642 15
0.27621365 2.1325572 -0.11032221 14
0.27627257 2.1300933 -0.036456663 15
0.27676818 2.1309988 0.56515121 15
0.2782613 2.1395714 0.48889863 15
0.27750215 2.130826 0.40987095 14
0.27891889 2.1387899 0.33518213 15
0.27677816 2.1194897 0.25775367 14
0.28202367 2.1567266 0.18694907 16
0.27854019 2.1271994 0.11042886 13
0.27859572 2.1247425 0.036737315 16
0.25277492 1.9148524 -0.50728554 4
0.29039183 2.1968575 -0.50276589 11
0.28454053 2.1497035 -0.41368398 15
0.28339002 2.1381428 -0.33555222 15
0.28643996 2.158262 -0.26262873 15
0.28457153 2.1413183 -0.185642 15
0.283656 2.1315799 -0.11032221 14
0.28370631 2.1291161 -0.036456663 15
0.28420508 2.1300197 0.56515121 15
0.28508294 2.1337578 0.48777473 15
0.28493842 2.1298444 0.40987095 15
0.28638294 2.1378031 0.33518213 15
0.28417489 2.1185105 0.25775367 14
0.28955036 2.1557291 0.18694907 16
0.2859638 2.126214 0.11042886 14
0.28601074 2.1237571 0.036737315 16
0.25945747 1.9139584 -0.50728554 4
0.29805851 2.1958303 -0.50276589 11
0.29204267 2.1486971 -0.41368398 15
0.29085183 2.1371405 -0.33555222 15
0.29397196 2.157249 -0.26262873 15
0.2920444 2.140312 -0.185642 14
0.29109484 2.1305768 -0.11032221 14
0.29113656 2.1281128 -0.036456663 16
0.29163849 2.1290147 0.56515121 15
0.29252937 2.1327498 0.48777473 15
0.2917034 2.1239741 0.40891778 15
0.29384354 2.1367905 0.33518213 14
0.29156816 2.1175058 0.25775367 14
0.29707348 2.154705 0.18694907 16
0.29338396 2.1252029 0.11042886 14
0.29342228 2.1227458 0.036737315 16
0.26680234 1.9178247 -0.50857961 4
0.30572158 2.1947765 -0.50276589 11
0.29954123 2.1476648 -0.41368398 16
0.29831004 2.1361122 -0.33555222 15
0.30150038 2.1562099 -0.26262873 15
0.29882306 2.1343465 -0.18520623 15
0.29783699 2.124603 -0.1100614 14
0.2985633 2.1270835 -0.036456663 15
0.29906833 2.1279836 0.56515121 15
0.29997227 2.1317158 0.48777473 15
0.29911566 2.1229429 0.40891778 14
0.30130053 2.1357517 0.33518213 15
0.29965195 2.1213889 0.25836298 14
0.30389547 2.1487231 0.18651327 16
0.3008005 2.1241658 0.11042886 13
0.30083027 2.1217086 0.036737315 16
0.27349517 1.9168817 -0.50857961 4
0.3133809 2.193696 -0.50276589 10
0.30703616 2.146606 -0.41368398 15
0.30576468 2.1350579 -0.33555222 14
0.30902511 2.1551442 -0.26262873 15
0.30627149 2.1332905 -0.18520623 15
0.30525142 2.1235502 -0.1100614 14
0.30598637 2.1260283 -0.036456663 15
0.3071835 2.1317074 0.56644452 15
0.30741152 2.1306555 0.48777473 15
0.30652431 2.121886 0.40891778 14
0.30875388 2.1346869 0.33518213 15
0.30705515 2.1203301 0.25836298 14
0.31139407 2.147649 0.18651327 16
0.30821338 2.1231029 0.11042886 13
0.30823457 2.1206455 0.036737315 16
0.28088352 1.9206941 -0.50987375 4
0.3210364 2.1925888 -0.50276589 10
0.31452733 2.1455212 -0.41368398 15
0.31321555 2.1339777 -0.33555222 15
0.31654608 2.1540525 -0.26262873 14
0.3137162 2.1322083 -0.18520623 14
0.31266212 2.1224718 -0.1100614 14
0.31340575 2.1249473 -0.036456663 15
0.31462267 2.1306221 0.56644452 15
0.31484705 2.1295695 0.48777473 15
0.31392917 2.1208029 0.40891778 15
0.31620345 2.1335962 0.33518213 15
0.31445462 2.1192453 0.25836298 14
0.31888884 2.146549 0.18651327 16
0.31562254 2.122014 0.11042886 14
0.31563514 2.1195567 0.036737315 16
0.2883018 1.9244783 -0.51116782 4
0.32868803 2.1914546 -0.50276589 11
0.32201469 2.1444101 -0.41368398 15
0.32066262 2.1328714 -0.33555222 15
0.32406321 2.1529343 -0.26262873 15
0.32115707 2.1311002 -0.18520623 14
0.32006904 2.1213675 -0.1100614 14
0.32082129 2.1238403 -0.036456663 15
0.32205802 2.1295111 0.56644452 16
0.32227871 2.1284575 0.48777473 15
0.32133025 2.1196942 0.40891778 14
0.32364914 2.1324794 0.33518213 14
0.32185024 2.1181347 0.25836298 14
0.32637978 2.1454229 0.18651327 16
0.32302779 2.1208994 0.11042886 14
0.32303184 2.1184421 0.036737315 17
0.29648215 1.933008 -0.51375604 4
0.33559623 2.1854789 -0.50164115 12
0.32949811 2.1432731 -0.41368398 16
0.32810575 2.1317389 -0.33555222 15
0.33157641 2.1517899 -0.26262873 15
0.32859409 2.1299663 -0.18520623 14
0.32747203 2.1202374 -0.1100614 14
0.32823291 2.1227076 -0.036456663 15
0.32948941 2.1283739 0.56644452 15
0.32970643 2.1273196 0.48777473 15
0.32872739 2.1185596 0.40891778 14
0.33033285 2.1264567 0.3344008 15
0.32847929 2.1120946 0.25775367 15
0.33386672 2.1442704 0.18651327 16
0.33042917 2.1197588 0.11042886 13
0.33042464 2.1173015 0.036737315 16
0.30247894 1.9271898 -0.5124619 4
0.34322292 2.184294 -0.50164115 12
0.33697751 2.1421099 -0.41368398 16
0.33554494 2.1305807 -0.33555222 15
0.33831257 2.1457171 -0.26201937 15
0.33602703 2.1288061 -0.18520623 14
0.33487105 2.1190813 -0.1100614 14
0.33564055 2.1215489 -0.036456663 15
0.33691683 2.1272106 0.56644452 15
0.33713016 2.1261559 0.48777473 15
0.33612055 2.1173995 0.40891778 15
0.33775353 2.1252906 0.3344008 15
0.33584988 2.1109352 0.25775367 13
0.3413496 2.1430919 0.18651327 16
0.33782649 2.1185925 0.11042886 13
0.33781338 2.1161351 0.036737315 16
0.30920422 1.9261223 -0.5124619 4
0.35084543 2.1830826 -0.50164115 12
0.34523252 2.1457665 -0.41463721 15
0.34298 2.1293964 -0.33555222 15
0.34580046 2.1445231 -0.26201937 15
0.34345591 2.1276202 -0.18520623 14
0.34226599 2.1178994 -0.1100614 14
0.34304407 2.1203644 -0.036456663 15
0.34356791 2.1212537 0.56515121 15
0.3445498 2.1249659 0.48777473 14
0.34350961 2.1162131 0.40891778 15
0.34517011 2.1240988 0.3344008 15
0.34321639 2.10975 0.25775367 14
0.34882829 2.1418874 0.18651327 16
0.3452197 2.1174006 0.11042886 13
0.34519801 2.114943 0.036737315 16
0.31592575 1.9250312 -0.5124619 4
0.35767379 2.1770372 -0.50051636 11
0.35272053 2.1445484 -0.41463721 15
0.35041088 2.1281862 -0.33555222 15
0.35328412 2.1433032 -0.26201937 15
0.35088059 2.1264083 -0.18520623 14
0.34965676 2.1166918 -0.1100614 14
0.34962782 2.114222 -0.036370274 15
0.35097036 2.1200416 0.56515121 14
0.35196519 2.1237504 0.48777473 15
0.35169786 2.1198432 0.40987095 15
0.35258251 2.1228809 0.3344008 15
0.3505787 2.1085391 0.25775367 14
0.35548493 2.1357434 0.18607752 16
0.35260871 2.1161826 0.11042886 13
0.35175592 2.1087942 0.03665005 17
0.32264346 1.9239167 -0.5124619 4
0.36527091 2.1757753 -0.50051636 11
0.36020425 2.1433041 -0.41463721 15
0.3578375 2.12695 -0.33555222 14
0.36076349 2.1420567 -0.26201937 15
0.35830098 2.1251707 -0.18520623 15
0.35704327 2.1154585 -0.1100614 14
0.35700572 2.1129885 -0.036370274 15
0.35836855 2.1188035 0.56515121 15
0.35937631 2.1225088 0.48777473 14
0.35909534 2.1186028 0.40987095 14
0.3599906 2.1216373 0.3344008 15
0.35793674 2.1073024 0.25775367 14
0.36377284 2.1394 0.18651327 16
0.35999343 2.1149387 0.11042886 13
0.35911483 2.1075535 0.03665005 16
0.32935721 1.9227788 -0.5124619 4
0.37286356 2.1744871 -0.50051636 11
0.36768359 2.1420336 -0.41463721 15
0.3652598 2.1256881 -0.33555222 14
0.36823848 2.1407845 -0.26201937 15
0.36571705 2.1239069 -0.18520623 15
0.36357725 2.1092787 -0.10980059 14
0.36437923 2.1117296 -0.036370274 15
0.36576235 2.1175396 0.56515121 15
0.36678308 2.1212416 0.48777473 14
0.36648846 2.1173365 0.40987095 14
0.36739433 2.1203678 0.3344008 15
0.3652904 2.1060402 0.25775367 14
0.37123856 2.1381171 0.18651327 16
0.3673737 2.1136694 0.11042886 13
0.36646938 2.1062872 0.03665005 16
0.33606696 1.9216174 -0.5124619 3
0.38129184 2.1779714 -0.50164115 12
0.37515843 2.1407371 -0.41463721 16
0.37267756 2.1244001 -0.33555222 15
0.37570897 2.1394861 -0.26201937 15
0.37312865 2.1226175 -0.18520623 14
0.37093776 2.1079967 -0.10980059 15
0.37174833 2.1104448 -0.036370274 15
0.37315175 2.11625 0.56515121 15
0.37418535 2.1199481 0.48777473 15
0.37302309 2.1112108 0.40891778 15
0.37479353 2.1190722 0.3344008 14
0.37263966 2.1047523 0.25775367 14
0.37869969 2.1368082 0.18651327 17
0.37474957 2.1123741 0.11042886 14
0.37381944 2.104995 0.03665005 16
0.34362122 1.9251872 -0.51375604 4
0.38889205 2.1766272 -0.50164115 12
0.38176456 2.134583 -0.41368398 16
0.37922058 2.1182251 -0.33477002 14
0.38405031 2.1430466 -0.26262873 14
0.38053569 2.1213021 -0.18520623 15
0.37829381 2.106689 -0.10980059 14
0.3791129 2.1091342 -0.036370274 15
0.38053656 2.1149347 0.56515121 15
0.38158306 2.1186292 0.48777473 15
0.38039032 2.1098959 0.40891778 15
0.3821882 2.1177511 0.3344008 15
0.37998432 2.1034386 0.25775367 14
0.38615623 2.1354735 0.18651327 17
0.38212088 2.111053 0.11042886 13
0.381165 2.1036775 0.03665005 16
0.35033929 1.9239761 -0.51375604 4
0.39648753 2.1752563 -0.50164115 12
0.38921332 2.1332374 -0.41368398 16
0.38661227 2.1168885 -0.33477002 14
0.39152861 2.1416929 -0.26262873 15
0.38793808 2.1199608 -0.18520623 14
0.38564521 2.1053557 -0.10980059 15
0.38647282 2.1077981 -0.036370274 15
0.38791674 2.1135933 0.56515121 15
0.38897616 2.1172843 0.48777473 15
0.38775289 2.1085551 0.40891778 15
0.38957819 2.1164041 0.3344008 15
0.38732439 2.1020994 0.25775367 14
0.39360806 2.1341124 0.18651327 16
0.38948748 2.1097064 0.11042886 14
0.38850585 2.102334 0.03665005 16
0.3570531 1.9227414 -0.51375604 4
0.40318781 2.1690691 -0.50051636 12
0.39665735 2.1318657 -0.41368398 16
0.39399922 2.1155262 -0.33477002 15
0.39900213 2.1403131 -0.26262873 16
0.39533579 2.1185939 -0.18520623 14
0.39299193 2.1039965 -0.10980059 15
0.39382806 2.106436 -0.036370274 15
0.39529219 2.1122262 0.56515121 15
0.39636448 2.1159136 0.48777473 14
0.39511079 2.1071887 0.40891778 15
0.39696345 2.1150315 0.3344008 15
0.3946597 2.1007347 0.25775367 14
0.40105513 2.1327255 0.18651327 17
0.39684933 2.1083338 0.11042886 14
0.39584205 2.100965 0.03665005 16
0.36466089 1.9262285 -0.51505011 3
0.4107568 2.1676486 -0.50051636 13
0.40409654 2.1304681 -0.41368398 16
0.4013814 2.1141379 -0.33477002 15
0.40647078 2.1389072 -0.26262873 15
0.40272862 2.1172009 -0.18520623 14
0.4012678 2.1075172 -0.1100614 14
0.40117851 2.1050487 -0.036370274 15
0.40266281 2.1108336 0.56515121 15
0.40283424 2.1097317 0.48665082 15
0.40246385 2.1057968 0.40891778 15
0.40434387 2.1136327 0.3344008 15
0.40199026 2.0993443 0.25775367 14
0.40849727 2.1313126 0.18651327 16
0.40420637 2.106936 0.11042886 14
0.40317333 2.0995708 0.03665005 16
0.37138245 1.9249439 -0.51505011 3
0.41832083 2.1662014 -0.50051636 12
0.41153082 2.1290445 -0.41368398 15
0.4096967 2.1175725 -0.33555222 14
0.4139345 2.1374755 -0.26262873 15
0.41011658 2.1157823 -0.18520623 14
0.40862194 2.1061037 -0.1100614 14
0.40947708 2.1085429 -0.036456663 15
0.41002855 2.1094153 0.56515121 15
0.41019613 2.1083128 0.48665082 15
0.40981197 2.1043789 0.40891778 14
0.41171935 2.1122086 0.3344008 15
0.40931588 2.0979283 0.25775367 13
0.41593444 2.1298735 0.18651327 17
0.41155851 2.1055121 0.11042886 14
0.41049978 2.0981505 0.03665005 16
0.3780995 1.9236358 -0.51505011 3
0.42587972 2.1647282 -0.50051636 13
0.41896003 2.1275949 -0.41368398 15
0.41708592 2.1161294 -0.33555222 15
0.4204326 2.1311486 -0.26201937 15
0.41749957 2.1143377 -0.18520623 15
0.4159711 2.1046643 -0.1100614 14
0.41683477 2.1071007 -0.036456663 15
0.41738927 2.1079712 0.56515121 15
0.41755301 2.106868 0.48665082 15
0.41715515 2.1029358 0.40891778 14
0.41908985 2.1107585 0.3344008 15
0.41663653 2.0964868 0.25775367 13
0.42336658 2.1284087 0.18651327 16
0.41890562 2.1040626 0.11042886 13
0.41782117 2.0967047 0.03665005 17
0.38481194 1.9223044 -0.51505011 4
0.43343341 2.1632283 -0.50051636 13
0.42638418 2.1261196 -0.41368398 16
0.42447004 2.1146605 -0.33555222 14
0.42786914 2.129668 -0.26201937 15
0.42389545 2.1079843 -0.18477045 15
0.42331523 2.1031995 -0.1100614 14
0.42418739 2.1056328 -0.036456663 15
0.42474493 2.1065013 0.56515121 15
0.42490482 2.1053977 0.48665082 14
0.42449322 2.1014667 0.40891778 14
0.4264552 2.1092827 0.3344008 14
0.4239521 2.0950196 0.25775367 13
0.42980471 2.122036 0.18607752 16
0.4262476 2.1025875 0.11042886 13
0.42513749 2.0952334 0.03665005 16
0.3915197 1.9209493 -0.51505011 4
0.44098186 2.1617022 -0.50051636 12
0.43380311 2.1246185 -0.41368398 15
0.431849 2.1131661 -0.33555222 15
0.43530041 2.1281614 -0.26201937 15
0.43125108 2.1064918 -0.18477045 14
0.4306542 2.1017091 -0.1100614 14
0.43153483 2.1041393 -0.036456663 15
0.43209541 2.105006 0.56515121 15
0.43225142 2.1039016 0.48665082 14
0.43182611 2.0999722 0.40891778 14
0.43481094 2.1126184 0.33518213 15
0.43126246 2.0935271 0.25775367 13
0.4372094 2.1205227 0.18607752 16
0.43358439 2.1010869 0.11042886 14
0.43244863 2.0937366 0.03665005 16
0.39822268 1.9195709 -0.51505011 4
0.44852492 2.1601496 -0.50051636 12
0.4412168 2.1230912 -0.41368398 16
0.43922269 2.1116457 -0.33555222 15
0.44272643 2.1266289 -0.26201937 15
0.43860149 2.1049736 -0.18477045 14
0.43798789 2.100193 -0.1100614 14
0.43887702 2.1026201 -0.036456663 15
0.43944064 2.1034846 0.56515121 15
0.44058987 2.1071486 0.48777473 14
0.43915376 2.0984521 0.40891778 14
0.44218272 2.1110878 0.33518213 15
0.43856764 2.0920088 0.25775367 14
0.44460875 2.1189837 0.18607752 17
0.44091591 2.0995605 0.11042886 13
0.43975452 2.0922146 0.03665005 16
0.40525556 1.9180986 -0.51505011 4
0.45643926 2.1584911 -0.50051636 12
0.44899535 2.1214597 -0.41368398 15
0.44695935 2.1100218 -0.33555222 15
0.45051795 2.1249919 -0.26201937 15
0.44631368 2.1033518 -0.18477045 15
0.44568256 2.0985737 -0.1100614 15
0.44554117 2.0961075 -0.036370274 15
0.44714734 2.10186 0.56515121 15
0.44831002 2.1055198 0.48777473 15
0.44684204 2.0968285 0.40891778 14
0.44991729 2.109453 0.33518213 15
0.44623229 2.0903873 0.25775367 14
0.45237222 2.1173398 0.18607752 16
0.44965234 2.1028132 0.11069055 13
0.44741991 2.0905888 0.03665005 16
0.41296336 1.921394 -0.51634425 4
0.46397102 2.1568849 -0.50051636 12
0.45639786 2.1198797 -0.41368398 16
0.45432198 2.1084487 -0.33555222 15
0.45897907 2.1282578 -0.26262873 15
0.45365304 2.1017811 -0.18477045 15
0.45300522 2.0970051 -0.1100614 14
0.45285523 2.0945396 -0.036370274 15
0.45448145 2.1002862 0.56515121 15
0.45565692 2.1039419 0.48777473 15
0.45415857 2.0952559 0.40891778 14
0.45727789 2.1078696 0.33518213 15
0.45352638 2.0888169 0.25775367 13
0.45976037 2.1157479 0.18607752 16
0.45698979 2.1012309 0.11069055 13
0.45472118 2.0890129 0.03665005 16
0.41966778 1.9199408 -0.51634425 4
0.47149712 2.1552522 -0.50051636 12
0.46379489 2.1182735 -0.41368398 15
0.46167904 2.1068499 -0.33555222 15
0.46640527 2.1266427 -0.26262873 15
0.46098685 2.1001847 -0.18477045 14
0.46032238 2.0954111 -0.1100614 14
0.4601638 2.0929461 -0.036370274 15
0.46181005 2.0986872 0.56515121 15
0.46299827 2.1023388 0.48777473 15
0.46252614 2.0984511 0.40987095 14
0.46463296 2.1062605 0.33518213 14
0.46081495 2.0872211 0.25775367 13
0.46714291 2.1141303 0.18607752 16
0.46432167 2.0996227 0.11069055 13
0.46200392 2.0874143 0.03665005 16
0.42741486 1.9231789 -0.51763833 4
0.47901747 2.1535931 -0.50051636 12
0.47118619 2.1166418 -0.41368398 16
0.46903053 2.1052256 -0.33555222 14
0.47382581 2.1250017 -0.26262873 15
0.46831506 2.0985627 -0.18477045 15
0.46763393 2.0937915 -0.1100614 14
0.46746674 2.091327 -0.036370274 15
0.46913302 2.0970623 0.56515121 15
0.47033396 2.1007097 0.48777473 15
0.46984828 2.0968237 0.40987095 14
0.47198233 2.1046259 0.33518213 14
0.4680979 2.0855999 0.25775367 14
0.47451976 2.1124866 0.18607752 16
0.47164789 2.0979893 0.11069055 14
0.46928757 2.0857887 0.03665005 16
0.43412539 1.9216752 -0.51763833 4
0.486532 2.1519079 -0.50051636 11
0.47857177 2.114984 -0.41368398 15
0.47637627 2.1035755 -0.33555222 14
0.48124057 2.1233349 -0.26262873 15
0.47563756 2.0969152 -0.18477045 14
0.47493976 2.0921464 -0.1100614 14
0.47476399 2.0896826 -0.036370274 15
0.47645026 2.095412 0.56515121 15
0.47766396 2.0990551 0.48777473 14
0.47716472 2.0951707 0.40987095 15
0.47932598 2.1029656 0.33518213 14
0.47537515 2.0839531 0.25775367 13
0.48299941 2.1156735 0.18651327 16
0.47896838 2.0963302 0.11069055 13
0.47656545 2.0841379 0.03665005 16
0.44191131 1.9248551 -0.5189324 4
0.49404061 2.1501966 -0.50051636 12
0.48595154 2.1133006 -0.41368398 16
0.48371622 2.1018999 -0.33555222 14
0.48864946 2.1216421 -0.26262873 15
0.48407304 2.100096 -0.18520623 14
0.48223984 2.0904758 -0.1100614 14
0.48205543 2.0880125 -0.036370274 15
0.48376173 2.0937362 0.56515121 15
0.48498815 2.0973749 0.48777473 14
0.48447531 2.0934925 0.40987095 15
0.48666379 2.1012795 0.33518213 14
0.48264658 2.0822811 0.25775367 13
0.49038157 2.1139746 0.18651327 16
0.48628303 2.0946455 0.11069055 13
0.48383754 2.0824616 0.03665005 16
0.44753054 1.9185976 -0.51763833 4
0.50265074 2.1532035 -0.50164115 12
0.49332538 2.1115916 -0.41368398 15
0.49105027 2.1001987 -0.33555222 15
0.49605238 2.1199234 -0.26262873 15
0.49140081 2.0983934 -0.18520623 14
0.48953402 2.0887797 -0.1100614 14
0.48934102 2.0863171 -0.036370274 15
0.49106729 2.0920346 0.56515121 15
0.49230638 2.0956693 0.48777473 14
0.49178001 2.0917885 0.40987095 15
0.49399567 2.0995679 0.33518213 14
0.48991218 2.0805836 0.25775367 13
0.49775773 2.1122501 0.18651327 16
0.49359176 2.0929353 0.11069055 13
0.49110374 2.08076 0.03665005 17
0.45422497 1.9170237 -0.51763833 4
0.51016378 2.1514356 -0.50164115 12
0.5006932 2.1098566 -0.41368398 15
0.49837834 2.0984716 -0.33555222 14
0.50230169 2.1133506 -0.26201937 15
0.49872258 2.0966654 -0.18520623 15
0.49682224 2.0870583 -0.1100614 14
0.49777919 2.0894592 -0.036456663 15
0.49836686 2.0903077 0.56515121 15
0.49961862 2.0939379 0.48777473 14
0.49907872 2.0900593 0.40987095 14
0.50132149 2.0978308 0.33518213 15
0.49717179 2.0788608 0.25775367 13
0.50512785 2.1104996 0.18651327 16
0.50089443 2.0911996 0.11069055 13
0.49836397 2.0790331 0.03665005 16
0.45978394 1.910731 -0.51634425 4
0.51767057 2.1496418 -0.50164115 12
0.50805491 2.1080961 -0.41368398 15
0.50570035 2.0967193 -0.33555222 14
0.50967556 2.1115842 -0.26201937 15
0.50603825 2.0949118 -0.18520623 15
0.50410438 2.0853112 -0.1100614 14
0.50506973 2.087709 -0.036456663 15
0.50566036 2.0885553 0.56515121 15
0.50692475 2.0921812 0.48777473 14
0.50637138 2.0883043 0.40987095 14
0.50864124 2.0960681 0.33518213 15
0.50442535 2.0771127 0.25775367 14
0.51249176 2.1087236 0.18651327 16
0.50819105 2.0894384 0.11069055 14
0.50680041 2.0821383 0.036737315 16
0.46645084 1.9091144 -0.51634425 4
0.52632815 2.1525538 -0.50276589 12
0.51541048 2.1063097 -0.41368398 15
0.51301616 2.0949414 -0.33555222 15
0.51704329 2.1097922 -0.26201937 15
0.51334774 2.0931325 -0.18520623 15
0.51138043 2.0835388 -0.1100614 14
0.51235414 2.0859332 -0.036456663 14
0.51410067 2.0914681 0.56644452 15
0.51422477 2.090399 0.48777473 14
0.51365781 2.086524 0.40987095 15
0.51595479 2.0942798 0.33518213 15
0.51167274 2.0753393 0.25775367 14
0.51984948 2.1069217 0.18651327 16
0.51548141 2.0876517 0.11069055 14
0.51406533 2.0803564 0.036737315 16
0.47194937 1.9027869 -0.51505011 4
0.53383881 2.1507037 -0.50276589 12
0.52275968 2.1044977 -0.41368398 15
0.52032572 2.0931377 -0.33555222 14
0.5244047 2.1079745 -0.26201937 15
0.52065104 2.0913279 -0.18520623 15
0.51865023 2.0817413 -0.1100614 14
0.51963228 2.0841322 -0.036456663 15
0.52139813 2.0896609 0.56644452 15
0.52151853 2.0885913 0.48777473 15
0.52093798 2.0847185 0.40987095 14
0.52326202 2.0924661 0.33518213 15
0.51891392 2.0735407 0.25775367 14
0.52720082 2.1050944 0.18651327 16
0.52276558 2.0858397 0.11069055 13
0.52132404 2.0785494 0.036737315 16
0.47858846 1.9011278 -0.51505011 4
0.54134285 2.1488268 -0.50276589 11
0.53010255 2.1026602 -0.41368398 14
0.52762896 2.0913088 -0.33555222 15
0.53175968 2.1061313 -0.26201937 15
0.52794796 2.0894978 -0.18520623 14
0.52591372 2.0799181 -0.1100614 14
0.52690411 2.0823054 -0.036456663 15
0.52868921 2.0878282 0.56644452 15
0.52880585 2.0867581 0.48777473 15
0.52821183 2.0828872 0.40987095 15
0.53056294 2.0906267 0.33518213 15
0.52737033 2.0765266 0.25836298 14
0.53454578 2.1032412 0.18651327 16
0.5300433 2.084002 0.11069055 13
0.52857631 2.0767169 0.036737315 16
0.48522171 1.8994458 -0.51505011 4
0.5488404 2.1469243 -0.50276589 11
0.53743905 2.1007969 -0.41368398 15
0.53492582 2.0894542 -0.33555222 14
0.53910822 2.1042624 -0.26201937 15
0.53523844 2.0876422 -0.18520623 14
0.53317076 2.0780694 -0.1100614 14
0.5341695 2.0804536 -0.036456663 14
0.53597385 2.0859699 0.56644452 15
0.5360868 2.0848997 0.48777473 15
0.53547925 2.0810308 0.40987095 14
0.53785729 2.088762 0.33518213 14
0.53461558 2.0746732 0.25836298 14
0.54188418 2.1013625 0.18651327 16
0.53731459 2.0821393 0.11069055 13
0.53582221 2.0748591 0.036737315 16
0.49184909 1.8977404 -0.51505011 4
0.55633116 2.1449955 -0.50276589 10
0.54476887 2.0989082 -0.41368398 15
0.54221606 2.0875742 -0.33555222 15
0.5464502 2.1023676 -0.26201937 15
0.54252243 2.0857611 -0.18520623 14
0.54042131 2.0761957 -0.1100614 14
0.54142839 2.0785763 -0.036456663 15
0.54325205 2.0840862 0.56644452 15
0.54336119 2.0830154 0.48777473 15
0.54274017 2.079149 0.40987095 14
0.54514515 2.0868719 0.33518213 15
0.54185426 2.0727944 0.25836298 13
0.55047661 2.1042771 0.18694907 16
0.54457939 2.080251 0.11069055 13
0.54306155 2.0729764 0.036737315 16
0.49847043 1.8960119 -0.51505011 4
0.5638153 2.1430404 -0.50276589 11
0.55334181 2.1017404 -0.41463721 16
0.54949975 2.0856688 -0.33555222 15
0.55378544 2.1004474 -0.26201937 15
0.5497998 2.0838547 -0.18520623 14
0.54766536 2.0742967 -0.1100614 14
0.54868066 2.0766737 -0.036456663 15
0.55052352 2.0821772 0.56644452 15
0.55187511 2.0858161 0.48889863 14
0.54999447 2.0772417 0.40987095 14
0.55369127 2.0897298 0.33596343 14
0.54908639 2.0708902 0.25836298 13
0.55781853 2.1023426 0.18694907 16
0.5518375 2.0783374 0.11069055 13
0.55157804 2.0758996 0.036824573 16
0.50508571 1.8942605 -0.51505011 3
0.5712924 2.1410592 -0.50276589 11
0.56067485 2.0997961 -0.41463721 15
0.55677676 2.0837379 -0.33555222 14
0.56239605 2.103296 -0.26262873 15
0.55707043 2.0819228 -0.18520623 15
0.55619413 2.0771956 -0.11032221 15
0.5559262 2.0747459 -0.036456663 15
0.55778831 2.0802429 0.56644452 15
0.55915266 2.0838771 0.48889863 15
0.55724204 2.0753093 0.40987095 15
0.56098241 2.0877843 0.33596343 15
0.55631179 2.0689609 0.25836298 14
0.56515366 2.1003828 0.18694907 16
0.55908889 2.0763984 0.11069055 14
0.5588209 2.0739615 0.036824573 16
0.51010478 1.8879128 -0.51375604 4
0.57801592 2.1392539 -0.50276589 10
0.56726879 2.0980241 -0.41463721 16
0.56461012 2.0867455 -0.33633435 14
0.56900096 2.1015186 -0.26262873 15
0.56360823 2.0801625 -0.18520623 14
0.56271708 2.0754383 -0.11032221 14
0.56244153 2.0729892 -0.036456663 14
0.56432086 2.0784802 0.56644452 15
0.56569654 2.0821102 0.48889863 14
0.56375903 2.0735486 0.40987095 14
0.56753856 2.0860116 0.33596343 14
0.56280887 2.067203 0.25836298 14
0.57174945 2.098597 0.18694907 16
0.56560928 2.0746317 0.11069055 14
0.56533366 2.0721955 0.036824573 16
0.51636249 1.8862108 -0.51375604 4
0.5854798 2.1372232 -0.50276589 11
0.57458884 2.0960312 -0.41463721 15
0.57189077 2.0847619 -0.33633435 14
0.57633311 2.0995197 -0.26262873 15
0.57218534 2.0829856 -0.185642 14
0.56995827 2.0734613 -0.11032221 14
0.56967413 2.0710132 -0.036456663 15
0.57157266 2.0764978 0.56644452 15
0.57296103 2.0801227 0.48889863 14
0.5709936 2.0715678 0.40987095 14
0.57481664 2.084018 0.33596343 14
0.57002127 2.0652258 0.25836298 13
0.57907146 2.0965884 0.18694907 16
0.57284766 2.0726447 0.11069055 13
0.57256359 2.0702097 0.036824573 16
0.52327234 1.8843056 -0.51375604 4
0.59330916 2.1350629 -0.50276589 11
0.58226734 2.0939112 -0.41463721 16
0.57952797 2.0826519 -0.33633435 15
0.58535558 2.1021738 -0.26323807 15
0.57981598 2.0808744 -0.185642 15
0.57755405 2.0713582 -0.11032221 14
0.57726091 2.0689113 -0.036456663 15
0.57917953 2.074389 0.56644452 15
0.58058125 2.0780089 0.48889863 15
0.57858247 2.0694611 0.40987095 14
0.58378178 2.0866532 0.33674476 15
0.57758695 2.0631227 0.25836298 14
0.58675194 2.0944519 0.18694907 16
0.58044046 2.0705311 0.11069055 13
0.58014745 2.0680971 0.036824573 16
0.52984661 1.8824675 -0.51375604 4
0.60075831 2.1329789 -0.50276589 11
0.58957285 2.091866 -0.41463721 16
0.58679426 2.0806162 -0.33633435 14
0.59403789 2.1048942 -0.26384741 15
0.58842981 2.0836313 -0.1860778 15
0.58478093 2.0693295 -0.11032221 14
0.58583969 2.0716946 -0.036543053 15
0.58641696 2.0723546 0.56644452 15
0.58783126 2.0759697 0.48889863 15
0.58580267 2.0674288 0.40987095 14
0.59106195 2.0846028 0.33674476 15
0.58478504 2.061094 0.25836298 14
0.5954197 2.0971825 0.18738484 16
0.58902895 2.0732956 0.11095222 14
0.59009701 2.0756769 0.036999099 16
0.53806818 1.8851569 -0.51505011 4
0.60857201 2.1307626 -0.50276589 11
0.59858483 2.0944107 -0.41559041 16
0.59441608 2.0784516 -0.33633435 14
0.60311419 2.1074739 -0.26445675 15
0.59743398 2.0862489 -0.18651357 15
0.59373695 2.0719724 -0.11058301 14
0.59618485 2.0791447 -0.036715835 15
0.59667277 2.0794761 0.569031 15
0.59678078 2.0784843 0.49002257 15
0.5960871 2.074703 0.41177732 15
0.60142756 2.0919149 0.33830738 16
0.59507948 2.0684755 0.25958169 14
0.60448027 2.0997727 0.18782063 17
0.5993883 2.0807188 0.11147558 14
0.60047013 2.0831072 0.037173621 20
0.54464531 1.8832673 -0.51505011 4
0.61600608 2.1286254 -0.50276589 10
0.60862249 2.1017375 -0.4174968 16
0.60441661 2.0858507 -0.3378987 15
0.61323112 2.1148889 -0.26567549 17
0.6102646 2.1032856 -0.18825668 23
0.60375035 2.0794775 -0.11110463 15
0.60762292 2.0914528 -0.036975004 24
0.60797268 2.0912941 0.57291073 16
0.60675418 2.0857444 0.49227038 17
0.60606915 2.0820348 0.41368371 20
0.61148828 2.0992858 0.33987001 27
0.60507369 2.0759146 0.26080036 18
0.61459547 2.1072135 0.18869218 28
0.61084443 2.0929935 0.11226062 20
0.61194867 2.0953934 0.037435409 27
0.55121583 1.8813546 -0.51505011 4
0.62343264 2.1264622 -0.50276589 9
0.61871868 2.1090198 -0.41940317 17
0.61447591 2.093205 -0.33946306 17
0.62200838 2.1174967 -0.26628482 28
0.62181675 2.115479 -0.18956403 26
0.61523217 2.0917284 -0.11188706 28
0.61915439 2.1037068 -0.037234176 24
0.61799794 2.0984254 0.57549721 31
0.61678547 2.0929606 0.49451819 31
0.61610973 2.0893226 0.41559011 23
0.62160784 2.106612 0.3414326 27
0.61512691 2.0833089 0.26201907 31
0.62335861 2.109832 0.18912795 27
0.62097794 2.1004252 0.11278398 31
0.62208915 2.102834 0.037609935 67
0.55777961 1.8794191 -0.51505011 4
0.62946469 2.1196029 -0.50164115 7
0.62887299 2.1162572 -0.42130953 19
0.62459397 2.1005149 -0.34102744 21
0.63222659 2.124826 -0.2675035 29
0.63488269 2.132391 -0.19130714 38
0.62680686 2.1039238 -0.11266948 25
0.63077855 2.1159055 -0.037493344 36
0.62946093 2.1101406 0.579377 32
0.62687457 2.100132 0.496766 30
0.62620848 2.0965652 0.4174965 34
0.63178587 2.113893 0.34299523 37
0.62666118 2.0954132 0.26384711 32
0.63357556 2.117187 0.18999954 39
0.63117063 2.1078112 0.11330734 38
0.63229549 2.1102273 0.037784457 73
0.56572688 1.8820858 -0.51634425 4
0.63826281 2.1220582 -0.50276589 7
0.63908541 2.1234493 -0.42321593 16
0.63477051 2.1077793 -0.34259176 18
0.6439355 2.1368611 -0.26933157 39
0.64088434 2.1253932 -0.19087137 39
0.63703185 2.1112838 -0.1131911 38
0.64105052 2.1232626 -0.037666127 38
0.63821965 2.1125538 0.58067024 35
0.6356113 2.1025944 0.49788988 39
0.63636529 2.1037626 0.41940287 35
0.64059156 2.1164014 0.34377655 38
0.63684869 2.1027122 0.26506582 39
0.64240658 2.1197293 0.19043529 45
0.64142251 2.1151519 0.1138307 43
0.64110929 2.1127913 0.037871718 37
0.57229316 1.8800997 -0.51634425 4
0.6456663 2.1198173 -0.50276589 6
0.64792466 2.1259003 -0.42416909 16
0.64500529 2.1149979 -0.34415612 19
0.65283906 2.1393468 -0.26994088 40
0.64684474 2.1183791 -0.19043559 42
0.6458568 2.1138227 -0.11345191 40
0.6469965 2.116231 -0.037579738 47
0.64700294 2.1149318 0.58196354 38
0.64579904 2.1096802 0.50013769 37
0.64514238 2.1062214 0.42035604 36
0.64797527 2.1141527 0.34377655 37
0.64418465 2.1004763 0.26506582 41
0.6512633 2.122236 0.19087109 49
0.65026754 2.1176732 0.11409239 44
0.64848042 2.1105404 0.037871718 40
0.580275 1.8827058 -0.51763833 4
0.65306193 2.1175504 -0.50276589 6
0.65534145 2.1236258 -0.42416909 19
0.65384108 2.1174519 -0.34493828 20
0.66176784 2.1417966 -0.27055025 45
0.65423536 2.1161084 -0.19043559 49
0.65323144 2.1115553 -0.11345191 43
0.65290129 2.109184 -0.037493344 47
0.65438145 2.1126604 0.58196354 40
0.65460157 2.1120667 0.50126159 44
0.6524905 2.1039567 0.42035604 36
0.6553511 2.1118779 0.34377655 42
0.65298456 2.1029546 0.26567516 41
0.66014516 2.1247063 0.19130686 49
0.65765566 2.1153905 0.11409239 51
0.65435869 2.1034904 0.037784457 45
0.58684331 1.8806689 -0.51763833 4
0.66044956 2.115258 -0.50276589 6
0.66421402 2.1260102 -0.42512229 18
0.65975487 2.1104434 -0.34415612 27
0.66924006 2.1394734 -0.27055025 49
0.66013014 2.1090584 -0.18999982 39
0.66059822 2.1092622 -0.11345191 50
0.66025972 2.1068921 -0.037493344 48
0.66030693 2.1057549 0.58067024 42
0.6634286 2.1144173 0.5023855 46
0.65983069 2.1016662 0.42035604 43
0.66271895 2.1095774 0.34377655 37
0.66032118 2.1006625 0.26567516 45
0.66606331 2.1176376 0.19087109 58
0.66353667 2.108319 0.1138307 58
0.66019553 2.0964251 0.037697192 34
0.59485918 1.8832141 -0.5189324 4
0.6678291 2.1129396 -0.50276589 6
0.6716311 2.1236787 -0.42512229 17
0.66711766 2.1081274 -0.34415612 26
0.67520607 2.1323934 -0.26994088 34
0.6674881 2.1067412 -0.18999982 32
0.66644788 2.1021836 -0.1131911 36
0.66609854 2.0998094 -0.037406955 34
0.66765332 2.1034372 0.58067024 36
0.66933054 2.1074455 0.50126159 36
0.66567641 2.0946727 0.41940287 32
0.6685822 2.1025448 0.34299523 30
0.66764987 2.0983446 0.26567516 36
0.67345119 2.1152997 0.19087109 39
0.66937637 2.1012323 0.11356901 37
0.66750944 2.0941079 0.037697192 28
0.60142916 1.8811263 -0.5189324 4
0.67520064 2.1105955 -0.50276589 5
0.67904007 2.1213214 -0.42512229 14
0.67447233 2.1057861 -0.34415612 20
0.68113077 2.1252975 -0.26933157 31
0.67331684 2.0996549 -0.18956403 24
0.67378181 2.0998445 -0.1131911 32
0.67189592 2.0927114 -0.037320562 29
0.67351443 2.0964954 0.579377 27
0.67519182 2.1004579 0.50013769 32
0.67298406 2.0923362 0.41940287 29
0.67591733 2.1001983 0.34299523 24
0.67497039 2.0960014 0.26567516 31
0.6808309 2.1129363 0.19087109 33
0.67517483 2.0941308 0.11330734 33
0.6732803 2.087007 0.037609935 23
0.60947871 1.8836106 -0.52022654 4
0.68406457 2.1128612 -0.50389069 5
0.68644077 2.1189382 -0.42512229 16
0.68181884 2.1034188 -0.34415612 23
0.68854535 2.1229069 -0.26933157 23
0.68064189 2.0972919 -0.18956403 23
0.67956543 2.092731 -0.1129303 23
0.67765188 2.0855989 -0.037234176 22
0.67933512 2.0895383 0.57808375 21
0.68101251 2.0934551 0.49901381 23
0.67876434 2.0853066 0.41844967 21
0.68324429 2.097826 0.34299523 21
0.68074495 2.0889139 0.26506582 24
0.68665802 2.1058109 0.19043529 26
0.68093181 2.0870142 0.11304566 25
0.68056124 2.0846443 0.037609935 21
0.61755288 1.8860614 -0.52152056 4
0.69143564 2.1104603 -0.50389069 6
0.69383299 2.1165292 -0.42512229 21
0.69069606 2.1057184 -0.34493828 26
0.69595146 2.1204906 -0.26933157 25
0.68795872 2.0949032 -0.18956403 25
0.68686628 2.0903459 -0.1129303 23
0.68492782 2.0832207 -0.037234176 26
0.68662477 2.0871542 0.57808375 18
0.68679255 2.0864375 0.49788988 22
0.68603927 2.0829248 0.41844967 22
0.6905629 2.0954282 0.34299523 22
0.68803245 2.086525 0.26506582 23
0.69400448 2.1034012 0.19043529 30
0.68821275 2.0846245 0.11304566 27
0.68783385 2.0822561 0.037609935 24
0.6256516 1.8884788 -0.52281469 4
0.6987983 2.1080339 -0.50389069 6
0.70276213 2.1187532 -0.42607546 19
0.69804221 2.1032946 -0.34493828 25
0.70334911 2.1180482 -0.26933157 21
0.69526708 2.0924892 -0.18956403 22
0.69415873 2.0879357 -0.1129303 23
0.69219553 2.0808172 -0.037234176 21
0.69390613 2.0847447 0.57808375 21
0.69407141 2.0840273 0.49788988 24
0.69330585 2.0805173 0.41844967 21
0.69787312 2.0930049 0.34299523 22
0.69531161 2.0841105 0.26506582 25
0.70134246 2.1009657 0.19043529 25
0.69706708 2.0869458 0.11330734 23
0.6950981 2.0798423 0.037609935 21
0.63530952 1.895442 -0.5254029 4
0.70615244 2.1055818 -0.50389069 5
0.71015364 2.116287 -0.42607546 27
0.70537978 2.1008451 -0.34493828 27
0.7123186 2.1202846 -0.26994088 26
0.70415413 2.0947711 -0.18999982 26
0.70144278 2.0855 -0.1129303 23
0.69945467 2.0783882 -0.037234176 26
0.70117903 2.08231 0.57808375 19
0.70134181 2.0815918 0.49788988 21
0.70213205 2.082736 0.41940287 20
0.7051748 2.0905561 0.34299523 23
0.70258224 2.0816708 0.26506582 22
0.70867199 2.0985048 0.19043529 28
0.70594603 2.0892298 0.11356901 27
0.70395494 2.0821393 0.037697192 23
0.64347273 1.8977865 -0.52669698 4
0.713498 2.1031041 -0.50389069 5
0.71911424 2.118443 -0.42702866 20
0.71429712 2.1030462 -0.34572047 28
0.71971548 2.117785 -0.26994088 25
0.71146196 2.0923004 -0.18999982 25
0.7087183 2.0830386 -0.1129303 28
0.70831639 2.0806665 -0.037320562 22
0.7084434 2.0798495 0.57808375 21
0.71017534 2.0837426 0.49901381 24
0.70939791 2.0802724 0.41940287 23
0.71406275 2.092756 0.34377655 22
0.71144783 2.0839024 0.26567516 24
0.71760297 2.1007321 0.19087109 27
0.71484947 2.0914779 0.1138307 26
0.71121871 2.0796692 0.037697192 22
0.64852661 1.8909605 -0.5254029 4
0.72083485 2.1006007 -0.50389069 5
0.72650462 2.1159201 -0.42702866 21
0.72163379 2.1005402 -0.34572047 21
0.72871679 2.1199532 -0.27055025 25
