# .PCD v0.7 - Point Cloud Data file format
VERSION 0.7
FIELDS x y z intensity
SIZE 4 4 4 4
TYPE F F F F
COUNT 1 1 1 1
WIDTH 1399
HEIGHT 1
VIEWPOINT 0 0 0 1 0 0 0
POINTS 1399
DATA ascii
6.7701864 -1.9617966 -0.36617586 15
6.7732148 -1.9639556 -0.12120545 17
8.65516 -2.5112803 2.4028628 15
6.7695732 -1.9654616 1.6172992 16
6.7769103 -1.9688743 1.3630592 14
6.7802005 -1.9711138 1.1110233 14
6.7651834 -1.9680285 0.86039752 16
6.7800069 -1.9736242 0.61444795 15
6.7673798 -1.9712299 0.36739841 13
6.7752457 -1.9748038 0.12251589 58
1.8584653 -0.54345328 -0.50857961 3
2.1267884 -0.6223194 -0.50276589 2
2.5097387 -0.73484999 -0.50042421 2
3.0840228 -0.90358448 -0.5029372 2
4.0084476 -1.1751904 -0.50819576 2
5.5140591 -1.6176484 -0.49940318 4
6.7776704 -1.9896363 -0.36695826 14
6.7807083 -1.9918135 -0.12146462 16
8.6463404 -2.541477 2.4028628 14
6.7766933 -1.9932042 1.6206709 16
6.784122 -1.9966757 1.3659189 14
6.7874918 -1.9989548 1.1133672 14
6.7773132 -1.9972428 0.86283493 17
6.7874098 -2.0015056 0.61575532 15
6.7796135 -2.0004928 0.36844513 13
6.7826943 -2.0026889 0.12277767 58
1.856557 -0.54993719 -0.50857961 3
2.124603 -0.6297394 -0.50276589 2
2.5071583 -0.74360615 -0.50042421 2
3.0808499 -0.91434425 -0.5029372 2
4.0043211 -1.1891755 -0.50819576 2
5.5083785 -1.6368862 -0.49940318 5
6.7898283 -2.0189753 -0.36800149 15
6.7928805 -2.0211735 -0.12181018 17
8.6327877 -2.5702651 2.4015694 14
6.788372 -2.0224113 1.6251665 15
6.7959261 -2.0259535 1.3697315 14
6.7994027 -2.0282824 1.1164925 13
6.7845669 -2.0251462 0.86466295 17
6.7994723 -2.0308878 0.61749846 15
6.7869411 -2.0284352 0.36923015 13
6.7948213 -2.0320823 0.12312672 57
1.8546261 -0.55641448 -0.50857961 3
2.1223917 -0.63715184 -0.50276589 2
2.509248 -0.75376534 -0.5013774 2
3.0823686 -0.92651445 -0.50371939 2
4.0001459 -1.203146 -0.50819576 2
5.5026317 -1.6561041 -0.49940318 5
6.7970824 -2.0469835 -0.36878392 15
6.8001447 -2.0492001 -0.12206935 17
8.5775213 -2.5864396 2.3886368 12
6.7999287 -2.0517244 1.6296622 15
6.8029089 -2.0539193 1.3725911 14
6.8064637 -2.056289 1.1188364 15
6.7964578 -2.0545607 0.86710036 17
6.8114119 -2.0603786 0.6192416 16
6.7989354 -2.0579 0.37027687 12
6.8068247 -2.0615847 0.12347577 57
1.8526725 -0.56288493 -0.50857961 2
2.115494 -0.64313948 -0.50164115 2
2.5112975 -0.76394814 -0.5023306 2
3.0791159 -0.93726826 -0.50371939 2
3.9959219 -1.2171017 -0.50819576 2
5.4968171 -1.6753017 -0.49940318 5
6.809 -2.0765233 -0.36982715 15
6.8120761 -2.0787611 -0.12241491 17
8.3282366 -2.5430188 2.3213878 11
6.8113623 -2.0811427 1.6341578 16
6.8144727 -2.0833933 1.3764039 14
6.8181348 -2.0858142 1.1219616 15
6.8034811 -2.0826302 0.86892837 17
6.8232288 -2.0899775 0.62098467 15
6.8060322 -2.0860095 0.37106189 12
6.8187051 -2.0911958 0.12382481 56
1.8506964 -0.56934857 -0.50857961 3
2.113236 -0.65052003 -0.50164115 2
2.5133064 -0.77415442 -0.50328374 2
3.0711062 -0.94655609 -0.5029372 2
3.9916489 -1.2310426 -0.50819576 2
5.4909358 -1.6944789 -0.49940318 6
6.8207936 -2.1061714 -0.37087038 15
6.8191075 -2.1069546 -0.12267408 16
8.0655193 -2.4936106 2.2502589 9
6.8226743 -2.1106656 1.6386534 16
6.8259144 -2.1129735 1.3802166 14
6.8249645 -2.1139848 1.1243055 15
6.8151307 -2.1122425 0.87136573 16
6.830164 -2.1182084 0.62229198 14
6.8177843 -2.1156738 0.37210864 13
6.8304615 -2.1209147 0.12417386 60
1.8440865 -0.57436901 -0.50728554 3
2.1109524 -0.65789264 -0.50164115 2
2.5105889 -0.7829228 -0.50328374 2
3.0677834 -0.9572705 -0.5029372 2
3.9825902 -1.2434894 -0.50758636 2
5.4802327 -1.7121502 -0.49896741 5
6.8276978 -2.1344371 -0.37165284 15
6.8307962 -2.1367145 -0.12301964 17
7.8032522 -2.4423997 2.1791301 8
6.8338628 -2.1402929 1.643149 16
6.8325481 -2.1411908 1.3830762 14
6.8411055 -2.1451838 1.1282121 15
6.8266568 -2.1419618 0.8738032 17
6.8417373 -2.1480052 0.62403512 15
6.8294125 -2.1454453 0.37315536 13
6.8373241 -2.1492419 0.12443565 55
1.8466765 -0.58225483 -0.50857961 3
2.1132889 -0.66672295 -0.50276589 2
2.5125213 -0.79315919 -0.504237 2
3.0644233 -0.96797323 -0.5029372 3
3.9734931 -1.255888 -0.50697702 2
5.4694738 -1.7297674 -0.49853161 5
6.844008 -2.1657894 -0.37295687 15
6.8375945 -2.1650729 -0.12327881 15
7.5414433 -2.3893895 2.108001 8
6.8402829 -2.1685514 1.6465207 17
6.8437467 -2.1709642 1.386889 14
6.8524041 -2.1750271 1.1313374 12
6.8333282 -2.170285 0.87563121 17
6.8484387 -2.1764002 0.62534243 15
6.8409152 -2.1753237 0.37420207 13
6.8393083 -2.1761272 0.12461018 52
1.8446327 -0.58869737 -0.50857961 3
2.1109488 -0.67409563 -0.50276589 2
2.5097373 -0.80192471 -0.504237 2
3.0563219 -0.97716022 -0.50215507 3
3.9690852 -1.2697504 -0.50697702 2
5.4634023 -1.7488488 -0.49853161 5
6.8459167 -2.1927125 -0.3734785 16
6.8490381 -2.1950302 -0.12362437 15
7.3214951 -2.347856 2.0485115 8
6.8465881 -2.1968811 1.6498924 16
6.8501472 -2.1993415 1.3897486 17
6.8541746 -2.2019544 1.1329 13
6.8446093 -2.2001994 0.87806857 16
6.8550258 -2.2048678 0.6266498 15
6.8475399 -2.203779 0.37498713 15
6.8507047 -2.2061169 0.12495922 55
1.8471625 -0.59661722 -0.50987375 3
2.108583 -0.68146008 -0.50276589 2
2.5069227 -0.81068045 -0.504237 2
3.0528922 -0.98782289 -0.50215507 2
3.9599075 -1.2820688 -0.50636768 2
5.4525261 -1.766374 -0.49809581 5
6.8477211 -2.2196753 -0.37400013 16
6.8270679 -2.2142975 -0.1233652 9
7.0973382 -2.3033261 1.9877287 9
6.8620472 -2.2282903 1.655512 12
6.828424 -2.2186894 1.386889 7
6.747818 -2.1938009 1.1164925 12
6.8557649 -2.2302189 0.88050598 15
6.8046598 -2.2149076 0.62272781 7
6.8160667 -2.2199364 0.37367871 6
6.7526512 -2.2005861 0.12330125 60
1.840583 -0.60123968 -0.50857961 2
2.1064315 -0.68808103 -0.50276589 2
2.5043635 -0.8185522 -0.504237 2
3.0497739 -0.99740887 -0.50215507 3
3.9558601 -1.2945029 -0.50636768 2
5.4469495 -1.7834948 -0.49809581 6
6.7600484 -2.2147493 -0.36956638 7
6.7488208 -2.2123752 -0.12206935 17
6.8973174 -2.262388 1.9334121 9
6.7624316 -2.2194514 1.6330339 22
6.756134 -2.2186909 1.3735443 28
6.7268167 -2.2103639 1.1141485 9
6.7450061 -2.2176452 0.86710036 16
6.7598162 -2.2238219 0.6192416 17
6.7521453 -2.2226045 0.37053856 31
6.6792278 -2.1998942 0.12207957 35
1.8339931 -0.60582507 -0.50728554 2
2.104017 -0.69542968 -0.50276589 2
2.4968309 -0.82574785 -0.50328374 3
3.0462737 -1.0080485 -0.50215507 2
3.9560285 -1.3098634 -0.50697702 3
5.440691 -1.8024973 -0.49809581 6
6.6243081 -2.1959119 -0.36252451 4
6.6081948 -2.1918507 -0.11965042 6
6.6876817 -2.2195113 1.876509 10
6.685286 -2.2200117 1.6161753 8
6.6691632 -2.21595 1.3573401 6
6.522233 -2.1683939 1.0813335 5
6.6760068 -2.2208118 0.85917884 8
6.6149564 -2.2017856 0.60660398 6
6.6211753 -2.2051392 0.36373487 7
6.5007663 -2.1662982 0.11893815 24
1.8225999 -0.60947967 -0.50469732 2
2.101454 -0.70313662 -0.50276589 2
2.4984419 -0.83645189 -0.504237 2
3.0425587 -1.0192069 -0.50215507 2
3.9559064 -1.3259314 -0.50758636 3
5.4293256 -1.8208429 -0.49766007 5
6.4789357 -2.1741102 -0.35496104 15
6.438983 -2.1619539 -0.11671315 14
6.5329933 -2.1947877 1.8351249 12
6.5062337 -2.1870615 1.5745908 6
6.4423432 -2.1668365 1.3125403 10
6.3457384 -2.135577 1.0532063 17
6.4655833 -2.1771655 0.83297694 5
6.4416332 -2.1703527 0.59135169 14
6.4095936 -2.1608033 0.35248265 6
6.3506727 -2.1421742 0.11632028 69
1.8158863 -0.61429036 -0.50340325 3
2.1036015 -0.71202987 -0.50389069 2
2.5048048 -0.84831697 -0.50614333 2
3.0389824 -1.0298212 -0.50215507 2
3.9559543 -1.3413256 -0.50819576 3
5.4229369 -1.8397835 -0.49766007 5
6.3200045 -2.1453524 -0.34661517 10
6.2799201 -2.1329679 -0.11394867 14
6.3698106 -2.1647394 1.7911543 10
6.3509545 -2.1595678 1.5386258 16
6.2628121 -2.1308153 1.2772723 11
6.1933179 -2.1083772 1.0289857 12
6.3217115 -2.1533175 0.81530589 17
6.2737193 -2.1381922 0.57653522 14
6.2791381 -2.1412623 0.34567899 15
6.1870203 -2.1110544 0.11344064 12
1.8045919 -0.61749804 -0.50081509 3
2.1057122 -0.72094643 -0.50501537 2
2.497185 -0.8554644 -0.50519013 2
3.0447123 -1.0436255 -0.50371939 2
3.9606366 -1.3583462 -0.50941443 3
5.4117708 -1.8570852 -0.49722427 6
6.1755223 -2.1203766 -0.33905172 18
6.1164112 -2.101274 -0.11109779 15
6.2069192 -2.133579 1.7471837 11
6.1775198 -2.1246789 1.4981652 12
6.1207418 -2.1063457 1.2496299 12
6.0411649 -2.0801399 1.004765 12
6.1593175 -2.1220255 0.79519743 13
6.1108189 -2.1065099 0.56215453 15
6.1205769 -2.111069 0.33730522 10
6.0189381 -2.077188 0.11047373 12
1.8206816 -0.63011163 -0.50599146 3
2.0985794 -0.72669828 -0.50389069 2
2.5080974 -0.86899674 -0.50804973 2
3.0177207 -1.0461593 -0.49980852 3
3.9418046 -1.3672841 -0.50758636 3
5.4005494 -1.8743314 -0.4967885 5
6.0312939 -2.0944188 -0.33148825 11
5.9579248 -2.0701063 -0.10833331 11
6.0534487 -2.1044805 1.7057997 12
6.0228143 -2.0950086 1.4622003 13
5.9696493 -2.0776837 1.220081 11
5.8239927 -2.0281289 0.96960616 12
6.0019078 -2.0912602 0.7756983 13
5.9482183 -2.0737171 0.54777384 15
5.96702 -2.08144 0.32919315 11
5.8794909 -2.0520587 0.10803039 13
1.8230294 -0.6380586 -0.50728554 3
2.0914316 -0.73240894 -0.50276589 2
2.495784 -0.87450027 -0.50614333 2
3.0420125 -1.0664898 -0.50450158 2
3.9276421 -1.3777499 -0.50636768 3
5.3892736 -1.8915218 -0.4963527 6
5.8920341 -2.069135 -0.32418558 10
5.8185983 -2.0444872 -0.10591438 11
5.8455815 -2.0551145 1.6488966 13
5.8913732 -2.0723689 1.4318548 11
5.7725348 -2.031698 1.1810002 9
5.5467033 -1.9533026 0.92429012 9
5.8073444 -2.0462282 0.75132447 12
5.809411 -2.0480962 0.53557205 16
5.8325806 -2.0574093 0.32212779 12
5.735579 -2.0243182 0.1054998 13
1.8116853 -0.6411956 -0.50469732 3
2.0980473 -0.74295747 -0.50501537 2
nan nan nan 0
3.0103436 -1.0672013 -0.49980852 3
3.9228089 -1.3914515 -0.50636768 3
5.3826385 -1.9103222 -0.4963527 6
5.7436161 -2.0395634 -0.31636134 8
5.684237 -2.0195951 -0.10358185 11
5.6244822 -1.9994702 1.5881138 9
5.5352392 -1.9688331 1.3464381 9
5.5203252 -1.9646138 1.1304814 12
5.5165892 -1.9643691 0.92038357 12
5.5290236 -1.969884 0.71598238 14
5.6708565 -2.0215318 0.52337021 11
5.6889777 -2.0291109 0.31453907 12
5.6107683 -2.0023193 0.10331824 13
nan nan nan 0
nan nan nan 0
2.4665143 -0.88362575 -0.5013774 3
nan nan nan 0
3.8899 -1.3950841 -0.50271159 3
5.3524961 -1.9206879 -0.49417382 11
5.5954771 -2.0089815 -0.30853707 10
5.5501204 -1.9937903 -0.10124931 11
5.4947486 -1.9749818 1.5531958 2
5.4962411 -1.9766014 1.3385708 9
5.4764867 -1.9705768 1.1228558 8
5.3842402 -1.9384456 0.89928818 9
5.4660854 -1.9689895 0.7086702 13
5.5372458 -1.9957149 0.51160419 12
5.5644336 -2.0066111 0.30799708 11
5.4814796 -1.9777778 0.10104943 12
nan nan nan 0
nan nan nan 0
nan nan nan 0
nan nan nan 0
3.8710101 -1.4035789 -0.50088358 4
5.3129826 -1.927469 -0.49112335 20
5.4663982 -1.9842055 -0.30175602 9
5.4256525 -1.9704876 -0.099089555 11
5.3561773 -1.9463136 1.5156915 4
5.3839951 -1.9574858 1.3127209 6
5.3450341 -1.9443769 1.0971197 6
5.2660632 -1.9166901 0.88053674 9
5.3659153 -1.9540941 0.69648325 11
5.422606 -1.975811 0.50158125 12
5.4401169 -1.9832669 0.30145508 12
5.3524313 -1.9523585 0.098780617 13
nan nan nan 0
nan nan nan 0
nan nan nan 0
2.9990029 -1.0986663 -0.49980852 3
3.9033637 -1.4307462 -0.50575835 4
5.2126942 -1.9117025 -0.48240778 10
5.3469367 -1.9619936 -0.29549661 8
5.2967248 -1.9446179 -0.096843414 12
5.1952066 -1.9083761 1.4717211 5
5.2719512 -1.9376113 1.2868712 5
5.2138343 -1.9172843 1.0713836 7
5.1620092 -1.8992496 0.86412919 9
5.2333179 -1.9265232 0.68003088 8
5.3081737 -1.9551316 0.49155837 11
5.3160324 -1.95908 0.29491308 12
5.2189393 -1.9243335 0.096424542 15
nan nan nan 0
2.0417769 -0.75527614 -0.49376786 2
nan nan nan 0
nan nan nan 0
3.9541886 -1.465053 -0.51307052 2
5.1079111 -1.8935286 -0.47325641 7
5.2276983 -1.9389722 -0.2892372 8
5.1867919 -1.9248297 -0.094942831 11
5.1522908 -1.9130496 1.4613751 7
5.1464114 -1.9118886 1.2576497 6
5.1104937 -1.8995603 1.0513667 7
5.053514 -1.879385 0.84694046 8
nan nan nan 0
5.1846175 -1.9302024 0.48066393 10
5.1875062 -1.9323086 0.28810945 12
5.1091323 -1.9041303 0.094504774 14
nan nan nan 0
nan nan nan 0
nan nan nan 0
2.9727595 -1.1126521 -0.49667984 3
3.8979273 -1.459702 -0.50636768 4
4.9986548 -1.8728989 -0.46366924 9
5.104012 -1.9133902 -0.28271696 9
5.0583396 -1.8972757 -0.092696682 13
5.0460997 -1.8936893 1.4329234 15
5.0211172 -1.8853137 1.228428 6
4.9843678 -1.8725079 1.0265838 8
4.9452209 -1.8587862 0.82975161 8
nan nan nan 0
5.0566397 -1.9026804 0.46933365 12
5.0825973 -1.9134605 0.28261417 11
5.0042086 -1.8849466 0.092672274 14
nan nan nan 0
2.0911424 -0.79017681 -0.50726491 2
nan nan nan 0
3.0104289 -1.1387472 -0.50371939 3
3.902091 -1.4768127 -0.50758636 3
4.889607 -1.8515304 -0.45408213 8
5.0039148 -1.8958137 -0.27750078 10
4.944169 -1.8741649 -0.090709709 13
4.962687 -1.8821752 1.4109381 14
4.918848 -1.8665305 1.204826 6
4.8906159 -1.856794 1.0084733 7
4.8417511 -1.8392087 0.81334406 9
nan nan nan 0
4.9615083 -1.8866823 0.46105388 11
4.9825506 -1.8956794 0.27738056 12
4.8854661 -1.8597183 0.09057799 14
nan nan nan 0
nan nan nan 0
nan nan nan 0
3.0110481 -1.1510119 -0.50450158 3
3.8737359 -1.4815603 -0.50453967 3
4.7947254 -1.8347641 -0.4458023 9
4.8900161 -1.8722067 -0.27150217 9
4.8535643 -1.8592221 -0.089154683 13
4.8523574 -1.859731 1.3811933 15
4.7985764 -1.8400792 1.1767284 6
4.7970352 -1.8404485 0.99036258 7
4.7430911 -1.8207021 0.79771787 9
4.7796922 -1.835709 0.62397099 9
4.8665519 -1.8700435 0.45277408 10
4.8687105 -1.8718483 0.27136192 12
4.799624 -1.8462485 0.089094535 14
nan nan nan 0
nan nan nan 0
nan nan nan 0
3.0070121 -1.1615155 -0.50450158 3
3.8407664 -1.4843394 -0.50088358 5
4.6953764 -1.815562 -0.43708673 9
4.7996273 -1.8568358 -0.26680762 12
4.7631254 -1.8436701 -0.087599657 13
4.7422466 -1.8365402 1.3514485 10
4.7012653 -1.8216128 1.1542504 7
4.6990528 -1.8216989 0.97129887 7
4.6446199 -1.8015293 0.78209168 9
4.7640018 -1.8487911 0.62275231 9
4.762486 -1.8491594 0.44362271 9
4.7783694 -1.8562863 0.26665169 12
4.7092762 -1.8303912 0.087523811 14
nan nan nan 0
nan nan nan 0
2.4637442 -0.96106917 -0.50614333 2
3.0535448 -1.1917553 -0.51310545 3
3.8448074 -1.5013474 -0.50210226 4
4.6055002 -1.7993145 -0.42924267 9
4.7094078 -1.8408573 -0.26211306 10
4.6682 -1.8256891 -0.08595825 12
4.6323581 -1.8126038 1.3217037 9
4.6222897 -1.8095945 1.1362679 7
4.6012611 -1.8022882 0.9522351 7
4.5463409 -1.7816913 0.76646543 7
4.7066965 -1.8454818 0.61604947 22
4.6447158 -1.8221147 0.43316403 11
4.6835499 -1.8382926 0.26167977 11
4.6190991 -1.813926 0.085953094 14
nan nan nan 0
nan nan nan 0
2.4329755 -0.95886511 -0.50042421 3
3.0309894 -1.1951607 -0.5099768 3
3.8441598 -1.5165803 -0.50271159 4
4.5204282 -1.7842907 -0.42183441 9
4.6193585 -1.8242718 -0.25741848 11
4.5781078 -1.808905 -0.084403217 12
4.53617 -1.7932498 1.2958387 7
4.5434561 -1.7970473 1.1182854 6
4.5082273 -1.7840233 0.93412459 7
4.4528503 -1.7630081 0.75162053 8
4.6079478 -1.8253459 0.60386258 23
4.5735002 -1.8126236 0.42706317 10
4.5889149 -1.8196599 0.25670785 13
4.5337415 -1.7986976 0.084469639 14
nan nan nan 0
nan nan nan 0
2.4387341 -0.97098321 -0.5023306 3
3.0084479 -1.1984234 -0.5068481 3
3.8434525 -1.531827 -0.50332099 5
4.440145 -1.77054 -0.41486195 9
4.5294833 -1.8070804 -0.25272393 9
4.4835486 -1.7896615 -0.082761809 13
4.4401751 -1.7732471 1.2699736 7
4.455719 -1.7803565 1.0980551 6
4.4153776 -1.7651311 0.91601396 7
4.3595462 -1.7436941 0.73677564 9
4.5232205 -1.8100749 0.59350365 14
4.4931588 -1.7989547 0.42009068 11
4.499104 -1.8022462 0.25199762 14
4.4439082 -1.7810363 0.08289893 15
nan nan nan 0
nan nan nan 0
2.4489911 -0.98498458 -0.50519013 2
2.9950833 -1.2052304 -0.50528377 4
3.8426855 -1.5470872 -0.50393027 4
4.3600144 -1.7562513 -0.40788949 9
4.4351544 -1.7874179 -0.24776855 10
4.3984528 -1.7735192 -0.081293173 13
4.3488555 -1.7544035 1.245402 7
4.3455653 -1.7539581 1.0722053 6
4.3227162 -1.7456131 0.89790338 6
4.2710123 -1.7256008 0.7227121 8
4.4294548 -1.7905153 0.58192611 15
4.4083524 -1.7828801 0.41268241 10
4.4140992 -1.7861009 0.24754907 12
4.3588877 -1.7646458 0.081415474 14
nan nan nan 0
nan nan nan 0
2.4367886 -0.98898184 -0.50328374 3
2.9821308 -1.2109177 -0.50371939 3
3.8424039 -1.5610197 -0.50453967 5
4.2806458 -1.7399309 -0.40091702 10
4.3508854 -1.7693657 -0.2433348 9
4.3141389 -1.7552994 -0.079824544 12
4.2672744 -1.7370999 1.2234167 7
4.267839 -1.738198 1.0542228 6
4.2308478 -1.7239933 0.87979275 8
4.1741071 -1.701722 0.70708591 5
4.341095 -1.7706841 0.57095784 14
4.3289413 -1.7666082 0.40570998 12
4.3345037 -1.7697607 0.2433622 12
4.2792749 -1.7480824 0.08001928 14
nan nan nan 0
nan nan nan 0
2.4378631 -0.99934351 -0.504237 3
2.9778857 -1.22132 -0.50371939 3
3.8369317 -1.5744227 -0.50453967 3
4.2008219 -1.7245959 -0.39394456 11
4.2661638 -1.7522914 -0.23890105 9
4.2340007 -1.7399443 -0.078442298 13
4.1718445 -1.7152526 1.1975516 4
4.1220679 -1.6956282 1.0193818 4
4.0977139 -1.6864463 0.85310352 3
4.0311432 -1.6598713 0.68364656 8
4.2568808 -1.7536905 0.56059897 14
4.2444611 -1.7494406 0.39830172 13
4.2544422 -1.7544233 0.2391753 13
4.1992049 -1.7325025 0.078623094 15
nan nan nan 0
nan nan nan 0
2.4341841 -1.0082721 -0.504237 3
2.9733894 -1.2322263 -0.50371939 3
3.8311353 -1.5884751 -0.50453967 4
4.1162586 -1.7075357 -0.38653633 11
4.1813126 -1.7353774 -0.2344673 10
4.158339 -1.7266934 -0.077146441 13
4.076324 -1.6934719 1.1716865 17
4.075335 -1.6938952 1.0092666 18
4.0597811 -1.6882613 0.84643126 20
4.015913 -1.670841 0.6820839 10
4.1817002 -1.7406739 0.55145878 15
4.1690488 -1.736261 0.39176506 12
4.1742387 -1.7392776 0.23498842 14
4.1236115 -1.7190275 0.077314153 15
1.7910219 -0.74846625 -0.50987375 3
2.0489583 -0.85667759 -0.50389069 2
2.4351776 -1.0186568 -0.50519013 3
2.9690702 -1.2425978 -0.50371939 4
3.8255672 -1.6018386 -0.50453967 3
4.0413613 -1.693025 -0.37999964 10
4.1153636 -1.7248706 -0.23107678 11
4.0831323 -1.7121993 -0.075850591 13
4.0392118 -1.694611 1.1626338 17
4.0244741 -1.6892542 0.99802762 17
4.0221848 -1.6891189 0.83975887 17
3.9963973 -1.6791099 0.67974001 15
4.1115494 -1.7283361 0.54292792 15
4.0940905 -1.7218381 0.3852284 12
4.0991073 -1.72479 0.23106325 14
4.0484719 -1.7043159 0.076005228 15
1.7794991 -0.75095791 -0.50728554 3
2.0459554 -0.86382461 -0.50389069 2
2.431607 -1.027151 -0.50519013 3
2.9601657 -1.2510318 -0.5029372 4
3.8199525 -1.6151826 -0.50453967 4
3.9712033 -1.6799527 -0.37389871 11
4.0449419 -1.711979 -0.22742546 11
4.012681 -1.6991508 -0.074641123 13
4.0021415 -1.6955117 1.153581 16
3.9916384 -1.6918839 0.99128413 16
3.9891517 -1.6916512 0.83403975 16
3.9859655 -1.6911209 0.67895865 14
4.0415359 -1.7155302 0.53439701 15
4.02387 -1.7088603 0.37912747 11
4.0287242 -1.7117518 0.22739972 13
3.9780867 -1.6910563 0.074783556 14
1.772424 -0.75527173 -0.50599146 3
2.0205195 -0.86140782 -0.49826688 2
2.4280066 -1.0356326 -0.50519013 3
2.9557807 -1.2613571 -0.5029372 4
3.8097267 -1.6265582 -0.50393027 5
3.9011867 -1.6664119 -0.36779779 10
3.9746604 -1.698617 -0.22377412 10
3.9423716 -1.6856319 -0.073431671 13
3.9651139 -1.6961741 1.1445282 10
3.9543552 -1.6923885 0.98341686 14
3.9381015 -1.6862454 0.82450783 9
3.9255633 -1.6816877 0.66958296 12
3.9716632 -1.702257 0.52586621 15
3.9537907 -1.6954137 0.37302655 11
3.958483 -1.6982437 0.22373621 14
3.9124382 -1.6792985 0.073649146 15
1.7963954 -0.77290684 -0.51375604 3
2.0443494 -0.88001299 -0.50501537 2
2.4243767 -1.0441016 -0.50519013 3
2.9513597 -1.271667 -0.5029372 3
3.8040259 -1.6398467 -0.50393027 6
3.8358879 -1.6543758 -0.36213264 10
3.9091074 -1.6867638 -0.2203836 11
3.8767958 -1.6736242 -0.072308592 13
3.9059615 -1.6870239 1.1290091 10
3.8992271 -1.6849228 0.97105384 13
3.8781281 -1.6766088 0.81306958 8
3.8516781 -1.6659719 0.65786332 11
3.9064882 -1.6904883 0.51794469 14
3.8884256 -1.6834778 0.36736143 11
3.8929677 -1.686251 0.22033437 14
3.8515084 -1.6690912 0.072602004 15
1.7759674 -0.77147555 -0.50857961 3
2.0323291 -0.88326001 -0.50276589 2
2.4207175 -1.0525579 -0.50519013 3
2.9469028 -1.2819614 -0.5029372 3
3.802829 -1.6550958 -0.50453967 9
3.7661543 -1.6399157 -0.35603178 10
3.8436856 -1.6744736 -0.21699309 12
3.8113527 -1.6611795 -0.071185522 13
3.7982223 -1.6562457 1.0992644 10
3.8352699 -1.6731974 0.95644313 12
3.8137717 -1.6646107 0.80067813 9
3.7960546 -1.6576664 0.64926887 11
3.8368959 -1.6762985 0.50941384 14
3.8231936 -1.6711068 0.36169636 11
3.827585 -1.6738219 0.21693254 13
3.7861178 -1.6564754 0.071467601 15
1.7732637 -0.77767015 -0.50857961 3
2.033695 -0.89230633 -0.50389069 2
2.4170287 -1.0610014 -0.50519013 3
2.94241 -1.2922401 -0.5029372 4
3.7606804 -1.6523892 -0.49966487 15
3.701129 -1.6269939 -0.35036662 10
3.7783985 -1.6617481 -0.21360257 11
3.7460446 -1.6482991 -0.070062451 13
3.6995876 -1.6286281 1.0721061 12
3.7759006 -1.6630094 0.94295621 12
3.7495472 -1.6521841 0.78828669 9
3.7314982 -1.6450089 0.63911182 11
3.771992 -1.6636466 0.50149232 14
3.7580955 -1.6583012 0.35603121 11
3.7669048 -1.6629739 0.21379238 13
3.725436 -1.6454436 0.070420451 15
1.7661221 -0.78190011 -0.50728554 3
2.0305679 -0.89939982 -0.50389069 2
2.4133103 -1.069432 -0.50519013 3
2.9378815 -1.3025033 -0.5029372 4
3.6868427 -1.6353236 -0.49052468 8
3.6453462 -1.6176791 -0.34557304 12
3.7132473 -1.6485871 -0.21021205 11
3.6854424 -1.6370124 -0.06902577 13
3.6188478 -1.6081885 1.0501208 26
3.7121983 -1.6504488 0.9283455 12
3.6944261 -1.6433195 0.77780163 9
3.6715901 -1.6339294 0.62973613 11
3.7072239 -1.6505624 0.4935708 14
3.6931338 -1.6450616 0.35036609 11
3.7017872 -1.6496904 0.21039054 14
3.6648781 -1.6340086 0.06937331 15
1.7591099 -0.78578275 -0.50599146 3
2.0277324 -0.90577465 -0.50389069 2
2.4099388 -1.0770082 -0.50519013 3
2.9382832 -1.3137422 -0.50371939 4
3.6318552 -1.6246073 -0.48382184 6
3.599328 -1.6108111 -0.34165102 15
3.6533632 -1.635759 -0.20708236 11
3.6300948 -1.6261014 -0.068075471 12
3.6093702 -1.6175742 1.0488275 15
3.6536474 -1.6381834 0.91485858 13
3.635505 -1.630811 0.76636338 9
3.6168771 -1.6232132 0.62114173 12
3.6431651 -1.635775 0.48564932 16
3.6379681 -1.6342045 0.34557253 12
3.6419339 -1.6367499 0.20725037 14
3.6050122 -1.620913 0.068326168 15
1.7564945 -0.79161185 -0.50599146 3
2.0245583 -0.91284722 -0.50389069 2
2.4061646 -1.0854139 -0.50519013 3
2.9336793 -1.3239907 -0.50371939 4
3.5809314 -1.6168525 -0.47772834 7
3.54829 -1.6028601 -0.33729324 16
3.59758 -1.6258817 -0.20421346 11
3.5742888 -1.6161067 -0.067125186 13
3.5684974 -1.6142384 1.0384815 9
3.5990818 -1.6288303 0.90249562 15
3.5806055 -1.6212215 0.75587833 9
3.5572064 -1.6113751 0.61176598 13
3.5877106 -1.625948 0.47894648 16
3.5823402 -1.6242678 0.34077895 12
3.5816324 -1.6247004 0.20411022 14
3.5492561 -1.6107608 0.067366287 15
1.757977 -0.80004489 -0.50728554 2
2.021199 -0.92026144 -0.50389069 2
2.4021702 -1.0942258 -0.50519013 3
2.928807 -1.3347342 -0.50371939 4
3.5253108 -1.6073198 -0.47102556 7
3.5016055 -1.5972499 -0.33337122 14
3.5370865 -1.6141803 -0.20108375 11
3.5183167 -1.6063566 -0.066174895 12
3.5274112 -1.6112528 1.0281355 8
3.5443437 -1.619735 0.89013267 13
3.5255368 -1.6118844 0.74539322 9
3.5018749 -1.6018051 0.60317159 12
3.5320883 -1.6163706 0.4722437 16
3.5265455 -1.6145785 0.33598539 11
3.5302575 -1.6170235 0.20149343 14
3.4887915 -1.5987667 0.066319138 15
1.7551737 -0.80617648 -0.50728554 3
2.0179741 -0.92731112 -0.50389069 2
2.3983359 -1.1026042 -0.50519013 3
2.9241302 -1.3449496 -0.50371939 4
3.4700871 -1.5967954 -0.46432272 8
3.4507635 -1.5886334 -0.32901344 13
3.4815423 -1.6035397 -0.19821484 11
3.4627438 -1.595614 -0.065224595 12
3.4822893 -1.6053573 1.0164962 7
3.4855783 -1.6076113 0.87664586 12
3.4708652 -1.6015599 0.73490822 8
3.4514239 -1.59332 0.59535849 12
3.4768648 -1.6058007 0.46554089 15
3.4711504 -1.6038966 0.33119184 11
3.474736 -1.6062894 0.19861494 13
3.4332774 -1.5878514 0.065359257 15
1.7523489 -0.81229824 -0.50728554 3
2.0103052 -0.93229973 -0.50276589 2
2.3944726 -1.1109692 -0.50519013 3
2.9238968 -1.3572277 -0.50450158 4
3.4194815 -1.5879959 -0.45822924 8
3.4000249 -1.5796816 -0.32465565 13
3.4261165 -1.5925312 -0.19534594 10
3.407289 -1.5845032 -0.064274311 13
3.4328732 -1.5971295 1.0035638 16
3.4313586 -1.5971532 0.86428291 12
3.4163084 -1.5908736 0.72442311 8
3.3965986 -1.5824167 0.58676404 11
3.4262574 -1.5969621 0.45944741 15
3.4203877 -1.5949528 0.32683405 11
3.4193337 -1.5951881 0.19573647 13
3.3824127 -1.5786825 0.064486638 15
1.7495028 -0.81841016 -0.50728554 3
2.0070386 -0.93931139 -0.50276589 2
2.3905799 -1.1193208 -0.50519013 3
2.9191413 -1.3674257 -0.50450158 4
3.3689799 -1.5788627 -0.45213574 9
3.3493912 -1.5703954 -0.32029784 13
3.3753309 -1.5832762 -0.19273785 12
3.3564806 -1.5751487 -0.063410401 12
3.3879294 -1.5906289 0.99192441 15
3.3816643 -1.5884078 0.85304385 12
3.3618696 -1.5798262 0.713938 8
3.3463614 -1.5732515 0.57895094 11
3.371263 -1.5856774 0.4527446 15
3.36973 -1.5856745 0.32247624 11
3.3685689 -1.5858463 0.19311966 14
3.3316545 -1.5691782 0.063614018 15
1.7466352 -0.82451206 -0.50728554 2
2.0037475 -0.94631153 -0.50276589 2
2.3866582 -1.1276586 -0.50519013 3
2.9188154 -1.3797177 -0.50528377 4
3.3185852 -1.5693965 -0.4460423 8
3.2988646 -1.560775 -0.31594005 13
3.3201392 -1.5715499 -0.18986896 11
3.3057795 -1.5654591 -0.062546499 12
3.3387089 -1.5817665 0.97899193 15
3.3276713 -1.5772483 0.8406809 12
3.3075502 -1.5684185 0.70345294 7
3.2917678 -1.5616384 0.57035655 11
3.3208737 -1.5761565 0.44665113 15
3.3191795 -1.5760622 0.31811845 11
3.3179114 -1.5761698 0.19050287 14
3.2810042 -1.5593392 0.062741399 16
1.7393864 -0.82852703 -0.50599146 3
2.000432 -0.95330012 -0.50276589 3
2.3827076 -1.1359828 -0.50519013 3
2.9139814 -1.3898978 -0.50528377 4
3.2727766 -1.5617355 -0.44055817 9
3.2529414 -1.5529674 -0.31201804 14
3.2695765 -1.56161 -0.18726087 11
3.2596979 -1.5575905 -0.06176899 13
3.2895918 -1.57258 0.96605939 15
3.2781928 -1.5678337 0.82944185 13
3.2577796 -1.5587695 0.69392109 8
3.2417517 -1.551796 0.56254345 11
3.2705927 -1.5663036 0.44055766 15
3.2687378 -1.5661168 0.31376067 11
3.262861 -1.5640013 0.18762439 14
3.230464 -1.5491657 0.061868776 16
1.7364837 -0.83459365 -0.50599146 3
1.9970922 -0.96027714 -0.50276589 3
2.3831508 -1.1464208 -0.50614333 3
2.9135618 -1.4022026 -0.50606591 4
3.227062 -1.5537738 -0.43507403 10
3.207113 -1.5448583 -0.30809602 13
3.2236223 -1.553504 -0.18491358 10
3.209209 -1.5472484 -0.060905088 13
3.2405798 -1.5630702 0.95312691 15
3.2332094 -1.5602106 0.8193267 13
3.208117 -1.5487925 0.68438917 8
3.1918447 -1.5416236 0.55473036 11
3.2204211 -1.556119 0.43446419 15
3.2228911 -1.5580063 0.30983865 12
3.2169261 -1.5558155 0.18526928 14
3.1800354 -1.5386587 0.060996156 16
1.7292142 -0.83854264 -0.50469732 3
1.993728 -0.96724242 -0.50276589 3
2.3835502 -1.1568757 -0.50709653 3
2.9086494 -1.4123644 -0.50606591 4
3.1814437 -1.5455123 -0.4295899 10
3.161382 -1.5364485 -0.30417401 14
3.1777656 -1.5450968 -0.1825663 11
3.1633284 -1.5387599 -0.060127579 12
3.196018 -1.555351 0.94148761 15
3.183939 -1.5501601 0.80808765 13
3.162977 -1.5406374 0.67581046 8
3.1464882 -1.5332854 0.54769856 11
3.1748219 -1.5477782 0.42898008 15
3.1726642 -1.5474117 0.30548087 11
3.1710889 -1.5473286 0.18291415 14
3.1297197 -1.5278189 0.060123537 12
1.7262766 -0.84457362 -0.50469732 2
1.9903396 -0.9741959 -0.50276589 3
2.3839059 -1.1673474 -0.50804973 3
2.9037018 -1.4225088 -0.50606591 4
3.1403792 -1.5391356 -0.42471513 10
3.1157486 -1.5277383 -0.30025199 14
3.1364899 -1.5385873 -0.18047984 11
3.1130586 -1.5277674 -0.059263673 13
3.1472144 -1.5452114 0.92855507 16
3.1391516 -1.5419328 0.7979725 12
3.1135283 -1.5300214 0.6662786 8
3.1012294 -1.5246496 0.54066676 12
3.1293206 -1.5391382 0.42349595 15
3.1270208 -1.5386848 0.30155888 11
3.1298304 -1.540746 0.18082072 15
3.079519 -1.5166466 0.059250917 12
1.723318 -0.85059428 -0.50469732 2
1.9869269 -0.98113763 -0.50276589 3
2.384217 -1.1778356 -0.50900286 3
2.8987186 -1.4326359 -0.50606591 4
3.0949497 -1.5302916 -0.419231 10
3.0702155 -1.5187286 -0.29632998 14
3.0908234 -1.5295942 -0.17813255 11
3.0673847 -1.5186614 -0.058486164 14
3.1028492 -1.5368941 0.91691583 16
3.0988264 -1.5355752 0.78898126 13
3.0685906 -1.5212594 0.65769988 9
3.0560699 -1.5157167 0.53363496 12
3.0839188 -1.5301998 0.41801181 14
3.0814769 -1.5296584 0.29763687 11
3.0841846 -1.5316734 0.1784656 15
3.0339124 -1.5073674 0.058465559 12
1.7246617 -0.85875738 -0.50599146 3
1.98349 -0.98806727 -0.50276589 3
2.3844838 -1.1883403 -0.50995612 3
2.8892806 -1.4405421 -0.50528377 5
3.0540617 -1.5233645 -0.41435623 10
3.0292406 -1.5116441 -0.29284373 14
3.049726 -1.5225316 -0.17604607 12
3.0262854 -1.511489 -0.057795044 13
3.0585811 -1.5282862 0.9052766 15
3.0455108 -1.5224197 0.7766183 13
3.0281422 -1.514398 0.65007442 8
3.0065939 -1.5042777 0.52582186 12
3.0341806 -1.5187421 0.41191834 15
3.0360346 -1.5203329 0.29371485 12
3.0431054 -1.5245379 0.17637217 15
2.9794698 -1.4933083 0.057505675 13
1.7259693 -0.86694008 -0.50728554 3
1.9843823 -0.99717253 -0.50389069 3
2.3803213 -1.1966563 -0.50995612 3
2.8886464 -1.4528377 -0.50606591 6
3.0176933 -1.5184016 -0.4100908 10
2.9483113 -1.4841357 -0.2854355 14
2.9953372 -1.5084633 -0.17317718 11
2.9540215 -1.4883028 -0.056499191 14
3.005785 -1.5150403 0.89105082 15
3.0053759 -1.515492 0.76762706 13
2.9702506 -1.49843 0.63863617 8
2.9351916 -1.4813861 0.51410222 11
2.98456 -1.506956 0.4058249 15
2.9640198 -1.4972341 0.28717816 12
3.0021138 -1.5171345 0.17427872 15
2.9117787 -1.4721211 0.056284007 12
1.7272408 -0.8751424 -0.50857961 3
1.9808894 -1.0040933 -0.50389069 3
2.3805072 -1.2071779 -0.51090926 3
2.8747492 -1.4584434 -0.50450158 11
2.9415691 -1.4929887 -0.40034124 10
2.8676114 -1.4560812 -0.27802724 17
2.9188259 -1.4827269 -0.16900423 12
2.8864141 -1.4668959 -0.055289723 14
2.9358981 -1.492689 0.87165201 16
2.9262435 -1.4884232 0.74852067 13
2.8993845 -1.4753985 0.62433833 8
2.8551841 -1.4535338 0.50081992 15
2.9129481 -1.4835808 0.39668468 15
2.8966424 -1.475913 0.28107727 13
2.9122775 -1.4845198 0.16930681 15
2.8264582 -1.4413953 0.05471329 18
1.7284759 -0.88336414 -0.50987375 3
1.98171 -1.0132195 -0.50501537 3
2.3806489 -1.2177153 -0.51186246 4
2.8652446 -1.4662197 -0.50371939 14
2.8612421 -1.4648017 -0.38998231 25
2.8226116 -1.4456468 -0.27410525 19
2.8247559 -1.4473674 -0.16378805 16
2.8189926 -1.4450357 -0.054080263 26
2.8533115 -1.4632566 0.84837347 18
2.829999 -1.4519252 0.72491866 17
2.8068829 -1.4406846 0.60527456 13
2.8061607 -1.4409326 0.49300683 22
2.8238797 -1.450654 0.3851071 26
2.8250206 -1.4518633 0.27454057 22
2.8227067 -1.4512969 0.16433489 28
2.803627 -1.4421059 0.054364245 55
1.721089 -0.88717937 -0.50857961 3
1.9738313 -1.0178978 -0.50389069 3
2.3763838 -1.226018 -0.51186246 4
2.8293903 -1.4603572 -0.49824417 15
2.834064 -1.463396 -0.38693559 18
2.7998466 -1.4463465 -0.27236211 13
2.8019431 -1.4480491 -0.16274482 21
2.7872865 -1.4410908 -0.053561922 13
2.8052871 -1.4510182 0.83544099 20
2.8162594 -1.4573166 0.72267085 24
2.7931192 -1.4459605 0.60336822 16
2.7967284 -1.4484478 0.4922255 13
2.7967668 -1.4490869 0.38206038 16
2.8022468 -1.4525467 0.27279747 15
2.7954607 -1.4496481 0.1630265 16
2.7719505 -1.4380704 0.053840671 57
1.7136967 -0.89095384 -0.50728554 3
1.9659438 -1.0225335 -0.50276589 3
2.3720896 -1.2343055 -0.51186246 4
2.7979927 -1.4565428 -0.49355114 15
2.7937257 -1.4549413 -0.38206083 14
2.7594419 -1.437699 -0.2688759 9
2.7570212 -1.4370497 -0.16039754 7
2.7512095 -1.4346311 -0.052957188 16
2.783076 -1.4518659 0.83026797 15
2.7593248 -1.4400882 0.70918405 9
2.7575984 -1.4397994 0.59669584 15
2.7478814 -1.4353365 0.4844124 16
2.765301 -1.44505 0.37840432 16
2.7662601 -1.4461659 0.26974702 17
2.7594116 -1.4431988 0.16119474 18
2.744766 -1.4361491 0.053404361 67
1.7105763 -0.89693034 -0.50728554 3
1.9537339 -1.0248634 -0.50051636 3
2.3677666 -1.2425781 -0.51186246 4
2.7666566 -1.4525272 -0.4888581 22
2.7666621 -1.453146 -0.37901407 15
2.7323599 -1.4357378 -0.26669699 12
2.7298896 -1.4350479 -0.1590935 32
2.7240617 -1.4325912 -0.052525241 14
2.7437961 -1.4435809 0.81992191 13
2.7327244 -1.4383649 0.70356447 15
2.7395267 -1.4425559 0.59383631 19
2.7341156 -1.4403162 0.48284978 12
2.7426789 -1.4454387 0.37596691 22
2.747977 -1.4488438 0.26843968 23
2.7366912 -1.4435041 0.16014802 23
2.713208 -1.4317228 0.05288079 46
1.7031655 -0.90063828 -0.50599146 3
1.9415318 -1.0271206 -0.49826688 3
2.3634148 -1.2508357 -0.51186246 4
2.7397473 -1.4506215 -0.48494723 10
2.744031 -1.4535028 -0.37657669 9
2.7053256 -1.4336054 -0.26451808 6
2.7072172 -1.4352132 -0.15805025 31
2.6969619 -1.4303793 -0.052093286 7
2.7259409 -1.4463586 0.81604218 13
2.7104738 -1.438758 0.69906884 17
2.7171347 -1.4429017 0.59002358 10
2.7116263 -1.4405833 0.47972456 6
2.711323 -1.441029 0.37231082 13
2.7253113 -1.4490736 0.26669657 12
2.7095945 -1.4413235 0.15883961 8
2.6817141 -1.4270936 0.052357219 34
1.7044314 -0.908553 -0.50728554 3
1.9596093 -1.0450157 -0.50389069 3
2.3549235 -1.2563558 -0.51090926 4
2.7262082 -1.4550483 -0.48338288 5
2.7173071 -1.4509068 -0.37352994 6
2.6741962 -1.4284875 -0.26190341 11
2.6848278 -1.4347692 -0.15700702 9
2.6701598 -1.4275298 -0.051661339 7
2.6998348 -1.4440006 0.80957586 6
2.6885047 -1.4385443 0.69457322 9
2.6863708 -1.4380056 0.58430439 6
2.6807127 -1.4355787 0.47503668 11
2.6802826 -1.4359505 0.36865473 8
2.69415 -1.4439852 0.2640819 9
2.6783972 -1.436144 0.15726954 7
2.6505346 -1.4217997 0.051833645 42
1.7012496 -0.91449702 -0.50728554 3
1.96024 -1.0541569 -0.50501537 3
2.3505235 -1.2645683 -0.51090926 4
2.7254615 -1.4668962 -0.48416507 6
2.690378 -1.4486192 -0.37048322 11
2.6472673 -1.4260026 -0.25972453 10
2.6578255 -1.4322884 -0.15570298 4
2.6431582 -1.4249797 -0.051229388 6
2.6692719 -1.4396596 0.8018164 22
2.6620281 -1.4363524 0.6889537 9
2.6554193 -1.433385 0.57858527 4
2.6496122 -1.4308476 0.47034883 10
2.6490562 -1.4311445 0.36499867 9
2.6628015 -1.4391708 0.26146722 5
2.6514068 -1.4336102 0.15596114 14
2.619169 -1.4167777 0.05131007 28
1.6978863 -0.9207263 -0.50728554 3
1.9649278 -1.0659808 -0.50726491 3
2.3458729 -1.2731749 -0.51090926 4
2.6853468 -1.4580243 -0.47790766 4
2.6632459 -1.4466263 -0.36743647 11
2.6157639 -1.4214264 -0.25710985 10
2.6306236 -1.430096 -0.15439893 16
2.611567 -1.4203268 -0.050711047 14
2.6342797 -1.4332751 0.79276359 9
2.6310706 -1.4321243 0.68221027 6
2.6242843 -1.4290242 0.57286614 14
2.6139927 -1.4240116 0.46487963 10
2.6132898 -1.4242202 0.36073324 5
2.6312695 -1.4346147 0.25885257 14
2.6198337 -1.428973 0.15439107 11
2.5920198 -1.4143891 0.050873764 53
1.6988995 -0.9289645 -0.50857961 3
1.9654691 -1.0751714 -0.50838971 3
2.3414145 -1.2813557 -0.51090926 3
2.6499188 -1.450788 -0.47243246 3
2.6320641 -1.4416102 -0.36378038 11
2.5845768 -1.4161873 -0.25449514 10
2.5993445 -1.4248691 -0.15283407 12
2.584676 -1.417415 -0.050279092 14
2.5953848 -1.4238769 0.7824176 7
2.6047006 -1.4295791 0.6765908 12
2.5891633 -1.4216396 0.56619388 10
2.5830345 -1.4188614 0.46019179 11
2.5822065 -1.4189931 0.35707715 15
2.5956919 -1.4269936 0.25580209 9
2.5885789 -1.4236716 0.15282097 10
2.5607836 -1.4089745 0.050350189 52
1.699876 -0.93722093 -0.50987375 3
1.9617041 -1.0820255 -0.50838971 3
2.3326297 -1.2871497 -0.50995612 3
2.6145744 -1.4433227 -0.46695724 3
2.6052947 -1.4387932 -0.36073366 12
2.5534587 -1.4107481 -0.25188047 10
2.5725045 -1.4218566 -0.15153003 12
2.5534627 -1.411914 -0.049760751 13
2.5608146 -1.4165627 0.77336484 7
2.5741177 -1.4245083 0.66984737 11
2.5584202 -1.4164047 0.56047469 11
2.5521448 -1.4135126 0.45550394 11
2.551192 -1.4135668 0.35342106 11
2.5645561 -1.4215566 0.25318745 9
2.5573936 -1.4181699 0.1512509 9
2.5296235 -1.4033476 0.049826618 55
1.6965941 -0.94314897 -0.50987375 3
1.9579153 -1.0888666 -0.50838971 3
2.3281226 -1.2952843 -0.50995612 3
2.5836298 -1.4380299 -0.46226421 4
2.5742412 -1.4333926 -0.35707757 12
2.5224104 -1.405109 -0.2492658 11
2.5413558 -1.4162439 -0.14996518 11
2.5223198 -1.4062126 -0.049242411 17
2.5305455 -1.4113773 0.76560533 7
2.543602 -1.4192415 0.66310394 12
2.5277452 -1.4109727 0.55475557 11
2.5213244 -1.4079657 0.45081607 12
2.5202472 -1.4079413 0.349765 12
2.5334904 -1.4159199 0.25057277 13
2.5262785 -1.4124678 0.14968082 13
2.4985311 -1.3975266 0.049303047 62
1.6975046 -0.95142674 -0.51116782 3
1.9541025 -1.0956944 -0.50838971 3
2.3235869 -1.303403 -0.50995612 4
2.5570612 -1.4349557 -0.45835334 12
2.5432575 -1.4277933 -0.35342148 12
2.4914329 -1.3992707 -0.24665113 11
2.510278 -1.410431 -0.14840032 12
2.4868898 -1.3978612 -0.048637681 12
2.496134 -1.4036307 0.75655258 10
2.5131547 -1.4137791 0.65636045 17
2.4971402 -1.405344 0.54903644 11
2.4905739 -1.4022211 0.44612822 10
2.4893732 -1.4021173 0.34610891 16
2.5024953 -1.4100837 0.24795809 12
2.4952345 -1.4065661 0.14811075 14
2.4675102 -1.3915055 0.048779473 11
1.6941731 -0.95734638 -0.51116782 3
1.9502659 -1.1025088 -0.50838971 3
2.3190231 -1.3115059 -0.50995612 4
2.5348439 -1.4341457 -0.45522466 14
2.5123446 -1.421995 -0.34976539 13
2.4648614 -1.3956876 -0.24447222 11
2.4749274 -1.4019578 -0.14657466 11
2.4558988 -1.391745 -0.04811934 10
2.4660096 -1.3980433 0.74879307 9
2.4827769 -1.4081217 0.64961702 10
2.4666054 -1.3995191 0.54331732 12
2.4598944 -1.396279 0.44144034 11
2.4585707 -1.396095 0.34245285 9
2.4759033 -1.4065088 0.24577919 12
2.4686041 -1.4029322 0.14680235 12
2.4322162 -1.3828143 0.048168641 10
1.695186 -0.96534914 -0.5124619 3
1.9510258 -1.1110411 -0.50951445 3
2.3148916 -1.318785 -0.50995612 3
2.4745488 -1.4103131 -0.44505644 12
2.4776864 -1.4126743 -0.34549999 13
2.434505 -1.388617 -0.24185754 16
2.44449 -1.3948779 -0.1450098 12
2.4254644 -1.3845828 -0.047600996 11
2.4406347 -1.3938076 0.7423268 8
2.4529591 -1.4014136 0.64287359 10
2.4366281 -1.3926477 0.53759819 13
2.4297721 -1.3892919 0.43675247 17
2.4283261 -1.3890275 0.33879676 10
2.4455333 -1.3994367 0.24316452 13
2.4381847 -1.3957963 0.14523228 13
2.4018309 -1.3755416 0.04764507 17
1.6919755 -0.97096527 -0.5124619 3
1.9471358 -1.1178446 -0.50951445 3
2.3102741 -1.3268573 -0.50995612 4
2.4310732 -1.3968 -0.43801686 21
2.4469244 -1.4064757 -0.34184387 16
2.4037349 -1.3822089 -0.23924288 10
2.4093089 -1.3859736 -0.14318414 20
2.394619 -1.3780793 -0.047082655 12
2.41064 -1.3878596 0.73456728 11
2.4227209 -1.3953779 0.63613021 14
2.406235 -1.3864421 0.53187907 21
2.4035146 -1.3854334 0.43284592 8
2.3976679 -1.3826207 0.33514068 17
2.4147465 -1.3930309 0.24054985 13
2.4073496 -1.3893238 0.14366218 14
2.3667085 -1.3664198 0.047034234 8
1.6925855 -0.97957933 -0.51375604 3
1.9430256 -1.1249738 -0.50951445 3
2.3053954 -1.3353161 -0.50995612 4
2.3917537 -1.3858933 -0.43175948 10
2.4116983 -1.3980126 -0.33757848 11
2.3727999 -1.3760172 -0.2366282 9
2.3782988 -1.379761 -0.14161928 8
2.3636091 -1.3717903 -0.046564315 11
2.380476 -1.3821349 0.72680777 10
2.3965256 -1.3920127 0.63051063 10
2.3756742 -1.380456 0.52615994 7
2.3728032 -1.3793417 0.42815807 5
2.3668439 -1.3764302 0.33148462 9
2.3837924 -1.3868433 0.23793519 13
2.3763487 -1.383068 0.14209211 14
2.3357627 -1.3599923 0.046510659 7
1.6891558 -0.98548168 -0.51375604 3
1.9390869 -1.1317493 -0.50951445 3
2.3007202 -1.3433552 -0.50995612 4
2.3613162 -1.3792888 -0.42706645 10
2.3810952 -1.3913996 -0.33392239 10
2.3464816 -1.3717226 -0.23444931 8
2.3432965 -1.3704095 -0.13979362 8
2.3372314 -1.3674097 -0.046132363 10
2.3506267 -1.3757976 0.71904826 8
2.3748348 -1.3905227 0.62601501 5
2.3454299 -1.3738552 0.52044082 7
2.3466694 -1.3751316 0.4242515 3
2.3363371 -1.3696249 0.32782853 9
2.3531575 -1.3800372 0.23532051 11
2.3499732 -1.3787211 0.14078373 12
2.309444 -1.3554845 0.046074349 7
1.6898686 -0.99382013 -0.51505011 3
1.9351245 -1.1385109 -0.50951445 3
2.300247 -1.3538677 -0.51090926 5
2.3309538 -1.3724887 -0.42237341 8
2.3505676 -1.38459 -0.3302663 9
2.3159308 -1.364732 -0.23183462 9
2.3169918 -1.3659021 -0.13848959 7
2.3109128 -1.362862 -0.045700416 10
2.3250108 -1.3717233 0.71258199 7
2.3531835 -1.3888984 0.62151939 3
2.3194871 -1.3695561 0.51567489 3
2.3163421 -1.3682443 0.41956365 13
2.3101792 -1.3651479 0.32478178 9
2.3268869 -1.3755689 0.23314162 10
2.3193593 -1.3716652 0.13921364 11
2.2788825 -1.3482643 0.045550779 8
1.6905437 -1.0021757 -0.51634425 3
1.9311385 -1.1452589 -0.50951445 3
2.2997284 -1.3643934 -0.51186246 6
2.300668 -1.3654937 -0.41768035 9
2.324384 -1.3801183 -0.32721955 10
2.2854583 -1.3575454 -0.22921994 9
2.2907472 -1.3612279 -0.13718553 7
2.2846553 -1.3581475 -0.045268461 11
2.295301 -1.3650182 0.70482248 6
2.3315725 -1.3871398 0.61702383 11
2.2978213 -1.3676031 0.5118621 17
2.2903349 -1.3636888 0.41565707 15
2.2840817 -1.3605055 0.32173505 9
2.2963974 -1.3683844 0.23052694 11
2.2931125 -1.3669695 0.13790524 11
2.2526941 -1.3434081 0.045114469 10
1.6870351 -1.0080707 -0.51634425 3
1.9271291 -1.1519928 -0.50951445 3
2.3033769 -1.3774508 -0.51376885 9
2.2746978 -1.3608395 -0.41376951 9
2.2982602 -1.3754803 -0.32417279 10
2.2593379 -1.3527216 -0.22704107 9
2.2645636 -1.3563873 -0.1358815 9
2.2584589 -1.3532664 -0.044836514 16
2.2698092 -1.3606058 0.69835621 8
2.3058248 -1.382742 0.6114043 14
2.2719884 -1.3629904 0.50709617 10
2.2643883 -1.3589686 0.41175056 15
2.2580447 -1.3556975 0.31868833 13
2.2745273 -1.3661336 0.22878383 16
2.2669272 -1.3621073 0.13659684 17
2.2308521 -1.3409612 0.04476542 9
1.6876432 -1.0164452 -0.51763833 3
1.9230961 -1.1587129 -0.50951445 3
2.2985547 -1.3854827 -0.51376885 15
2.2445593 -1.3534706 -0.40907648 9
2.2721982 -1.3706775 -0.32112607 10
2.2332792 -1.3477318 -0.22486216 9
2.242717 -1.3539612 -0.13483825 10
2.2323244 -1.3482189 -0.044404563 11
2.2443767 -1.3560325 0.69188994 11
2.2759666 -1.3756611 0.60466087 12
2.250416 -1.360754 0.50328338 13
2.2342772 -1.3515279 0.40706271 9
2.2363155 -1.353294 0.31625095 11
2.2484396 -1.3611671 0.22660492 9
2.2365332 -1.3544925 0.13502677 10
2.2047789 -1.3357875 0.044329111 8
1.6840849 -1.0223299 -0.51763833 3
1.9190397 -1.1654186 -0.50951445 3
2.2559507 -1.3705612 -0.50519013 16
2.2187202 -1.3484727 -0.40516558 9
2.2461975 -1.3657094 -0.31807932 10
2.2072833 -1.342577 -0.22268325 9
2.2166491 -1.3488038 -0.13353421 9
2.2062533 -1.3430057 -0.043972608 11
2.2190037 -1.3512981 0.68542367 9
2.2461863 -1.3683888 0.59791738 14
2.2246962 -1.3558294 0.49851748 14
2.2084625 -1.3464645 0.40315613 8
2.2103937 -1.3481711 0.3132042 11
2.222415 -1.3560354 0.22442605 9
2.2104816 -1.3492837 0.13371836 9
2.1787694 -1.3304485 0.043892797 8
1.680506 -1.0282023 -0.51763833 3
1.9191154 -1.1746538 -0.51063919 4
2.2260375 -1.3630488 -0.49947101 9
2.1971552 -1.3458909 -0.40203691 9
2.2202594 -1.3605767 -0.3150326 10
2.1855974 -1.3398607 -0.22094014 9
2.1949015 -1.3460914 -0.13249098 7
2.1802459 -1.3376271 -0.04354066 10
2.1936915 -1.3464034 0.67895746 7
2.2164845 -1.3609256 0.59117401 15
2.2032208 -1.3533111 0.49470475 14
2.1827104 -1.3412374 0.39924955 8
2.1845353 -1.3428839 0.31015745 9
2.1964533 -1.3507386 0.22224714 8
2.1802416 -1.3412937 0.13214828 8
2.1528244 -1.3249444 0.043456491 8
1.6769067 -1.0340621 -0.51763833 3
1.9150035 -1.1813455 -0.51063919 3
2.2003813 -1.3579224 -0.49470508 6
2.171433 -1.3405809 -0.39812601 9
2.1986072 -1.3578874 -0.31259522 10
2.1597202 -1.3343911 -0.21876125 9
2.1689525 -1.3406184 -0.13118692 7
2.1543031 -1.3320835 -0.043108709 10
2.1684406 -1.3413483 0.67249113 7
2.1868629 -1.3532717 0.58443058 11
2.1776166 -1.3480756 0.4899388 14
2.1612208 -1.3384476 0.39612433 8
2.1587408 -1.3374329 0.30711073 9
2.1747899 -1.3479015 0.22050403 8
2.1543281 -1.33574 0.13083988 8
2.1311929 -1.3219106 0.043107443 7
1.6732869 -1.0399092 -0.51763833 3
1.9150054 -1.1905951 -0.51176393 3
2.1872921 -1.3604102 -0.49279872 4
2.1457753 -1.3351078 -0.39421517 9
2.1727877 -1.3524413 -0.30954847 10
2.1381361 -1.3313904 -0.21701814 9
2.143069 -1.334981 -0.12988289 7
2.1326687 -1.3290193 -0.042763148 10
2.1432521 -1.3361338 0.66602492 8
2.1614559 -1.3480062 0.57881105 11
2.1520762 -1.3426783 0.48517281 14
2.1355882 -1.3329093 0.39221779 9
2.1372211 -1.3344468 0.30467334 9
2.1489489 -1.3422906 0.21832512 8
2.1327147 -1.3326681 0.12979317 9
2.1053698 -1.3160921 0.042671129 8
1.6655537 -1.0431801 -0.51634425 3
1.9108378 -1.1972725 -0.51176393 3
2.1783712 -1.3654302 -0.49184549 3
2.1243658 -1.3320956 -0.39108649 9
2.1512375 -1.3494687 -0.30711108 10
2.1123805 -1.3256075 -0.21483923 9
2.1172514 -1.3291793 -0.12857884 8
2.1110823 -1.3258202 -0.042417586 13
2.1181266 -1.3307598 0.65955865 8
2.1361127 -1.34258 0.57319152 12
2.1307554 -1.3397317 0.48136008 14
2.1142011 -1.3298379 0.38909256 11
2.1115479 -1.3286835 0.30162659 10
2.127389 -1.3391697 0.21658202 10
2.1111493 -1.3294616 0.12874645 11
2.0838437 -1.3127744 0.042322084 10
1.6578181 -1.0464098 -0.51505011 3
1.9066468 -1.2039353 -0.51176393 3
2.1694419 -1.3704046 -0.49089235 2
2.0988293 -1.3263121 -0.38717562 9
2.1297348 -1.3463625 -0.3046737 10
2.0909014 -1.3223238 -0.21309611 9
2.0957201 -1.3258834 -0.1275356 7
2.0895445 -1.322487 -0.042072024 14
2.0971458 -1.3278106 0.65438563 10
2.1108336 -1.3369932 0.567572 11
2.1053357 -1.3340257 0.47659415 14
2.0928614 -1.3266335 0.38596731 12
2.0901327 -1.3254153 0.29918921 12
2.1058772 -1.3359147 0.21483891 11
2.0896323 -1.326121 0.12769973 11
2.0623665 -1.3093225 0.041973036 10
1.6582303 -1.0547825 -0.51634425 3
1.8983227 -1.2079679 -0.51063919 3
2.1439426 -1.3647902 -0.48612636 2
2.0775249 -1.3230196 -0.38404691 9
2.1040943 -1.3404558 -0.30162695 10
2.0694709 -1.3189062 -0.211353 9
2.0700278 -1.3197691 -0.12623155 8
2.0680556 -1.3190196 -0.041726466 12
2.0721397 -1.3221333 0.64791936 11
2.0856199 -1.3312466 0.56195247 11
2.0841191 -1.3308005 0.47278142 15
2.0674083 -1.3206381 0.38206074 11
2.0687664 -1.322014 0.29675183 12
2.0844145 -1.3325261 0.21309578 11
2.0681643 -1.3226463 0.126653 11
2.0409391 -1.3057368 0.041623987 9
1.6586045 -1.0631707 -0.51763833 3
1.8940945 -1.214587 -0.51063919 3
2.1185088 -1.3590144 -0.48136041 2
2.0562692 -1.3195946 -0.38091823 9
2.0826976 -1.337068 -0.29918957 10
2.0480902 -1.3153553 -0.20960988 10
2.048605 -1.316191 -0.12518832 8
2.046617 -1.3154184 -0.041380905 11
2.0512619 -1.3189099 0.64274633 9
2.06457 -1.327976 0.55745685 12
2.0629504 -1.3274434 0.46896866 14
2.0461752 -1.3171542 0.37893552 10
2.0474494 -1.3184797 0.29431444 10
2.0630012 -1.3290039 0.21135268 10
2.0467467 -1.319038 0.12560628 10
2.0195618 -1.3020177 0.041274939 8
1.6548831 -1.0689538 -0.51763833 3
1.8898433 -1.2211913 -0.51063919 3
2.093142 -1.353078 -0.47659451 3
2.035063 -1.3160374 -0.37778956 10
2.0613506 -1.3335475 -0.29675218 10
2.0267599 -1.3116715 -0.20786677 9
2.0272322 -1.3124793 -0.12414508 8
2.0252285 -1.3116837 -0.041035343 11
2.0263784 -1.3129307 0.63628012 8
2.0394802 -1.3219249 0.55183733 12
2.041831 -1.3239548 0.4651559 14
2.020849 -1.3108507 0.37502894 9
2.0261822 -1.3148127 0.29187706 10
2.0374601 -1.3226365 0.20917377 9
2.0211918 -1.3125775 0.12429789 9
1.9982356 -1.2981652 0.04092589 8
1.6551894 -1.0773585 -0.5189324 3
1.8814862 -1.225122 -0.50951445 3
2.0678425 -1.3469812 -0.47182852 3
2.013907 -1.3123485 -0.37466085 9
2.0400536 -1.3298941 -0.2943148 11
2.0054803 -1.3078549 -0.20612365 10
2.0059106 -1.3086346 -0.12310185 8
2.0038915 -1.307816 -0.040689785 11
2.0056064 -1.3094344 0.63110709 8
2.018537 -1.3183793 0.5473417 12
2.0166523 -1.3176503 0.46038994 14
1.9955918 -1.3043867 0.37112242 9
2.0049663 -1.3110137 0.28943968 10
2.0161572 -1.3188337 0.20743066 9
1.9998857 -1.3086884 0.12325118 9
1.9811438 -1.296918 0.040664103 8
1.6473802 -1.0804808 -0.51763833 3
1.8771982 -1.2316822 -0.50951445 3
2.0467145 -1.3434178 -0.46801579 3
1.9928012 -1.3085279 -0.37153217 10
2.0188074 -1.3261085 -0.29187742 11
1.9842521 -1.3039057 -0.20438054 10
1.9846411 -1.3046573 -0.12205861 8
1.9826062 -1.3038152 -0.040344223 11
1.9848833 -1.3058091 0.62593406 8
1.9976437 -1.3147036 0.54284608 12
1.9956422 -1.3138856 0.45657721 15
1.9786532 -1.3031954 0.36877847 11
1.9838012 -1.3070825 0.2870023 10
1.9949061 -1.3148985 0.20568755 9
1.9786311 -1.3046669 0.12220446 9
1.9599121 -1.2928147 0.040315058 10
1.6435986 -1.0862248 -0.51763833 3
1.8688236 -1.2355406 -0.50838971 3
2.0338249 -1.3451385 -0.4661094 5
1.9758658 -1.3073012 -0.36918563 10
2.0017509 -1.3249301 -0.29004934 11
1.9630761 -1.2998244 -0.20263742 10
1.9675864 -1.303305 -0.12127619 10
1.9655408 -1.3024436 -0.040085051 14
1.9642104 -1.3020555 0.62076104 10
1.976801 -1.3108982 0.53835046 13
1.970593 -1.3072767 0.45181125 16
1.9658623 -1.3046325 0.36721584 12
1.9626886 -1.3030198 0.28456491 13
