# .PCD v0.7 - Point Cloud Data file format
VERSION 0.7
FIELDS x y z intensity
SIZE 4 4 4 4
TYPE F F F F
COUNT 1 1 1 1
WIDTH 1334
HEIGHT 1
VIEWPOINT 0 0 0 1 0 0 0
POINTS 1334
DATA ascii
1.4924394 -1.2337761 0.50824809 22
1.4899842 -1.2321839 0.43719903 23
1.4741625 -1.2195333 0.36411792 18
1.4828596 -1.227164 0.29846054 17
1.4782841 -1.2238123 0.2309424 15
1.4872317 -1.2316573 0.16559592 21
1.4867342 -1.2316827 0.099176638 20
1.4613522 -1.2110853 0.032461476 60
1.5009316 -1.2460973 -0.5124619 12
1.4723499 -1.2228025 -0.43303102 16
1.4904817 -1.2383009 -0.36888412 18
1.4688522 -1.2207643 -0.29644355 19
1.4909822 -1.2395966 -0.23338005 19
1.4578418 -1.2124741 -0.16254571 18
1.4726492 -1.2252243 -0.098064184 17
1.466502 -1.220543 -0.032309934 20
1.4732766 -1.2266166 0.50307512 19
1.4744428 -1.2280235 0.43382731 20
1.4548128 -1.2121042 0.36030519 17
1.4633921 -1.2196852 0.29533532 16
1.462568 -1.2194309 0.22911435 17
1.467623 -1.2240797 0.1638528 20
1.470924 -1.2272685 0.098391593 18
1.4417635 -1.2033652 0.032112423 55
1.5002781 -1.2544271 -0.51375604 12
1.4568616 -1.2185575 -0.42965677 14
1.474857 -1.2340468 -0.36602455 20
1.4456472 -1.2100353 -0.29253268 20
1.4638159 -1.2256776 -0.22972398 21
1.4383267 -1.2047621 -0.16080259 27
1.4568818 -1.2207367 -0.097281761 18
1.446907 -1.2128087 -0.031964373 33
1.454182 -1.2193388 0.4979021 21
1.4552163 -1.2206386 0.42933169 25
1.428013 -1.198245 0.35458606 19
1.4402128 -1.2089103 0.29142877 26
1.4507016 -1.2181463 0.22789566 19
1.4404572 -1.2099729 0.16123812 26
1.4551628 -1.2227588 0.097606555 18
1.4375542 -1.2083906 0.032112423 66
1.4958901 -1.2596564 -0.51375604 16
1.4451472 -1.2173581 -0.42740726 15
1.4592804 -1.229699 -0.36316499 28
1.4414146 -1.2150742 -0.29253268 29
1.4595287 -1.2307798 -0.22972398 26
1.4379197 -1.2129871 -0.16123837 31
1.4373475 -1.2129337 -0.096238516 28
1.4273844 -1.2049528 -0.031618811 37
1.4388466 -1.2150589 0.49402237 33
1.443503 -1.2194228 0.42708388 33
1.4275706 -1.2063906 0.35553923 29
1.4435271 -1.2203069 0.29299137 30
1.4388617 -1.2167937 0.22667697 28
1.4438305 -1.2214278 0.16210969 37
1.4432627 -1.2213796 0.097083189 28
1.4333274 -1.2134012 0.032112423 76
1.4730667 -1.2492515 -0.50728554 13
1.437174 -1.2192434 -0.4262825 17
1.4474945 -1.2284335 -0.36125863 32
1.4371644 -1.2200983 -0.29253268 32
1.4514409 -1.2326545 -0.22911462 33
1.433677 -1.217999 -0.16123837 33
1.4331049 -1.2179435 -0.096238516 31
1.4307873 -1.2164041 -0.03179159 38
1.4309173 -1.2169451 0.4927291 38
1.4355267 -1.221297 0.42595997 37
1.4270886 -1.2145475 0.35649243 35
1.4392587 -1.2253382 0.29299137 38
1.4308273 -1.218591 0.22606762 32
1.4433496 -1.2296906 0.16254546 39
1.4275898 -1.2166936 0.096298151 39
1.4328874 -1.2216406 0.032199688 78
1.4576797 -1.244976 -0.50340325 15
1.4255011 -1.2179233 -0.42403299 14
1.4357352 -1.2271007 -0.35935223 28
1.4328966 -1.2251074 -0.29253268 35
1.4509007 -1.2409391 -0.22972398 35
1.4332014 -1.2262342 -0.16167414 47
1.4288447 -1.2229387 -0.096238516 34
1.43033 -1.2246425 -0.031877983 47
1.4266605 -1.2219324 0.4927291 38
1.4312549 -1.2263006 0.42595997 42
1.4265671 -1.2227157 0.35744563 40
1.4349726 -1.2303548 0.29299137 37
1.4265649 -1.223578 0.22606762 37
1.4390483 -1.2347212 0.16254546 48
1.4347007 -1.2314256 0.097083189 41
1.4324074 -1.2298915 0.032286949 40
1.4423406 -1.2406086 -0.49952096 17
1.4175482 -1.2197143 -0.42290825 12
1.424003 -1.2257009 -0.35744587 16
1.4248693 -1.2268795 -0.29175052 54
1.4465603 -1.2459961 -0.22972398 65
1.4326859 -1.234481 -0.16210994 86
1.4245671 -1.2279187 -0.096238516 45
1.4298326 -1.2328925 -0.031964373 67
1.4260439 -1.2300596 0.49402237 42
1.4269657 -1.2312891 0.42595997 46
1.426006 -1.2308952 0.3583988 41
1.4306692 -1.2353563 0.29299137 69
1.4222851 -1.2285502 0.22606762 48
1.4384985 -1.2429936 0.16298124 69
1.4303935 -1.2364262 0.097083189 59
1.431887 -1.2381538 0.032374211 66
1.4307003 -1.2393115 -0.49693277 14
1.4059184 -1.2182741 -0.42065874 10
1.4122982 -1.2242342 -0.3555395 10
1.420578 -1.2318457 -0.29175052 66
1.4459509 -1.2542899 -0.23033331 79
1.4246057 -1.2362099 -0.16167414 66
1.4240429 -1.2361572 -0.096499331 75
1.4292949 -1.241154 -0.032050762 66
1.4290339 -1.2413646 0.49660885 80
1.4263365 -1.2394584 0.42708388 70
1.4217006 -1.2358655 0.3583988 72
1.4226216 -1.237102 0.29221007 58
1.4217324 -1.2367647 0.22667697 80
1.4341509 -1.2480073 0.16298124 81
1.4298352 -1.2446903 0.097344875 69
1.4124759 -1.2300122 0.032025162 34
1.4190867 -1.2379482 -0.49434459 13
1.4016571 -1.2231743 -0.42065874 8
1.4006209 -1.2227007 -0.35363311 10
1.4088298 -1.2303001 -0.29018617 38
1.4453012 -1.2625945 -0.23094267 49
1.4127808 -1.2346199 -0.16080259 37
1.4159601 -1.2378342 -0.096238516 49
1.4136641 -1.2362624 -0.03179159 36
1.424692 -1.2463454 0.49660885 76
1.4183348 -1.2412212 0.42595997 57
1.4136848 -1.2375875 0.35744563 51
1.4145795 -1.2388067 0.29142877 32
1.4136736 -1.2384496 0.22606762 52
1.4260398 -1.2497228 0.16254546 52
1.4254817 -1.2496737 0.097344875 33
1.3968979 -1.2250465 0.031763379 23
1.4075003 -1.2365191 -0.49175641 13
1.3973789 -1.2280595 -0.42065874 15
1.3889718 -1.2211008 -0.35172671 10
1.3971099 -1.2286878 -0.28862181 29
1.4259809 -1.2545198 -0.22850528 31
1.397245 -1.2296717 -0.15949525 26
1.404135 -1.2361703 -0.095716901 32
1.398085 -1.2312772 -0.031532422 25
1.4094608 -1.2417326 0.4927291 36
1.4103385 -1.2429432 0.42483607 31
1.4056746 -1.2392688 0.35649243 28
1.3991346 -1.2339371 0.28908482 23
1.4018992 -1.2368103 0.22484893 32
1.4141996 -1.2481012 0.1616739 30
1.4061382 -1.2414232 0.096298151 26
1.381372 -1.2199872 0.031501591 19
1.3923237 -1.2318239 -0.48787412 13
1.3930837 -1.2329297 -0.42065874 15
1.377351 -1.2194345 -0.34982035 10
1.3854187 -1.2270086 -0.28705746 26
1.4104495 -1.2496167 -0.22667724 24
1.3854889 -1.2279341 -0.1586237 23
1.3886029 -1.2311268 -0.094934478 23
1.382558 -1.2261986 -0.03127325 22
1.3906662 -1.2338233 0.4875561 25
1.3987035 -1.2413905 0.42258826 25
1.3903286 -1.2343916 0.35363284 22
1.3837415 -1.2289751 0.2867409 21
1.3864435 -1.2318078 0.22302088 23
1.3986651 -1.2431033 0.16036656 27
1.3906016 -1.2363709 0.095513113 24
1.3658984 -1.2148345 0.031239806 20
1.3808035 -1.230251 -0.48528594 12
1.3851345 -1.2345434 -0.41953397 15
1.3657589 -1.2177022 -0.34791398 9
1.3700706 -1.2219757 -0.28471094 26
1.3949698 -1.2446207 -0.22484918 23
1.3700459 -1.2228127 -0.15731636 23
1.373123 -1.2259898 -0.094152048 22
1.3708123 -1.2243567 -0.031100471 23
1.3755459 -1.2290162 0.48367634 22
1.3834641 -1.2365252 0.41921654 23
1.3786935 -1.2326941 0.35172647 20
1.3720812 -1.2272131 0.28517827 20
1.3747383 -1.2300216 0.22180219 22
1.383183 -1.2380121 0.15905923 25
1.3751175 -1.2312255 0.094728075 24
1.3542017 -1.2129241 0.031065281 21
1.3693112 -1.2286127 -0.48269776 11
1.3735654 -1.2328625 -0.41728443 15
1.3541956 -1.2159036 -0.34600759 10
1.3584487 -1.2201508 -0.28314662 25
1.3795422 -1.2395319 -0.22302115 24
1.3583601 -1.2209282 -0.1564448 22
1.3614092 -1.2240984 -0.093630433 22
1.3553793 -1.2191045 -0.0308413 22
1.3604761 -1.2241186 0.47979656 20
1.3682758 -1.2315686 0.41584483 22
1.3670869 -1.2309306 0.34982011 20
1.3567804 -1.2220794 0.28283435 22
1.3593758 -1.224847 0.21997416 21
1.3714534 -1.236163 0.15818767 26
1.3596865 -1.2259871 0.093943037 23
1.3425351 -1.2109472 0.030890757 19
1.3542637 -1.2236711 -0.47881544 11
1.3620251 -1.2311159 -0.41503492 15
1.3426616 -1.2140394 -0.34410122 10
1.3468565 -1.2182597 -0.28158227 26
1.3678472 -1.2376804 -0.22180244 23
1.3467044 -1.2189771 -0.15557323 23
1.346024 -1.2187887 -0.092848003 23
1.3437052 -1.217116 -0.030668519 22
1.3454576 -1.2191309 0.4759168 20
1.3567487 -1.2297932 0.41359702 22
1.3555098 -1.2291011 0.34791371 20
1.3451905 -1.220172 0.28127173 21
1.3477415 -1.2229148 0.21875545 18
1.3560655 -1.2308996 0.15688033 24
1.3480055 -1.2240126 0.093419679 23
1.3308989 -1.2089034 0.030716235 18
1.3428398 -1.2218902 -0.47622722 11
1.3505138 -1.229304 -0.41278541 15
1.3311574 -1.2121097 -0.34219483 11
1.3352939 -1.2163026 -0.28001791 26
1.356182 -1.2357624 -0.22058375 22
1.3350788 -1.2169596 -0.15470168 23
1.3343823 -1.2167512 -0.092326388 23
1.3320615 -1.2150608 -0.03049574 23
1.3340583 -1.2173089 0.47333032 21
1.3416525 -1.2246678 0.4102253 21
1.343962 -1.2272059 0.34600735 20
1.3336303 -1.2181988 0.2797091 20
1.3361373 -1.2209166 0.21753676 21
1.3444077 -1.2289044 0.15600878 24
1.3326701 -1.2186022 0.092634641 22
1.3192934 -1.2067933 0.030541711 19
1.3316578 -1.219812 -0.47363904 12
1.339246 -1.227193 -0.4105359 16
1.3198941 -1.2098839 -0.34028846 10
1.3239735 -1.2140486 -0.27845359 25
1.3447624 -1.2335436 -0.21936506 22
1.3236959 -1.2146449 -0.15383013 23
1.3229831 -1.2144164 -0.091804773 22
1.3206602 -1.2127088 -0.03032296 22
1.3229003 -1.2151914 0.47074381 21
1.3304092 -1.2225171 0.40797749 23
1.3326578 -1.2250125 0.34410098 21
1.3223128 -1.2159289 0.27814648 20
1.3247764 -1.218621 0.21631807 19
1.3329946 -1.2266103 0.15513723 25
1.3212744 -1.2162515 0.092111282 22
1.3079292 -1.2043887 0.030367186 20
1.3202919 -1.2179036 -0.47105086 12
1.3277935 -1.2252525 -0.40828639 15
1.3120562 -1.2111547 -0.33933526 13
1.3124714 -1.2119621 -0.27688923 26
1.3331574 -1.2314953 -0.21814637 23
1.3121314 -1.2124971 -0.15295857 24
1.3114028 -1.2122483 -0.09128315 21
1.3090781 -1.2105231 -0.030150179 22
1.3115593 -1.2132423 0.46815729 22
1.3189819 -1.2205356 0.40572968 21
1.3211697 -1.2229884 0.34219459 20
1.3108133 -1.2138263 0.27658385 20
1.3132331 -1.216493 0.21509938 20
1.3177443 -1.2210993 0.15382989 24
1.3096972 -1.2140672 0.091587923 22
1.2963856 -1.2021483 0.030192662 20
1.3089557 -1.2159309 -0.46846268 12
1.3163708 -1.2232472 -0.40603688 16
1.3078206 -1.2157272 -0.33933526 16
1.3009999 -1.2098103 -0.27532488 25
1.3215833 -1.2293811 -0.21692768 23
1.3005983 -1.2102835 -0.152087 23
1.2998538 -1.2100142 -0.090761535 22
1.2975274 -1.2082715 -0.0299774 23
1.3037823 -1.2145209 0.46686405 21
1.3075846 -1.2184893 0.40348187 23
1.3097121 -1.220899 0.34028822 21
1.2993445 -1.2116584 0.27502126 22
1.3017209 -1.2142992 0.21388069 21
1.3061905 -1.2188951 0.15295833 25
1.2981515 -1.2118171 0.091064565 23
1.2848737 -1.1998422 0.030018136 22
1.3011762 -1.2171932 -0.46716857 12
1.3049783 -1.221177 -0.40378737 15
1.2999855 -1.2169306 -0.3383821 20
1.2895596 -1.2075931 -0.27376056 26
1.3100404 -1.2272012 -0.21570899 22
1.2890965 -1.2080044 -0.15121545 23
1.2883364 -1.2077143 -0.09023992 22
1.2860084 -1.2059537 -0.029804617 23
1.2924898 -1.2124557 0.46427754 22
1.2962179 -1.2163785 0.40123406 23
1.2947067 -1.2153853 0.33742866 21
1.287907 -1.2094251 0.27345863 22
1.2902402 -1.2120399 0.212662 22
1.2946683 -1.2166251 0.15208678 26
1.2902755 -1.2129213 0.090802886 23
1.2733938 -1.1974704 0.029843612 21
1.2898886 -1.2151045 -0.46458039 12
1.2936165 -1.2190424 -0.40153787 16
1.2921582 -1.2180941 -0.3374289 25
1.2781507 -1.2053108 -0.2721962 26
1.2985288 -1.2249558 -0.21449029 24
1.2776265 -1.2056595 -0.15034388 24
1.2768509 -1.2053488 -0.089718297 21
1.2745216 -1.2035707 -0.029631836 24
1.2812277 -1.2103267 0.46169105 22
1.2848819 -1.2142031 0.39898625 24
1.2833226 -1.2131536 0.33552229 21
1.2765009 -1.207127 0.271896 21
1.2751858 -1.2063049 0.21083397 21
1.2831779 -1.2142897 0.15121521 25
1.2787814 -1.2105523 0.09027952 24
1.2619463 -1.1950332 0.029669089 21
1.2786316 -1.2129519 -0.4619922 13
1.2822856 -1.2168435 -0.39928836 15
1.2843387 -1.2192179 -0.3364757 26
1.2667736 -1.2029638 -0.27063185 27
1.2870488 -1.222645 -0.21327159 23
1.266189 -1.2032495 -0.14947233 23
1.2653978 -1.2029181 -0.089196675 22
1.2630671 -1.2011222 -0.029459057 22
1.2699963 -1.2081338 0.45910454 22
1.273577 -1.2119634 0.39673844 24
1.27197 -1.2108574 0.3336159 21
1.2651268 -1.2047639 0.27033338 21
1.2637807 -1.2039027 0.20961526 23
1.2753255 -1.2153251 0.15077944 27
1.2673198 -1.2081183 0.089756161 24
1.2505314 -1.1925308 0.029494565 22
1.2706856 -1.2142935 -0.4606981 13
1.2707738 -1.2148021 -0.39703885 16
1.2763139 -1.2205247 -0.33552253 28
1.2552187 -1.2007712 -0.2690675 24
1.2753879 -1.2204918 -0.2120529 23
1.2545742 -1.2009935 -0.14860077 24
1.2537677 -1.200641 -0.088675059 23
1.2550462 -1.2022852 -0.029372666 24
1.2585855 -1.206097 0.45651805 23
1.2656094 -1.2132518 0.39561453 24
1.2604382 -1.2087168 0.33170953 22
1.2535748 -1.2025551 0.26877075 23
1.2521982 -1.2016542 0.20839657 22
1.2636759 -1.2130923 0.14990787 26
1.2556804 -1.2058381 0.089232802 23
1.2389417 -1.1901795 0.029320041 21
1.2594792 -1.2120239 -0.45810992 13
1.2595059 -1.212473 -0.39478934 16
1.2685103 -1.2215679 -0.33456933 27
1.2439065 -1.198293 -0.26750314 26
1.2675463 -1.2214926 -0.21144356 24
1.2432022 -1.1984515 -0.1477292 24
1.2459749 -1.201544 -0.088414252 24
1.2436459 -1.199717 -0.029199887 23
1.2474169 -1.2037752 0.45393154 23
1.2543561 -1.2108946 0.39336672 24
1.2491499 -1.20629 0.32980317 22
1.2422656 -1.200061 0.26720813 23
1.2444274 -1.2025692 0.20778722 24
1.2558526 -1.2140341 0.14947209 25
1.2478743 -1.2067429 0.088971123 24
1.2311819 -1.1910259 0.02923278 20
1.2485152 -1.2094729 -0.45552173 12
1.2486923 -1.2096444 -0.39253983 16
1.2576169 -1.2187154 -0.33266297 26
1.233044 -1.1953202 -0.26593879 27
1.2565773 -1.2185589 -0.21022485 24
1.2322807 -1.1954149 -0.14685765 24
1.2350273 -1.1984978 -0.087892629 24
1.2326967 -1.1966538 -0.029027106 24
1.233234 -1.1975937 0.45005178 24
1.2435566 -1.2080396 0.39111891 24
1.2383139 -1.2033669 0.32789677 21
1.2314073 -1.1970731 0.2656455 23
1.2335277 -1.1995531 0.20656852 24
1.2448918 -1.211027 0.14860053 27
1.2369202 -1.2036927 0.088447765 26
1.2202743 -1.1879086 0.029058255 23
1.2341245 -1.203491 -0.45163944 12
1.2374876 -1.2071918 -0.39029032 16
1.2463295 -1.216242 -0.33075657 27
1.2253304 -1.1961673 -0.26515663 28
1.2452148 -1.2160032 -0.20900615 25
1.2209744 -1.1927477 -0.1459861 25
1.2236941 -1.195822 -0.087371014 24
1.2213622 -1.1939601 -0.028854325 24
1.2221398 -1.1951375 0.4474653 24
1.2323667 -1.2055593 0.38887113 25
1.2270898 -1.2008163 0.32599038 22
1.220163 -1.1944548 0.26408288 23
1.2222414 -1.1969072 0.20534983 23
1.2335405 -1.2083939 0.14772898 28
1.2255784 -1.2010134 0.087924398 25
1.2125504 -1.1886613 0.028970992 21
1.2228146 -1.2012371 -0.44905126 12
1.22263 -1.2014751 -0.38691604 14
1.2348627 -1.2139199 -0.32885018 25
1.2138958 -1.1937251 -0.26359227 27
1.230136 -1.2101181 -0.20717812 25
1.2130444 -1.1937211 -0.14555031 25
1.2121863 -1.1932932 -0.086849399 24
1.2098539 -1.1914132 -0.028681546 26
1.2108697 -1.1928297 0.44487876 23
1.2209994 -1.2032286 0.38662329 25
1.219185 -1.20186 0.32503721 23
1.2087442 -1.1919836 0.26252028 24
1.2107804 -1.1944084 0.20413114 23
1.2220125 -1.2059096 0.14685743 27
1.2140615 -1.1984817 0.08740104 23
1.2010713 -1.1860722 0.02879647 23
1.2117471 -1.1987051 -0.44646302 12
1.2115029 -1.198882 -0.38466653 14
1.2236414 -1.2113168 -0.32694381 26
1.2062123 -1.1944803 -0.26281011 26
1.2188532 -1.2074195 -0.20595942 25
1.201794 -1.190936 -0.14467876 25
1.2044674 -1.194002 -0.086588591 24
1.1985881 -1.1885886 -0.028508766 25
1.1998407 -1.1902462 0.44229224 23
1.2098753 -1.2006196 0.38437548 24
1.2080154 -1.1991924 0.32313082 23
1.2010717 -1.1927156 0.26173896 24
1.1995622 -1.1916326 0.20291245 22
1.2107294 -1.203146 0.14598587 28
1.2027884 -1.1956719 0.086877681 26
1.1898342 -1.1832073 0.028621946 22
1.2007121 -1.1961105 -0.44387484 12
1.2004087 -1.1962258 -0.38241702 14
1.2159296 -1.2121156 -0.32599062 27
1.1950418 -1.1917092 -0.26124576 26
1.2076042 -1.204657 -0.20474072 26
1.1941038 -1.1916054 -0.14424297 25
1.1932247 -1.1911439 -0.086066969 25
1.1873571 -1.1857002 -0.028335985 26
1.1922617 -1.1910138 0.440999 24
1.1987846 -1.1979479 0.38212767 25
1.1968796 -1.1964618 0.32122445 23
1.1899167 -1.1899167 0.26017633 22
1.1918867 -1.1923027 0.2023031 22
1.1994807 -1.2003182 0.14511432 28
1.1915497 -1.1927981 0.086354323 25
1.1786317 -1.1802784 0.028447421 23
1.1897103 -1.1934537 -0.44128665 13
1.189348 -1.1935068 -0.38016751 14
1.2047631 -1.2093978 -0.32408425 26
1.1839054 -1.1888748 -0.25968143 25
1.1963893 -1.2018306 -0.20352203 26
1.1829102 -1.1887051 -0.14337142 25
1.1820165 -1.1882217 -0.085545354 25
1.1796857 -1.1862928 -0.028249595 25
1.1812868 -1.1883177 0.43841249 24
1.1877272 -1.1952134 0.37987986 24
1.1857774 -1.193668 0.31931809 23
1.1822761 -1.1905588 0.25939503 25
1.180725 -1.1894119 0.20108441 24
1.1882664 -1.1974268 0.14424275 29
1.1838623 -1.1934053 0.086092643 24
1.1674643 -1.1772859 0.028272897 24
1.1821394 -1.194167 -0.43999255 13
1.178321 -1.1907253 -0.377918 14
1.1936303 -1.206617 -0.32217786 25
1.1728033 -1.1859772 -0.25811708 28
1.1886979 -1.2024702 -0.20291269 24
1.1752526 -1.1892841 -0.14293563 26
1.1708435 -1.1852361 -0.085023738 24
1.1685122 -1.1832892 -0.028076814 26
1.1737386 -1.1889966 0.43711925 24
1.1767036 -1.1924163 0.37763205 25
1.1781565 -1.1943055 0.31836489 24
1.1711777 -1.1876457 0.25783241 24
1.169598 -1.1864578 0.19986571 25
1.1770869 -1.1944717 0.14337119 27
1.1726811 -1.1904162 0.085569285 26
1.1563321 -1.1742299 0.028098373 25
1.1711923 -1.1913978 -0.43740436 13
1.1707426 -1.1913564 -0.37679324 14
1.1859716 -1.2072748 -0.32122469 26
1.1651962 -1.1865404 -0.25733492 28
1.1775402 -1.1995293 -0.201694 25
1.1641165 -1.1862689 -0.14206408 26
1.1632024 -1.1857514 -0.084762931 24
1.1608744 -1.1837914 -0.027990425 24
1.1628189 -1.1861885 0.43453273 25
1.1657141 -1.1895571 0.37538424 25
1.1671109 -1.1913984 0.31645852 24
1.1635696 -1.1881981 0.25705111 26
1.1619778 -1.1869869 0.19925638 25
1.1694266 -1.1950133 0.14293543 26
1.165027 -1.1909332 0.085307606 25
1.148731 -1.1746849 0.028011112 23
1.1636527 -1.1920228 -0.43611029 13
1.1597718 -1.1884623 -0.37454373 13
1.1748953 -1.2043804 -0.31931829 27
1.1541514 -1.1835291 -0.25577056 27
1.1698817 -1.2000787 -0.20108464 26
1.1564924 -1.186758 -0.1416283 28
1.1520879 -1.1826513 -0.084241308 26
1.1497594 -1.1806732 -0.027817644 26
1.1553023 -1.1867794 0.43323949 24
1.1581569 -1.1901273 0.37426034 25
1.1561 -1.1884286 0.31455213 24
1.152529 -1.1851715 0.25548849 24
1.1509088 -1.1839188 0.19803768 24
1.1583055 -1.1919438 0.14206386 28
1.1539044 -1.1878297 0.084784247 25
1.1376579 -1.1715145 0.027836585 25
1.1527613 -1.1891421 -0.43352208 13
1.1522259 -1.1890048 -0.37341899 14
1.1638539 -1.2014234 -0.31741193 26
1.1431422 -1.1804554 -0.25420621 26
1.158782 -1.1970236 -0.19986595 28
1.1454149 -1.1836289 -0.14075674 27
1.1444811 -1.1830769 -0.083980501 25
1.1421559 -1.1810858 -0.027731255 28
1.1444387 -1.1838598 0.43065301 25
1.1472242 -1.1871558 0.37201253 27
1.1451242 -1.1853967 0.31264576 24
1.1449543 -1.1856349 0.25470719 24
1.1398757 -1.180788 0.19681899 25
1.1506789 -1.1923954 0.14162809 29
1.1462845 -1.1882567 0.084522568 25
1.1300913 -1.17188 0.027749324 24
1.145254 -1.1896794 -0.432228 14
1.1413121 -1.1859987 -0.37116945 14
1.1562501 -1.2019415 -0.31645873 28
1.1321685 -1.1773193 -0.25264189 27
1.1511573 -1.1974837 -0.1992566 24
1.1343738 -1.180437 -0.13988519 27
1.133426 -1.1798629 -0.083458878 26
1.1311007 -1.1778536 -0.027558472 27
1.1369545 -1.1843632 0.42935973 26
1.1396999 -1.1876379 0.37088862 26
1.1375816 -1.1858447 0.31169257 25
1.1339724 -1.1824954 0.25314456 25
1.1288784 -1.1775948 0.1956003 24
1.1396171 -1.1892124 0.14075653 29
1.1352215 -1.1850395 0.083999209 26
1.1190786 -1.1685964 0.0275748 26
1.1377569 -1.1901788 -0.43093389 14
1.1304336 -1.1829311 -0.36891994 14
1.1452668 -1.198872 -0.31455237 27
1.1212307 -1.1741211 -0.25107753 27
1.1401167 -1.1943153 -0.19803791 25
1.1233687 -1.1771824 -0.13901362 27
1.1258539 -1.180199 -0.083198071 26
1.1235321 -1.1781768 -0.027472083 27
1.1261482 -1.1813329 0.42677325 26
1.1288252 -1.1845548 0.36864081 27
1.1266644 -1.1827006 0.3097862 24
1.1264319 -1.1828701 0.25236323 25
1.1179174 -1.1743392 0.19438158 25
1.1285917 -1.1859665 0.13988498 29
1.124195 -1.1817594 0.083475843 24
1.1081024 -1.1652501 0.027400276 26
1.1302705 -1.1906402 -0.42963982 14
1.1195903 -1.1798019 -0.36667043 14
1.1376967 -1.1993014 -0.31359917 27
1.1103292 -1.170861 -0.24951316 27
1.1325265 -1.1946861 -0.19742855 24
1.1124005 -1.1738657 -0.13814206 26
1.1148596 -1.176872 -0.082676448 25
1.1125377 -1.1748316 -0.027299302 27
1.1153771 -1.1782417 0.42418674 26
1.1179858 -1.1814106 0.36639303 26
1.115783 -1.179495 0.30787984 25
1.1155096 -1.1796184 0.25080064 26
1.1104021 -1.1746279 0.19377224 24
1.1210238 -1.1862785 0.13944918 30
1.1166342 -1.1820468 0.083214164 27
1.100596 -1.1654763 0.027313014 24
1.1194818 -1.1875498 -0.4270516 14
1.112124 -1.1801573 -0.36554569 14
1.1267725 -1.19612 -0.3116928 28
1.1028496 -1.1711344 -0.24873099 28
1.1215461 -1.1914051 -0.19620986 25
1.1048827 -1.1741141 -0.13770628 25
1.1073235 -1.1771195 -0.08241564 25
1.1015805 -1.1714242 -0.027126521 26
1.1046412 -1.1750898 0.42160022 25
1.1105188 -1.1817554 0.36526912 26
1.1082984 -1.1798052 0.30692664 25
1.1080045 -1.1799049 0.25001928 25
1.099502 -1.1712602 0.19255355 25
1.1100591 -1.1829201 0.13857763 30
1.1056691 -1.1786541 0.082690805 26
1.0896815 -1.1620176 0.02713849 25
1.1122363 -1.1877303 -0.42575753 14
1.1017509 -1.1765332 -0.36329618 14
1.1163005 -1.1924874 -0.30978641 27
1.0924164 -1.1673815 -0.24716665 27
1.1144074 -1.1912985 -0.19560052 25
1.0943844 -1.1703032 -0.13683473 27
1.0968004 -1.1732973 -0.081894025 28
1.0944817 -1.1712265 -0.027040131 27
1.0976471 -1.1750249 0.42030698 26
1.1001502 -1.1781167 0.36302131 27
1.0978876 -1.1761051 0.30502024 25
1.0975535 -1.1761585 0.24845667 26
1.0924317 -1.1710796 0.1919442 27
1.1029404 -1.1827588 0.13814184 31
1.098556 -1.1784694 0.082429126 27
1.0826174 -1.1617779 0.027051229 25
1.1017127 -1.1843398 -0.42316931 14
1.0943197 -1.1768042 -0.36217141 14
1.1087893 -1.1927819 -0.30883324 26
1.0849731 -1.16757 -0.24638447 28
1.103487 -1.1879091 -0.19438182 25
1.0869033 -1.1704663 -0.13639894 28
1.0893012 -1.1734592 -0.081633218 28
1.0835855 -1.1677107 -0.026867351 27
1.0869694 -1.1717674 0.4177205 26
1.0894058 -1.1748048 0.3607735 27
1.0871022 -1.1727312 0.30311388 28
1.0900844 -1.1763601 0.24767537 26
1.0815921 -1.1676044 0.19072551 25
1.0954208 -1.1829468 0.13770607 29
1.087652 -1.1749685 0.081905767 27
1.0717647 -1.1582114 0.026876705 26
1.094088 -1.1848215 -0.42187524 14
1.0866946 -1.1772273 -0.36104667 14
1.0977528 -1.1896234 -0.30692685 26
1.0773381 -1.1679089 -0.24560231 28
1.0923972 -1.1846489 -0.19316311 25
1.0758541 -1.1671174 -0.13552739 27
1.0782256 -1.1701 -0.081111602 27
1.0759113 -1.1679974 -0.026780961 28
1.076124 -1.1686375 0.41513398 26
1.0817927 -1.1752052 0.35964957 25
1.0794729 -1.1730958 0.30216068 28
1.0790788 -1.1730783 0.24611275 26
1.0739464 -1.1679078 0.19011617 27
1.0877068 -1.1832867 0.13727029 30
1.0765812 -1.1715938 0.081382409 28
1.0641305 -1.15845 0.026789442 25
1.0866814 -1.1850739 -0.42058113 14
1.0759946 -1.1738306 -0.35879713 14
1.0869615 -1.1862103 -0.30502045 26
1.0665833 -1.1643792 -0.24403796 29
1.084904 -1.1847948 -0.19255377 26
1.0650471 -1.1635175 -0.13465583 28
1.0673931 -1.166489 -0.08058998 27
1.0650792 -1.1643683 -0.02660818 28
1.0687788 -1.1688223 0.41384071 28
1.0711097 -1.171782 0.35740176 26
1.0720606 -1.1732334 0.30120748 25
1.0716466 -1.1731915 0.24533144 26
1.0631702 -1.1643199 0.18889748 27
1.0768539 -1.1797187 0.13639873 32
1.0691195 -1.1716563 0.081120729 28
1.0533422 -1.1547705 0.026614919 27
1.0760347 -1.1817178 -0.41799295 14
1.0686111 -1.1739767 -0.35767236 14
1.0762076 -1.1827366 -0.30311409 27
1.0591894 -1.1644421 -0.24325579 29
1.0740842 -1.181231 -0.19133508 25
1.057629 -1.1635423 -0.13422005 28
1.056599 -1.1628169 -0.080068365 25
1.057647 -1.1643785 -0.026521791 28
1.0581987 -1.1653944 0.4112542 26
1.0604638 -1.1682987 0.35515395 27
1.0613621 -1.1696986 0.29930112 26
1.060909 -1.1696092 0.24376883 26
1.055766 -1.1643476 0.18828812 27
1.069384 -1.1797799 0.13596296 31
1.0583177 -1.1679808 0.080597371 27
1.0459486 -1.1547351 0.026527656 26
1.0686641 -1.1818844 -0.41669884 13
1.0612398 -1.1740854 -0.35654762 14
1.0687819 -1.1828443 -0.30216089 25
1.0484978 -1.1608026 -0.24169144 28
1.0666283 -1.1812897 -0.19072573 27
1.0502235 -1.1635294 -0.13378426 28
1.0458436 -1.1590837 -0.07954675 27
1.0468794 -1.1606389 -0.02634901 28
1.0476556 -1.1619072 0.40866768 27
1.0531174 -1.1683744 0.35403004 27
1.053987 -1.1697499 0.29834792 26
1.0502094 -1.1659664 0.2422062 26
1.0483745 -1.1643378 0.18767878 26
1.0619271 -1.1798035 0.13552718 29
1.0508945 -1.1679561 0.080335692 28
1.035225 -1.1509452 0.026353132 27
1.0580788 -1.1784202 -0.41411063 13
1.0506268 -1.1705315 -0.35429811 14
1.0580906 -1.1792611 -0.30025452 26
1.0411421 -1.1607792 -0.24090928 29
1.0558726 -1.1776159 -0.18950704 29
1.0395066 -1.1597701 -0.13291271 29
1.0384593 -1.1590085 -0.079285935 29
1.0394863 -1.1605622 -0.02626262 28
1.0403717 -1.1619588 0.40737444 29
1.042534 -1.1647828 0.35178223 27
1.0466247 -1.1697638 0.29739475 25
1.0428406 -1.1659441 0.24142489 26
1.0409958 -1.1642905 0.18706943 27
1.0511636 -1.1760755 0.13465562 31
1.0434843 -1.1678938 0.080074012 26
1.027871 -1.1508232 0.026265871 26
1.0507447 -1.1785015 -0.41281655 13
1.0432929 -1.1705548 -0.35317335 14
1.0507027 -1.1792828 -0.29930133 28
1.0337992 -1.1607187 -0.2401271 28
1.0484554 -1.1775877 -0.18889768 27
1.0321404 -1.1596708 -0.13247694 29
1.0277692 -1.1551654 -0.078764319 28
1.0287839 -1.1567125 -0.02608984 29
1.029891 -1.1583642 0.40478793 27
1.0352252 -1.1647732 0.35065833 26
1.0360149 -1.1660715 0.29548836 26
1.0322055 -1.1621923 0.23986228 28
1.0303358 -1.160495 0.18585074 25
1.0437456 -1.1760123 0.13421984 31
1.0327737 -1.164059 0.079550654 27
1.0172133 -1.1469239 0.026091347 27
1.0400167 -1.1751115 -0.41022834 13
1.0325391 -1.1670732 -0.35092384 14
1.0398699 -1.1757725 -0.29739496 26
1.0229961 -1.1571002 -0.23856275 28
1.0375594 -1.1739856 -0.18767899 28
1.0245851 -1.1597133 -0.13204116 28
1.020223 -1.1551821 -0.078503512 27
1.0212288 -1.1567277 -0.02600345 28
1.0224425 -1.15851 0.40349469 29
1.0277258 -1.1649063 0.34953442 29
1.0284877 -1.1661798 0.29453519 27
1.0214069 -1.1585587 0.23829965 25
1.0227941 -1.1605403 0.1852414 28
1.032843 -1.1723551 0.13334829 31
1.0252002 -1.1640896 0.079288974 29
1.0096995 -1.1468923 0.026004085 28
1.029532 -1.1714792 -0.40764016 13
1.0252436 -1.1670102 -0.3497991 14
1.0325205 -1.1757071 -0.29644176 27
1.0156926 -1.1569529 -0.23778059 29
1.0301816 -1.1738701 -0.18706965 28
1.0139611 -1.155794 -0.1311696 30
1.0128922 -1.1549823 -0.078242704 29
1.0105937 -1.1527669 -0.025830669 29
1.0152091 -1.1584395 0.40220144 30
1.0172324 -1.1611573 0.34728661 28
1.0179433 -1.1623777 0.29262879 27
1.0108507 -1.1546854 0.23673703 28
1.0122002 -1.1566343 0.18402271 28
1.0221852 -1.1684554 0.13247673 31
1.0145566 -1.1601437 0.078765616 30
0.99910414 -1.1428865 0.025829561 27
1.0224653 -1.1712484 -0.40634608 14
1.0183684 -1.1665553 -0.34867433 14
1.0223674 -1.1715488 -0.2945354 28
1.0055602 -1.1526953 -0.23621623 29
1.0199653 -1.1696202 -0.18585096 29
1.0070521 -1.1552192 -0.13073382 29
1.0059785 -1.1543943 -0.077981897 27
1.0036834 -1.1521667 -0.02574428 28
1.005221 -1.1543384 0.39961493 28
1.0103806 -1.1606724 0.34616271 29
1.0110644 -1.1618673 0.29167563 27
1.0039768 -1.1541293 0.23595573 27
1.0053052 -1.1560637 0.18341336 27
1.0119736 -1.1641425 0.13160518 32
1.0076318 -1.1595564 0.078503937 29
0.99223536 -1.1422412 0.025742298 28
1.0122476 -1.1673349 -0.40375787 13
1.007908 -1.1627403 -0.34642482 14
1.0150573 -1.171401 -0.2935822 27
0.99829704 -1.1524656 -0.23543407 30
1.0126277 -1.1694217 -0.18524161 29
0.99649352 -1.1511953 -0.12986226 30
0.99867541 -1.1541229 -0.077721082 30
0.99311441 -1.1481011 -0.025571499 28
0.99802643 -1.1541868 0.39832169 27
0.99995095 -1.1568205 0.3439149 28
1.0005844 -1.1579618 0.28976923 25
0.99348539 -1.150152 0.2343931 27
0.99802023 -1.1558096 0.18280402 28
1.0046493 -1.1638973 0.13116939 32
0.9970541 -1.1555059 0.07798057 27
0.98497677 -1.1419121 0.025655035 27
1.0048116 -1.1673769 -0.40246379 13
1.0004619 -1.1627338 -0.34530008 15
1.0043557 -1.1676712 -0.29167584 28
0.98762691 -1.1486276 -0.23386972 29
1.0018649 -1.1655982 -0.18402292 28
0.98902148 -1.151062 -0.12942648 31
0.98793185 -1.1501999 -0.077199467 30
0.98564297 -1.1479404 -0.02548511 29
0.99064362 -1.1541721 0.39702845 29
0.98935914 -1.1530826 0.34166712 29
0.99313802 -1.1578957 0.28881606 27
0.98604876 -1.1500366 0.23361179 27
0.9873181 -1.1519238 0.18158531 26
0.99389493 -1.1600068 0.13029784 31
0.98956424 -1.1553603 0.077718891 29
0.97428215 -1.1379197 0.025480511 27
0.99759275 -1.1672058 -0.40116969 14
0.99323255 -1.1625149 -0.34417531 16
0.99708599 -1.1674377 -0.29072264 29
0.98040491 -1.1483123 -0.23308755 28
0.99456847 -1.1653135 -0.18341357 29
0.97853166 -1.1469288 -0.12855493 31
0.98067063 -1.1498424 -0.076938659 30
0.97514296 -1.1437653 -0.025312327 29
0.9803431 -1.1502712 0.39444193 28
0.9821685 -1.1528205 0.34054321 28
0.98272514 -1.1538818 0.28690967 27
0.97882694 -1.149711 0.23283048 27
0.9800747 -1.1515838 0.18097597 29
0.9866122 -1.1596754 0.12986206 33
0.98229033 -1.1550038 0.077457212 30
0.96706593 -1.1375047 0.025393249 29
0.99038732 -1.1669985 -0.39987558 14
0.9828651 -1.1585448 -0.3419258 16
0.9898302 -1.1671677 -0.28976944 30
0.97319704 -1.1479607 -0.23230538 30
0.98728621 -1.164992 -0.18280423 27
0.97130239 -1.1465368 -0.12811914 30
0.97342414 -1.149448 -0.076677844 30
0.96791446 -1.1433467 -0.025225937 31
0.97320187 -1.1499994 0.39314869 29
0.97184509 -1.1488028 0.3382954 29
0.97552204 -1.1535573 0.2859565 28
0.97161943 -1.1493493 0.23204918 28
0.9696424 -1.1474168 0.17975728 28
0.97934377 -1.1593071 0.12942629 32
0.97180957 -1.1507958 0.076933846 29
0.95986462 -1.1370535 0.025305986 28
0.98008341 -1.1630621 -0.3972874 14
0.9756763 -1.1582425 -0.34080106 17
0.98258847 -1.1668612 -0.28881627 29
0.96282345 -1.1437945 -0.23074104 29
0.98001826 -1.164634 -0.18219487 29
0.96408802 -1.1461086 -0.12768336 32
0.96297872 -1.1451956 -0.076156229 32
0.96070063 -1.1428915 -0.025139546 30
0.96607453 -1.1496917 0.39185542 29
0.96469551 -1.1484575 0.33717149 29
0.9651767 -1.1494378 0.28405011 28
0.9644264 -1.1489512 0.23126787 27
0.96244127 -1.1469928 0.17914791 28
0.97209007 -1.1589024 0.1289905 33
0.96457839 -1.150355 0.076672167 30
0.95267826 -1.1365658 0.025218725 31
0.97291821 -1.1627722 -0.39599332 13
0.96850169 -1.1579043 -0.33967629 18
0.97536087 -1.1665184 -0.28786308 31
0.95565772 -1.1433592 -0.22995885 31
0.97276503 -1.1642394 -0.18158554 29
0.95688844 -1.1456441 -0.12724757 33
0.95577514 -1.1447172 -0.075895414 31
0.953502 -1.1424 -0.025053157 31
0.95896119 -1.1493484 0.39056218 29
0.95756006 -1.1480764 0.33604759 29
0.95801544 -1.14903 0.28309694 29
0.95724803 -1.1485171 0.23048656 29
0.95525491 -1.1465325 0.17853858 28
0.96485108 -1.1584613 0.12855473 32
0.95736217 -1.1498777 0.076410487 29
0.94870508 -1.1398844 0.025218725 32
0.96576726 -1.1624464 -0.39469922 14
0.96445394 -1.1612779 -0.33967629 23
0.96814781 -1.1661396 -0.28690988 33
0.95166087 -1.1466882 -0.22995885 32
0.9655264 -1.1638085 -0.18097618 31
0.9528836 -1.1489773 -0.12724757 35
0.95177352 -1.1480465 -0.075895414 31
0.94950849 -1.1457214 -0.025053157 35
0.95186216 -1.1489695 0.38926893 30
0.9535467 -1.151412 0.33604759 32
0.95086873 -1.1485862 0.28214374 32
0.95323312 -1.1518515 0.23048656 31
0.94808358 -1.1460361 0.17792922 30
0.957627 -1.1579835 0.12811893 34
0.9533425 -1.1532124 0.076410487 34
0.94153571 -1.1393353 0.025131464 34
0.96477693 -1.169536 -0.39599332 15
0.95729488 -1.1608787 -0.33855155 26
0.96407133 -1.169512 -0.28690988 36
0.94451177 -1.146192 -0.22917667 37
0.96145809 -1.1671717 -0.18097618 36
0.94886702 -1.1522964 -0.12724757 39
0.94458693 -1.1475067 -0.075634606 36
0.94550341 -1.1490288 -0.025053157 37
0.94477743 -1.148555 0.38797569 34
0.9464274 -1.1509703 0.33492368 32
0.94685358 -1.1518984 0.28214374 30
0.94607127 -1.1513561 0.22970523 34
0.94407743 -1.1493386 0.17792922 33
0.95357901 -1.1613193 0.12811893 37
0.94931126 -1.1565332 0.076410487 35
0.94072419 -1.1464797 0.025218725 38
0.96068859 -1.1728965 -0.39599332 16
0.95323688 -1.1642132 -0.33855155 27
0.95687425 -1.1690718 -0.28595668 38
0.94050515 -1.149482 -0.22917667 39
0.95737803 -1.1705208 -0.18097618 38
0.94483906 -1.1556016 -0.12724757 42
0.94057566 -1.150797 -0.075634606 41
0.94148678 -1.1523222 -0.025053157 43
0.9407624 -1.1518459 0.38797569 37
0.94240397 -1.154267 0.33492368 36
0.93972349 -1.151394 0.28119054 36
0.94516855 -1.1584783 0.23048656 35
0.94005972 -1.1526271 0.17792922 36
0.94951946 -1.1646408 0.12811893 41
0.94526839 -1.1598399 0.076410487 38
0.93671644 -1.1497564 0.025218725 38
0.95658863 -1.1762428 -0.39599332 17
0.94916719 -1.1675335 -0.33855155 30
0.9558832 -1.176214 -0.28690988 38
0.93960077 -1.1565909 -0.22995885 42
0.95641482 -1.1777079 -0.18158554 38
0.94393879 -1.1627598 -0.12768336 43
0.93969917 -1.1579504 -0.075895414 39
0.93745863 -1.1556016 -0.025053157 38
0.93673605 -1.1551228 0.38797569 39
0.94143713 -1.1613342 0.33604759 40
0.93878883 -1.1584805 0.28214374 36
0.94111896 -1.1617703 0.23048656 35
0.93603057 -1.1559014 0.17792922 38
0.94858247 -1.1718198 0.12855473 41
0.94435507 -1.167014 0.076672167 39
0.9358415 -1.156906 0.025305986 38
0.95551109 -1.1833323 -0.3972874 16
0.94814599 -1.1746305 -0.33967629 24
0.95177156 -1.1795434 -0.28690988 38
0.93865836 -1.1637076 -0.23074104 40
0.95229805 -1.1810392 -0.18158554 39
0.94300002 -1.1699257 -0.12811914 40
0.93565148 -1.1612234 -0.075895414 39
0.93655509 -1.1627601 -0.025139546 40
0.93572724 -1.1621476 0.38926893 38
0.93737757 -1.1646132 0.33604759 38
0.93781614 -1.1655747 0.28309694 37
0.94015306 -1.1688967 0.23126787 36
0.93509972 -1.1630294 0.17853858 37
0.94448626 -1.1751238 0.12855473 43
0.94340295 -1.1741956 0.076933846 37
0.93179739 -1.1601657 0.025305986 40
0.95460343 -1.1902621 -0.3985815 17
0.94445109 -1.1776034 -0.33967629 24
0.9511314 -1.1863571 -0.28786308 40
0.93808627 -1.1705043 -0.2315232 43
0.95168585 -1.1878982 -0.18219487 39
0.94243371 -1.1767703 -0.12855493 42
0.93511939 -1.1680551 -0.076156229 41
0.93602127 -1.1696 -0.025225937 39
0.93207169 -1.1650815 0.38926893 39
0.93675715 -1.1713574 0.33717149 40
0.93721461 -1.1723489 0.28405011 36
0.93955934 -1.1757025 0.23204918 38
0.93453884 -1.1698388 0.17914791 38
0.94389796 -1.1819774 0.1289905 39
0.94282472 -1.1810561 0.077195533 38
0.93126625 -1.1669947 0.025393249 37
0.95366031 -1.1971986 -0.39987558 16
0.94033468 -1.1808931 -0.33967629 22
0.95004129 -1.1935102 -0.28881627 39
0.93706959 -1.177636 -0.23230538 42
0.95062298 -1.1950969 -0.18280423 37
0.94142032 -1.1839516 -0.12899069 40
0.93103641 -1.1713122 -0.076156229 40
0.93193293 -1.1728601 -0.025225937 40
0.93100303 -1.1721098 0.39056218 36
0.93569225 -1.1784357 0.3382954 38
0.93616813 -1.1794578 0.2850033 37
0.9385193 -1.1828438 0.23283048 34
0.93353367 -1.176982 0.17975728 37
0.9428609 -1.189168 0.12942629 44
0.93869632 -1.1843399 0.077195533 37
0.93029165 -1.1741568 0.025480511 37
0.95226121 -1.2044746 -0.40116969 16
0.93902099 -1.1881539 -0.34080106 18
0.94566053 -1.1969842 -0.28881627 36
0.93580788 -1.1849382 -0.23308755 40
0.94931144 -1.2024682 -0.18341357 38
0.94016033 -1.1913041 -0.12942648 40
0.92982978 -1.1786369 -0.076417036 40
0.93072361 -1.1801935 -0.025312327 41
0.92969096 -1.1793073 0.39185542 36
0.93438226 -1.1856838 0.33941931 37
0.93487626 -1.1867367 0.2859565 35
0.93417758 -1.1862756 0.23283048 36
0.9322831 -1.1842952 0.18036662 36
0.94157636 -1.1965301 0.12986206 43
0.93743622 -1.1916969 0.077457212 36
0.92907208 -1.1814883 0.025567774 38
0.95103312 -1.2115903 -0.40246379 16
0.9348678 -1.1914244 -0.34080106 16
0.94450581 -1.2041399 -0.28976944 39
0.93471307 -1.1920838 -0.23386972 42
0.94816971 -1.2096803 -0.18402292 36
0.93599617 -1.1945786 -0.12942648 40
0.92878878 -1.1858063 -0.076677844 38
0.92968029 -1.1873714 -0.025398716 38
0.92854559 -1.1863488 0.39314869 40
0.93023783 -1.1889383 0.33941931 37
0.933752 -1.1938589 0.28690967 36
0.93307292 -1.1934199 0.23361179 36
0.93119961 -1.1914524 0.18097597 38
0.94046056 -1.2037345 0.13029784 39
0.93634415 -1.1988971 0.077718891 40
0.92801869 -1.1886647 0.025655035 37
0.94976676 -1.2187121 -0.40375787 17
0.93070328 -1.1946805 -0.34080106 15
0.94331253 -1.211302 -0.29072264 38
0.93357992 -1.1992362 -0.23465189 38
0.94698924 -1.2168993 -0.18463226 38
0.934879 -1.2017701 -0.12986226 39
0.9277091 -1.1929828 -0.076938659 39
0.92859817 -1.1945564 -0.02548511 40
0.92439884 -1.1895828 0.39314869 37
0.92907083 -1.1960257 0.34054321 41
0.93258929 -1.2009878 0.28786287 35
0.93192959 -1.2005708 0.2343931 36
0.92703503 -1.1946956 0.18097597 38
0.93930584 -1.2109457 0.13073361 41
0.93215352 -1.2021583 0.077718891 38
0.92692661 -1.1958482 0.025742298 39
0.94846237 -1.2258397 -0.40505198 17
0.92950809 -1.2017756 -0.3419258 14
0.93907857 -1.2145875 -0.29072264 39
0.92938811 -1.2024876 -0.23465189 38
0.94273579 -1.2201974 -0.18463226 38
0.93372291 -1.2089682 -0.13029803 39
0.92659056 -1.2001662 -0.077199467 40
0.92747718 -1.2017481 -0.025571499 40
0.92319101 -1.1966263 0.39444193 40
0.92786562 -1.2031195 0.34166712 37
0.9283914 -1.2042359 0.28786287 36
0.93074781 -1.2077283 0.23517442 36
0.9258877 -1.2018557 0.18158531 39
0.93811226 -1.2181636 0.13116939 41
0.93099731 -1.2093613 0.07798057 37
0.92274666 -1.1990765 0.025742298 37
0.94711965 -1.2329731 -0.40634608 17
0.92530739 -1.2050128 -0.3419258 13
0.93782175 -1.2217515 -0.29167584 38
0.9281913 -1.2096424 -0.23543407 39
0.94149113 -1.2274185 -0.18524161 38
0.93252796 -1.2161728 -0.13073382 40
0.92543316 -1.2073563 -0.077460274 38
0.92631716 -1.2089466 -0.025657889 39
0.92194527 -1.2036759 0.39573517 37
0.92662209 -1.2102194 0.34279102 40
0.92716539 -1.2113669 0.28881606 34
0.92952734 -1.2148921 0.23595573 38
0.92470175 -1.2090223 0.18219467 37
0.9338544 -1.2214308 0.13116939 40
0.92980236 -1.2165709 0.07824225 38
0.92159051 -1.2062627 0.025829561 36
0.94281 -1.2362716 -0.40634608 17
0.92404914 -1.2121099 -0.34305057 13
0.93652642 -1.2289217 -0.292629 36
0.92695588 -1.2168034 -0.23621623 39
0.9402076 -1.2346457 -0.18585096 37
0.92827708 -1.2194206 -0.13073382 39
0.92121297 -1.2105793 -0.077460274 39
0.92511827 -1.2161517 -0.02574428 38
0.92066151 -1.2107313 0.39702845 37
0.92239195 -1.2134465 0.34279102 38
0.92590088 -1.218504 0.28976923 35
0.92826807 -1.2220621 0.23673703 35
0.92347699 -1.2161952 0.18280402 38
0.93259656 -1.2286506 0.13160518 41
0.92856812 -1.2237867 0.078503937 37
0.92039543 -1.2134554 0.025916822 38
0.94140416 -1.2434057 -0.40764016 16
0.91981238 -1.215328 -0.34305057 13
0.93519235 -1.2360975 -0.2935822 39
0.92270273 -1.2200317 -0.23621623 38
0.93888497 -1.2418789 -0.1864603 36
0.92701799 -1.2266272 -0.1311696 41
0.91999155 -1.2177716 -0.077721082 38
0.9208675 -1.2193736 -0.02574428 39
0.91933978 -1.2177924 0.39832169 38
0.92108548 -1.2205478 0.3439149 35
0.92459774 -1.2256469 0.29072243 35
0.92399663 -1.2252948 0.23673703 35
0.92520064 -1.227337 0.18402271 37
0.93129975 -1.2358764 0.13204095 38
0.92729491 -1.2310089 0.078765616 37
0.91916126 -1.2206545 0.026004085 37
0.93996 -1.2505449 -0.40893427 16
0.91849107 -1.2224262 -0.34417531 13
0.93381971 -1.243279 -0.2945354 37
0.92140359 -1.2271943 -0.23699841 38
0.93752325 -1.2491177 -0.18706965 37
0.92571998 -1.2338399 -0.13160537 40
0.91873109 -1.2249702 -0.077981897 36
0.91960424 -1.2265803 -0.025830669 37
0.91797972 -1.224859 0.39961493 36
0.91974056 -1.2276547 0.3450388 38
0.92325604 -1.2327956 0.29167563 34
0.92267364 -1.2324662 0.23751834 36
0.92388439 -1.2345325 0.18463205 37
0.92996383 -1.2431082 0.13247673 40
0.92598259 -1.2382369 0.079027295 37
0.91489482 -1.2238555 0.026004085 38
0.93558902 -1.2538183 -0.40893427 17
0.91713125 -1.22953 -0.34530008 13
0.93240815 -1.2504659 -0.29548857 38
0.92006552 -1.2343626 -0.23778059 39
0.9361226 -1.2563623 -0.18767899 35
0.9214074 -1.2370638 -0.13160537 38
0.91743147 -1.2321746 -0.078242704 37
0.918302 -1.2337933 -0.025917061 37
0.91658169 -1.2319309 0.4009082 38
0.91835719 -1.2347671 0.34616271 38
0.91894722 -1.2360109 0.29167563 36
0.9213118 -1.2396431 0.23829965 36
0.92252898 -1.2417334 0.1852414 36
0.92858863 -1.2503456 0.1329125 39
0.92463106 -1.2454708 0.079288974 37
0.91359645 -1.2310561 0.026091347 36
0.93408155 -1.2609574 -0.41022834 17
0.9157331 -1.2366393 -0.34642482 13
0.93095767 -1.257658 -0.29644176 39
0.91868877 -1.2415365 -0.23856275 37
0.93468255 -1.2636122 -0.18828835 36
0.92004502 -1.2442776 -0.13204116 38
0.91609281 -1.2393849 -0.078503512 37
0.91696054 -1.241012 -0.02600345 36
0.91514546 -1.2390078 0.40220144 37
0.91693532 -1.2418847 0.34728661 38
0.91754186 -1.2431601 0.29262879 36
0.91991103 -1.2468256 0.23908097 36
0.92113465 -1.2489401 0.18585074 36
0.92717427 -1.2575885 0.13334829 38
0.92324018 -1.2527101 0.079550654 36
0.91225892 -1.2382625 0.02617861 34
0.93253547 -1.268101 -0.41152245 16
0.91429633 -1.2437536 -0.34754959 12
0.92946845 -1.2648551 -0.29739496 37
0.91727298 -1.2487159 -0.23934492 38
0.93320328 -1.2708671 -0.18889768 36
0.91864347 -1.2514968 -0.13247694 39
0.91471487 -1.2466009 -0.078764319 36
0.91557974 -1.2482362 -0.02608984 38
0.91367084 -1.2460897 0.40349469 38
0.91547495 -1.2490073 0.34841052 35
0.91609788 -1.2503147 0.29358199 36
0.92138952 -1.2579975 0.24064358 34
0.91676944 -1.2521479 0.18585074 36
0.92572057 -1.2648367 0.13378407 40
0.91886175 -1.2559252 0.079550654 40
0.91088217 -1.2454745 0.026265871 35
0.93379855 -1.27915 -0.41411063 16
0.91282117 -1.2508727 -0.34867433 13
0.92794037 -1.2720573 -0.29834813 38
0.91581827 -1.2559003 -0.2401271 37
0.93168485 -1.2781273 -0.18950704 37
0.91720271 -1.2587215 -0.13291271 38
0.91329771 -1.2538222 -0.079025127 37
0.91415977 -1.255466 -0.026176231 36
0.91215783 -1.2531763 0.40478793 36
0.91397601 -1.2561349 0.34953442 39
0.91461498 -1.2574743 0.29453519 36
0.9198969 -1.2652004 0.24142489 34
0.91531068 -1.2593547 0.18646009 36
0.92422754 -1.2720902 0.13421984 41
0.91740638 -1.2631651 0.079812333 37
0.90946615 -1.252692 0.026353132 35
0.93216187 -1.2863126 -0.41540477 16
0.91130733 -1.2579969 -0.3497991 13
0.92637318 -1.2792641 -0.29930133 36
0.91432458 -1.2630898 -0.24090928 39
0.93012697 -1.2853922 -0.19011639 35
0.91572261 -1.2659513 -0.13334849 38
0.91184127 -1.2610488 -0.079285935 38
0.91270041 -1.262701 -0.02626262 38
0.91060668 -1.2602676 0.4060812 37
0.91243845 -1.2632672 0.35065833 35
0.91309315 -1.2646385 0.29548836 35
0.92125547 -1.2764127 0.24298751 32
0.91381282 -1.2665668 0.18706943 38
0.92269522 -1.2793484 0.13465562 41
0.91591156 -1.2704099 0.080074012 38
0.90801084 -1.2599149 0.026440395 37
0.93048656 -1.2934793 -0.41669884 16
0.90975481 -1.2651256 -0.35092384 13
0.92476684 -1.2864754 -0.30025452 37
0.91279167 -1.2702841 -0.24169144 39
0.92852962 -1.2926617 -0.19072573 34
0.91420323 -1.273186 -0.13378426 38
0.91034544 -1.2682805 -0.07954675 37
0.91120166 -1.2699412 -0.02634901 36
0.90901697 -1.2673633 0.40737444 38
0.91086203 -1.2704039 0.35178223 35
0.91153246 -1.2718077 0.29644156 35
0.91967058 -1.2836354 0.24376883 34
0.90938616 -1.2697488 0.18706943 37
0.92112333 -1.2866113 0.13509139 39
0.91437739 -1.2776598 0.080335692 39
0.90651613 -1.2671425 0.026527656 36
0.92877227 -1.3006498 -0.41799295 16
0.91099411 -1.2762241 -0.35317335 12
0.92312157 -1.293691 -0.30120769 36
0.91121984 -1.2774831 -0.24247362 38
0.92689294 -1.2999358 -0.19133508 34
0.91264451 -1.2804255 -0.13422005 37
0.90881008 -1.2755169 -0.079807557 36
0.90966332 -1.277186 -0.026435401 38
0.90738875 -1.2744631 0.40866768 36
0.9092471 -1.2775451 0.35290614 37
0.90993291 -1.2789811 0.29739475 35
0.91804647 -1.2908623 0.24455012 36
0.90782386 -1.2769601 0.18767878 37
0.91951203 -1.293879 0.13552718 40
0.91280365 -1.2849144 0.080597371 37
0.90498197 -1.2743752 0.026614919 35
0.92701954 -1.3078239 -0.41928706 16
0.90935034 -1.2833713 -0.35429811 12
0.92143714 -1.3009107 -0.30216089 36
0.90960872 -1.2846864 -0.24325579 37
0.92521673 -1.307214 -0.19194442 34
0.91104627 -1.2876695 -0.13465583 37
0.90723544 -1.2827581 -0.080068365 36
0.90808564 -1.2844356 -0.026521791 36
0.90572202 -1.281567 0.40996096 35
0.91040438 -1.2886695 0.35515395 37
0.90829432 -1.286159 0.29834792 35
0.91353494 -1.294059 0.24455012 35
0.90622228 -1.284176 0.18828812 35
0.9178611 -1.3011509 0.13596296 38
0.91119045 -1.2921734 0.08085905 36
0.90340835 -1.2816124 0.026702181 36
0.92522776 -1.3150017 -0.42058113 16
0.90766776 -1.2905227 -0.35542285 13
0.9197135 -1.3081344 -0.30311409 36
0.90795845 -1.2918941 -0.24403796 37
0.92350096 -1.3144965 -0.19255377 36
0.90940863 -1.2949181 -0.1350916 37
0.90562117 -1.2900039 -0.080329172 36
0.90646839 -1.2916899 -0.02660818 36
0.90401679 -1.2886747 0.4112542 36
0.90869784 -1.2958286 0.35627785 36
0.90661669 -1.2933408 0.29930112 36
0.91184634 -1.3012844 0.24533144 34
0.90458137 -1.2913963 0.18889748 36
0.91617066 -1.3084272 0.13639873 40
0.90953749 -1.2994368 0.081120729 37
0.90179521 -1.2888542 0.026789442 35
0.92339736 -1.322183 -0.42187524 15
0.90594631 -1.2976779 -0.35654762 12
0.91795069 -1.315362 -0.30406728 35
0.90626884 -1.2991059 -0.24482013 37
0.9217456 -1.3217827 -0.19316311 34
0.90773141 -1.3021708 -0.13552739 38
0.90396738 -1.2972538 -0.08058998 37
0.90481144 -1.2989483 -0.026694572 36
0.90227288 -1.295786 0.41254744 35
0.90695244 -1.3029914 0.35740176 39
0.90489978 -1.3005265 0.30025432 36
0.91011828 -1.3085138 0.24611275 34
0.90290105 -1.2986206 0.18950681 37
0.91444045 -1.3157073 0.13683452 39
0.90784502 -1.3067044 0.081382409 37
0.90014255 -1.2961005 0.026876705 34
0.92152792 -1.3293674 -0.42316931 15
0.90418583 -1.3048368 -0.35767236 12
0.91614842 -1.3225931 -0.30502045 36
0.90454 -1.3063216 -0.24560231 37
0.91995049 -1.3290728 -0.19377246 35
0.90601444 -1.3094274 -0.13596317 35
0.90227401 -1.304508 -0.080850787 36
0.9031148 -1.3062108 -0.026780961 37
0.90049022 -1.3029008 0.41384071 35
0.90516788 -1.3101577 0.35852566 35
0.90314388 -1.307716 0.30120748 34
0.90835094 -1.3157468 0.24689406 36
0.90118134 -1.3058488 0.19011617 35
0.91267055 -1.3229913 0.13727029 38
0.90611285 -1.3139759 0.081644088 36
0.89845008 -1.3033506 0.026963966 35
0.91688186 -1.332576 -0.42316931 16
0.90238649 -1.3119991 -0.35879713 12
0.914307 -1.3298275 -0.30597368 36
0.89997458 -1.3094711 -0.24560231 37
0.91811585 -1.3363663 -0.19438182 37
0.90425807 -1.3166881 -0.13639894 39
0.90054095 -1.3117661 -0.081111602 35
0.89854974 -1.3093554 -0.026780961 35
0.89866912 -1.3100191 0.41513398 35
0.90058911 -1.3133094 0.35852566 34
0.90134877 -1.3149091 0.30216068 34
0.90654415 -1.3229834 0.24767537 33
0.89942205 -1.313081 0.19072551 39
0.91086107 -1.330279 0.13770607 39
0.90434104 -1.3212513 0.081905767 37
0.89671808 -1.3106048 0.027051229 34
0.91494846 -1.3397568 -0.42446342 16
0.90054804 -1.3191646 -0.35992187 11
0.91242611 -1.3370653 -0.30692685 36
0.89818114 -1.3166841 -0.24638447 33
0.91624129 -1.3436631 -0.19499116 32
0.90246195 -1.3239522 -0.13683473 34
0.89876819 -1.3190279 -0.08137241 36
0.89678812 -1.3166157 -0.026867351 33
0.89680904 -1.3171405 0.41642722 35
0.89874065 -1.3204726 0.35964957 36
0.89951444 -1.3221056 0.30311388 35
0.90747529 -1.3343071 0.24923798 32
0.89762324 -1.3203167 0.19133486 36
0.90901172 -1.33757 0.13814184 39
0.9025293 -1.3285302 0.082167447 31
0.89494622 -1.3178626 0.02713849 34
0.91297603 -1.3469402 -0.42575753 15
0.89867067 -1.3263334 -0.36104667 12
0.91050583 -1.344306 -0.30788004 33
0.89634824 -1.3239008 -0.24716665 34
0.91432709 -1.3509632 -0.19560052 31
0.90341717 -1.3353453 -0.13770628 37
0.89695567 -1.3262933 -0.081633218 35
0.89498675 -1.3238797 -0.026953742 36
0.89491028 -1.3242646 0.4177205 34
0.8995803 -1.3316762 0.36189741 37
0.89764065 -1.3293051 0.30406705 34
0.90557516 -1.34156 0.25001928 29
0.89578485 -1.3275558 0.1919442 32
0.90712249 -1.3448644 0.13857763 40
0.9006778 -1.3358124 0.082429126 35
0.89313471 -1.3251241 0.027225751 32
0.91096449 -1.3541261 -0.4270516 15
0.89675409 -1.333505 -0.36217141 11
0.90854615 -1.3515496 -0.30883324 36
0.89447582 -1.3311204 -0.24794883 39
0.91237307 -1.3582662 -0.19620986 40
0.90152705 -1.342626 -0.13814206 37
0.89510339 -1.333562 -0.081894025 36
0.89314556 -1.3311471 -0.027040131 36
0.8956629 -1.3354027 0.42030698 35
0.89763963 -1.338855 0.36302131 36
0.89572769 -1.3365076 0.30502024 34
0.9036355 -1.3488158 0.25080064 31
0.89390683 -1.3347981 0.19255355 35
0.90242255 -1.3480227 0.13857763 39
