# .PCD v0.7 - Point Cloud Data file format
VERSION 0.7
FIELDS x y z intensity
SIZE 4 4 4 4
TYPE F F F F
COUNT 1 1 1 1
WIDTH 1411
HEIGHT 1
VIEWPOINT 0 0 0 1 0 0 0
POINTS 1411
DATA ascii
-2.2159302 -0.012763138 -0.50276589 2
-2.5954349 -0.014495975 -0.49661148 2
-3.228436 -0.017467918 -0.50528377 5
-4.2912512 -0.022469444 -0.52221072 3
-4.7551703 -0.02406862 -0.41268307 18
-4.6219463 -0.022587594 -0.23942265 4
-4.692503 -0.02211339 -0.080429271 9
-4.6652026 -0.021170491 1.2389357 4
-4.676394 -0.020405075 1.0699575 4
-4.696188 -0.01967179 0.90457571 7
-4.8138165 -0.019324338 0.75552714 22
-4.6634803 -0.017906893 0.56791109 5
-4.7352757 -0.017356101 0.41093931 11
-4.7168007 -0.016465139 0.24519394 10
-4.822495 -0.015992396 0.083509758 77
-1.9362884 -0.0047313902 -0.50857961 2
-2.2159612 -0.0050280211 -0.50276589 2
-2.5758364 -0.0053950078 -0.49279872 2
-3.2284772 -0.0061984654 -0.50528377 5
-4.2764153 -0.0074640606 -0.5203827 3
-4.854845 -0.0076263202 -0.42139867 6
-4.7667994 -0.006656046 -0.24698611 28
-4.8575263 -0.0059349318 -0.083280146 6
-4.848783 -0.0050779758 1.2880793 20
-4.8664465 -0.0042471183 1.1137898 20
-4.8532934 -0.003388579 0.93507767 6
-4.9323802 -0.0025829347 0.77427852 12
-4.8272843 -0.0016853793 0.58801955 22
-4.8996801 -0.00085549953 0.42532003 6
-4.8816028 -3.4278648e-07 0.25382939 6
-4.9475021 0.00086315454 0.08569131 11
-1.9362931 0.0020275461 -0.50857961 2
-2.2110937 0.0027012066 -0.50164115 2
-2.5905645 0.0036169307 -0.49565825 2
-3.2334175 0.0050788177 -0.50606591 5
-4.2664895 0.0074461373 -0.51916397 3
-4.9743853 0.0095497966 -0.43185738 6
-4.9415545 0.010349235 -0.25611442 12
-4.9775 0.011293259 -0.085353516 6
-4.9501977 0.012095291 1.3152375 13
-4.9590001 0.012982312 1.135144 13
-4.9563498 0.013840427 0.95509464 6
-5.0459452 0.014971311 0.79224867 11
-4.9463658 0.01553917 0.60264385 11
-5.009234 0.016610958 0.43490714 6
-4.9964147 0.017440498 0.259848 6
-5.0574517 0.018536257 0.087611079 10
-1.9362742 0.0087864576 -0.50857961 3
-2.2110708 0.010419347 -0.50164115 2
-2.5954444 0.012683652 -0.49661148 2
-3.2333801 0.016365521 -0.50606591 5
-4.2565131 0.022286955 -0.51794529 4
-5.0789204 0.027479514 -0.44100875 6
-5.0663161 0.028295586 -0.26263466 13
-5.122406 0.029502906 -0.087858833 17
-5.0515509 0.029976502 1.3423959 12
-5.0661077 0.030947119 1.1598699 11
-5.0593433 0.031788852 0.9751116 5
-5.1545095 0.033286471 0.80943751 21
-5.0604224 0.033562128 0.61665887 10
-5.1187243 0.03484223 0.44449428 6
-5.1161561 0.035717729 0.26612833 5
-5.1623373 0.036941178 0.089443579 11
-1.9410611 0.015584037 -0.50987375 3
-2.2061491 0.018097397 -0.50051636 2
-2.6002922 0.021784484 -0.49756464 2
-3.2333033 0.027652023 -0.50606591 5
-4.2514462 0.037101515 -0.51733595 4
-5.1883707 0.046183474 -0.45059589 5
-5.1660466 0.046886474 -0.26785085 13
-5.2222524 0.048308127 -0.089586638 11
-5.1624966 0.048656464 1.3721406 13
-5.178021 0.049706597 1.1857197 12
-5.2064438 0.050888218 1.0037073 17
-5.2136216 0.051868413 0.8188132 9
-5.1744108 0.052381516 0.63067383 10
-5.2381086 0.053940661 0.45495296 6
-5.2408223 0.054883402 0.27267033 15
-5.2721534 0.056131776 0.091363341 10
-1.940995 0.022359509 -0.50987375 3
-2.2060723 0.025798183 -0.50051636 2
-2.6002004 0.030861067 -0.49756464 2
-3.233187 0.038938191 -0.50606591 5
-4.2463284 0.051880971 -0.51672655 4
-5.2927709 0.065590143 -0.45974725 5
-5.265707 0.066173941 -0.27306703 13
-5.3270278 0.067874447 -0.091400832 12
-5.2685437 0.068048954 1.4005922 13
-5.2655048 0.068928868 1.20595 14
-5.2896681 0.070168562 1.0199115 12
-5.3269858 0.071593486 0.83678341 8
-5.2833667 0.071929544 0.64407945 11
-5.3474593 0.073735602 0.46454012 16
-5.3404517 0.074571244 0.27790391 11
-5.3768992 0.07601881 0.093195841 11
-1.9360759 0.029062221 -0.50857961 3
-2.201098 0.033424687 -0.49939165 2
-2.6000769 0.039937269 -0.49756464 2
-3.2330315 0.05022388 -0.50606591 5
-4.2461214 0.066703111 -0.51672655 3
-5.4020767 0.085805297 -0.46933439 5
-5.3652954 0.086157739 -0.27828321 13
-5.436728 0.088253953 -0.093301415 13
-5.3551993 0.08786542 1.4238708 14
-5.3480453 0.088681698 1.2250564 14
-5.3384671 0.089454874 1.0294434 12
-5.3217659 0.090104096 0.83600205 6
-5.3376651 0.091305166 0.65078223 13
-5.4567347 0.0942946 0.47412726 12
-5.4499917 0.095129572 0.28366089 12
-5.486567 0.096725881 0.095115609 11
-1.9359628 0.035820208 -0.50857961 3
-2.1960967 0.041016769 -0.49826688 2
-2.5999217 0.049012989 -0.49756464 2
-3.2328365 0.061508961 -0.50606591 5
-4.2409015 0.081429161 -0.51611727 3
-5.5113053 0.10678434 -0.47892153 5
-5.469799 0.10693517 -0.28376019 13
-5.5413504 0.10930151 -0.095115609 12
-5.3452024 0.10636583 1.4212842 11
-5.3574457 0.10754488 1.2273042 11
-5.3479366 0.10828777 1.0313498 9
-5.3658566 0.10958754 0.84303385 3
-5.3323526 0.10983434 0.65017295 10
-5.5659299 0.11561736 0.48371434 11
-5.5594516 0.11645351 0.28941783 12
-5.5961552 0.11819948 0.097035378 11
-1.9358186 0.042915627 -0.50857961 3
-2.18132 0.048739109 -0.49489263 2
-2.5997245 0.058541849 -0.49756464 2
-3.2325895 0.073357485 -0.50606591 5
-4.2405744 0.096972302 -0.51611727 3
-5.6154494 0.12939316 -0.4880729 5
-5.5741992 0.12941606 -0.2892372 12
-5.650866 0.13218284 -0.097016193 11
-5.3399482 0.12584247 1.4199909 4
-5.4154634 0.12856779 1.2407911 4
-5.4750834 0.13093935 1.0561327 4
-5.6567106 0.13627091 0.88913119 15
-5.421217 0.13154456 0.66114116 3
-5.679997 0.13881575 0.49373728 11
-5.6737952 0.13965502 0.29543647 12
-5.7106314 0.141559 0.099042401 10
-1.9308288 0.049548738 -0.50728554 3
-2.2006173 0.056856357 -0.49939165 2
-2.5995042 0.067616224 -0.49756464 3
-3.2323136 0.084640883 -0.50606591 5
-4.2302876 0.11151251 -0.51489854 2
-5.7892365 0.15361831 -0.50332522 13
-5.6984987 0.15220585 -0.29575741 12
-5.760314 0.15486301 -0.098916776 11
-5.5325999 0.14970736 1.4717211 4
-5.6828451 0.15476546 1.3026059 12
-5.7051969 0.15637065 1.1009325 15
-5.7499971 0.15860288 0.90397602 9
-5.6687655 0.1573524 0.69160849 17
-5.7890167 0.16170147 0.50332445 10
-5.7830787 0.16254573 0.30119342 11
-5.8300362 0.16489059 0.10113669 10
-1.930644 0.056288283 -0.50728554 2
-2.2150145 0.064966083 -0.50276589 2
-2.6041589 0.076834537 -0.49851784 3
-3.2319984 0.095923245 -0.50606591 4
-4.2397943 0.12657449 -0.51611727 2
-5.8633456 0.17606814 -0.50986189 10
-5.8177152 0.17571422 -0.30201682 12
-5.8946557 0.17906784 -0.10124931 11
-5.6768713 0.17344369 1.5105186 4
-5.8186231 0.17879109 1.3340752 13
-5.7880173 0.17886181 1.1171366 10
-5.8777499 0.18266159 0.92429012 10
-5.7673883 0.18023948 0.70379543 12
-5.9128799 0.18581931 0.51421893 10
-5.9172235 0.18698961 0.30825877 11
-5.9593401 0.18936165 0.1034055 10
-1.9352629 0.063184746 -0.50857961 2
-2.229382 0.073177017 -0.50614017 2
-2.6087801 0.086086147 -0.49947101 2
-3.2316439 0.10720444 -0.50606591 4
-4.1897268 0.13971931 -0.51002377 2
-5.8776298 0.19703461 -0.5111692 6
-5.9468155 0.20039298 -0.30879787 12
-6.0288978 0.2042124 -0.10358185 11
-5.82587 0.19835338 1.5506095 3
-5.9445629 0.20343325 1.3632967 12
-5.9198036 0.20362034 1.1428728 10
-6.005403 0.20761406 0.94460422 10
-5.8907175 0.20467861 0.71902913 14
-6.0416212 0.21097763 0.52554911 11
-6.0362968 0.21184653 0.31453907 11
-6.0935383 0.21492027 0.10576158 11
-1.9350306 0.069939688 -0.50857961 2
-2.2583249 0.0820195 -0.51288873 2
-2.603559 0.095012978 -0.49851784 3
-3.23125 0.11848433 -0.50606591 4
-4.228888 0.15580507 -0.51489854 2
-5.8769064 0.21755017 -0.5111692 5
-6.0658336 0.22560397 -0.31505728 12
-6.1580381 0.23010959 -0.10582799 11
-5.9699359 0.22412413 1.589407 4
-6.0606623 0.22858946 1.3902705 12
-6.051486 0.22930105 1.1686088 10
-6.1329517 0.23345987 0.96491826 10
-6.0189037 0.2301705 0.7348721 15
-6.1752357 0.23722818 0.53731519 11
-6.1702356 0.23811461 0.32160443 11
-6.2326245 0.24161167 0.10820492 9
-1.9202971 0.0761199 -0.50469732 3
-2.2288167 0.088739127 -0.50614017 2
-2.6032114 0.10410052 -0.49851784 2
-3.2357514 0.12996097 -0.5068481 4
-4.198566 0.16936551 -0.51124245 2
-5.9009957 0.23907124 -0.5133481 4
-6.2047024 0.25246024 -0.32235992 12
-6.2870688 0.25691074 -0.10807414 11
-6.1042395 0.25050688 1.6256181 24
-6.157186 0.25375614 1.4127485 9
-6.1781554 0.2557005 1.1933917 10
-6.2751946 0.26081386 0.98757625 10
-6.1370659 0.25614583 0.74949646 12
-6.3186917 0.26483119 0.54995275 11
-6.3190289 0.26595014 0.32945484 11
-6.3715963 0.26927662 0.11064824 11
-1.924845 0.083030663 -0.50599146 3
-2.2236259 0.096307792 -0.50501537 2
-2.5832174 0.11233382 -0.49470508 3
-3.2352781 0.14125505 -0.5068481 4
nan nan nan 0
-5.9399338 0.26142013 -0.51683432 5
-6.3534331 0.2807295 -0.33018419 11
-6.4209814 0.28483701 -0.11040667 11
-6.1178031 0.27245781 1.6294978 13
-6.2633405 0.28003466 1.4374745 5
-6.324326 0.28386736 1.2219874 10
-6.4173198 0.28916365 1.0102342 10
-6.2799063 0.28407013 0.76716751 13
-6.4620275 0.29343849 0.5625903 11
-6.4677005 0.29482728 0.33730522 11
-6.5104504 0.29791465 0.11309159 10
nan nan nan 0
-2.2135432 0.10361352 -0.50276589 2
-2.5975182 0.1220413 -0.49756464 2
-3.2347653 0.15254742 -0.5068481 4
nan nan nan 0
-5.9290347 0.28168002 -0.51596278 6
-6.5020409 0.31004012 -0.33800846 11
-6.5647607 0.31417921 -0.11291198 11
-6.4593396 0.31026387 1.7213187 7
-6.3304543 0.30518049 1.453209 3
-6.4752765 0.31329492 1.2515363 9
-6.5839849 0.31970641 1.0367988 9
-6.4226251 0.31299469 0.78483856 14
-6.6002645 0.32280633 0.57479209 10
-6.5962982 0.32376638 0.34410891 12
-6.6741462 0.32875505 0.11597124 10
nan nan nan 0
-2.2131681 0.11133959 -0.50276589 2
-2.6117826 0.13185 -0.50042421 2
-3.2342129 0.16383794 -0.5068481 4
nan nan nan 0
-5.9230409 0.30212077 -0.51552701 5
-6.6505184 0.34039146 -0.34583274 11
-6.748353 0.34657985 -0.11610842 11
-6.6752725 0.34399474 1.779515 15
-6.5093751 0.33658472 1.4947935 4
-6.6358995 0.34428829 1.2829915 9
-6.7357183 0.35064593 1.0610194 10
-6.5751281 0.34343669 0.80372828 12
-6.748322 0.3536641 0.58786547 7
-6.7646604 0.35570428 0.35300601 9
-6.8476877 0.36126855 0.1190254 10
-1.9094018 0.1024067 -0.50210917 2
-2.1884422 0.1177555 -0.49714214 2
-2.6162076 0.1412306 -0.5013774 2
-3.2286899 0.17485937 -0.50606591 3
nan nan nan 0
-5.9219503 0.3227942 -0.51552701 5
-6.798862 0.37178314 -0.35365701 12
-6.9218135 0.37971821 -0.11913209 10
-6.8428206 0.37658271 1.8247789 12
-6.7173409 0.3708531 1.5431215 3
-6.7963834 0.37640676 1.3144467 11
-6.8626585 0.38127872 1.0813335 16
-6.7374063 0.37549943 0.82383668 12
-6.8216443 0.38138866 0.59440213 3
-6.9378638 0.389101 0.36216483 10
-7.0210824 0.39499748 0.12207957 9
-1.9765376 0.11292797 -0.52022654 2
-2.1977456 0.12595135 -0.49939165 2
nan nan nan 0
-3.2231297 0.18584427 -0.50528377 4
-4.2494702 0.24576676 -0.51794529 2
-5.9207873 0.34346369 -0.51552701 8
-6.9271269 0.40305433 -0.36043805 7
-7.0951219 0.41407165 -0.12215573 10
-7.0005774 0.40978003 1.8674562 11
-6.939734 0.40743393 1.5948211 9
-6.8636255 0.40416765 1.3277912 16
-7.0880651 0.41862527 1.1172737 6
-6.8450432 0.40547112 0.83724236 16
nan nan nan 0
-7.1009455 0.4231171 0.37080026 10
-7.1893325 0.42964301 0.12504649 9
-1.9086403 0.11573424 -0.50210917 3
-2.2264698 0.13539648 -0.50614017 2
nan nan nan 0
-3.2175322 0.19679245 -0.50450158 3
-4.213912 0.25847185 -0.5136798 2
-5.9145813 0.36382318 -0.51509124 5
-7.1100755 0.43860719 -0.37008798 5
-7.2582936 0.44902217 -0.12500662 9
-7.1774664 0.44527939 1.9153066 10
-7.2105775 0.44859695 1.6577598 23
nan nan nan 0
-7.3428659 0.45940021 1.1579019 13
nan nan nan 0
-7.3606706 0.46309358 0.64190203 18
-7.2987547 0.46047711 0.38126743 10
-7.3723917 0.46641472 0.12827519 9
-1.9467826 0.12486907 -0.5124619 3
-2.2259834 0.1431675 -0.50614017 2
nan nan nan 0
-3.2168255 0.20802253 -0.50450158 4
-4.2476511 0.27542743 -0.51794529 2
-5.9132748 0.38446671 -0.51509124 4
-7.2779098 0.47446758 -0.37895548 5
-7.4412613 0.48642114 -0.12820305 10
-7.3734679 0.48328209 1.9683299 11
-7.3839841 0.48526564 1.6982204 14
-7.3504052 0.48434734 1.4231101 14
-7.3658566 0.48665667 1.1618085 10
-7.3273296 0.48539567 0.89695829 11
-7.3689499 0.48944458 0.64277363 16
-7.4664946 0.49723241 0.39016455 9
-7.5502911 0.50413644 0.1314166 9
-1.9270602 0.13035998 -0.50728554 2
nan nan nan 0
nan nan nan 0
-3.225934 0.21992187 -0.50606591 3
-4.2219071 0.28856075 -0.51489854 2
-5.9118967 0.40510556 -0.51509124 2
-7.4605231 0.51253146 -0.38860542 5
-7.6440029 0.52647686 -0.13174506 9
-7.5596533 0.52199304 2.0187666 11
-7.5912437 0.52550554 1.7465483 13
-7.3535657 0.51034182 1.4240633 7
-7.5808859 0.52744758 1.1961861 5
-7.3354921 0.51166052 0.89817703 8
-7.5013547 0.52454525 0.65453964 6
-7.6838737 0.53865594 0.40167844 10
-7.7579365 0.54520857 0.13508162 9
nan nan nan 0
nan nan nan 0
-2.5986571 0.18581799 -0.49851784 2
-3.2349982 0.23188731 -0.50763023 4
nan nan nan 0
-5.920383 0.42645517 -0.51596278 3
-7.6778183 0.55439323 -0.40008101 4
-7.8515396 0.56831461 -0.13537344 8
-7.7601066 0.56305802 2.0730832 11
-7.7788711 0.56578434 1.7903805 15
-7.5083895 0.54742867 1.4545653 2
-7.8991523 0.57730478 1.2469714 12
-7.6207304 0.5582937 0.93351912 3
-7.7677279 0.57042575 0.67807168 8
-7.8661947 0.57903695 0.41136059 10
-7.9653854 0.58773625 0.13874662 8
nan nan nan 0
-2.2292204 0.16683322 -0.50726491 2
-2.6126761 0.19598934 -0.5013774 2
-3.2440181 0.24391872 -0.50919461 3
nan nan nan 0
-5.9188585 0.44711858 -0.51596278 4
-7.9048681 0.59853196 -0.4120782 13
-8.0588741 0.61160749 -0.13900183 8
-7.9844437 0.60736036 2.1338663 10
-7.9905987 0.60923129 1.8398323 9
-7.9028497 0.60392827 1.5317736 5
-8.1186762 0.62184685 1.2821302 10
-7.9007807 0.60654426 0.96825188 13
-7.9742737 0.61358637 0.69637436 7
-8.1080656 0.62530458 0.42418289 9
-8.187582 0.63287455 0.14267342 8
nan nan nan 0
-2.2043397 0.17271094 -0.50164115 2
-2.6021895 0.20433961 -0.49947101 2
-3.2529933 0.2560159 -0.51075894 5
nan nan nan 0
-5.9420891 0.4697392 -0.51814169 3
-8.1167669 0.64307928 -0.42329299 13
-8.3008852 0.65912455 -0.14323495 7
-8.1941185 0.65208602 2.1907694 10
-8.2021151 0.65416294 1.8892841 10
-8.0768309 0.64558953 1.5660884 32
-8.342905 0.66832262 1.3180705 11
-8.1014347 0.65040231 0.99323505 11
-8.1955061 0.65939415 0.71598446 6
-8.3347759 0.67206365 0.4362202 11
-8.439455 0.68198693 0.14712377 7
-1.953934 0.15961252 -0.51505011 3
-2.232857 0.18278944 -0.50838971 2
-2.5916765 0.21261904 -0.49756464 2
-3.2570016 0.26777405 -0.51154113 7
-4.2273593 0.34829468 -0.51611727 2
-5.9205565 0.48883858 -0.51639855 3
-8.3483534 0.69075984 -0.43555102 13
-8.5277128 0.70709908 -0.14720888 9
-8.4517088 0.70228225 2.2606049 12
-8.4716749 0.70543015 1.9522228 12
-8.1674623 0.68153393 1.5841988 5
-8.5865908 0.71801722 1.357136 11
-8.3414392 0.69898349 1.0230931 13
-8.4314013 0.70800394 0.73690182 6
-8.5761814 0.72166878 0.4490425 11
-8.701046 0.7337054 0.15174866 8
-1.9389282 0.16520202 -0.51116782 3
-2.2127886 0.18892467 -0.50389069 2
-2.6006997 0.22250119 -0.49947101 2
-3.2511268 0.27871966 -0.51075894 6
-4.2162285 0.36219925 -0.51489854 2
-5.9138517 0.50907511 -0.51596278 3
-8.5996017 0.74178135 -0.44885227 12
-8.7891693 0.75967836 -0.15178758 7
-8.6897984 0.75261742 2.3252676 12
-8.6972904 0.75479573 2.0050464 11
-8.5268812 0.74150628 1.6547348 3
-8.8300295 0.76942104 1.3962015 15
-8.5119858 0.74320471 1.0444202 14
-8.7067518 0.76174146 0.76130539 5
-8.8272877 0.77383941 0.46238816 10
-8.9573956 0.78682065 0.1562863 7
-1.9383398 0.17196913 -0.51116782 2
-2.2169683 0.19707897 -0.50501537 2
-2.5950184 0.23114251 -0.49851784 2
-3.2402961 0.2891885 -0.50919461 5
-4.2347107 0.37868252 -0.51733595 2
-5.9021168 0.52882618 -0.51509124 3
-8.8704863 0.79635096 -0.46319681 11
-9.0802336 0.81677872 -0.1568846 7
-8.8747215 0.79985416 2.3757043 11
-8.9663315 0.80968833 2.0679851 8
-9.1157312 0.82478356 1.7700707 17
-9.0781288 0.82297873 1.4360484 10
-8.8207102 0.80119467 1.0828091 14
-8.9074192 0.81063801 0.7791723 17
-9.1278553 0.83230555 0.47835061 7
-9.2931328 0.8490116 0.16222011 8
-1.9328873 0.17862791 -0.50987375 3
-2.21138 0.20475408 -0.50389069 2
-2.5990407 0.24110554 -0.49947101 2
-3.2342973 0.30060583 -0.50841242 4
-4.2234116 0.39328071 -0.51611727 2
-5.8951793 0.5499922 -0.51465541 3
-9.1359692 0.85395104 -0.47728047 8
-9.4106703 0.88128448 -0.16267274 11
-8.9005833 0.83508325 2.3834639 14
-9.293149 0.87355137 2.1444106 9
-9.3667536 0.88211954 1.8196365 14
-9.5028086 0.89660585 1.5040225 32
-9.2277937 0.87228262 1.1333849 13
-9.4597731 0.895877 0.82797956 17
-9.4428768 0.89593971 0.49509814 15
-9.4989843 0.90293604 0.16588512 30
-1.9370595 0.18583508 -0.51116782 2
-2.2155013 0.21293809 -0.50501537 2
-2.593298 0.24970599 -0.49851784 2
-3.2283125 0.31141958 -0.50763023 4
-4.222013 0.40802079 -0.51611727 2
-5.8932233 0.57056683 -0.51465541 3
-9.485795 0.92006171 -0.49579793 22
-9.5120277 0.9242819 -0.16448693 31
-8.8976135 0.86614704 2.3834639 14
-9.5761366 0.93388569 2.210721 8
-9.6567202 0.9434458 1.8768277 13
-9.5635166 0.93602514 1.5141793 12
-9.4913998 0.93063921 1.1662896 33
-9.5309448 0.93619615 0.83451623 26
-9.5092602 0.93574178 0.49876165 31
-9.5803518 0.94443238 0.16736858 56
-1.9363991 0.19259554 -0.51116782 2
-2.2147443 0.22067033 -0.50501537 2
-2.5924103 0.25875676 -0.49851784 2
-3.2173781 0.32170394 -0.50606591 3
-4.2205629 0.42275587 -0.51611727 2
-5.8911958 0.59113455 -0.51465541 2
-9.5471115 0.9596597 -0.49918842 21
-10.409056 1.048136 -0.18012357 16
-8.8849249 0.89623076 2.3808775 14
-9.9266758 1.0030633 2.2927661 7
-10.044036 1.0166931 1.9530828 11
-10.292284 1.0436366 1.6305946 3
nan nan nan 0
-10.449322 1.0632452 0.91557109 16
-10.434841 1.063612 0.54769576 16
-10.442366 1.0662204 0.18255216 70
-1.9357151 0.19935367 -0.51116782 2
-2.218807 0.22889985 -0.50614017 2
-2.5914915 0.26780438 -0.49851784 3
-3.2113235 0.33242422 -0.50528377 3
-4.2190614 0.43748581 -0.51611727 2
-5.8890963 0.61169511 -0.51465541 2
nan nan nan 0
-10.430196 1.0870552 -0.18055551 20
-8.8817425 0.92723942 2.3808775 10
-10.24777 1.0716586 2.3680677 11
-10.440716 1.0936781 2.0312443 10
-10.553807 1.1073867 1.6727854 8
-10.442168 1.0975153 1.2845029 30
-10.445546 1.0997137 0.91557109 17
-10.445962 1.1016008 0.54848081 18
-10.443551 1.1031896 0.18263943 63
-1.9350073 0.20610936 -0.51116782 2
-2.2179945 0.23664354 -0.50614017 2
-2.5954211 0.27737033 -0.49947101 2
-3.2101433 0.3436318 -0.50528377 3
-4.1977706 0.45009404 -0.5136798 2
-5.8869252 0.63224816 -0.51465541 2
-9.9025908 1.0652738 -0.51822746 6
-10.481013 1.1293482 -0.18150581 9
-8.8736506 0.95771861 2.3795841 12
-10.29725 1.1131836 2.3804307 11
-10.876016 1.1776714 2.1170311 10
-11.15869 1.2102504 1.7696679 14
-10.458008 1.1361024 1.2869402 13
-10.654568 1.1593373 0.93430954 6
-10.546292 1.1494181 0.55397606 6
-11.110548 1.2128774 0.19441979 33
-1.9390768 0.21339083 -0.5124619 2
-2.217155 0.24438433 -0.50614017 2
-2.5993159 0.28696695 -0.50042421 3
-3.2089243 0.35483521 -0.50528377 3
-4.1665788 0.46146649 -0.51002377 2
-5.8846827 0.65279353 -0.51465541 3
-9.8839235 1.0981796 -0.51744509 5
-11.291855 1.2566066 -0.19567379 3
-8.8654528 0.98815256 2.3782909 15
-10.293302 1.1491209 2.3804307 10
-11.28646 1.2619894 2.1980522 10
-11.605924 1.2997611 1.8415484 11
-11.119772 1.2472814 1.369202 4
-11.437481 1.2849394 1.0035983 9
-11.360918 1.2783461 0.59715325 9
-11.687478 1.3171567 0.20462945 57
-1.9335214 0.21961312 -0.51116782 2
-2.2162883 0.25212216 -0.50614017 2
-2.6031752 0.29659414 -0.5013774 2
-3.2125728 0.3665942 -0.50606591 3
-4.2339716 0.48389697 -0.51855469 2
-5.8823681 0.6733309 -0.51465541 2
-9.8949127 1.1343803 -0.51822746 5
-11.853594 1.3610251 -0.20552227 16
-8.8619499 1.0190928 2.3782909 14
-10.294066 1.1856016 2.3815544 8
-11.730576 1.3531237 2.2857456 10
-12.072287 1.3946751 1.9165542 10
-11.672423 1.3505445 1.4380583 15
-11.90792 1.3798987 1.0454332 9
-11.832532 1.3732556 0.62227446 8
-12.174424 1.4150882 0.21326838 54
-1.932743 0.22636104 -0.51116782 2
-2.2105558 0.25928932 -0.50501537 2
-2.6069987 0.30625176 -0.5023306 3
-3.2161784 0.37838298 -0.5068481 3
-4.2421136 0.49983478 -0.5197733 2
-5.8799815 0.69386011 -0.51465541 3
-9.8859339 1.168327 -0.51796663 5
-12.370054 1.4640915 -0.21459326 10
-8.8535414 1.0494519 2.3769975 14
-10.285028 1.2209532 2.3804307 4
-12.169312 1.4467937 2.3724856 13
-12.650914 1.50629 2.0095301 9
-12.120996 1.4453404 1.494118 10
-12.437181 1.4852448 1.0924972 9
-12.358154 1.477995 0.65027428 7
-12.725351 1.5241635 0.22304174 53
-1.9367359 0.23368473 -0.5124619 2
-2.2096372 0.26700404 -0.50501537 2
-2.6107867 0.31593969 -0.50328374 3
-3.2197402 0.39020133 -0.50763023 3
-4.210784 0.51105195 -0.51611727 2
-5.8775239 0.71438086 -0.51465541 2
-9.8817949 1.2028283 -0.51796663 5
-12.925632 1.5756186 -0.22435534 10
-8.849824 1.0803502 2.3769975 14
-10.280704 1.2568471 2.3804307 22
-12.198292 1.493439 2.379158 13
-13.214196 1.6201574 2.1001623 9
-12.672486 1.5559847 1.5629742 8
-12.995506 1.5979489 1.142176 9
-12.952561 1.5949632 0.68193746 6
-13.340159 1.6450553 0.2339495 58
-1.9359083 0.24044378 -0.5124619 2
-2.2086918 0.27471548 -0.50501537 2
-2.6096678 0.32505113 -0.50328374 3
-3.2232592 0.40204921 -0.50841242 4
-4.2138987 0.5263623 -0.51672655 2
-5.8700523 0.73427469 -0.5142197 2
-9.8725824 1.2366943 -0.51770592 4
-13.465695 1.6891748 -0.23385827 14
-8.8412075 1.1106333 2.3757043 14
-10.276255 1.2927259 2.3804307 14
-12.197874 1.5366234 2.3801112 14
-13.99242 1.7651716 2.2251718 8
-13.282428 1.6779598 1.6391426 8
-13.538366 1.712693 1.1905475 16
-13.49676 1.7098229 0.71098393 14
-13.532716 1.7167778 0.23743998 47
-1.9398482 0.24781193 -0.51375604 2
-2.2125521 0.28304181 -0.50614017 2
-2.6133857 0.33478227 -0.504237 4
-3.2218361 0.41329801 -0.50841242 4
nan nan nan 0
-5.8674536 0.7547605 -0.5142197 2
-9.8682051 1.2711486 -0.51770592 4
-14.010076 1.8071591 -0.24344759 2
-8.8372765 1.1414882 2.3757043 14
-10.271679 1.3285888 2.3804307 14
-12.192436 1.5791924 2.3801112 8
-14.657137 1.9010274 2.3322113 9
-13.999934 1.8182728 1.7287165 7
nan nan nan 0
nan nan nan 0
-14.825444 1.933382 0.26030263 42
-1.9389713 0.25458175 -0.51375604 2
-2.2115507 0.29076332 -0.50614017 2
-2.6122012 0.34390265 -0.504237 3
-3.2154775 0.42389637 -0.50763023 3
-4.1953607 0.55381936 -0.51489854 2
-5.8647833 0.77523714 -0.5142197 3
-9.8637085 1.3055872 -0.51770592 4
-15.014687 1.9900514 -0.26107118 17
-8.8332376 1.1723291 2.3757043 14
-10.266978 1.3644357 2.3804307 14
-12.18685 1.6217424 2.3801112 11
-14.880492 1.9828371 2.368933 10
-14.736291 1.9662399 1.8207279 6
-15.026958 2.0076928 1.3230242 6
nan nan nan 0
-15.046534 2.0156541 0.26431668 23
-1.9428113 0.26233298 -0.51505011 2
-2.21047 0.29886711 -0.50614017 2
-2.6109233 0.35347453 -0.504237 3
-3.2139025 0.43567881 -0.50763023 3
nan nan nan 0
-5.8668375 0.79739821 -0.51465541 2
-9.8588562 1.3417308 -0.51770592 4
-15.641337 2.1314719 -0.27212912 2
-8.8288822 1.2046965 2.3757043 14
-10.261909 1.4020568 2.3804307 14
-12.180823 1.6663986 2.3801112 11
-14.873125 2.0373635 2.368933 9
-15.500907 2.1261151 1.9163953 6
-15.897867 2.1833894 1.4005928 2
nan nan nan 0
-16.440605 2.2637758 0.28901184 37
-1.9466677 0.26977602 -0.51634425 2
-2.2094133 0.30658126 -0.50614017 2
-2.6048119 0.3619107 -0.50328374 3
-3.2074709 0.44621435 -0.5068481 3
nan nan nan 0
-5.8640184 0.81787241 -0.51465541 2
-9.8541136 1.3761364 -0.51770592 3
-16.817112 2.3515184 -0.29277638 8
-8.8246231 1.2355077 2.3757043 14
-10.252127 1.4371926 2.3793068 14
-12.174932 1.7089075 2.3801112 11
-14.856141 2.0878935 2.3673704 5
-16.377968 2.304687 2.0260777 6
-16.975246 2.391757 1.4964641 7
-16.808567 2.3712645 0.88761777 5
-17.34837 2.4505115 0.30515531 43
-1.945714 0.27656952 -0.51634425 2
-2.2035062 0.31360522 -0.50501537 2
-2.6035328 0.37100098 -0.50328374 2
-3.2058938 0.4574078 -0.5068481 3
nan nan nan 0
-5.8611279 0.83833671 -0.51465541 2
-9.8443069 1.4098173 -0.51744509 3
-17.818323 2.5549617 -0.31039998 8
-8.8202562 1.266304 2.3757043 14
-10.247047 1.4729704 2.3793068 14
-12.164035 1.7506963 2.379158 11
-14.85854 2.1411471 2.368933 9
-17.41114 2.5120845 2.1552591 12
-17.873877 2.5820327 1.5766474 5
-17.842892 2.5807359 0.94283217 4
-18.626095 2.6973348 0.32784343 44
-1.9447368 0.28335965 -0.51634425 2
-2.2072191 0.3219983 -0.50614017 2
-2.6022217 0.38008678 -0.50328374 2
-3.1993911 0.46788102 -0.50606591 3
nan nan nan 0
-5.8532376 0.85806841 -0.5142197 3
-9.839325 1.4441719 -0.51744509 3
-18.877661 2.7741442 -0.32906026 9
-8.8205605 1.2977877 2.3769975 14
-10.241843 1.5087304 2.3793068 14
-12.157849 1.7931459 2.379158 12
-14.831432 2.1901143 2.3658075 8
-18.742521 2.7709959 2.3216109 18
-18.914267 2.7997613 1.6694682 7
-18.816677 2.7886717 0.99490654 8
nan nan nan 0
-1.9437865 0.28980705 -0.51634425 2
-2.2061968 0.32893085 -0.50614017 2
-2.6010149 0.38826001 -0.50328374 3
-3.1979053 0.47792992 -0.50606591 3
nan nan nan 0
-5.8455873 0.87571454 -0.51378393 2
-9.8347397 1.475076 -0.51744509 2
-20.643686 3.0999534 -0.36007434 4
-8.8212166 1.3262099 2.3782909 15
-10.241872 1.5416237 2.3804307 14
-12.147303 1.8306006 2.3782048 12
-14.819594 2.235961 2.3650262 8
-19.141008 2.891387 2.3721867 6
-20.570017 3.1109209 1.8167614 4
-20.550539 3.1116443 1.0872794 7
-21.331261 3.233665 0.3759248 33
-1.9380403 0.29552326 -0.51505011 2
-2.205035 0.33662993 -0.50614017 2
-2.5996437 0.39733687 -0.50328374 3
-3.1962175 0.48908976 -0.50606591 3
nan nan nan 0
-5.8326473 0.89460379 -0.51291233 2
-9.8245955 1.5086386 -0.51718426 3
-21.709921 3.3375959 -0.37890741 5
-8.8213081 1.3577285 2.3795841 14
-10.236427 1.5773652 2.3804307 14
-12.140839 1.8729914 2.3782048 12
-14.80682 2.2869236 2.3642452 9
-19.145514 2.9604592 2.3740146 6
-22.080036 3.4181685 1.9514171 4
-21.975414 3.4058995 1.1634283 4
-23.034067 3.5740938 0.40620473 28
-1.927348 0.30146989 -0.5124619 2
-2.2037263 0.34509414 -0.50614017 2
-2.602948 0.40807605 -0.504237 3
-3.1943159 0.50135875 -0.50606591 3
-4.1853657 0.65765584 -0.51550794 2
-5.8340902 0.91776705 -0.5133481 2
-9.8187304 1.5463512 -0.51718426 3
-23.563602 3.715245 -0.41156289 3
-8.8207998 1.3923427 2.3808775 15
-10.230296 1.6166584 2.3804307 15
-12.133557 1.919595 2.3782048 12
-14.793052 2.342988 2.3634639 8
-19.109497 3.0300646 2.3709681 5
-23.837723 3.7840528 2.1082973 3
-23.870575 3.7935388 1.2646983 3
-24.861729 3.955503 0.43875346 27
-1.921515 0.30743274 -0.51116782 2
-2.2025082 0.35278448 -0.50614017 2
-2.6015077 0.41715953 -0.504237 3
-3.1925466 0.51250589 -0.50606591 3
-4.1879444 0.67304897 -0.51611727 4
-5.8308511 0.93812621 -0.5133481 2
-9.818202 1.5814096 -0.51744509 3
-25.381561 4.0927315 -0.44361365 3
-8.8206549 1.4238943 2.3821707 15
-10.229399 1.653136 2.3815544 15
-12.126782 1.9619373 2.3782048 12
-14.784783 2.3946111 2.3634639 8
-19.142895 3.1038997 2.3764522 7
-26.184347 4.2503171 2.3174713 4
-25.917299 4.2116122 1.3740804 3
-29.091324 4.7326159 0.51379877 40
-1.9156638 0.31335855 -0.50987375 2
-2.2012634 0.36047053 -0.50614017 2
-2.6000357 0.42623797 -0.504237 3
-3.190738 0.52364689 -0.50606591 3
-4.1904664 0.68846804 -0.51672655 4
-5.8275409 0.95847392 -0.5133481 2
-9.8126221 1.6156719 -0.51744509 2
nan nan nan 0
-8.825161 1.4562483 2.3847573 15
-10.223565 1.6888331 2.3815544 15
-12.124702 2.0050566 2.379158 12
-14.781206 2.4470117 2.3642452 8
-19.12215 3.1690791 2.3752334 7
-26.532974 4.4020195 2.3497188 3
-29.118902 4.836267 1.5449573 6
-30.194088 5.0202565 0.5336073 87
-1.9145583 0.32004353 -0.50987375 2
-2.1951864 0.36734805 -0.50501537 2
-2.598532 0.43531117 -0.504237 4
-3.1937613 0.53559822 -0.5068481 4
-4.1831441 0.70226967 -0.51611727 3
-5.8241601 0.97881001 -0.5133481 2
-9.8019991 1.649086 -0.51718426 2
-26.648916 4.4881902 -0.46633428 103
-8.8247862 1.4878479 2.3860502 15
-10.217607 1.7245098 2.3815544 14
-12.11763 2.0473673 2.379158 12
-14.782313 2.5002398 2.3658075 8
-19.120758 3.2374656 2.3764522 6
-26.561644 4.5021014 2.3536408 3
-30.243929 5.1316657 1.605667 30
-30.181309 5.1264596 0.53369457 58
-1.9181902 0.32753757 -0.51116782 2
-2.1938908 0.37500843 -0.50501537 2
-2.5969968 0.44437909 -0.504237 4
-3.1918721 0.54674327 -0.5068481 4
-4.1953411 0.71938354 -0.51794529 2
-5.8207078 0.99913418 -0.5133481 2
-9.7961826 1.6832913 -0.51718426 2
-26.642941 4.5828795 -0.46650708 2
-8.8242979 1.5194625 2.3873436 15
-10.211526 1.7601655 2.3815544 15
-12.115247 2.090488 2.3801112 12
-14.778361 2.552665 2.3665891 8
-19.114229 3.3050351 2.3770614 7
-26.521229 4.5905437 2.3514619 3
-30.166798 5.2269764 1.6025269 7
-38.004936 6.591917 0.67261571 19
-1.9217931 0.33506081 -0.5124619 2
-2.1973679 0.38350192 -0.50614017 2
-2.6002645 0.45428628 -0.50519013 4
-3.1996734 0.55958319 -0.50841242 4
-4.2025809 0.73573512 -0.51916397 2
-5.8171844 1.0194461 -0.5133481 2
-9.7853289 1.7166133 -0.51692343 2
-31.491602 5.5301504 -0.55186057 2
-8.823698 1.5510921 2.3886368 7
-10.20532 1.7957996 2.3815544 15
-12.107876 2.1327653 2.3801112 12
-14.779089 2.6059511 2.3681517 9
-19.11235 3.3734615 2.3782802 7
-26.500135 4.6822252 2.3510261 3
nan nan nan 0
-43.618168 7.7224579 0.77253073 7
-1.9253669 0.34261322 -0.51375604 2
-2.1960158 0.39116985 -0.50614017 2
-2.5986629 0.46336013 -0.50519013 4
-3.2025621 0.57161641 -0.50919461 4
-4.1804457 0.74690902 -0.51672655 2
-5.8086867 1.0388687 -0.51291233 2
-9.7743626 1.7498801 -0.51666266 2
-31.334324 5.6153517 -0.54944164 2
-8.8134756 1.5810301 2.3873436 15
-10.194196 1.830551 2.3804307 5
-12.100357 2.1750169 2.3801112 10
-14.779624 2.6592729 2.3697143 8
-19.110228 3.4419146 2.3794987 8
-26.493433 4.7764668 2.3518977 3
nan nan nan 0
-43.630299 7.8817763 0.77322882 20
-1.9241592 0.34933192 -0.51375604 2
-2.1946371 0.39883298 -0.50614017 2
-2.5970297 0.47242832 -0.50519013 3
-3.2102644 0.58456135 -0.51075894 5
-4.1729307 0.76060706 -0.51611727 2
-5.8050251 1.0591385 -0.51291233 2
-9.7583704 1.7821941 -0.516141 2
-31.344038 5.7300882 -0.54996002 2
-8.8079033 1.6117853 2.3873436 14
-10.187743 1.8661244 2.3804307 11
-12.087864 2.2163563 2.379158 10
-14.77025 2.7108471 2.3697143 6
-19.112738 3.5112908 2.3813267 8
-26.481499 4.8698187 2.3523335 3
nan nan nan 0
-43.587772 8.0313091 0.77296704 5
-1.9229281 0.35604635 -0.51375604 2
-2.1980214 0.40737903 -0.50726491 2
-2.5953648 0.48149079 -0.50519013 3
-3.2130599 0.59666538 -0.51154113 4
-4.1604919 0.77335471 -0.51489854 2
-5.8012929 1.0793954 -0.51291233 2
-9.7471809 1.8153321 -0.51588017 2
nan nan nan 0
-8.8022232 1.6425209 2.3873436 14
-10.181168 1.9016747 2.3804307 11
-12.080053 2.2585373 2.379158 13
-14.760698 2.7623885 2.3697143 8
-19.115002 3.5807271 2.3831551 9
-26.469234 4.9631443 2.3527691 3
nan nan nan 0
-43.559471 8.1834106 0.77296704 3
-1.9169276 0.36186057 -0.5124619 2
-2.1965861 0.41504908 -0.50726491 2
-2.5936682 0.49054736 -0.50519013 2
-3.1964006 0.60512161 -0.50919461 4
-4.1431394 0.785101 -0.51307052 2
-5.7974896 1.0996391 -0.51291233 3
-9.7309742 1.8474824 -0.51535863 2
nan nan nan 0
-8.7916918 1.672334 2.3860502 14
-10.179252 1.938113 2.3815544 11
-12.067274 2.299772 2.3782048 13
-14.741264 2.8120453 2.3681517 9
-19.11701 3.6502209 2.3849831 8
-26.451748 5.0555091 2.3527691 3
nan nan nan 0
-43.60429 8.3495131 0.77427596 3
-1.9156528 0.3685497 -0.5124619 2
-2.1951239 0.42271405 -0.50726491 2
-2.5919402 0.49959797 -0.50519013 2
-3.1797221 0.61346889 -0.5068481 4
-4.1744823 0.80614531 -0.51733595 2
-5.7936158 1.1198694 -0.51291233 3
-9.7244663 1.8814387 -0.51535863 2
nan nan nan 0
-8.7858009 1.7030125 2.3860502 14
-10.172424 1.9736334 2.3815544 12
-12.054355 2.3409448 2.3772516 13
-14.72651 2.8625424 2.3673704 8
-19.094408 3.715034 2.3837643 9
-26.433941 5.1478119 2.3527691 3
nan nan nan 0
-43.825127 8.5504942 0.77872634 7
-1.9143547 0.37523434 -0.5124619 2
-2.198416 0.43131191 -0.50838971 2
-2.5853643 0.50769675 -0.504237 2
-3.1630239 0.62170708 -0.50450158 4
-4.1570349 0.81783813 -0.51550794 2
-5.794559 1.1410486 -0.5133481 2
-9.7129402 1.9144063 -0.5150978 2
nan nan nan 0
-8.7798033 1.7336702 2.3860502 14
-10.165473 2.0091298 2.3815544 12
-12.046109 2.3830082 2.3772516 14
-14.711583 2.9129708 2.3665891 8
-19.071587 3.7797337 2.3825455 9
-26.41581 5.2400522 2.3527691 3
nan nan nan 0
-43.809719 8.7063427 0.77898812 10
-1.9082971 0.38096887 -0.51116782 2
-2.196897 0.43898314 -0.50838971 2
-2.5835762 0.51671827 -0.504237 2
-3.15115 0.63080561 -0.5029372 3
-4.1444225 0.83039385 -0.5142892 2
-5.7905407 1.1612684 -0.5133481 2
-9.7061987 1.9482991 -0.5150978 2
-31.263765 6.281168 -0.55039197 2
-8.7689629 1.7633548 2.3847573 14
-10.158398 2.0446017 2.3815544 12
-12.032907 2.4240732 2.3762984 14
-14.696484 2.96333 2.3658075 8
-19.053413 3.8453014 2.3819363 8
-26.397358 5.3322287 2.3527691 3
-43.267265 8.7477865 2.3114176 2
-43.852558 8.8740873 0.78029704 12
-1.9116883 0.3885898 -0.5124619 3
-2.1953514 0.4466491 -0.50838971 2
-2.5817571 0.52573347 -0.504237 2
-3.1489286 0.6418013 -0.5029372 3
nan nan nan 0
-5.7815714 1.1804775 -0.51291233 2
-9.6993389 1.9821681 -0.5150978 2
-31.217161 6.3852515 -0.54996002 2
-8.7627544 1.7939535 2.3847573 14
-10.151199 2.0800486 2.3815544 12
-12.024372 2.4660611 2.3762984 14
-14.681212 3.0136189 2.3650262 8
-19.035013 3.9107876 2.3813267 8
-26.378584 5.4243402 2.3527691 3
nan nan nan 0
-43.816418 9.0260992 0.78020978 6
-1.9103203 0.39526048 -0.5124619 2
-2.1937788 0.45430958 -0.50838971 2
-2.579906 0.53474224 -0.504237 2
-3.1466691 0.65278924 -0.5029372 3
-4.1773968 0.86737829 -0.51916397 2
-5.7774153 1.2006516 -0.51291233 2
-9.6874723 2.0149965 -0.51483697 2
-31.263203 6.5084457 -0.55116946 2
-8.7564392 1.8245302 2.3847573 13
-10.143876 2.1154704 2.3815544 12
-12.01569 2.508019 2.3762984 14
-14.675439 3.0658576 2.3658075 8
-19.01639 3.9761932 2.3807175 8
-26.359489 5.5163856 2.3527691 3
nan nan nan 0
-45.947296 9.6323681 0.81877959 8
-1.9089289 0.40192634 -0.5124619 2
-2.1921797 0.46196455 -0.50838971 2
-2.5780237 0.54374456 -0.504237 2
-3.1443715 0.66376919 -0.5029372 4
-4.1257887 0.87169617 -0.51307052 2
-5.7731891 1.2208112 -0.51291233 2
-9.6803799 2.0487998 -0.51483697 2
-31.142479 6.5968151 -0.54944164 2
-8.7500162 1.8550848 2.3847573 14
-10.13643 2.150866 2.3815544 12
-12.006863 2.5499463 2.3762984 14
-14.669477 3.1180923 2.3665891 8
-19.007246 4.0435805 2.3813267 8
-26.349815 5.6104383 2.3536408 3
nan nan nan 0
-45.898727 9.7895679 0.8185178 5
-1.9075143 0.40858728 -0.5124619 2
-2.1857898 0.46859258 -0.50726491 2
-2.5761101 0.55274022 -0.504237 3
-3.1420352 0.67474103 -0.5029372 3
-4.1518321 0.89234942 -0.51672655 2
-5.7688923 1.2409561 -0.51291233 4
-9.6731691 2.0825782 -0.51483697 2
-31.231665 6.7297029 -0.55142862 2
-8.7434883 1.8856168 2.3847573 13
-10.12886 2.1862357 2.3815544 12
-12.002686 2.5928788 2.3772516 13
-14.663331 3.1703234 2.3673704 8
-18.993015 4.1099038 2.3813267 8
-26.33494 5.7034369 2.3540766 3
-43.111629 9.3446922 2.3098474 2
-45.878929 9.9529037 0.81877959 5
-1.9060764 0.41524324 -0.5124619 2
-2.1841409 0.47621953 -0.50726491 2
-2.5741649 0.56172913 -0.504237 3
-3.1396608 0.68570465 -0.5029372 4
-4.1099057 0.89835858 -0.51185179 2
-5.769392 1.2621503 -0.5133481 4
-9.6658411 2.1163311 -0.51483697 2
-31.198215 6.8365402 -0.55125582 2
-8.7415695 1.9171604 2.3860502 14
-10.121168 2.2215788 2.3815544 12
-11.993562 2.6347601 2.3772516 14
-14.657 3.2225492 2.3681517 9
-18.983402 4.1772437 2.3819363 9
-26.324598 5.7974701 2.354948 4
nan nan nan 0
nan nan nan 0
-1.8999001 0.42084965 -0.51116782 2
-2.1824651 0.48384073 -0.50726491 2
-2.5721884 0.57071126 -0.504237 3
-3.1324272 0.69558942 -0.50215507 3
-4.1358123 0.91915941 -0.51550794 2
-5.7649508 1.2822815 -0.5133481 4
-9.6632681 2.1511431 -0.5150978 3
-31.462061 7.0095425 -0.55635291 5
-8.7348251 1.9476624 2.3860502 13
-10.118107 2.2579558 2.3826783 12
-11.989082 2.6776793 2.3782048 13
-14.655301 3.2758465 2.3697143 7
-18.973547 4.244566 2.3825455 7
-26.304201 5.8893251 2.354948 3
nan nan nan 0
-42.37904 9.5039034 0.75743437 5
-1.8984195 0.427479 -0.51116782 2
-2.180763 0.49145597 -0.50726491 2
-2.5701807 0.5796864 -0.504237 3
-3.1299803 0.70651942 -0.50215507 3
-4.1374197 0.9346841 -0.51611727 2
-5.7652984 1.3034956 -0.51378393 3
-9.6556997 2.1848609 -0.5150978 2
-31.486158 7.1303644 -0.55721676 7
-8.7326832 1.9792082 2.3873436 14
-10.110163 2.2932611 2.3826783 12
-11.979662 2.7195127 2.3782048 14
-14.643777 3.3269832 2.3697143 8
-18.953777 4.30967 2.3819363 9
-26.288342 5.982213 2.3553839 4
nan nan nan 0
-37.442131 8.5341339 0.66964877 4
-1.8969157 0.4341031 -0.51116782 2
-2.1837833 0.50015301 -0.50838971 2
-2.5681415 0.58865446 -0.504237 3
-3.1274948 0.71744072 -0.50215507 3
-4.1292944 0.94801015 -0.51550794 2
-5.7607131 1.3236123 -0.51378393 3
-9.648015 2.2185524 -0.5150978 2
-31.451332 7.2379861 -0.55704397 6
-8.7257204 2.0096788 2.3873436 15
-10.102097 2.3285379 2.3826783 11
-11.970097 2.761313 2.3782048 12
-14.627261 3.3769684 2.368933 9
-18.933781 4.3746872 2.3813267 8
-26.262445 6.0728178 2.354948 3
nan nan nan 0
-29.829025 6.9085083 0.53378183 25
-1.8953888 0.44072196 -0.51116782 2
-2.182024 0.50777274 -0.50838971 2
-2.566071 0.59761536 -0.504237 3
-3.1201618 0.7272324 -0.50137287 3
-4.096962 0.9556542 -0.51185179 2
-5.7560577 1.3437129 -0.51378393 3
-9.6402121 2.2522168 -0.5150978 2
-29.853523 6.980094 -0.52914 23
-8.7233562 2.0412257 2.3886368 14
-10.093906 2.3637867 2.3826783 11
-11.960384 2.8030796 2.3782048 8
-14.610577 3.4268787 2.3681517 8
-18.913565 4.4396181 2.3807175 8
-26.265337 6.1701503 2.3571272 3
-29.852314 7.0182867 1.6051438 20
-29.824192 7.017169 0.53413087 80
-1.8985392 0.44844565 -0.5124619 2
-2.1849792 0.51650709 -0.50951445 2
-2.5639694 0.60656899 -0.504237 3
-3.1176043 0.7381193 -0.50137287 3
-4.1274047 0.97795898 -0.51611727 2
-5.7561789 1.3649464 -0.5142197 3
-9.6322908 2.2858539 -0.5150978 2
-29.804657 7.0784831 -0.52870798 28
-8.7208757 2.0727801 2.38993 15
-10.085594 2.3990066 2.3826783 11
-11.950527 2.8448122 2.3782048 14
-14.59372 3.4767137 2.3673704 9
-18.888298 4.5033097 2.3794987 8
-26.224255 6.2571712 2.3553839 3
-29.817919 7.1201286 1.6046203 22
-29.789791 7.1189079 0.53395635 62
-1.8969623 0.45507005 -0.5124619 2
-2.1831629 0.52413088 -0.50951445 2
-2.5570638 0.61436856 -0.50328374 3
-3.1150086 0.74899727 -0.50137287 3
-4.0998411 0.9865551 -0.51307052 2
-5.7465367 1.3838648 -0.51378393 2
-9.6194 2.3182931 -0.51483697 2
-29.760326 7.1777897 -0.52836245 23
-8.7135868 2.103209 2.38993 15
-10.077159 2.4341974 2.3826783 7
-11.935753 2.8853567 2.3772516 13
-14.576695 3.5264726 2.3665891 9
-18.86764 4.5680466 2.3788896 8
nan nan nan 0
-29.788029 7.2229919 1.6043587 11
-29.764761 7.2228503 0.53395635 54
-1.8953621 0.46168891 -0.5124619 2
-2.1813202 0.53174835 -0.50951445 2
-2.5549037 0.6232906 -0.50328374 2
-3.117173 0.76103747 -0.50215507 3
nan nan nan 0
-5.7465096 1.4050986 -0.5142197 2
-9.611249 2.3518567 -0.51483697 2
nan nan nan 0
-8.7108841 2.134762 2.3912234 13
-10.068601 2.4693582 2.3826783 12
-11.920842 2.9258327 2.3762984 14
-14.559502 3.5761554 2.3658075 9
-18.866037 4.6374335 2.3807175 9
nan nan nan 0
nan nan nan 0
-24.729937 6.0925627 0.44390193 30
-1.8937391 0.46830213 -0.5124619 2
-2.1794508 0.53935939 -0.50951445 3
-2.557477 0.63338506 -0.504237 2
-3.1144974 0.77191383 -0.50215507 3
nan nan nan 0
-5.74157 1.425149 -0.5142197 2
-9.6029806 2.3853922 -0.51483697 2
-23.732325 5.8995361 -0.42192975 3
-8.7033796 2.1651559 2.3912234 10
-10.059919 2.5044892 2.3826783 12
-11.910556 2.9674265 2.3762984 14
-14.551721 3.6281505 2.3665891 10
-18.849735 4.7032599 2.3807175 9
-23.547691 5.8798285 2.1200633 3
-23.197212 5.7966156 1.251091 3
-22.90436 5.7276835 0.41144043 31
-1.8920928 0.47490966 -0.5124619 2
-2.1775548 0.54696381 -0.50951445 3
-2.5552504 0.64230841 -0.504237 2
-3.111784 0.78278071 -0.50215507 3
nan nan nan 0
-5.7365599 1.4451822 -0.5142197 2
-9.5897541 2.4176776 -0.51457614 2
-21.922911 5.5310655 -0.39005172 4
-8.6957684 2.195523 2.3912234 15
-10.051116 2.5395896 2.3826783 12
-11.895368 3.0077808 2.3753452 14
-14.543756 3.6801348 2.3673704 8
-18.852448 4.7739024 2.3831551 10
-21.948153 5.5618873 1.9775637 4
-22.150768 5.6173468 1.1956148 3
-21.425692 5.4374499 0.3851746 35
-1.8951039 0.48270354 -0.51375604 3
-2.1756322 0.55456156 -0.50951445 3
-2.5577486 0.65243715 -0.50519013 2
-3.1090326 0.79363811 -0.50215507 3
nan nan nan 0
-5.7314806 1.4651977 -0.5142197 3
-9.5812559 2.4511373 -0.51457614 3
-20.683018 5.2951059 -0.36828139 6
-8.6880522 2.2258635 2.3912234 15
-10.04219 2.5746591 2.3826783 12
-11.884796 3.0492852 2.3753452 15
-14.540388 3.733336 2.368933 8
-18.854893 4.8446202 2.3855922 7
-20.621284 5.3023176 1.8594677 5
-20.767378 5.3437471 1.1218212 4
-20.230143 5.2092733 0.36396992 30
-1.8934073 0.48931572 -0.51375604 2
-2.1689668 0.56093276 -0.50838971 3
-2.5602074 0.66259122 -0.50614333 3
-3.1062434 0.80448574 -0.50215507 3
nan nan nan 0
-5.7263312 1.4851954 -0.5142197 2
-9.5678082 2.4833126 -0.51431537 2
-19.725702 5.123456 -0.3515217 3
-8.6802292 2.2561769 2.3912234 15
-10.033141 2.6096973 2.3826783 12
-11.869329 3.0895157 2.374392 12
-14.532047 3.7853138 2.3697143 8
nan nan nan 0
-19.431463 5.0687594 1.7535735 4
-19.458656 5.0794802 1.0519527 2
-18.499561 4.8325677 0.33307916 27
-1.8963594 0.49714667 -0.51505011 2
-2.1717076 0.56973666 -0.50951445 3
-2.5626261 0.67277026 -0.50709653 2
-3.1034162 0.81532371 -0.50215507 3
-4.1022792 1.0785085 -0.51611727 2
-5.7211118 1.505175 -0.5142197 2
-9.559082 2.5166953 -0.51431537 2
-18.474955 4.8674965 -0.32949221 13
-8.6723013 2.2864628 2.3912234 15
-10.023971 2.6447034 2.3826783 11
-11.858473 3.1309288 2.374392 12
-14.528295 3.8385398 2.3712769 9
nan nan nan 0
-18.315771 4.8460741 1.6542159 5
-18.431999 4.8802691 0.99726164 8
-17.868855 4.7345018 0.32199687 46
-1.8898575 0.50285202 -0.51375604 2
-2.1696048 0.57769257 -0.50951445 3
-2.5648863 0.68342209 -0.50804973 3
-3.1004071 0.82669276 -0.50215507 3
-4.1030936 1.0948162 -0.51672655 2
-5.7059321 1.5235637 -0.5133481 2
-9.5449696 2.5504253 -0.51405454 3
-17.471754 4.6717377 -0.31186861 9
-8.6591959 2.3169844 2.38993 15
-10.01421 2.6814256 2.3826783 12
-11.846918 3.1743712 2.374392 11
-14.518898 3.8930418 2.3720582 6
-17.733368 4.7582755 2.2497079 8
-17.287666 4.6419182 1.5627025 5
-17.425457 4.6821766 0.94361722 6
-16.938934 4.5546193 0.30550435 48
-1.8834276 0.50818759 -0.5124619 2
-2.1675751 0.58526236 -0.50951445 2
-2.5624852 0.69237101 -0.50804973 3
-3.0975027 0.83751029 -0.50215507 3
-4.051342 1.0961705 -0.51063311 2
-5.7005792 1.5434719 -0.5133481 2
-9.5360088 2.5837278 -0.51405454 3
-16.586832 4.4972167 -0.29631838 10
-8.6510553 2.3471966 2.38993 15
-10.004789 2.7163653 2.3826783 11
-11.840502 3.2169924 2.3753452 11
-14.529049 3.950177 2.3759649 9
-16.821171 4.5765152 2.1357601 11
-16.487972 4.4889536 1.4916705 8
-16.546665 4.5080347 0.89677662 7
-15.919705 4.3402157 0.28735387 58
-1.8769838 0.51348454 -0.51116782 2
-2.165519 0.592825 -0.50951445 2
-2.5553184 0.70001465 -0.50709653 2
-3.0945601 0.84831744 -0.50215507 3
-4.0953503 1.1234344 -0.51672655 2
-5.6903529 1.5620425 -0.51291233 2
-9.5221167 2.6156764 -0.51379371 3
-15.631043 4.2967014 -0.27947229 33
-8.6381531 2.3760996 2.3886368 15
-9.9952469 2.751272 2.3826783 11
-11.833932 3.2596068 2.3762984 10
-14.524693 4.0034933 2.3775272 10
-16.03964 4.4240756 2.0382648 14
-15.641553 4.3172126 1.4162809 18
-15.654873 4.3238297 0.8491509 16
-15.523792 4.2905416 0.28046015 43
-1.865872 0.51745194 -0.50857961 2
-2.1587424 0.59907782 -0.50838971 2
-2.5481303 0.70761687 -0.50614333 2
-3.0915802 0.85911429 -0.50215507 3
-4.0770597 1.1337342 -0.51489854 2
-5.6896648 1.5832316 -0.5133481 2
-9.512928 2.6488988 -0.51379371 4
-14.744291 4.1083579 -0.26383567 10
-8.6298065 2.4062378 2.3886368 15
-9.9855814 2.7861452 2.3826783 11
-11.831936 3.3035347 2.3782048 10
-14.496361 4.0501833 2.3751833 8
-15.297623 4.2769284 1.9456439 15
-14.767763 4.1315689 1.3382764 11
-14.769385 4.1348023 0.80178684 6
-14.627776 4.0979109 0.2644912 77
-1.8640544 0.5239619 -0.50857961 2
-2.1472583 0.6039713 -0.50614017 2
-2.5456448 0.71650714 -0.50614333 2
-3.0885625 0.8699007 -0.50215507 3
-4.0778542 1.1493052 -0.51550794 2
-5.6841035 1.6030825 -0.5133481 2
-9.4988184 2.6807327 -0.51353288 4
-14.470062 4.0864315 -0.25917059 13
-8.6167059 2.4350331 2.3873436 14
-9.9757957 2.8209841 2.3826783 11
-11.834501 3.3488257 2.3810644 9
-13.940435 3.9473727 2.2861142 8
-14.537738 4.1192451 1.8505858 13
-14.245292 4.0390673 1.2920839 8
-14.293721 4.0554948 0.77666551 8
-14.05552 3.9905615 0.25436881 41
-1.8622141 0.53046548 -0.50857961 2
-2.1404514 0.61012739 -0.50501537 2
-2.5384078 0.72404236 -0.50519013 2
-3.0855072 0.88067645 -0.50215507 3
-4.0738173 1.1635325 -0.51550794 2
-5.6832623 1.6242827 -0.51378393 2
-9.4894028 2.7138734 -0.51353288 4
-13.86934 3.9691103 -0.24863099 6
-8.6081543 2.4650962 2.3873436 14
-9.9658871 2.8557892 2.3826783 12
-11.808584 3.3860562 2.3782048 4
-13.418639 3.8502665 2.2025137 8
-13.90317 3.9919212 1.7713709 15
-13.627906 3.9154615 1.2371758 2
-13.842792 3.9798162 0.75285268 3
-13.133478 3.7783694 0.2378763 40
-1.8649913 0.53830189 -0.50987375 2
-2.105545 0.60813236 -0.49714214 2
-2.5311499 0.73153591 -0.504237 2
-3.0824142 0.89144158 -0.50215507 4
-4.0744987 1.1791254 -0.51611727 2
-5.6775579 1.6441112 -0.51378393 2
-9.4750767 2.7455916 -0.51327211 4
-13.115973 3.8030951 -0.2353269 17
-8.5994968 2.4951291 2.3873436 14
-9.9558582 2.8905592 2.3826783 12
-11.862682 3.4464269 2.3915496 18
-12.873986 3.7426741 2.1150072 8
-13.312561 3.8726954 1.6976398 15
-13.068955 3.8043029 1.187497 15
-13.109728 3.8186541 0.7136007 14
-12.793841 3.7290637 0.23194247 41
-1.8631009 0.54480869 -0.50987375 2
-2.1267884 0.62231916 -0.50276589 2
-2.5332911 0.74174601 -0.50519013 2
-3.0792837 0.90219575 -0.50215507 4
-4.0703578 1.1933408 -0.51611727 2
-5.657445 1.6597129 -0.51247656 3
-9.4606438 2.7772427 -0.51301134 4
-12.594178 3.6995027 -0.22616954 7
-8.5907345 2.5251317 2.3873436 15
-9.9457083 2.9252942 2.3826783 12
-11.81291 3.4767277 2.383924 13
-12.330253 3.6313286 2.0275002 9
-12.718203 3.7479939 1.6232996 14
-12.501396 3.6864738 1.1369467 8
-12.598262 3.7174282 0.68638605 11
-12.306081 3.633548 0.22330353 40
-1.8611878 0.55130881 -0.50987375 3
-2.133945 0.63250828 -0.50501537 2
-2.5306866 0.7505843 -0.50519013 2
-3.0761156 0.91293895 -0.50215507 4
-4.0661674 1.2075418 -0.51611727 2
-5.6420684 1.6766132 -0.51160502 2
-9.4413195 2.8074033 -0.51248968 4
-12.154732 3.6165528 -0.21848081 6
-8.5864973 2.5564821 2.3886368 14
-9.9401054 2.9613843 2.3838024 11
-11.805406 3.5193431 2.384877 11
-11.844252 3.5331752 1.9493692 11
-12.234258 3.65184 1.5629742 16
-12.020733 3.5903897 1.0942403 8
-12.145076 3.6298378 0.66231149 11
-11.852675 3.5447006 0.21527542 43
-1.863878 0.55919003 -0.51116782 2
-2.1410565 0.64275485 -0.50726491 2
-2.5280511 0.75941348 -0.50519013 3
-3.0729103 0.92367101 -0.50215507 3
-4.0619278 1.2217281 -0.51611727 2
-5.6314116 1.6948621 -0.5111692 2
-9.4218998 2.8374627 -0.51196808 5
-11.69209 3.5233703 -0.21036014 7
-8.5775213 2.5864389 2.3886368 15
-9.9297075 2.9960637 2.3838024 11
-11.637987 3.5137146 2.3534219 12
-11.430006 3.4530983 1.8829579 14
-11.779647 3.5609713 1.506305 11
-11.588576 3.5054183 1.0558919 11
-11.69744 3.5405772 0.63849866 11
-11.409616 3.4556324 0.20742182 44
-1.8619148 0.56569278 -0.51116782 2
-2.1527834 0.65447593 -0.51063919 2
-2.530081 0.76966196 -0.50614333 3
-3.0649428 0.93295372 -0.50137287 3
-4.0528908 1.2344533 -0.51550794 2
-5.6302257 1.7159612 -0.51160502 3
-9.4071617 2.8688774 -0.51170725 5
-11.239815 3.4299212 -0.20241223 7
-8.5730591 2.6177747 2.38993 14
-9.9238491 3.0321302 2.3849263 7
-11.264228 3.443819 2.2800264 11
-11.058969 3.3831761 1.8235784 12
-11.363788 3.4785955 1.4545106 13
-11.204789 3.4320631 1.021901 10
-11.279224 3.457016 0.61625588 12
-11.000783 3.3737762 0.20017909 44
-1.8599287 0.57218868 -0.51116782 2
-2.1411734 0.65911984 -0.50838971 2
-2.527379 0.77848893 -0.50614333 3
-3.0616674 0.94364673 -0.50137287 3
-4.0485568 1.248593 -0.51550794 2
-5.6242018 1.7356038 -0.51160502 2
-9.3923187 2.9002237 -0.51144642 5
-10.836103 3.3481169 -0.19532824 8
-8.5638695 2.6476843 2.38993 15
-9.922513 3.0696325 2.3871741 11
-10.886412 3.3699064 2.2056777 11
-10.712153 3.3180132 1.7681053 13
-10.981834 3.4036458 1.4069816 12
-10.826418 3.357548 0.98834616 11
-10.89512 3.3809392 0.59584481 12
-10.64041 3.3039346 0.19380896 46
-1.8579202 0.57867754 -0.51116782 3
-2.1388597 0.66658998 -0.50838971 2
-2.524646 0.78730637 -0.50614333 2
-3.0583549 0.95432812 -0.50137287 3
