# .PCD v0.7 - Point Cloud Data file format
VERSION 0.7
FIELDS x y z intensity
SIZE 4 4 4 4
TYPE F F F F
COUNT 1 1 1 1
WIDTH 1335
HEIGHT 1
VIEWPOINT 0 0 0 1 0 0 0
POINTS 1335
DATA ascii
0.56027162 -2.9736869 -0.47321463 8
0.56614292 -3.0077345 -0.37109256 11
0.5584659 -2.9698 -0.26103184 8
0.55561131 -2.9574618 -0.15518135 11
0.55852687 -2.9758432 -0.051661339 13
0.55358022 -2.9523292 0.79405689 11
0.55514359 -2.9635224 0.68670589 13
0.55508971 -2.9660952 0.57858527 16
0.55704182 -2.9794021 0.47347406 10
0.55009723 -2.9451034 0.36317062 9
0.55705982 -2.9852662 0.26233879 12
0.55513668 -2.9778421 0.15674618 14
0.55436963 -2.9766114 0.052182693 18
0.35550204 -1.918117 -0.5124619 4
0.40876961 -2.2076733 -0.50951445 4
0.48638156 -2.6294014 -0.51186246 4
0.55527264 -3.0047617 -0.47790766 8
0.56104642 -3.038974 -0.37474868 11
0.55351657 -3.0011213 -0.26364651 8
0.54890364 -2.9790254 -0.15622459 11
0.55266106 -3.002358 -0.052093286 14
0.54851252 -2.9827449 0.8018164 10
0.55007768 -2.9941936 0.69344938 12
0.55004901 -2.9969809 0.58430439 15
0.55198234 -3.010474 0.47816193 11
0.54517853 -2.9762945 0.36682671 9
0.55111885 -3.0116904 0.26451766 12
0.54922837 -3.0043206 0.15805459 14
0.54936498 -3.0080357 0.052706264 15
0.34966797 -1.9240983 -0.51375604 4
0.40106088 -2.2090867 -0.50951445 4
0.47720027 -2.6310833 -0.51186246 4
0.55006343 -3.0358379 -0.48260072 8
0.55573863 -3.070214 -0.37840474 10
0.54835528 -3.032444 -0.26626119 8
0.54205209 -3.0005777 -0.15726782 11
0.54750466 -3.0337873 -0.052611627 13
0.54323918 -3.0131607 0.80957586 10
0.54394054 -3.0200696 0.69906884 13
0.54479939 -3.0278671 0.59002358 15
0.54583895 -3.0366857 0.48206848 10
0.54004872 -3.0074871 0.3704828 9
0.54587966 -3.0430124 0.26713234 11
0.54402268 -3.0357087 0.15962467 13
0.54414755 -3.0394609 0.053229839 14
0.34294948 -1.9253069 -0.51375604 4
0.39334729 -2.2104733 -0.50951445 4
0.46887225 -2.6375656 -0.51281571 4
0.544644 -3.0669138 -0.48729378 9
0.55021954 -3.1014538 -0.38206083 10
0.54211283 -3.0588624 -0.2684401 8
0.53592736 -3.0270352 -0.15857187 13
0.54126489 -3.0602944 -0.053043582 12
0.53776014 -3.0435758 0.81733537 10
0.53847641 -3.0507374 0.70581228 12
0.53934073 -3.0587528 0.5957427 15
0.54037601 -3.067755 0.48675635 10
0.53384763 -3.033792 0.37352949 8
0.54042846 -3.0743337 0.26974702 11
0.53860438 -3.0670962 0.16119474 13
0.53871745 -3.0708861 0.05375341 15
0.33622682 -1.9264925 -0.51375604 4
0.38562891 -2.2118328 -0.50951445 4
0.46050474 -2.6440217 -0.51376885 4
0.53732121 -3.0882576 -0.49042246 10
0.5427894 -3.1229134 -0.38449821 13
0.53654468 -3.0901814 -0.27105477 8
0.52791774 -3.0436466 -0.1593543 7
0.53570014 -3.0917201 -0.053561922 13
0.53207529 -3.0739889 0.82509488 11
0.53280473 -3.081403 0.71255571 12
0.53283757 -3.0848 0.60050863 15
0.53470266 -3.0988221 0.4914442 10
0.5283125 -3.064981 0.37718561 8
0.53476518 -3.1056538 0.2723617 11
0.53297365 -3.0984831 0.16276482 13
0.53392106 -3.1072371 0.054364245 15
0.32950005 -1.9276544 -0.51375604 4
0.37790585 -2.2131655 -0.50951445 4
0.45209792 -2.6504517 -0.51472205 4
0.53151506 -3.119324 -0.49511549 17
0.53521609 -3.1443584 -0.38693559 22
0.52992946 -3.1165879 -0.27323368 7
0.51979858 -3.0602391 -0.16013673 5
0.5299226 -3.1231441 -0.054080263 12
0.52618462 -3.1043992 0.83285445 10
0.52692544 -3.1120663 0.71929914 12
0.52697772 -3.1156785 0.60622776 15
0.52881902 -3.1298873 0.49613208 10
0.52174008 -3.0912738 0.38023233 8
0.52806169 -3.1320598 0.27454057 12
0.52713025 -3.1298673 0.16433489 13
0.52804804 -3.1386616 0.054887816 15
0.32276925 -1.9287927 -0.51375604 4
0.37017813 -2.2144711 -0.50951445 3
0.4436518 -2.6568549 -0.51567525 4
0.51899832 -3.111418 -0.49355114 17
0.52097428 -3.1266267 -0.38449821 14
0.52313632 -3.1429856 -0.27541256 7
0.51730281 -3.1112907 -0.16274482 12
0.5239321 -3.1545651 -0.054598603 11
0.52008808 -3.1348054 0.84061396 10
0.5208385 -3.1427257 0.72604263 12
0.52090871 -3.1465538 0.61194688 15
0.52353066 -3.1658208 0.50160128 11
0.51579928 -3.1224544 0.38388839 8
0.52199119 -3.1633713 0.27715525 11
0.52107418 -3.1612484 0.16590497 13
0.52196205 -3.1700826 0.055411387 14
0.31603456 -1.9299077 -0.51375604 5
0.36244595 -2.2157497 -0.50951445 3
0.43516642 -2.6632314 -0.51662844 4
0.5073387 -3.1083367 -0.49276894 11
0.50925851 -3.1235278 -0.38388884 13
0.51696599 -3.1742895 -0.27802724 6
0.51285321 -3.1525044 -0.16483128 12
0.51692683 -3.1810474 -0.055030555 12
0.51378554 -3.1652064 0.84837347 10
0.5153237 -3.178189 0.7339099 12
0.51463044 -3.1774237 0.61766601 15
0.51720917 -3.1968803 0.50628912 10
0.50964719 -3.1536307 0.38754448 8
0.51570857 -3.1946781 0.27976996 11
0.51480544 -3.192625 0.16747504 13
0.51566309 -3.201499 0.055934958 14
0.30929598 -1.9309992 -0.51375604 5
0.35470933 -2.2170014 -0.50951445 3
0.42586735 -2.6647341 -0.51662844 3
0.49492851 -3.1003354 -0.49120462 9
0.49678937 -3.115485 -0.38267016 12
0.51058346 -3.2055888 -0.28064194 6
0.50812227 -3.1937249 -0.16691776 12
0.50974292 -3.2075191 -0.055462509 15
0.50727713 -3.1956012 0.85613298 10
0.50880456 -3.2088401 0.74065334 12
0.50814301 -3.2082882 0.62338513 15
0.5114488 -3.2328112 0.51175827 10
0.50328368 -3.1848023 0.3912006 9
0.50999022 -3.2308989 0.28282037 11
0.50832391 -3.2239959 0.16904514 13
0.5091511 -3.2329099 0.056458529 14
0.30255365 -1.9320669 -0.51375604 6
0.34696838 -2.2182262 -0.50951445 3
0.41732073 -2.6710536 -0.51758158 3
0.48258036 -3.0922852 -0.48964027 7
0.48514691 -3.1122966 -0.38206083 10
0.50475496 -3.2418032 -0.28369236 6
0.50234234 -3.2300162 -0.16874342 12
0.50238049 -3.2339787 -0.055894457 9
0.50130332 -3.2307618 0.8651858 10
0.50282389 -3.2442987 0.74852067 12
0.50219715 -3.2439957 0.63005745 15
0.50468916 -3.2638607 0.51644611 10
0.49746615 -3.2208714 0.395466 8
0.50326586 -3.2621958 0.28543505 11
0.50239003 -3.2602949 0.17087689 12
0.50318652 -3.2692547 0.057069365 13
0.29580766 -1.9331113 -0.51375604 6
0.33922321 -2.2194238 -0.50951445 3
0.40799448 -2.6724942 -0.51758158 3
0.46880561 -3.0744228 -0.48651159 6
0.47353274 -3.1090648 -0.38145146 9
0.49867976 -3.2780156 -0.28674284 6
0.49556506 -3.2613695 -0.17030828 11
0.49408934 -3.2554832 -0.056240018 6
0.49509007 -3.265919 0.87423849 9
0.49587241 -3.2749367 0.7552641 11
0.49527428 -3.274848 0.63577664 15
0.49845654 -3.2997847 0.52191532 10
0.49066252 -3.2520313 0.39912206 8
0.49707139 -3.2984104 0.2884855 11
0.49546564 -3.2916539 0.17244697 12
0.49697435 -3.3055968 0.057680197 14
0.28905806 -1.9341321 -0.51375604 5
0.33147392 -2.2205944 -0.50951445 3
0.39866325 -2.673902 -0.51758158 3
0.46316272 -3.1102326 -0.49198681 12
0.46194711 -3.1057904 -0.38084212 8
0.49235788 -3.3142245 -0.28979328 6
0.48857492 -3.2927139 -0.17187312 11
0.48492128 -3.2720239 -0.056499191 4
0.48793027 -3.296294 0.881998 9
0.48942572 -3.3103857 0.76313144 11
0.48885903 -3.3105464 0.6424489 14
0.49125862 -3.3308187 0.52660316 10
0.48437068 -3.2880926 0.40338752 8
0.48990509 -3.3296928 0.29110017 11
0.48905435 -3.327944 0.17427872 12
0.49051458 -3.3419354 0.058291033 13
0.28160769 -1.9303502 -0.5124619 4
0.32372057 -2.2217379 -0.50951445 3
0.38932717 -2.6752772 -0.51758158 4
0.45514449 -3.1313789 -0.49511549 11
0.45039007 -3.1024725 -0.38023278 8
0.48578921 -3.3504291 -0.29284373 7
0.48208761 -3.3289909 -0.1736988 11
0.48208433 -3.3330696 -0.057535872 14
0.48125488 -3.3314388 0.89105082 9
0.48204178 -3.3410065 0.76987487 11
0.48220056 -3.3462393 0.64912122 14
0.48455366 -3.3667309 0.53207237 9
0.47783294 -3.3241494 0.40765294 8
0.48323426 -3.3658955 0.29415065 11
0.48168701 -3.3592863 0.1758488 12
0.48380706 -3.3782682 0.058901869 13
0.2748678 -1.9313214 -0.5124619 4
0.3159633 -2.2228544 -0.50951445 3
0.37998632 -2.67662 -0.51758158 4
0.44490445 -3.1378376 -0.49589765 12
0.43886185 -3.099112 -0.37962344 7
0.47967124 -3.3915594 -0.29632998 11
0.47535291 -3.3652623 -0.17552446 13
0.47533536 -3.3693841 -0.058140606 11
0.47434008 -3.3665769 0.90010357 10
0.4751288 -3.3764403 0.77774227 11
0.47529879 -3.3819256 0.65579355 14
0.47760385 -3.4026361 0.53754151 9
0.47104934 -3.3601995 0.41191834 8
0.4756259 -3.3971591 0.2967653 11
0.4747982 -3.3955626 0.17768057 12
0.47408611 -3.3947904 0.059163652 16
0.26812455 -1.9322691 -0.5124619 4
0.30820215 -2.2239437 -0.50951445 4
0.369968 -2.6730683 -0.51662844 4
0.43327248 -3.13448 -0.49511549 11
0.42736259 -3.0957091 -0.37901407 8
0.46850988 -3.3981476 -0.29676577 13
0.46632749 -3.3866873 -0.1765677 19
0.46970069 -3.4155962 -0.058918115 11
0.46784285 -3.4064915 0.91044956 9
0.46797431 -3.4118662 0.78560954 11
0.46815372 -3.4176044 0.66246587 14
0.47107866 -3.4434268 0.54379201 10
0.46401981 -3.3962426 0.4161838 8
0.46847862 -3.4333451 0.29981574 11
0.46766189 -3.4318311 0.17951232 12
0.46492979 -3.4162385 0.059512701 13
0.26137805 -1.9331932 -0.5124619 4
0.30043727 -2.2250059 -0.50951445 4
0.36063498 -2.6743436 -0.51662844 4
0.42232844 -3.1359735 -0.49511549 12
0.41655394 -3.0971818 -0.37901407 7
0.45664528 -3.3997624 -0.29676577 14
0.45251137 -3.3734477 -0.17578526 11
0.4624216 -3.4519 -0.059522845 11
0.46043226 -3.4416142 0.91950232 10
0.46122345 -3.4521122 0.79460078 11
0.46076527 -3.4532743 0.66913819 14
0.46362206 -3.4793169 0.54926115 9
0.45674428 -3.4322772 0.4204492 8
0.46108443 -3.4695227 0.30286619 11
0.46027818 -3.4680908 0.18134408 11
0.45365894 -3.4227967 0.059599966 6
0.25462836 -1.9340938 -0.5124619 4
0.2926687 -2.2260411 -0.50951445 4
0.35129759 -2.675586 -0.51662844 4
0.41073725 -3.1325319 -0.4943333 11
0.40509591 -3.0936964 -0.37840474 8
0.44412926 -3.3963964 -0.29632998 14
0.44008657 -3.3700557 -0.17552446 12
0.45489484 -3.4881945 -0.060127579 10
0.45278212 -3.4767263 0.92855507 9
0.45356891 -3.4875205 0.80246812 11
0.45313343 -3.4889333 0.67581046 14
0.45655584 -3.5200946 0.55551165 9
0.44922283 -3.468302 0.42471462 8
0.45408225 -3.5106294 0.30635244 10
0.45328659 -3.5092924 0.18343751 11
0.4461852 -3.4590664 0.060210798 5
0.24787556 -1.9349709 -0.5124619 4
0.28489661 -2.2270491 -0.50951445 3
0.34195593 -2.676796 -0.51662844 4
0.39980015 -3.1339464 -0.4943333 11
0.39429444 -3.0950916 -0.37840474 7
0.43164235 -3.3929851 -0.29589421 11
0.42706162 -3.3616645 -0.17500284 9
0.44649097 -3.5195179 -0.060645919 10
0.44549945 -3.516618 0.93890113 9
0.4462842 -3.5277507 0.81145936 11
0.44587344 -3.5294509 0.68343604 14
0.44859248 -3.5559652 0.5609808 9
0.4420757 -3.5092394 0.42958942 7
0.44617695 -3.5467873 0.30940288 10
0.44539055 -3.5455329 0.18526928 12
0.44281954 -3.5300481 0.06143247 63
0.24111973 -1.9358243 -0.5124619 3
0.27712101 -2.2280302 -0.50951445 3
0.33261004 -2.6779733 -0.51662844 4
0.38825038 -3.1304221 -0.49355114 10
0.38287818 -3.0915239 -0.37779537 8
0.4191846 -3.3895276 -0.29545841 12
0.41471267 -3.3581793 -0.17474203 10
0.4384858 -3.5557866 -0.061250649 9
0.43794373 -3.5565007 0.94924712 9
0.4387241 -3.5679719 0.8204506 11
0.43833604 -3.5699596 0.69106156 14
0.44098514 -3.5967243 0.5672313 9
0.43404508 -3.545243 0.43385485 7
0.43862915 -3.5878766 0.31288913 10
0.43724698 -3.5817602 0.18710104 11
0.43654388 -3.5811973 0.062305089 61
0.23436098 -1.9366541 -0.5124619 3
0.26992652 -2.2338207 -0.51063919 3
0.32326016 -2.6791182 -0.51662844 4
0.37673005 -3.1268551 -0.49276894 9
0.37149167 -3.0879145 -0.37718606 8
0.40675634 -3.3860252 -0.29502264 11
0.40239325 -3.3546488 -0.17448123 10
0.43082741 -3.5970058 -0.061941773 9
0.43011492 -3.5963733 0.95959312 9
0.4303109 -3.6033456 0.82831794 11
0.43052119 -3.6104581 0.69868702 14
0.43309867 -3.6374731 0.5734818 9
0.42635435 -3.5861607 0.43872961 7
0.43079987 -3.6289556 0.31637534 10
0.42826816 -3.6130159 0.18867111 11
0.43050411 -3.6373098 0.063264973 62
0.22759937 -1.9374604 -0.5124619 4
0.26212737 -2.2347493 -0.51063919 3
0.31447726 -2.6851051 -0.51758158 4
0.36466581 -3.1183412 -0.49120462 12
0.36013499 -3.0842631 -0.37657669 7
0.39435759 -3.3824766 -0.29458687 9
0.39010349 -3.3510733 -0.17422041 11
0.42404085 -3.6481459 -0.062805675 13
0.4220131 -3.636234 0.96993917 8
0.42221683 -3.643543 0.83730918 11
0.42242888 -3.6509449 0.70631254 14
0.4243663 -3.6733048 0.57895094 9
0.41838312 -3.6270671 0.44360438 7
0.42268908 -3.6700234 0.31986156 10
0.41907635 -3.6442513 0.1902412 13
0.42179674 -3.6735566 0.063875802 60
0.22028823 -1.9334446 -0.51116782 3
0.25432503 -2.2356508 -0.51063919 3
0.30510256 -2.6861863 -0.51758158 4
0.3526656 -3.109781 -0.48964027 17
0.34936669 -3.0855012 -0.37657669 8
0.38198861 -3.3788834 -0.2941511 10
0.37840369 -3.3524144 -0.17422041 8
0.41298345 -3.6645072 -0.063064843 18
0.41363814 -3.6760817 0.98028523 8
0.41439128 -3.6885688 0.84742433 11
0.4140591 -3.6914189 0.713938 15
0.41593862 -3.7140267 0.58520144 9
0.41068298 -3.6728938 0.44908851 7
0.41429681 -3.7110784 0.32334781 10
0.40911856 -3.6705039 0.19154958 6
0.41339445 -3.7147551 0.064573899 59
0.21353792 -1.9342017 -0.51116782 3
0.24651963 -2.2365251 -0.51063919 3
0.29572415 -2.6872349 -0.51758158 4
0.34072956 -3.1011753 -0.48807591 9
0.33805302 -3.081769 -0.37596735 7
0.3696495 -3.3752446 -0.2937153 12
0.36615658 -3.3487513 -0.17395961 9
0.39801937 -3.6460476 -0.062719285 9
0.40551335 -3.7207158 0.99192441 9
0.40572947 -3.7287407 0.85641557 10
0.40594199 -3.7367582 0.72251672 14
0.40723175 -3.754734 0.59145188 9
0.4021337 -3.7137761 0.45396328 7
0.40615833 -3.7570708 0.32726982 10
0.39844677 -3.6917667 0.1925963 4
0.40470967 -3.7559392 0.065271996 58
0.20678499 -1.9349352 -0.51116782 3
0.23922803 -2.2422159 -0.51176393 3
0.28634217 -2.6882508 -0.51758158 4
0.32885796 -3.0925245 -0.48651159 9
0.32676968 -3.0779953 -0.37535799 7
0.35786545 -3.3765144 -0.2937153 10
0.35393959 -3.3450434 -0.1736988 8
0.38528988 -3.6474149 -0.062719285 9
0.39708197 -3.7653375 1.0035638 9
0.39730227 -3.7737415 0.86653072 10
0.39700022 -3.7772038 0.73014224 14
0.39824572 -3.7954257 0.59770238 8
0.39382097 -3.7595787 0.45944741 7
0.3977038 -3.8030517 0.33119184 9
0.39385304 -3.772594 0.19678319 11
0.3962605 -3.8020797 0.066057354 57
0.20002955 -1.9356453 -0.51116782 3
0.23089986 -2.2381914 -0.51063919 3
0.27695668 -2.689234 -0.51758158 4
0.31755599 -3.0887411 -0.48572943 10
0.31602347 -3.0791173 -0.37535799 7
0.34556937 -3.3727882 -0.29327953 10
0.34175301 -3.3412912 -0.17343798 7
0.37154004 -3.6387906 -0.062546499 9
0.38834396 -3.8099456 1.015203 9
0.38856581 -3.8187284 0.87664586 11
0.38827705 -3.822515 0.73872095 14
0.38898054 -3.8360999 0.60395288 9
0.3846935 -3.8004303 0.46432218 7
0.38793156 -3.8391066 0.33424225 9
0.3866953 -3.8335609 0.19992335 10
0.38749415 -3.8482068 0.066842712 57
0.19327168 -1.9363317 -0.51116782 3
0.2230857 -2.2389839 -0.51063919 3
0.26756781 -2.6901844 -0.51758158 4
0.30628443 -3.0849161 -0.48494723 11
0.30478397 -3.075263 -0.37474868 7
0.33330366 -3.3690169 -0.29284373 9
0.32959694 -3.3374949 -0.17317718 8
0.3583456 -3.6350904 -0.062460113 8
0.37929931 -3.8545377 1.0268424 10
0.37952006 -3.8636999 0.88676101 11
0.37972125 -3.8726959 0.74825281 14
0.37991723 -3.8816698 0.61098468 8
0.37576818 -3.8462029 0.46980631 7
0.37791249 -3.8751397 0.33729273 10
0.37911662 -3.8945231 0.2030635 10
0.37841052 -3.8943179 0.067628071 60
0.1868495 -1.936962 -0.51116782 3
0.21605064 -2.2396736 -0.51063919 3
0.25911504 -2.6910117 -0.51758158 4
0.29611892 -3.0809474 -0.48416507 9
0.29464734 -3.071265 -0.37413931 7
0.32224315 -3.3650894 -0.29240796 11
0.31863514 -3.3335433 -0.17291637 8
0.34644902 -3.6312215 -0.06237372 7
0.37130904 -3.898983 1.0384815 9
0.37199044 -3.9133751 0.89800006 11
0.37172559 -3.9178472 0.75683153 14
0.37284255 -3.9369266 0.61957908 9
0.36788642 -3.8918307 0.47529042 7
0.3694796 -3.9159791 0.34077895 9
0.37156138 -3.9454062 0.2056803 9
0.37132081 -3.9502378 0.068587951 74
0.18042529 -1.9375709 -0.51116782 3
0.2082314 -2.2404141 -0.51063919 3
0.24972008 -2.6918998 -0.51758158 4
0.28490725 -3.077045 -0.48338288 9
0.28346813 -3.0673332 -0.37352994 7
0.31049484 -3.3661935 -0.29240796 10
0.30699697 -3.334635 -0.17291637 8
0.33331415 -3.6274304 -0.062287334 8
0.36210781 -3.9483523 1.0514141 9
0.36232492 -3.9583156 0.90811521 10
0.36251307 -3.9680002 0.76636338 14
0.36358237 -3.987386 0.62739217 8
0.35834727 -3.9375722 0.48077455 7
0.35761032 -3.9370873 0.34252205 5
0.36229515 -3.996407 0.2082971 9
0.35482675 -3.9216363 0.068064377 23
0.1733225 -1.9382192 -0.51116782 3
0.20001848 -2.2411623 -0.51063919 3
0.2398521 -2.6927969 -0.51758158 4
0.27319017 -3.0731497 -0.48260072 9
0.27178532 -3.0634084 -0.3729206 6
0.29771569 -3.3623471 -0.29197219 10
0.29433334 -3.3307643 -0.17265557 9
0.32001671 -3.6286278 -0.062287334 9
0.35144517 -3.9929545 1.0630534 9
0.35207769 -4.0081501 0.9193542 10
0.35182491 -4.013308 0.7749421 14
0.3532697 -4.03789 0.63520533 8
0.34779796 -3.9833546 0.48625866 7
0.34923121 -4.0078421 0.34862298 10
0.35153839 -4.0424776 0.21065222 9
0.34045082 -3.9229105 0.068064377 17
0.16655579 -1.9388125 -0.51116782 3
0.19177799 -2.2369924 -0.50951445 3
0.23045102 -2.6936178 -0.51758158 4
0.26204106 -3.0691638 -0.48181856 8
0.26066905 -3.0593934 -0.37231123 7
0.28555512 -3.3584032 -0.29153642 8
0.28270501 -3.3317714 -0.17265557 8
0.3069267 -3.6247413 -0.062200941 9
0.3419784 -4.0470963 1.0772791 9
0.34217831 -4.0579033 0.93059325 10
0.34192941 -4.0634217 0.78447396 13
0.34330514 -4.0883107 0.64301836 8
0.33803537 -4.033998 0.49235213 7
0.34021989 -4.0686007 0.35385233 9
0.34157741 -4.0934386 0.21326901 8
0.32592556 -3.9141111 0.067889854 16
0.16018364 -1.9441953 -0.5124619 3
0.18396826 -2.2376482 -0.50951445 3
0.22144848 -2.6992979 -0.51853484 4
0.25092319 -3.0651381 -0.48103639 9
0.24958414 -3.0553386 -0.37170193 6
0.2734257 -3.3544147 -0.29110062 9
0.27066845 -3.3277609 -0.17239475 7
0.29386771 -3.6208079 -0.062114555 8
0.33174798 -4.0964065 1.0902116 9
0.33232817 -4.1124911 0.94295621 11
0.33168831 -4.1135149 0.79400587 14
0.33299291 -4.138711 0.65083152 8
0.32752636 -4.0796747 0.49783626 6
0.33078855 -4.129344 0.35908166 9
0.33086717 -4.1394014 0.21562412 8
0.3118633 -3.9102416 0.067802593 15
0.15339616 -1.9447427 -0.5124619 3
0.17615628 -2.2382767 -0.50951445 3
0.21202484 -2.7000544 -0.51853484 4
0.23983656 -3.0610716 -0.4802542 9
0.23891751 -3.0561912 -0.37170193 6
0.26132762 -3.350383 -0.29066485 9
0.25866333 -3.3237076 -0.17213394 7
0.28083992 -3.6168272 -0.062028162 8
0.32155058 -4.1505094 1.1044375 9
0.32172561 -4.1622014 0.95419526 10
0.32147896 -4.168479 0.80449092 14
0.32233289 -4.1890879 0.65864456 9
0.31670249 -4.1253266 0.5033204 8
0.32055685 -4.1851039 0.36387521 8
0.32136196 -4.2052531 0.21902597 10
0.29783207 -3.9063218 0.067715332 15
0.14694631 -1.9452406 -0.5124619 3
0.1683668 -2.2339909 -0.50838971 3
0.20343797 -2.705637 -0.51948798 4
0.22968437 -3.0618503 -0.4802542 9
0.22841111 -3.0520177 -0.37109256 6
0.25021589 -3.3512313 -0.29066485 9
0.2472692 -3.3195674 -0.17187312 7
0.26847407 -3.6127534 -0.061941773 8
0.31171325 -4.2045355 1.1186632 8
0.31187451 -4.2166924 0.96655822 10
0.31126589 -4.2184725 0.81402284 14
0.3124277 -4.2443123 0.66723901 9
0.30629179 -4.1708984 0.50880444 8
0.31068006 -4.2407889 0.36866879 8
0.31032664 -4.2461348 0.2211194 15
0.28451309 -3.9023018 0.067628071 15
0.14015526 -1.9457418 -0.5124619 3
0.16056769 -2.234565 -0.50838971 3
0.19399229 -2.7063305 -0.51948798 4
0.21864286 -3.0577073 -0.47947201 9
0.21775621 -3.0527964 -0.37109256 6
0.23816286 -3.3471158 -0.29022908 9
0.23532671 -3.3154299 -0.17161232 7
0.25550848 -3.6086814 -0.061855379 9
0.30077782 -4.2585945 1.132889 8
0.30092007 -4.2712154 0.97892123 10
0.30032378 -4.2733912 0.82450783 13
0.3014093 -4.2995677 0.6758334 9
0.29346168 -4.1966958 0.51185119 4
0.2993409 -4.2915363 0.37302655 8
0.29377016 -4.2222867 0.21981101 16
0.27054366 -3.8982837 0.06754081 16
0.1333625 -1.9462191 -0.5124619 3
0.15276663 -2.2351117 -0.50838971 3
0.1848781 -2.7118886 -0.52044117 4
0.20796816 -3.0584519 -0.47947201 8
0.20676281 -3.0485866 -0.37048322 6
0.22647782 -3.3479266 -0.29022908 8
0.22375225 -3.316231 -0.17161232 6
0.24257459 -3.6045632 -0.06176899 8
0.28946877 -4.3126273 1.1471148 9
0.2899141 -4.3305736 0.9924081 10
0.28932908 -4.3331828 0.83594608 13
0.29000896 -4.3547983 0.68442786 8
0.28407311 -4.2769237 0.52160072 13
0.28798053 -4.3472261 0.37782016 8
0.27771309 -4.2033567 0.21876429 10
0.25660574 -3.8942163 0.067453548 15
0.12656812 -1.9466728 -0.5124619 3
0.14496371 -2.2356315 -0.50838971 3
0.17572744 -2.7174151 -0.52139437 3
0.1969731 -3.0542314 -0.47868985 8
0.19612001 -3.0492899 -0.37048322 7
0.21447113 -3.3437259 -0.28979328 9
0.21185634 -3.3120091 -0.17135151 6
0.22967258 -3.600399 -0.061682601 7
0.27778608 -4.3666329 1.1613405 9
0.27818891 -4.3850441 1.004771 10
0.27792054 -4.3929482 0.84738433 13
0.27853757 -4.4149299 0.69380361 8
0.27381629 -4.3521833 0.53074098 13
0.27654678 -4.4078593 0.38304949 8
0.26303896 -4.2043009 0.21876429 8
0.24301083 -3.895088 0.067453548 15
0.1197722 -1.9471028 -0.5124619 3
0.13715902 -2.2361238 -0.50838971 3
0.16624084 -2.7180121 -0.52139437 4
0.18601 -3.0499709 -0.47790766 8
0.1854748 -3.0499558 -0.37048322 6
0.20249657 -3.3394823 -0.28935751 9
0.19999263 -3.3077443 -0.17109071 5
0.21680258 -3.5961885 -0.061596207 6
0.26601967 -4.4254293 1.1768595 8
0.26637843 -4.4443483 1.0182579 10
0.26639104 -4.4575858 0.85977584 13
0.26635617 -4.4701033 0.702398 8
0.26215455 -4.4125605 0.53805315 13
0.26498777 -4.4734368 0.38871461 10
0.24777287 -4.1952248 0.21824093 8
0.22911908 -3.8909218 0.067366287 15
0.11297481 -1.9475089 -0.5124619 3
0.12963393 -2.2414525 -0.50951445 3
0.15703472 -2.7234759 -0.52234757 3
0.17536248 -3.0506015 -0.47790766 9
0.1745434 -3.04563 -0.36987385 6
0.19083837 -3.340169 -0.28935751 9
0.18816128 -3.303437 -0.17082989 5
0.20424822 -3.5969234 -0.061596207 10
0.25384617 -4.4841971 1.1923786 9
0.25415727 -4.5036225 1.0317447 10
0.25413793 -4.5172949 0.87121403 13
0.25406942 -4.5301757 0.71177369 9
0.25035161 -4.4778638 0.54597467 12
0.25158837 -4.5141211 0.39220086 17
0.2328503 -4.1910782 0.21797925 7
0.21553583 -3.8916979 0.067366287 17
0.10591318 -1.943069 -0.51116782 3
0.12180901 -2.2418914 -0.50951445 3
0.1477925 -2.7289085 -0.52330071 3
0.16444662 -3.0462637 -0.4771255 9
0.16391109 -3.0462208 -0.36987385 6
0.17891107 -3.3358407 -0.28892171 9
0.17662899 -3.3040738 -0.17082989 6
0.19142538 -3.5926223 -0.061509822 8
0.24152166 -4.5477552 1.2091908 8
0.24152555 -4.5628657 1.0452316 10
0.24172978 -4.5818739 0.88360554 14
0.23981059 -4.5606256 0.7164616 4
0.23809589 -4.5431376 0.55389619 12
0.23453052 -4.4900999 0.39002195 14
0.2179597 -4.1868796 0.21771757 7
0.20169096 -3.8874345 0.067279026 16
0.09912996 -1.9434268 -0.51116782 3
0.1139826 -2.2423029 -0.50951445 3
0.13826594 -2.7294078 -0.52330071 3
0.15381218 -3.0468192 -0.4771255 8
0.15302746 -3.0418181 -0.36926451 6
0.16701634 -3.3314703 -0.28848594 9
0.16434713 -3.2897091 -0.17004748 5
0.17888363 -3.5932686 -0.061509822 11
0.22899587 -4.616106 1.2272964 8
0.22872379 -4.6269403 1.0598423 10
0.22887383 -4.6464205 0.89599699 13
0.22873175 -4.6600876 0.73208779 11
0.22514507 -4.6034222 0.56120831 11
0.2183708 -4.4809413 0.38915038 11
0.20334345 -4.1876144 0.21771757 7
0.18787843 -3.8831213 0.067191757 15
0.092345536 -1.943761 -0.51116782 3
0.10638516 -2.2475538 -0.51063919 3
0.12873769 -2.7298739 -0.52330071 3
0.14294408 -3.0424044 -0.4763433 8
0.14240859 -3.0423336 -0.36926451 6
0.15538633 -3.3320332 -0.28848594 9
0.15471673 -3.3301654 -0.17213394 13
0.16610856 -3.5888772 -0.061423428 10
0.2157733 -4.6795983 1.2441087 9
0.21547763 -4.69098 1.0744531 10
0.21557021 -4.7109327 0.90838844 12
0.21606186 -4.7397928 0.74458873 11
0.2120014 -4.6686296 0.56912982 12
0.20272808 -4.4816761 0.38915038 10
0.18849993 -4.1833105 0.21745588 8
0.17409851 -3.8787591 0.067104504 15
0.085347623 -1.9392465 -0.50987375 3
0.098539092 -2.2479115 -0.51063919 3
0.11920785 -2.7303066 -0.52330071 3
0.13232324 -3.0428848 -0.4763433 8
0.13157326 -3.037854 -0.36865517 6
0.14375441 -3.3325553 -0.28848594 10
0.14459158 -3.3656054 -0.17395961 12
0.15358002 -3.5894353 -0.061423428 8
0.20231587 -4.74788 1.2622142 8
0.20199373 -4.7598515 1.0901878 10
0.20181893 -4.7754073 0.92077988 12
0.20283826 -4.8194656 0.75708967 12
0.19819734 -4.7288418 0.576442 14
0.18687516 -4.4773803 0.38871461 8
0.1738963 -4.1839433 0.21745588 7
0.16055806 -3.8793433 0.067104504 15
0.078577876 -1.9395326 -0.50987375 3
0.090888172 -2.2531092 -0.51176393 3
0.10967658 -2.7307062 -0.52330071 3
0.12150346 -3.0383937 -0.47556117 8
0.12096836 -3.0382946 -0.36865517 6
0.13192345 -3.3280594 -0.28805017 10
0.13264564 -3.3611002 -0.1736988 13
0.14085336 -3.584954 -0.061337039 8
0.18838429 -4.816123 1.2803197 9
0.1880316 -4.8286843 1.1059225 10
0.18781024 -4.8447475 0.93412459 12
0.18887059 -4.8941679 0.76880938 11
0.18264194 -4.7543001 0.57948875 16
0.17124507 -4.4780054 0.38871461 9
0.15910062 -4.1795354 0.21719421 7
0.14682634 -3.8748844 0.067017235 14
0.071807161 -1.9397951 -0.50987375 3
0.083022803 -2.253413 -0.51176393 3
0.10014397 -2.7310724 -0.52330071 3
0.11089674 -3.0387993 -0.47556117 12
0.11018188 -3.0337391 -0.36804584 6
0.12030555 -3.3284998 -0.28805017 10
0.1207329 -3.3565524 -0.17343798 12
0.12833866 -3.5854239 -0.061337039 9
0.17397876 -4.8843269 1.2984253 8
0.1737639 -4.9023461 1.122781 10
0.1729739 -4.9042368 0.94556284 13
0.17438385 -4.9688301 0.78052902 10
0.16569884 -4.7449894 0.57827002 12
0.15543988 -4.473598 0.38827884 8
0.14433783 -4.1750751 0.21693254 6
0.1331277 -3.8703768 0.066929974 14
0.065035574 -1.940034 -0.50987375 3
0.075318806 -2.2585583 -0.51288873 3
0.090610147 -2.7314053 -0.52330071 3
0.1001258 -3.0342324 -0.47477898 8
0.099428676 -3.029145 -0.36743647 6
0.10852365 -3.3239212 -0.28761441 10
0.10869148 -3.3469722 -0.17291637 13
0.11566103 -3.5808532 -0.061250649 8
0.1592544 -4.9573145 1.317824 7
0.15898423 -4.975966 1.1396396 10
0.1578804 -4.9685864 0.95795429 10
0.1593781 -5.0434499 0.79224867 15
0.14897884 -4.7405782 0.57766062 11
0.13966759 -4.4691343 0.38784304 8
0.12960812 -4.1705623 0.21667084 6
0.11961676 -3.8708179 0.066929974 13
0.058263198 -1.9402492 -0.50987375 3
0.067434505 -2.2588074 -0.51288873 3
0.081220813 -2.7366111 -0.52425396 3
0.089388102 -3.0296271 -0.47399682 9
0.08885438 -3.0294738 -0.36743647 7
0.096920349 -3.3242798 -0.28761441 9
0.096718416 -3.3373492 -0.17239475 9
0.10316081 -3.5812354 -0.061250649 9
0.14416084 -5.0350862 1.338516 8
0.14369269 -5.049542 1.1564982 10
0.14178465 -5.0132637 0.96653289 5
0.14135595 -5.0291662 0.78990471 16
0.13229164 -4.7361083 0.57705128 10
0.12392834 -4.4646153 0.38740724 8
0.11491168 -4.165998 0.21640916 7
0.1059674 -3.8662148 0.066842712 15
0.051618218 -1.9452688 -0.51116782 3
0.059420995 -2.2541587 -0.51176393 3
0.071667768 -2.7368779 -0.52425396 3
0.078812189 -3.0299206 -0.47399682 8
0.078150831 -3.0248044 -0.36682713 6
0.085188061 -3.3196185 -0.28717861 8
0.084941082 -3.332675 -0.17213394 11
0.090532847 -3.576576 -0.06116426 9
0.12852623 -5.1128125 1.3592081 8
0.12801099 -5.1279411 1.1744807 10
0.12623037 -5.0922375 0.98178399 5
0.12380002 -5.0296288 0.78990471 8
0.1156375 -4.7315803 0.576442 9
0.10822234 -4.460042 0.3869715 8
0.10024869 -4.1613827 0.2161475 7
0.092471138 -3.8665612 0.066842712 17
0.044827648 -1.9454371 -0.51116782 3
0.05155215 -2.2543523 -0.51176393 3
0.0622252 -2.7420185 -0.5252071 3
0.06812413 -3.0252399 -0.47321463 7
0.067591809 -3.025059 -0.36682713 6
0.073599912 -3.3198955 -0.28717861 9
0.073197566 -3.3279593 -0.17187312 11
0.078047708 -3.5768702 -0.06116426 7
0.11235072 -5.1904893 1.3799002 7
0.11188826 -5.2111626 1.1935871 9
0.11064899 -5.1956983 1.0018009 12
0.10603401 -5.0201554 0.78834218 7
0.099016562 -4.7269931 0.57583261 9
0.09265323 -4.4603925 0.3869715 8
0.085722148 -4.1617074 0.2161475 7
0.078871682 -3.8618619 0.066755451 15
0.038036533 -1.9455817 -0.51116782 3
0.043588307 -2.2496479 -0.51063919 3
0.052747618 -2.7471263 -0.5261603 3
0.057563655 -3.0254593 -0.47321463 7
0.056938432 -3.0203145 -0.36621779 7
0.061917853 -3.3151522 -0.28674284 9
0.061487999 -3.3232021 -0.17161232 11
0.06547001 -3.5721223 -0.061077867 8
0.095722139 -5.272944 1.4018855 8
0.095186085 -5.294333 1.2126935 9
0.09408468 -5.2843876 1.0189582 11
0.088422693 -5.0155568 0.78756082 7
0.082429066 -4.7223487 0.57522327 11
0.07699693 -4.4557085 0.38653573 8
0.071109153 -4.1569886 0.21588582 7
0.065390788 -3.862114 0.066755451 14
0.031244956 -1.9457026 -0.51116782 3
0.035735305 -2.2497864 -0.51063919 3
0.043235127 -2.7522013 -0.5271135 3
0.047002483 -3.0256419 -0.47321463 8
0.04639522 -3.0204947 -0.36621779 6
0.050269809 -3.3103676 -0.28630704 8
0.04981254 -3.318404 -0.17135151 10
0.053000581 -3.572329 -0.061077867 8
0.078590065 -5.3601737 1.425164 7
0.077904612 -5.377449 1.2317998 8
0.076972798 -5.3779325 1.0370688 11
0.070844784 -5.0108972 0.78677952 7
0.065944485 -4.7226076 0.57522327 9
0.061443139 -4.4559503 0.38653573 7
0.056530152 -4.1522188 0.21562412 7
0.051841911 -3.8573198 0.06666819 13
0.024452996 -1.9457997 -0.51116782 3
0.027821496 -2.2450256 -0.50951445 3
0.03362789 -2.7523355 -0.5271135 3
0.036381267 -3.0208495 -0.47243246 8
0.035792552 -3.015676 -0.36560845 6
0.038714159 -3.310523 -0.28630704 8
0.038228847 -3.3185577 -0.17135151 11
0.040473793 -3.5674934 -0.060991481 6
0.060904127 -5.452177 1.4497358 7
0.060044032 -5.4605079 1.2509062 10
0.059049632 -5.4566965 1.0523199 11
0.053247906 -5.0012379 0.78521693 7
0.049407139 -4.7178459 0.57461393 8
0.045837302 -4.4511561 0.38609993 7
0.042035859 -4.152391 0.21562412 7
0.038327303 -3.8524783 0.066580921 15
0.017660737 -1.9458733 -0.51116782 3
0.019984726 -2.2451091 -0.50951445 3
0.024063077 -2.7573445 -0.52806669 3
0.025836311 -3.0209579 -0.47243246 8
0.025265658 -3.0157826 -0.36560845 6
0.027117187 -3.3056574 -0.28587127 8
0.026604598 -3.3136778 -0.17109071 10
0.027981402 -3.562614 -0.060905088 8
0.04257682 -5.5441208 1.4743075 7
0.041348577 -5.5094032 1.2621452 5
0.040685456 -5.5501242 1.0704304 13
0.035754666 -4.9964542 0.78443557 6
0.032903839 -4.7130275 0.57400459 10
0.030265683 -4.4463081 0.38566414 8
0.027507937 -4.1475191 0.21536244 7
0.024879411 -3.8525884 0.066580921 15
0.010868265 -1.945923 -0.51116782 3
0.01214771 -2.2451651 -0.50951445 3
0.014438002 -2.7574117 -0.52806669 3
0.015266046 -3.0160913 -0.47165027 7
0.014714205 -3.0108898 -0.36499909 6
0.015578126 -3.3057318 -0.28587127 8
0.015037541 -3.3137505 -0.17109071 11
0.015523578 -3.5576906 -0.060818698 7
0.023628596 -5.6408319 1.5001725 8
0.022684094 -5.6508021 1.2947384 11
0.021518977 -5.6042237 1.0809156 20
0.018295463 -4.9916101 0.78365427 6
0.016452102 -4.7131138 0.57400459 9
0.014744986 -4.4463868 0.38566414 7
0.013030225 -4.1475897 0.21536244 7
0.011416383 -3.8476527 0.066493668 13
0.0040756604 -1.9459491 -0.51116782 3
0.0043199006 -2.250066 -0.51063919 3
0.0048041842 -2.7525365 -0.5271135 3
0.0047378298 -3.0161262 -0.47165027 7
0.0042041494 -3.0109227 -0.36499909 6
0.0040388731 -3.3057659 -0.28587127 8
0.0034650736 -3.3087897 -0.17082989 11
0.0031048248 -3.5577233 -0.060818698 8
0.0040057166 -5.7374773 1.5260377 8
0.0030176518 -5.7629042 1.3205884 18
0.0019461731 -5.5748143 1.0751964 14
0.00087138137 -4.9916434 0.78365427 8
1.6530434e-07 -4.7081795 0.57339525 8
-0.00077501987 -4.4414306 0.3852284 8
-0.0014459006 -4.1426172 0.21510078 6
-0.0020144999 -3.8476691 0.066493668 13
-0.0023773615 -1.9459519 -0.51116782 3
-0.0027488994 -2.2500684 -0.51063919 3
-0.0038431743 -2.7525382 -0.5271135 3
-0.0047298614 -3.011188 -0.47086814 7
-0.0052462867 -3.0059583 -0.36438975 6
-0.0063369367 -3.3007815 -0.2854355 8
-0.0069193379 -3.303791 -0.17056909 11
-0.0080607459 -3.5527163 -0.060732309 7
-0.014266917 -5.8388882 1.5531958 8
-0.015367635 -5.8700695 1.3453141 13
-0.015553898 -5.5698853 1.0742432 13
-0.014795654 -4.9866829 0.78287292 7
-0.014790991 -4.7081561 0.57339525 8
-0.014728159 -4.4414062 0.3852284 7
-0.014460287 -4.142592 0.21510078 6
-0.014083956 -3.8426447 0.066406399 13
-0.0088303583 -1.9459333 -0.51116782 3
-0.010603087 -2.2500451 -0.51063919 3
-0.013427316 -2.7476001 -0.5261603 3
-0.01524084 -3.0111532 -0.47086814 7
-0.015739007 -3.0059216 -0.36438975 6
-0.017858775 -3.300739 -0.2854355 8
-0.01842379 -3.2987535 -0.17030828 11
-0.020461991 -3.5526664 -0.060732309 7
-0.035278887 -5.9450579 1.5816474 7
-0.036512658 -5.9771633 1.3700401 12
-0.034965489 -5.5648885 1.07329 11
-0.032202333 -4.9866009 0.78287292 7
-0.031192519 -4.7031131 0.57278585 9
-0.030197565 -4.4363465 0.3847926 6
-0.028885687 -4.1375237 0.2148391 6
-0.027497204 -3.842572 0.066406399 16
-0.0159625 -1.9458879 -0.51116782 3
-0.018890655 -2.2548625 -0.51176393 3
-0.023455707 -2.742624 -0.5252071 3
-0.026277166 -3.0110772 -0.47086814 7
-0.026888672 -3.0207312 -0.36621779 6
-0.029911263 -3.2956707 -0.28499973 8
-0.030514201 -3.2986639 -0.17030828 11
-0.033435911 -3.5475686 -0.060645919 7
-0.058088347 -6.0511403 1.6100991 7
-0.059515018 -6.0890412 1.39589 13
-0.055361588 -5.564723 1.07329 11
-0.050428938 -4.9815116 0.78209168 6
-0.048378974 -4.6980047 0.57217652 9
-0.046457388 -4.4362063 0.3847926 7
-0.044050273 -4.1373897 0.2148391 7
-0.041526653 -3.8374467 0.066319138 14
-0.02275482 -1.9458203 -0.51116782 3
-0.026761478 -2.2547829 -0.51176393 3
-0.033029109 -2.7425256 -0.5252071 3
-0.036727294 -3.0060289 -0.47008595 8
-0.037617318 -3.0355062 -0.36804584 5
-0.041415121 -3.2955461 -0.28499973 7
-0.041964889 -3.2935445 -0.17004748 11
-0.045819033 -3.5474303 -0.060645919 9
-0.080601275 -6.1571488 1.6385506 7
-0.08219108 -6.1959715 1.4206158 13
-0.074719802 -5.559588 1.0723369 11
-0.067750119 -4.976367 0.78131032 6
-0.064709365 -4.6928453 0.57156724 8
-0.061872806 -4.4310365 0.38435683 8
-0.058492191 -4.1372108 0.2148391 7
-0.05492159 -3.8372784 0.066319138 14
-0.029620195 -1.9505582 -0.5124619 3
-0.034706805 -2.2595472 -0.51288873 3
-0.042602107 -2.7423935 -0.5252071 3
-0.04722007 -3.0058823 -0.47008595 7
-0.048449438 -3.0502427 -0.36987385 10
-0.052838489 -3.2904012 -0.28456393 7
-0.053461246 -3.2933779 -0.17004748 11
-0.058201596 -3.5472486 -0.060645919 8
-0.1040952 -6.2775598 1.670882 6
-0.10577764 -6.3125601 1.4475896 13
-0.094125926 -5.5592933 1.0723369 11
-0.085120469 -4.9761 0.78131032 6
-0.081090055 -4.6925912 0.57156724 10
-0.077252701 -4.4258132 0.38392103 7
-0.072933398 -4.1369815 0.2148391 7
-0.068226859 -3.8320646 0.066231877 14
-0.036338545 -1.9456141 -0.51116782 3
-0.042593885 -2.2594125 -0.51288873 3
-0.052174591 -2.742228 -0.5252071 3
-0.057617463 -3.0007617 -0.46930379 7
-0.059577163 -3.0748641 -0.3729206 9
-0.064323813 -3.2901967 -0.28456393 7
-0.064858481 -3.2881789 -0.16978666 12
-0.070483983 -3.5420256 -0.060559526 7
-0.12872151 -6.4123669 1.707093 7
-0.13017909 -6.4290576 1.4745632 13
-0.11343069 -5.5540237 1.0713836 12
-0.10238808 -4.9708352 0.78052902 7
-0.097366698 -4.6873178 0.57095784 9
-0.092701204 -4.4255166 0.38392103 8
-0.087373711 -4.1367016 0.2148391 7
-0.081602842 -3.8318031 0.066231877 13
-0.043557957 -1.9647893 -0.51634425 3
-0.050480448 -2.2592499 -0.51288873 3
-0.061746437 -2.7420294 -0.5252071 3
-0.06809172 -3.0005424 -0.46930379 8
-0.070196614 -3.0696757 -0.37231123 12
-0.075808354 -3.289952 -0.28456393 7
-0.076335974 -3.2879326 -0.16978666 13
-0.082847528 -3.5417581 -0.060559526 7
-0.1540626 -6.5374193 1.7407175 7
-0.15539512 -6.5454597 1.501537 13
-0.13281716 -5.5535941 1.0713836 12
-0.11973891 -4.9704475 0.78052902 6
-0.11372789 -4.6869493 0.57095784 9
-0.10814857 -4.4251661 0.38392103 7
-0.10181296 -4.1363716 0.2148391 8
-0.094853953 -3.8264973 0.066144615 13
-0.049796596 -1.940485 -0.50987375 3
-0.058366392 -2.2590599 -0.51288873 3
-0.071445152 -2.7467036 -0.5261603 4
-0.078435883 -2.9953496 -0.4685216 7
-0.080780588 -3.0644512 -0.37170193 10
-0.087291963 -3.2896676 -0.28456393 6
-0.087679222 -3.2826548 -0.16952586 13
-0.095210068 -3.5414472 -0.060559526 8
-0.18053953 -6.6720281 1.7769285 7
-0.1824864 -6.7007251 1.5375019 13
-0.15206753 -5.5481901 1.0704304 11
-0.13695209 -4.9650621 0.77974766 6
-0.1300877 -4.6865234 0.57095784 8
-0.12345555 -4.4197831 0.38348529 8
-0.11611068 -4.1309996 0.21457741 7
-0.10821034 -3.8261428 0.066144615 13
-0.057132851 -1.9596096 -0.51505011 3
nan nan nan 0
-0.081032507 -2.7464375 -0.5261603 3
-0.088891119 -2.9950576 -0.4685216 7
-0.091477022 -3.0641508 -0.37170193 11
-0.098625012 -3.2843642 -0.28412816 6
-0.099137284 -3.2823286 -0.16952586 13
-0.10741965 -3.5360963 -0.06047314 7
-0.20795806 -6.80653 1.8131396 7
-0.20976572 -6.8266611 1.5667235 13
-0.17128178 -5.5427189 1.0694772 9
-0.15428255 -4.9645538 0.77974766 5
-0.14644593 -4.6860409 0.57095784 8
-0.13888273 -4.4193249 0.38348529 8
-0.13037212 -4.1255779 0.21431573 6
-0.12156542 -3.825742 0.066144615 12
nan nan nan 0
-0.074615523 -2.2732048 -0.51626295 3
-0.090456992 -2.7412324 -0.5252071 3
-0.099345289 -2.9947288 -0.4685216 7
-0.10217235 -3.0638127 -0.37170193 10
-0.11008898 -3.2839999 -0.28412816 7
-0.11042599 -3.2769723 -0.16926505 13
-0.11976228 -3.5356998 -0.06047314 6
-0.23664644 -6.9505749 1.8519372 7
-0.23892616 -6.9817014 1.6026884 12
-0.19045973 -5.5371823 1.0685241 9
-0.17144053 -4.9590492 0.77896637 6
-0.16263004 -4.6805415 0.5703485 9
-0.15430821 -4.4188137 0.38348529 9
-0.14477229 -4.1250978 0.21431573 6
-0.134919 -3.825294 0.066144615 11
nan nan nan 0
nan nan nan 0
-0.10002512 -2.7408998 -0.5252071 3
-0.10961727 -2.9894288 -0.46773943 7
-0.11286642 -3.0634375 -0.37170193 11
-0.12136735 -3.2786181 -0.28369236 8
-0.12186408 -3.2765667 -0.16926505 13
-0.13191676 -3.5302644 -0.060386747 8
-0.26634291 -7.0945001 1.8907348 6
-0.26917151 -7.1366196 1.6386534 12
-0.20960109 -5.531579 1.0675709 9
-0.18874978 -4.9584208 0.77896637 5
-0.17896718 -4.679945 0.5703485 7
-0.1697318 -4.4182482 0.38348529 8
-0.15897815 -4.1195779 0.21405403 6
-0.14807728 -3.8198042 0.066057354 13
nan nan nan 0
nan nan nan 0
-0.10919979 -2.7307253 -0.52330071 3
-0.12005165 -2.989028 -0.46773943 8
-0.12355913 -3.0630245 -0.37170193 10
-0.13281113 -3.2781744 -0.28369236 7
-0.13309769 -3.2711325 -0.16900423 14
-0.14423887 -3.5297823 -0.060386747 7
-0.297245 -7.2431264 1.9308256 7
-0.3005012 -7.2914095 1.6746184 12
-0.22890863 -5.5308137 1.0675709 11
-0.20585167 -4.9527979 0.77818513 6
-0.1950952 -4.6743331 0.5697391 8
-0.18515334 -4.4176288 0.38348529 11
-0.17314723 -4.1140094 0.21379238 7
-0.16140999 -3.8192639 0.066057354 14
nan nan nan 0
-0.097572714 -2.2528298 -0.51176393 3
-0.11937086 -2.7450385 -0.5261603 3
-0.13026917 -2.9836571 -0.46695724 8
-0.13425034 -3.0625746 -0.37170193 11
-0.14425327 -3.2776906 -0.28369236 7
-0.14429486 -3.2656593 -0.16874342 10
-0.15633769 -3.5242631 -0.060300358 8
-0.3302623 -7.4157476 1.9773827 7
-0.33334994 -7.4558005 1.7128311 13
-0.24799328 -5.5250773 1.0666177 10
-0.22313893 -4.9520493 0.77818513 6
-0.21141048 -4.673624 0.5697391 9
-0.20034665 -4.4119792 0.38304949 9
-0.18750675 -4.11338 0.21379238 7
-0.17451222 -3.8136837 0.065970093 13
nan nan nan 0
-0.10543596 -2.2524755 -0.51176393 3
-0.12918246 -2.7495079 -0.5271135 3
-0.14068329 -2.9831841 -0.46695724 7
-0.14470525 -3.0571301 -0.37109256 9
-0.15545732 -3.272192 -0.28325659 8
-0.15545544 -3.2601485 -0.16848262 11
-0.16863871 -3.5236959 -0.060300358 7
-0.36587864 -7.6171699 2.0316994 15
-0.36711538 -7.6151829 1.74992 28
-0.26727787 -5.524178 1.0666177 9
-0.2401839 -4.9463072 0.77740377 6
-0.22748162 -4.6679006 0.56912982 8
-0.21574612 -4.411253 0.38304949 10
-0.20161921 -4.1077132 0.21353069 7
-0.18757744 -3.808058 0.065882832 14
nan nan nan 0
-0.11452185 -2.2764225 -0.51738775 3
nan nan nan 0
-0.15084584 -2.9777429 -0.46617511 8
-0.15537573 -3.0566063 -0.37109256 9
-0.1666247 -3.2666547 -0.28282082 8
-0.16657929 -3.2545993 -0.1682218 9
-0.18093768 -3.5230858 -0.060300358 8
-0.39420524 -7.6496105 2.0407519 36
-0.3952046 -7.6430478 1.7566634 34
-0.28630492 -5.5183096 1.0656645 10
-0.25719154 -4.9405065 0.77662247 6
-0.24351539 -4.6621222 0.56852049 8
-0.23088227 -4.405499 0.38261372 9
-0.21595657 -4.1069846 0.21353069 7
-0.20086889 -3.80738 0.065882832 15
-0.10473467 -1.9528062 -0.51375604 3
-0.12403794 -2.3051975 -0.52413625 2
-0.14758061 -2.7338357 -0.52425396 3
-0.16123918 -2.9771981 -0.46617511 8
-0.16604434 -3.0560453 -0.37109256 10
-0.17802644 -3.2660532 -0.28282082 8
-0.17793895 -3.2539978 -0.1682218 10
-0.19323444 -3.5224328 -0.060300358 7
-0.42037416 -7.6385427 2.0381656 31
-0.42053857 -7.6172986 1.7510439 28
-0.30556566 -5.5172763 1.0656645 10
-0.27443555 -4.9395785 0.77662247 5
-0.25978774 -4.6612439 0.56852049 9
-0.24598086 -4.399693 0.38217792 9
-0.2300117 -4.1012201 0.21326901 6
-0.2138771 -3.8016644 0.065795571 14
-0.11237707 -1.966894 -0.51763833 3
nan nan nan 0
-0.1565592 -2.7235034 -0.52234757 3
-0.17163056 -2.9766171 -0.46617511 8
-0.17671092 -3.0554471 -0.37109256 10
-0.18942599 -3.2654119 -0.28282082 7
-0.1890064 -3.2483723 -0.167961 10
-0.20552886 -3.5217369 -0.060300358 7
-0.44590616 -7.6177421 2.0329924 28
-0.44683978 -7.6109209 1.74992 26
-0.32453418 -5.5112772 1.0647113 9
-0.29138502 -4.9336605 0.77584112 6
-0.27576345 -4.6553545 0.56791109 9
-0.26133716 -4.3988075 0.38217792 10
-0.24432623 -4.1003923 0.21326901 7
-0.22714607 -3.8008947 0.065795571 14
-0.11748821 -1.937565 -0.50987375 4
nan nan nan 0
-0.16576625 -2.7180412 -0.52139437 4
-0.18201984 -2.9760001 -0.46617511 8
-0.18737534 -3.0548117 -0.37109256 9
-0.20051746 -3.2597594 -0.28238505 9
-0.20034419 -3.2476931 -0.167961 10
-0.21782076 -3.520998 -0.060300358 7
-0.4742887 -7.6450629 2.0407519 18
-0.4746142 -7.6287651 1.7544156 13
-0.34377018 -5.5101104 1.0647113 8
-0.30860493 -4.9326129 0.77584112 6
-0.29201201 -4.6543636 0.56791109 9
-0.27637753 -4.3928976 0.38174218 8
-0.25863779 -4.0995145 0.21326901 7
-0.24041231 -3.8000786 0.065795571 13
-0.12641487 -1.9708811 -0.5189324 3
nan nan nan 0
-0.17904364 -2.7762234 -0.53283262 3
-0.19240692 -2.9753466 -0.46617511 7
-0.19771636 -3.0491867 -0.37048322 9
-0.21189493 -3.2590394 -0.28238505 8
-0.21135467 -3.241991 -0.16770019 9
-0.23011 -3.5202162 -0.060300358 7
-0.501288 -7.6481805 2.0420454 5
-0.51146454 -7.7826319 1.7903805 4
-0.36267918 -5.5039792 1.0637581 8
-0.32549554 -4.9265785 0.77505988 5
-0.30792895 -4.6483641 0.56730175 8
-0.2917099 -4.3919063 0.38174218 9
-0.27261436 -4.0936041 0.21300732 7
-0.25367558 -3.7992163 0.065795571 13
-0.1319899 -1.9511535 -0.51375604 3
-0.1519258 -2.240052 -0.50951445 3
-0.18740144 -2.7559934 -0.52901983 3
-0.20245574 -2.9697297 -0.46539292 8
-0.20835881 -3.0484779 -0.37048322 9
-0.22326981 -3.2582798 -0.28238505 8
-0.22267006 -3.2412333 -0.16770019 10
-0.24239644 -3.5193915 -0.060300358 7
-0.52898014 -7.6608396 2.0459251 8
-0.55847925 -8.067564 1.856691 17
-0.38154963 -5.4977827 1.0628049 9
-0.34234774 -4.9204855 0.77427852 6
-0.32415292 -4.6472611 0.56730175 7
-0.30669129 -4.3858919 0.38130638 9
-0.28690207 -4.0926275 0.21300732 8
-0.2669358 -3.7983077 0.065795571 13
-0.13914266 -1.9554982 -0.51505011 3
-0.15974411 -2.2395079 -0.50951445 3
-0.1959703 -2.7406354 -0.5261603 4
-0.21282081 -2.9690049 -0.46539292 7
-0.21899872 -3.0477321 -0.37048322 9
-0.23464195 -3.2574809 -0.28238505 9
-0.23362313 -3.2354565 -0.16743939 10
-0.25431901 -3.5135376 -0.060213968 8
-0.55641729 -7.6685801 2.0485115 7
-0.59405887 -8.1676083 1.8802929 31
-0.40073815 -5.4964175 1.0628049 8
-0.35916141 -4.9143348 0.77349722 5
-0.34037292 -4.646101 0.56730175 9
-0.32199904 -4.3847942 0.38130638 10
-0.30118626 -4.0916014 0.21300732 6
-0.28019273 -3.7973528 0.065795571 14
-0.1456082 -1.9501846 -0.51375604 3
-0.16719691 -2.2340789 -0.50838971 3
-0.20516855 -2.7350399 -0.5252071 3
-0.22281298 -2.9633193 -0.46461076 7
-0.22963595 -3.0469491 -0.37048322 9
-0.24601126 -3.2566419 -0.28238505 9
-0.24491554 -3.234621 -0.16743939 11
-0.2662037 -3.5076437 -0.060127579 7
-0.58281595 -7.6617756 2.0472183 6
-0.61886162 -8.1169052 1.8690538 5
-0.4195478 -5.4900913 1.0618517 8
-0.37593624 -4.9081273 0.77271587 7
-0.35620889 -4.6399369 0.56669247 11
-0.33692071 -4.3786774 0.38087058 10
-0.31546676 -4.0905252 0.21300732 7
-0.29344624 -3.7963514 0.065795571 16
-0.15241472 -1.9496644 -0.51375604 3
-0.17689699 -2.257766 -0.51401347 2
-0.21317735 -2.7147341 -0.52139437 3
-0.23315556 -2.9625235 -0.46461076 8
-0.24027039 -3.0461287 -0.37048322 10
-0.25698501 -3.2507977 -0.28194925 10
-0.25620499 -3.2337465 -0.16743939 12
-0.27805033 -3.5017095 -0.060041185 6
-0.60955697 -7.6596942 2.0472183 6
nan nan nan 0
-0.43870923 -5.4885936 1.0618517 7
-0.39188349 -4.8920164 0.77037197 6
-0.37240312 -4.6386652 0.56669247 9
-0.35220307 -4.3774748 0.38087058 9
-0.32934219 -4.0844226 0.21274567 8
-0.30669621 -3.7953041 0.065795571 17
-0.1596126 -1.953934 -0.51505011 4
-0.18954697 -2.3154023 -0.52751052 2
-0.22425757 -2.7335408 -0.5252071 3
-0.24309061 -2.9567697 -0.46382856 7
-0.25090191 -3.0452719 -0.37048322 8
-0.26833084 -3.249881 -0.28194925 9
-0.26749131 -3.2328327 -0.16743939 11
-0.28985876 -3.4957356 -0.0599548 7
-0.63629061 -7.6575203 2.0472183 7
-0.67874706 -8.1512289 1.8780451 7
-0.45745721 -5.4821377 1.0608987 9
-0.40936896 -4.8955402 0.77115333 5
-0.38817841 -4.6323915 0.56608307 11
-0.36706439 -4.3712549 0.38043481 11
-0.34359747 -4.0832481 0.21274567 7
-0.31994241 -3.7942104 0.065795571 19
-0.16643211 -1.9533648 -0.51505011 4
-0.19721362 -2.3098724 -0.52638578 2
-0.23379803 -2.7327414 -0.5252071 3
-0.25341016 -2.9559031 -0.46382856 7
-0.26153034 -3.0443773 -0.37048322 9
-0.27924624 -3.243962 -0.28151348 10
-0.27877438 -3.2318792 -0.16743939 12
-0.30205941 -3.4947026 -0.0599548 8
-0.66259968 -7.6504402 2.0459251 8
-0.70845985 -8.163372 1.8814169 2
-0.47659063 -5.4805074 1.0608987 8
-0.42945606 -4.9285212 0.77662247 12
-0.40434608 -4.6310081 0.56608307 9
-0.38232067 -4.3699474 0.38043481 11
-0.35741249 -4.0770493 0.21248397 6
-0.33318475 -3.7930703 0.065795571 19
-0.17282283 -1.9479614 -0.51375604 4
-0.20354985 -2.2897592 -0.52188677 2
-0.24377114 -2.7367976 -0.5261603 3
-0.26372668 -2.9550004 -0.46382856 7
-0.27215561 -3.0434458 -0.37048322 9
-0.29056808 -3.2429676 -0.28151348 10
-0.29005405 -3.2308865 -0.16743939 12
-0.31380844 -3.4886475 -0.059868407 7
-0.68930066 -7.6480808 2.0459251 7
nan nan nan 0
-0.49527594 -5.4739218 1.0599453 8
-0.44888657 -4.9515839 0.78052902 12
-0.42005992 -4.6246257 0.56547374 10
-0.39712089 -4.363626 0.37999907 13
-0.37164187 -4.0757771 0.21248397 7
-0.34596813 -3.7869058 0.065708302 18
-0.17962143 -1.9473463 -0.51375604 4
-0.21154135 -2.2890346 -0.52188677 2
-0.25377536 -2.7408173 -0.5271135 3
-0.27449611 -2.9589794 -0.46461076 7
-0.28277755 -3.0424774 -0.37048322 8
-0.30188638 -3.2419333 -0.28151348 10
-0.30086631 -3.2248824 -0.16717857 11
-0.32598418 -3.4875307 -0.059868407 7
-0.71554291 -7.6408195 2.0446317 8
nan nan nan 0
-0.51438051 -5.4721599 1.0599453 8
-0.46802023 -4.9696541 0.78365427 11
-0.43620032 -4.6231313 0.56547374 12
-0.41235039 -4.3622131 0.37999907 13
-0.38586673 -4.0744548 0.21248397 7
-0.3591848 -3.7856748 0.065708302 16
-0.18641785 -1.9467075 -0.51375604 4
-0.21859978 -2.278583 -0.51963723 2
-0.26381066 -2.7448006 -0.52806669 3
-0.28482321 -2.9580033 -0.46461076 8
-0.29339609 -3.0414717 -0.37048322 8
-0.31320101 -3.24086 -0.28151348 10
-0.31212142 -3.2238126 -0.16717857 11
-0.33815596 -3.4863715 -0.059868407 7
-0.74220997 -7.6382751 2.0446317 7
nan nan nan 0
-0.53347874 -5.4703307 1.0599453 9
-0.48488453 -4.9630752 0.78287292 11
-0.45233539 -4.6215806 0.56547374 12
-0.42757484 -4.3607473 0.37999907 14
-0.40008691 -4.0730834 0.21248397 7
-0.37190753 -3.779423 0.065621048 17
-0.19273481 -1.9412386 -0.5124619 4
-0.22655219 -2.277806 -0.51963723 2
-0.27387682 -2.7487471 -0.52901983 3
-0.29514682 -2.956991 -0.46461076 7
-0.30351725 -3.035491 -0.36987385 9
-0.3245118 -3.239747 -0.28151348 10
-0.32337272 -3.2227035 -0.16717857 11
-0.35032359 -3.4851701 -0.059868407 7
-0.76838404 -7.6308317 2.0433385 6
nan nan nan 0
-0.55257052 -5.4684353 1.0599453 8
-0.50170863 -4.956439 0.78209168 11
-0.46846497 -4.6199737 0.56547374 13
-0.44279408 -4.3592281 0.37999907 14
-0.41379666 -4.0666938 0.21222229 7
-0.38509789 -3.7781017 0.065621048 15
-0.20000377 -1.9453586 -0.51375604 3
-0.23450184 -2.2770014 -0.51963723 2
-0.28397375 -2.7526569 -0.52997309 3
-0.30495921 -2.9510303 -0.46382856 7
-0.31411123 -3.0344131 -0.36987385 9
-0.33581865 -3.2385943 -0.28151348 11
-0.33462012 -3.221555 -0.16717857 10
-0.36248699 -3.4839261 -0.059868407 8
-0.79451531 -7.6232996 2.0420454 8
-0.80326921 -7.6942673 1.7757697 10
