# .PCD v0.7 - Point Cloud Data file format
VERSION 0.7
FIELDS x y z intensity
SIZE 4 4 4 4
TYPE F F F F
COUNT 1 1 1 1
WIDTH 1388
HEIGHT 1
VIEWPOINT 0 0 0 1 0 0 0
POINTS 1388
DATA ascii
0.81748712 2.0438645 -0.34259176 27
0.82364017 2.0582061 -0.2675035 25
0.81586778 2.0377524 -0.18869248 27
0.8144775 2.0332515 -0.11240868 26
0.81394422 2.0308933 -0.037147783 30
0.81774729 2.0393517 0.57808375 28
0.81786925 2.0386257 0.49788988 28
0.81506622 2.0306132 0.4174965 25
0.8166815 2.0336108 0.34065133 25
0.8135615 2.0248194 0.26323774 24
0.82242799 2.0458543 0.18956374 26
0.82103467 2.0413592 0.11330734 32
0.81491041 2.0251112 0.037435409 26
0.74396175 1.8450781 -0.52281469 4
0.83596849 2.0732613 -0.50726491 5
0.82779038 2.0519464 -0.4222627 25
0.8239041 2.041286 -0.34259176 27
0.8319605 2.0602102 -0.26811287 29
0.82413137 2.0397973 -0.18912823 26
0.8208611 2.0306826 -0.11240868 25
0.82219487 2.0329609 -0.037234176 30
0.82415009 2.0367727 0.57808375 30
0.82426977 2.0360463 0.49788988 30
0.82144153 2.0280426 0.4174965 23
0.82306629 2.0310352 0.34065133 25
0.81991857 2.0222538 0.26323774 24
0.82697874 2.0386448 0.18912795 31
0.82932144 2.043396 0.11356901 22
0.8212685 2.022541 0.037435409 25
0.76100171 1.8694402 -0.53057927 4
0.84320039 2.0703306 -0.50726491 5
0.834948 2.0490446 -0.4222627 27
0.83102447 2.0383976 -0.34259176 28
0.83914685 2.0572937 -0.26811287 26
0.83124655 2.0369081 -0.18912823 25
0.82794446 2.0278051 -0.11240868 28
0.82928622 2.0300786 -0.037234176 23
0.83308196 2.0383544 0.579377 28
0.83137184 2.0331566 0.49788988 27
0.83037418 2.0297055 0.41844967 24
0.8301509 2.0281496 0.34065133 26
0.82885343 2.023972 0.26384711 25
0.83408988 2.0357456 0.18912795 35
0.83644915 2.0404887 0.11356901 30
0.8302204 2.0242872 0.03752267 25
0.75315005 1.8309065 -0.52022654 6
0.85263711 2.0717318 -0.50838971 5
0.84245253 2.0459704 -0.4222627 26
0.83849001 2.0353382 -0.34259176 29
0.84668154 2.0542042 -0.26811287 23
0.83870661 2.0338478 -0.18912823 29
0.83537126 2.0247569 -0.11240868 23
0.83862871 2.0316465 -0.037320562 23
0.84054732 2.0352871 0.579377 26
0.83881813 2.0300958 0.49788988 27
0.83780777 2.0266483 0.41844967 24
0.83946627 2.0296569 0.3414326 25
0.83626604 2.0209205 0.26384711 27
0.8415457 2.032675 0.18912795 30
0.84392232 2.0374093 0.11356901 25
0.83954817 2.0258491 0.037609935 24
0.76324219 1.8371863 -0.52281469 5
0.85986364 2.068743 -0.50838971 5
0.84958917 2.0430174 -0.4222627 24
0.8474865 2.0369582 -0.34337392 26
0.85384697 2.0512362 -0.26811287 28
0.84580094 2.0309076 -0.18912823 27
0.84243381 2.0218284 -0.11240868 26
0.8457154 2.0287068 -0.037320562 24
0.84764671 2.0323408 0.579377 26
0.8458994 2.0271554 0.49788988 27
0.84487706 2.0237114 0.41844967 26
0.84654605 2.0267141 0.3414326 29
0.84331524 2.0179892 0.26384711 27
0.84863591 2.0297251 0.18912795 26
0.85102904 2.034451 0.11356901 23
0.84661454 2.0229061 0.037609935 25
0.77338749 1.8434181 -0.5254029 6
0.86707968 2.0657287 -0.50838971 5
0.85671544 2.0400391 -0.4222627 25
0.85459161 2.0339873 -0.34337392 28
0.86100191 2.0482433 -0.26811287 29
0.85288495 2.0279431 -0.18912823 25
0.84754968 2.0142732 -0.11214787 27
0.85279173 2.0257423 -0.037320562 28
0.85473573 2.0293696 0.579377 27
0.85297036 2.0241904 0.49788988 29
0.85384279 2.0252731 0.41940287 26
0.8536154 2.0237467 0.3414326 26
0.85035425 2.015033 0.26384711 27
0.85571581 2.0267503 0.18912795 30
0.85812545 2.0314679 0.11356901 30
0.85561675 2.0245435 0.037697192 28
0.78170139 1.8451542 -0.52669698 5
0.8742851 2.0626895 -0.50838971 5
0.86383128 2.0370362 -0.4222627 25
0.86168641 2.0309918 -0.34337392 28
0.86814636 2.0452254 -0.26811287 28
0.85995865 2.0249536 -0.18912823 27
0.85457563 2.0113022 -0.11214787 25
0.85985768 2.022753 -0.037320562 28
0.86181438 2.0263736 0.579377 28
0.86003089 2.0212007 0.49788988 27
0.86090714 2.0222802 0.41940287 24
0.86260962 2.0252984 0.34221393 18
0.85932827 2.0166178 0.26445645 25
0.86473876 2.0283329 0.18956374 26
0.86521137 2.0284603 0.11356901 26
0.86268467 2.0215418 0.037697192 20
0.79225945 1.8511567 -0.52928513 4
0.88375694 2.0639496 -0.50951445 5
0.8732245 2.0383685 -0.42321593 24
0.86912447 2.0278201 -0.34337392 26
0.87563664 2.0420296 -0.26811287 27
0.86933851 2.0263655 -0.18956403 26
0.8619417 2.0081568 -0.11214787 30
0.86726564 2.019588 -0.037320562 27
0.86923558 2.0232012 0.579377 27
0.86743319 2.0180347 0.49788988 29
0.86831337 2.0191114 0.41940287 22
0.87002695 2.0221233 0.34221393 24
0.86671376 2.0134547 0.26445645 26
0.87413734 2.0297248 0.18999954 31
0.87461615 2.0298612 0.1138307 17
0.87008208 2.018369 0.037697192 20
0.80254799 1.857247 -0.5318734 5
0.8909561 2.0608521 -0.50951445 5
0.88033438 2.0353079 -0.42321593 24
0.87619764 2.0247738 -0.34337392 28
0.88473094 2.0435145 -0.26872221 26
0.87640655 2.0233188 -0.18956403 27
0.86894625 2.0051355 -0.11214787 23
0.87431008 2.0165484 -0.037320562 25
0.87821466 2.0245857 0.58067024 27
0.87447214 2.0149946 0.49788988 26
0.87535614 2.016068 0.41940287 24
0.87708014 2.019074 0.34221393 25
0.8737368 2.0104172 0.26445645 25
0.88121706 2.0266612 0.18999954 30
0.88169628 2.0267959 0.1138307 27
0.8771283 2.015317 0.037697192 24
0.81288856 1.8632878 -0.53446156 4
0.89814442 2.0577295 -0.50951445 5
0.88939774 2.0367205 -0.42416909 25
0.88326007 2.021703 -0.34337392 27
0.89185876 2.0404139 -0.26872221 29
0.88346392 2.0202472 -0.18956403 27
0.87794161 2.0066648 -0.11240868 25
0.88134384 2.013484 -0.037320562 27
0.88527638 2.021508 0.58067024 27
0.88345569 2.0163925 0.49901381 28
0.88238823 2.0130002 0.41940287 25
0.88610619 2.0205228 0.34299523 26
0.88274306 2.0118995 0.26506582 25
0.89028811 2.0281336 0.19043529 28
0.88876581 2.023706 0.1138307 27
0.88415164 2.0122454 0.037697192 26
0.82328099 1.8692788 -0.53704977 4
0.90532172 2.0545819 -0.50951445 5
0.89650178 2.0336034 -0.42416909 25
0.89230472 2.0231264 -0.34415612 28
0.89897573 2.0372882 -0.26872221 27
0.89051056 2.0171511 -0.18956403 26
0.88695806 2.0081553 -0.11266948 26
0.88836682 2.0103953 -0.037320562 27
0.89232737 2.0184054 0.58067024 27
0.8904888 2.0132964 0.49901381 27
0.88940948 2.0099077 0.41940287 26
0.89315373 2.0174174 0.34299523 24
0.88976055 2.0088058 0.26506582 26
0.89736217 2.0250134 0.19043529 30
0.89582443 2.020591 0.1138307 28
0.89117026 2.0091469 0.037697192 23
0.82783896 1.8619803 -0.53575563 4
0.91050816 2.046958 -0.50838971 5
0.90559053 2.0349462 -0.42512229 27
0.89936131 2.019999 -0.34415612 25
0.90810102 2.0386713 -0.26933157 27
0.89754629 2.0140302 -0.18956403 27
0.89396244 2.0050471 -0.11266948 26
0.89537895 2.0072823 -0.037320562 27
0.89936751 2.0152781 0.58067024 30
0.89949739 2.0146244 0.50013769 27
0.89842176 2.0112722 0.42035604 24
0.90019041 2.0142875 0.34299523 24
0.89879286 2.0102184 0.26567516 25
0.90442532 2.0218687 0.19043529 29
0.90287215 2.0174518 0.1138307 28
0.8981781 2.0060239 0.037697192 22
0.83037841 1.8502668 -0.53316748 4
0.91764784 2.0437675 -0.50838971 5
0.91268831 2.0317726 -0.42512229 24
0.90843129 2.0213518 -0.34493828 28
0.91521186 2.0354891 -0.26933157 27
0.90661466 2.0154276 -0.18999982 27
0.90300518 2.0064678 -0.1129303 26
0.90443277 2.0087032 -0.037406955 26
0.90838039 2.0165303 0.58196354 27
0.9065243 2.0114725 0.50013769 28
0.90543693 2.0081239 0.42035604 28
0.9092468 2.0156348 0.34377655 25
0.90580434 2.0070689 0.26567516 25
0.91352731 2.0232394 0.19087109 29
0.90990883 2.0142879 0.1138307 28
0.90517491 2.0028765 0.037697192 23
0.83483922 1.8429577 -0.5318734 4
0.9227652 2.0361142 -0.50726491 5
0.91977495 2.0285745 -0.42512229 25
0.91548157 2.0181684 -0.34493828 27
0.92231143 2.0322819 -0.26933157 28
0.91364425 2.0122507 -0.18999982 27
0.91206861 2.0078495 -0.1131911 25
0.911439 2.0055339 -0.037406955 26
0.91541386 2.0133471 0.58196354 28
0.91555744 2.0127306 0.50126159 28
0.91244107 2.004951 0.42035604 25
0.91627717 2.0124485 0.34377655 23
0.91280478 2.0038948 0.26567516 24
0.9205842 2.0200384 0.19087109 29
0.91693455 2.0110996 0.1138307 26
0.91216075 1.9997046 0.037697192 22
0.83925903 1.83564 -0.53057927 4
0.92986697 2.0328805 -0.50726491 5
0.92889285 2.0298145 -0.42607546 25
0.92457658 2.0194509 -0.34572047 26
0.92939985 2.0290501 -0.26933157 29
0.92273772 2.0135775 -0.19043559 28
0.91907173 2.0046535 -0.1131911 25
0.92051828 2.0068841 -0.037493344 26
0.92243618 2.0101395 0.58196354 27
0.92257756 2.0095224 0.50126159 28
0.91943407 2.0017538 0.42035604 26
0.92535836 2.0137253 0.34455785 24
0.91979414 2.0006962 0.26567516 25
0.92971116 2.0213377 0.19130686 29
0.92603624 2.0124226 0.11409239 28
0.92122614 2.0010498 0.037784457 24
0.84161448 1.8239287 -0.52799106 4
0.9369573 2.0296223 -0.50726491 5
0.93597257 2.0265598 -0.42607546 26
0.93162012 2.0162113 -0.34572047 26
0.93855923 2.0302982 -0.26994088 27
0.92976081 2.010344 -0.19043559 27
0.92606372 2.0014331 -0.1131911 27
0.92751801 2.0036585 -0.037493344 26
0.93147689 2.0112898 0.58325672 26
0.92958653 2.0062897 0.50126159 26
0.92848015 2.0029855 0.42130923 24
0.93238187 2.0104828 0.34455785 24
0.92886096 2.0019751 0.2662845 26
0.93676126 2.01808 0.19130686 28
0.93305528 2.0091779 0.11409239 26
0.92820549 1.9978219 0.037784457 25
0.84593719 1.8166015 -0.52669698 4
0.9460938 2.0307558 -0.50838971 5
0.94304091 2.0232804 -0.42607546 24
0.93865234 2.0129471 -0.34572047 27
0.94564062 2.0270097 -0.26994088 26
0.93887925 2.0116 -0.19087137 27
0.935157 2.002713 -0.11345191 26
0.93450642 2.0004089 -0.037493344 25
0.93849188 2.0080261 0.58325672 28
0.93864763 2.0074458 0.5023855 28
0.93546623 1.9997321 0.42130923 26
0.94148761 2.0116892 0.34533918 24
0.93584353 1.9987206 0.2662845 26
0.9459129 2.0193083 0.19174264 29
0.94006294 2.0059087 0.11409239 27
0.93517357 1.9945697 0.037784457 25
0.85021919 1.8092667 -0.5254029 4
0.95317674 2.0274408 -0.50838971 5
0.95009774 2.0199761 -0.42607546 24
0.94777578 2.0141268 -0.3465026 27
0.95482421 2.0281866 -0.27055025 27
0.94589531 2.0083103 -0.19087137 27
0.94214213 1.9994364 -0.11345191 24
0.94361514 2.0016565 -0.037579738 27
0.9475559 2.0091066 0.58455002 27
0.94564927 2.0041573 0.5023855 28
0.94453615 2.0008931 0.4222624 25
0.94850397 2.0083904 0.34533918 24
0.94281465 1.9954417 0.2662845 27
0.95295584 2.0159943 0.19174264 28
0.94919366 2.0071285 0.11435406 27
0.94426817 1.9958119 0.037871718 25
0.85446018 1.8019238 -0.52410877 4
0.96024799 2.0241013 -0.50838971 5
0.95924759 2.0210814 -0.42702866 24
0.95480061 2.0108061 -0.3465026 26
0.96402752 2.0293238 -0.27115959 26
0.95503783 2.009495 -0.19130714 26
0.95125979 2.0006449 -0.11371273 25
0.95059651 1.9983504 -0.037579738 26
0.9545632 2.0057867 0.58455002 28
0.95473379 2.0052433 0.5035094 27
0.95151484 1.997584 0.4222624 25
0.95550877 2.0050673 0.34533918 24
0.95191002 1.996618 0.26689386 25
0.95998722 2.0126555 0.19174264 27
0.95619404 2.003803 0.11435406 27
0.95122916 1.9925038 0.037871718 23
0.86282945 1.803287 -0.5254029 4
0.96730763 2.0207372 -0.50838971 4
0.96629661 2.0177209 -0.42702866 24
0.96181381 2.0074608 -0.3465026 27
0.97110534 2.0259461 -0.27115959 27
0.96204644 2.0061491 -0.19130714 25
0.95823759 1.9973122 -0.11371273 25
0.95972961 1.9995271 -0.037666127 23
0.96364951 2.0067961 0.58584327 25
0.96383727 2.0062897 0.50463331 24
0.95848191 1.9942504 0.4222624 24
0.96250194 2.0017197 0.34533918 23
0.95887375 1.9932832 0.26689386 25
0.96700686 2.0092924 0.19174264 28
0.96534902 2.0049522 0.11461575 27
0.96034807 1.9936752 0.037958983 22
0.8712185 1.8046134 -0.52669698 4
0.9743554 2.0173483 -0.50838971 5
0.97546935 2.018755 -0.42798182 25
0.97096467 2.0085373 -0.34728479 26
0.98033208 2.0270121 -0.27176896 24
0.96904337 2.0027788 -0.19130714 24
0.96737921 1.9984496 -0.11397354 25
0.96670341 1.9961649 -0.037666127 24
0.97064865 2.0034201 0.58584327 25
0.97083461 2.002913 0.50463331 25
0.96757895 1.995309 0.42321563 24
0.96948338 1.9983478 0.34533918 25
0.96799266 1.9943886 0.2675032 26
0.97619027 2.010385 0.19217841 28
0.97234166 2.0015702 0.11461575 24
0.96948677 1.9948074 0.038046245 25
0.87751245 1.8015612 -0.52669698 4
0.98139131 2.0139349 -0.50838971 5
0.98251015 2.0153377 -0.42798182 24
0.97796983 2.005136 -0.34728479 26
0.98740172 2.0235777 -0.27176896 24
0.97821361 2.00386 -0.19174294 28
0.97654039 1.9995474 -0.11423435 24
0.97586 1.99727 -0.037752517 29
0.97975707 2.004359 0.58713651 29
0.97996056 2.0038888 0.50575721 29
0.97453797 1.9919194 0.42321563 23
0.97862405 1.999387 0.34612048 24
0.97494847 1.9909974 0.2675032 25
0.98320186 2.0069654 0.19217841 31
0.98152 2.0026474 0.11487742 32
0.97864485 1.9958994 0.038133506 29
0.88379574 1.7984872 -0.52669698 4
0.98626572 2.0061247 -0.50726491 4
0.98953903 2.0118957 -0.42798182 22
0.98714346 2.0061409 -0.34806696 26
0.99445927 2.0201185 -0.27176896 24
0.98520237 2.0004332 -0.19174294 29
0.98572111 2.0006053 -0.11449515 28
0.98503625 1.9983356 -0.03783891 31
0.98674762 2.000927 0.58713651 24
0.98694944 2.0004559 0.50575721 29
0.98365754 1.9929068 0.4241688 23
0.98559725 1.9959588 0.34612048 25
0.98409051 1.9920318 0.26811254 25
0.99240851 2.0079865 0.1926142 32
0.99071777 2.0036852 0.1151391 32
0.98560584 1.9924712 0.038133506 33
0.89006829 1.7953911 -0.52669698 4
0.99326241 2.0026698 -0.50726491 5
0.99873751 2.0128262 -0.42893505 24
0.99414015 2.0026829 -0.34806696 27
1.0037122 2.0210798 -0.27237827 24
0.99439555 2.0014429 -0.19217871 29
0.99269849 1.9971524 -0.11449515 29
0.99200571 1.9948851 -0.03783891 35
0.99372613 1.9974703 0.58713651 23
0.99392635 1.9969985 0.50575721 27
0.99279588 1.9938549 0.42512199 24
0.99476063 1.996927 0.3469018 25
0.99103802 1.9885844 0.26811254 24
0.99941164 2.0045102 0.1926142 33
0.99770588 2.0002146 0.1151391 38
0.99478716 1.993492 0.038220771 33
0.89632994 1.7922733 -0.52669698 4
1.000247 1.9991903 -0.50726491 5
1.0057575 2.0093277 -0.42893505 26
1.0033361 2.0036163 -0.34884915 24
1.0107609 2.0175638 -0.27237827 23
1.0013758 1.9979595 -0.19217871 29
1.0019019 1.9981385 -0.11475597 30
1.0012047 1.9958787 -0.037925296 34
1.0006926 1.9939892 0.58713651 23
1.0030771 1.9978712 0.50688112 27
0.99974972 1.9903772 0.42512199 24
1.0017252 1.9934425 0.3469018 24
0.99797344 1.985113 0.26811254 23
1.0086405 2.0054591 0.19304997 34
1.0069261 2.0011799 0.11540078 36
1.0017396 1.9900074 0.038220771 33
0.90258062 1.7891337 -0.52669698 4
1.0072194 1.9956868 -0.50726491 5
1.0149773 2.010186 -0.42988822 25
1.0103239 2.0001018 -0.34884915 27
1.0177974 2.0140233 -0.27237827 21
1.0105913 1.9988972 -0.1926145 30
1.0088706 1.994629 -0.11475597 31
1.0081655 1.9923716 -0.037925296 33
1.0076468 1.9904841 0.58713651 23
1.0100449 1.9943575 0.50688112 29
1.0089096 1.9912535 0.42607516 23
1.0086775 1.9899336 0.3469018 24
1.0071411 1.9860432 0.26872188 24
1.0156348 2.0019262 0.19304997 31
1.0139054 1.997653 0.11540078 35
1.00868 1.9864986 0.038220771 28
0.9066301 1.7816678 -0.5254029 4
1.0141795 1.9921588 -0.50726491 4
1.021988 2.0066309 -0.42988822 22
1.0172994 1.9965631 -0.34884915 25
1.0270752 2.0148797 -0.27298763 23
1.0175625 1.9953574 -0.1926145 27
1.0158269 1.9910954 -0.11475597 28
1.0151139 1.9888403 -0.037925296 31
1.0145887 1.9869546 0.58713651 24
1.0170004 1.9908196 0.50688112 29
1.0158542 1.9877195 0.42607516 23
1.0178655 1.9907975 0.3476831 23
1.0140676 1.9825156 0.26872188 23
1.0226166 1.9983685 0.19304997 30
1.0208722 1.9941015 0.11540078 31
1.0156081 1.9829656 0.038220771 29
0.91536015 1.7826291 -0.52669698 4
1.0214742 1.9884281 -0.50726491 4
1.0293359 2.0028715 -0.42988822 24
1.0268683 1.9972129 -0.34963131 26
1.0344532 2.0111017 -0.27298763 24
1.0271481 1.9960432 -0.19305027 27
1.0231179 1.9873588 -0.11475597 27
1.0223967 1.9851065 -0.037925296 28
1.0218645 1.9832227 0.58713651 24
1.0242903 1.9870788 0.50688112 27
1.0253826 1.9883455 0.42702836 22
1.0251554 1.9870535 0.3476831 24
1.021327 1.9787854 0.26872188 23
1.0322195 1.9990332 0.19348575 30
1.0281742 1.9903464 0.11540078 29
1.0228691 1.9792298 0.038220771 25
0.92157716 1.7794231 -0.52669698 4
1.028409 1.9848504 -0.50726491 4
1.0385798 2.0036242 -0.43084142 23
1.0338337 1.9936163 -0.34963131 25
1.0437523 2.0118837 -0.27359697 23
1.0341094 1.9924457 -0.19305027 26
1.0300488 1.9837754 -0.11475597 25
1.0316243 1.9859619 -0.038011689 26
1.0287811 1.9796436 0.58713651 22
1.0312203 1.9834912 0.50688112 26
1.0323169 1.9847541 0.42702836 21
1.0343648 1.987844 0.34846443 24
1.0305197 1.9796104 0.26933125 23
1.0391911 1.9954178 0.19348575 28
1.0351155 1.9867454 0.11540078 27
1.0320883 1.9800773 0.038308028 22
0.9252376 1.7720761 -0.5254029 4
1.0327299 1.9771111 -0.50614017 4
1.0452183 2.000169 -0.43084142 22
1.0427271 1.9945537 -0.3504135 26
1.0504183 2.0084114 -0.27359697 24
1.0407108 1.9890056 -0.19305027 25
1.0366216 1.9803486 -0.11475597 26
1.0382044 1.9825301 -0.038011689 27
1.0375814 1.9804994 0.58842975 22
1.0400538 1.984376 0.50800502 27
1.038893 1.9813199 0.42702836 21
1.0409511 1.9844029 0.34846443 22
1.0370786 1.9761822 0.26933125 24
1.0458025 1.9919608 0.19348575 27
1.0416981 1.983302 0.11540078 26
1.0386429 1.976647 0.038308028 24
0.92916739 1.7645621 -0.52410877 4
1.0396249 1.9734942 -0.50614017 4
1.0544822 2.0008504 -0.43179458 23
1.0496831 1.9909017 -0.3504135 25
1.0597379 2.0091221 -0.27420634 23
1.0499721 1.9897659 -0.19348605 26
1.043528 1.9767181 -0.11475597 25
1.0451183 1.978894 -0.038011689 27
1.0444883 1.9768655 0.58842975 22
1.0469742 1.9807334 0.50800502 27
1.0458027 1.9776815 0.42702836 20
1.050181 1.9851227 0.3492457 24
1.0462919 1.9769365 0.26994058 23
1.0550801 1.9927 0.19392152 29
1.0486147 1.9796536 0.11540078 26
1.0455422 1.9730064 0.038308028 22
0.93336278 1.7568797 -0.52281469 4
1.0445646 1.9653684 -0.50501537 4
1.0618086 1.9969721 -0.43179458 23
1.0592921 1.9914006 -0.35119566 25
1.0670946 2.0052247 -0.27420634 24
1.0572579 1.9859042 -0.19348605 25
1.050766 1.9728801 -0.11475597 24
1.0523643 1.9750501 -0.038011689 25
1.0539989 1.9772861 0.58972305 22
1.0565194 1.9811815 0.50912893 27
1.0553546 1.9781655 0.42798153 21
1.0574498 1.9812603 0.3492457 24
1.0535307 1.9730883 0.26994058 25
1.0623766 1.9888195 0.19392152 27
1.0582169 1.9802008 0.11566246 25
1.0551178 1.9735729 0.038395293 23
0.93720895 1.7493538 -0.52152056 4
1.0514187 1.9617102 -0.50501537 4
1.0710924 1.9975795 -0.43274778 24
1.066237 1.9876909 -0.35119566 27
1.0764341 2.0058601 -0.27481568 24
1.0665395 1.9865899 -0.19392182 24
1.0600088 1.9735988 -0.11501677 24
1.0592521 1.9713646 -0.038011689 25
1.0608945 1.973595 0.58972305 23
1.0634286 1.9774815 0.50912893 25
1.0622531 1.9744695 0.42798153 22
1.0666999 1.9819057 0.35002702 24
1.0627644 1.9737684 0.27054995 24
1.0693123 1.9850991 0.19392152 29
1.0651226 1.9764948 0.11566246 26
1.0620064 1.9698747 0.038395293 23
0.93871844 1.7375733 -0.5189324 4
1.0605764 1.9623142 -0.50614017 4
1.0780587 1.9938285 -0.43274778 24
1.0755185 1.9883008 -0.35197783 25
1.0834293 2.0020905 -0.27481568 24
1.0734675 1.982855 -0.19392182 24
1.0668914 1.9698868 -0.11501677 24
1.0661271 1.9676552 -0.038011689 25
1.0700788 1.974126 0.59101623 21
1.0726475 1.9780406 0.51025283 26
1.0714796 1.9750642 0.42893475 20
1.0736115 1.97817 0.35002702 23
1.0696477 1.9700464 0.27054995 24
1.0786127 1.9857314 0.19435731 28
1.0743995 1.9771521 0.11592413 25
1.0688702 1.9661589 0.038395293 24
0.94708842 1.7385272 -0.52022654 4
1.0674198 1.9586 -0.50614017 5
1.085012 1.9900532 -0.43274778 23
1.0824523 1.9845344 -0.35197783 26
1.0927886 2.0026529 -0.27542502 24
1.0803823 1.9790958 -0.19392182 24
1.0761545 1.9705331 -0.11527758 25
1.0753858 1.9683088 -0.038098078 25
1.0769633 1.9703786 0.59101623 23
1.0795455 1.9742842 0.51025283 27
1.0783674 1.9713119 0.42893475 20
1.0828809 1.9787428 0.35080832 23
1.0765179 1.9663008 0.27054995 24
1.0855376 1.9819542 0.19435731 26
1.0812945 1.9733896 0.11592413 27
1.0781299 1.9667995 0.038482554 24
0.95082599 1.7309775 -0.5189324 4
1.07425 1.9548622 -0.50614017 4
1.0943164 1.9905547 -0.43370095 23
1.0917529 1.9850711 -0.35275999 26
1.0997725 1.9988261 -0.27542502 24
1.0896862 1.9796762 -0.1943576 25
1.0830264 1.9667646 -0.11527758 25
1.08225 1.9645431 -0.038098078 24
1.0861658 1.9708374 0.59230953 22
1.0887828 1.9747703 0.51137674 26
1.0876124 1.9718335 0.42988792 18
1.0897814 1.9749507 0.35080832 23
1.0857733 1.9668756 0.27115926 25
1.0948572 1.982513 0.19479308 29
1.090591 1.9739738 0.11618582 25
1.0849887 1.9630241 0.038482554 25
0.95686245 1.7276479 -0.5189324 4
1.0810672 1.9511005 -0.50614017 5
1.101258 1.9867227 -0.43370095 25
1.0986755 1.981248 -0.35275999 26
1.106743 1.9949751 -0.27542502 24
1.0965899 1.9758606 -0.1943576 25
1.0923088 1.9673374 -0.11553839 25
1.0915284 1.9651238 -0.038184468 24
1.0930388 1.9670339 0.59230953 23
1.0956693 1.9709576 0.51137674 26
1.0968744 1.9723146 0.43084112 18
1.0990697 1.9754503 0.35158965 23
1.0926324 1.9630736 0.27115926 23
1.1017708 1.9786792 0.19479308 28
1.0974748 1.9701549 0.11618582 25
1.0942678 1.9635917 0.038569819 22
0.96288723 1.7242973 -0.5189324 4
1.0878713 1.947315 -0.50614017 4
1.1105809 1.987151 -0.43465418 24
1.1079947 1.9817114 -0.35354218 26
1.1161226 1.9954308 -0.27603436 24
1.1059126 1.9763674 -0.19479337 27
1.0991694 1.9635124 -0.11553839 24
1.0983814 1.9613017 -0.038184468 25
1.1022589 1.96742 0.59360272 20
1.1049247 1.9713711 0.51250064 26
1.1037523 1.9684738 0.43084112 18
1.1059586 1.9716017 0.35158965 22
1.101907 1.9635757 0.27176863 24
1.1111094 1.9791646 0.19522887 28
1.1067902 1.9706653 0.11644749 25
1.1011155 1.9597601 0.038569819 23
0.96653092 1.7167174 -0.51763833 4
1.0946621 1.9435056 -0.50614017 5
1.1175106 1.9832623 -0.43465418 24
1.1173304 1.9821337 -0.35432434 25
1.1230811 1.9915227 -0.27603436 21
1.1128045 1.9724948 -0.19479337 26
1.108471 1.9640124 -0.1157992 25
1.1076788 1.9618086 -0.038270857 26
1.1091198 1.9635605 0.59360272 22
1.1141963 1.9717438 0.51362455 26
1.1130323 1.9688817 0.43179429 18
1.115265 1.9720278 0.35237095 23
1.1087544 1.9597173 0.27176863 24
1.1180111 1.975274 0.19522887 28
1.1161227 1.9711349 0.11670918 25
1.1104136 1.9602543 0.038657077 24
0.97251743 1.713333 -0.51763833 4
1.0990337 1.935436 -0.50501537 4
1.1268511 1.9836171 -0.43560734 25
1.1242425 1.9782214 -0.35432434 26
1.1324787 1.9919045 -0.27664372 24
1.1221457 1.9729282 -0.19522917 25
1.11532 1.960131 -0.1157992 23
1.1169931 1.9622749 -0.03835725 24
1.1183573 1.9638741 0.59489602 23
1.1234838 1.9720759 0.51474845 26
1.1223286 1.9692489 0.43274748 18
1.122142 1.9681228 0.35237095 24
1.1180471 1.960146 0.27237797 24
1.1248994 1.9713595 0.19522887 28
1.1229964 1.9672269 0.11670918 27
1.1197287 1.9607075 0.038744342 23
0.9784922 1.7099279 -0.51763833 4
1.1057829 1.9315879 -0.50501537 4
1.1337683 1.9796716 -0.43560734 25
1.1335959 1.9785699 -0.35510653 26
1.1394249 1.9879392 -0.27664372 24
1.1290256 1.9689991 -0.19522917 25
1.1246396 1.960557 -0.11606 24
1.1238359 1.958364 -0.03835725 24
1.1252058 1.9599583 0.59489602 21
1.1327872 1.9723668 0.51587236 25
1.1291957 1.9653192 0.43274748 17
1.1314663 1.9684757 0.35315228 22
1.1248826 1.9562312 0.27237797 24
1.1342576 1.9717383 0.19566463 27
1.132347 1.9676226 0.11697085 24
1.1265659 1.9567871 0.038744342 21
0.98415715 1.7066737 -0.51763833 4
1.1118457 1.9281046 -0.50501537 4
1.1424347 1.9803517 -0.43656054 24
1.1398063 1.9749988 -0.35510653 27
1.1456646 1.9843497 -0.27664372 24
1.137697 1.9697555 -0.19566494 24
1.1307935 1.9570141 -0.11606 22
1.1324847 1.9591517 -0.038443636 22
1.1337755 1.9605948 0.59618932 19
1.1414177 1.9730158 0.51699626 24
1.137823 1.9660103 0.43370065 17
1.1376449 1.9649115 0.35315228 23
1.13351 1.9569819 0.27298734 26
1.1429436 1.9724752 0.19610043 26
1.141027 1.9683754 0.11723254 24
1.1352156 1.9575628 0.038831603 21
0.9898113 1.7034007 -0.51763833 4
1.1161209 1.9200001 -0.50389069 5
1.1493405 1.9763517 -0.43656054 24
1.1466933 1.9710082 -0.35510653 25
1.1550807 1.9846277 -0.27725306 24
1.1470721 1.9700768 -0.19610073 24
1.1401311 1.9573698 -0.11632082 22
1.1418335 1.9595062 -0.038530029 24
1.1430446 1.9607978 0.5974825 22
1.1507523 1.9732282 0.51812023 25
1.1446786 1.9620265 0.43370065 17
1.1469861 1.9651934 0.35393357 22
1.1428365 1.957299 0.27359664 25
1.1523341 1.9727743 0.1965362 26
1.1504101 1.9686915 0.11749421 23
1.144565 1.9579042 0.038918864 23
0.99634451 1.6995876 -0.51763833 4
1.123485 1.9157003 -0.50389069 4
1.1594044 1.9761574 -0.43751371 23
1.1567528 1.9708496 -0.35588869 26
1.1626925 1.980178 -0.27725306 24
1.1571511 1.9699527 -0.1965365 26
1.1501679 1.9572824 -0.11658162 21
1.1518825 1.9594171 -0.038616419 25
1.1530136 1.9605578 0.5987758 20
1.1607909 1.9729941 0.51924407 25
1.1546936 1.9618468 0.43465388 17
1.1545234 1.9607748 0.35393357 22
1.1528624 1.9571726 0.27420601 25
1.1624293 1.9726264 0.19697198 27
1.1604966 1.9685611 0.1177559 24
1.1546137 1.9578009 0.039006125 23
1.0022712 1.6960993 -0.51763833 4
1.1301652 1.9117669 -0.50389069 5
1.1662954 1.9720984 -0.43751371 23
1.1636251 1.9667997 -0.35588869 25
1.1721253 1.9803783 -0.27786243 24
1.1665581 1.9701875 -0.19697228 28
1.159538 1.9575518 -0.11684243 25
1.1587151 1.9553844 -0.038616419 26
1.1623131 1.9606756 0.60006905 23
1.167671 1.9689301 0.51924407 27
1.1615347 1.9578042 0.43465388 17
1.1638813 1.9609797 0.3547149 23
1.1622207 1.9574034 0.27481535 22
1.1718516 1.9728391 0.19740775 30
1.167361 1.9644982 0.1177559 28
1.1614465 1.9537551 0.039006125 25
1.0081855 1.6925905 -0.51763833 4
1.1393254 1.9119952 -0.50501537 4
1.1731722 1.9680153 -0.43751371 23
1.1730131 1.9669676 -0.35667089 26
1.179031 1.9762746 -0.27786243 24
1.1734283 1.9661036 -0.19697228 28
1.1663642 1.9534925 -0.11684243 27
1.1680974 1.9556197 -0.038702808 28
1.16915 1.9566065 0.60006905 22
1.1770365 1.9690242 0.52036798 29
1.1708806 1.9579502 0.43560702 17
1.1707194 1.9569051 0.3547149 23
1.1690464 1.9533346 0.27481535 25
1.178731 1.9687365 0.19740775 32
1.176777 1.964695 0.11801757 27
1.1708231 1.9539809 0.03909339 30
1.0140877 1.6890608 -0.51763833 4
1.1459925 1.9080065 -0.50501537 4
1.1825626 1.9681153 -0.43846694 21
1.1798719 1.9628611 -0.35667089 25
1.1884797 1.9763998 -0.27847174 26
1.1828517 1.9662637 -0.19740805 26
1.1757505 1.9536872 -0.11710324 27
1.1749166 1.9515305 -0.038702808 29
1.1784647 1.9566507 0.60136229 23
1.1839024 1.9649035 0.52036798 27
1.1777079 1.9538511 0.43560702 19
1.1800933 1.9570358 0.3554962 22
1.1784211 1.9534916 0.27542472 24
1.1881697 1.9688749 0.19784354 29
1.183628 1.9605753 0.11801757 29
1.1776367 1.9498821 0.03909339 33
1.0196831 1.6856889 -0.51763833 4
1.1545027 1.9085658 -0.50614017 4
1.1887398 1.9643905 -0.43846694 22
1.18859 1.9633693 -0.35745302 25
1.1972537 1.9769014 -0.27908111 25
1.189023 1.9625379 -0.19740805 26
1.1818824 1.9499837 -0.11710324 28
1.1836336 1.9521044 -0.038789198 30
1.1846058 1.9529389 0.60136229 24
1.1900696 1.9611744 0.52036798 29
1.1863877 1.9543376 0.43656024 21
1.1862357 1.9533187 0.3554962 23
1.1845523 1.9497797 0.27542472 25
1.1943493 1.9651324 0.19784354 30
1.1923755 1.9611136 0.11827926 32
1.1837567 1.9461728 0.03909339 30
1.0252675 1.6822981 -0.51763833 4
1.1611578 1.9045241 -0.50614017 4
1.1981454 1.9644194 -0.43942013 21
1.1980085 1.9634242 -0.35823521 25
1.2041471 1.9727101 -0.27908111 25
1.1958663 1.9583753 -0.19740805 26
1.188682 1.9458464 -0.11710324 26
1.1904405 1.9479609 -0.038789198 30
1.1914157 1.948792 0.60136229 23
1.1969081 1.9570085 0.52036798 26
1.1932023 1.9501845 0.43656024 22
1.1956249 1.9533783 0.35627753 23
1.1939427 1.9498653 0.27603403 23
1.2012016 1.9609514 0.19784354 30
1.1992139 1.9569395 0.11827926 30
1.1905428 1.9420289 0.03909339 24
1.0317194 1.678349 -0.51763833 4
1.1710141 1.9042013 -0.50726491 4
1.2056794 1.9598045 -0.43942013 20
1.2055387 1.9588096 -0.35823521 25
1.2143148 1.972298 -0.27969044 25
1.2033771 1.9537692 -0.19740805 24
1.198764 1.9455189 -0.11736406 26
1.2005347 1.9476315 -0.038875591 26
1.2014247 1.948314 0.60265553 22
1.2044137 1.9523982 0.52036798 26
1.2032592 1.9497651 0.43751341 24
1.2031167 1.948773 0.35627753 21
1.2014208 1.9452666 0.27603403 24
1.2113402 1.960562 0.19827931 27
1.206719 1.9523205 0.11827926 26
1.1979908 1.9374433 0.03909339 24
1.0401152 1.6788428 -0.5189324 4
1.1776538 1.900102 -0.50726491 4
1.2150996 1.9597554 -0.4403733 21
1.2149719 1.9587861 -0.35901737 25
1.2211919 1.9680471 -0.27969044 25
1.2128167 1.9537886 -0.19784385 24
1.2055478 1.9413226 -0.11736406 22
1.2073258 1.943429 -0.038875591 26
1.2082182 1.9441084 0.60265553 21
1.2137938 1.9523197 0.52149189 26
1.2100579 1.9455531 0.43751341 22
1.2125208 1.9487548 0.35705879 22
1.2108262 1.9452741 0.2766434 25
1.2181764 1.9563217 0.19827931 27
1.2135266 1.9480964 0.11827926 24
1.2073961 1.9374889 0.039180648 22
1.0456767 1.6753844 -0.5189324 4
1.1861969 1.900526 -0.50838971 4
1.2238498 1.9600918 -0.4413265 18
1.2211196 1.9549596 -0.35901737 26
1.2299985 1.9684097 -0.28029981 23
1.2189487 1.9499688 -0.19784385 26
1.2142881 1.9417592 -0.11762486 24
1.2134254 1.9396265 -0.038875591 24
1.2168822 1.9443972 0.60394883 23
1.2199212 1.9484968 0.52149189 27
1.2187696 1.945902 0.43846661 22
1.218637 1.9449359 0.35705879 23
1.2169315 1.9414606 0.2766434 24
1.2269626 1.956705 0.19871509 27
1.2196406 1.9442744 0.11827926 25
1.2134713 1.9336897 0.039180648 22
1.0512267 1.6719078 -0.5189324 4
1.1928238 1.8963739 -0.50838971 4
1.2306844 1.9558078 -0.4413265 18
1.2305671 1.9548645 -0.35979956 25
1.2368622 1.9641042 -0.28029981 25
1.2284029 1.9499164 -0.1982796 24
1.2210587 1.9375087 -0.11762486 24
1.2201886 1.935379 -0.038875591 24
1.223662 1.9401377 0.60394883 21
1.229315 1.948347 0.52261579 26
1.2255546 1.9416358 0.43846661 23
1.2280555 1.9448459 0.35784012 23
1.2263513 1.9413966 0.27725273 23
1.2337853 1.9524102 0.19871509 28
1.2290879 1.9442254 0.11854094 25
1.222886 1.9336677 0.039267913 22
1.0576388 1.667859 -0.5189324 3
1.2000966 1.8917798 -0.50838971 5
1.240815 1.9552122 -0.44227967 16
1.2380641 1.950125 -0.35979956 25
1.2470553 1.9635298 -0.28090915 25
1.2385521 1.9493895 -0.1987154 25
1.2311676 1.9370199 -0.11788567 23
1.230293 1.934898 -0.038961977 24
1.2336947 1.9395 0.60524201 22
1.2394027 1.9477228 0.5237397 26
1.2356366 1.9410563 0.43941984 22
1.2381667 1.9442817 0.35862142 21
1.2364633 1.9408592 0.2778621 23
1.2439498 1.9518588 0.19915086 27
1.2365443 1.9394917 0.11854094 24
1.2329899 1.9331726 0.039355174 21
1.0634542 1.6641569 -0.5189324 4
1.2040685 1.8834741 -0.50726491 4
1.2476325 1.9508691 -0.44227967 15
1.2475253 1.9499515 -0.36058176 25
1.2539016 1.959165 -0.28090915 25
1.2453492 1.9450542 -0.1987154 24
1.2406147 1.9369152 -0.11814647 23
1.2370397 1.9305916 -0.038961977 24
1.2430638 1.9392481 0.60653532 22
1.2461939 1.9433845 0.5237397 26
1.2424046 1.9367313 0.43941984 23
1.2476134 1.9441044 0.35940275 21
1.2432307 1.9365312 0.2778621 24
1.2534472 1.9516958 0.19958664 29
1.2460059 1.9393646 0.11880261 25
1.2397305 1.928857 0.039355174 22
1.0692567 1.6604346 -0.5189324 4
1.2106359 1.8792598 -0.50726491 5
1.2570935 1.9506279 -0.44323289 15
1.2543243 1.945585 -0.36058176 24
1.2634226 1.9589465 -0.28151849 25
1.2548317 1.9448808 -0.19915117 25
1.2473683 1.9325728 -0.11814647 24
1.246483 1.9304618 -0.03904837 23
1.2498256 1.9348973 0.60653532 21
1.2556143 1.943115 0.5248636 27
1.251822 1.9365046 0.440373 23
1.2570739 1.9438846 0.36018407 22
1.2499827 1.9321798 0.2778621 22
1.2602522 1.9473085 0.19958664 26
1.2527678 1.9350033 0.11880261 27
1.2491735 1.9287136 0.039442439 23
1.0750462 1.6566921 -0.5189324 4
1.2145357 1.8709363 -0.50614017 4
1.2665679 1.9503441 -0.44418606 15
1.2637984 1.9453359 -0.36136392 24
1.2729572 1.9586856 -0.28212786 26
1.2616128 1.9404887 -0.19915117 24
1.256829 1.9323927 -0.11840729 23
1.2559403 1.9302891 -0.039134759 23
1.2592067 1.9345706 0.60782856 22
1.2623895 1.9387202 0.5248636 27
1.258574 1.9321231 0.440373 22
1.2638516 1.9394847 0.36018407 21
1.2594298 1.9319619 0.27847141 24
1.2697629 1.9470699 0.20002241 27
1.2622428 1.9348005 0.11906429 24
1.2586306 1.928528 0.039529696 22
1.0808226 1.6529294 -0.5189324 4
1.221059 1.8666854 -0.50614017 4
1.2733682 1.9459112 -0.44418606 14
1.2732861 1.9450445 -0.36214611 24
1.2797866 1.9542302 -0.28212786 24
1.2711083 1.9402397 -0.19958696 23
1.2635666 1.9279938 -0.11840729 22
1.2654119 1.9300743 -0.039221149 26
1.2659519 1.9301633 0.60782856 21
1.2718217 1.9383752 0.52598751 25
1.2680042 1.9318216 0.4413262 22
1.2733245 1.9391892 0.36096537 22
1.2688907 1.931702 0.27908078 24
1.2765516 1.9426256 0.20002241 25
1.2717317 1.9345552 0.11932597 23
1.2653548 1.9241227 0.039529696 21
1.0839286 1.6451137 -0.51763833 3
1.2248863 1.8583438 -0.50501537 5
1.2828552 1.9455523 -0.44513926 14
1.2800678 1.9405881 -0.36214611 24
1.2893336 1.9538931 -0.2827372 25
1.2778733 1.9357908 -0.19958696 23
1.2730405 1.927738 -0.11866809 23
1.2721413 1.9256455 -0.039221149 21
1.2753448 1.9297621 0.6091218 22
1.2812673 1.937988 0.52711141 26
1.2747397 1.9273837 0.4413262 21
1.2828109 1.9388517 0.3617467 21
1.2756258 1.927261 0.27908078 23
1.2860748 1.9423109 0.20045821 26
1.2784768 1.930104 0.11932597 23
1.274825 1.9238615 0.039616961 23
1.0896645 1.6413201 -0.51763833 4
1.2313657 1.8540568 -0.50501537 5
1.2923546 1.9451506 -0.44609243 14
1.2895675 1.9402208 -0.36292824 23
1.2988939 1.9535134 -0.28334656 25
1.2873812 1.9354655 -0.20002273 23
1.2797618 1.9232826 -0.11866809 23
1.2816255 1.9253546 -0.039307538 23
1.2820731 1.9252986 0.6091218 21
1.2880243 1.9335037 0.52711141 25
1.2841816 1.9270066 0.44227937 22
1.2923104 1.938471 0.362528 23
1.2850989 1.9269251 0.27969012 22
1.2928469 1.9378098 0.20045821 26
1.2879782 1.9297826 0.11958765 23
1.2815328 1.9193999 0.039616961 21
1.0927019 1.6334921 -0.51634425 4
1.23783 1.8497472 -0.50501537 5
1.301867 1.9447062 -0.44704565 14
1.2990801 1.9398108 -0.36371043 25
1.3057051 1.9489675 -0.28334656 24
1.2941294 1.9309599 -0.20002273 24
1.2892481 1.922951 -0.11892891 22
1.2883384 1.9208691 -0.039307538 24
1.2914768 1.9248222 0.61041504 21
1.2974808 1.9330412 0.52823532 24
1.2936367 1.9265873 0.44323257 21
1.2990689 1.933948 0.362528 23
1.2918174 1.9224275 0.27969012 23
1.3023821 1.9374191 0.200894 27
1.297493 1.9294186 0.11984934 27
1.2910154 1.9190627 0.039704222 21
1.0956979 1.6256632 -0.51505011 4
1.2442794 1.8454151 -0.50501537 4
1.3086473 1.9401501 -0.44704565 14
1.3058435 1.9352643 -0.36371043 23
1.3152767 1.948511 -0.28395587 24
1.3036493 1.9305588 -0.20045851 23
1.2987477 1.9225764 -0.11918971 22
1.297835 1.9205025 -0.039393932 23
1.2981879 1.9203023 0.61041504 19
1.3042204 1.9285004 0.52823532 25
1.303104 1.9261252 0.44418573 22
1.30858 1.9334919 0.36330932 22
1.3013023 1.9220159 0.28029948 22
1.309137 1.932861 0.200894 27
1.3042201 1.9248778 0.11984934 23
1.3005114 1.9186828 0.039791483 21
1.1013658 1.6218284 -0.51505011 4
1.2507135 1.8410605 -0.50501537 4
1.3181708 1.9396298 -0.44799879 15
1.3153672 1.9347782 -0.3644926 25
1.3220704 1.9439079 -0.28395587 26
1.3103803 1.9259965 -0.20045851 24
1.3082603 1.9221592 -0.11945052 23
1.3045307 1.9159606 -0.039393932 24
1.3076019 1.9197509 0.61170834 19
1.3136877 1.9279623 0.52935922 23
1.3098196 1.9215647 0.44418573 22
1.3181033 1.9329925 0.36409062 21
1.3108002 1.9215617 0.28090885 22
1.3186835 1.9323937 0.20132977 26
1.3137462 1.9244372 0.12011101 22
1.31002 1.9182596 0.039878745 22
1.1070203 1.617974 -0.51505011 4
1.2598842 1.8407041 -0.50614017 4
1.3249333 1.9350168 -0.44799879 14
1.3221129 1.9301749 -0.3644926 24
1.331653 1.9433751 -0.28456524 25
1.3199116 1.9255192 -0.20089431 23
1.3149619 1.9175807 -0.11945052 22
1.3140389 1.9155177 -0.039480317 24
1.3170282 1.9191573 0.61300153 21
1.3204095 1.923365 0.52935922 24
1.3192978 1.9210268 0.44513896 20
1.3276393 1.9324502 0.36487195 23
1.3174996 1.9169744 0.28090885 22
1.3282428 1.9318833 0.20176555 25
1.3232855 1.9239535 0.1203727 24
1.3195418 1.9177939 0.03996601 23
1.1126614 1.6141 -0.51505011 4
1.2663018 1.8362949 -0.50614017 4
1.3344668 1.9344202 -0.44895202 16
1.3316475 1.9296129 -0.36527479 23
1.3384286 1.9387149 -0.28456524 25
1.3294554 1.9249988 -0.20133008 23
1.3244857 1.9170871 -0.11971132 24
1.3235594 1.9150317 -0.039566711 23
1.326466 1.918521 0.61429483 20
1.3298866 1.9227509 0.53048313 24
1.3259954 1.91641 0.44513896 22
1.3343766 1.927804 0.36487195 22
1.3270084 1.9164438 0.28151816 24
1.3349782 1.9272351 0.20176555 26
1.3328371 1.923427 0.12063438 25
1.3290763 1.9172847 0.040053267 21
1.120762 1.6143687 -0.51634425 4
1.2748425 1.8363094 -0.50726491 4
1.3405374 1.9302183 -0.44895202 17
1.3405207 1.9294754 -0.36605695 24
1.3473449 1.9385757 -0.28517458 23
1.3354963 1.9208125 -0.20133008 22
1.333353 1.9170159 -0.11997214 23
1.3324244 1.9149677 -0.0396531 23
1.3324866 1.9143443 0.61429483 19
1.3359206 1.9185636 0.53048313 24
1.3348149 1.9162623 0.44609213 19
1.3432499 1.9276543 0.36565322 20
1.3358605 1.9163367 0.28212753 22
1.3438755 1.9271173 0.20220132 27
1.34173 1.9233253 0.12089606 24
1.335093 1.9130998 0.040053267 22
1.1288767 1.6146015 -0.51763833 4
1.2840372 1.8358407 -0.50838971 4
1.3500807 1.9295489 -0.44990519 18
1.3500795 1.9288304 -0.36683914 22
1.3569502 1.9379262 -0.28578395 24
1.3450509 1.9202188 -0.20176587 22
1.3429019 1.9164391 -0.12023295 21
1.3391008 1.9103049 -0.0396531 24
1.3419337 1.9136356 0.61558807 19
1.3454077 1.9178773 0.53160703 23
1.3414958 1.9115913 0.44609213 19
1.3499705 1.9229537 0.36565322 21
1.3425416 1.911662 0.28212753 23
1.3505942 1.9224147 0.20220132 26
1.3484355 1.9186302 0.12089606 25
1.3446382 1.9125175 0.040140532 22
1.1403507 1.618349 -0.52022654 4
1.2935641 1.835104 -0.50951445 4
1.3571439 1.9245876 -0.44990519 22
1.3571401 1.9238691 -0.36683914 25
1.3669051 1.9369943 -0.28639328 25
1.3549523 1.9193451 -0.20220163 24
1.3499171 1.9115041 -0.12023295 22
1.348978 1.9094673 -0.03973949 25
1.3489386 1.9087044 0.61558807 21
1.352428 1.9129333 0.53160703 23
1.3513273 1.910669 0.44704533 21
1.3570094 1.9179929 0.36565322 21
1.3524061 1.9107792 0.28273687 25
1.3605094 1.9215168 0.20263711 26
1.3583447 1.9177498 0.12115774 26
1.3516389 1.9075763 0.040140532 20
1.1515841 1.6222349 -0.52281469 4
1.3027827 1.8345498 -0.51063919 4
1.3666964 1.9238399 -0.45085838 21
1.3667079 1.9231453 -0.36762127 25
1.3736582 1.932211 -0.28639328 24
1.3616439 1.9146038 -0.20220163 25
1.3594757 1.9108491 -0.12049376 24
1.3556352 1.9047469 -0.03973949 24
1.3583944 1.9079188 0.61688131 19
1.3619233 1.912169 0.53273094 24
1.3579885 1.9059403 0.44704533 20
1.3636962 1.9132444 0.36565322 24
1.3590677 1.9060467 0.28273687 22
1.3672084 1.916756 0.20263711 26
1.3650305 1.9129964 0.12115774 25
1.3582892 1.9028466 0.040140532 26
1.1628586 1.6260622 -0.5254029 4
1.3063438 1.8260286 -0.50951445 4
1.3734034 1.9190576 -0.45085838 22
1.3734126 1.9183629 -0.36762127 26
1.3832842 1.931439 -0.28700262 27
1.3712196 1.9138881 -0.20263742 27
1.3661376 1.9060919 -0.12049376 25
1.3651887 1.9040662 -0.039825883 27
1.365046 1.9031655 0.61688131 22
1.3685898 1.9074033 0.53273094 25
1.3674952 1.9051757 0.44799849 20
1.3732469 1.9124842 0.36643454 22
1.3657128 1.9012911 0.28273687 27
1.3738908 1.9119719 0.20263711 27
1.3746141 1.9122741 0.12141941 27
1.3678421 1.9021527 0.040227797 22
1.1798197 1.6376677 -0.53057927 4
1.3098615 1.8175052 -0.50838971 4
1.3800938 1.9142519 -0.45085838 18
1.3801006 1.9135571 -0.36762127 24
1.3900177 1.9265988 -0.28700262 24
1.3778921 1.9090902 -0.20263742 22
1.3727827 1.9013116 -0.12049376 24
1.3718269 1.8992891 -0.039825883 25
1.3745096 1.9023038 0.61817455 20
1.3780937 1.906563 0.53385484 24
1.3741372 1.9003906 0.44799849 19
1.3799144 1.907679 0.36643454 20
1.3752507 1.9005331 0.28334624 23
1.3834771 1.9111992 0.20307288 25
1.3812809 1.9074643 0.12141941 23
1.3744733 1.8973664 0.040227797 18
1.1713454 1.6139956 -0.52410877 3
1.3133355 1.8089792 -0.50726491 4
1.3867673 1.9094228 -0.45085838 15
1.3867718 1.908728 -0.36762127 19
1.399652 1.9257494 -0.28761196 21
1.3874768 1.9082972 -0.20307319 21
1.3823483 1.9005462 -0.12075458 20
1.3813896 1.8985314 -0.039912272 19
1.3839837 1.9013991 0.61946785 17
1.3847405 1.901741 0.53385484 20
1.3836524 1.89955 0.44895169 17
1.3894732 1.9068418 0.36721584 19
1.3847996 1.899731 0.28395554 19
1.3901401 1.9063582 0.20307288 24
1.3879308 1.902631 0.12141941 21
1.3840349 1.8965951 0.040315058 22
1.1712714 1.6020994 -0.52152056 4
1.3138901 1.7965192 -0.50501537 4
1.3963221 1.9085315 -0.45181155 11
1.3934259 1.9038757 -0.36762127 15
1.4063656 1.9208519 -0.28761196 23
1.3970728 1.907461 -0.20350897 25
1.3919252 1.8997371 -0.12101538 21
1.3909638 1.8977302 -0.039998662 24
1.3934684 1.9004517 0.62076104 20
1.3942518 1.9008244 0.53497875 25
1.3931782 1.8986657 0.44990486 23
1.3990433 1.9059612 0.36799717 21
1.3943597 1.8988858 0.28456491 24
1.3997347 1.9055085 0.20350866 25
1.3975204 1.9017982 0.1216811 24
1.393608 1.8957803 0.040402319 24
1.1685418 1.5861307 -0.51763833 4
1.3175756 1.7877698 -0.50389069 3
1.4062207 1.9073517 -0.45276478 8
1.4003947 1.8987556 -0.36762127 12
1.4163429 1.9196779 -0.28822133 24
1.4070123 1.9063352 -0.20394474 27
1.4018445 1.8986396 -0.12127619 22
1.4008801 1.8966405 -0.040085051 28
1.4032948 1.8992161 0.62205434 25
1.4041054 1.8996193 0.53610265 27
1.4030461 1.8974935 0.45085809 24
1.4089564 1.904791 0.36877847 26
1.4042622 1.8977518 0.28517425 26
1.4096727 1.9043688 0.20394443 29
1.4104245 1.9046888 0.12220446 27
1.4064986 1.8986942 0.040576845 27
1.1654367 1.5704072 -0.51375604 4
1.3238081 1.7831596 -0.50389069 3
1.4157964 1.9063718 -0.45371795 15
1.4070141 1.8938558 -0.36762127 10
1.4259955 1.9187053 -0.28883067 29
1.4166301 1.9054095 -0.20438054 29
1.4114434 1.8977412 -0.12153699 26
1.4134603 1.8997606 -0.04025783 30
1.4127995 1.8981806 0.62334752 27
1.4136373 1.8986142 0.53722656 32
1.4155248 1.9004569 0.45276445 27
1.4185477 1.9038215 0.36955979 28
1.413844 1.8968176 0.28578362 27
1.4192894 1.9034297 0.20438023 32
1.4200497 1.9037563 0.12246613 28
1.4161127 1.8977757 0.040664103 28
1.1766948 1.5740659 -0.51634425 4
1.3300244 1.7785277 -0.50389069 4
1.4253826 1.9053485 -0.45467114 17
1.4136162 1.8889328 -0.36762127 10
1.4356585 1.9176888 -0.28944001 29
1.4262583 1.9044396 -0.20481631 29
1.4240468 1.9007951 -0.12205861 30
1.4230813 1.8988156 -0.040344223 29
1.422314 1.8971019 0.62464082 29
1.4231794 1.897566 0.53835046 31
1.4250958 1.8994304 0.45371762 30
1.428149 1.9028078 0.37034109 29
1.4234359 1.8958391 0.28639293 31
1.4289162 1.9024465 0.20481598 32
1.429686 1.9027796 0.12272782 29
1.4257271 1.8968213 0.040751368 28
1.1850872 1.573807 -0.51763833 4
1.3362244 1.7738744 -0.50389069 4
1.4349785 1.9042814 -0.45562431 13
1.423174 1.8879305 -0.36840346 11
1.4423438 1.9126658 -0.28944001 31
1.4358971 1.9034259 -0.2052521 29
1.4336809 1.8997983 -0.12231942 31
1.4327128 1.8978264 -0.040430613 28
1.4318382 1.8959795 0.62593406 29
1.4327312 1.8964738 0.53947437 30
1.4346769 1.8983603 0.45467082 29
1.4377606 1.9017506 0.37112242 28
1.4330387 1.8948172 0.2870023 30
1.4385535 1.9014194 0.20525178 31
1.4393324 1.901759 0.12298949 28
1.435357 1.8958185 0.040838629 28
1.1905737 1.5696608 -0.51763833 4
1.3424084 1.7691993 -0.50389069 4
1.4445845 1.9031703 -0.45657751 15
1.4297556 1.8829513 -0.36840346 10
1.452013 1.9115711 -0.29004934 29
1.4455462 1.9023681 -0.20568787 30
1.4433253 1.8987573 -0.12258023 30
1.4423548 1.8967934 -0.040517002 29
1.4413719 1.8948143 0.62722731 28
1.4422927 1.8953383 0.54059827 31
1.4442675 1.8972461 0.45562398 30
1.4473822 1.9006494 0.37190372 29
1.4396442 1.8898035 0.2870023 30
1.4482011 1.9003478 0.20568755 31
1.4489893 1.900694 0.12325118 32
1.4449975 1.8947718 0.04092589 29
1.1960455 1.5654953 -0.51763833 4
1.3515341 1.7683731 -0.50501537 4
1.4542003 1.9020154 -0.45753068 15
1.4393196 1.8818716 -0.36918563 11
1.4616927 1.9104326 -0.29065871 31
1.4552053 1.9012661 -0.20612365 30
1.4499444 1.8937076 -0.12258023 27
1.4520069 1.8957157 -0.040603392 30
1.4509147 1.8936051 0.62852055 28
1.4518639 1.894159 0.54172218 29
1.453868 1.8960882 0.45657721 31
1.4570137 1.8995041 0.37268505 28
1.4492531 1.8887039 0.28761163 30
1.4578586 1.8992324 0.20612334 32
1.4556152 1.8956246 0.12325118 30
1.4516027 1.8897164 0.04092589 28
1.1985574 1.5574832 -0.51634425 4
1.3576986 1.7636447 -0.50501537 4
1.4638255 1.9008166 -0.4584839 16
1.4458797 1.8768359 -0.36918563 12
1.4713818 1.9092495 -0.29126805 31
1.4648741 1.9001194 -0.20655942 30
1.4595952 1.8925887 -0.12284105 31
1.4586154 1.8906358 -0.040603392 30
1.4604667 1.8923525 0.62981385 29
1.4614443 1.8929361 0.54284608 30
1.4634777 1.8948861 0.45753035 28
1.4666547 1.8983145 0.37346631 28
1.4558371 1.8836335 0.28761163 30
1.467526 1.8980724 0.20655911 32
1.4652779 1.8944814 0.12351285 30
1.4612495 1.8885918 0.041013151 29
1.2039866 1.55329 -0.51634425 4
1.3638467 1.7588947 -0.50501537 3
1.4734598 1.8995737 -0.45943707 15
1.4554499 1.8756793 -0.36996782 10
1.4780372 1.9041018 -0.29126805 30
1.4745529 1.8989288 -0.20699522 30
1.4661927 1.8874824 -0.12284105 29
1.4682736 1.8894804 -0.040689785 30
1.4670633 1.8872429 0.62981385 27
1.4710337 1.8916689 0.54396999 30
1.4700832 1.8897661 0.45753035 29
1.4763051 1.897081 0.37424764 28
1.4654518 1.8824562 0.288221 30
1.4741426 1.8929383 0.20655911 32
1.4749506 1.8932941 0.12377454 30
1.470906 1.8874228 0.041100416 27
1.2064292 1.545271 -0.51505011 4
1.369978 1.7541232 -0.50501537 4
1.4831036 1.8982865 -0.46039027 16
1.4680705 1.8783692 -0.37153217 10
1.4877315 1.9028406 -0.29187742 33
1.484241 1.8976934 -0.20743097 28
1.4758489 1.8862852 -0.12310185 31
1.4779414 1.8882804 -0.040776171 29
1.4766198 1.8859135 0.63110709 28
1.4806322 1.8903583 0.54509389 31
1.4796982 1.8884869 0.45848358 30
1.4829183 1.8919162 0.37424764 27
1.4750761 1.8812346 0.28883031 30
1.4838153 1.8917003 0.20699489 31
1.4846328 1.8920623 0.12403621 29
1.4805721 1.8862094 0.041187678 28
1.2148013 1.5448468 -0.51634425 4
1.3760926 1.7493305 -0.50501537 3
1.492756 1.896955 -0.46134344 14
1.4776729 1.8771136 -0.3723143 11
1.4974349 1.9015347 -0.29248673 31
1.4939387 1.8964138 -0.20786677 30
1.4855151 1.8850441 -0.12336266 30
1.4845238 1.8831099 -0.040776171 31
1.4861846 1.88454 0.63240033 28
1.4872218 1.8851784 0.54509389 29
1.4893219 1.887163 0.45943674 28
1.4925733 1.8906044 0.37502894 28
1.4847096 1.879969 0.28943968 30
1.4934973 1.8904176 0.20743066 33
1.4912282 1.8868684 0.12403621 29
1.4871472 1.8810297 0.041187678 29
1.2201865 1.540597 -0.51634425 4
1.3821906 1.7445163 -0.50501537 3
1.5024174 1.8955796 -0.46229663 15
1.4903527 1.8796836 -0.37387866 10
1.5071476 1.9001844 -0.2930961 32
1.5005493 1.8911873 -0.20786677 29
1.4920862 1.879847 -0.12336266 30
1.4941968 1.8818318 -0.040862564 27
1.4957578 1.8831227 0.63369364 26
1.496824 1.8837899 0.5462178 28
1.4989545 1.8857954 0.46038994 27
1.5022374 1.8892485 0.37581027 27
1.4974416 1.8825426 0.29065838 30
1.5031884 1.8890903 0.20786645 32
1.5009153 1.8855582 0.12429789 28
1.4968182 1.8797379 0.041274939 27
1.2315803 1.5438793 -0.5189324 4
1.3882717 1.739681 -0.50501537 3
1.5120871 1.8941593 -0.4632498 12
1.5030681 1.8821876 -0.37544301 18
1.5168685 1.898789 -0.29370543 29
1.510251 1.889829 -0.20830254 28
1.5017565 1.8785273 -0.12362346 25
1.5038786 1.8805087 -0.040948953 28
1.5053391 1.8816615 0.63498682 28
1.5033906 1.8785535 0.5462178 29
1.5085955 1.8843831 0.46134311 27
1.51191 1.8878477 0.37659156 26
1.5071068 1.8811772 0.29126769 30
1.5128883 1.8877184 0.20830221 31
1.5106111 1.8842031 0.12455957 26
1.5064985 1.8784014 0.0413622 27
1.2188121 1.516981 -0.51116782 3
1.3943359 1.7348243 -0.50501537 4
1.5217656 1.8926951 -0.46420303 13
1.5127243 1.8807777 -0.3762252 14
1.5265983 1.8973492 -0.2943148 31
1.5199618 1.8884259 -0.20873833 30
1.5114365 1.8771631 -0.12388428 29
1.5104337 1.8752477 -0.040948953 29
1.5118982 1.8763956 0.63498682 28
1.5129962 1.8770875 0.5473417 28
1.5182449 1.8829265 0.46229634 28
1.5215912 1.8864026 0.37737289 31
1.5167804 1.8797671 0.29187706 26
1.5225972 1.8863021 0.208738 34
1.5203159 1.8828034 0.12482125 26
1.5161874 1.8770205 0.041449465 25
1.2514427 1.5465069 -0.52281469 3
1.4034485 1.7337334 -0.50614017 4
1.5283631 1.8873715 -0.46420303 13
1.5223887 1.8793231 -0.37700737 14
1.5332121 1.892009 -0.2943148 28
1.5265443 1.8831089 -0.20873833 29
1.5211245 1.8757539 -0.12414508 25
1.5201199 1.8738463 -0.041035343 30
1.5214823 1.8748568 0.63628012 26
1.5226102 1.8755776 0.54846561 31
1.5279025 1.8814255 0.46324947 25
1.5312806 1.884913 0.37815419 28
1.5264627 1.8783122 0.2924864 29
1.5323143 1.8848405 0.20917377 23
1.5300293 1.8813589 0.12508292 25
