# .PCD v0.7 - Point Cloud Data file format
VERSION 0.7
FIELDS x y z intensity
SIZE 4 4 4 4
TYPE F F F F
COUNT 1 1 1 1
WIDTH 1395
HEIGHT 1
VIEWPOINT 0 0 0 1 0 0 0
POINTS 1395
DATA ascii
-0.43486086 -3.2418656 -0.28282082 13
-0.4311648 -3.2100599 -0.16717857 8
-0.468227 -3.4813855 -0.060041185 7
-1.0249058 -7.6103773 2.0459251 7
nan nan nan 0
-0.73481828 -5.4419875 1.0589921 6
-0.66087067 -4.8879066 0.77427852 5
-0.62365562 -4.6066022 0.56608307 13
-0.5885973 -4.3419456 0.37999907 15
-0.55317312 -4.0752864 0.21353069 11
-0.5114634 -3.7630782 0.065621048 9
-0.2657235 -1.9423505 -0.51505011 4
-0.31065893 -2.2678664 -0.51963723 3
-0.37737346 -2.7513227 -0.53187943 3
-0.40365943 -2.9391561 -0.46382856 6
-0.4162761 -3.0271018 -0.37048322 9
-0.44617441 -3.2403278 -0.28282082 12
-0.4423674 -3.208535 -0.16717857 7
-0.48037642 -3.4797299 -0.060041185 8
-1.0514647 -7.6067533 2.0459251 7
nan nan nan 0
-0.75380987 -5.4393897 1.0589921 7
-0.67724985 -4.8806782 0.77349722 5
-0.63973182 -4.6043973 0.56608307 12
-0.60374987 -4.3398643 0.37999907 13
-0.56739521 -4.0733309 0.21353069 12
-0.52390528 -3.7563186 0.06553378 10
-0.27250192 -1.9414111 -0.51505011 3
-0.31857339 -2.266768 -0.51963723 3
-0.38765901 -2.7548492 -0.53283262 3
-0.41391656 -2.9377291 -0.46382856 7
-0.42684013 -3.0256305 -0.37048322 9
-0.45748258 -3.2387507 -0.28282082 12
-0.45356455 -3.2069714 -0.16717857 8
-0.49252 -3.4780319 -0.060041185 9
-1.0780108 -7.6030369 2.0459251 7
nan nan nan 0
-0.77279228 -5.4367251 1.0589921 7
-0.69428247 -4.8782845 0.77349722 5
-0.65510017 -4.5972228 0.56547374 10
-0.61889517 -4.3377304 0.37999907 13
-0.58090413 -4.0663819 0.21326901 11
-0.53701407 -3.7544668 0.06553378 10
-0.27927706 -1.940448 -0.51505011 3
-0.32717881 -2.2704644 -0.52076203 2
-0.39797378 -2.758337 -0.53378582 4
-0.42416865 -2.9362664 -0.46382856 6
-0.43739894 -3.024122 -0.37048322 9
-0.46878514 -3.237134 -0.28282082 13
-0.46403971 -3.2004271 -0.16691776 7
-0.50465763 -3.4762914 -0.060041185 10
-1.1045438 -7.5992279 2.0459251 8
nan nan nan 0
-0.79176527 -5.4339943 1.0589921 7
-0.71130663 -4.8758311 0.77349722 5
-0.67114347 -4.5949082 0.56547374 10
-0.63331217 -4.330615 0.37956327 13
-0.59509492 -4.0643296 0.21326901 12
-0.55011636 -3.7525694 0.06553378 11
-0.28604877 -1.9394614 -0.51505011 3
-0.33510223 -2.2693083 -0.52076203 3
-0.4083176 -2.7617867 -0.53473902 4
-0.43441552 -2.934768 -0.46382856 7
-0.44795242 -3.0225766 -0.37048322 9
-0.48008195 -3.2354782 -0.28282082 12
-0.47520846 -3.1987879 -0.16691776 9
-0.51678908 -3.4745088 -0.060041185 9
-1.130352 -7.5905485 2.0446317 7
-1.1422317 -7.6611457 1.7780176 5
-0.81072867 -5.4311976 1.0589921 6
-0.72832215 -4.8733187 0.77349722 5
-0.68717861 -4.5925374 0.56547374 10
-0.64842498 -4.3283777 0.37956327 15
-0.60853779 -4.0572891 0.21300732 14
-0.56395435 -3.7555704 0.065621048 10
-0.29353839 -1.9432265 -0.51634425 4
-0.34302151 -2.2681248 -0.52076203 2
-0.42016 -2.7749035 -0.53759855 4
-0.44391701 -2.9283514 -0.4630464 6
-0.45850044 -3.0209947 -0.37048322 9
-0.49062473 -3.2288582 -0.28238505 14
-0.48637146 -3.1971097 -0.16691776 8
-0.52891421 -3.4726834 -0.060041185 8
-1.156841 -7.5865564 2.0446317 7
-1.168232 -7.6522951 1.7768937 5
-0.82968211 -5.4283347 1.0589921 7
-0.7445817 -4.8658648 0.77271587 5
-0.70320535 -4.5901108 0.56547374 10
-0.66352987 -4.3260884 0.37956327 17
-0.6226967 -4.0551405 0.21300732 18
-0.57706028 -3.7535789 0.065621048 11
-0.30031973 -1.9421901 -0.51634425 4
-0.35168201 -2.271728 -0.52188677 2
-0.43134713 -2.7831206 -0.53950495 4
-0.45413616 -2.9267838 -0.4630464 6
-0.4690429 -3.0193758 -0.37048322 10
-0.50189257 -3.2271259 -0.28238505 15
-0.49752843 -3.1953924 -0.16691776 9
-0.54103291 -3.4708161 -0.060041185 9
-1.1825712 -7.5776997 2.0433385 7
nan nan nan 0
-0.84786695 -5.4205556 1.0580389 6
-0.76156223 -4.863236 0.77271587 6
-0.71922356 -4.5876284 0.56547374 11
-0.6778543 -4.3188248 0.37912747 16
-0.63607299 -4.0480103 0.21274567 16
-0.59015918 -3.7515416 0.065621048 12
-0.30709741 -1.9411299 -0.51634425 4
-0.36113393 -2.2801104 -0.52413625 2
-0.44644013 -2.8155322 -0.54617727 4
-0.46357551 -2.9203033 -0.46226421 6
-0.47880074 -3.0128188 -0.36987385 10
-0.5123716 -3.2204351 -0.28194925 16
-0.50867945 -3.1936362 -0.16691776 8
-0.55314505 -3.4689064 -0.060041185 8
-1.209015 -7.5735254 2.0433385 6
nan nan nan 0
-0.86678302 -5.4175634 1.0580389 8
-0.77853346 -4.860548 0.77271587 5
-0.73523301 -4.5850897 0.56547374 11
-0.69292575 -4.3164325 0.37912747 15
-0.65019929 -4.0457649 0.21274567 28
-0.60325092 -3.7494588 0.065621048 11
-0.31387135 -1.9400461 -0.51634425 4
-0.36986971 -2.2836452 -0.52526104 2
-0.45547986 -2.8091118 -0.54522407 4
-0.47376645 -2.9186673 -0.46226421 6
-0.48931453 -3.0111294 -0.36987385 10
-0.52360994 -3.218627 -0.28194925 11
-0.51982421 -3.1918411 -0.16691776 9
-0.56444597 -3.4620204 -0.0599548 8
-1.2346663 -7.5644927 2.0420454 7
nan nan nan 0
-0.88568854 -5.4145045 1.0580389 7
-0.79549515 -4.857801 0.77271587 6
-0.75123346 -4.5824952 0.56547374 11
-0.70798868 -4.3139873 0.37912747 13
-0.66350818 -4.0385437 0.21248397 17
-0.61633533 -3.7473302 0.065621048 11
-0.32064146 -1.9389386 -0.51634425 4
-0.38022596 -2.2967594 -0.52863526 2
-0.46448019 -2.8026624 -0.54427093 4
-0.48395157 -2.9169958 -0.46226421 6
-0.49982235 -3.0094028 -0.36987385 10
-0.53402489 -3.2118661 -0.28151348 10
-0.53178245 -3.1949327 -0.16717857 8
-0.57652724 -3.4600291 -0.0599548 8
-1.2610638 -7.5601368 2.0420454 7
nan nan nan 0
-0.90377414 -5.406539 1.0570859 7
-0.81244725 -4.8549943 0.77271587 6
-0.76722479 -4.579845 0.56547374 11
-0.72221917 -4.3065772 0.3786917 25
-0.67760122 -4.0362029 0.21248397 16
-0.62941217 -3.7451558 0.065621048 13
-0.32660306 -1.9330455 -0.51505011 4
-0.38824084 -2.2954183 -0.52863526 2
-0.47426051 -2.801024 -0.54427093 4
-0.49413085 -2.9152887 -0.46226421 6
-0.51115423 -3.0125325 -0.37048322 11
-0.54523319 -3.2099826 -0.28151348 11
-0.54293162 -3.1930568 -0.16717857 8
-0.58860153 -3.4579957 -0.0599548 9
-1.2874459 -7.5556889 2.0420454 7
nan nan nan 0
-0.92264098 -5.4033513 1.0570859 7
-0.82938933 -4.852129 0.77271587 6
-0.7832067 -4.5771394 0.56547374 11
-0.73724753 -4.3040299 0.3786917 26
-0.69168609 -4.033813 0.21248397 15
-0.64248139 -3.7429361 0.065621048 16
-0.33334866 -1.9318936 -0.51505011 3
-0.39459252 -2.2844474 -0.52638578 2
-0.48403502 -2.7993515 -0.54427093 4
-0.50514638 -2.9184122 -0.4630464 6
-0.52166682 -3.01073 -0.37048322 10
-0.55558354 -3.2031522 -0.28107771 8
-0.55407417 -3.1911421 -0.16717857 7
-0.60066855 -3.45592 -0.0599548 8
-1.3138124 -7.5511489 2.0420454 7
nan nan nan 0
-0.94149655 -5.4000978 1.0570859 8
-0.84717047 -4.8540692 0.77349722 6
-0.79917914 -4.5743771 0.56547374 10
-0.75226688 -4.3014302 0.3786917 23
-0.70576251 -4.031374 0.21248397 13
-0.65554273 -3.7406704 0.065621048 16
-0.33975321 -1.9307774 -0.51505011 3
-0.40007871 -2.2736003 -0.52413625 2
-0.49197555 -2.7929831 -0.54331768 4
-0.51431233 -2.9168112 -0.4630464 6
-0.52939749 -2.9993021 -0.36926451 12
-0.56564379 -3.201391 -0.28107771 8
-0.56496632 -3.1943028 -0.16743939 7
-0.61152267 -3.454016 -0.0599548 10
-1.3375285 -7.5469842 2.0420454 6
nan nan nan 0
-0.95845675 -5.3971133 1.0570859 6
-0.86241579 -4.8513837 0.77349722 6
-0.81267655 -4.566958 0.56486434 11
-0.76577652 -4.299046 0.3786917 20
-0.71842396 -4.0291367 0.21248397 19
-0.66641271 -3.7336712 0.06553378 9
-0.3470068 -1.934394 -0.51634425 3
-0.4062905 -2.2625995 -0.52188677 3
-0.5008536 -2.7864182 -0.54236454 4
-0.52449077 -2.9149978 -0.4630464 7
-0.53810447 -2.9876673 -0.36804584 15
-0.57593149 -3.194495 -0.28064194 7
-0.5761131 -3.1923115 -0.16743939 7
-0.62357575 -3.4518602 -0.0599548 8
-1.3638642 -7.5422692 2.0420454 7
nan nan nan 0
-0.97729033 -5.3937345 1.0570859 8
-0.879345 -4.8483438 0.77349722 6
-0.82861328 -4.5640931 0.56486434 11
-0.78077829 -4.2963467 0.3786917 30
-0.73248392 -4.0266047 0.21248397 18
-0.67944157 -3.7313223 0.06553378 10
-0.35322419 -1.9283586 -0.51505011 3
-0.41282338 -2.2515113 -0.51963723 3
-0.51017684 -2.7797358 -0.54141134 4
-0.53517127 -2.9130559 -0.4630464 7
-0.54725605 -2.9759133 -0.36682713 13
-0.58763599 -3.1923625 -0.28064194 7
-0.58780962 -3.1901784 -0.16743939 7
-0.6362232 -3.4495513 -0.0599548 8
-1.3914988 -7.53722 2.0420454 7
nan nan nan 0
-0.99705285 -5.3901167 1.0570859 8
-0.89710921 -4.845088 0.77349722 6
-0.84533596 -4.5610256 0.56486434 11
-0.79651999 -4.2934561 0.3786917 19
-0.74723721 -4.0238929 0.21248397 14
-0.69311303 -3.7288067 0.06553378 10
-0.35995325 -1.9271139 -0.51505011 3
-0.42068014 -2.2500565 -0.51963723 3
-0.51897401 -2.7731137 -0.54045814 4
-0.54624569 -2.916024 -0.46382856 6
-0.55489671 -2.9593515 -0.36499909 13
-0.597857 -3.1853964 -0.28020614 6
-0.59894186 -3.188107 -0.16743939 9
-0.64826053 -3.4473095 -0.0599548 9
-1.4178002 -7.5323167 2.0420454 6
nan nan nan 0
-1.0158617 -5.3866034 1.0570859 8
-0.91401625 -4.8419275 0.77349722 6
-0.86125171 -4.5580468 0.56486434 11
-0.8115021 -4.2906494 0.3786917 23
-0.76127863 -4.0212598 0.21248397 14
-0.70519406 -3.7214532 0.065446518 8
-0.36667794 -1.9258456 -0.51505011 3
-0.42853171 -2.2485745 -0.51963723 2
-0.52773106 -2.7664638 -0.53950495 4
-0.55642122 -2.9140995 -0.46382856 7
-0.56429183 -2.9525223 -0.36438975 11
-0.60897255 -3.18329 -0.28020614 6
-0.61006677 -3.185997 -0.16743939 7
-0.66028994 -3.4450257 -0.0599548 8
-1.4431742 -7.5225782 2.0407519 7
nan nan nan 0
-1.0346583 -5.3830247 1.0570859 8
-0.93091214 -4.8387074 0.77349722 6
-0.87715703 -4.5550132 0.56486434 12
-0.82647431 -4.2877908 0.3786917 35
-0.77531087 -4.0185781 0.21248397 17
-0.71818 -3.7189689 0.065446518 11
-0.37431809 -1.9292952 -0.51634425 3
-0.43544933 -2.2422824 -0.51851249 3
-0.53644806 -2.7597866 -0.53855181 4
-0.56658995 -2.9121392 -0.46382856 7
-0.57459462 -2.9505346 -0.36438975 10
-0.62008053 -3.181145 -0.28020614 6
-0.62118423 -3.1838481 -0.16743939 7
-0.67326945 -3.4476066 -0.060041185 8
-1.469424 -7.5174952 2.0407519 7
nan nan nan 0
-1.0534424 -5.3793802 1.0570859 7
-0.9477967 -4.8354282 0.77349722 7
-0.89305168 -4.5519233 0.56486434 10
-0.84143645 -4.2848797 0.3786917 62
-0.78933358 -4.0158472 0.21248397 20
-0.7311573 -3.7164395 0.065446518 11
-0.38105029 -1.9279768 -0.51634425 3
-0.44327369 -2.2407486 -0.51851249 2
-0.54607826 -2.7578974 -0.53855181 4
-0.57675177 -2.9101439 -0.46382856 6
-0.58489043 -2.9485109 -0.36438975 8
-0.63118106 -3.178961 -0.28020614 6
-0.63229418 -3.1816604 -0.16743939 6
-0.68529975 -3.4452353 -0.060041185 9
-1.4956561 -7.51232 2.0407519 7
nan nan nan 0
-1.0731734 -5.3804836 1.0580389 7
-0.96466976 -4.8320904 0.77349722 7
-0.90893543 -4.5487781 0.56486434 12
-0.85638833 -4.2819161 0.3786917 49
-0.80334669 -4.0130677 0.21248397 17
-0.74412566 -3.7138646 0.065446518 11
-0.38777786 -1.926635 -0.51634425 3
-0.45109266 -2.2391877 -0.51851249 2
-0.55473161 -2.7511628 -0.53759855 4
-0.58592957 -2.9032724 -0.4630464 6
-0.59517902 -2.9464512 -0.36438975 7
-0.64227384 -3.1767385 -0.28020614 6
-0.64339638 -3.1794336 -0.16743939 6
-0.69732171 -3.442822 -0.060041185 10
-1.5218698 -7.5070534 2.0407519 7
-1.539326 -7.5863605 1.7768937 4
-1.0919483 -5.3767047 1.0580389 7
-0.98153102 -4.8286939 0.77349722 7
-0.92480808 -4.545578 0.56486434 12
-0.87033588 -4.2740202 0.3782559 35
-0.81735003 -4.0102386 0.21248397 25
-0.75608563 -3.7063458 0.065359257 9
-0.39547017 -1.9300009 -0.51763833 3
-0.45890617 -2.2375996 -0.51851249 2
-0.56433159 -2.7492099 -0.53759855 3
-0.5960604 -2.9012094 -0.4630464 7
-0.60546046 -2.9443557 -0.36438975 7
-0.65335882 -3.1744771 -0.28020614 6
-0.65449077 -3.1771686 -0.16743939 7
-0.70933509 -3.440367 -0.060041185 12
-1.5480652 -7.5016952 2.0407519 8
-1.5648125 -7.57617 1.7757697 4
-1.1107099 -5.37286 1.0580389 6
-0.99737966 -4.8204017 0.77271587 7
-0.94066942 -4.5423222 0.56486434 12
-0.88524973 -4.270956 0.3782559 24
-0.83134335 -4.0073614 0.21248397 18
-0.76901859 -3.7036841 0.065359257 8
-0.40220475 -1.9286088 -0.51763833 3
-0.46671405 -2.2359841 -0.51851249 3
-0.5749284 -2.7520278 -0.53855181 4
-0.60618383 -2.899111 -0.4630464 6
-0.61573452 -2.9422243 -0.36438975 7
-0.66443586 -3.1721771 -0.28020614 6
-0.66557717 -3.1748645 -0.16743939 8
-0.72133994 -3.4378698 -0.060041185 11
-1.5742415 -7.4962459 2.0407519 7
nan nan nan 0
-1.1294578 -5.3689504 1.0580389 7
-1.0142 -4.8168907 0.77271587 7
-0.95651937 -4.5390105 0.56486434 11
-0.89912486 -4.2629666 0.37782016 12
-0.84429526 -3.9995492 0.21222229 13
-0.78194213 -3.7009771 0.065359257 7
-0.40893438 -1.927193 -0.51763833 3
-0.47451624 -2.2343411 -0.51851249 2
-0.58453131 -2.7500041 -0.53855181 3
-0.61732745 -2.9018075 -0.46382856 6
-0.626001 -2.940057 -0.36438975 7
-0.67550474 -3.1698384 -0.28020614 6
-0.67769694 -3.1774051 -0.16770019 7
-0.73333591 -3.4353311 -0.060041185 9
-1.6003988 -7.490705 2.0407519 7
nan nan nan 0
-1.1481922 -5.364975 1.0580389 6
-1.0310079 -4.8133216 0.77271587 6
-0.97235763 -4.5356441 0.56486434 13
-0.91399986 -4.2598019 0.37782016 12
-0.85825115 -3.9965777 0.21222229 12
-0.79485625 -3.698225 0.065359257 7
-0.41565904 -1.9257538 -0.51763833 3
-0.48334137 -2.2374332 -0.51963723 3
-0.594127 -2.747947 -0.53855181 4
-0.62745285 -2.8996351 -0.46382856 7
-0.6352095 -2.9330037 -0.36378038 7
-0.6865654 -3.1674612 -0.28020614 5
-0.68878406 -3.1750202 -0.16770019 7
-0.745323 -3.4327502 -0.060041185 9
-1.6265364 -7.4850731 2.0407519 7
nan nan nan 0
-1.1669124 -5.3609343 1.0580389 6
-1.0478033 -4.8096933 0.77271587 7
-0.98924136 -4.5370712 0.56547374 12
-0.92780185 -4.251719 0.37738436 10
-0.87113118 -3.9886794 0.2119606 8
-0.8077606 -3.6954279 0.065359257 6
-0.42204282 -1.9243649 -0.51763833 3
-0.49036807 -2.2359037 -0.51963723 2
-0.60275698 -2.7460668 -0.53855181 4
-0.63655925 -2.8976493 -0.46382856 7
-0.64442062 -2.9309938 -0.36378038 7
-0.69651294 -3.1652887 -0.28020614 5
-0.69875526 -3.1728404 -0.16770019 8
-0.75502759 -3.4255099 -0.0599548 8
-1.6500434 -7.4799261 2.0407519 8
-1.7728384 -8.0299139 1.8881602 3
-1.1848075 -5.3620348 1.0589921 6
-1.0629081 -4.8063779 0.77271587 6
-1.0034901 -4.5339413 0.56547374 12
-0.94223171 -4.2536464 0.37782016 8
-0.88365769 -3.9859231 0.2119606 9
-0.8193661 -3.692872 0.065359257 9
-0.42842188 -1.9229548 -0.51763833 3
-0.49816984 -2.2341785 -0.51963723 2
-0.61126983 -2.7391555 -0.53759855 4
-0.6466701 -2.8954098 -0.46382856 7
-0.65464777 -2.9287264 -0.36378038 7
-0.70647019 -3.1579773 -0.27977037 6
-0.70982629 -3.170382 -0.16770019 8
-0.76698023 -3.4228535 -0.0599548 8
-1.6761431 -7.4741206 2.0407519 7
-1.7997901 -8.0189228 1.8870363 12
-1.2035173 -5.3578668 1.0589921 6
-1.079679 -4.8026381 0.77271587 7
-1.0193104 -4.5304108 0.56547374 13
-0.95926225 -4.2600498 0.3786917 7
-0.89756578 -3.9828143 0.2119606 8
-0.83225161 -3.6899896 0.065359257 8
-0.43439946 -1.9166614 -0.51634425 3
-0.50743288 -2.2370887 -0.52076203 2
-0.62021863 -2.73211 -0.53664535 3
-0.65727788 -2.8930202 -0.46382856 7
-0.66537774 -2.9263074 -0.36378038 7
-0.72025043 -3.1650805 -0.28064194 5
-0.72144151 -3.1677592 -0.16770019 10
-0.77952045 -3.4200196 -0.0599548 9
-1.7035259 -7.4679275 2.0407519 7
-1.7868786 -7.8270288 1.8432041 2
-1.2231468 -5.3534193 1.0589921 6
-1.0983752 -4.803463 0.77349722 7
-1.0359083 -4.5266442 0.56547374 13
-0.97598171 -4.2613606 0.37912747 15
-0.91215754 -3.9794977 0.2119606 9
-0.84577054 -3.6869144 0.065359257 7
-0.44108722 -1.9151334 -0.51634425 3
-0.51523864 -2.2353039 -0.52076203 3
-0.6286484 -2.7251461 -0.53569221 3
-0.66737247 -2.8907082 -0.46382856 6
-0.67558837 -2.9239669 -0.36378038 7
-0.73578292 -3.1819587 -0.28238505 5
-0.73249471 -3.1652217 -0.16770019 7
-0.79258174 -3.4221478 -0.060041185 8
-1.7295835 -7.461935 2.0407519 7
nan nan nan 0
-1.2418263 -5.3491173 1.0589921 5
-1.1151357 -4.7995996 0.77349722 7
-1.051703 -4.5230007 0.56547374 10
-0.99310857 -4.2676306 0.37999907 14
-0.92604297 -3.9762895 0.2119606 8
-0.85976994 -3.6888084 0.065446518 7
-0.44776961 -1.913582 -0.51634425 3
-0.52192736 -2.2287481 -0.51963723 3
-0.63479716 -2.7085984 -0.53283262 3
-0.67745882 -2.888361 -0.46382856 7
-0.68579084 -2.9215908 -0.36378038 6
-0.74916375 -3.189069 -0.28325659 11
-0.74353892 -3.1626456 -0.16770019 7
-0.80452245 -3.4193604 -0.060041185 8
-1.7556199 -7.4558525 2.0407519 7
-1.8671799 -7.9234324 1.8690538 2
-1.2604907 -5.3447499 1.0589921 6
-1.1318827 -4.7956781 0.77349722 8
-1.0674847 -4.5193019 0.56547374 10
-1.0079993 -4.2641382 0.37999907 16
-0.93991715 -3.9730327 0.2119606 8
-0.87264103 -3.6857848 0.065446518 7
-0.45332971 -1.9073087 -0.51505011 3
-0.52970397 -2.2269127 -0.51963723 3
-0.64652139 -2.7159159 -0.53473902 3
-0.68753695 -2.8859787 -0.46382856 8
-0.6959849 -2.9191792 -0.36378038 6
-0.7637592 -3.2009692 -0.28456393 11
-0.75457406 -3.1600306 -0.16770019 7
-0.81645334 -3.4165313 -0.060041185 9
-1.7816349 -7.4496789 2.0407519 7
nan nan nan 0
-1.2791395 -5.3403177 1.0589921 7
-1.1486157 -4.7916975 0.77349722 7
-1.0832535 -4.5155482 0.56547374 11
-1.0228778 -4.2605934 0.37999907 11
-0.95261347 -3.9648731 0.21169895 9
-0.8855015 -3.6827161 0.065446518 8
-0.45998469 -1.9057146 -0.51505011 3
-0.53518629 -2.2155788 -0.51738775 2
-0.65830439 -2.7231841 -0.53664535 3
-0.69760668 -2.8835611 -0.46382856 7
-0.7061705 -2.9167321 -0.36378038 6
-0.77727383 -3.2079656 -0.2854355 12
-0.76560003 -3.1573775 -0.16770019 6
-0.82719541 -3.4088023 -0.0599548 9
-1.8076284 -7.4434142 2.0407519 7
nan nan nan 0
-1.297773 -5.3358197 1.0589921 7
-1.1653349 -4.7876592 0.77349722 8
-1.0990092 -4.5117397 0.56547374 10
-1.0365641 -4.2521577 0.37956327 12
-0.96644771 -3.9615235 0.21169895 8
-0.89835119 -3.6796029 0.065446518 7
-0.46663409 -1.9040973 -0.51505011 3
-0.54175633 -2.2089653 -0.51626295 2
-0.67014605 -2.7304034 -0.53855181 3
-0.70766801 -2.8811085 -0.46382856 7
-0.7175321 -2.9190683 -0.36438975 6
-0.78846699 -3.2052329 -0.2854355 11
-0.77661669 -3.1546857 -0.16770019 7
-0.83908927 -3.405894 -0.0599548 7
-1.8335998 -7.4370594 2.0407519 7
nan nan nan 0
-1.3163905 -5.3312573 1.0589921 7
-1.1820399 -4.7835622 0.77349722 8
-1.1147513 -4.5078754 0.56547374 11
-1.0514005 -4.2485137 0.37956327 9
-0.98147041 -3.9629724 0.2119606 6
-0.91118997 -3.6764445 0.065446518 6
-0.47327778 -1.9024569 -0.51505011 3
-0.54475588 -2.1881506 -0.51176393 3
-0.68560576 -2.7518611 -0.54331768 3
-0.71772063 -2.8786206 -0.46382856 8
-0.72771716 -2.9165461 -0.36438975 7
-0.79965055 -3.202461 -0.2854355 12
-0.78641343 -3.1471117 -0.16743939 6
-0.85097301 -3.4029443 -0.0599548 9
-1.8595488 -7.4306135 2.0407519 7
nan nan nan 0
-1.3349921 -5.3266296 1.0589921 6
-1.1987303 -4.779407 0.77349722 9
-1.1304799 -4.5039573 0.56547374 10
-1.0662243 -4.2448173 0.37956327 8
-0.99773234 -3.9692073 0.21248397 4
-0.92401761 -3.6732416 0.065446518 6
-0.47873345 -1.8961107 -0.51375604 3
-0.55716449 -2.2051294 -0.51626295 3
-0.69280094 -2.739934 -0.54141134 3
-0.72897595 -2.8808854 -0.46461076 7
-0.7378934 -2.9139881 -0.36438975 6
-0.81082433 -3.1996503 -0.2854355 12
-0.7973941 -3.1443474 -0.16743939 6
-0.86284631 -3.3999531 -0.0599548 9
-1.8866639 -7.4287581 2.0420454 7
nan nan nan 0
-1.3535774 -5.3219376 1.0589921 7
-1.2154064 -4.7751937 0.77349722 8
-1.1461948 -4.4999833 0.56547374 10
-1.081035 -4.2410698 0.37956327 8
-1.0128156 -3.9705389 0.21274567 15
-0.93683392 -3.6699939 0.065446518 5
-0.48534921 -1.894428 -0.51375604 3
-0.56727833 -2.2126098 -0.51851249 3
-0.70602036 -2.7517619 -0.54427093 3
-0.73902768 -2.8783233 -0.46461076 7
-0.74806058 -2.9113946 -0.36438975 7
-0.82322872 -3.2016246 -0.28587127 12
-0.81085366 -3.151216 -0.167961 5
-0.8759557 -3.4017618 -0.060041185 9
-1.9125836 -7.4221277 2.0420454 6
-1.931731 -7.4910216 1.7757697 6
-1.3721461 -5.3171797 1.0589921 7
-1.2333022 -4.7757039 0.77427852 8
-1.1618958 -4.495955 0.56547374 9
-1.0958325 -4.2372704 0.37956327 9
-1.0291711 -3.9766467 0.21326901 10
-0.94963896 -3.6667013 0.065446518 6
-0.49195904 -1.8927224 -0.51375604 3
-0.57622474 -2.2153311 -0.51963723 3
-0.7106759 -2.7302809 -0.54045814 3
-0.74907047 -2.8757262 -0.46461076 7
-0.75821871 -2.9087656 -0.36438975 5
-0.83439946 -3.1987314 -0.28587127 11
-0.82184845 -3.1483665 -0.167961 6
-0.88782477 -3.3986835 -0.060041185 8
-1.9384801 -7.4154062 2.0420454 6
-1.964033 -7.5077996 1.7813892 3
-1.3919412 -5.3171062 1.0599453 7
-1.2499652 -4.7713695 0.77427852 8
-1.1788411 -4.4966726 0.56608307 8
-1.1106166 -4.2334194 0.37956327 7
-1.0443139 -3.9778597 0.21353069 10
-0.96243227 -3.6633639 0.065446518 7
-0.49856287 -1.8909936 -0.51375604 3
-0.58643985 -2.2227275 -0.52188677 3
-0.71644312 -2.7135463 -0.53759855 3
-0.75910401 -2.8730938 -0.46461076 7
-0.76836759 -2.9061012 -0.36438975 6
-0.84556007 -3.1957994 -0.28587127 11
-0.83283335 -3.1454787 -0.167961 6
-0.89968294 -3.3955636 -0.060041185 9
-1.9643528 -7.4085946 2.0420454 7
nan nan nan 0
-1.4104929 -5.3122149 1.0599453 11
-1.2666126 -4.7669773 0.77427852 7
-1.1945301 -4.4925303 0.56608307 9
-1.1241064 -4.2247033 0.37912747 7
-1.056908 -3.9693649 0.21326901 11
-0.97650105 -3.6648128 0.06553378 6
-0.50516063 -1.8892417 -0.51375604 3
-0.59419507 -2.2206669 -0.52188677 2
-0.72210217 -2.696805 -0.53473902 3
-0.76912838 -2.8704264 -0.46461076 6
-0.77722174 -2.898608 -0.36378038 5
-0.85671031 -3.1928284 -0.28587127 11
-0.85287201 -3.1763089 -0.16978666 5
-0.91282755 -3.3972306 -0.060127579 7
-1.9914557 -7.4063563 2.0433385 7
nan nan nan 0
-1.4303036 -5.3119988 1.0608987 8
-1.283245 -4.762527 0.77427852 7
-1.2102047 -4.4883332 0.56608307 9
-1.1388465 -4.2207537 0.37912747 6
-1.0707573 -3.9656515 0.21326901 9
-0.9905917 -3.6662078 0.065621048 6
-0.51175225 -1.8874668 -0.51375604 3
-0.60155576 -2.2186842 -0.52188677 2
-0.72718531 -2.6801844 -0.53187943 3
-0.77864283 -2.8678603 -0.46461076 6
-0.78682971 -2.8960147 -0.36378038 6
-0.86729336 -3.1899698 -0.28587127 10
-0.8686437 -3.1927354 -0.17082989 10
-0.92408812 -3.3941848 -0.060127579 7
-2.016005 -7.3997111 2.0433385 6
nan nan nan 0
-1.447911 -5.3072267 1.0608987 6
-1.3003315 -4.7630095 0.77505988 6
-1.2250819 -4.4842954 0.56608307 9
-1.1528368 -4.2169542 0.37912747 7
-1.083902 -3.9620788 0.21326901 9
-1.0040638 -3.6677246 0.065708302 5
-0.51800847 -1.8857594 -0.51375604 3
-0.60671419 -2.2071757 -0.51963723 2
-0.73523474 -2.6728971 -0.53092623 3
-0.78864878 -2.8651247 -0.46461076 6
-0.79693383 -2.8932505 -0.36378038 6
-0.87974668 -3.1917248 -0.28630704 12
-0.88642144 -3.2137511 -0.17213394 10
-0.93593037 -3.3909385 -0.060127579 7
-2.0431087 -7.3972855 2.0446317 7
nan nan nan 0
-1.4664278 -5.3021402 1.0608987 6
-1.3169496 -4.7584414 0.77505988 7
-1.2407275 -4.4799914 0.56608307 10
-1.16888 -4.2177043 0.37956327 7
-1.0977256 -3.958271 0.21326901 10
-1.0181974 -3.6690149 0.065795571 5
-0.52458787 -1.8839397 -0.51375604 3
-0.61272329 -2.2004583 -0.51851249 2
-0.74409431 -2.6704445 -0.53092623 3
-0.79814553 -2.862494 -0.46461076 7
-0.80652386 -2.8905919 -0.36378038 6
-0.89032602 -3.1887898 -0.28630704 11
-0.90379173 -3.2348387 -0.17343798 9
-0.94851595 -3.3926306 -0.060213968 6
-2.0676277 -7.3904696 2.0446317 6
nan nan nan 0
-1.4840022 -5.2972479 1.0608987 6
-1.3327219 -4.7540483 0.77505988 6
-1.255577 -4.4758525 0.56608307 11
-1.18286 -4.2138047 0.37956327 7
-1.1108457 -3.9546094 0.21326901 9
-1.0317115 -3.6704309 0.065882832 65
-0.53083235 -1.8821899 -0.51375604 3
-0.61907732 -2.1936173 -0.51738775 2
-0.75207746 -2.6631074 -0.52997309 3
-0.80813265 -2.8596904 -0.46461076 7
-0.81795931 -2.8925343 -0.36438975 6
-0.90280777 -3.1904554 -0.28674284 12
-0.90963638 -3.2124472 -0.17239475 12
-0.96035266 -3.3892989 -0.060213968 7
-2.0947304 -7.3878536 2.0459251 7
nan nan nan 0
-1.5038246 -5.2967572 1.0618517 7
-1.3493086 -4.7493672 0.77505988 6
-1.27255 -4.4762163 0.56669247 9
-1.1989247 -4.2144413 0.37999907 8
-1.1260102 -3.9555104 0.21353069 10
-1.045887 -3.6716154 0.065970093 47
-0.53905529 -1.8848749 -0.51505011 3
-0.62711316 -2.1913335 -0.51738775 2
-0.76183319 -2.6603332 -0.52997309 3
-0.81996888 -2.8614564 -0.46539292 7
-0.82855558 -2.8895171 -0.36438975 6
-0.91449529 -3.187125 -0.28674284 11
-0.92002654 -3.2042923 -0.17213394 14
-0.97276866 -3.3857563 -0.060213968 7
-2.1231284 -7.3847685 2.0472183 6
nan nan nan 0
-1.523228 -5.2912097 1.0618517 9
-1.3680737 -4.749135 0.77584112 6
-1.2889476 -4.4715223 0.56669247 8
-1.2157438 -4.2148042 0.38043481 8
-1.1405003 -3.9513566 0.21353069 9
-1.0607241 -3.6725597 0.066057354 48
-0.54563147 -1.8829819 -0.51505011 3
-0.63340169 -2.1844518 -0.51626295 2
-0.76974708 -2.6529434 -0.52901983 3
-0.82995224 -2.8585768 -0.46539292 8
-0.83863682 -2.8866072 -0.36438975 6
-0.92561483 -3.1839135 -0.28674284 10
-0.92841655 -3.1914725 -0.17161232 10
-0.98597854 -3.3871403 -0.060300358 7
-2.1502438 -7.3819489 2.0485115 6
nan nan nan 0
-1.5416887 -5.2858601 1.0618517 9
-1.384643 -4.7443304 0.77584112 6
-1.3045483 -4.4669957 0.56669247 9
-1.2304487 -4.2105346 0.38043481 7
-1.1542863 -3.9473515 0.21353069 11
-1.0735373 -3.6688349 0.066057354 47
-0.55356133 -1.8856999 -0.51634425 3
-0.64239615 -2.1869023 -0.51738775 2
-0.77761877 -2.6455314 -0.52806669 3
-0.83992547 -2.8556623 -0.46539292 7
-0.85010898 -2.888423 -0.36499909 9
-0.93672317 -3.1806631 -0.28674284 9
-0.93531674 -3.1738436 -0.17082989 11
-0.99779588 -3.383678 -0.060300358 6
-2.1746318 -7.3697662 2.0472183 6
nan nan nan 0
-1.5615209 -5.2851539 1.0628049 9
-1.4025956 -4.744205 0.77662247 6
-1.3201331 -4.4624147 0.56669247 8
-1.2451386 -4.206214 0.38043481 8
-1.1680579 -3.9432981 0.21353069 10
-1.0863374 -3.6650651 0.066057354 46
-0.55876374 -1.8791267 -0.51505011 3
-0.6500259 -2.1846464 -0.51738775 2
-0.78544796 -2.6380963 -0.5271135 4
-0.84988844 -2.8527131 -0.46539292 7
-0.86018634 -2.885438 -0.36499909 7
-0.94782007 -3.1773739 -0.28674284 10
-0.9435336 -3.1609902 -0.17030828 10
-1.009601 -3.3801742 -0.060300358 7
-2.2017267 -7.3667579 2.0485115 6
nan nan nan 0
-1.5799601 -5.2796707 1.0628049 8
-1.4191474 -4.7392797 0.77662247 6
-1.3357017 -4.4577794 0.56669247 7
-1.2598135 -4.2018418 0.38043481 7
-1.1818156 -3.9391968 0.21353069 8
-1.1005617 -3.666039 0.066144615 48
-0.56564736 -1.8770661 -0.51505011 3
-0.65662217 -2.1775846 -0.51626295 2
-0.79369402 -2.630501 -0.5261603 4
-0.86033845 -2.8495789 -0.46539292 7
-0.87075621 -2.8822658 -0.36499909 8
-0.9609006 -3.1786466 -0.28717861 10
-0.95655847 -3.1622901 -0.17056909 11
-1.0219833 -3.3764513 -0.060300358 7
-2.2287126 -7.3586383 2.0485115 6
nan nan nan 0
-1.5993004 -5.2738442 1.0628049 6
-1.4379423 -4.7387724 0.77740377 6
-1.3534732 -4.4576025 0.56730175 8
-1.2752056 -4.1971965 0.38043481 7
-1.1962454 -3.934839 0.21353069 8
-1.113991 -3.6619806 0.066144615 44
-0.57078648 -1.870461 -0.51375604 3
-0.66421938 -2.1752794 -0.51626295 2
-0.80143714 -2.6230204 -0.5252071 4
-0.87028009 -2.8465586 -0.46539292 8
-0.88226366 -2.8839545 -0.36560845 7
-0.97199023 -3.1752727 -0.28717861 11
-0.97051585 -3.1684804 -0.17109071 9
-1.0337631 -3.3728633 -0.060300358 6
-1.754487 -5.720809 1.5919935 4
-1.7707227 -5.7701554 1.3835269 7
-1.6162591 -5.2635379 1.0618517 7
-1.4544749 -4.7337241 0.77740377 7
-1.3690249 -4.4528508 0.56730175 7
-1.2898488 -4.1927195 0.38043481 6
-1.2099733 -3.9306393 0.21353069 7
-1.1267734 -3.6580679 0.066144615 43
-0.57698601 -1.8685578 -0.51375604 3
-0.66961259 -2.1685271 -0.51513821 2
-0.80822468 -2.6158001 -0.52425396 4
-0.88067728 -2.8485284 -0.46617511 8
-0.89131957 -2.8811686 -0.36560845 6
-0.98196083 -3.1722035 -0.28717861 10
-0.98194253 -3.1701853 -0.17135151 11
-1.0443541 -3.3695989 -0.060300358 7
-1.7738813 -5.719882 1.5932868 7
-1.7816216 -5.7412977 1.3779074 7
-1.6342424 -5.2631216 1.0628049 7
-1.4708046 -4.7338476 0.77818513 8
-1.3830072 -4.4485278 0.56730175 6
-1.3030142 -4.1886468 0.38043481 5
-1.2223158 -3.9268186 0.21353069 7
-1.1397402 -3.6592848 0.066231877 47
-0.58605963 -1.8758539 -0.51634425 3
-0.67572439 -2.1615264 -0.51401347 2
-0.81441987 -2.6035938 -0.52234757 3
-0.89061511 -2.845437 -0.46617511 7
-0.90137124 -2.8780398 -0.36560845 6
-0.99451762 -3.1735098 -0.28761441 9
-0.99599057 -3.1762671 -0.17187312 12
-1.0561098 -3.3659329 -0.060300358 7
-1.7272867 -5.5016828 1.5337971 13
nan nan nan 0
-1.6526042 -5.2573848 1.0628049 7
-1.4858379 -4.7239738 0.77740377 7
-1.4000168 -4.4484067 0.56791109 7
-1.3206197 -4.1935749 0.38130638 6
-1.2360156 -3.922528 0.21353069 7
-1.1525065 -3.6552842 0.066231877 43
-0.59438819 -1.8782979 -0.51763833 3
-0.68364227 -2.1590352 -0.51401347 2
-0.82395709 -2.6005914 -0.52234757 4
-0.90103817 -2.8421535 -0.46617511 7
-0.91191381 -2.8747168 -0.36560845 6
-1.0061424 -3.1698434 -0.28761441 10
-1.0106483 -3.1821132 -0.17239475 11
-1.0699536 -3.3668039 -0.060386747 7
-1.6596229 -5.2191501 1.4562019 9
-1.6690294 -5.2455606 1.2610213 12
-1.643571 -5.1624298 1.0446944 5
-1.5061402 -4.7279067 0.77896637 7
-1.4163115 -4.4432454 0.56791109 9
-1.3405218 -4.2029428 0.38261372 5
-1.250384 -3.9179716 0.21353069 6
-1.1658961 -3.6510355 0.066231877 43
-0.60241419 -1.880811 -0.5189324 3
-0.68968773 -2.1519966 -0.51288873 2
-0.83452863 -2.6023734 -0.52330071 4
-0.9109537 -2.8389912 -0.46617511 8
-0.92345983 -2.876241 -0.36621779 6
-1.0187246 -3.1710541 -0.28805017 10
-1.0232779 -3.1833198 -0.17265557 12
-1.0816994 -3.3630486 -0.060386747 7
-1.6349205 -5.0799937 1.4186976 3
-1.666422 -5.174778 1.2452867 4
-1.6721185 -5.1893635 1.0513667 6
-1.5241498 -4.7273211 0.77974766 6
-1.4318128 -4.4382744 0.56791109 8
-1.3597748 -4.2124581 0.38392103 13
-1.2655872 -3.9183342 0.21379238 6
-1.1801709 -3.6517007 0.066319138 44
-0.60748661 -1.8741026 -0.51763833 3
-0.69719535 -2.1495759 -0.51288873 2
-0.84360749 -2.5994446 -0.52330071 4
-0.92238319 -2.8404908 -0.46695724 7
-0.93349409 -2.8730001 -0.36621779 6
-1.0297873 -3.1674788 -0.28805017 10
-1.0374728 -3.189225 -0.17317718 11
-1.0934319 -3.3592522 -0.060386747 7
-1.5344816 -4.7114549 1.3165307 2
-1.6105055 -4.9419484 1.1902153 11
nan nan nan 0
-1.5345148 -4.7031922 0.77662247 6
-1.4472965 -4.4332495 0.56791109 8
-1.3791108 -4.2218904 0.3852284 13
-1.2792572 -3.9138925 0.21379238 6
-1.1929104 -3.6475589 0.066319138 43
-0.61251944 -1.8673816 -0.51634425 3
-0.70469457 -2.1471293 -0.51288873 2
-0.85420752 -2.6011472 -0.52425396 4
-0.93229282 -2.837254 -0.46695724 7
-0.94351709 -2.869724 -0.36621779 6
-1.0408376 -3.1638651 -0.28805017 10
-1.0532826 -3.1998127 -0.17395961 9
-1.1051513 -3.3554151 -0.060386747 7
-1.5025427 -4.5592804 1.2751467 2
-1.5896025 -4.820622 1.1621177 3
-1.5529767 -4.7067881 0.95509464 7
-1.5199581 -4.6040149 0.76099628 6
-1.4643192 -4.4328828 0.56852049 9
-1.3969657 -4.2265091 0.38609993 11
-1.294479 -3.9141438 0.21405403 7
-1.2056355 -3.6433725 0.066319138 42
-0.61751282 -1.8606483 -0.51505011 2
-0.71372038 -2.1492798 -0.51401347 2
-0.86328202 -2.5981495 -0.52425396 3
-0.942191 -2.8339822 -0.46695724 7
-0.95352858 -2.8664131 -0.36621779 6
-1.0534483 -3.1649387 -0.28848594 11
-1.06129 -3.1866417 -0.17343798 10
-1.1184376 -3.3562799 -0.06047314 6
nan nan nan 0
-1.5555376 -4.6625304 1.1250288 12
-1.5460843 -4.6315026 0.94079685 11
nan nan nan 0
-1.479784 -4.4277444 0.56852049 8
-1.4117105 -4.2216072 0.38609993 11
-1.3081341 -3.9096012 0.21405403 9
-1.2199332 -3.6438825 0.066406399 43
-0.62400395 -1.8584815 -0.51505011 2
-0.72121847 -2.1467752 -0.51401347 3
-0.87234604 -2.5951204 -0.52425396 3
-0.95365196 -2.835357 -0.46773943 7
-0.96352839 -2.8630672 -0.36621779 6
-1.0644896 -3.161242 -0.28848594 11
-1.0676242 -3.1687224 -0.17265557 9
-1.1301465 -3.3523552 -0.06047314 8
nan nan nan 0
-1.5219468 -4.5093527 1.0890639 2
-1.4915731 -4.4168143 0.89790338 3
nan nan nan 0
-1.4920517 -4.4131494 0.56730175 7
-1.4296305 -4.2260904 0.3869715 11
-1.3233739 -3.9097407 0.21431573 8
-1.2326452 -3.6396019 0.066406399 41
-0.62893426 -1.851719 -0.51375604 2
-0.72714019 -2.1396322 -0.51288873 2
-0.87981921 -2.5874126 -0.52330071 3
-0.96354347 -2.8320107 -0.46773943 7
-0.97351652 -2.8596864 -0.36621779 7
-1.0755179 -3.1575069 -0.28848594 12
-1.0754571 -3.1555238 -0.17213394 9
-1.143455 -3.3531215 -0.060559526 8
nan nan nan 0
-1.4605464 -4.2780867 1.0339925 2
-1.495875 -4.3790674 0.891231 14
-1.8651745 -5.4570518 0.90631998 5
-1.4705123 -4.2999129 0.55328679 7
-1.4411483 -4.2116485 0.38609993 11
-1.3370135 -3.9050975 0.21431573 7
-1.2469624 -3.6400063 0.066493668 52
-0.63696325 -1.8540798 -0.51505011 2
-0.73460448 -2.1370809 -0.51288873 2
-0.88884562 -2.5843256 -0.52330071 3
-0.97342318 -2.8286302 -0.46773943 7
-0.98349273 -2.8562708 -0.36621779 6
-1.0849106 -3.1490242 -0.28805017 12
-1.0832108 -3.1423094 -0.17161232 9
-1.1551527 -3.3491096 -0.060559526 7
nan nan nan 0
-1.4261744 -4.1301999 0.99915147 2
-1.5047402 -4.3552623 0.88741827 2
-1.9100286 -5.5251889 0.91882092 6
-1.5293138 -4.4213862 0.5697391 9
-1.4574701 -4.2112999 0.38653573 11
-1.3522706 -3.9051251 0.21457741 7
-1.2596607 -3.6356316 0.066493668 44
-0.64501649 -1.8564073 -0.51634425 3
-0.74045992 -2.1299016 -0.51176393 2
-0.89624858 -2.5765715 -0.52234757 3
-0.98329091 -2.8252149 -0.46773943 6
-0.99345696 -2.8528204 -0.36621779 6
-1.0942574 -3.1405144 -0.28761441 13
-1.0925292 -3.1337943 -0.17135151 9
-1.1684827 -3.3497775 -0.060645919 6
nan nan nan 0
-1.3923949 -3.9872074 0.96543437 2
-1.4341252 -4.1044025 0.83689934 11
nan nan nan 0
-1.4726387 -4.2099071 0.54292792 5
nan nan nan 0
-1.3658937 -3.9003811 0.21457741 6
-1.2723438 -3.6312125 0.066493668 47
-0.64989161 -1.8495878 -0.51505011 3
-0.75112182 -2.1364961 -0.51401347 2
-0.90360826 -2.5687969 -0.52139437 4
-0.99314684 -2.8217654 -0.46773943 6
-1.0050577 -2.8540163 -0.36682713 6
-1.1035577 -3.1319776 -0.28717861 11
-1.1051217 -3.1346705 -0.17161232 8
-1.1801686 -3.3456781 -0.060645919 7
-1.3710424 -3.8846281 1.0927981 2
-1.3917036 -3.9409764 0.95531923 2
-1.4304565 -4.0484653 0.82641429 4
-1.951847 -5.5210319 0.92038357 11
-1.4360213 -4.0597024 0.52403814 14
-1.470216 -4.1540666 0.38217792 9
-1.3795004 -3.8955894 0.21457741 7
-1.2833418 -3.6220367 0.066406399 45
-0.66281164 -1.8655118 -0.52022654 3
-0.75041574 -2.1109095 -0.50838971 2
-0.91256958 -2.5656271 -0.52139437 3
-1.0046463 -2.8229342 -0.4685216 6
-1.0150139 -2.8504906 -0.36682713 6
-1.1144836 -3.1281064 -0.28717861 11
-1.116057 -3.1307938 -0.17161232 10
-1.1935194 -3.346247 -0.060732309 8
-1.384594 -3.8798187 1.0927981 2
-1.344833 -3.7663267 0.91373473 2
-1.3966905 -3.9094036 0.7987718 2
-1.347731 -3.7702866 0.62739217 2
-1.9632672 -5.4892302 0.71110761 36
-1.494777 -4.1770477 0.3847926 12
-1.3947734 -3.8954515 0.2148391 6
-1.3010354 -3.631654 0.06666819 43
-0.65462416 -1.8222795 -0.50857961 3
-0.76272321 -2.122031 -0.51176393 2
-0.91985875 -2.5578074 -0.52044117 4
-1.0144941 -2.8194101 -0.4685216 7
-1.0266387 -2.8515995 -0.36743647 7
-1.1253959 -3.124197 -0.28717861 11
-1.1591462 -3.21613 -0.1765677 12
-1.2051927 -3.3420603 -0.060732309 8
-1.3997679 -3.8795052 1.0940914 2
nan nan nan 0
-1.3286228 -3.6783018 0.75206554 2
-1.3575265 -3.7562702 0.62582964 5
-1.3512601 -3.7368906 0.48321193 4
-1.3873369 -3.8345675 0.35341653 10
-1.3658733 -3.7731841 0.2082971 6
-1.308597 -3.6129889 0.066406399 46
-0.66757578 -1.8381414 -0.51375604 3
-0.77012581 -2.1193557 -0.51176393 2
-0.92878157 -2.5545809 -0.52044117 3
-1.0260178 -2.8204927 -0.46930379 7
-1.0382838 -2.8526616 -0.36804584 7
-1.1362946 -3.1202497 -0.28717861 9
-1.1942972 -3.2777445 -0.18021902 13
-1.2185636 -3.34253 -0.060818698 9
-1.4099911 -3.8655202 1.0915048 2
nan nan nan 0
nan nan nan 0
-1.3469034 -3.6865671 0.61489123 2
-1.3694077 -3.7461343 0.48503998 7
-1.390448 -3.8016338 0.35080189 3
-1.3996272 -3.8246617 0.21143726 7
-1.3108875 -3.5802326 0.065882832 47
-0.67731696 -1.8448673 -0.51634425 3
nan nan nan 0
-0.93769312 -2.5513234 -0.52044117 4
-1.0375613 -2.8215289 -0.47008595 7
-1.0499488 -2.8536775 -0.36865517 7
-1.1471794 -3.1162641 -0.28717861 10
-1.2195376 -3.3110397 -0.18230549 12
-1.2302238 -3.3382559 -0.060818698 7
-1.4251466 -3.8651068 1.0927981 2
nan nan nan 0
nan nan nan 0
-1.2844821 -3.4780025 0.5805136 3
-2.030962 -5.4963002 0.71476364 32
-2.7855191 -7.5342779 0.6994248 12
-1.4320244 -3.8712654 0.21431573 7
-1.2990836 -3.5099967 0.06466116 43
nan nan nan 0
-0.78659868 -2.118495 -0.51288873 2
-0.94830239 -2.5526354 -0.52139437 4
-1.0474039 -2.8178899 -0.47008595 8
-1.0599036 -2.8499951 -0.36865517 6
-1.1580502 -3.1122408 -0.28717861 9
-1.2345721 -3.3161211 -0.18282712 12
-1.241869 -3.3339412 -0.060818698 8
-2.720531 -7.2996855 2.0756698 5
nan nan nan 0
nan nan nan 0
nan nan nan 0
-2.0553446 -5.5031247 0.71659166 12
-1.3175715 -3.5258813 0.32596248 8
-1.3091353 -3.5014422 0.19390471 6
-1.3113278 -3.5054407 0.06466116 40
nan nan nan 0
nan nan nan 0
-0.95720696 -2.5493097 -0.52139437 4
-1.0589706 -2.8188398 -0.47086814 7
-1.0715916 -2.8509235 -0.36926451 7
-1.1706603 -3.1128418 -0.28761441 10
-1.2443815 -3.3071184 -0.1825663 13
-1.2570218 -3.3389435 -0.060991481 7
-2.7493999 -7.2991843 2.0782564 9
nan nan nan 0
-1.2534323 -3.3241291 0.68248284 2
nan nan nan 0
nan nan nan 0
-1.3263514 -3.5119412 0.32509091 5
-1.3231146 -3.5015218 0.19416638 3
-1.3624502 -3.6037185 0.066580921 49
nan nan nan 0
-0.79445869 -2.0947311 -0.50838971 3
-0.96784127 -2.5505419 -0.52234757 3
-1.0688038 -2.8151262 -0.47086814 8
-1.0815367 -2.8471658 -0.36926451 8
-1.181519 -3.1087365 -0.28761441 11
-1.2541432 -3.2980874 -0.18230549 14
-1.2544476 -3.2971554 -0.060300358 7
-2.7782989 -7.2985711 2.080843 10
-1.2950928 -3.4004145 0.83056575 2
nan nan nan 0
nan nan nan 0
-2.0954819 -5.4932785 0.71720105 25
-2.79322 -7.3185539 0.68199366 35
-2.792388 -7.312542 0.40822044 31
-1.3785897 -3.6082807 0.066755451 57
-0.70128167 -1.8307207 -0.51505011 3
-0.80525297 -2.1010435 -0.51063919 3
-0.97673839 -2.5471482 -0.52234757 4
-1.0786239 -2.8113782 -0.47086814 8
-1.0932471 -2.8480062 -0.36987385 10
-1.1923634 -3.1045933 -0.28761441 9
-1.260275 -3.2797067 -0.18152307 12
-1.2605671 -3.2787576 -0.060041185 6
-2.8037586 -7.2888284 2.080843 9
-1.3174542 -3.4231544 0.83730918 2
-1.2395691 -3.2191083 0.66246587 3
nan nan nan 0
-1.1900399 -3.0872693 0.40155947 2
-2.8241265 -7.322701 0.68330103 28
-2.8178964 -7.3027496 0.40822044 16
nan nan nan 0
-0.70592451 -1.8237576 -0.51375604 3
-0.81610084 -2.107306 -0.51288873 3
-0.98562366 -2.5437231 -0.52234757 3
-1.0884308 -2.807596 -0.47086814 6
-1.1031817 -2.8441727 -0.36987385 10
-1.2049952 -3.1050558 -0.28805017 9
-1.2482209 -3.214777 -0.17813255 11
-1.2430397 -3.1997778 -0.058658946 7
-2.2132766 -5.6943746 1.6256181 10
-1.3258636 -3.4094532 0.83506137 3
nan nan nan 0
nan nan nan 0
-1.2044114 -3.092345 0.40277815 3
nan nan nan 0
nan nan nan 0
nan nan nan 0
-0.71052718 -1.8167845 -0.5124619 3
-0.8181259 -2.0908334 -0.50951445 3
-0.99449688 -2.5402672 -0.52234757 3
-1.0982245 -2.8037794 -0.47086814 6
-1.1149138 -2.8449252 -0.37048322 9
-1.2158264 -3.1008306 -0.28805017 10
-1.2612585 -3.2150488 -0.17839335 15
-1.2724669 -3.2419555 -0.059522845 6
-2.2031279 -5.610188 1.6036328 3
-1.3448834 -3.4229426 0.83955699 2
nan nan nan 0
nan nan nan 0
-1.197026 -3.0419414 0.39668468 3
-1.2821954 -3.2567101 0.30286619 7
-1.2803749 -3.2504215 0.18108241 7
-2.8753982 -7.2958894 0.13621603 78
-0.70058209 -1.77399 -0.50081509 3
-0.83005899 -2.1018469 -0.51288873 2
-1.0024725 -2.5371304 -0.52234757 3
-1.1070274 -2.8003154 -0.47086814 7
-1.1238459 -2.8414085 -0.37048322 7
-1.2200636 -3.0831013 -0.28674284 10
-1.308115 -3.3039217 -0.18360955 12
-1.3102629 -3.3076601 -0.060818698 7
-2.0036359 -5.0554509 1.445856 8
nan nan nan 0
-1.21417 -3.0603998 0.63196379 2
nan nan nan 0
-1.2139037 -3.0566151 0.39912206 2
-1.2813847 -3.2248921 0.30025154 3
-1.2850462 -3.2324631 0.18029736 3
-2.9001524 -7.2914662 0.13630329 29
-0.73687178 -1.8479211 -0.52281469 3
-0.83919591 -2.1034615 -0.51401347 3
-1.009503 -2.5290568 -0.52139437 3
-1.1167957 -2.7964342 -0.47086814 7
-1.1337575 -2.8374681 -0.37048322 7
-1.2197244 -3.0510731 -0.28412816 8
-1.3289113 -3.322516 -0.18491358 13
-1.3199435 -3.298425 -0.060732309 7
-1.9889569 -4.9677176 1.4225775 10
-1.9853417 -4.9561815 1.2228086 31
-1.2321494 -3.0743673 0.63577664 2
-1.1813846 -2.9462135 0.49613208 3
-1.2060876 -3.0063002 0.39302862 2
nan nan nan 0
-2.9263525 -7.28688 0.40952885 32
-2.9255867 -7.2812982 0.13630329 24
-0.74905574 -1.8586464 -0.52669698 2
-0.8487218 -2.1048901 -0.51513821 3
-1.0169295 -2.5207884 -0.52044117 3
-1.1288859 -2.7969012 -0.47165027 6
-1.1460079 -2.8378954 -0.37109256 8
-1.2010443 -2.9726896 -0.27715567 10
-1.3373375 -3.3083642 -0.18439196 10
nan nan nan 0
-1.9745415 -4.8798046 1.3992989 11
-1.9980088 -4.9353232 1.2194368 30
-1.2526224 -3.092577 0.64054251 2
-1.1662077 -2.8777852 0.48519373 2
nan nan nan 0
nan nan nan 0
-2.9530406 -7.2761059 0.40952885 13
nan nan nan 0
nan nan nan 0
-0.85606414 -2.1019146 -0.51513821 3
-1.0238701 -2.5126774 -0.51948798 3
-1.138642 -2.7929437 -0.47165027 7
-1.1559069 -2.8338776 -0.37109256 8
-1.2189418 -2.9869261 -0.27889881 7
-1.2110946 -2.966217 -0.1653529 8
nan nan nan 0
-1.9568454 -4.7879362 1.3747271 20
-2.0189121 -4.9373379 1.2216847 21
-1.2559757 -3.070014 0.63672978 2
-1.1612796 -2.8371325 0.47894323 2
nan nan nan 0
nan nan nan 0
-1.1981794 -2.9229164 0.16354986 2
-1.203928 -2.9354804 0.05471329 59
-0.74364787 -1.8087038 -0.51375604 3
-0.86339593 -2.0989137 -0.51513821 3
-1.0307668 -2.5045495 -0.51853484 4
-1.1483842 -2.7889521 -0.47165027 6
-1.165792 -2.8298254 -0.37109256 9
-1.2597303 -3.0563352 -0.28587127 10
-1.2157307 -2.9481235 -0.16457048 4
-1.2081703 -2.9283395 -0.054080263 4
-1.9514322 -4.7275028 1.3592081 31
-2.0379941 -4.9347639 1.2228086 14
-1.2779307 -3.0928292 0.6424489 2
nan nan nan 0
nan nan nan 0
nan nan nan 0
-1.2236549 -2.9556234 0.16564329 7
-1.2141675 -2.9312599 0.05471329 40
-0.74069631 -1.7837948 -0.50728554 3
-0.87071723 -2.0958872 -0.51513821 3
-1.0376191 -2.4964035 -0.51758158 4
-1.1505276 -2.7666869 -0.4685216 7
-1.1832883 -2.8440671 -0.37352994 9
-1.2837903 -3.0841086 -0.28892171 10
-3.02666 -7.267509 -0.40920931 31
-3.0315857 -7.2757583 -0.13554622 32
-1.9679223 -4.7206621 1.3592081 26
-2.0570824 -4.932116 1.2239324 17
-2.1600969 -5.1765628 1.0818686 31
nan nan nan 0
nan nan nan 0
nan nan nan 0
-1.2166296 -2.9098735 0.16328818 3
-3.0378742 -7.2622724 0.1367396 72
-0.76185977 -1.8168297 -0.51763833 3
-0.8761431 -2.0883422 -0.51401347 3
-1.0444273 -2.488241 -0.51662844 4
-1.1678267 -2.7808669 -0.47165027 7
-1.1816747 -2.8124673 -0.36987385 9
-1.294548 -3.0796084 -0.28892171 5
-3.0539455 -7.2615027 -0.40947014 33
-3.0589032 -7.2697396 -0.1356326 31
-1.9806406 -4.7048612 1.3566216 17
-2.0761776 -4.9293957 1.2250564 17
-2.1743414 -5.159945 1.0799624 31
nan nan nan 0
nan nan nan 0
nan nan nan 0
nan nan nan 0
-3.0690415 -7.2654395 0.13700138 34
-0.74559861 -1.7607911 -0.50210917 3
-0.88342738 -2.0852714 -0.51401347 3
-1.0511911 -2.4800608 -0.51567525 4
-1.1486063 -2.7085755 -0.45991769 5
-1.1779169 -2.7763457 -0.36560845 7
-3.1152756 -7.3391299 -0.69419652 2
-3.0831778 -7.2599897 -0.40999174 29
-3.0842609 -7.2590179 -0.1356326 24
-2.0008307 -4.7068086 1.3592081 16
-2.0952787 -4.9266024 1.2261803 16
-2.1942618 -5.1568408 1.0809156 23
nan nan nan 0
-1.1370647 -2.6696839 0.35159305 3
nan nan nan 0
nan nan nan 0
-3.090461 -7.2454853 0.13682686 14
-0.7669301 -1.7937036 -0.5124619 3
-0.88878495 -2.0776958 -0.51288873 3
-1.0579104 -2.471864 -0.51472205 4
-1.1658297 -2.7227092 -0.4630464 11
-1.1621959 -2.7129142 -0.35768694 8
-1.1551145 -2.6950843 -0.25318784 9
-3.0986621 -7.2262383 -0.40868771 4
-3.1036677 -7.2344246 -0.13537344 2
-2.0191531 -4.7042336 1.3605013 19
-2.1143854 -4.9237347 1.2273042 15
-2.2083738 -5.14013 1.0790092 15
-1.1989158 -2.7892103 0.47425535 2
-1.130692 -2.6292262 0.34671828 2
-1.1529707 -2.6797428 0.25188008 2
-1.1226587 -2.6080379 0.14680235 2
nan nan nan 0
-0.77318662 -1.7910156 -0.5124619 3
-0.89410031 -2.0701079 -0.51176393 3
-1.0645854 -2.4636505 -0.51376885 4
-1.2027625 -2.7820845 -0.47399682 12
-1.1736288 -2.7133956 -0.35829625 7
-1.1605588 -2.6818936 -0.25231627 6
-1.1340804 -2.619451 -0.14709628 6
-1.1438442 -2.640739 -0.049069632 10
-2.0374823 -4.7015886 1.3617946 18
-2.1315594 -4.9163241 1.2273042 16
-2.2282562 -5.1368928 1.0799624 15
-1.2007804 -2.7668872 0.47113013 2
-1.1220742 -2.5842941 0.34123415 2
nan nan nan 0
-1.1218047 -2.5812066 0.14549395 2
-1.1515138 -2.6483006 0.049739353 57
-0.78329307 -1.7971605 -0.51505011 3
-0.89937365 -2.0625088 -0.51063919 3
-1.0731788 -2.4599195 -0.51376885 4
-1.2282705 -2.8140776 -0.4802542 16
-1.2188417 -2.7911465 -0.36926451 10
-1.1639308 -2.6641328 -0.25100893 3
-1.143217 -2.6154764 -0.14709628 6
-1.1570613 -2.6458912 -0.049242411 6
-2.0558174 -4.698873 1.3630879 18
-2.1506612 -4.9133167 1.228428 16
-2.2461736 -5.1290836 1.0799624 15
-2.3658748 -5.3998537 0.92663407 29
-1.1071798 -2.5258186 0.333922 2
-1.1276397 -2.5712733 0.24229297 2
-1.1087399 -2.5269785 0.14261547 2
-1.1567322 -2.6351097 0.049564831 44
-0.78956157 -1.7944155 -0.51505011 2
-0.90460461 -2.0548978 -0.50951445 3
-1.0797805 -2.4516664 -0.51281571 4
-1.2301208 -2.7916965 -0.4771255 13
-1.2365848 -2.8050392 -0.37170193 11
-3.1913116 -7.2356725 -0.6885314 32
-1.1442766 -2.5931969 -0.14605305 2
-1.1683092 -2.6464097 -0.049328804 3
-2.072207 -4.691668 1.3630879 18
-2.1677988 -4.9057794 1.228428 16
-2.2660484 -5.125701 1.0809156 15
-2.3887048 -5.4005952 0.92819673 28
-1.1019322 -2.4901707 0.32965657 2
-1.106362 -2.4990029 0.23575628 2
-1.0953104 -2.4728739 0.139737 2
-1.1537709 -2.6036325 0.04904126 7
-0.79582042 -1.7916484 -0.51505011 2
-0.91375059 -2.0561798 -0.51063919 3
-1.0883318 -2.4478822 -0.51281571 4
-1.2458793 -2.8009219 -0.47947201 11
-1.2564573 -2.8233759 -0.37474868 10
-3.2206013 -7.2335896 -0.689403 28
-3.2175395 -7.22332 -0.41103497 32
-3.2206533 -7.2269163 -0.13606456 35
-2.0905383 -4.6888175 1.3643812 17
-2.1868949 -4.9026322 1.229552 15
-2.2859268 -5.1222415 1.0818686 15
-2.4055283 -5.3877144 0.92741537 15
-1.0964493 -2.4545903 0.32539111 2
-1.1069493 -2.4769356 0.23401317 2
-1.0978216 -2.4553607 0.13895196 2
-3.2348135 -7.2315168 0.13761221 29
-0.8020696 -1.7888595 -0.51505011 3
-0.92092246 -2.0529776 -0.51063919 3
-1.0948602 -2.4395902 -0.51186246 6
-3.2501378 -7.2386417 -1.2506946 25
-1.2602044 -2.8053918 -0.3729206 4
-3.2478733 -7.2268472 -0.68983877 13
-3.2447815 -7.216598 -0.4112958 24
-3.2499621 -7.2247481 -0.13623734 31
-2.1068923 -4.6814914 1.3643812 18
-2.2039948 -4.8949685 1.229552 16
-2.3037927 -5.1142311 1.0818686 14
-2.4182329 -5.3657775 0.92507148 5
-1.0907316 -2.4190795 0.32112572 2
-1.0992033 -2.4367335 0.23052694 2
-1.089954 -2.4151046 0.13685852 2
-3.2579792 -7.2156248 0.13752495 27
-0.80830902 -1.7860489 -0.51505011 3
-0.93009251 -2.0541885 -0.51176393 3
-1.1033692 -2.4357538 -0.51186246 11
-1.0839745 -2.3918278 -0.40985861 2
-1.1552266 -2.5478649 -0.33879715 2
nan nan nan 0
-3.2740796 -7.2143221 -0.41181743 17
-3.2772281 -7.2179117 -0.13632374 14
-2.1252184 -4.6785059 1.3656744 18
-2.2230837 -4.8916812 1.2306759 16
-2.3236623 -5.1106267 1.0828218 14
nan nan nan 0
-1.0847796 -2.3836384 0.31686029 2
-1.0932544 -2.401149 0.22747648 2
-1.0859588 -2.3840218 0.13528845 2
-3.2790005 -7.1951108 0.13735043 7
-0.8145386 -1.7832165 -0.51505011 3
-0.93725729 -2.0509293 -0.51176393 4
-1.1118649 -2.4318874 -0.51186246 13
-1.1046423 -2.4149749 -0.41455165 8
-1.118681 -2.4445386 -0.3253915 6
-1.0982809 -2.398854 -0.22747684 9
nan nan nan 0
nan nan nan 0
-2.1415367 -4.6710587 1.3656744 17
-2.2421765 -4.8883195 1.2317998 16
-2.3414876 -5.1024842 1.0828218 14
nan nan nan 0
-1.0765222 -2.3437593 0.31198549 2
-1.0870708 -2.3656366 0.22442605 2
-1.0775884 -2.3439231 0.133195 2
-1.0688479 -2.3238423 0.043980062 3
-0.82075816 -1.7803624 -0.51505011 3
-0.94645119 -2.0520694 -0.51288873 3
-1.120347 -2.4279914 -0.51186246 12
-1.1109955 -2.4066207 -0.41376951 5
-1.1230454 -2.4316077 -0.32417279 5
-1.1024693 -2.3859625 -0.22660528 7
-1.1013616 -2.3824732 -0.13509907 9
-1.105194 -2.389668 -0.044836514 11
-2.1598568 -4.6679382 1.3669676 18
-2.2592263 -4.8804636 1.2317998 16
-2.3613472 -5.0987339 1.0837752 15
nan nan nan 0
-1.070087 -2.3084695 0.30772007 2
-1.078557 -2.3256776 0.2209398 2
-1.0689517 -2.3039124 0.13110156 2
-1.1022115 -2.3745117 0.045027204 55
-0.82696784 -1.7774866 -0.51505011 3
-0.95360839 -2.048753 -0.51288873 3
-1.1288154 -2.4240658 -0.51186246 9
-1.1152183 -2.393775 -0.41220516 3
-1.1294299 -2.4231749 -0.32356349 4
-1.1171063 -2.3956428 -0.22791262 4
-1.1160043 -2.3921893 -0.1358815 9
-1.121986 -2.4039159 -0.045182075 7
