# .PCD v0.7 - Point Cloud Data file format
VERSION 0.7
FIELDS x y z intensity
SIZE 4 4 4 4
TYPE F F F F
COUNT 1 1 1 1
WIDTH 1338
HEIGHT 1
VIEWPOINT 0 0 0 1 0 0 0
POINTS 1338
DATA ascii
1.6149193 -1.318035 0.47204006 13
1.6074744 -1.3124262 0.39557317 15
1.6016767 -1.3081586 0.32111856 13
1.593763 -1.302159 0.24800409 13
1.6147115 -1.3197446 0.17910506 15
1.6067581 -1.3137119 0.10676534 14
1.585234 -1.2965752 0.035079334 13
1.4940041 -1.224135 -0.50728554 3
1.6535381 -1.355334 -0.48476982 2
1.6161085 -1.3251263 -0.39843297 14
1.6027082 -1.3146065 -0.32225525 16
1.6140515 -1.3243821 -0.2516605 12
1.5926936 -1.3073224 -0.17692643 15
1.5962996 -1.3107487 -0.10588846 14
1.5941088 -1.3094158 -0.034988027 16
1.5968481 -1.3121327 0.54316592 14
1.5990176 -1.3143828 0.46866837 14
1.595301 -1.3117944 0.39366677 14
1.5856586 -1.3043295 0.31877461 12
1.5777116 -1.2982543 0.24617606 10
1.6024035 -1.3190416 0.17823349 14
1.5905989 -1.3097904 0.1059803 13
1.5691226 -1.2925651 0.03481755 11
1.4859971 -1.2262686 -0.50599146 3
1.6450399 -1.3579962 -0.48364502 2
1.6001192 -1.3213835 -0.39557344 14
1.5866874 -1.3107573 -0.31990871 15
1.6017678 -1.3236854 -0.25044179 12
1.5804422 -1.3065265 -0.17605488 15
1.5801706 -1.3067663 -0.10510603 13
1.5779727 -1.3054125 -0.034728859 14
1.5848165 -1.3115401 0.54057944 15
1.5869141 -1.3137428 0.46642056 14
1.5793715 -1.3079631 0.39080721 13
1.5734898 -1.3035553 0.31721199 10
1.5617069 -1.2942535 0.24434802 10
1.5862857 -1.3150901 0.17692617 13
1.5744871 -1.3057723 0.10519527 11
1.5530585 -1.2884585 0.034555763 11
1.4817076 -1.2314484 -0.50599146 3
1.6590208 -1.3793032 -0.48926884 2
1.5841758 -1.3175451 -0.39271384 14
1.5707136 -1.3068125 -0.31756222 16
1.5856941 -1.3197445 -0.24861374 12
1.5643882 -1.3024741 -0.17474753 15
1.5640894 -1.3026878 -0.1043236 11
1.5618837 -1.3013123 -0.03446969 13
1.5690982 -1.3077874 0.53669971 15
1.5710922 -1.3099141 0.46304882 14
1.5634881 -1.3040367 0.38794762 12
1.5575538 -1.2995481 0.31486806 11
1.5457497 -1.2901571 0.24251999 9
1.5740387 -1.3142346 0.1760546 12
1.562255 -1.3048587 0.10467191 11
1.5370424 -1.2842555 0.034293976 12
1.4736964 -1.2335131 -0.50469732 3
1.609372 -1.3475541 -0.47577178 2
1.5682788 -1.3136117 -0.38985425 15
1.5585718 -1.3059438 -0.31599787 15
1.5696675 -1.3157076 -0.24678569 12
1.5521988 -1.3015263 -0.17387597 15
1.548056 -1.2985128 -0.10354118 11
1.5458428 -1.297116 -0.034210518 14
1.5534257 -1.3039409 0.53281993 15
1.5590481 -1.3091244 0.46080104 14
1.5476518 -1.3000154 0.38508809 13
1.5416653 -1.2954459 0.31252414 12
1.52984 -1.2859648 0.24069193 10
1.5580045 -1.3101037 0.17474726 13
1.5462275 -1.3006613 0.10388687 12
1.5210747 -1.2799566 0.034032188 12
1.4693817 -1.2386497 -0.50469732 3
1.5897608 -1.340601 -0.47127277 2
1.5561806 -1.3127484 -0.38794789 14
1.5464554 -1.3050065 -0.31443354 15
1.5536888 -1.3115749 -0.24495766 13
1.5362293 -1.2972955 -0.17256863 15
1.5320709 -1.2942419 -0.10275874 12
1.5298504 -1.2928238 -0.033951346 15
1.5377991 -1.300001 0.52894014 15
1.5433084 -1.3051203 0.45742929 15
1.5318625 -1.2958996 0.38222849 13
1.5295943 -1.2944388 0.31096151 11
1.5177664 -1.284884 0.23947324 11
1.5420188 -1.3058773 0.17343993 15
1.5302485 -1.2963681 0.10310183 12
1.5089698 -1.2787942 0.033857666 12
1.465049 -1.2437713 -0.50469732 3
1.5479374 -1.3146054 -0.46002516 2
1.5403669 -1.3086388 -0.38508835 14
1.5306015 -1.3008025 -0.31208703 16
1.5415392 -1.3105614 -0.24373896 13
1.524103 -1.2961962 -0.17169708 15
1.5199375 -1.2931108 -0.10223713 12
1.513907 -1.2884357 -0.033692177 15
1.5258967 -1.2990991 0.52635366 15
1.5313249 -1.3041817 0.45518148 15
1.5198574 -1.2948728 0.38032213 14
1.5137904 -1.2901599 0.30861756 11
1.5019426 -1.2805151 0.23764521 11
1.5260816 -1.3015553 0.17213258 14
1.5181171 -1.2952203 0.10257847 12
1.493089 -1.2743174 0.033595879 13
1.4606985 -1.2488776 -0.50469732 4
1.5396369 -1.3168341 -0.45890042 3
1.5283306 -1.3076259 -0.38318196 14
1.5185478 -1.299715 -0.31052268 15
1.5256457 -1.3062515 -0.24191092 13
1.5082198 -1.2917877 -0.17038974 16
1.5040393 -1.2886622 -0.1014547 11
1.5018086 -1.2872056 -0.033519395 15
1.510353 -1.2949864 0.52247393 15
1.515669 -1.3000033 0.45180979 15
1.5041529 -1.2905817 0.37746257 13
1.4980352 -1.2857867 0.30627364 12
1.4861679 -1.2760513 0.23581716 10
1.5139718 -1.3003834 0.17126103 14
1.5022249 -1.2907494 0.10179343 13
1.4810493 -1.2730041 0.033421356 12
1.4599901 -1.2571201 -0.50599146 3
1.5313395 -1.3190209 -0.45777565 4
1.5126017 -1.3033409 -0.3803224 14
1.5027797 -1.2953348 -0.30817613 16
1.5135598 -1.3050873 -0.24069221 14
1.4961582 -1.2905381 -0.16951817 16
1.491971 -1.2873805 -0.10093308 12
1.4859531 -1.2826402 -0.033260226 15
1.4948565 -1.2907808 0.51859415 16
1.5037478 -1.2989166 0.44956198 15
1.492211 -1.2894061 0.37555617 13
1.4860654 -1.2845488 0.30471101 12
1.4741968 -1.2747391 0.23459847 11
1.4981221 -1.2958844 0.16995369 13
1.4901587 -1.2894509 0.10127007 13
1.4690369 -1.2716224 0.033246834 13
1.4558133 -1.2619548 -0.50599146 3
1.5235069 -1.3206342 -0.45665091 7
1.5010831 -1.3016553 -0.37841603 14
1.4875115 -1.2903416 -0.30582961 16
1.4982074 -1.3000782 -0.23886417 14
1.4808121 -1.2854363 -0.16821083 15
1.4803791 -1.2855136 -0.10041147 12
1.4743679 -1.2807451 -0.033087447 16
1.4835026 -1.2891346 0.51600766 15
1.4886289 -1.2940453 0.44619027 13
1.4770416 -1.2844253 0.37269661 13
1.4708444 -1.2794871 0.30236709 13
1.4626974 -1.2728486 0.23337978 11
1.4865297 -1.2940437 0.16908213 14
1.474804 -1.2842888 0.10048503 12
1.4574958 -1.2696637 0.033072308 15
1.4552593 -1.269951 -0.50728554 4
1.5188878 -1.3259442 -0.45665091 10
1.4891362 -1.3004299 -0.37650964 15
1.4755599 -1.2890282 -0.30426529 16
1.4861865 -1.2987688 -0.23764548 13
1.468816 -1.2840409 -0.16733928 16
1.4683654 -1.2840993 -0.099889845 12
1.462363 -1.2793006 -0.032914665 16
1.4680898 -1.2847629 0.51212788 15
1.4767711 -1.2928153 0.44394243 14
1.4651641 -1.2831059 0.37079024 16
1.4589398 -1.278105 0.30080447 14
1.4507807 -1.2714049 0.23216109 12
1.4745127 -1.2926576 0.16821058 16
1.4628038 -1.2828445 0.099961676 14
1.4455388 -1.2681499 0.032897785 15
1.4505949 -1.2752762 -0.50728554 4
1.5103593 -1.3282847 -0.45552614 12
1.4733044 -1.2961531 -0.37365007 15
1.4597038 -1.2846398 -0.30191877 16
1.4739665 -1.2976485 -0.23642679 14
1.4566238 -1.2828318 -0.16646773 16
1.4561559 -1.282871 -0.09936823 14
1.4501631 -1.278041 -0.032741886 18
1.4561253 -1.2837471 0.50954139 16
1.4610608 -1.2885514 0.44057071 14
1.4530901 -1.2819729 0.36888388 16
1.44684 -1.276908 0.29924187 15
1.4386705 -1.2701447 0.2309424 13
1.4622982 -1.2914588 0.16733903 17
1.4506083 -1.2815855 0.099438317 16
1.4333892 -1.2668183 0.032723259 16
1.4461346 -1.280332 -0.50728554 4
1.4911251 -1.3206285 -0.45102713 14
1.4614233 -1.2947781 -0.37174368 15
1.4478191 -1.2831763 -0.30035442 16
1.4582877 -1.2929089 -0.23459874 14
1.4409575 -1.2779934 -0.16516039 16
1.4441988 -1.2813184 -0.098846614 17
1.434476 -1.2731397 -0.032482713 14
1.4444116 -1.2824086 0.50695485 16
1.4492685 -1.2871732 0.43832293 15
1.4412677 -1.2805172 0.36697748 17
1.4349912 -1.2753891 0.29767925 15
1.4268105 -1.268564 0.22972371 14
1.4466156 -1.2866246 0.16603169 19
1.4386652 -1.2800032 0.098914951 16
1.4214896 -1.2651666 0.032548737 14
1.4416566 -1.285372 -0.50728554 4
1.4646913 -1.3063686 -0.4442786 16
1.4495701 -1.2933362 -0.36983731 15
1.4322782 -1.278357 -0.29800791 16
1.4463619 -1.2913809 -0.23338005 14
1.429058 -1.2763795 -0.16428883 16
1.4322705 -1.2796983 -0.098324999 15
1.4225686 -1.2714763 -0.032309934 12
1.4291248 -1.2777851 0.50307512 16
1.4338722 -1.2824801 0.43495122 14
1.4294734 -1.2789948 0.36507112 16
1.4231708 -1.273803 0.29611662 13
1.4149791 -1.2669159 0.22850502 12
1.4346951 -1.28502 0.16516013 13
1.4267508 -1.2783533 0.098391593 14
1.4058965 -1.2601106 0.032286949 14
1.437161 -1.2903966 -0.50728554 5
1.4456244 -1.2984515 -0.43977955 14
1.4340935 -1.2885467 -0.36697775 15
1.4204613 -1.2767464 -0.29644355 17
1.4344646 -1.2897855 -0.23216136 14
1.4171871 -1.274698 -0.16341728 16
1.4166592 -1.2746706 -0.097542569 14
1.4069743 -1.2664007 -0.032050762 11
1.4174773 -1.2763023 0.50048864 16
1.4221467 -1.280956 0.43270341 15
1.4140608 -1.2741201 0.36221156 14
1.4113791 -1.2721502 0.294554 12
1.4031767 -1.2652009 0.22728632 11
1.4191047 -1.2800118 0.1638528 12
1.4111584 -1.273291 0.097606555 14
1.3940672 -1.2583112 0.032112423 13
1.4326478 -1.2954054 -0.50728554 6
1.4230177 -1.2871492 -0.43415579 16
1.4223078 -1.2869585 -0.36507139 15
1.4086735 -1.2750688 -0.2948792 17
1.4225962 -1.2881229 -0.23094267 14
1.401654 -1.2696055 -0.16210994 16
1.404801 -1.2729024 -0.097020954 13
1.3914329 -1.2612318 -0.03179159 11
1.4058576 -1.2747537 0.4979021 16
1.4068407 -1.2760926 0.42933169 14
1.4023348 -1.2724519 0.36030519 13
1.3959594 -1.2671112 0.29221007 12
1.3914034 -1.2634187 0.22606762 11
1.407254 -1.2782595 0.16298124 12
1.3993143 -1.2714932 0.097083189 13
1.3785684 -1.2530818 0.03185064 13
1.4281174 -1.3003983 -0.50728554 9
1.4077111 -1.2822666 -0.43078151 16
1.4105507 -1.2853036 -0.36316499 16
1.3969147 -1.2733246 -0.29331487 17
1.4107571 -1.2863933 -0.22972398 14
1.3898536 -1.2677768 -0.16123837 16
1.3892838 -1.2677013 -0.096238516 14
1.3796372 -1.2593404 -0.031618811 12
1.394266 -1.2731398 0.49531561 16
1.3951833 -1.274424 0.42708388 14
1.3870144 -1.2674063 0.35744563 14
1.3842376 -1.2653123 0.29064745 13
1.3759977 -1.2582211 0.22423957 12
1.3917575 -1.2730782 0.1616739 12
1.3874999 -1.2696285 0.09655983 14
1.3668107 -1.2511352 0.031676114 14
1.427129 -1.3086396 -0.50857961 12
1.3924561 -1.2772928 -0.42740726 17
1.3988227 -1.2835824 -0.36125863 16
1.3851852 -1.2715139 -0.29175052 17
1.3989472 -1.2845966 -0.22850528 14
1.3780832 -1.2658814 -0.1603668 17
1.3774968 -1.2657862 -0.095716901 15
1.3641914 -1.253999 -0.031359643 12
1.3827029 -1.2714605 0.4927291 16
1.3799691 -1.2693911 0.42371216 16
1.3753582 -1.2655931 0.35553923 14
1.3689117 -1.2601024 0.28830349 13
1.3642958 -1.2562933 0.22302088 11
1.3799781 -1.2711792 0.16080233 12
1.372044 -1.2643132 0.095774792 14
1.3514078 -1.2457337 0.03141433 14
1.4225523 -1.3136132 -0.50857961 13
1.3808317 -1.275534 -0.42515776 14
1.3835191 -1.2784641 -0.35839906 16
1.3734854 -1.2696369 -0.29018617 17
1.3835237 -1.279364 -0.22667724 14
1.3626868 -1.260537 -0.15905946 17
1.3620757 -1.2604129 -0.094934478 15
1.3524684 -1.2519611 -0.03118686 12
1.367625 -1.2664344 0.48884934 16
1.3683814 -1.2675787 0.42146435 15
1.3637316 -1.2637138 0.35363284 14
1.3572612 -1.2581583 0.2867409 13
1.3526244 -1.2542989 0.22180219 12
1.3682289 -1.2692134 0.15993078 13
1.3603022 -1.2623022 0.095251434 14
1.3397232 -1.243641 0.031239806 14
1.4144216 -1.315282 -0.50728554 12
1.3656695 -1.2703916 -0.42178348 14
1.3718616 -1.2765983 -0.35649267 16
1.3582011 -1.264329 -0.28783965 17
1.3681537 -1.2740395 -0.22484918 15
1.3473445 -1.2551007 -0.15775214 17
1.3503616 -1.2583517 -0.094412856 14
1.3407764 -1.2498568 -0.031014081 12
1.3561312 -1.2646129 0.48626286 16
1.3532605 -1.2623774 0.41809264 15
1.3521351 -1.2617691 0.35172647 15
1.345641 -1.2561485 0.28517827 13
1.3409835 -1.2522388 0.2205835 12
1.3528706 -1.2637812 0.15862344 12
1.3485912 -1.2602246 0.094728075 13
1.3280698 -1.2414821 0.031065281 14
1.413347 -1.3235124 -0.50857961 11
1.3541158 -1.2684896 -0.41953397 14
1.3602339 -1.2746668 -0.3545863 16
1.3465737 -1.2623073 -0.2862753 17
1.352838 -1.2686232 -0.22302115 13
1.3320569 -1.2495728 -0.1564448 14
1.3386788 -1.256224 -0.093891241 15
1.3291156 -1.2476861 -0.0308413 12
1.344667 -1.2627263 0.48367634 16
1.3417437 -1.2604219 0.41584483 16
1.3405688 -1.2597587 0.34982011 14
1.330453 -1.2506902 0.28283435 13
1.3257582 -1.2467128 0.21875545 12
1.3411949 -1.2616702 0.15775189 13
1.3369116 -1.2580806 0.094204716 14
1.316448 -1.2392571 0.030890757 14
1.3876362 -1.308557 -0.50081509 14
1.339048 -1.2631794 -0.41615969 14
1.3486367 -1.2726697 -0.35267991 16
1.3313859 -1.25683 -0.28392878 18
1.337577 -1.2631159 -0.2211931 14
1.3132036 -1.240533 -0.15470168 21
1.3270273 -1.2540302 -0.093369626 15
1.3174864 -1.2454495 -0.030668519 12
1.3297232 -1.2574567 0.47979656 17
1.3302571 -1.2584015 0.41359702 16
1.3290331 -1.2576833 0.34791371 15
1.3189064 -1.2485365 0.28127173 13
1.3141916 -1.2445083 0.21753676 12
1.3295505 -1.2594931 0.15688033 13
1.3252633 -1.2558706 0.093681358 14
1.304858 -1.2369661 0.030716235 14
1.3760558 -1.3067415 -0.49822688 18
1.3240341 -1.2577796 -0.41278541 14
1.33707 -1.2706072 -0.35077354 17
1.3198322 -1.2546647 -0.28236443 14
1.322371 -1.2575177 -0.21936506 17
1.2980387 -1.2348102 -0.15339434 14
1.3154076 -1.2517705 -0.092848003 15
1.3058891 -1.2431468 -0.03049574 12
1.3183306 -1.2554293 0.47721007 17
1.3188012 -1.2563163 0.41134921 16
1.3175284 -1.2555425 0.34600735 16
1.3073909 -1.2463175 0.2797091 14
1.3026565 -1.2422383 0.21631807 13
1.3143338 -1.2538121 0.155573 13
1.3136468 -1.2535948 0.093157999 14
1.2932999 -1.2346094 0.030541711 15
1.3400716 -1.2814953 -0.48658001 17
1.3125947 -1.2556583 -0.4105359 15
1.3219881 -1.2650862 -0.34791398 18
1.3047425 -1.2490191 -0.28001791 15
1.3072203 -1.2518287 -0.21753702 26
1.2829299 -1.2289966 -0.152087 23
1.3002149 -1.2459903 -0.09206558 16
1.294324 -1.2407786 -0.03032296 13
1.3034823 -1.2499945 0.47333032 17
1.3038603 -1.2507939 0.40797749 16
1.3025134 -1.2499384 0.34314778 16
1.2959073 -1.2440335 0.27814648 15
1.2911533 -1.239903 0.21509938 13
1.302765 -1.251491 0.15470144 14
1.3020625 -1.2512531 0.092634641 15
1.2817744 -1.232187 0.030367186 16
1.3042806 -1.2560145 -0.47493315 14
1.2976778 -1.2500925 -0.40716165 15
1.3104955 -1.2628813 -0.34600759 18
1.2897085 -1.2432837 -0.2776714 16
1.2921259 -1.2460493 -0.21570899 24
1.2714624 -1.2265511 -0.15121545 16
1.2886716 -1.2435867 -0.091543965 17
1.2827915 -1.2383448 -0.030150179 14
1.2921624 -1.2478267 0.47074381 18
1.2924781 -1.2485675 0.40572968 17
1.2875538 -1.2442449 0.34028822 17
1.2844554 -1.2416844 0.27658385 16
1.2796824 -1.2375026 0.21388069 14
1.2912285 -1.2491044 0.15382989 13
1.2869225 -1.2453737 0.091849603 15
1.2738737 -1.2331767 0.030279925 19
1.2894871 -1.250473 -0.47105086 16
1.2828157 -1.2444379 -0.40378737 21
1.2955121 -1.2571934 -0.34314802 24
1.2782738 -1.2408984 -0.27610707 20
1.2842083 -1.2470948 -0.21509963 15
1.2636006 -1.2275112 -0.15077966 22
1.2735802 -1.2376379 -0.090761535 20
1.2748766 -1.2393303 -0.030063789 19
1.2808737 -1.2455952 0.46815729 15
1.2776352 -1.2428797 0.40235797 20
1.2726499 -1.2384624 0.33742866 21
1.2730358 -1.2392707 0.27502126 19
1.2682441 -1.2350373 0.212662 16
1.2797248 -1.2466527 0.15295833 16
1.2754155 -1.2428887 0.091326244 20
1.2624016 -1.2306364 0.030105399 34
1.2782036 -1.2482181 -0.46846268 25
1.2680091 -1.238695 -0.40041313 23
1.2840949 -1.254847 -0.34124166 25
1.2633405 -1.2349964 -0.27376056 30
1.2762992 -1.2481002 -0.21449029 20
1.2557473 -1.2284312 -0.15034388 34
1.2621148 -1.2350913 -0.09023992 24
1.2633977 -1.2367786 -0.029891009 30
1.2696164 -1.2433002 0.46557081 22
1.2663282 -1.2405132 0.40011016 21
1.2613076 -1.2360264 0.33552229 21
1.2616489 -1.2367924 0.27345863 31
1.2568387 -1.2325073 0.21144331 24
1.2682539 -1.244136 0.15208678 26
1.2639418 -1.2403387 0.090802886 30
1.2545308 -1.2315334 0.030018136 70
1.2669517 -1.2458994 -0.46587449 31
1.2567314 -1.2362806 -0.39816362 35
1.2692115 -1.2489935 -0.3383821 37
1.251983 -1.2324698 -0.2721962 34
1.2719347 -1.2525477 -0.21449029 34
1.2479032 -1.2293116 -0.14990811 38
1.2506828 -1.2324799 -0.089718297 35
1.2555126 -1.2376714 -0.029804617 42
1.2549517 -1.2375505 0.46169105 31
1.2550535 -1.2380829 0.39786234 28
1.2499982 -1.2335266 0.3336159 32
1.2538093 -1.2377194 0.2726773 34
1.2454664 -1.2299129 0.2102246 33
1.2568163 -1.2415544 0.15121521 39
1.2525011 -1.2377236 0.09027952 37
1.2395583 -1.2253612 0.02975635 77
1.2522998 -1.2401195 -0.4619922 36
1.242025 -1.230374 -0.39478934 31
1.2543846 -1.2430515 -0.33552253 37
1.240659 -1.229879 -0.27063185 39
1.2675548 -1.2569798 -0.21449029 34
1.232996 -1.2231363 -0.14860077 26
1.2392846 -1.2298038 -0.089196675 38
1.2440889 -1.2350024 -0.029631836 43
1.2437701 -1.235117 0.45910454 34
1.2438112 -1.2355891 0.39561453 36
1.2387216 -1.2309629 0.33170953 35
1.238974 -1.2316434 0.27033338 30
1.2341276 -1.227254 0.20900591 35
1.2454122 -1.2389082 0.15034366 40
1.237555 -1.231522 0.089494482 39
1.2175585 -1.2120459 0.029320041 20
1.234284 -1.230842 -0.45681581 22
1.2273753 -1.2243798 -0.39141509 19
1.2361407 -1.2335544 -0.33170977 22
1.2293682 -1.2272243 -0.2690675 23
1.2491128 -1.2473699 -0.2120529 20
1.2216711 -1.2203923 -0.1477292 18
1.2208563 -1.2200042 -0.088153444 24
1.2256278 -1.2251999 -0.029286277 22
1.2292054 -1.2292054 0.45522478 28
1.2291573 -1.2295864 0.39224282 29
1.2274784 -1.2283355 0.32980317 22
1.220706 -1.221985 0.26720813 18
1.219316 -1.2210196 0.20717788 20
1.230523 -1.2326725 0.14903632 24
1.2191409 -1.2216969 0.088447765 22
1.1956669 -1.1985921 0.028883731 18
1.2197564 -1.2248764 -0.45293355 17
1.2127825 -1.2182984 -0.38804078 16
1.2179785 -1.2239451 -0.32789698 18
1.2146282 -1.2210047 -0.26672098 18
1.2272542 -1.2341275 -0.20900615 17
1.2068689 -1.2140518 -0.14642186 18
1.2060314 -1.2136331 -0.087371014 18
1.2072505 -1.215284 -0.028940717 18
1.2112942 -1.2197801 0.45005178 18
1.2145605 -1.2234964 0.38887113 21
1.2058964 -1.2151927 0.32503721 18
1.2025208 -1.2122142 0.26408288 15
1.2045631 -1.214697 0.20534983 17
1.2156926 -1.226348 0.14772898 21
1.1972958 -1.2082117 0.087139361 18
1.1703659 -1.1814486 0.02836016 18
1.1917018 -1.205088 -0.44387484 17
1.2016724 -1.215595 -0.38579127 14
1.1929984 -1.2072418 -0.32217786 18
1.1999469 -1.2146972 -0.26437446 20
1.2020165 -1.2172171 -0.20535007 17
1.1921259 -1.207623 -0.14511454 25
1.1807444 -1.1965111 -0.085806161 18
1.1854466 -1.2016957 -0.028508766 22
1.1934637 -1.210245 0.44487876 17
1.2000214 -1.2173196 0.38549939 18
1.1844214 -1.2019144 0.32027125 16
1.1809531 -1.1988133 0.26017633 20
1.179423 -1.1976781 0.20169376 17
1.1904386 -1.2092865 0.14511432 21
1.17556 -1.194589 0.085830964 19
1.1662347 -1.1855268 0.02836016 25
1.187488 -1.2092406 -0.44387484 23
1.1871831 -1.2093524 -0.38241702 17
1.1819015 -1.2043923 -0.32027149 24
1.1887829 -1.2118278 -0.26281011 29
1.1942855 -1.2178621 -0.20474072 24
1.1844164 -1.2082199 -0.14467876 31
1.1730659 -1.1970592 -0.085545354 23
1.174248 -1.198684 -0.028335985 31
1.1723354 -1.1971495 0.43841249 23
1.182132 -1.207575 0.38100377 27
1.166487 -1.1920093 0.31645852 24
1.1802148 -1.2064587 0.26095766 30
1.1787049 -1.2053359 0.2023031 23
1.1862102 -1.2134345 0.14511432 30
1.1678931 -1.195114 0.085569285 25
1.1655829 -1.1931666 0.028447421 31
1.1834713 -1.2131716 -0.44387484 28
1.1799761 -1.2095886 -0.38129225 17
1.1849655 -1.2151275 -0.32217786 32
1.1815227 -1.2120203 -0.26202795 34
1.1939172 -1.2251624 -0.20535007 30
1.1806147 -1.2119349 -0.14467876 33
1.1692994 -1.2007385 -0.085545354 28
1.1739635 -1.2059492 -0.028422374 45
1.1719372 -1.204288 0.43970576 34
1.171538 -1.2042983 0.37875596 36
1.1730021 -1.2062246 0.31931809 35
1.1764188 -1.2101604 0.26095766 36
1.1645366 -1.1983558 0.20047507 31
1.1789215 -1.2135823 0.14467853 41
1.1676114 -1.2023593 0.085830964 35
1.1653107 -1.2004094 0.028534682 36
1.1794419 -1.2170895 -0.44387484 30
1.172357 -1.210201 -0.38016751 17
1.1807166 -1.2192564 -0.32217786 33
1.1772848 -1.2161371 -0.26202795 35
1.1896333 -1.2293224 -0.20535007 30
1.1763772 -1.2160486 -0.14467876 34
1.1685719 -1.2084023 -0.085806161 31
1.1732215 -1.2136341 -0.028508766 51
1.1677263 -1.2083715 0.43970576 44
1.1707121 -1.2118845 0.37987986 45
1.1721941 -1.2138424 0.32027125 39
1.1756173 -1.2178127 0.26173896 40
1.1672387 -1.2095556 0.20169376 37
1.1781363 -1.221275 0.14511432 48
1.1668731 -1.2100219 0.086092643 37
1.1645832 -1.2080691 0.028621946 36
1.1716248 -1.2179236 -0.44258076 25
1.1645365 -1.2109782 -0.37904274 16
1.1796415 -1.2271142 -0.32313105 36
1.1762414 -1.2240047 -0.26281011 39
1.1885577 -1.2372533 -0.20595942 33
1.1753623 -1.2239448 -0.14511454 50
1.1675929 -1.2162791 -0.086066969 31
1.1687654 -1.217926 -0.028508766 42
1.1632895 -1.2126433 0.43970576 40
1.1662625 -1.2161672 0.37987986 51
1.1677372 -1.2181306 0.32027125 46
1.1711459 -1.2221134 0.26173896 39
1.1662307 -1.2174095 0.2023031 39
1.1770973 -1.2291822 0.14555009 57
1.1658832 -1.2178974 0.086354323 37
1.1601475 -1.2123294 0.028621946 41
1.1673664 -1.222006 -0.44258076 16
1.1603023 -1.2150358 -0.37904274 13
1.1787401 -1.2347747 -0.32408425 54
1.1719617 -1.2281032 -0.26281011 62
1.1842315 -1.2413946 -0.20595942 65
1.1710827 -1.2280401 -0.14511454 91
1.1633402 -1.2203475 -0.086066969 39
1.1679559 -1.2256174 -0.028595155 67
1.1590495 -1.2166966 0.43970576 42
1.16537 -1.2237591 0.38100377 45
1.1668624 -1.2257544 0.32122445 46
1.1668729 -1.2261939 0.26173896 66
1.1653945 -1.2250686 0.20291245 46
1.1762319 -1.2368931 0.14598587 71
1.1650651 -1.2255787 0.086616002 60
1.1593524 -1.2199956 0.028709207 73
1.1597697 -1.2225696 -0.44128665 13
1.1527016 -1.2155435 -0.377918 12
1.1811764 -1.246006 -0.32599062 64
1.1676676 -1.2321866 -0.26281011 84
1.1798911 -1.2455208 -0.20595942 84
1.1667889 -1.2321205 -0.14511454 84
1.1590734 -1.2244009 -0.086066969 76
1.1636705 -1.2296869 -0.028595155 81
1.1581146 -1.2242436 0.440999 61
1.1610912 -1.2278194 0.38100377 65
1.1625766 -1.22982 0.32122445 82
1.1659775 -1.233849 0.26252028 85
1.1611112 -1.2291291 0.20291245 77
1.1719072 -1.2409914 0.14598587 83
1.1642075 -1.2332689 0.086877681 80
1.1516557 -1.2203991 0.028621946 59
1.1554952 -1.2266104 -0.44128665 14
1.1484516 -1.2195598 -0.377918 14
1.1633624 -1.2358259 -0.32217786 33
1.1599749 -1.2326585 -0.26202795 67
1.1755363 -1.2496318 -0.20595942 62
1.1590687 -1.2325572 -0.14467876 52
1.1547923 -1.2284393 -0.086066969 67
1.1559474 -1.2300982 -0.028508766 55
1.1505271 -1.2247585 0.43970576 86
1.1601334 -1.2354165 0.38212767 88
1.1582766 -1.2338706 0.32122445 79
1.1582841 -1.2343103 0.26173896 56
1.1568137 -1.2331747 0.20291245 75
1.1675682 -1.2450745 0.14598587 73
1.1564806 -1.2336824 0.086616002 49
1.1439703 -1.2207638 0.028534682 33
1.1512064 -1.2306364 -0.44128665 13
1.1441875 -1.2235613 -0.377918 15
1.148986 -1.2291225 -0.31931829 24
1.1489216 -1.2294836 -0.2604636 45
1.1643915 -1.2464744 -0.20474072 38
1.1479601 -1.2293148 -0.1438072 34
1.1436827 -1.2251627 -0.085545354 37
1.1448251 -1.2268158 -0.028335985 33
1.1462449 -1.2287672 0.43970576 55
1.1524911 -1.2358954 0.38100377 60
1.1539625 -1.2379063 0.32122445 46
1.1506015 -1.2347329 0.26095766 34
1.1491194 -1.2335738 0.2023031 43
1.1598204 -1.2454973 0.14555009 41
1.1453629 -1.2304022 0.086092643 32
1.1328908 -1.21743 0.02836016 27
1.1436167 -1.2311089 -0.43999255 14
1.1365944 -1.2239777 -0.37679324 15
1.13801 -1.2259312 -0.31741193 22
1.1379045 -1.2262467 -0.25889924 33
1.1532834 -1.2432547 -0.20352203 29
1.1402751 -1.2296619 -0.14337142 27
1.1360047 -1.2254857 -0.085284546 30
1.1337398 -1.2234706 -0.028163204 30
1.1386665 -1.2292176 0.43841249 34
1.1448598 -1.2363361 0.37987986 36
1.1396315 -1.2311209 0.31836489 30
1.1395762 -1.2314924 0.25939503 25
1.1380664 -1.2302915 0.20108441 30
1.1487024 -1.2422241 0.14467853 33
1.1376717 -1.2307262 0.085830964 30
1.1218486 -1.214034 0.028185636 26
1.1360377 -1.2315434 -0.43869847 14
1.1290123 -1.2243562 -0.3756685 15
1.1270703 -1.2226782 -0.31550553 27
1.1269242 -1.222948 -0.25733492 29
1.1455742 -1.2436227 -0.20291269 28
1.1292278 -1.2263066 -0.14249986 30
1.1249566 -1.2220962 -0.084762931 29
1.122692 -1.2200632 -0.027990425 27
1.1278292 -1.2260754 0.435826 29
1.1339417 -1.2331523 0.37763205 29
1.1320055 -1.2314779 0.31741169 26
1.1285874 -1.2281897 0.25783241 25
1.1270505 -1.2269469 0.19986571 26
1.1376213 -1.2388886 0.14380698 30
1.1266156 -1.2273332 0.085307606 27
1.110844 -1.2105756 0.028011112 27
1.1284697 -1.23194 -0.43740436 14
1.1214416 -1.2246966 -0.37454373 15
1.1194814 -1.2229846 -0.31455237 29
1.1159807 -1.2195876 -0.25577056 30
1.134527 -1.2402902 -0.201694 27
1.1182179 -1.2228892 -0.1416283 28
1.1173149 -1.2223301 -0.084502116 26
1.1116816 -1.2165936 -0.027817644 27
1.1202852 -1.2264388 0.43453273 27
1.1230597 -1.2299074 0.37538424 28
1.1210818 -1.2281717 0.31550533 25
1.1176358 -1.2248256 0.25626978 26
1.1160719 -1.2235405 0.19864702 27
1.1265777 -1.235491 0.14293543 30
1.1155972 -1.223878 0.084784247 28
1.1032443 -1.2107505 0.027923848 26
1.1209128 -1.232299 -0.43611029 14
1.1106046 -1.2213948 -0.37229422 15
1.1119041 -1.2232527 -0.31359917 29
1.1083958 -1.2198207 -0.2549884 29
1.123517 -1.2368958 -0.20047529 28
1.1072456 -1.2194098 -0.14075674 28
1.1063296 -1.2188283 -0.083980501 26
1.1040688 -1.2167645 -0.027731255 29
1.1095073 -1.223187 0.43194625 27
1.1122146 -1.2266017 0.37313643 27
1.110195 -1.224804 0.31359896 26
1.1067214 -1.2214001 0.25470719 26
1.1051308 -1.2200726 0.19742833 25
1.1155716 -1.2320315 0.14206386 31
1.1046168 -1.220361 0.084260888 28
1.0923028 -1.2071801 0.027749324 26
1.1101298 -1.2290361 -0.43352208 14
1.1030694 -1.2216481 -0.37116945 15
1.1043386 -1.223483 -0.31264597 29
1.0975145 -1.2163492 -0.25342405 31
1.1125449 -1.2334399 -0.1992566 28
1.0996467 -1.2195681 -0.14032097 30
1.0953822 -1.2152648 -0.083458878 27
1.0931218 -1.2131828 -0.027558472 27
1.0987661 -1.2198751 0.42935973 27
1.101406 -1.2232352 0.37088862 27
1.0993458 -1.2213757 0.31169257 24
1.0958446 -1.2179134 0.25314456 25
1.0975465 -1.220233 0.19681899 28
1.1046035 -1.2285101 0.1411923 31
1.0970124 -1.2204958 0.083999209 27
1.084741 -1.2072669 0.027662061 26
1.1026082 -1.2293085 -0.432228 14
1.0922937 -1.2182364 -0.36891994 15
1.0967852 -1.2236754 -0.3116928 30
1.0899664 -1.2164948 -0.25264189 29
1.1016105 -1.2299224 -0.19803791 29
1.0887377 -1.2159774 -0.1394494 28
1.0878034 -1.2153605 -0.083198071 27
1.0855469 -1.2132654 -0.027472083 28
1.0912813 -1.220103 0.42806649 26
1.093882 -1.2234404 0.36976472 28
1.0918046 -1.2215461 0.3107394 25
1.0882962 -1.2180485 0.25236323 25
1.0866685 -1.2166541 0.1956003 26
1.0936737 -1.2249275 0.14032075 30
1.0860957 -1.2168673 0.083475843 27
1.0738639 -1.2035855 0.027487539 26
1.0950981 -1.2295432 -0.43093389 14
1.084795 -1.2184032 -0.3677952 15
1.0892438 -1.22383 -0.31073961 29
1.0791482 -1.212913 -0.25107753 31
1.0940124 -1.2300521 -0.19742855 28
1.0778674 -1.2123253 -0.13857783 29
1.0769202 -1.2116859 -0.082676448 28
1.0746642 -1.2095728 -0.027299302 28
1.0806011 -1.2166826 0.42547998 26
1.0831355 -1.2199647 0.36751691 27
1.0810179 -1.2180078 0.308833 25
1.0774827 -1.2144514 0.25080064 25
1.0791221 -1.2167269 0.19499093 26
1.0860869 -1.2250106 0.13988498 31
1.0752177 -1.2131776 0.082952484 28
1.0630256 -1.1998429 0.027313014 25
1.0876 -1.2297406 -0.42963982 14
1.0740815 -1.2148826 -0.36554569 15
1.0817147 -1.2239469 -0.30978641 28
1.071638 -1.2129716 -0.25029534 30
1.0831418 -1.226424 -0.19620986 27
1.0670358 -1.2086124 -0.13770628 27
1.06938 -1.2116939 -0.08241564 26
1.0671281 -1.2095679 -0.027212912 28
1.0699582 -1.2132024 0.42289349 28
1.0756484 -1.2200836 0.36639303 26
1.0735145 -1.2180915 0.30787984 26
1.0667075 -1.2107939 0.24923798 25
1.0683084 -1.2130377 0.19377224 27
1.0752214 -1.2213171 0.13901341 31
1.0676777 -1.2131752 0.082690805 28
1.0522265 -1.1960393 0.02713849 28
1.0769269 -1.2262717 -0.4270516 15
1.0666201 -1.2149633 -0.36442092 15
1.0709608 -1.2203372 -0.30788004 29
1.0608838 -1.2092803 -0.24873099 30
1.0755819 -1.2264662 -0.19560052 29
1.059527 -1.2085844 -0.1372705 29
1.0585622 -1.207909 -0.081894025 26
1.056311 -1.2057648 -0.027040131 28
1.0625348 -1.2132963 0.42160022 26
1.0649647 -1.2164992 0.36414522 28
1.0627911 -1.214444 0.30597344 26
1.0592229 -1.210793 0.24845667 26
1.0608006 -1.2130238 0.19316289 27
1.0676734 -1.2213128 0.13857763 30
1.056865 -1.2093749 0.082167447 27
1.0414672 -1.192175 0.026963966 26
1.0696796 -1.2261968 -0.42575753 15
1.0563928 -1.2109658 -0.36217141 15
1.0606698 -1.216297 -0.30597368 30
1.0538343 -1.2088846 -0.24794883 29
1.0684632 -1.2260977 -0.19499116 28
1.0491815 -1.2043954 -0.13639894 30
1.051483 -1.207463 -0.081633218 29
1.0492352 -1.2053066 -0.026953742 26
1.0523767 -1.2093414 0.41901374 26
1.05794 -1.2161632 0.36302131 28
1.0557497 -1.2140729 0.30502024 26
1.0489339 -1.2066603 0.24689406 25
1.0504742 -1.2088583 0.1919442 27
1.0572983 -1.2171403 0.13770607 30
1.0497867 -1.2089192 0.081905767 27
1.0344397 -1.1916659 0.026876705 26
1.0592819 -1.2224374 -0.42316931 15
1.0489694 -1.2109634 -0.36104667 16
1.0499916 -1.212571 -0.30406728 27
1.043144 -1.205088 -0.24638447 29
1.057682 -1.2223142 -0.19377246 26
1.0417123 -1.2042832 -0.13596317 27
1.0407299 -1.203572 -0.081111602 28
1.0417523 -1.2051797 -0.026867351 28
1.0449911 -1.2093531 0.4177205 28
1.0473188 -1.2124746 0.3607735 27
1.0450897 -1.2103209 0.30311388 26
1.0414884 -1.2065759 0.24611275 25
1.0430061 -1.2087605 0.19133486 28
1.0497898 -1.2170517 0.13727029 30
1.0390391 -1.2050133 0.081382409 28
1.0237457 -1.1876961 0.026702181 26
1.051645 -1.2226501 -0.42187524 15
1.0413476 -1.2111058 -0.35992187 16
1.0391414 -1.2089666 -0.30216089 28
1.0355018 -1.2051576 -0.24560231 30
1.0499614 -1.222418 -0.19316311 27
1.0340465 -1.2043142 -0.13552739 30
1.0330594 -1.2035896 -0.080850787 29
1.0308174 -1.2014016 -0.026694572 28
1.0342628 -1.2058429 0.41513398 28
1.0396965 -1.2126063 0.35964957 27
1.0374525 -1.2104166 0.30216068 25
1.0338458 -1.2066348 0.24533144 26
1.0353404 -1.208806 0.19072551 28
1.0388432 -1.2133242 0.13639873 32
1.0313687 -1.2050201 0.081120729 28
1.0161356 -1.1876417 0.026614919 28
1.0410975 -1.2189686 -0.41928706 15
1.0339504 -1.2110282 -0.35879713 16
1.0317286 -1.2088531 -0.30120769 29
1.024878 -1.2012509 -0.24403796 32
1.0392472 -1.2185236 -0.19194442 28
1.0266048 -1.204126 -0.1350916 29
1.025613 -1.203388 -0.08058998 29
1.0233754 -1.201187 -0.02660818 28
1.0269156 -1.2057686 0.41384071 27
1.0291408 -1.2088087 0.35740176 28
1.0268587 -1.2065547 0.30025432 25
1.0264275 -1.2064747 0.24455012 27
1.0246843 -1.2048517 0.18950681 29
1.0313752 -1.213148 0.13596296 31
1.020689 -1.2010034 0.080597371 30
1.0055102 -1.1835617 0.026440395 28
1.0337125 -1.2189119 -0.41799295 14
1.0265664 -1.2109139 -0.35767236 16
1.0211561 -1.2049582 -0.29930133 29
1.0174866 -1.2010531 -0.24325579 30
1.0317802 -1.2183567 -0.19133508 27
1.0191771 -1.2039005 -0.13465583 31
1.0181806 -1.2031492 -0.080329172 30
1.0127186 -1.1971185 -0.026435401 28
1.0164629 -1.20197 0.4112542 29
1.0217696 -1.2086731 0.35627785 29
1.0194726 -1.206383 0.29930112 27
1.015836 -1.2025051 0.24298751 28
1.0172704 -1.2046297 0.18889748 28
1.0239211 -1.2129347 0.13552718 31
1.0132705 -1.200743 0.080335692 28
0.99814928 -1.183243 0.026353132 27
1.0263406 -1.2188185 -0.41669884 15
1.0160584 -1.2070357 -0.35542285 16
1.0137835 -1.2047598 -0.29834813 30
1.0101088 -1.2008183 -0.24247362 30
1.0211332 -1.2143543 -0.19011639 27
1.0085583 -1.199825 -0.13378426 31
1.0075501 -1.1990504 -0.079807557 30
1.0053183 -1.1968185 -0.02634901 30
1.0091552 -1.201812 0.40996096 28
1.0112797 -1.204769 0.35403004 29
1.0121003 -1.2061743 0.29834792 28
1.0084584 -1.2022599 0.2422062 27
1.0098706 -1.2043704 0.18828812 29
1.0164813 -1.2126842 0.13509139 33
1.0026592 -1.1966182 0.079812333 29
0.99080276 -1.1828876 0.026265871 29
1.0189818 -1.2186886 -0.41540477 15
1.0087146 -1.2068369 -0.35429811 16
1.0064248 -1.2045246 -0.29739496 30
1.0027453 -1.2005466 -0.24169144 33
1.0137074 -1.2141018 -0.18950704 28
1.0011723 -1.1995143 -0.13334849 31
1.0001597 -1.1987263 -0.07954675 31
0.99473023 -1.192642 -0.026176231 28
0.99876809 -1.197908 0.40737444 28
1.0039487 -1.2045491 0.35290614 29
1.0016001 -1.2021577 0.29644156 28
0.99793446 -1.1981833 0.24064358 27
0.99930972 -1.2002604 0.18706943 29
1.0090556 -1.2123965 0.13465562 33
0.99528259 -1.1962725 0.079550654 29
0.98347104 -1.1824952 0.02617861 27
1.0085515 -1.2148061 -0.41281655 15
1.0013844 -1.2066017 -0.35317335 16
0.99908006 -1.2042527 -0.29644176 30
0.99539602 -1.2002383 -0.24090928 32
1.0062958 -1.2138124 -0.18889768 28
0.99380088 -1.1991667 -0.13291271 32
0.98959833 -1.19452 -0.079025127 29
0.9873724 -1.1922566 -0.02608984 29
0.9915005 -1.1976668 0.4060812 30
0.99663168 -1.2042928 0.35178223 28
0.99426901 -1.2018647 0.29548836 27
0.99059868 -1.1978536 0.23986228 27
0.99195194 -1.1999165 0.18646009 28
0.9984715 -1.2082323 0.13378407 34
0.98792076 -1.1958898 0.079288974 29
0.97615403 -1.1820662 0.026091347 30
1.0012329 -1.2145926 -0.41152245 15
0.99406821 -1.2063301 -0.35204861 17
0.99174964 -1.2039444 -0.29548857 29
0.98806101 -1.1998934 -0.2401271 30
0.99574476 -1.2096545 -0.18767899 30
0.98327911 -1.1949359 -0.13204116 30
0.98225063 -1.1941108 -0.078764319 30
0.97685432 -1.187973 -0.025917061 29
0.98117995 -1.1936582 0.40349469 30
0.98623574 -1.2002358 0.34953442 29
0.98383683 -1.1977426 0.29358199 27
0.98014325 -1.1936706 0.23829965 28
0.98460877 -1.1995357 0.18585074 29
0.99108845 -1.2078596 0.13334829 33
0.98374027 -1.199331 0.079288974 31
0.96885222 -1.1816007 0.026004085 29
0.99086916 -1.2106055 -0.40893427 15
0.98676622 -1.2060221 -0.35092384 16
0.98132604 -1.1998004 -0.2935822 30
0.97761482 -1.1956886 -0.23856275 30
0.98837554 -1.2092804 -0.18706965 30
0.97595048 -1.1945037 -0.13160537 33
0.97175926 -1.1897978 -0.078242704 30
0.96953976 -1.1875032 -0.025830669 31
0.97395337 -1.1933341 0.40220144 29
0.97896022 -1.1998962 0.34841052 29
0.97654772 -1.1973658 0.29262879 27
0.97285002 -1.1932571 0.23751834 29
0.97728032 -1.1991184 0.1852414 29
0.98057389 -1.2035885 0.13247673 32
0.97639465 -1.1988859 0.079027295 31
0.96156538 -1.1810985 0.025916822 30
0.98359138 -1.2103088 -0.40764016 15
0.97640663 -1.2018967 -0.34867433 16
0.97403777 -1.1994084 -0.292629 31
0.97032255 -1.1952597 -0.23778059 32
0.98102111 -1.2088696 -0.1864603 30
0.96863687 -1.1940349 -0.1311696 31
0.96445519 -1.1893042 -0.077981897 32
0.9590925 -1.1831133 -0.025657889 31
0.96674109 -1.1929741 0.4009082 29
0.96863234 -1.1957344 0.34616271 29
0.96927327 -1.1969527 0.29167563 27
0.96557158 -1.1928072 0.23673703 29
0.9668451 -1.1948067 0.18402271 29
0.97323406 -1.2031314 0.13204095 34
0.96592468 -1.1945218 0.078503937 30
0.95115125 -1.1766721 0.025742298 29
0.97329491 -1.2062175 -0.40505198 15
0.96914661 -1.2015055 -0.34754959 16
0.96676421 -1.1989801 -0.29167584 31
0.9599461 -1.1909497 -0.23621623 32
0.97368175 -1.2084223 -0.18585096 30
0.9582141 -1.1896505 -0.13029803 32
0.95716637 -1.1887745 -0.077721082 30
0.95182216 -1.1825595 -0.025571499 32
0.95954317 -1.1925783 0.39961493 28
0.95834559 -1.1915154 0.3439149 29
0.96201372 -1.1965036 0.29072243 27
0.95521432 -1.1884716 0.23517442 29
0.95956022 -1.1943057 0.18341336 29
0.96279031 -1.1987544 0.13116939 34
0.95862317 -1.1939927 0.07824225 31
0.94390893 -1.1760861 0.025655035 28
0.96605879 -1.2058384 -0.40375787 16
0.96190125 -1.2010785 -0.34642482 16
0.95950562 -1.1985159 -0.29072264 31
0.9526974 -1.1904376 -0.23543407 33
0.96325725 -1.2040632 -0.18463226 32
0.95094466 -1.189098 -0.12986226 31
0.94989312 -1.1882082 -0.077460274 32
0.9445675 -1.1819693 -0.02548511 31
0.95235997 -1.192147 0.39832169 29
0.95114028 -1.1910465 0.34279102 31
0.95170689 -1.1921827 0.28881606 28
0.94797945 -1.1879385 0.2343931 30
0.94919592 -1.1898887 0.18219467 29
0.95549446 -1.1982133 0.13073361 34
0.94822478 -1.1895229 0.077718891 30
0.93668234 -1.175464 0.025567774 30
0.95583081 -1.2016439 -0.40116969 16
0.95163858 -1.1968024 -0.34417531 18
0.95226204 -1.1980156 -0.28976944 31
0.94239175 -1.1860229 -0.23386972 34
0.9559617 -1.2035322 -0.18402292 30
0.94059354 -1.1846085 -0.12899069 32
0.93953115 -1.1836948 -0.076938659 31
0.93732858 -1.1813431 -0.025398716 31
0.94219005 -1.1878959 0.39573517 30
0.94092309 -1.1867239 0.34054321 31
0.94449085 -1.1916507 0.28786287 27
0.9407602 -1.1873696 0.23361179 29
0.94195545 -1.1893045 0.18158531 29
0.94821429 -1.1976362 0.13029784 32
0.94096798 -1.1889101 0.077457212 31
0.92947167 -1.1748059 0.025480511 31
0.94884676 -1.2010173 -0.39987558 16
0.9448539 -1.1959633 -0.34305057 21
0.94545156 -1.1971493 -0.28881627 31
0.93560106 -1.1851015 -0.23308755 33
0.94910151 -1.2026337 -0.18341357 33
0.93378234 -1.183647 -0.12855493 32
0.93271601 -1.1827199 -0.076677844 30
0.93051755 -1.1803559 -0.025312327 32
0.93546402 -1.1870565 0.39444193 30
0.93417531 -1.1858469 0.33941931 30
0.93770576 -1.190756 0.28690967 29
0.93397051 -1.1864387 0.23283048 29
0.93207639 -1.1844579 0.18036662 31
0.93828791 -1.1927794 0.12942629 33
0.93105537 -1.1840104 0.076933846 32
0.92268682 -1.1737899 0.025393249 32
0.94187742 -1.2003576 -0.3985815 16
0.93766671 -1.1954209 -0.3419258 17
0.93823832 -1.1965797 -0.28786308 33
0.92841202 -1.1844734 -0.23230538 35
0.93877614 -1.1981266 -0.18219487 31
0.9265734 -1.1829779 -0.12811914 34
0.92550355 -1.182037 -0.076417036 32
0.9233104 -1.1796601 -0.025225937 31
0.92536229 -1.1827068 0.39185542 30
0.92702883 -1.1852629 0.3382954 30
0.93052042 -1.1901553 0.2859565 29
0.92678225 -1.1858004 0.23204918 28
0.92488092 -1.1837935 0.17975728 30
0.93105268 -1.1921219 0.1289905 34
0.92384398 -1.1833175 0.076672167 30
0.91550815 -1.1730624 0.025305986 31
0.93450409 -1.1999912 -0.3972874 16
0.92729354 -1.1911609 -0.33967629 22
0.92781758 -1.1922634 -0.28595668 31
0.92103225 -1.1839705 -0.2315232 34
0.93133205 -1.1976417 -0.18158554 31
0.91917437 -1.1824336 -0.12768336 33
0.91503733 -1.1775358 -0.075895414 33
0.9159137 -1.1790881 -0.025139546 34
0.91805899 -1.1822758 0.39056218 31
0.91969091 -1.1848041 0.33717149 29
0.92013401 -1.1858021 0.28405011 30
0.9194029 -1.185287 0.23126787 30
0.91749477 -1.1832535 0.17914791 32
0.92362565 -1.1915896 0.12855473 35
0.91644245 -1.1827486 0.076410487 30
0.9081412 -1.1724578 0.025218725 32
0.92735553 -1.1994251 -0.39599332 16
0.9201507 -1.1905358 -0.33855155 27
0.92064929 -1.1916107 -0.28500351 33
0.91387516 -1.1832696 -0.23074104 33
0.92411309 -1.1969572 -0.18097618 30
0.90895486 -1.1777484 -0.1268118 35
0.90787137 -1.1767691 -0.075634606 32
0.90873939 -1.1783195 -0.025053157 33
0.91097766 -1.1816481 0.38926893 32
0.90960157 -1.1802891 0.33492368 31
0.91299367 -1.1851184 0.28309694 29
0.90923333 -1.1806635 0.22970523 30
0.91033155 -1.1825165 0.17853858 32
0.91642278 -1.1908588 0.12811893 34
0.90926385 -1.1819829 0.076148808 31
0.89794803 -1.1676947 0.025044201 32
0.9202224 -1.1988238 -0.39469922 16
0.91302353 -1.1898754 -0.33742678 31
0.91349685 -1.1909226 -0.28405032 32
0.9037292 -1.1786144 -0.22917667 33
0.91691017 -1.1962368 -0.18036683 31
0.90180868 -1.1769603 -0.12637602 33
0.90072197 -1.1759671 -0.075373799 32
0.90158147 -1.1775149 -0.024966767 34
0.90097624 -1.17715 0.38668242 32
0.90251553 -1.1795877 0.33379978 33
0.90586942 -1.1843995 0.28214374 31
0.90210694 -1.1799068 0.22892392 30
0.90318477 -1.181744 0.17792922 31
0.90923643 -1.1900926 0.12768316 35
0.90210176 -1.1811813 0.075887129 32
0.8908329 -1.1668484 0.02495694 31
0.91310477 -1.1981875 -0.39340511 16
0.90591228 -1.1891798 -0.33630204 30
0.90636045 -1.190199 -0.28309712 33
0.89661831 -1.1778324 -0.22839449 33
0.90972364 -1.1954809 -0.17975749 31
0.89467919 -1.1761367 -0.12594023 35
0.89661151 -1.179104 -0.075373799 32
0.89444035 -1.176675 -0.024880376 33
0.89393967 -1.1764423 0.38538918 31
0.89544547 -1.1788511 0.33267587 32
0.89579302 -1.1797361 0.28023735 30
0.89499694 -1.1791148 0.2281426 31
0.89605439 -1.1809359 0.17731988 33
0.90206653 -1.1892905 0.12724738 35
0.89797318 -1.1843231 0.075887129 32
0.88373464 -1.1659669 0.024869677 31
0.90600276 -1.1975158 -0.39211103 16
0.898817 -1.188449 -0.33517727 31
0.89628029 -1.1855251 -0.28119075 32
0.88654637 -1.1730753 -0.22683015 34
0.90255356 -1.1946894 -0.17914812 33
0.88756657 -1.1752778 -0.12550446 35
0.88948184 -1.1782415 -0.075112991 32
0.88430482 -1.1718091 -0.024707597 33
0.8869189 -1.1756998 0.38409594 30
0.88839167 -1.1780797 0.33155197 30
0.88871497 -1.1789364 0.27928415 31
0.88790357 -1.1782877 0.22736131 31
0.88894075 -1.1800926 0.17671053 33
0.89491338 -1.1884531 0.12681161 35
0.89083081 -1.1834611 0.075625449 32
0.87665343 -1.1650498 0.024782415 31
0.89891672 -1.1968095 -0.39081693 16
0.89173788 -1.1876833 -0.33405253 31
0.88919014 -1.1847206 -0.28023756 32
0.87948239 -1.1722125 -0.22604798 36
0.89540017 -1.1938624 -0.17853878 33
0.88047075 -1.1743835 -0.12506868 34
0.88236898 -1.1773436 -0.074852183 32
0.87721157 -1.1708877 -0.024621205 32
0.87701905 -1.1710567 0.38150942 32
0.88135403 -1.1772733 0.33042803 33
0.88165343 -1.1781017 0.27833098 32
0.88082683 -1.1774255 0.22657999 32
0.88184398 -1.1792141 0.17610119 32
0.88777721 -1.1875802 0.12637582 35
0.88370538 -1.1825637 0.07536377 33
0.86958945 -1.1640977 0.024695154 32
0.89184654 -1.1960682 -0.38952285 17
0.88467509 -1.1868827 -0.33292776 31
0.88211668 -1.1838814 -0.27928436 32
0.87243533 -1.1713148 -0.2252658 35
0.88826358 -1.1930001 -0.17792943 33
0.87339205 -1.173454 -0.1246329 36
0.87527341 -1.1764104 -0.074591376 33
0.87013555 -1.1699312 -0.024534816 34
0.87004429 -1.170235 0.38021615 34
0.87433302 -1.1764321 0.32930413 32
0.87460852 -1.177232 0.27737778 33
0.87376696 -1.1765281 0.22579868 31
0.87180597 -1.1743158 0.1748825 32
0.8776896 -1.1826723 0.12550427 37
0.87659717 -1.1816311 0.075102091 32
0.86254287 -1.1631105 0.024607891 32
0.88479269 -1.1952922 -0.38822874 17
0.87762892 -1.1860473 -0.33180302 31
0.87505996 -1.1830074 -0.27833116 34
0.8654052 -1.1703823 -0.22448364 34
0.88114393 -1.1921026 -0.17732009 33
0.86633062 -1.1724896 -0.12419713 36
0.86819512 -1.1754422 -0.074330568 32
0.86307693 -1.1689396 -0.024448426 35
0.86308587 -1.1693788 0.37892288 33
0.8673287 -1.1755567 0.32818022 33
0.86758065 -1.1763278 0.27642459 32
0.86672413 -1.175596 0.22501737 31
0.86475724 -1.1733568 0.17427315 33
0.87060148 -1.1817185 0.12506849 37
0.86950618 -1.1806632 0.074840412 31
0.85551375 -1.1620883 0.02452063 31
0.87775505 -1.1944816 -0.38693464 17
0.87059915 -1.1851771 -0.33067822 32
0.86511493 -1.1781422 -0.2764248 34
0.85839236 -1.1694149 -0.22370146 34
0.87404144 -1.1911699 -0.17671074 34
0.85928655 -1.1714901 -0.12376134 35
0.85818172 -1.1704121 -0.073808946 34
0.85603595 -1.1679131 -0.024362035 34
0.85614419 -1.1684884 0.37762964 33
0.86034107 -1.1746465 0.32705632 34
0.8605696 -1.1753887 0.27547142 33
0.85969853 -1.1746291 0.22423606 32
0.85772586 -1.1723629 0.17366381 32
0.86353087 -1.1807297 0.12463271 37
0.85948592 -1.1756296 0.074317053 33
0.8485024 -1.1610314 0.024433367 33
0.87073392 -1.1936365 -0.38564056 17
0.86358637 -1.1842725 -0.32955348 32
0.85810596 -1.1771884 -0.2754716 35
0.8513968 -1.1684129 -0.22291929 34
0.86695635 -1.1902024 -0.17610139 33
0.85226017 -1.1704558 -0.12332556 37
0.85115248 -1.1693636 -0.073548138 35
0.84607136 -1.1628093 -0.024189256 34
0.84921926 -1.1675638 0.3763364 33
0.85337055 -1.173702 0.32593241 32
0.85357577 -1.1744151 0.27451822 33
0.85269022 -1.1736274 0.22345476 34
0.850712 -1.1713345 0.17305446 32
0.8564778 -1.1797062 0.12419693 35
0.85244411 -1.1745814 0.074055374 33
0.84150875 -1.1599395 0.024346106 34
0.86089677 -1.1888452 -0.38305238 16
0.85659051 -1.1833333 -0.32842872 32
0.85111415 -1.1762002 -0.27451843 35
0.84441864 -1.1673764 -0.22213712 34
0.85988849 -1.1891998 -0.17549205 34
0.84525144 -1.1693869 -0.12288979 36
0.84414119 -1.1682802 -0.073287331 35
0.83908004 -1.1617028 -0.024102865 34
0.8423112 -1.1666052 0.37504312 35
0.84641701 -1.1727231 0.32480851 34
0.84659922 -1.1734071 0.27356502 33
0.84569949 -1.1725912 0.22267345 33
0.84371585 -1.1702713 0.17244512 33
0.84653008 -1.1746069 0.12332538 37
0.84250152 -1.1694473 0.073532015 33
0.83453315 -1.1588131 0.024258845 34
0.85392267 -1.1879215 -0.38175827 16
0.84961176 -1.1823598 -0.32730398 32
0.84413975 -1.1751776 -0.27356523 33
0.83745837 -1.1663054 -0.22135495 35
0.84994453 -1.1841308 -0.17427336 34
0.83535677 -1.1642362 -0.12201823 36
0.83714777 -1.1671623 -0.073026523 35
0.83210683 -1.1605618 -0.024016475 35
0.83542019 -1.1656126 0.37374988 35
0.83948076 -1.1717099 0.3236846 35
0.83964026 -1.1723647 0.27261186 32
0.83872634 -1.1715205 0.22189213 33
0.83673745 -1.1691735 0.17183577 34
0.83952665 -1.1735035 0.12288959 37
0.83550984 -1.1683197 0.073270336 34
0.8275758 -1.1576523 0.024171581 33
0.84696555 -1.1869636 -0.38046414 16
0.84265023 -1.1813521 -0.32617921 32
0.83718294 -1.1741205 -0.27261204 34
0.83051568 -1.1652001 -0.22057277 35
0.84292614 -1.1830486 -0.173664 33
0.82839811 -1.163088 -0.12158245 37
0.83017248 -1.1660098 -0.072765715 36
0.82515186 -1.1593864 -0.023930086 35
0.82854646 -1.1645862 0.37245664 35
0.82973832 -1.1666925 0.32143679 34
0.83269876 -1.171288 0.27165866 33
0.83177114 -1.1704155 0.22111082 32
0.82977712 -1.1680415 0.17122643 32
0.8354252 -1.176427 0.12288959 37
0.82853627 -1.1671574 0.073008657 34
0.82063663 -1.1564569 0.02408432 34
0.84002554 -1.1859716 -0.37917006 16
0.83570617 -1.1803101 -0.32505447 32
0.83024383 -1.1730293 -0.27165884 35
0.82359093 -1.1640606 -0.21979061 36
0.83592582 -1.1819321 -0.17305467 33
0.82145768 -1.1619053 -0.12114667 38
0.82033372 -1.1607453 -0.072244093 34
0.81821513 -1.1581764 -0.023843694 36
0.82169014 -1.1635262 0.3711634 34
0.82285094 -1.1656015 0.32031292 33
0.82577515 -1.1701772 0.27070546 33
0.82483375 -1.1692762 0.22032951 32
0.8199749 -1.1628193 0.17000772 33
0.82844394 -1.1752647 0.12245382 37
0.82158101 -1.1659609 0.072746977 36
0.81083709 -1.1511401 0.023909796 35
0.83310288 -1.1849457 -0.37787595 16
0.82877976 -1.1792343 -0.3239297 33
0.82332247 -1.1719041 -0.27070567 36
0.81668448 -1.162887 -0.21900843 35
0.82894355 -1.1807811 -0.17244531 34
0.81453568 -1.1606885 -0.12071089 37
0.81340945 -1.1595141 -0.071983285 35
0.81129706 -1.1569324 -0.023757305 34
0.81485134 -1.1624323 0.36987013 34
0.81598139 -1.1644768 0.31918901 35
0.81605351 -1.1650122 0.2687991 34
0.81791449 -1.168103 0.21954821 33
0.81306505 -1.1616087 0.16939838 33
0.82148087 -1.1740683 0.12201804 37
0.81464422 -1.16473 0.072485298 36
0.80394936 -1.1498663 0.023822535 33
0.82619768 -1.1838861 -0.37658185 16
0.82187098 -1.1781244 -0.32280496 33
0.81641918 -1.1707448 -0.26975247 33
0.80979615 -1.1616794 -0.21822625 36
0.82197946 -1.1795957 -0.17183596 34
0.80763215 -1.1594375 -0.12027511 36
0.80650377 -1.1582487 -0.071722478 35
0.80439776 -1.1556542 -0.023670916 38
0.80803013 -1.161305 0.36857688 33
0.8091296 -1.1633182 0.31806511 34
0.8091799 -1.1638238 0.2678459 34
0.81101352 -1.1668955 0.2187669 34
0.80617368 -1.160364 0.16878903 33
0.81453633 -1.1728375 0.12158226 39
0.80772609 -1.1634649 0.072223619 34
0.79708046 -1.1485586 0.023735272 34
0.81930995 -1.1827927 -0.37528777 16
0.81220669 -1.1729753 -0.32055545 32
0.80953407 -1.1695517 -0.26879928 34
0.80292624 -1.1604381 -0.21744409 37
0.81503391 -1.1783762 -0.17122662 35
0.80074733 -1.1581526 -0.11983933 37
0.79961687 -1.1569492 -0.07146167 36
0.79751712 -1.1543419 -0.023584524 36
0.80122679 -1.1601442 0.36728364 36
0.80229592 -1.1621261 0.3169412 35
0.80232465 -1.1626015 0.26689273 32
0.80413103 -1.1656543 0.21798559 34
0.79930109 -1.1590856 0.16817969 31
0.80761039 -1.1715727 0.12114649 38
0.80082667 -1.1621658 0.071961939 36
0.79023045 -1.1472168 0.023648011 33
0.81243998 -1.1816655 -0.37399366 16
0.8053478 -1.1717883 -0.31943068 32
0.7998879 -1.1642792 -0.26689291 34
0.79607493 -1.1591628 -0.21666192 36
0.8081069 -1.1771227 -0.17061727 34
0.79388136 -1.1568339 -0.11940356 37
0.79274893 -1.1556158 -0.071200863 35
0.79065561 -1.1529958 -0.023498135 37
0.79444152 -1.1589502 0.36599037 35
0.79823452 -1.1649196 0.3169412 34
0.79548782 -1.1613457 0.26593953 33
0.7972672 -1.1643792 0.21720427 36
0.7952503 -1.1618686 0.16817969 36
0.80070329 -1.1702737 0.12071071 39
0.79394633 -1.1608328 0.07170026 34
0.78339952 -1.1458414 0.023560748 34
0.80579406 -1.1803645 -0.37269959 16
0.7989158 -1.1702889 -0.31830594 33
0.79345953 -1.1627322 -0.26593971 35
0.78964645 -1.1575783 -0.21587974 35
0.80160892 -1.1755553 -0.17000793 35
0.78743762 -1.1552063 -0.11896777 37
0.78630286 -1.1539743 -0.070940048 35
0.78421515 -1.1513422 -0.023411745 37
0.78807837 -1.1574481 0.36469713 37
0.79182965 -1.1633939 0.3158173 35
0.78907436 -1.159781 0.26498634 34
0.79082793 -1.1627946 0.21642296 34
0.78880608 -1.1602572 0.16757034 35
0.79422313 -1.1686637 0.12027492 40
0.78748977 -1.159191 0.071438581 34
0.77698737 -1.1441611 0.023473486 34
0.79916561 -1.1790323 -0.37140548 17
0.7920931 -1.1690373 -0.31718117 32
0.78389108 -1.1573671 -0.26403335 35
