# .PCD v0.7 - Point Cloud Data file format
VERSION 0.7
FIELDS x y z intensity
SIZE 4 4 4 4
TYPE F F F F
COUNT 1 1 1 1
WIDTH 1428
HEIGHT 1
VIEWPOINT 0 0 0 1 0 0 0
POINTS 1428
DATA ascii
2.0154886 1.7293144 0.41409445 11
2.0029051 1.7179109 0.31929767 11
2.0218062 1.73351 0.22965539 11
2.0193975 1.7308335 0.13738188 13
2.0107388 1.7228035 0.045550779 14
1.4017558 1.1989064 -0.48399183 3
1.6324396 1.3957144 -0.48701933 3
1.9431769 1.6608036 -0.48898596 4
2.0228057 1.7282503 -0.41533384 10
2.0442357 1.7459427 -0.3253915 12
2.0292203 1.7325059 -0.23009151 13
2.0154402 1.7201328 -0.13640311 11
2.021955 1.725083 -0.045268461 12
2.0245402 1.7266784 0.70223594 13
2.0274456 1.7285452 0.60578477 14
2.0239422 1.7249482 0.50900251 14
2.0252719 1.7254713 0.41487581 12
2.0126679 1.7141268 0.31990701 11
2.03543 1.7328999 0.23052694 12
2.0292294 1.72701 0.13764356 14
2.0243556 1.722253 0.045725301 14
1.4059322 1.1940061 -0.48399183 3
1.6335876 1.3868546 -0.48589453 3
1.9564466 1.6603624 -0.49089235 4
2.0363579 1.7275684 -0.41689819 9
2.0541027 1.7420061 -0.32600087 12
2.0428543 1.731854 -0.23096307 13
2.0252419 1.7163153 -0.13666391 11
2.0317791 1.7212461 -0.045354854 13
2.0342412 1.7227223 0.70352924 13
2.0371857 1.7246053 0.60690868 14
2.0336978 1.7210435 0.50995576 14
2.035053 1.7215809 0.41565707 12
2.0262179 1.7135 0.32112572 11
2.0452704 1.7290001 0.23096271 12
2.0428731 1.726362 0.13816692 13
2.034174 1.7184024 0.045812566 14
1.4137837 1.1922046 -0.48528594 3
1.6346939 1.3780038 -0.48476982 3
1.9584771 1.6503601 -0.48993912 4
2.0499296 1.7268132 -0.41846254 8
2.0677631 1.7412187 -0.32721955 12
2.0526977 1.7279203 -0.23139885 13
2.0350411 1.7124504 -0.13692473 12
2.0454261 1.7205796 -0.045527633 12
2.0476356 1.7218279 0.70611572 13
2.0506523 1.7237538 0.60915649 14
2.0472085 1.7202494 0.5118621 13
2.0486131 1.7208196 0.4172197 12
2.0359874 1.7096081 0.32173505 11
2.0551085 1.7250526 0.23139849 12
2.0527117 1.72243 0.1384286 13
2.0478206 1.7177169 0.045987088 13
1.4179366 1.1872623 -0.48528594 3
1.6394941 1.3722893 -0.48476982 3
1.9679905 1.6466634 -0.49089235 4
2.0483687 1.7133101 -0.41689819 6
2.077636 1.7371738 -0.32782891 12
2.0663605 1.7271333 -0.23227042 13
2.0486696 1.7117394 -0.13744634 11
2.0552566 1.7166339 -0.045614023 11
2.0573406 1.7177652 0.70740896 13
2.0603971 1.719707 0.61028039 14
2.0607386 1.7193817 0.51376849 14
2.0583999 1.7168214 0.41800103 11
2.0457542 1.7056687 0.32234439 11
2.0687702 1.7242465 0.23227006 11
2.0625474 1.7184502 0.13869028 12
2.0576453 1.7137575 0.046074349 13
1.4220722 1.1823055 -0.48528594 3
1.6442742 1.3665581 -0.48476982 3
1.9699512 1.6366471 -0.48993912 4
2.0809307 1.7282358 -0.42237341 5
2.0875051 1.7330806 -0.32843825 12
2.0762095 1.7230908 -0.23270617 13
2.058475 1.7077661 -0.13770714 10
2.0689325 1.715832 -0.045786802 12
2.0670426 1.7136559 0.70870227 13
2.07389 1.718722 0.6125282 14
2.0705075 1.7153094 0.51472169 14
2.0719876 1.7159258 0.41956365 12
2.0593412 1.7048467 0.3235631 11
2.0786133 1.7201902 0.23270582 12
2.0762281 1.7176058 0.13921364 13
2.0713198 1.7129364 0.046248872 14
1.4261906 1.1773343 -0.48528594 3
1.6452768 1.3577093 -0.48364502 3
1.975652 1.6297609 -0.48993912 4
2.1060007 1.736671 -0.42628425 9
2.1012008 1.7320968 -0.32965693 12
2.0860555 1.7190006 -0.23314197 12
2.0721316 1.7069197 -0.13822877 11
2.0787685 1.7117776 -0.045873195 12
2.0804696 1.7125692 0.71128875 13
2.0836389 1.714568 0.61365211 14
2.0840638 1.7143077 0.51662809 14
2.0817792 1.7118193 0.42034498 11
2.0691133 1.700799 0.32417244 11
2.0923023 1.7192485 0.23357739 11
2.0860696 1.7135173 0.13947532 13
2.0811503 1.7088684 0.046336137 14
1.4302915 1.1723489 -0.48528594 3
1.6500059 1.351958 -0.48364502 3
1.9851261 1.6259649 -0.49089235 4
2.1349761 1.7480805 -0.43097728 6
2.1110747 1.7278949 -0.3302663 12
2.0997531 1.7180166 -0.23401353 12
2.0858073 1.7059984 -0.13875039 11
2.0886011 1.7076753 -0.045959584 11
2.0901744 1.708353 0.71258199 13
2.097157 1.7134496 0.61589992 14
2.0938363 1.7101272 0.51758122 15
2.0953929 1.7107888 0.4219076 12
2.0788825 1.6967041 0.32478178 11
2.1060097 1.7182323 0.23444895 11
2.0997767 1.7125367 0.13999867 14
2.094852 1.7079114 0.046510659 14
1.4306293 1.1643006 -0.48399183 3
1.6547152 1.3461902 -0.48364502 3
1.9869817 1.6159285 -0.48993912 4
2.1487288 1.7468477 -0.43254164 4
2.1247959 1.7267753 -0.331485 12
2.1096036 1.7138176 -0.23444931 13
2.0956259 1.7018551 -0.1390112 12
2.1023121 1.7066761 -0.046132363 12
2.1036258 1.7071335 0.71516848 14
2.1106925 1.7122575 0.61814773 14
2.1036055 1.7058997 0.51853442 15
2.1051881 1.706574 0.4226889 11
2.0886478 1.6925616 0.32539111 11
2.1158648 1.7140056 0.23488472 12
2.1096222 1.708339 0.14026035 14
2.1046867 1.7037339 0.04659792 14
1.4309282 1.1562641 -0.48269776 3
1.6591703 1.3406955 -0.48364502 3
1.9923294 1.6093307 -0.48993912 3
2.1660366 1.7490205 -0.43488818 4
2.1343718 1.7228366 -0.33209434 12
2.123028 1.7130681 -0.23532088 12
2.109031 1.7011663 -0.13953282 11
2.1118517 1.7028332 -0.046218757 12
2.1130357 1.7031794 0.71646172 13
2.1201525 1.7083055 0.61927158 14
2.1168959 1.705072 0.52044082 14
2.1185291 1.705778 0.4242515 11
2.1019812 1.6918496 0.32660982 11
2.1292989 1.7132248 0.23575628 11
2.1230574 1.7075926 0.14078373 13
2.1142209 1.6998777 0.046685185 14
1.4347546 1.1515126 -0.48269776 3
1.6676401 1.3379445 -0.48476982 3
1.9979348 1.6023663 -0.48993912 4
2.1798346 1.747627 -0.43645251 4
2.1481178 1.721583 -0.33331302 11
2.1367695 1.7118756 -0.23619244 13
2.1188533 1.6969149 -0.13979362 11
2.1255882 1.7016999 -0.046391536 12
2.1265099 1.7018288 0.71904826 14
2.1337116 1.7069814 0.62151939 14
2.126668 1.7007381 0.52139401 15
2.1321855 1.7045403 0.42581412 11
2.1117511 1.6876001 0.32721916 10
2.1391578 1.7088907 0.23619208 12
2.1329067 1.7032871 0.14104539 12
2.1279557 1.6987252 0.046859708 14
1.4349884 1.1434876 -0.48140365 3
1.6720676 1.332407 -0.48476982 3
1.9993985 1.592674 -0.48898596 3
2.1933444 1.7465414 -0.43801686 4
2.1576977 1.7175409 -0.33392239 11
2.1463323 1.7078819 -0.2366282 13
2.1322846 1.6960961 -0.14031525 11
2.1351326 1.6977532 -0.046477929 11
2.1359227 1.697773 0.72034144 14
2.1431749 1.7029275 0.62264335 13
2.1399829 1.6997818 0.52330035 16
2.1416938 1.7005311 0.42659545 12
2.1251099 1.6867588 0.32843786 11
2.1526167 1.7079793 0.23706363 12
2.1463675 1.7024105 0.14156875 12
2.1374948 1.6947654 0.046946973 13
1.4387723 1.1387227 -0.48140365 3
1.6767083 1.3265623 -0.48476982 3
2.0010958 1.5826403 -0.48803276 3
2.2071755 1.745 -0.43958122 3
2.1714673 1.716153 -0.33514106 11
2.1600974 1.7065548 -0.23749976 13
2.1421106 1.6917374 -0.14057605 11
2.1488936 1.6964854 -0.046650708 11
2.1494186 1.6962911 0.72292799 14
2.1529312 1.6984534 0.6237672 13
2.1536112 1.6983802 0.52520674 16
2.1553733 1.6991599 0.42815807 11
2.1387806 1.6854739 0.32965657 10
2.1624782 1.7035372 0.2374994 12
2.1562197 1.6979972 0.14183044 12
2.1512537 1.6934782 0.047121495 14
1.4469327 1.1361725 -0.48269776 3
1.6779574 1.3171062 -0.48364502 3
2.0032964 1.571915 -0.48707953 3
2.2216311 1.742608 -0.44114554 3
2.181946 1.7108645 -0.3357504 11
2.1705544 1.7013209 -0.23793554 13
2.1525209 1.6865796 -0.14083686 11
2.1593275 1.6913046 -0.046737097 12
2.159719 1.6910031 0.72422123 14
2.16711 1.69618 0.62601501 13
2.1678481 1.6961476 0.52711314 17
2.169662 1.6969564 0.4297207 11
2.1530557 1.6833625 0.33087525 11
2.1768525 1.7013558 0.23837095 12
2.170593 1.6958536 0.1423538 13
2.1656203 1.69136 0.047296021 14
1.4546988 1.1340843 -0.48399183 3
1.678702 1.3082464 -0.48252031 3
2.0048995 1.5618963 -0.48612636 3
2.2354932 1.7409111 -0.44270989 3
2.1957366 1.7093349 -0.33696911 11
2.1843419 1.699852 -0.23880711 12
2.1662774 1.6851872 -0.14135848 11
2.1731107 1.6898943 -0.046909876 12
2.1732349 1.6893823 0.72680777 15
2.1768646 1.6915945 0.62713897 15
2.1776319 1.6915811 0.52806634 13
2.1794727 1.6924012 0.430502 12
2.1628392 1.6788799 0.33148462 11
2.1867132 1.6968005 0.23880674 12
2.1804447 1.6913267 0.14261547 12
2.1794169 1.6899117 0.047470544 14
1.4586487 1.1289996 -0.48399183 3
1.6794052 1.2993973 -0.48139551 3
2.0064566 1.5518852 -0.48517317 3
2.2454631 1.7361177 -0.44349208 3
2.2056167 1.7046947 -0.33757848 12
2.1942036 1.6952622 -0.23924288 12
2.1760981 1.6806673 -0.14161928 11
2.1829536 1.6853536 -0.046996269 12
2.1829424 1.684737 0.72810096 14
2.1904714 1.6899377 0.62938678 15
2.1912968 1.6899644 0.52997267 13
2.1931896 1.6908138 0.43206459 11
2.1765478 1.6773787 0.33270329 10
2.2005146 1.6952368 0.23967829 12
2.1942472 1.6897984 0.14313883 12
2.1932209 1.6883982 0.04764507 13
1.4664102 1.1268437 -0.48528594 3
1.6800673 1.2905594 -0.4802708 3
2.0040753 1.5388932 -0.4832668 4
2.2593446 1.7342832 -0.44505644 3
2.2194283 1.7030276 -0.33879715 11
2.2080121 1.6936555 -0.24011444 12
2.1898763 1.6791376 -0.14214091 11
2.196759 1.6838061 -0.047169048 12
2.1964777 1.682982 0.73068756 13
2.2002246 1.6852436 0.63051063 14
2.2010796 1.6852891 0.53092587 13
2.2069216 1.689151 0.43362722 11
2.1902726 1.675802 0.333922 11
2.2143316 1.6935972 0.24054985 12
2.2080655 1.688194 0.14366218 13
2.203073 1.6837678 0.047732327 14
1.4703346 1.1217182 -0.48528594 3
1.6845618 1.284687 -0.4802708 3
2.0055315 1.5289128 -0.48231363 4
2.2732403 1.7323726 -0.44662076 4
2.2293069 1.6982771 -0.33940649 11
2.2178736 1.6889558 -0.24055022 12
2.2036703 1.6775321 -0.14266253 11
2.2105799 1.6821826 -0.047341831 11
2.206183 1.6782287 0.73198074 12
2.2099721 1.6805024 0.63163459 13
2.2147639 1.6835362 0.53283226 13
2.2206686 1.687413 0.43518984 11
2.2040129 1.6741501 0.33514068 10
2.2241967 1.6888695 0.24098562 11
2.2218995 1.686514 0.14418554 12
2.2169023 1.6821111 0.047906853 14
1.4742411 1.1165789 -0.48528594 3
1.689036 1.2787989 -0.4802708 3
2.0069425 1.5189408 -0.48136041 3
2.2871501 1.7303861 -0.44818512 4
2.2431378 1.6964722 -0.3406252 11
2.2317023 1.6872114 -0.24142179 12
2.2174797 1.6758507 -0.14318414 11
2.224416 1.6804829 -0.04751461 12
2.2197361 1.6763388 0.73456728 12
2.2236016 1.6786487 0.6338824 13
2.2245452 1.6787516 0.53378546 13
2.2304881 1.6826255 0.43597117 11
2.2138054 1.6694343 0.33575001 11
2.2380333 1.6870921 0.24185717 11
2.2357483 1.6847576 0.14470892 12
2.2267535 1.6773703 0.047994114 12
1.4742697 1.1085236 -0.48399183 3
1.6934897 1.2728955 -0.4802708 3
2.0083084 1.5089775 -0.48040724 3
2.3010738 1.7283236 -0.44974947 5
2.2530148 1.6916119 -0.34123453 11
2.2455454 1.6853909 -0.24229334 12
2.2313039 1.6740934 -0.14370576 10
2.2382672 1.678707 -0.047687389 11
2.2294385 1.6714778 0.73586053 12
2.2333465 1.6737988 0.63500631 13
2.2382479 1.6768621 0.5356918 13
2.2442536 1.6807501 0.4375338 11
2.2275651 1.667645 0.33696872 11
2.2518845 1.6852385 0.24272874 11
2.2456138 1.6799341 0.1449706 12
2.2406023 1.6755753 0.048168641 14
1.4781302 1.1033707 -0.48399183 3
1.6979225 1.2669762 -0.4802708 3
2.0135634 1.501958 -0.48040724 3
2.3150108 1.7261847 -0.45131379 5
2.2668638 1.6896687 -0.34245324 11
2.2594035 1.6834944 -0.2431649 12
2.2451432 1.6722598 -0.14422737 11
2.2521331 1.676855 -0.047860172 12
2.2430084 1.6694528 0.73844707 13
2.2469931 1.671809 0.63725412 13
2.2519643 1.6748973 0.53759819 13
2.2580333 1.678799 0.43909642 12
2.2373555 1.6628194 0.33757806 10
2.2657499 1.6833085 0.24360029 11
2.2594814 1.6780394 0.14549395 12
2.2544656 1.6737038 0.048343163 13
1.4819727 1.0982044 -0.48399183 3
1.69842 1.2581418 -0.479146 3
2.0227387 1.4978411 -0.48136041 3
2.3329298 1.726908 -0.45366031 7
2.2807267 1.6876494 -0.34367192 11
2.2732749 1.6815215 -0.24403645 12
2.2589965 1.67035 -0.14474899 11
2.2619927 1.6719549 -0.047946557 12
2.2527068 1.6644831 0.73974025 13
2.260653 1.6697446 0.63950193 13
2.2656944 1.6728573 0.53950459 12
2.2678533 1.6738396 0.43987769 12
2.2511334 1.6608924 0.33879676 11
2.2756207 1.6783459 0.24403608 11
2.2693439 1.6731051 0.14575563 12
2.2643182 1.66879 0.048430424 14
1.485797 1.0930246 -0.48399183 3
1.7028013 1.2522055 -0.479146 3
2.0319095 1.4936786 -0.48231363 3
2.3469028 1.7246026 -0.45522466 9
2.2946031 1.685554 -0.34489062 10
2.2871604 1.6794722 -0.24490802 12
2.2688384 1.665409 -0.1450098 11
2.2758765 1.6699641 -0.04811934 12
2.2662921 1.662323 0.7423268 12
2.2743258 1.667605 0.64174974 13
2.2794375 1.6707416 0.54141092 13
2.2816496 1.6717508 0.44144034 12
2.2649245 1.6588891 0.34001544 11
2.2895033 1.6762772 0.24490763 12
2.2832289 1.6710715 0.14627899 12
2.278199 1.6667795 0.048604947 13
1.4896034 1.0878316 -0.48399183 3
1.707162 1.246254 -0.479146 2
2.0410757 1.48947 -0.4832668 4
2.3568981 1.7193103 -0.45600685 11
2.3084924 1.6833819 -0.34610933 11
2.3010592 1.6773465 -0.24577957 12
2.2827089 1.6633602 -0.14553143 11
2.2897735 1.6678963 -0.048292119 11
2.2798896 1.6600878 0.74491328 11
2.2880111 1.6653904 0.64399755 13
2.2892246 1.6656624 0.54236418 12
2.2954588 1.6695859 0.44300297 12
2.2747154 1.6538912 0.34062478 11
2.2993696 1.6712035 0.2453434 11
2.2930877 1.6660262 0.14654067 12
2.2880485 1.6617548 0.048692212 13
1.4933916 1.0826253 -0.48399183 3
1.7115018 1.2402873 -0.479146 3
2.0502374 1.4852159 -0.48422 3
2.3628852 1.7110727 -0.45600685 14
2.3183744 1.6782236 -0.34671867 10
2.3149705 1.675144 -0.24665113 12
2.292547 1.6583084 -0.14579223 11
2.2996328 1.6628226 -0.048378512 11
2.2895851 1.6549489 0.74620652 10
2.3017085 1.6631004 0.64624536 13
2.3029828 1.6634092 0.54427052 12
2.3052766 1.664454 0.44378427 12
2.2885225 1.6517496 0.34184349 11
2.3132684 1.668996 0.24621499 11
2.3069887 1.6638532 0.14706403 12
2.3019454 1.6596053 0.048866734 13
1.4971615 1.0774057 -0.48399183 3
1.7158208 1.2343055 -0.479146 3
2.0554094 1.4780501 -0.48422 3
2.3648338 1.6999317 -0.45522466 12
2.3322787 1.6759127 -0.34793738 11
2.3248494 1.6699591 -0.24708691 12
2.3064332 1.6561203 -0.14631385 10
2.3135459 1.6606157 -0.048551291 11
2.3031964 1.652578 0.74879307 12
2.3114586 1.6578952 0.64736921 12
2.3167529 1.6610804 0.54617691 11
2.3191009 1.662151 0.44534689 11
2.3023429 1.649532 0.34306216 10
2.3231294 1.6638111 0.24665076 11
2.3209026 1.6616036 0.14758739 12
2.3158553 1.6573787 0.04904126 13
1.5009133 1.0721731 -0.48399183 3
1.7161542 1.2254775 -0.47802129 3
2.0605564 1.4708664 -0.48422 3
2.3707533 1.6916666 -0.45522466 12
2.346195 1.6735251 -0.34915608 11
2.3387759 1.6676172 -0.24795848 12
2.3203323 1.6538556 -0.14683546 10
2.3274715 1.6583318 -0.04872407 11
2.316819 1.6501323 0.75137955 12
2.3251693 1.6554682 0.64961702 13
2.3265359 1.6558292 0.54713005 9
2.3329368 1.6597714 0.44690952 11
2.3161755 1.6472377 0.3442809 11
2.3370421 1.661464 0.24752231 11
2.3348286 1.6592766 0.14811075 12
2.3297777 1.6550753 0.049215782 13
1.5046468 1.0669274 -0.48399183 3
1.7164468 1.2166622 -0.47689649 3
2.0656779 1.4636648 -0.48422 4
2.3766439 1.683381 -0.45522466 11
2.3601229 1.6710607 -0.35037476 10
2.3527138 1.6651983 -0.24883004 12
2.3342435 1.6515141 -0.14735709 11
2.3373277 1.6530839 -0.048810463 11
2.3304524 1.6476114 0.75396603 12
2.3388915 1.6529654 0.65186483 13
2.3403192 1.6533623 0.54903644 9
2.3467846 1.6573157 0.44847211 11
2.3300197 1.6448668 0.34549958 10
2.3509669 1.6590399 0.24839386 11
2.3487666 1.656873 0.14863411 12
2.3437119 1.6526947 0.049390309 13
1.5083618 1.0616686 -0.48399183 3
1.7206832 1.2106633 -0.47689649 3
2.0707746 1.4564453 -0.48422 4
2.3825054 1.6750747 -0.45522466 9
2.3740621 1.6685193 -0.35159346 10
2.3625877 1.6598389 -0.2492658 12
2.3481667 1.6490953 -0.14787871 10
2.3512669 1.65066 -0.048983242 11
2.3480499 1.6477898 0.75784576 12
2.3526242 1.650387 0.65411264 13
2.3541138 1.6508192 0.55094284 9
2.3565993 1.6519486 0.44925344 11
2.3438759 1.6424195 0.34671828 11
2.3649032 1.6565386 0.24926542 11
2.362716 1.6543921 0.14915746 12
2.3576579 1.6502371 0.049564831 13
1.5080994 1.0536311 -0.48269776 3
1.708922 1.1934916 -0.47239748 3
2.075846 1.449208 -0.48422 4
2.3883381 1.6667479 -0.45522466 8
2.3880122 1.6659008 -0.35281214 11
2.3765385 1.6572802 -0.25013736 12
2.3621011 1.6465995 -0.14840032 10
2.3611159 1.6453006 -0.049069632 11
2.3617139 1.6451048 0.7604323 12
2.3663671 1.6477329 0.65636045 14
2.3638902 1.6453956 0.55189604 10
2.3704591 1.6493539 0.45081607 11
2.3536685 1.6370614 0.34732762 10
2.3788502 1.6539603 0.25013697 11
2.3766768 1.6518339 0.14968082 13
2.3675096 1.6448498 0.049652096 12
1.5157369 1.0511125 -0.48399183 3
1.7371011 1.2041723 -0.479146 3
2.0768573 1.4391574 -0.4832668 3
2.3982012 1.661213 -0.45600685 7
2.401973 1.6632054 -0.35403085 11
2.3905003 1.6546441 -0.25100893 12
2.3760467 1.6440264 -0.14892195 10
2.3750679 1.6427363 -0.049242411 11
2.3753874 1.6423444 0.76301885 11
2.38012 1.6450027 0.65860826 11
2.377696 1.6427141 0.55380243 11
2.3843293 1.6466821 0.45237869 11
2.3675368 1.6344746 0.3485463 11
2.3928082 1.6513048 0.25100854 11
2.3906484 1.6491984 0.15020418 12
2.3814678 1.6422516 0.049826618 13
1.5193967 1.0458152 -0.48399183 3
1.7332667 1.1925783 -0.47689649 2
2.0818684 1.4318991 -0.4832668 3
2.4039853 1.6528316 -0.45600685 6
2.4159439 1.6604327 -0.35524952 11
2.4044721 1.6519306 -0.25188047 12
2.3858867 1.6385491 -0.14918275 11
2.3890309 1.6400948 -0.049415193 12
2.3890705 1.6395085 0.76560533 11
2.393883 1.6421967 0.66085607 11
2.3874636 1.6371801 0.55475557 11
2.3982093 1.6439338 0.45394132 11
2.3814154 1.6318108 0.349765 11
2.4067767 1.6485718 0.25188008 11
2.4005105 1.6436644 0.15046588 12
2.3995621 1.6423999 0.050088402 13
1.5270258 1.0432296 -0.48528594 3
1.737419 1.1865208 -0.47689649 2
2.086854 1.4246233 -0.4832668 3
2.40974 1.64443 -0.45600685 6
2.4299245 1.6575826 -0.35646823 11
2.4184544 1.6491399 -0.25275204 12
2.3998435 1.6358355 -0.14970437 10
2.4030039 1.6373755 -0.049587972 11
2.4027627 1.6365972 0.76819187 10
2.4076555 1.6393148 0.66310394 10
2.401279 1.6343598 0.55666196 10
2.4120996 1.6411085 0.45550394 11
2.395304 1.6290699 0.35098368 11
2.4207549 1.6457616 0.25275165 12
2.4144928 1.6408881 0.15098923 12
2.409416 1.6368232 0.050175667 14
1.5504612 1.0517159 -0.49175641 3
nan nan nan 0
2.1037557 1.4259571 -0.48612636 3
2.41518 1.6364299 -0.45600685 5
2.4436257 1.6550816 -0.35768694 11
2.4321589 1.6466959 -0.2536236 12
2.4135251 1.6334655 -0.15022598 11
2.4167016 1.6350005 -0.049760751 11
2.4121773 1.6313258 0.76948506 9
2.4171145 1.6340501 0.66422778 10
2.4107525 1.6291362 0.55761516 10
2.4257131 1.6386297 0.45706654 11
2.4089189 1.6266724 0.35220239 10
2.4344561 1.6432984 0.25362322 12
2.4281991 1.638458 0.15151259 13
2.4231195 1.6344153 0.050350189 14
1.5180662 1.0220224 -0.48010951 3
1.7575805 1.1828272 -0.4802708 2
2.1087205 1.418605 -0.48612636 3
2.4167795 1.6252337 -0.45522466 5
2.4535069 1.6493102 -0.35829625 11
2.4461608 1.6437523 -0.25449514 12
2.4275022 1.6305993 -0.1507476 11
2.4348457 1.6349155 -0.050019924 12
2.4258776 1.6282793 0.7720716 9
2.4308953 1.631032 0.66647559 10
2.4245772 1.6261791 0.55952156 9
2.4396222 1.6356528 0.45862916 13
2.4228272 1.6237797 0.35342106 11
2.4484534 1.6403351 0.25449476 13
2.4422009 1.6355289 0.15203595 14
2.4329643 1.6287279 0.05043745 19
1.5858754 1.0596484 -0.50081509 2
nan nan nan 0
2.1422338 1.4303138 -0.49279872 3
2.4470832 1.6332365 -0.45991769 5
2.4675057 1.6462445 -0.35951498 12
2.4601715 1.640731 -0.25536671 15
2.4414885 1.6276551 -0.15126921 12
2.4488578 1.6319509 -0.050192706 14
2.4355662 1.6224793 0.77336484 11
2.440629 1.6252371 0.66759956 11
2.4343247 1.6204256 0.56047469 12
2.4494281 1.6298627 0.45941046 13
2.4326127 1.6180611 0.35403043 12
2.4583125 1.6345366 0.25493056 14
2.456212 1.6325217 0.15255931 16
2.4427989 1.622992 0.050524715 60
1.5251641 1.0113995 -0.48010951 3
nan nan nan 0
2.122664 1.4065599 -0.48707953 3
2.465121 1.6328663 -0.46226421 6
2.477375 1.640361 -0.36012432 12
2.4741907 1.6376317 -0.25623828 12
2.4554837 1.6246334 -0.15179083 13
2.4628789 1.6289085 -0.050365485 13
2.4452436 1.6166313 0.77465808 11
2.4544165 1.6220802 0.66984737 11
2.4481571 1.6173296 0.56238109 10
2.4633451 1.6267457 0.46097311 9
2.4465294 1.615028 0.35524914 11
2.4723179 1.6314323 0.25580209 11
2.4660635 1.6266874 0.15282097 14
2.4526229 1.6172072 0.050611973 35
nan nan nan 0
nan nan nan 0
2.1275609 1.3991419 -0.48707953 3
2.4873123 1.6351023 -0.46539292 6
2.4913807 1.637154 -0.361343 11
2.4882185 1.6344546 -0.25710985 12
2.4694874 1.6215336 -0.15231246 10
2.4769087 1.625788 -0.050538264 11
2.45491 1.6107357 0.77595139 8
2.4641376 1.6161747 0.67097121 8
2.4619968 1.6141565 0.56428748 8
2.4731388 1.6208441 0.46175441 11
2.4563031 1.6091977 0.35585845 10
2.4821644 1.6255211 0.25623786 12
2.480082 1.6235389 0.15334433 13
2.462436 1.6113734 0.050699238 38
1.5241007 0.99544537 -0.47752133 3
1.741289 1.1368654 -0.47127277 3
2.144763 1.3997545 -0.48993912 3
2.501277 1.6318069 -0.46695724 6
2.5012372 1.6311586 -0.36195236 12
2.502254 1.6311992 -0.25798139 12
2.4834993 1.6183556 -0.15283407 10
2.4909465 1.6225893 -0.050711047 14
2.4686127 1.6074275 0.77853787 10
2.4779305 1.612879 0.67321903 10
2.4758446 1.6109064 0.56619388 10
2.4870613 1.6175866 0.46331704 13
2.4702265 1.6060239 0.35707715 11
2.4919999 1.6195612 0.25667366 13
2.4899213 1.6175921 0.15360603 15
2.4722385 1.6054909 0.050786499 34
nan nan nan 0
1.7329808 1.1228329 -0.46789846 3
nan nan nan 0
2.5069578 1.6230657 -0.46695724 5
2.5194147 1.6305066 -0.36378038 10
2.5162971 1.627866 -0.25885296 13
2.497519 1.6150997 -0.15335569 11
2.504992 1.6193123 -0.050883826 13
2.4823215 1.6040432 0.78112435 10
2.4917302 1.6095065 0.67546684 10
2.4896996 1.6075792 0.56810021 10
2.5051408 1.6169299 0.46566096 14
2.488328 1.605463 0.3589052 12
2.5060098 1.6162521 0.25754523 15
2.5039456 1.6143019 0.15412939 14
2.4904344 1.6049758 0.051048286 36
1.5472608 0.99523181 -0.48269776 3
1.7737706 1.1404903 -0.47802129 3
nan nan nan 0
2.5126081 1.614305 -0.46695724 6
2.5334423 1.6270659 -0.36499909 12
2.5303471 1.6244544 -0.25972453 13
2.5115461 1.6117655 -0.15387732 13
2.5190449 1.6159571 -0.051056605 14
2.500103 1.6031901 0.78500408 12
2.5055368 1.6060575 0.67771465 12
2.5076938 1.6068226 0.57095981 10
2.5190871 1.6135029 0.46722358 15
2.5022759 1.6021193 0.3601239 13
2.5200269 1.6128646 0.25841677 13
2.5179775 1.6109334 0.15465274 14
2.5128682 1.6070467 0.051397335 39
nan nan nan 0
1.7736338 1.1316712 -0.47689649 3
nan nan nan 0
2.5182278 1.6055245 -0.46695724 5
2.5516615 1.6262143 -0.36682713 10
2.5444038 1.6209644 -0.26059607 18
2.5255802 1.608353 -0.15439893 12
2.5331049 1.6125236 -0.051229388 19
2.5138333 1.5996391 0.78759056 14
2.5193496 1.6025316 0.67996246 15
2.5215712 1.6033267 0.57286614 16
2.5372074 1.6126471 0.46956751 22
2.5204196 1.601359 0.36195195 15
2.5340509 1.6093992 0.25928834 19
2.5362318 1.610163 0.15543778 22
2.5311253 1.6063015 0.051659122 51
nan nan nan 0
nan nan nan 0
nan nan nan 0
2.5238166 1.5967244 -0.46695724 4
2.565711 1.6226026 -0.36804584 9
2.5584671 1.6173962 -0.26146764 16
2.5438423 1.6075293 -0.15518135 21
2.5513983 1.6116812 -0.05148856 14
2.5316534 1.5985906 0.79147035 18
2.537288 1.6015292 0.68333423 17
2.5354548 1.5997534 0.57477254 20
2.5553524 1.6116844 0.47191146 13
2.5385878 1.6004915 0.36377996 22
2.5522952 1.608511 0.26059568 17
2.5545106 1.6092844 0.15622282 16
2.5536382 1.6081123 0.052008171 59
nan nan nan 0
nan nan nan 0
2.1691031 1.3617315 -0.48993912 4
2.5254691 1.5848385 -0.46617511 4
2.5842531 1.6210995 -0.36987385 8
2.5770376 1.6159464 -0.26277497 18
2.5581787 1.6034988 -0.15570298 15
2.5657606 1.6076277 -0.051661339 17
2.5497754 1.596992 0.79535013 21
2.5555294 1.5999751 0.68670589 22
2.5537832 1.5982615 0.57763213 16
2.5696163 1.6075462 0.47347406 16
2.5528524 1.596439 0.36499867 16
2.5666206 1.604426 0.26146722 18
2.5688608 1.6052028 0.15674618 17
2.5722351 1.6066872 0.052269954 59
nan nan nan 0
nan nan nan 0
2.1655111 1.3489612 -0.48803276 4
2.5309858 1.5760133 -0.46617511 4
2.5983224 1.6173139 -0.37109256 10
2.591121 1.612204 -0.26364651 18
2.5764802 1.6024705 -0.15648541 16
2.5798481 1.603941 -0.051834121 17
2.5676408 1.5957302 0.79922986 21
2.5735142 1.5987577 0.6900776 22
2.5676863 1.594516 0.57953846 15
2.5836039 1.6037761 0.47503668 16
2.5710602 1.595368 0.36682671 17
2.584904 1.6033336 0.26277456 22
2.5871792 1.6041195 0.15753123 16
2.5863302 1.6029603 0.052444477 56
nan nan nan 0
nan nan nan 0
2.182261 1.3498977 -0.49089235 3
2.5401249 1.5706514 -0.46695724 4
2.6118333 1.6143613 -0.37231123 10
2.6046479 1.6092918 -0.26451808 17
2.5899985 1.5996161 -0.15700702 15
2.5976357 1.6037068 -0.052093286 16
2.5849721 1.5952655 0.80310965 22
2.586817 1.5957807 0.69232541 17
2.5810382 1.5915941 0.58144486 16
2.5970376 1.6008343 0.47659931 17
2.5845096 1.5924895 0.36804542 15
2.5984104 1.6004291 0.26364613 22
2.6049616 1.6038373 0.15831625 17
2.6041222 1.6026937 0.052706264 58
1.567596 0.96288377 -0.48269776 4
nan nan nan 0
nan nan nan 0
2.5455918 1.5617752 -0.46695724 5
2.6259139 1.6104237 -0.37352994 10
2.6187427 1.6053969 -0.26538962 18
2.6083384 1.5983922 -0.15778944 14
2.6117439 1.5998522 -0.052266069 17
2.5987628 1.5912768 0.80569619 24
2.6006825 1.5918283 0.69457322 16
2.5949519 1.5876981 0.58335125 16
2.6110356 1.5969126 0.47816193 16
2.598521 1.5886354 0.3692641 17
2.6167316 1.5991415 0.26495346 21
2.619066 1.5999403 0.15883961 20
2.6182342 1.5988047 0.05288079 59
1.5009977 0.91441613 -0.4606981 5
nan nan nan 0
nan nan nan 0
2.5555177 1.5550017 -0.46773943 3
2.6402788 1.6059464 -0.37474868 10
2.6373773 1.6035509 -0.26669699 19
2.6227131 1.5940081 -0.15831105 17
2.630408 1.5980563 -0.052525241 17
2.6128342 1.5867553 0.80828267 18
2.6189938 1.5898703 0.697945 16
2.6091461 1.5832691 0.58525759 17
2.6295388 1.5950158 0.48050588 18
2.6170568 1.58682 0.37109211 17
2.6310945 1.5947034 0.265825 20
2.6334536 1.5955049 0.15936297 16
2.6326287 1.5943772 0.053055312 60
nan nan nan 0
nan nan nan 0
nan nan nan 0
2.5651579 1.548624 -0.4685216 6
2.6543665 1.6018485 -0.37596735 10
2.6514885 1.5994806 -0.26756853 17
2.6410892 1.5925788 -0.1590935 15
2.6445334 1.5940262 -0.05269802 16
2.626631 1.5826104 0.81086916 18
2.6328743 1.5857459 0.70019281 16
2.6272719 1.5817468 0.58811718 16
2.6435533 1.5909204 0.48206848 16
2.6310849 1.5827914 0.37231082 17
2.6451824 1.5906433 0.26669657 23
2.6475658 1.5914476 0.15988633 20
2.6467485 1.5903275 0.053229839 65
nan nan nan 0
nan nan nan 0
nan nan nan 0
2.5705478 1.5396606 -0.4685216 4
2.6684575 1.5976721 -0.37718606 9
2.6656036 1.5953313 -0.2684401 18
2.6552022 1.5884768 -0.15961511 15
2.6629531 1.5924828 -0.052957188 17
2.6445761 1.5808665 0.81474888 17
2.6467583 1.5815439 0.70244062 18
2.6412048 1.5776001 0.59002358 17
2.6575711 1.5867465 0.4836311 17
2.645117 1.5786843 0.37352949 19
2.6635513 1.589056 0.26800391 17
2.6616819 1.5873111 0.16040969 17
2.660872 1.5861986 0.053404361 60
nan nan nan 0
1.8041179 1.0729114 -0.47577178 3
2.1804018 1.2961729 -0.48517317 3
2.5759065 1.5306784 -0.4685216 4
2.6825519 1.5934165 -0.37840474 10
2.6840048 1.593646 -0.26974744 17
2.6736124 1.5868443 -0.16039754 18
2.6770949 1.5882795 -0.053129975 18
2.6583867 1.576553 0.81733537 18
2.6648357 1.5797487 0.70581228 17
2.6551409 1.5733755 0.59192997 16
2.6715915 1.5824938 0.48519373 17
2.6591523 1.5744987 0.37474823 18
2.677655 1.584823 0.26887548 21
2.6800985 1.5856377 0.16119474 19
2.6749988 1.5819904 0.053578883 62
1.5760065 0.93019253 -0.48010951 3
1.803656 1.0641317 -0.47464699 3
2.1806853 1.2860606 -0.48422 3
2.5769799 1.5191694 -0.46773943 4
2.7009242 1.5916014 -0.38023278 10
2.6981349 1.5893235 -0.270619 17
2.6877406 1.5825689 -0.16091916 17
2.6912396 1.5839965 -0.053302754 18
2.6721992 1.572162 0.81992191 17
2.6787331 1.5753769 0.70806009 17
2.6733108 1.57156 0.59478951 16
2.6898727 1.5806649 0.48753765 17
2.6731901 1.5702338 0.37596691 17
2.6960564 1.5830325 0.27018279 21
2.6942296 1.5813277 0.1617181 19
2.6891284 1.5777029 0.05375341 16
nan nan nan 0
1.8199735 1.065212 -0.47802129 3
2.2063439 1.2908338 -0.48898596 3
2.582267 1.510165 -0.46773943 4
2.7150321 1.5871729 -0.38145146 9
2.716568 1.5874345 -0.27192634 17
2.7018716 1.5782142 -0.16144077 18
2.7053866 1.5796343 -0.053475533 17
2.6901851 1.5701287 0.8238017 17
2.6968403 1.5733821 0.7114318 17
2.6872602 1.5671643 0.59669584 16
2.703907 1.5762401 0.48910025 16
2.6915183 1.5683888 0.37779495 18
2.7101738 1.578626 0.27105436 20
2.7083631 1.5769383 0.16224146 19
2.7032607 1.5733356 0.053927932 16
1.5949908 0.92644471 -0.48399183 3
1.7941884 1.0417291 -0.47014797 3
2.1768751 1.263414 -0.48136041 3
2.5917943 1.50362 -0.4685216 4
2.729142 1.5826652 -0.38267016 10
2.7350204 1.5854365 -0.27323368 17
2.7160046 1.5737799 -0.16196239 17
2.7238619 1.577698 -0.053734701 18
2.7040091 1.5655688 0.82638818 17
2.7107496 1.5688398 0.71367961 17
2.7054598 1.565148 0.59955543 16
2.717943 1.5717366 0.49066287 17
2.70557 1.5639514 0.37901363 17
2.728606 1.5766321 0.2723617 21
2.7268224 1.5749668 0.1630265 18
2.7173951 1.5688893 0.054102458 17
1.6065844 0.92569381 -0.48658001 3
1.8020355 1.0378914 -0.47127277 3
2.1557496 1.2411138 -0.47564128 3
2.5970273 1.4945638 -0.4685216 4
2.7432535 1.5780783 -0.38388884 10
2.7491739 1.5808456 -0.27410525 17
2.7344685 1.5717547 -0.16274482 17
2.7380219 1.5731615 -0.053907484 17
2.7220223 1.5633367 0.83026797 17
2.7288849 1.5666449 0.71705133 17
2.7194211 1.5605807 0.60146183 16
2.7362645 1.5696117 0.49300683 17
2.7239285 1.5619035 0.3808417 17
2.7427359 1.5720519 0.27323326 20
2.7409685 1.5704032 0.16354986 18
2.7358694 1.5668477 0.054364245 16
1.6098058 0.92008013 -0.48658001 3
1.8098775 1.0340115 -0.47239748 3
2.1728554 1.2408836 -0.47850087 3
2.6022284 1.4854894 -0.4685216 4
2.7616763 1.5758717 -0.38571692 10
2.7676551 1.5786431 -0.27541256 17
2.7486138 1.5671464 -0.16326644 17
2.7521834 1.5685452 -0.054080263 17
2.7400525 1.560998 0.83414769 17
2.7428043 1.5619317 0.71929914 18
2.7376487 1.5583631 0.60432136 16
2.7503114 1.5649356 0.49456945 17
2.7379913 1.5572928 0.38206038 17
2.7611969 1.5698537 0.27454057 19
2.7594566 1.5682269 0.16433489 20
2.7500157 1.5622269 0.054538768 16
1.604605 0.90969151 -0.48399183 3
1.8134758 1.0276875 -0.47239748 2
2.1814444 1.2357105 -0.47945404 3
2.6116953 1.4788302 -0.46930379 4
2.7757983 1.5711111 -0.38693559 10
2.7818191 1.573878 -0.27628413 17
2.7671063 1.5649164 -0.16404887 18
2.7706978 1.5663093 -0.054339435 20
2.7580996 1.5585523 0.83802748 17
2.7609661 1.5595365 0.72267085 18
2.7558939 1.5560371 0.60718095 17
2.7686598 1.5626076 0.49691334 17
2.7563775 1.5550414 0.38388839 17
2.775337 1.5650991 0.27541214 21
2.7779629 1.565941 0.16511993 18
2.7685182 1.5599803 0.054800551 17
1.6035609 0.9017176 -0.48269776 3
1.8212991 1.0237383 -0.47352228 2
2.1900237 1.2304926 -0.48040724 3
2.6211474 1.4721229 -0.47008595 4
2.7942476 1.5687006 -0.38876364 10
2.8003275 1.571471 -0.27759147 18
2.7812617 1.5601336 -0.16457048 18
2.7848697 1.5615184 -0.054512214 18
2.7719495 1.5536381 0.84061396 17
2.7791445 1.5570334 0.72604263 17
2.7698739 1.5512043 0.60908735 16
2.7870255 1.5601708 0.4992573 16
2.7704506 1.5502572 0.3851071 18
2.7938247 1.5626965 0.27671948 21
2.7964866 1.5635446 0.16590497 20
2.7826748 1.5551848 0.054975078 17
1.6066986 0.89611471 -0.48269776 3
1.8248614 1.0173745 -0.47352228 3
2.1943057 1.2228404 -0.48040724 3
2.6305842 1.4653678 -0.47086814 4
2.8083782 1.5637658 -0.38998231 10
2.8145003 1.5665312 -0.27846304 17
2.7997804 1.5576984 -0.1653529 18
2.8034105 1.5590773 -0.054771382 18
2.79002 1.5509928 0.84449369 18
2.7930801 1.552056 0.72829044 17
2.7881441 1.5486763 0.61194688 16
2.8054078 1.5576247 0.50160128 18
2.7888629 1.5478019 0.38693514 18
2.8123295 1.5601836 0.27802682 22
2.8150277 1.5610381 0.16669002 20
2.8012071 1.5527272 0.055236865 17
1.6057458 0.88788277 -0.48140365 3
1.832842 1.0130359 -0.47464699 2
2.1987727 1.2147897 -0.48040724 3
2.6402602 1.4581037 -0.47165027 4
2.8271248 1.5606573 -0.39181039 10
2.8333063 1.5634245 -0.27977037 17
2.8185878 1.554661 -0.16613534 17
2.8222396 1.556033 -0.055030555 19
2.8083758 1.5477502 0.84837347 18
2.811552 1.5488608 0.73166209 17
2.8024006 1.543182 0.61385328 16
2.8240769 1.554476 0.50394517 17
2.8075609 1.5447468 0.38876316 17
2.8267577 1.5546662 0.27889836 21
2.8338566 1.5579264 0.16747504 22
2.8200197 1.5496786 0.055498648 17
1.6088352 0.88227224 -0.48140365 3
1.836367 1.006632 -0.47464699 2
2.1986952 1.2047486 -0.47945404 3
2.6496654 1.4512509 -0.47243246 4
2.8456147 1.5579289 -0.39363843 10
2.851855 1.5606985 -0.28107771 18
2.8371389 1.5520017 -0.16691776 20
2.8408129 1.5533675 -0.055289723 19
2.822238 1.5425707 0.85095996 18
2.8297682 1.5460452 0.73503381 17
2.8206935 1.540448 0.61671281 16
2.8381555 1.5493414 0.50550777 17
2.8260055 1.5420686 0.39059123 17
2.8452859 1.551945 0.2802057 20
2.8480456 1.5528053 0.16799842 20
2.8341944 1.5446042 0.055673171 16
1.6159946 0.87924051 -0.48269776 3
1.8395203 1.0008578 -0.47464699 3
2.2024693 1.1978353 -0.47945404 3
2.6542115 1.4429196 -0.47243246 4
2.8635762 1.55609 -0.39546645 9
2.8698747 1.5588639 -0.28238505 18
2.855165 1.5502286 -0.16770019 18
2.8588605 1.5515891 -0.055548895 19
2.8398061 1.5406061 0.85483968 18
2.8431766 1.5417925 0.73728162 17
2.8384645 1.538596 0.6195724 17
2.8560355 1.5474757 0.50785172 17
2.8395636 1.5379096 0.39180991 17
2.8589077 1.5477412 0.28107727 21
2.8660839 1.5509794 0.16878346 20
2.8522215 1.5428343 0.055934958 17
1.6189013 0.87387687 -0.48269776 3
1.8430028 0.9944306 -0.47464699 2
2.202317 1.1878099 -0.47850087 3
2.663579 1.4359894 -0.47321463 4
2.882097 1.5531478 -0.39729452 10
2.8840692 1.5535612 -0.28325659 19
2.8693519 1.5449872 -0.1682218 18
2.8730636 1.546339 -0.055721678 19
2.8579266 1.5375489 0.85871947 19
2.861414 1.538781 0.74065334 17
2.8567874 1.5356504 0.62243193 16
2.8701205 1.5421718 0.50941437 17
2.8580306 1.5350329 0.39363798 18
2.8774586 1.5448207 0.2823846 22
2.8802795 1.5456876 0.16930681 20
2.8708057 1.5399582 0.056196745 16
1.6263517 0.87021595 -0.48399183 3
1.8466352 0.98766899 -0.47464699 3
2.2023273 1.177416 -0.47754765 3
2.6775353 1.4308724 -0.47477898 3
2.9009023 1.5495887 -0.39912254 10
2.9029253 1.5500182 -0.28456393 21
2.8882105 1.5415136 -0.16900423 18
2.8919444 1.542858 -0.05598085 19
2.8720665 1.5316091 0.86130601 17
2.8799329 1.5351585 0.74402505 17
2.875392 1.5320938 0.62529153 16
2.8888299 1.5386066 0.51175827 17
2.8767793 1.5315439 0.395466 18
2.8962927 1.5412837 0.28369194 20
2.8991504 1.5421551 0.17009185 19
2.8852589 1.5341198 0.056371272 16
1.6293794 0.8645336 -0.48399183 3
1.8500715 0.98121709 -0.47464699 2
2.2020874 1.1674223 -0.47659451 3
2.6825137 1.4215174 -0.47477898 4
2.9150646 1.5440992 -0.40034124 10
2.9171224 1.5445373 -0.2854355 17
2.9024 1.5360936 -0.16952586 18
2.910569 1.5397669 -0.056240018 19
2.8859341 1.5260899 0.8638925 18
2.8938887 1.52965 0.74627286 17
2.8894022 1.5266334 0.62719792 16
2.9072843 1.5354325 0.51410222 17
2.8952742 1.5284433 0.39729404 17
2.914871 1.5381382 0.28499928 20
2.9133487 1.536685 0.17061521 18
2.903863 1.5310338 0.056633055 16
1.6323873 0.85884082 -0.48399183 3
1.8491734 0.97248548 -0.47352228 2
2.2018042 1.1574445 -0.47564128 3
2.6874592 1.412145 -0.47477898 4
2.9336176 1.5408374 -0.40216929 9
2.9357264 1.5412914 -0.28674284 17
2.9210083 1.5329138 -0.17030828 18
2.9247804 1.5342424 -0.056412797 19
2.9040763 1.5227356 0.86777228 17
2.9121563 1.5263243 0.74964464 17
2.9077568 1.5233715 0.63005745 16
2.9257512 1.532148 0.51644611 17
2.9137819 1.5252321 0.39912206 18
2.9334624 1.5348816 0.28630662 20
2.9319685 1.5334482 0.17140025 18
2.9224808 1.5278366 0.056894843 16
1.6353753 0.85313749 -0.48399183 3
1.8482369 0.96377212 -0.47239748 2
2.2014787 1.1474831 -0.47468811 2
2.6836128 1.3981917 -0.47321463 4
2.9521828 1.5374646 -0.4039973 9
2.9499249 1.5356343 -0.28761441 14
2.9352002 1.5273179 -0.17082989 18
2.943424 1.5309443 -0.05667197 18
2.9179447 1.5170449 0.87035877 21
2.9304359 1.5228895 0.75301629 17
2.9261239 1.5200001 0.63291705 16
2.9442306 1.5287533 0.51879007 17
2.9323027 1.5219102 0.40095013 18
2.9520662 1.5315139 0.28761396 20
2.9506013 1.5301002 0.17218529 18
2.9366727 1.522227 0.057069365 16
1.6383433 0.84742373 -0.48399183 3
1.8429346 0.95283973 -0.47014797 2
2.2054708 1.1397915 -0.47468811 3
2.6753144 1.3820161 -0.47086814 4
2.9707603 1.533981 -0.40582538 10
2.9685457 1.5321811 -0.28892171 12
2.953826 1.523931 -0.17161232 17
2.9665227 1.5298259 -0.057017531 19
2.9318085 1.5112761 0.87294525 14
2.9487269 1.5193458 0.75638807 17
2.9445028 1.516519 0.63577664 16
2.9671123 1.5275085 0.52191532 17
2.9508355 1.5184776 0.40277815 17
2.9706824 1.5280349 0.28892127 20
2.9692459 1.5266408 0.17297032 18
2.9597545 1.5211076 0.057418413 16
1.6455888 0.84390354 -0.48528594 3
1.8375785 0.9419561 -0.46789846 2
2.2050674 1.1298476 -0.47373492 2
2.6845176 1.3749201 -0.47165027 4
2.9893494 1.5303863 -0.40765342 10
2.9827445 1.5263479 -0.28979328 12
2.9769092 1.5227063 -0.17265557 18
2.9896495 1.5285649 -0.057363093 20
2.9456675 1.5054289 0.87553179 14
2.9713671 1.5179092 0.76088363 17
2.9672637 1.5151601 0.63958937 17
2.9856224 1.5238775 0.52425927 18
2.9693799 1.5149341 0.40460619 18
2.9937475 1.5267075 0.2906644 24
2.9923508 1.5253373 0.17401704 22
2.9873176 1.5221148 0.057854723 17
1.6485245 0.8381542 -0.48528594 3
1.8582281 0.94436496 -0.47239748 2
2.2089977 1.1221437 -0.47373492 3
2.6893005 1.3655411 -0.47165027 5
3.0123746 1.5289265 -0.4100908 10
3.0013802 1.5226876 -0.29110062 10
3.0000196 1.5213391 -0.1736988 19
3.0128036 1.5271608 -0.057708651 22
2.968138 1.5038692 0.88070476 13
2.9896865 1.5141315 0.76425534 17
2.985672 1.5114437 0.6424489 16
3.0085497 1.5223656 0.52738446 22
2.9923639 1.5135194 0.40704358 19
3.0123937 1.5229901 0.29197174 20
3.0110266 1.5216391 0.17480208 24
3.0149238 1.5229481 0.058291033 27
1.655753 0.83456844 -0.48658001 3
1.8658639 0.94006485 -0.47352228 2
2.2129016 1.114426 -0.47373492 3
2.7205174 1.3694682 -0.4763433 4
3.0354259 1.5273244 -0.41252819 11
3.0155766 1.5166775 -0.29197219 14
3.0231564 1.5198288 -0.17474203 23
3.0449176 1.530103 -0.058226991 45
2.9906335 1.5021709 0.88587779 14
3.0123699 1.5124305 0.76875097 22
3.008477 1.5098187 0.64626163 22
3.0270884 1.5184976 0.52972841 49
3.0109377 1.5097382 0.40887165 24
3.0310507 1.5191612 0.29327908 62
3.0297124 1.5178289 0.17558713 50
3.0515122 1.5280839 0.058901869 81
1.6629764 0.83094251 -0.48787412 3
1.8778509 0.93789971 -0.47577178 2
2.216778 1.1066947 -0.47373492 2
2.7562129 1.375399 -0.48181856 4
3.0629435 1.5277953 -0.41557491 26
3.0297678 1.510587 -0.29284373 35
3.0552568 1.5226296 -0.17630689 65
3.0681393 1.5283813 -0.058572553 92
3.0174761 1.5024863 0.892344 17
3.0263543 1.506248 0.77099878 38
3.0269127 1.5058668 0.64912122 66
3.0367925 1.5101209 0.53050971 53
3.0295215 1.5058457 0.41069967 55
3.0497174 1.5152204 0.29458642 99
3.0484083 1.5139066 0.17637217 93
3.0478721 1.5129772 0.058727346 38
1.6658669 0.82513255 -0.48787412 3
1.8811134 0.93133909 -0.47577178 3
2.2206275 1.0989499 -0.47373492 2
2.8096886 1.3898555 -0.49042246 4
3.0682578 1.5170943 -0.41557491 37
3.0439532 1.5044158 -0.2937153 25
3.0560768 1.509744 -0.17604607 69
3.0644906 1.5132353 -0.058399774 25
3.0443578 1.5026329 0.89881027 37
3.0403321 1.4999862 0.77324659 34
3.045357 1.5018044 0.65198076 26
3.0331862 1.4951442 0.52894711 7
3.0392113 1.4974549 0.41130903 31
3.0683932 1.5111676 0.29589376 17
3.053674 1.5032564 0.17637217 16
3.0396776 1.4957073 0.058465559 9
1.6644017 0.81718403 -0.48658001 3
1.8799794 0.92262071 -0.47464699 2
2.2200437 1.0890303 -0.47278175 3
2.7302749 1.3387303 -0.47556117 3
3.077991 1.5085589 -0.41618428 7
3.0581322 1.4981639 -0.29458687 5
3.0658123 1.5012629 -0.17630689 8
3.0742445 1.5047269 -0.058486164 7
3.0452459 1.4898744 0.89751709 9
3.0499265 1.4915047 0.77437049 9
3.0549905 1.4933205 0.65293401 6
3.0650101 1.4975555 0.53363496 6
3.0533383 1.4911927 0.41252771 5
3.0826015 1.504818 0.2967653 7
3.0678778 1.4969673 0.17689553 6
3.0314004 1.4785132 0.058203775 8
1.667244 0.81136918 -0.48658001 3
1.8831885 0.91605276 -0.47464699 2
2.2238317 1.0812743 -0.47278175 2
2.7438147 1.3335091 -0.4771255 3
3.0877018 1.499974 -0.41679361 8
3.0767848 1.494007 -0.29589421 9
3.071034 1.4905521 -0.17630689 5
3.079478 1.4939866 -0.058486164 8
3.0547736 1.4813428 0.89881027 9
3.0638826 1.4850996 0.7766183 8
3.0646017 1.4847875 0.65388715 7
3.0791085 1.4911525 0.53519756 4
3.0719256 1.4870121 0.41435575 9
3.1012866 1.5005568 0.29807264 8
3.0775795 1.4884233 0.17715721 8
3.0230401 1.4613951 0.057941984 13
1.6657159 0.80344629 -0.48528594 3
1.8863746 0.90947366 -0.47464699 2
2.2275922 1.073505 -0.47278175 2
2.7173085 1.3089211 -0.47165027 3
3.1018617 1.4934926 -0.41801229 6
3.0954461 1.489738 -0.29720154 7
3.0897174 1.4863169 -0.17708932 9
3.0936854 1.4875609 -0.058658946 8
3.0686321 1.4748551 0.90139681 6
3.0734396 1.4765053 0.77774227 6
3.078615 1.4783304 0.65579355 5
3.1199131 1.4974914 0.54144806 12
3.0860465 1.4805735 0.41557443 9
3.1199796 1.4961836 0.29937997 7
3.0962641 1.4841462 0.17794225 8
3.0191059 1.4465138 0.057767462 15
1.6641532 0.79554397 -0.48399183 3
1.8895378 0.90288341 -0.47464699 2
2.226897 1.0636073 -0.47182852 2
2.7129478 1.2951728 -0.47008595 3
3.1204929 1.4890679 -0.41984037 6
3.1141145 1.4853569 -0.29850888 6
3.1084082 1.4819691 -0.17787173 8
3.1123979 1.4832047 -0.058918115 7
3.0737617 1.4641346 0.90139681 5
3.0873725 1.4699568 0.77999008 5
3.0881886 1.4696841 0.65674675 5
3.1518795 1.4993203 0.5461359 12
3.1046414 1.4761853 0.41740248 9
3.138679 1.4916978 0.30068731 7
3.1149564 1.4797568 0.17872728 8
3.0331686 1.4402549 0.057941984 9
1.6669199 0.78973013 -0.48399183 3
1.8926779 0.89628214 -0.47464699 2
2.2305961 1.0558275 -0.47182852 2
2.7129884 1.283583 -0.46930379 3
3.1436172 1.4866529 -0.42227775 6
3.1102741 1.4702203 -0.29763731 6
3.127106 1.477509 -0.17865416 8
3.1311178 1.4787362 -0.059177287 6
3.1225305 1.4740142 0.91432929 9
3.0924847 1.4591708 0.77999008 17
3.1243753 1.4735516 0.66341907 5
3.174962 1.4967325 0.54926115 13
3.1232433 1.4716852 0.41923052 9
3.1618922 1.4892223 0.30243042 6
3.1381729 1.4773817 0.179774 7
3.0472245 1.4339155 0.058116511 10
1.6652946 0.78185415 -0.48269776 3
1.9002054 0.89173979 -0.47577178 2
2.234268 1.0480349 -0.47182852 2
2.7174523 1.2741051 -0.46930379 3
3.1667624 1.4840945 -0.42471513 5
3.115387 1.4593545 -0.29763731 6
3.1458106 1.4729364 -0.17943659 6
3.1543722 1.4762739 -0.059522845 16
3.1582806 1.4774313 0.9233821 9
3.1152129 1.4566218 0.78448564 6
3.1606262 1.4771841 0.67009133 13
3.1935909 1.4919116 0.55160511 11
3.1418514 1.4670732 0.42105857 8
3.1851256 1.4866027 0.30417356 5
3.1614108 1.4748623 0.18082072 6
3.065804 1.4296083 0.058378298 9
1.6680137 0.77603644 -0.48269776 3
1.9033065 0.88510138 -0.47577178 2
2.2379127 1.0402294 -0.47182852 2
2.7218833 1.2646116 -0.46930379 3
3.1539192 1.4646702 -0.42227775 5
3.1204622 1.448471 -0.29763731 5
3.1599917 1.4661496 -0.17995821 5
3.1549709 1.4631509 -0.059436455 10
3.1940925 1.4806166 0.93243486 9
3.1600637 1.4641726 0.79460078 6
3.1924863 1.4785184 0.67581046 13
3.212224 1.4869787 0.553949 11
3.1559613 1.460265 0.42227724 6
3.2083788 1.4838389 0.30591667 13
3.1846688 1.4721986 0.18186744 13
3.0571609 1.4126071 0.058116511 7
1.6707124 0.77020925 -0.48269776 3
1.9063845 0.87845218 -0.47577178 2
2.2415302 1.0324113 -0.47182852 2
2.7262809 1.2551028 -0.46930379 3
3.1950793 1.4702486 -0.42715251 7
3.1345499 1.4417323 -0.29850888 4
3.1877739 1.4655387 -0.18126225 12
3.1509736 1.4479541 -0.059263673 8
3.2255754 1.4815538 0.94019437 10
3.1961496 1.4673625 0.80246812 7
3.219933 1.4776013 0.68057644 12
3.2308617 1.4819337 0.55629295 11
3.1700616 1.4533763 0.42349595 6
3.2316513 1.4809307 0.30765978 12
3.2124865 1.4714699 0.18317585 12
3.0757098 1.4081703 0.058378298 34
1.6776501 0.76667213 -0.48399183 3
1.9137186 0.87414974 -0.47689649 3
2.2449415 1.0249724 -0.47182852 2
2.7304282 1.2460551 -0.46930379 3
3.1683311 1.445228 -0.42288712 5
3.1438456 1.4333962 -0.29894465 6
3.1926165 1.4549596 -0.18126225 9
3.1466589 1.4333524 -0.059090894 7
3.252449 1.4808559 0.94666064 10
3.2276044 1.4688641 0.80921155 6
3.2426865 1.4750448 0.68438917 12
3.2492452 1.4773438 0.55863684 10
3.1884181 1.449016 0.42532399 5
3.2501495 1.4763861 0.30896711 11
3.2218945 1.462873 0.18343751 11
3.0576005 1.3876331 0.057941984 32
1.680316 0.76081139 -0.48399183 3
1.9167582 0.8674643 -0.47689649 2
2.2529776 1.0191529 -0.47278175 2
2.734761 1.2365166 -0.46930379 3
3.1507449 1.4239405 -0.41984037 5
3.1533694 1.424464 -0.29938045 5
3.1703708 1.4314779 -0.17969741 8
3.1425295 1.4182469 -0.058918115 6
3.2796113 1.4794239 0.95312691 9
3.2593608 1.4696043 0.81595498 6
3.2612402 1.4697669 0.68724877 11
3.2678907 1.472078 0.5609808 9
3.2206078 1.4501024 0.42898008 5
3.2598255 1.4670762 0.30940288 9
3.2224278 1.4495692 0.18317585 9
3.0487471 1.3708013 0.057680197 32
1.687368 0.75691801 -0.48528594 3
1.9197745 0.86076832 -0.47689649 3
2.2565215 1.0112823 -0.47278175 2
2.7390606 1.2269629 -0.46930379 3
3.1375785 1.4048218 -0.41740298 5
3.1628687 1.4154825 -0.29981622 6
3.1525583 1.4102081 -0.17839335 7
3.1474612 1.4072688 -0.058918115 6
3.3023939 1.4758495 0.95829988 8
3.2733676 1.4621922 0.81820279 6
3.2797961 1.4643773 0.6901083 9
3.2820292 1.4646872 0.56254345 9
3.2664404 1.4570467 0.43446419 12
3.2876728 1.4658298 0.31158176 9
3.2229073 1.4362795 0.18291415 9
3.0352466 1.3520142 0.057331149 31
1.6944133 0.7529847 -0.48658001 3
1.9227675 0.85406178 -0.47689649 2
2.2645235 1.005391 -0.47373492 3
2.7433269 1.2173945 -0.46930379 3
3.1107075 1.3797755 -0.41313753 4
3.1723442 1.4064523 -0.30025199 6
3.1392016 1.3911031 -0.17735012 8
3.1340706 1.388175 -0.058572553 5
3.325191 1.4721339 0.9634729 8
3.2784517 1.450757 0.81820279 5
3.2938657 1.4568906 0.69201469 8
3.3051891 1.4612094 0.5656687 9
3.2760458 1.4476416 0.43507352 11
3.2927697 1.4543449 0.31158176 8
3.2324691 1.4270372 0.18317585 8
3.0216525 1.333338 0.056982104 30
1.6970314 0.74706554 -0.48658001 3
1.925737 0.84734482 -0.47689649 2
2.2725124 0.99945641 -0.47468811 2
2.7475595 1.207811 -0.46930379 3
3.1109614 1.3669124 -0.41252819 4
3.1863554 1.399376 -0.30112356 6
3.189759 1.4002068 -0.17995821 6
3.1846769 1.3973131 -0.059436455 15
3.3347328 1.4624578 0.9647662 9
3.3102689 1.4510401 0.82494622 6
3.3079224 1.4493234 0.69392109 8
3.3147936 1.4516444 0.56645 10
3.2901716 1.4401773 0.43629223 13
3.293263 1.4408456 0.31114599 8
3.2603047 1.4257481 0.18448423 9
3.0125463 1.3167758 0.05672032 32
1.6996288 0.74113721 -0.48658001 3
1.928683 0.84061766 -0.47689649 2
2.2759874 0.99151778 -0.47468811 2
2.7562866 1.2001845 -0.47008595 3
3.1111636 1.3540643 -0.41191885 4
3.1957881 1.3902321 -0.30155933 6
3.240418 1.4089744 -0.1825663 8
3.1574402 1.3722395 -0.058831725 11
3.3353872 1.4488839 0.9634729 9
3.3197827 1.4414167 0.82607013 7
3.3309717 1.4455839 0.69773382 8
3.2609415 1.4145157 0.55629295 9
3.3088384 1.4346061 0.43812028 13
3.2662804 1.4154772 0.30809554 7
3.2698436 1.4163436 0.18474592 10
3.0033612 1.3002932 0.056458529 42
1.7066393 0.73711491 -0.48787412 3
1.9271327 0.83194917 -0.47577178 2
2.2749276 0.98162228 -0.47373492 2
2.7649941 1.1925117 -0.47086814 3
3.1021991 1.3373023 -0.4100908 9
3.1365795 1.351474 -0.29545841 10
3.2269726 1.3897545 -0.18152307 9
3.1071084 1.33749 -0.057795044 28
3.2516921 1.3990549 0.93760788 8
3.2173765 1.3836251 0.79909641 6
3.268357 1.4048733 0.68343604 9
3.297622 1.4167707 0.56176215 5
nan nan nan 0
3.1933897 1.3706688 0.30068731 8
3.104986 1.3320824 0.17506377 17
2.9895029 1.2819208 0.056109484 27
1.7092019 0.73115313 -0.48787412 3
1.9300251 0.82521719 -0.47577178 2
2.2738271 0.97174656 -0.47278175 2
2.7691398 1.1828529 -0.47086814 3
3.102284 1.3245169 -0.40948144 4
3.1000466 1.322922 -0.29153642 4
3.1950612 1.3628095 -0.17943659 8
3.0749681 1.3109512 -0.057103917 4
3.3187616 1.4142033 0.95571339 5
nan nan nan 0
3.3229182 1.4146042 0.69392109 3
3.1298637 1.3317735 0.53207237 3
nan nan nan 0
3.1110592 1.3224896 0.29240751 4
3.0498753 1.2958523 0.17166193 5
2.9893584 1.2695236 0.056022223 66
1.7117437 0.72518241 -0.48787412 3
1.9328939 0.81847513 -0.47577178 2
2.2726851 0.9618904 -0.47182852 2
2.7641554 1.1693313 -0.46930379 3
3.084034 1.3040162 -0.40643471 3
3.0358248 1.2830075 -0.28499973 2
3.1170051 1.3166749 -0.17474203 4
3.051892 1.2885424 -0.056585576 15
3.2257812 1.3612971 0.92726189 2
3.2090015 1.3535562 0.79460078 2
3.1469243 1.326725 0.65579355 2
3.0571263 1.2882384 0.51879007 2
3.0538366 1.2862246 0.40216881 5
3.0972934 1.3038915 0.2906644 3
3.0681868 1.2910079 0.17244697 5
