# .PCD v0.7 - Point Cloud Data file format
VERSION 0.7
FIELDS x y z intensity
SIZE 4 4 4 4
TYPE F F F F
COUNT 1 1 1 1
WIDTH 1383
HEIGHT 1
VIEWPOINT 0 0 0 1 0 0 0
POINTS 1383
DATA ascii
0.73945135 1.9819702 -0.10849655 29
0.74242735 1.988887 -0.036024712 30
0.74340725 1.9904513 0.55868495 27
0.74331307 1.98914 0.4810313 27
0.74221879 1.985155 0.40415183 25
0.74533272 1.9924234 0.33049428 27
0.74578243 1.9925659 0.25653496 26
0.75057042 2.0042925 0.18389861 32
0.7439633 1.985594 0.10912047 29
0.74169171 1.9784802 0.036213744 28
0.69858557 1.8575729 -0.52152056 4
0.7752462 2.0603259 -0.49939165 9
0.75709713 2.0110271 -0.40987125 30
0.75331259 1.999916 -0.33242351 30
0.76080239 2.0187318 -0.26019135 27
0.75160122 1.993263 -0.18302734 30
0.74847329 1.9839187 -0.10875736 29
0.74971205 1.9861524 -0.036024712 31
0.75069761 1.9877133 0.55868495 27
0.75232077 1.9909598 0.48215523 29
0.75122559 1.9870127 0.40510502 26
0.75263029 1.9896781 0.33049428 25
0.75308055 1.989819 0.25653496 26
0.75791144 2.001528 0.18389861 36
0.75123584 1.9828539 0.10912047 30
0.74893826 1.9757484 0.036213744 27
0.70678127 1.8596377 -0.52281469 4
0.77723837 2.0439458 -0.49601737 9
0.76411229 2.0083721 -0.40987125 31
0.76028901 1.9972742 -0.33242351 33
0.7678445 2.0160639 -0.26019135 28
0.7585544 1.9906272 -0.18302734 31
0.75539392 1.981294 -0.10875736 28
0.75664043 1.9835234 -0.036024712 29
0.75763142 1.9850807 0.55868495 27
0.7592659 1.9883215 0.48215523 29
0.75815701 1.9843783 0.40510502 27
0.75957096 1.987039 0.33049428 25
0.76002175 1.9871782 0.25653496 26
0.76489347 1.9988704 0.18389861 32
0.759938 1.9848824 0.10938215 28
0.75762475 1.977788 0.036301002 27
0.71326834 1.8571594 -0.52281469 4
0.7843684 2.0412202 -0.49601737 8
0.77111816 2.0056927 -0.40987125 30
0.76902914 1.9992173 -0.33320567 32
0.77487719 2.0133712 -0.26019135 26
0.76728839 1.9926158 -0.18346313 27
0.76230526 1.9786451 -0.10875736 28
0.76355964 1.9808701 -0.036024712 29
0.766294 1.9869305 0.55997825 28
0.76620185 1.9856591 0.48215523 27
0.76507914 1.9817197 0.40510502 26
0.76828182 1.988982 0.33127558 26
0.76695365 1.9845132 0.25653496 26
0.77366269 2.0008342 0.1843344 32
0.76686192 1.9822176 0.10938215 31
0.76451766 1.9751337 0.036301002 28
0.71974665 1.8546581 -0.52281469 4
0.79148883 2.0384698 -0.49601737 8
0.77989209 2.0075643 -0.41082445 29
0.77600306 1.9965206 -0.33320567 29
0.7836991 2.0152795 -0.26080069 27
0.77423924 1.9899254 -0.18346313 28
0.77101868 1.9806249 -0.10901816 30
0.77046949 1.9781927 -0.036024712 30
0.77322501 1.9842434 0.55997825 24
0.77489817 1.9875118 0.48327911 27
0.77377564 1.9836097 0.40605819 27
0.77521998 1.9862881 0.33127558 24
0.77568126 1.9864465 0.2571443 23
0.78064215 1.9981214 0.1843344 29
0.77559429 1.9841791 0.10964382 29
0.77140754 1.972453 0.036301002 24
0.72589302 1.8522612 -0.52281469 4
0.79788893 2.0359733 -0.49601737 8
0.78619516 2.0051043 -0.41082445 29
0.78227144 1.9940728 -0.33320567 29
0.79002637 2.0128076 -0.26080069 28
0.78230757 1.9921193 -0.1838989 27
0.77723718 1.9781929 -0.10901816 27
0.77850932 1.980415 -0.036111102 27
0.78122258 1.986299 0.56127143 26
0.7811383 1.9850676 0.48327911 27
0.78000355 1.9811689 0.40605819 25
0.78326625 1.9884378 0.33205691 26
0.78191805 1.9839997 0.2571443 29
0.78874266 2.0002928 0.18477017 32
0.78182393 1.9817328 0.10964382 30
0.77943587 1.9746702 0.036388267 25
0.73203129 1.8498439 -0.52281469 4
0.80678451 2.0377057 -0.49714214 8
0.7949971 2.0069106 -0.41177762 30
0.78922725 1.9913301 -0.33320567 29
0.79887688 2.0146508 -0.26141003 26
0.78925657 1.9893764 -0.1838989 28
0.78597993 1.980109 -0.10927898 28
0.7854175 1.9776855 -0.036111102 27
0.78815126 1.9835598 0.56127143 28
0.78806269 1.9823288 0.48327911 27
0.78691435 1.9784341 0.40605819 26
0.79020244 1.9856917 0.33205691 27
0.78883874 1.9812583 0.2571443 26
0.79572022 1.9975272 0.18477017 29
0.79058534 1.9836299 0.1099055 30
0.78632402 1.9719373 0.036388267 28
0.73880643 1.8471484 -0.52281469 4
0.81424767 2.034735 -0.49714214 8
0.80234748 2.0039835 -0.41177762 29
0.79652053 1.9884242 -0.33320567 30
0.80625558 2.0117092 -0.26141003 26
0.79839653 1.9910935 -0.18433468 28
0.79323208 1.9772149 -0.10927898 26
0.79452306 1.9794331 -0.036197495 29
0.79541612 1.9806578 0.56127143 28
0.79713953 1.9839479 0.48440304 27
0.79599124 1.980091 0.40701142 26
0.79747504 1.9827821 0.33205691 27
0.79794782 1.9829578 0.25775367 24
0.80303615 1.9945973 0.18477017 32
0.79785043 1.980719 0.1099055 29
0.79541498 1.9736788 0.036475528 25
0.74705887 1.8490362 -0.52410877 4
0.82134521 2.0318804 -0.49714214 7
0.80933779 2.0011706 -0.41177762 31
0.8034566 1.9856316 -0.33320567 31
0.81327289 2.0088825 -0.26141003 28
0.8053419 1.9882945 -0.18433468 31
0.80012906 1.974434 -0.10927898 27
0.80142772 1.9766477 -0.036197495 29
0.80232507 1.9778693 0.56127143 28
0.80405992 1.9811532 0.48440304 29
0.80289817 1.9773004 0.40701142 26
0.80439138 1.9799863 0.33205691 24
0.80486476 1.9801604 0.25775367 28
0.8118701 1.9963963 0.18520595 33
0.80664134 1.982547 0.11016718 33
0.8022995 1.9708903 0.036475528 32
0.75350863 1.8464172 -0.52410877 4
0.82843274 2.029001 -0.49714214 7
0.81817436 2.002877 -0.41273081 29
0.81038284 1.9828149 -0.33320567 30
0.82028019 2.0060315 -0.26141003 29
0.81227744 1.9854712 -0.18433468 29
0.80890757 1.9762498 -0.10953978 32
0.80832267 1.9738381 -0.036197495 32
0.80922425 1.9750566 0.56127143 27
0.81097054 1.9783345 0.48440304 27
0.80979532 1.9744858 0.40701142 25
0.81129795 1.9771664 0.33205691 27
0.81177187 1.9773388 0.25775367 27
0.81883389 1.9935502 0.18520595 32
0.81355685 1.9797193 0.11016718 29
0.8091743 1.9680778 0.036475528 26
0.75994921 1.8437756 -0.52410877 4
0.83551031 2.0260968 -0.49714214 6
0.82516074 2.0000088 -0.41273081 29
0.81918359 1.984539 -0.33398786 30
0.8291719 2.0077429 -0.26201937 28
0.81920308 1.9826237 -0.18433468 29
0.81580102 1.9734142 -0.10953978 31
0.81520766 1.9710045 -0.036197495 28
0.81796038 1.9766829 0.56256473 27
0.81787127 1.9754916 0.48440304 28
0.8166827 1.9716469 0.40701142 26
0.81819457 1.9743223 0.33205691 26
0.81866914 1.9744931 0.25775367 28
0.82578772 1.9906796 0.18520595 32
0.82046241 1.9768673 0.11016718 30
0.81603926 1.9652411 0.036475528 28
0.76638061 1.8411117 -0.52410877 4
0.84257758 2.0231678 -0.49714214 7
0.83213705 1.9971162 -0.41273081 30
0.82610595 1.9816674 -0.33398786 29
0.83617514 2.0048363 -0.26201937 28
0.82611871 1.9797521 -0.18433468 27
0.82268459 1.9705545 -0.10953978 28
0.82208282 1.9681468 -0.036197495 32
0.82485527 1.9738158 0.56256473 26
0.82476205 1.9726247 0.48440304 26
0.82356006 1.9687843 0.40701142 26
0.82698786 1.97601 0.33283818 27
0.82555646 1.9716234 0.25775367 31
0.83273143 1.987785 0.18520595 32
0.82735789 1.9739914 0.11016718 32
0.82289428 1.9623808 0.036475528 29
0.77280259 1.8384253 -0.52410877 4
0.84774584 2.0157235 -0.49601737 6
0.83910322 1.9941995 -0.41273081 30
0.83301818 1.9787718 -0.33398786 30
0.84316826 2.0019052 -0.26201937 28
0.83302432 1.9768564 -0.18433468 28
0.82955807 1.9676707 -0.10953978 28
0.8289479 1.9652652 -0.036197495 29
0.83174014 1.9709244 0.56256473 27
0.83164275 1.9697336 0.48440304 28
0.83042735 1.9658974 0.40701142 26
0.83388042 1.9731113 0.33283818 27
0.83243364 1.9687296 0.25775367 29
0.839665 1.9848661 0.18520595 31
0.83424342 1.9710914 0.11016718 30
0.82973927 1.9594963 0.036475528 33
0.78110236 1.8401624 -0.5254029 4
0.85477686 2.0127518 -0.49601737 6
0.84605914 1.9912583 -0.41273081 30
0.84185231 1.9803966 -0.33477002 29
0.84820884 1.994383 -0.26141003 29
0.83991981 1.9739364 -0.18433468 28
0.83642149 1.964763 -0.10953978 29
0.83776176 1.9669589 -0.03628388 29
0.83861488 1.968009 0.56256473 27
0.83851337 1.9668187 0.48440304 27
0.83921021 1.9675014 0.40796459 27
0.84076273 1.9701885 0.33283818 28
0.84124935 1.970376 0.25836298 27
0.84658837 1.9819231 0.18520595 30
0.84111875 1.9681673 0.11016718 30
0.83657414 1.956588 0.036475528 28
0.78561825 1.8329854 -0.52410877 4
0.86179745 2.0097558 -0.49601737 6
0.85300475 1.9882928 -0.41273081 30
0.84876001 1.977446 -0.33477002 30
0.8551653 1.9914101 -0.26141003 27
0.84680498 1.9709926 -0.18433468 28
0.84327471 1.9618315 -0.10953978 27
0.84462267 1.9640226 -0.03628388 29
0.84738833 1.9695065 0.56385797 26
0.84537369 1.9638798 0.48440304 27
0.84607291 1.9645599 0.40796459 27
0.84958917 1.9717772 0.33361951 27
0.84812218 1.9674276 0.25836298 28
0.85350144 1.9789559 0.18520595 33
0.84798378 1.9652191 0.11016718 29
0.84339875 1.953656 0.036475528 29
0.79009378 1.8257996 -0.52281469 4
0.86880755 2.0067356 -0.49601737 6
0.86189091 1.9898072 -0.41368398 29
0.85565746 1.9744712 -0.33477002 30
0.86211145 1.9884129 -0.26141003 29
0.85566199 1.9725941 -0.18477045 29
0.85011762 1.9588759 -0.10953978 28
0.85346431 1.9656481 -0.036370274 30
0.85425806 1.9665365 0.56385797 28
0.85222375 1.9609169 0.48440304 25
0.85292536 1.9615947 0.40796459 27
0.85646671 1.9687995 0.33361951 27
0.85498458 1.9644551 0.25836298 28
0.86040407 1.9759645 0.18520595 33
0.85683262 1.9668248 0.11042886 31
0.85021317 1.9507 0.036475528 26
0.79452866 1.8186048 -0.52152056 4
0.87580711 2.0036905 -0.49601737 6
0.8688314 1.9867865 -0.41368398 31
0.86254442 1.9714724 -0.33477002 29
0.87103707 1.9899377 -0.26201937 29
0.86254233 1.9695953 -0.18477045 30
0.85695022 1.9558965 -0.10953978 28
0.86032057 1.962657 -0.036370274 29
0.86305702 1.9679656 0.56515121 27
0.86102086 1.9623915 0.48552692 27
0.86174029 1.9630998 0.40891778 25
0.86333388 1.9657979 0.33361951 26
0.86183661 1.9614587 0.25836298 28
0.8693006 1.9775088 0.18564172 31
0.86369288 1.9638218 0.11042886 28
0.85903066 1.9522964 0.036562789 25
0.796974 1.8069825 -0.5189324 4
0.88082927 1.9961642 -0.49489263 6
0.8777436 1.9882319 -0.41463721 30
0.87141609 1.9729669 -0.33555222 30
0.87797791 1.986885 -0.26201937 29
0.8694123 1.9665725 -0.18477045 28
0.8657921 1.9574597 -0.10980059 27
0.86716622 1.9596419 -0.036370274 29
0.86992127 1.964941 0.56515121 26
0.86786568 1.959374 0.48552692 27
0.86858749 1.9600798 0.40891778 25
0.87019056 1.9627723 0.33361951 26
0.87069041 1.9629749 0.25897235 26
0.87619811 1.9744624 0.18564172 32
0.87054271 1.960795 0.11042886 29
0.86584026 1.9492859 0.036562789 25
0.80131233 1.7997775 -0.51763833 4
0.88779175 1.9930774 -0.49489263 5
0.88467848 1.9851557 -0.41463721 29
0.87829775 1.969913 -0.33555222 30
0.88692981 1.9883407 -0.26262873 28
0.87830162 1.9680742 -0.18520623 27
0.87261963 1.9544257 -0.10980059 27
0.87400138 1.9566031 -0.036370274 29
0.87677491 1.9618924 0.56515121 27
0.8766886 1.9607805 0.48665082 27
0.87742841 1.9615164 0.40987095 26
0.87905401 1.9642305 0.3344008 26
0.87753713 1.9599237 0.25897235 27
0.88308495 1.9713918 0.18564172 33
0.8773818 1.9577444 0.11042886 31
0.87263924 1.9462516 0.036562789 26
0.80592293 1.7924235 -0.51634425 4
0.89509088 1.98981 -0.49489263 6
0.89396292 1.986376 -0.41559041 28
0.88551188 1.9666808 -0.33555222 31
0.89421147 1.9850767 -0.26262873 29
0.88550901 1.964842 -0.18520623 29
0.8818295 1.9557661 -0.1100614 25
0.88322246 1.9579434 -0.036456663 28
0.88395965 1.9586657 0.56515121 27
0.88386935 1.9575541 0.48665082 26
0.88461185 1.9582872 0.40987095 26
0.88624734 1.9609956 0.3344008 26
0.88471478 1.9566942 0.25897235 27
0.89235747 1.9726802 0.18607752 31
0.88455141 1.9545153 0.11042886 29
0.88182873 1.9475943 0.03665005 25
0.81017882 1.7852014 -0.51505011 4
0.9000169 1.9822373 -0.49376786 5
0.90089124 1.9832435 -0.41559041 29
0.89441472 1.9680736 -0.33633435 29
0.90113527 1.981943 -0.26262873 28
0.89236218 1.9617389 -0.18520623 28
0.88865101 1.9526759 -0.1100614 27
0.8900516 1.9548485 -0.036456663 29
0.8907913 1.9555682 0.56515121 26
0.89069712 1.954457 0.48665082 27
0.89144218 1.9551874 0.40987095 28
0.89513665 1.9623832 0.33518213 25
0.89153951 1.9535941 0.25897235 25
0.89923799 1.9695534 0.18607752 32
0.89136857 1.9514158 0.11042886 29
0.88862777 1.9445014 0.03665005 27
0.81640542 1.7823626 -0.51505011 4
0.90693069 1.9790837 -0.49376786 6
0.9078086 1.9800867 -0.41559041 29
0.90127915 1.9649395 -0.33633435 29
0.90804809 1.9787855 -0.26262873 27
0.89920449 1.958612 -0.18520623 27
0.89546168 1.9495621 -0.1100614 27
0.89686984 1.9517298 -0.036456663 28
0.89761209 1.9524468 0.56515121 28
0.89954978 1.9557621 0.48777473 25
0.90031338 1.9565227 0.41082415 24
0.90198123 1.9592466 0.33518213 26
0.8983534 1.9504702 0.25897235 27
0.90610754 1.9664024 0.18607752 32
0.89817482 1.9482924 0.11042886 30
0.89749765 1.9459301 0.036737315 27
0.8205955 1.7751181 -0.51375604 4
0.9138335 1.9759057 -0.49376786 5
0.91471487 1.9769058 -0.41559041 29
0.90813261 1.9617815 -0.33633435 30
0.91703522 1.9801067 -0.26323807 27
0.90812993 1.9599808 -0.185642 29
0.9022615 1.9464246 -0.1100614 28
0.90367717 1.9485872 -0.036456663 27
0.90442199 1.9493017 0.56515121 26
0.90637118 1.9526101 0.48777473 26
0.90713745 1.9533682 0.41082415 26
0.91089553 1.9605649 0.33596343 26
0.90515631 1.9473224 0.25897235 25
0.91296607 1.9632275 0.18607752 31
0.90707648 1.9496726 0.11069055 28
0.90428472 1.9427855 0.036737315 26
0.82474494 1.7678661 -0.5124619 4
0.92072511 1.9727038 -0.49376786 6
0.92160994 1.9737009 -0.41559041 28
0.91706514 1.9630741 -0.33711654 28
0.92394149 1.9768935 -0.26323807 29
0.91496599 1.9567989 -0.185642 27
0.91116601 1.947786 -0.11032221 28
0.91047353 1.9454209 -0.036456663 26
0.91326898 1.9505072 0.56644452 27
0.91524827 1.9538465 0.48889863 25
0.91395044 1.9501898 0.41082415 25
0.91773367 1.9573733 0.33596343 26
0.91405565 1.9486437 0.25958169 25
0.92192948 1.9645379 0.18651327 32
0.91387653 1.9464945 0.11069055 29
0.91318619 1.9441419 0.036824573 26
0.83091092 1.7649764 -0.5124619 4
0.92760551 1.9694779 -0.49376786 5
0.93058592 1.9749116 -0.41654357 29
0.92391199 1.9598609 -0.33711654 29
0.93295354 1.9781451 -0.26384741 29
0.92391646 1.9580979 -0.1860778 28
0.91795951 1.9445935 -0.11032221 27
0.91939372 1.9467516 -0.036543053 28
0.9200719 1.9473073 0.56644452 26
0.92206293 1.9506397 0.48889863 26
0.92075229 1.9469875 0.41082415 25
0.92667276 1.9586221 0.33674476 26
0.92085212 1.9454412 0.25958169 24
0.92878139 1.9613078 0.18651327 29
0.92280334 1.9478048 0.11095222 28
0.919967 1.9409424 0.036824573 27
0.83499438 1.7577028 -0.51116782 4
0.93447465 1.9662279 -0.49376786 5
0.93747401 1.9716512 -0.41654357 29
0.93074757 1.9566238 -0.33711654 28
0.93985289 1.9748764 -0.26384741 29
0.9307459 1.9548609 -0.1860778 27
0.9247418 1.9413775 -0.11032221 27
0.92618352 1.9435303 -0.036543053 28
0.92894214 1.9484433 0.5677377 25
0.92886633 1.9474093 0.48889863 25
0.92754292 1.9437617 0.41082415 24
0.93350405 1.9553756 0.33674476 25
0.92977625 1.9466933 0.26019105 26
0.93776953 1.962548 0.18694907 30
0.92959684 1.9445719 0.11095222 28
0.92673653 1.9377193 0.036824573 26
0.84112483 1.7547773 -0.51116782 4
0.94133234 1.962954 -0.49376786 6
0.94435066 1.9683669 -0.41654357 29
0.93757182 1.9533631 -0.33711654 28
0.94888896 1.9760574 -0.26445675 29
0.9375639 1.9516001 -0.1860778 26
0.93367589 1.942638 -0.11058301 26
0.93296212 1.9402856 -0.036543053 27
0.93573785 1.9451889 0.5677377 28
0.9356584 1.9441551 0.48889863 25
0.93645161 1.9449346 0.41177732 26
0.94032383 1.952105 0.33674476 24
0.93656588 1.9434359 0.26019105 27
0.94461435 1.9592627 0.18694907 30
0.93854821 1.9458125 0.11121391 28
0.93566751 1.9389751 0.036911838 26
0.84724498 1.7518307 -0.51116782 4
0.95030057 1.9640419 -0.49489263 6
0.95335436 1.9694763 -0.4174968 27
0.94438463 1.9500784 -0.33711654 26
0.95578086 1.972733 -0.26445675 29
0.94437057 1.9483154 -0.1860778 26
0.9404512 1.9393671 -0.11058301 27
0.94191134 1.9415148 -0.036629442 29
0.94252211 1.9419107 0.5677377 25
0.94456726 1.94526 0.49002257 25
0.94323498 1.9416538 0.41177732 24
0.94929087 1.9532524 0.33752605 25
0.943344 1.9401549 0.26019105 26
0.95362645 1.9604324 0.18738484 30
0.94533467 1.9425244 0.11121391 29
0.94243008 1.9356973 0.036911838 26
0.85335487 1.7488625 -0.51116782 4
0.95715064 1.9607128 -0.49489263 6
0.96022326 1.9661366 -0.4174968 27
0.95118588 1.9467701 -0.33711654 28
0.96484059 1.9738433 -0.26506612 29
0.95116568 1.9450072 -0.1860778 26
0.94940948 1.9405577 -0.11084383 27
0.94868273 1.9382151 -0.036629442 25
0.94929487 1.9386088 0.5677377 27
0.9513517 1.941951 0.49002257 26
0.95216697 1.942757 0.41273054 25
0.95610321 1.9499269 0.33752605 26
0.95229626 1.9413056 0.26080036 27
0.96046388 1.9570917 0.18738484 29
0.95431012 1.9436947 0.11147558 28
0.9513852 1.9368829 0.036999099 27
0.85945433 1.7458731 -0.51116782 4
0.96398896 1.9573598 -0.49489263 5
0.96708053 1.9627727 -0.4174968 27
0.95797563 1.9434378 -0.33711654 28
0.97172469 1.9704634 -0.26506612 29
0.96015298 1.9461418 -0.18651357 27
0.95617753 1.9372318 -0.11084383 26
0.95544255 1.9348918 -0.036629442 27
0.95819533 1.9396137 0.569031 24
0.96028322 1.9429859 0.49114645 25
0.95894271 1.9394214 0.41273054 26
0.96290392 1.9465777 0.33752605 25
0.95906687 1.9379697 0.26080036 25
0.96949965 1.958191 0.18782063 30
0.96108907 1.9403517 0.11147558 28
0.95814037 1.9335501 0.036999099 25
0.86554337 1.7428623 -0.51116782 4
0.96864772 1.9496197 -0.49376786 5
0.9761107 1.9637804 -0.41844994 28
0.96695244 1.9445039 -0.3378987 29
0.97859699 1.9670594 -0.26506612 29
0.96694046 1.9427783 -0.18651357 28
0.9629339 1.9338824 -0.11084383 26
0.96441996 1.9360198 -0.036715835 27
0.96495998 1.9362571 0.569031 25
0.96705961 1.939622 0.49114645 26
0.96570677 1.9360622 0.41273054 26
0.96969289 1.9432046 0.33752605 24
0.96582586 1.93461 0.26080036 27
0.97632903 1.9547949 0.18782063 30
0.97008812 1.9414518 0.11173727 30
0.96488392 1.9301938 0.036999099 24
0.87378508 1.7441485 -0.5124619 4
0.97544724 1.9462265 -0.49376786 5
0.98295963 1.9603611 -0.41844994 28
0.9737342 1.9411168 -0.3378987 29
0.98545736 1.9636314 -0.26506612 29
0.97371614 1.9393914 -0.18651357 25
0.97191978 1.9349712 -0.11110463 28
0.97117209 1.9326416 -0.036715835 29
0.97388232 1.9371923 0.57032424 26
0.97382426 1.9362347 0.49114645 26
0.97466499 1.9370639 0.41368371 25
0.97869056 1.9442191 0.33830738 23
0.97257298 1.931227 0.26080036 27
0.98314661 1.951375 0.18782063 30
0.97685915 1.9380536 0.11173727 29
0.97161567 1.926814 0.036999099 25
0.87986791 1.7410878 -0.5124619 4
0.9822349 1.9428098 -0.49376786 4
0.9920119 1.961298 -0.41940317 27
0.98273379 1.9421126 -0.33868089 27
0.9923057 1.9601797 -0.26506612 28
0.98047996 1.9359807 -0.18651357 25
0.97866815 1.9315668 -0.11110463 27
0.97791231 1.9292397 -0.036715835 26
0.98063844 1.9337809 0.57032424 24
0.98278135 1.9371685 0.49227038 24
0.9814207 1.9336499 0.41368371 22
0.98547119 1.940791 0.33830738 25
0.98155588 1.9322448 0.26140973 25
0.98995221 1.9479313 0.18782063 28
0.98361832 1.9346319 0.11173727 30
0.9806022 1.9278668 0.037086364 26
0.88594013 1.7380059 -0.5124619 4
0.98901057 1.9393692 -0.49376786 5
0.99885207 1.9578233 -0.41940317 26
0.98950702 1.9386704 -0.33868089 27
1.0013989 1.9611239 -0.26567549 25
0.98723179 1.9325463 -0.18651357 27
0.98767692 1.932585 -0.11136544 27
0.98691642 1.9302655 -0.036802221 28
0.98958218 1.9346461 0.57161748 25
0.98953736 1.9337261 0.49227038 25
0.98816437 1.9302123 0.41368371 24
0.99223977 1.9373393 0.33830738 26
0.98829472 1.9288068 0.26140973 26
0.99674571 1.9444638 0.18782063 30
0.99264389 1.9356297 0.11199894 31
0.98732573 1.9244322 0.037086364 28
0.89200145 1.7349029 -0.5124619 4
0.99577421 1.9359052 -0.49376786 5
1.007926 1.9586891 -0.42035633 29
0.99852848 1.939595 -0.33946306 30
1.0082384 1.9576164 -0.26567549 29
0.99625307 1.9335164 -0.18694936 27
0.99441689 1.9291257 -0.11136544 28
0.99364835 1.9268088 -0.036802221 28
0.99632931 1.9311801 0.57161748 25
0.99628133 1.9302602 0.49227038 24
0.99489611 1.9267513 0.41368371 25
1.0012629 1.9382516 0.33908868 25
0.99502152 1.9253452 0.26140973 27
1.003527 1.9409727 0.18782063 31
0.99939448 1.9321529 0.11199894 27
0.99403721 1.9209739 0.037086364 25
0.89805198 1.7317786 -0.5124619 4
1.0025257 1.9324174 -0.49376786 5
1.0147569 1.9551588 -0.42035633 30
1.0052929 1.9360977 -0.33946306 29
1.0150657 1.9540851 -0.26567549 26
1.0029962 1.930027 -0.18694936 26
1.0011448 1.9256426 -0.11136544 26
1.0026749 1.9277637 -0.036888614 26
1.0030643 1.9276905 0.57161748 24
1.0030131 1.9267707 0.49227038 26
1.0016156 1.9232666 0.41368371 24
1.0080225 1.9347447 0.33908868 28
1.0017362 1.9218602 0.26140973 28
1.0102962 1.9374579 0.18782063 30
1.0061328 1.9286526 0.11199894 31
1.0007366 1.9174925 0.037086364 29
0.90185326 1.7243536 -0.51116782 4
1.0092651 1.9289063 -0.49376786 5
1.0215755 1.9516047 -0.42035633 27
1.012045 1.9325768 -0.33946306 28
1.0218805 1.9505299 -0.26567549 29
1.0097272 1.9265141 -0.18694936 30
1.0078604 1.9221363 -0.11136544 28
1.009398 1.924252 -0.036888614 30
1.0097871 1.9241774 0.57161748 25
1.0097326 1.9232578 0.49227038 26
1.008323 1.9197587 0.41368371 23
1.01477 1.9312143 0.33908868 24
1.0084386 1.9183519 0.26140973 28
1.0193714 1.9383279 0.1882564 30
1.010534 1.92071 0.11173727 32
1.0074239 1.9139875 0.037086364 26
0.9078669 1.721195 -0.51116782 4
1.0137185 1.9210629 -0.49264312 5
1.0283816 1.9480269 -0.42035633 29
1.0187848 1.9290323 -0.33946306 30
1.0286828 1.946951 -0.26567549 28
1.0164458 1.9229778 -0.18694936 26
1.0145638 1.9186065 -0.11136544 30
1.0161086 1.9207169 -0.036888614 27
1.0187567 1.9249096 0.57291073 22
1.0187198 1.9240273 0.49339426 23
1.0173156 1.9205648 0.41463691 20
1.021505 1.9276603 0.33908868 22
1.0174532 1.9192046 0.26201907 26
1.0261313 1.9347577 0.1882564 28
1.0172324 1.9171708 0.11173727 26
1.0140988 1.9104593 0.037086364 23
0.91160131 1.7137516 -0.50987375 4
1.0181292 1.9132117 -0.49151835 5
1.0328687 1.9400927 -0.41940317 23
1.0231907 1.9211057 -0.33868089 26
1.0354728 1.9433484 -0.26567549 27
1.0254951 1.9238133 -0.18738513 24
1.0212547 1.9150532 -0.11136544 26
1.0251602 1.921569 -0.036975004 24
1.0254697 1.9213417 0.57291073 20
1.0254296 1.9204596 0.49339426 23
1.0240135 1.917002 0.41463691 20
1.0305552 1.9284385 0.33987001 22
1.0241463 1.9156413 0.26201907 21
1.0352279 1.9355565 0.18869218 26
1.0262741 1.9180108 0.11199894 23
1.0207613 1.9069078 0.037086364 21
0.91787642 1.7103989 -0.50987375 4
1.0228304 1.9051751 -0.49039361 4
1.0399725 1.9362941 -0.41940317 17
1.0302252 1.9173427 -0.33868089 23
1.0425886 1.9395401 -0.26567549 24
1.0325392 1.9200417 -0.18738513 25
1.0306326 1.9156946 -0.11162625 23
1.0321962 1.9177988 -0.036975004 25
1.0347948 1.921823 0.57420403 28
1.0347722 1.9209776 0.49451819 25
1.0333613 1.9175568 0.41559011 25
1.0376164 1.9246484 0.33987001 26
1.0335165 1.9162428 0.26262844 24
1.0423151 1.9317493 0.18869218 30
1.0332972 1.9142365 0.11199894 27
1.0324944 1.9119512 0.037260886 27
0.92154264 1.7029369 -0.50857961 4
1.0271549 1.8973086 -0.48926884 4
1.0443876 1.9283361 -0.41844994 13
1.0345589 1.9093927 -0.3378987 17
1.0517174 1.9402521 -0.26628482 27
1.0416098 1.9208047 -0.18782091 31
1.0373133 1.9120854 -0.11162625 25
1.0412691 1.9185779 -0.037061393 29
1.0438014 1.9224435 0.57549721 32
1.0437967 1.9216349 0.49564207 28
1.042392 1.9182507 0.41654328 29
1.0466872 1.9253539 0.34065133 32
1.04257 1.916983 0.26323774 30
1.0514323 1.9324744 0.18912795 32
1.0423599 1.9150035 0.11226062 29
1.0439496 1.9171133 0.037435409 31
0.92516804 1.6954702 -0.50728554 3
1.0291028 1.8851593 -0.48701933 4
1.0511124 1.9246788 -0.41844994 10
1.0435855 1.9101037 -0.33868089 15
1.0608639 1.9409237 -0.26689416 29
1.0506978 1.9215273 -0.18825668 34
1.0463778 1.9128335 -0.11188706 29
1.0503597 1.919317 -0.037147783 33
1.0528252 1.9230251 0.57679051 35
1.0528386 1.922253 0.496766 33
1.0514402 1.9189049 0.4174965 34
1.0557754 1.926019 0.3414326 34
1.0516416 1.9176836 0.26384711 32
1.0605673 1.9331594 0.18956374 37
1.0514405 1.9157304 0.1125223 32
1.0530354 1.9178429 0.03752267 35
0.93108064 1.6922303 -0.50728554 4
1.035677 1.8815554 -0.48701933 4
1.0578244 1.9209979 -0.41844994 11
1.0526294 1.9107746 -0.33946306 13
1.0700278 1.941555 -0.2675035 34
1.0598038 1.92221 -0.18869248 35
1.0578716 1.9179137 -0.11240868 32
1.0594683 1.9200161 -0.037234176 35
1.0618654 1.9235665 0.57808375 36
1.0618973 1.9228309 0.49788988 36
1.0605056 1.9195191 0.41844967 33
1.064881 1.9266442 0.34221393 34
1.0583291 1.914001 0.26384711 35
1.0697198 1.9338042 0.18999954 37
1.0629566 1.9207863 0.11304566 34
1.0621449 1.9185292 0.037609935 34
0.93434507 1.6849099 -0.50599146 3
1.0439456 1.8825532 -0.48814404 5
1.0662352 1.9219574 -0.41940317 12
1.0634201 1.9160944 -0.34102744 21
1.08094 1.9468615 -0.26872221 35
1.0682559 1.9232252 -0.18912823 35
1.066317 1.9189452 -0.11266948 34
1.0679239 1.9210474 -0.037320562 36
1.0702507 1.9244422 0.579377 35
1.0679328 1.9194854 0.49788988 34
1.0689179 1.9204669 0.41940287 33
1.073331 1.9276041 0.34299523 32
1.066752 1.9150021 0.26445645 34
1.0757898 1.930434 0.18999954 38
1.0714171 1.9217986 0.11330734 35
1.0681669 1.9151827 0.037609935 34
0.93992722 1.6818023 -0.50599146 4
1.052888 1.88315 -0.48926884 4
1.0753337 1.9225074 -0.42035633 13
1.0725136 1.9166803 -0.34180957 15
1.0877293 1.9430764 -0.26872221 35
1.0773965 1.9238305 -0.18956403 36
1.0754495 1.9195677 -0.1129303 34
1.0746232 1.9173081 -0.037320562 34
1.0769618 1.9206946 0.579377 34
1.0770102 1.9199952 0.49901381 35
1.075615 1.916724 0.41940287 34
1.0800531 1.9238456 0.34299523 34
1.0734301 1.9112669 0.26445645 34
1.0849615 1.9310094 0.19043529 37
1.0805653 1.9223995 0.11356901 36
1.0748456 1.9114425 0.037609935 31
0.94608504 1.678346 -0.50599146 3
1.059783 1.8792783 -0.48926884 4
1.0823728 1.9185532 -0.42035633 12
1.0819588 1.9170374 -0.34259176 16
1.0972838 1.9433982 -0.26933157 37
1.0844405 1.9198687 -0.18956403 35
1.0849341 1.91996 -0.1131911 36
1.0841036 1.9177086 -0.037406955 36
1.0863719 1.9209385 0.58067024 36
1.08404 1.9160348 0.49901381 34
1.0850506 1.9170401 0.42035604 34
1.0895305 1.9241717 0.34377655 33
1.0828741 1.9116378 0.26506582 34
1.0920317 1.9270197 0.19043529 39
1.0876042 1.918426 0.11356901 36
1.0818442 1.9074901 0.037609935 33
0.95193779 1.6750333 -0.50599146 3
1.0687444 1.8798029 -0.49039361 4
1.0914898 1.9190298 -0.42130953 13
1.091086 1.9175409 -0.34337392 16
1.1040609 1.9395561 -0.26933157 36
1.0936005 1.9204003 -0.18999982 35
1.0916294 1.9161612 -0.1131911 35
1.090791 1.9139127 -0.037406955 32
1.0930706 1.9171346 0.58067024 35
1.0931356 1.9164712 0.50013769 37
1.0941683 1.9175041 0.42130923 32
1.0986887 1.9246455 0.34455785 33
1.0920014 1.9121557 0.26567516 36
1.1012226 1.9275213 0.19087109 39
1.0967718 1.9189533 0.1138307 36
1.0909774 1.9080421 0.037697192 32
0.95777899 1.6717002 -0.50599146 3
1.0752997 1.8760608 -0.49039361 4
1.0981818 1.9152082 -0.42130953 13
1.0977727 1.9137206 -0.34337392 16
1.1132945 1.9399948 -0.26994088 35
1.1002972 1.9165711 -0.18999982 34
1.1007984 1.9166691 -0.11345191 35
1.0999557 1.9144281 -0.037493344 34
1.1021628 1.9174948 0.58196354 36
1.1022474 1.9168674 0.50126159 35
1.1008549 1.9136729 0.42130923 33
1.1054002 1.9207987 0.34455785 34
1.0986694 1.9083323 0.26567516 36
1.1079443 1.9236656 0.19087109 38
1.1059563 1.9194396 0.11409239 35
1.0976311 1.9042221 0.037697192 30
0.96360844 1.6683468 -0.50599146 4
1.0818419 1.872296 -0.49039361 4
1.1073169 1.9156123 -0.4222627 13
1.1069186 1.9141521 -0.34415612 16
1.1200595 1.9360968 -0.26994088 34
1.1094756 1.9170296 -0.19043559 34
1.1074821 1.912815 -0.11345191 34
1.1066315 1.9105768 -0.037493344 34
1.1088495 1.913636 0.58196354 34
1.1089317 1.9130081 0.50126159 36
1.1099905 1.9140646 0.4222624 36
1.1145767 1.9212003 0.34533918 33
1.105324 1.9044857 0.26567516 34
1.1171532 1.9240938 0.19130686 39
1.1126498 1.9155673 0.11409239 36
1.1067832 1.9047017 0.037784457 32
0.96942621 1.664973 -0.50599146 4
1.0859187 1.8642982 -0.48926884 4
1.1139969 1.9117354 -0.4222627 12
1.1135935 1.9102768 -0.34415612 15
1.1293111 1.9364623 -0.27055025 35
1.1161604 1.9131451 -0.19043559 35
1.1141523 1.9089376 -0.11345191 34
1.1158147 1.9110194 -0.037579738 34
1.1155225 1.9097537 0.58196354 34
1.1180606 1.913332 0.5023855 34
1.116665 1.9101783 0.4222624 34
1.1212761 1.9172981 0.34533918 33
1.1144713 1.9048992 0.2662845 35
1.1238629 1.9201826 0.19130686 39
1.1218524 1.9159805 0.11435406 37
1.1134251 1.9008268 0.037784457 33
0.97523218 1.6615789 -0.50599146 4
1.0924196 1.8604964 -0.48926884 4
1.1231494 1.9120677 -0.42321593 13
1.1227566 1.9106356 -0.34493828 16
1.1360637 1.9325083 -0.27055025 35
1.1253569 1.9135309 -0.19087137 35
1.123341 1.9093404 -0.11371273 32
1.1250145 1.9114215 -0.037666127 34
1.1246325 1.9100099 0.58325672 34
1.1247325 1.9094175 0.5023855 34
1.125818 1.9104975 0.42321563 33
1.127962 1.9133724 0.34533918 34
1.1211139 1.9009973 0.2662845 34
1.1330897 1.9205378 0.19174264 39
1.1285336 1.9120528 0.11435406 33
1.1225951 1.9012333 0.037871718 34
0.98102617 1.6581646 -0.50599146 4
1.0989072 1.8566717 -0.48926884 4
1.1298168 1.9081354 -0.42321593 13
1.1319362 1.9109539 -0.34572047 15
1.1453325 1.9328004 -0.27115959 36
1.1320295 1.9095911 -0.19087137 36
1.1299989 1.9054075 -0.11371273 33
1.1316798 1.9074827 -0.037666127 34
1.1312928 1.9060725 0.58325672 34
1.1338784 1.9096693 0.5035094 37
1.13248 1.906556 0.42321563 34
1.1371567 1.9136688 0.34612048 32
1.1302786 1.9013381 0.26689386 35
1.1397867 1.9165709 0.19174264 39
1.137754 1.9123931 0.11461575 36
1.1292248 1.8973032 0.037871718 31
0.9868083 1.6547301 -0.50599146 4
1.1053816 1.8528244 -0.48926884 4
1.1364706 1.90418 -0.42321593 12
1.1411314 1.9112312 -0.3465026 16
1.1520722 1.9287906 -0.27115959 35
1.1412431 1.9099035 -0.19130714 34
1.1392051 1.9057374 -0.11397354 35
1.1408969 1.9078114 -0.037752517 36
1.1404191 1.906257 0.58455002 34
1.1405375 1.9056996 0.5035094 33
1.1416495 1.9068025 0.4241688 34
1.1438297 1.9096878 0.34612048 34
1.1369087 1.8973812 0.26689386 35
1.1490307 1.9168527 0.19217841 39
1.1444225 1.9084098 0.11461575 36
1.1384126 1.897637 0.037958983 32
0.99506646 1.6554147 -0.50728554 4
1.1118424 1.8489548 -0.48926884 4
1.1431105 1.9002014 -0.42321593 12
1.1477958 1.9072362 -0.3465026 16
1.1613578 1.9290093 -0.27176896 36
1.147903 1.9059081 -0.19130714 34
1.1484272 1.9060259 -0.11423435 35
1.1475495 1.9038173 -0.037752517 35
1.1495602 1.9064004 0.58584327 34
1.1496991 1.9058784 0.50463331 35
1.1482986 1.9028058 0.4241688 34
1.1530415 1.9099114 0.3469018 32
1.1460904 1.897649 0.2675032 36
1.1557148 1.9128301 0.19217841 37
1.1510773 1.9044036 0.11461575 35
1.1450298 1.8936516 0.037958983 33
1.0008389 1.6519312 -0.50728554 4
1.120815 1.8492289 -0.49039361 4
1.1522812 1.9003965 -0.42416909 12
1.1570075 1.9074403 -0.34728479 16
1.1680841 1.9249436 -0.27176896 35
1.1571337 1.9061476 -0.19174294 33
1.1550735 1.9020056 -0.11423435 33
1.154188 1.8997999 -0.037752517 33
1.1562078 1.9023761 0.58584327 33
1.1563449 1.9018536 0.50463331 33
1.1574844 1.9029795 0.42512199 33
1.1597012 1.905875 0.3469018 33
1.155288 1.8978763 0.26811254 35
1.1649755 1.9130386 0.1926142 37
1.1603155 1.9046382 0.11487742 36
1.1542346 1.8939122 0.038046245 31
1.0091162 1.6525494 -0.50857961 4
1.1272632 1.8453053 -0.49039361 4
1.1589078 1.8963627 -0.42416909 13
1.1636586 1.90339 -0.34728479 15
1.1773857 1.9250882 -0.27237827 35
1.1663799 1.9063457 -0.19217871 35
1.1643125 1.9022208 -0.11449515 32
1.1634233 1.9000231 -0.03783891 35
1.1653641 1.9024472 0.58713651 33
1.1655222 1.9019598 0.50575721 35
1.1641198 1.8989276 0.42512199 32
1.1689286 1.9060249 0.3476831 34
1.1619058 1.8938318 0.26811254 33
1.1716461 1.9089605 0.1926142 37
1.166957 1.9005762 0.11487742 35
1.1608386 1.8898717 0.038046245 32
1.0148785 1.6490169 -0.50857961 4
1.1362518 1.8455075 -0.49151835 4
1.1680944 1.8964851 -0.42512229 12
1.1728861 1.9035208 -0.34806696 15
1.1840984 1.9209666 -0.27237827 33
1.1730272 1.9022626 -0.19217871 35
1.1709455 1.8981451 -0.11449515 33
1.1700486 1.8959504 -0.03783891 32
1.1719978 1.8983676 0.58713651 34
1.1721542 1.8978798 0.50575721 33
1.1733211 1.8990278 0.42607516 32
1.1755748 1.9019331 0.3476831 33
1.1711192 1.8939854 0.26872188 33
1.1809227 1.9090949 0.19304997 37
1.1762116 1.9007372 0.1151391 33
1.1700597 1.8900585 0.038133506 31
1.0206285 1.6454642 -0.50857961 3
1.1426868 1.84153 -0.49151835 4
1.1772958 1.8965663 -0.42607546 12
1.1795236 1.8994151 -0.34806696 15
1.1934153 1.9210371 -0.27298763 34
1.1822894 1.9023869 -0.1926145 34
1.1802003 1.8982867 -0.11475597 33
1.1792997 1.8960997 -0.037925296 35
1.1811688 1.8983661 0.58842975 34
1.1813464 1.8979129 0.50688112 34
1.1825373 1.8990874 0.42702836 33
1.1848179 1.9020097 0.34846443 33
1.1803482 1.8940978 0.26933125 34
1.1875795 1.9049611 0.19304997 37
1.1828393 1.8966198 0.1151391 34
1.1792963 1.8902042 0.038220771 33
1.0263659 1.6418915 -0.50857961 4
1.1516912 1.841661 -0.49264312 4
1.1865121 1.8966063 -0.42702866 13
1.1887666 1.8994726 -0.34884915 16
1.2001137 1.9168595 -0.27298763 33
1.1889228 1.8982484 -0.1926145 32
1.1868194 1.8941554 -0.11475597 34
1.1859112 1.8919717 -0.037925296 35
1.1877881 1.8942313 0.58842975 34
1.1879642 1.8937777 0.50688112 32
1.1891592 1.8949479 0.42702836 32
1.1940757 1.9020451 0.3492457 31
1.1869526 1.889966 0.26933125 34
1.1968718 1.9050219 0.19348575 37
1.1921093 1.8967068 0.11540078 33
1.1858871 1.8860763 0.038220771 32
1.0320909 1.6382989 -0.50857961 4
1.1607103 1.841751 -0.49376786 4
1.195743 1.8966051 -0.42798182 13
1.1953897 1.8953115 -0.34884915 15
1.2094456 1.9168557 -0.27359697 35
1.1982003 1.8982987 -0.19305027 34
1.19609 1.8942227 -0.11501677 34
1.195178 1.8920473 -0.038011689 33
1.1969732 1.8941567 0.58972305 34
1.1971709 1.8937374 0.50800502 33
1.19839 1.8949337 0.42798153 32
1.2007078 1.8978653 0.3492457 32
1.1961967 1.8900046 0.26994058 32
1.2035142 1.9008324 0.19348575 37
1.2013947 1.8967522 0.11566246 34
1.1951394 1.8861481 0.038308028 33
1.0378033 1.6346862 -0.50857961 3
1.167132 1.8376881 -0.49376786 4
1.2023561 1.8924196 -0.42798182 13
1.2046473 1.895295 -0.34963131 16
1.2161293 1.9126225 -0.27359697 34
1.2074926 1.8983074 -0.19348605 34
1.2053754 1.894249 -0.11527758 33
1.2017753 1.8878638 -0.038011689 33
1.2035776 1.889967 0.58972305 34
1.2063916 1.893656 0.50912893 33
1.2076353 1.8948783 0.42893475 33
1.2099802 1.8978268 0.35002702 32
1.2027867 1.8858178 0.26994058 32
1.2128212 1.9008188 0.19392152 38
1.2106947 1.8967559 0.11592413 35
1.2017159 1.8819647 0.038308028 30
1.0435032 1.6310536 -0.50857961 3
1.1761661 1.8377066 -0.49489263 4
1.2116011 1.8923447 -0.42893505 12
1.2139194 1.8952371 -0.3504135 16
1.2227982 1.9083656 -0.27359697 34
1.2141116 1.8940809 -0.19348605 32
1.2119802 1.8900299 -0.11527758 33
1.2110572 1.8878651 -0.038098078 34
1.2127762 1.889819 0.59101623 34
1.2129943 1.8894333 0.50912893 33
1.2142423 1.8906513 0.42893475 33
1.2165976 1.8935916 0.35002702 30
1.2120453 1.8857825 0.27054995 34
1.2221428 1.9007634 0.19435731 35
1.2200096 1.8967177 0.11618582 34
1.2109832 1.8819627 0.038395293 32
1.0491903 1.6274012 -0.50857961 3
1.1825737 1.8335897 -0.49489263 4
1.2181994 1.8881038 -0.42893505 13
1.2205276 1.8909881 -0.3504135 16
1.2321442 1.908255 -0.27420634 32
1.2234182 1.8940153 -0.19392182 35
1.2212801 1.8899814 -0.11553839 33
1.2176397 1.8836262 -0.038098078 34
1.2193655 1.8855741 0.59101623 33
1.2222288 1.8892787 0.51025283 34
1.2235012 1.8905218 0.42988792 32
1.225884 1.893479 0.35080832 31
1.2186205 1.8815401 0.27054995 32
1.2287703 1.8964857 0.19435731 35
1.2266229 1.8924475 0.11618582 34
1.2202649 1.8819187 0.038482554 31
1.0522335 1.6196789 -0.50728554 3
1.1889669 1.8294506 -0.49489263 4
1.2247826 1.8838401 -0.42893505 12
1.2298135 1.8908558 -0.35119566 16
1.2415042 1.9081018 -0.27481568 33
1.2327396 1.893908 -0.1943576 33
1.2278701 1.8857068 -0.11553839 31
1.226936 1.8835534 -0.038184468 31
1.2285769 1.8853528 0.59230953 34
1.2288162 1.8850007 0.51025283 33
1.2300929 1.8862395 0.42988792 32
1.2324859 1.8891883 0.35080832 32
1.2278932 1.8814309 0.27115926 32
1.2381058 1.8963555 0.19479308 37
1.2359515 1.8923346 0.11644749 34
1.2268265 1.8776478 0.038482554 31
1.0552356 1.6119553 -0.50599146 4
1.1953456 1.8252891 -0.49489263 4
1.2340406 1.8836589 -0.42988822 12
1.2391132 1.890682 -0.35197783 15
1.2481571 1.9037566 -0.27481568 32
1.239343 1.8895935 -0.1943576 33
1.2371842 1.8855842 -0.1157992 32
1.2362465 1.8834382 -0.038270857 33
1.2378013 1.8850899 0.59360272 33
1.2380633 1.8847718 0.51137674 33
1.2393651 1.886036 0.43084112 32
1.2417858 1.8890015 0.35158965 32
1.2371801 1.8812798 0.27176863 31
1.2447176 1.8920223 0.19479308 35
1.2425495 1.8880087 0.11644749 34
1.2361224 1.8775293 0.038569819 31
1.060856 1.6082621 -0.50599146 4
1.1990263 1.817039 -0.49376786 4
1.2406082 1.8793397 -0.42988822 13
1.2457055 1.8863451 -0.35197783 15
1.2575306 1.9035289 -0.27542502 32
1.2486776 1.8894111 -0.19479337 34
1.2437586 1.8812541 -0.1157992 31
1.2428133 1.8791114 -0.038270857 33
1.2470392 1.8847859 0.59489602 33
1.2446349 1.8804387 0.51137674 33
1.245941 1.8816984 0.43084112 32
1.2510991 1.8887722 0.35237095 31
1.2437394 1.8769498 0.27176863 33
1.2540666 1.8918176 0.19522887 35
1.251892 1.8878212 0.11670918 34
1.2426686 1.8732029 0.038569819 31
1.06379 1.6005269 -0.50469732 3
1.2053617 1.8128426 -0.49376786 4
1.2498792 1.8790847 -0.43084142 12
1.2550181 1.8860967 -0.35275999 15
1.2641674 1.8991277 -0.27542502 32
1.258026 1.8891867 -0.19522917 33
1.253086 1.8810565 -0.11606 32
1.2521375 1.8789221 -0.03835725 33
1.2536107 1.8804215 0.59489602 34
1.2538944 1.8801359 0.51250064 32
1.2552259 1.8814207 0.43179429 31
1.2576846 1.8843937 0.35237095 30
1.2530394 1.8767241 0.27237797 31
1.2634292 1.8915706 0.19566463 36
1.258474 1.8834399 0.11670918 33
1.2519779 1.8730099 0.038657077 33
1.0693704 1.5968039 -0.50469732 4
1.2089709 1.8045766 -0.49264312 4
1.2591635 1.8787875 -0.43179458 12
1.2615943 1.8817043 -0.35275999 15
1.2735533 1.8988249 -0.27603436 33
1.2646129 1.884784 -0.19522917 33
1.2596444 1.876671 -0.11606 32
1.2586886 1.8745399 -0.03835725 32
1.2628602 1.8800433 0.59618932 31
1.2604498 1.8757476 0.51250064 32
1.264524 1.8811013 0.43274748 31
1.2670108 1.8840903 0.35315228 30
1.2595828 1.8723389 0.27237797 33
1.2728053 1.8912811 0.19610043 36
1.2678293 1.8831775 0.11697085 32
1.261301 1.8727751 0.038744342 30
1.0749378 1.5930613 -0.50469732 4
1.2152628 1.8003457 -0.49264312 4
1.2657139 1.8743807 -0.43179458 12
1.2709193 1.8813814 -0.35354218 15
1.2829523 1.8984796 -0.27664372 33
1.2739738 1.8844845 -0.19566494 33
1.2689848 1.8763989 -0.11632082 33
1.2680256 1.8742754 -0.038443636 33
1.272122 1.8796235 0.5974825 33
1.2697212 1.8753707 0.51362455 32
1.2710824 1.8766757 0.43274748 31
1.2735797 1.8796562 0.35315228 31
1.2688951 1.8720386 0.27298734 31
1.2821946 1.8909491 0.1965362 36
1.2743951 1.8787405 0.11697085 33
1.2678305 1.8683609 0.038744342 33
1.080492 1.5892993 -0.50469732 3
1.2187998 1.792064 -0.49151835 4
1.2750102 1.8740095 -0.43274778 13
1.2802576 1.8810161 -0.35432434 15
1.2923644 1.8980919 -0.27725306 32
1.280544 1.8800261 -0.19566494 32
1.2783384 1.8760841 -0.11658162 31
1.2773761 1.8739687 -0.038530029 32
1.2813965 1.8791622 0.5987758 34
1.2762597 1.8709272 0.51362455 32
1.2803922 1.8762817 0.43370065 31
1.2829175 1.8792778 0.35393357 31
1.2782208 1.8716961 0.27359664 31
1.2887875 1.886462 0.1965362 35
1.2837628 1.8784031 0.11723254 33
1.277166 1.8680507 0.038831603 30
1.0833039 1.5815336 -0.50340325 4
1.2250478 1.7877986 -0.49151835 4
1.284319 1.8735958 -0.43370095 12
1.2868158 1.8765358 -0.35432434 15
1.2989821 1.8935691 -0.27725306 34
1.2899172 1.8796517 -0.19610073 32
1.2848794 1.8716104 -0.11658162 32
1.2867398 1.8736192 -0.038616419 33
1.2879484 1.8746778 0.5987758 31
1.2855422 1.870476 0.51474845 32
1.2897147 1.8758454 0.43465388 31
1.2894696 1.874788 0.35393357 31
1.2875595 1.8713115 0.27420601 32
1.2981889 1.8860549 0.19697198 34
1.2903117 1.8739103 0.11723254 32
1.283679 1.8635812 0.038831603 31
1.0888178 1.5777425 -0.50340325 4
1.231281 1.7835115 -0.49151835 4
1.2908512 1.8691013 -0.43370095 13
1.2961652 1.8760954 -0.35510653 15
1.3084056 1.893106 -0.27786243 33
1.2964706 1.8751376 -0.19610073 32
1.2942452 1.8712207 -0.11684243 32
1.2961168 1.8732275 -0.038702808 32
1.297233 1.8741417 0.60006905 32
1.2920636 1.8659772 0.51474845 32
1.2962548 1.8713322 0.43465388 31
1.2988188 1.8743349 0.3547149 30
1.2940838 1.8668058 0.27420601 33
1.3047645 1.8815118 0.19697198 37
1.2996911 1.8734974 0.11749421 33
1.2930267 1.8631963 0.038918864 29
1.0915614 1.5699668 -0.50210917 4
1.2374991 1.7792027 -0.49151835 4
1.300171 1.8686129 -0.43465418 12
1.3055274 1.8756127 -0.35588869 15
1.3178416 1.8925997 -0.27847174 33
1.3058553 1.8746878 -0.1965365 31
1.3007692 1.8666915 -0.11684243 31
1.3026477 1.8686918 -0.038702808 31
1.3065299 1.8735638 0.60136229 32
1.3013566 1.8654513 0.51587236 33
1.3055879 1.8708209 0.43560702 31
1.3081806 1.8738391 0.3554962 30
1.3034338 1.8663455 0.27481535 31
1.3141768 1.881029 0.19740775 34
1.3090832 1.8730419 0.1177559 33
1.2995225 1.8586714 0.038918864 31
1.0970351 1.566147 -0.50210917 4
1.2437022 1.7748722 -0.49151835 4
1.3066859 1.864063 -0.43465418 12
1.3149019 1.8750876 -0.35667089 14
1.32444 1.887988 -0.27847174 32
1.3123912 1.870118 -0.1965365 32
1.3101461 1.8662262 -0.11710324 32
1.3120358 1.8682244 -0.038789198 32
1.3130618 1.8689917 0.60136229 32
1.3134634 1.8688699 0.51812023 31
1.3149334 1.8702676 0.43656024 31
1.3175546 1.8733008 0.35627753 29
1.3099405 1.8617845 0.27481535 30
1.323602 1.8805034 0.19784354 36
1.3156134 1.8684609 0.1177559 33
1.3088813 1.8582108 0.039006125 30
1.1052798 1.5662541 -0.50340325 4
1.24989 1.7705201 -0.49151835 4
1.3160161 1.8634999 -0.43560734 12
1.3214393 1.8704864 -0.35667089 15
1.3338866 1.8874063 -0.27908111 32
1.3217865 1.8695929 -0.19697228 31
1.3166525 1.8616415 -0.11710324 32
1.3214365 1.8677144 -0.038875591 32
1.3223681 1.8683393 0.60265553 31
1.3227942 1.8682497 0.51924407 32
1.3214538 1.8656663 0.43656024 31
1.3240857 1.8686903 0.35627753 29
1.3193014 1.8612494 0.27542472 30
1.330158 1.8758718 0.19784354 35
1.3250165 1.8679298 0.11801757 33
1.3182529 1.8577077 0.03909339 32
1.1163372 1.570259 -0.50599146 4
1.2588863 1.7701167 -0.49264312 5
1.3253583 1.8628943 -0.43656054 11
1.330824 1.8698857 -0.35745302 14
1.343345 1.8867813 -0.27969044 31
1.3283045 1.8649675 -0.19697228 32
1.3260401 1.8611007 -0.11736406 32
1.3279481 1.8630904 -0.038875591 32
1.3288817 1.8637118 0.60265553 31
1.3321368 1.8675873 0.52036798 33
1.330809 1.8650373 0.43751341 31
1.3334697 1.8680764 0.35705879 30
1.3286743 1.8606715 0.27603403 31
1.3395932 1.8752702 0.19827931 35
1.3344318 1.8673558 0.11827926 33
1.3247294 1.8530948 0.03909339 30
1.1246238 1.570279 -0.50728554 3
1.2650574 1.7657115 -0.49264312 4
1.331853 1.8582566 -0.43656054 12
1.3402206 1.8692425 -0.35823521 15
1.3499229 1.8820807 -0.27969044 32
1.3377101 1.8643663 -0.19740805 32
1.3354402 1.860517 -0.11762486 31
1.3373591 1.8625042 -0.038961977 31
1.338197 1.8629847 0.60394883 30
1.3386477 1.8629259 0.52036798 31
1.3373111 1.8603805 0.43751341 31
1.3428658 1.8674201 0.35784012 30
1.3380592 1.8600509 0.2766434 31
1.3490405 1.8746258 0.19871509 34
1.3409419 1.8626864 0.11827926 31
1.3341113 1.8525161 0.039180648 30
1.1383002 1.5782925 -0.51116782 4
1.2734481 1.7656797 -0.49376786 4
1.340556 1.8580437 -0.43751371 12
1.3460865 1.8650229 -0.35823521 14
1.358734 1.8818542 -0.28029981 31
1.3464772 1.8641925 -0.19784385 29
1.3412787 1.8563125 -0.11762486 31
1.3432037 1.8582935 -0.038961977 33
1.3440431 1.8587714 0.60394883 32
1.3473492 1.8626589 0.52149189 32
1.3460267 1.8601468 0.43846661 30
1.3516215 1.8671924 0.35862142 31
1.3468068 1.8598576 0.27725273 31
1.3578451 1.8744121 0.19915086 34
1.349717 1.8625075 0.11854094 31
1.3428589 1.8523633 0.039267913 30
1.1435276 1.5745091 -0.51116782 4
1.2824675 1.7651654 -0.49489263 4
1.3499194 1.8573234 -0.43846694 12
1.3554925 1.8643069 -0.35901737 14
1.3682139 1.8811133 -0.28090915 32
1.3559066 1.8635086 -0.1982796 32
1.3506886 1.8556563 -0.11788567 32
1.352625 1.8576351 -0.03904837 31
1.3533669 1.8579723 0.60524201 31
1.356712 1.861882 0.52261579 31
1.3525115 1.8554369 0.43846661 32
1.3581311 1.862463 0.35862142 31
1.3562155 1.8591545 0.2778621 31
1.3643796 1.8696609 0.19915086 35
1.3591542 1.8618176 0.11880261 32
1.352265 1.8517019 0.039355174 30
1.152418 1.5740035 -0.5124619 4
1.2921143 1.7641584 -0.49601737 4
1.3570411 1.8521265 -0.43846694 11
1.362641 1.8590885 -0.35901737 15
1.3783612 1.8798481 -0.28151849 31
1.365998 1.862305 -0.1987154 33
1.3607577 1.8544821 -0.11814647 32
1.3627059 1.8564577 -0.039134759 30
1.3633497 1.8566552 0.60653532 31
1.3638511 1.8566588 0.52261579 31
1.3625324 1.8541852 0.43941984 30
1.3681977 1.8612137 0.35940275 30
1.3662841 1.8579311 0.27847141 32
1.3745003 1.8684206 0.19958664 34
1.3692526 1.8606067 0.11906429 32
1.359365 1.846496 0.039355174 28
1.1579053 1.5699712 -0.5124619 4
1.2982644 1.7596372 -0.49601737 4
1.3664126 1.8513273 -0.43942013 11
1.3720553 1.8582934 -0.35979956 15
1.3849148 1.8750252 -0.28151849 30
1.3724904 1.8575255 -0.1987154 31
1.3701909 1.8537363 -0.11840729 32
1.3691778 1.8516897 -0.039134759 31
1.3726945 1.8557678 0.60782856 30
1.3732218 1.855803 0.5237397 30
1.3719165 1.8533627 0.440373 30
1.3776251 1.8603954 0.36018407 29
1.3727611 1.8531505 0.27847141 33
1.3839796 1.8676132 0.20002241 35
1.3787125 1.8598272 0.11932597 32
1.3687854 1.8457512 0.039442439 30
1.1633786 1.5659198 -0.5124619 4
1.3043989 1.7550948 -0.49601737 4
1.3757952 1.8504853 -0.4403733 12
1.3814809 1.8574556 -0.36058176 15
1.3944137 1.874161 -0.28212786 32
1.38194 1.856719 -0.19915117 31
1.3796352 1.852947 -0.11866809 29
1.3786194 1.8509084 -0.039221149 30
1.3820499 1.8548381 0.6091218 32
1.3826032 1.8549048 0.5248636 31
1.3813118 1.8524976 0.4413262 29
1.3870633 1.8595338 0.36096537 29
1.3821894 1.8523251 0.27908078 29
1.3904903 1.8627708 0.20002241 34
1.3851961 1.855003 0.11932597 32
1.3782065 1.8449709 0.039529696 29
1.1717314 1.5657161 -0.51375604 3
1.3134371 1.754431 -0.49714214 4
1.3851885 1.8496002 -0.4413265 11
1.3909172 1.8565742 -0.36136392 14
1.4009472 1.8692822 -0.28212786 31
1.3884127 1.8518839 -0.19915117 31
1.3890907 1.8521144 -0.11892891 30
1.385072 1.846085 -0.039221149 32
1.3914151 1.8538653 0.61041504 30
1.3919946 1.8539633 0.52598751 31
1.3877698 1.8476646 0.4413262 30
1.3935459 1.8546805 0.36096537 29
1.388647 1.847489 0.27908078 32
1.3999776 1.861887 0.20045821 33
1.3946642 1.8541468 0.11958765 31
1.3846382 1.8401488 0.039529696 29
1.1800966 1.5654731 -0.51505011 3
1.3195534 1.7498356 -0.49714214 4
1.3945923 1.8486723 -0.44227967 11
1.4003643 1.8556498 -0.36214611 15
1.4104538 1.8683413 -0.2827372 31
1.3978704 1.8510009 -0.19958696 31
1.3955473 1.8472544 -0.11892891 30
1.3945218 1.8452272 -0.039307538 31
1.3978778 1.848997 0.61041504 30
1.4013966 1.8529789 0.52711141 31
1.3971721 1.8467233 0.44227937 29
1.4029919 1.8537431 0.3617467 29
1.398083 1.8465871 0.27969012 31
1.4094757 1.8609595 0.200894 34
1.4041436 1.8532472 0.11984934 32
1.3940729 1.8392887 0.039616961 29
1.1884748 1.5651907 -0.51634425 4
1.3285999 1.7490982 -0.49826688 4
1.4040065 1.8477011 -0.44323289 11
1.4098215 1.8546817 -0.36292824 14
1.4199709 1.8673571 -0.28334656 31
1.4073386 1.8500744 -0.20002273 31
1.4050106 1.8463453 -0.11918971 30
1.4039824 1.8443261 -0.039393932 31
1.4072497 1.8479488 0.61170834 30
1.4108087 1.8519515 0.52823532 29
1.4065852 1.845739 0.44323257 28
1.4124482 1.8527616 0.362528 29
1.4045203 1.8416955 0.27969012 30
1.4189841 1.8599882 0.20132977 36
1.410604 1.8483346 0.11984934 32
1.4035183 1.8383849 0.039704222 30
1.1968651 1.5648688 -0.51763833 4
1.3346975 1.7444499 -0.49826688 4
1.4134307 1.8466864 -0.44418606 12
1.4162869 1.8497492 -0.36292824 15
1.4294981 1.8663286 -0.28395587 31
1.4168175 1.8491045 -0.20045851 31
1.4144847 1.8453926 -0.11945052 29
1.4134538 1.8433813 -0.039480317 31
1.4166313 1.8468577 0.61300153 31
1.4202304 1.8508809 0.52935922 32
1.4160079 1.8447113 0.44418573 28
1.4219148 1.8517373 0.36330932 29
1.4139636 1.8407172 0.28029948 30
1.428503 1.8589733 0.20176555 32
1.4200903 1.847358 0.12011101 31
1.4129745 1.8374375 0.039791483 30
1.1875829 1.5415516 -0.51116782 4
1.3407786 1.7397803 -0.49826688 4
1.4198682 1.8417413 -0.44418606 11
1.4257511 1.8487047 -0.36371043 15
1.4390358 1.8652569 -0.28456524 31
1.4263067 1.8480909 -0.20089431 32
1.4239691 1.8443962 -0.11971132 31
1.4229355 1.8423927 -0.039566711 31
1.4230695 1.8419014 0.61300153 32
1.4266826 1.845912 0.52935922 31
1.4254408 1.8436402 0.44513896 29
1.4313912 1.8506688 0.36409062 29
1.4234173 1.8396957 0.28090885 31
