# .PCD v0.7 - Point Cloud Data file format
VERSION 0.7
FIELDS x y z intensity
SIZE 4 4 4 4
TYPE F F F F
COUNT 1 1 1 1
WIDTH 1236
HEIGHT 1
VIEWPOINT 0 0 0 1 0 0 0
POINTS 1236
DATA ascii
-0.22839913 -0.91334218 0.11090109 59
-0.23178302 -0.92618704 0.080183282 75
-0.2300628 -0.91863239 0.047625717 71
-0.22806193 -0.90996903 0.015707165 79
-0.22981489 -0.91290826 -0.24199592 64
-0.22952266 -0.91107571 -0.20807984 66
-0.23253013 -0.92233407 -0.17729315 67
-0.23164627 -0.91815221 -0.14391983 69
-0.23533036 -0.93206859 -0.11333862 67
-0.23144349 -0.91600037 -0.079311848 73
-0.23092453 -0.91327524 -0.047206428 71
-0.23135301 -0.91429836 -0.015636625 64
-0.23347092 -0.92199159 0.24442467 68
-0.23200029 -0.91551244 0.20904632 66
-0.23261118 -0.91725075 0.17633983 59
-0.23293422 -0.91785228 0.1437611 64
-0.23174515 -0.91249883 0.11090109 65
-0.23517609 -0.92533129 0.080183282 75
-0.23465897 -0.92262203 0.047887396 73
-0.2313956 -0.90912706 0.015707165 79
-0.23300014 -0.91210049 -0.24199592 68
-0.23270153 -0.91026896 -0.20807984 62
-0.23574825 -0.92151678 -0.17729315 68
-0.23484981 -0.91733801 -0.14391983 71
-0.23858245 -0.93124139 -0.11333862 64
-0.23463953 -0.91518688 -0.079311848 69
-0.23411104 -0.91246361 -0.047206428 67
-0.2345431 -0.91348523 -0.015636625 60
-0.23668785 -0.92117101 0.24442467 63
-0.23519461 -0.91469705 0.20904632 65
-0.23581156 -0.91643322 0.17633983 58
-0.2361367 -0.91703355 0.1437611 60
-0.23492895 -0.91168439 0.11090109 61
-0.23840466 -0.92450476 0.080183282 69
-0.2378781 -0.92179728 0.047887396 68
-0.23456763 -0.90831381 0.015707165 76
-0.23618254 -0.91128165 -0.24199592 61
-0.23587754 -0.90945119 -0.20807984 62
-0.2389635 -0.92068821 -0.17729315 65
-0.239292 -0.92129254 -0.14470199 69
-0.24183163 -0.93040293 -0.11333862 63
-0.2378327 -0.91436225 -0.079311848 69
-0.2372947 -0.91164088 -0.047206428 67
-0.23773034 -0.91266096 -0.015636625 62
-0.23990189 -0.92033917 0.24442467 66
-0.23838606 -0.91387045 0.20904632 66
-0.23900907 -0.91560447 0.17633983 56
-0.23933631 -0.91620374 0.1437611 58
-0.2381099 -0.91085875 0.11090109 61
-0.24163036 -0.92366689 0.080183282 73
-0.24109431 -0.92096132 0.047887396 70
-0.23773684 -0.90748942 0.015707165 78
-0.24059005 -0.91512251 -0.24329001 62
-0.23905067 -0.90862226 -0.20807984 61
-0.24217585 -0.9198485 -0.17729315 63
-0.24250646 -0.92045164 -0.14470199 68
-0.24507788 -0.92955315 -0.11333862 65
-0.24102294 -0.91352648 -0.079311848 70
-0.24047549 -0.91080701 -0.047206428 67
-0.24091466 -0.91182554 -0.015636625 62
-0.24311301 -0.91949612 0.24442467 67
-0.24157463 -0.91303277 0.20904632 62
-0.24220368 -0.91476464 0.17633983 56
-0.24379785 -0.92013651 0.14454241 63
-0.24128793 -0.91002208 0.11090109 57
-0.24485308 -0.92281783 0.080183282 75
-0.24430761 -0.92011416 0.047887396 69
-0.24090309 -0.90665406 0.015707165 76
-0.24378298 -0.91427708 -0.24329001 61
-0.24222089 -0.90778232 -0.20807984 64
-0.24538524 -0.91899759 -0.17729315 64
-0.24571793 -0.91959953 -0.14470199 67
-0.24832112 -0.92869198 -0.11333862 67
-0.2442103 -0.91267955 -0.079311848 67
-0.24365334 -0.909962 -0.047206428 68
-0.24409607 -0.91097903 -0.015636625 62
-0.24632116 -0.91864187 0.24442467 66
-0.24476023 -0.912184 0.20904632 66
-0.24539533 -0.91391361 0.17633983 59
-0.24700825 -0.91927987 0.14454241 61
-0.24446303 -0.90917426 0.11090109 58
-0.24807282 -0.92195749 0.080183282 73
-0.24751791 -0.91925573 0.047887396 71
-0.24406645 -0.90580767 0.015707165 77
-0.2469729 -0.91342056 -0.24329001 64
-0.24538818 -0.90693128 -0.20807984 60
-0.24859166 -0.9181354 -0.17729315 62
-0.24892646 -0.91873616 -0.14470199 70
-0.25156134 -0.92781949 -0.11333862 64
-0.24739465 -0.9118216 -0.079311848 72
-0.24682821 -0.90910596 -0.047206428 70
-0.24858524 -0.91494578 -0.015723016 62
-0.24952632 -0.91777647 0.24442467 61
-0.24922188 -0.91602516 0.21017022 66
-0.24858399 -0.91305149 0.17633983 61
-0.25021562 -0.91841203 0.14454241 62
-0.24763517 -0.90831542 0.11090109 59
-0.25128955 -0.92108595 0.080183282 75
-0.25072518 -0.91838616 0.047887396 70
-0.24854429 -0.90977269 0.015794426 78
-0.25015983 -0.91255289 -0.24329001 63
-0.24855246 -0.90606916 -0.20807984 62
-0.25179505 -0.91726208 -0.17729315 62
-0.25213191 -0.9178617 -0.14470199 66
-0.25611389 -0.93172103 -0.11394797 62
-0.25057599 -0.91095245 -0.079311848 72
-0.25000006 -0.90823883 -0.047206428 68
-0.25177747 -0.91407245 -0.015723016 61
-0.25272843 -0.91689986 0.24442467 62
-0.25241789 -0.91514963 0.21017022 65
-0.2517696 -0.91217816 0.17633983 59
-0.25341997 -0.9175331 0.14454241 60
-0.25080425 -0.90744549 0.11090109 59
-0.25450319 -0.92020321 0.080183282 70
-0.25392944 -0.91750538 0.047887396 68
-0.25171846 -0.90889949 0.015794426 78
-0.2533437 -0.91167414 -0.24329001 62
-0.25171372 -0.90519601 -0.20807984 61
-0.25499535 -0.91637754 -0.17729315 66
-0.25533432 -0.91697598 -0.14470199 68
-0.25936463 -0.9308213 -0.11394797 61
-0.25509211 -0.9148702 -0.079747625 69
-0.25451085 -0.91217011 -0.047467239 66
-0.25496665 -0.91318804 -0.015723016 62
-0.25592747 -0.91601211 0.24442467 65
-0.25561082 -0.91426295 0.21017022 67
-0.25495216 -0.91129375 0.17633983 59
-0.25662121 -0.9166429 0.14454241 60
-0.25530905 -0.91134322 0.11151044 58
-0.25905827 -0.92410529 0.08061906 73
-0.25847921 -0.92142093 0.048149075 67
-0.25488961 -0.90801531 0.015794426 77
-0.2565245 -0.91078424 -0.24329001 63
-0.2548719 -0.9043119 -0.20807984 60
-0.25819254 -0.91548187 -0.17729315 62
-0.2585336 -0.91607916 -0.14470199 63
-0.26396096 -0.93468618 -0.11455731 63
-0.25828403 -0.91397417 -0.079747625 67
-0.25769332 -0.91127616 -0.047467239 68
-0.25815272 -0.91229248 -0.015723016 59
-0.25912341 -0.91511321 0.24442467 60
-0.25880063 -0.91336513 0.21017022 65
-0.25813165 -0.91039824 0.17633983 55
-0.25981933 -0.9157415 0.14454241 57
-0.25848868 -0.91044647 0.11151044 61
-0.2622824 -0.92319542 0.08061906 68
-0.26169398 -0.92051309 0.048149075 67
-0.25805759 -0.90712005 0.015794426 76
-0.25970218 -0.90988326 -0.24329001 64
-0.25802702 -0.90341669 -0.20807984 59
-0.2627354 -0.91929442 -0.17824633 61
-0.26172975 -0.91517109 -0.14470199 67
-0.26722205 -0.93375909 -0.11455731 63
-0.26147282 -0.91306704 -0.079747625 69
-0.26087272 -0.91037107 -0.047467239 64
-0.26133564 -0.91138577 -0.015723016 62
-0.26231617 -0.91420311 0.24442467 63
-0.2619873 -0.91245621 0.21017022 61
-0.26266336 -0.91420925 0.17729303 59
-0.26437885 -0.91957539 0.14532372 64
-0.26166514 -0.90953863 0.11151044 59
-0.26688132 -0.9270609 0.081054844 68
-0.2649056 -0.91959399 0.048149075 70
-0.26122245 -0.90621376 0.015794426 77
-0.26287666 -0.90897119 -0.24329001 58
-0.26253325 -0.90719044 -0.20920461 60
-0.26594272 -0.91837162 -0.17824633 62
-0.26492268 -0.91425192 -0.14470199 67
-0.27047983 -0.93282062 -0.11455731 62
-0.26465845 -0.91214877 -0.079747625 68
-0.26404893 -0.90945488 -0.047467239 65
-0.26451537 -0.91046804 -0.015723016 60
-0.26685402 -0.91791975 0.24571793 61
-0.26517078 -0.91153616 0.21017022 62
-0.26585293 -0.91328681 0.17729303 57
-0.26758718 -0.91864693 0.14532372 63
-0.26483846 -0.9086197 0.11151044 59
-0.27011576 -0.92612362 0.081054844 74
-0.26811394 -0.91866368 0.048149075 69
-0.26438415 -0.90529644 0.015794426 78
-0.26604795 -0.90804803 -0.24329001 58
-0.26569834 -0.90626848 -0.20920461 62
-0.26914683 -0.91743779 -0.17824633 63
-0.26950344 -0.91806012 -0.14548418 64
-0.27513301 -0.93663234 -0.11516666 61
-0.2678408 -0.91121936 -0.079747625 66
-0.26863086 -0.91331792 -0.047728047 63
-0.26769188 -0.90953916 -0.015723016 61
-0.27005655 -0.91698265 0.24571793 60
-0.26835099 -0.91060495 0.21017022 64
-0.26903927 -0.91235322 0.17729303 57
-0.27079222 -0.91770726 0.14532372 62
-0.26941386 -0.91244924 0.11211979 55
-0.27334687 -0.92517513 0.081054844 67
-0.27131906 -0.91772223 0.048149075 68
-0.2675426 -0.90436798 0.015794426 76
-0.27059013 -0.91174388 -0.24458411 61
-0.27024713 -0.91000569 -0.21032937 59
-0.27374578 -0.92119759 -0.17919953 60
-0.27270642 -0.91711378 -0.14548418 67
-0.27840081 -0.9356662 -0.11516666 62
-0.27101991 -0.91027886 -0.079747625 66
-0.27181727 -0.91237462 -0.047728047 69
-0.27086514 -0.9085992 -0.015723016 62
-0.27325577 -0.9160344 0.24571793 64
-0.27152798 -0.90966266 0.21017022 65
-0.27222234 -0.91140854 0.17729303 58
-0.27399397 -0.91675645 0.14532372 58
-0.27259722 -0.91150326 0.11211979 60
-0.2765747 -0.92421532 0.081054844 69
-0.27452084 -0.9167695 0.048149075 70
-0.27213272 -0.90821749 0.015881689 77
-0.27377108 -0.91079378 -0.24458411 59
-0.273422 -0.90905684 -0.21032937 60
-0.27695969 -0.92023641 -0.17919953 62
-0.27590609 -0.91615629 -0.14548418 65
-0.28166521 -0.93468875 -0.11516666 62
-0.27419573 -0.90932733 -0.079747625 65
-0.27500039 -0.91142029 -0.047728047 68
-0.27403507 -0.90764815 -0.015723016 61
-0.27645168 -0.915075 0.24571793 63
-0.27470165 -0.90870935 0.21017022 65
-0.2754021 -0.91045272 0.17729303 59
-0.27719238 -0.91579443 0.14532372 59
-0.27577734 -0.91054612 0.11211979 57
-0.27979913 -0.92324424 0.081054844 70
-0.27916834 -0.92058396 0.048410755 70
-0.27530134 -0.90726203 0.015881689 76
-0.27694869 -0.90983254 -0.24458411 60
-0.27659354 -0.90809691 -0.21032937 60
-0.2801702 -0.91926402 -0.17919953 59
-0.27910239 -0.9151876 -0.14548418 65
-0.28492615 -0.93369985 -0.11516666 62
-0.27882284 -0.91312844 -0.080183402 71
-0.27818018 -0.91045481 -0.047728047 72
-0.27866334 -0.9114669 -0.015809406 59
-0.27964416 -0.9141044 0.24571793 62
-0.27929801 -0.91240352 0.21129413 66
-0.27857849 -0.90948588 0.17729303 58
-0.28038743 -0.91482127 0.14532372 58
-0.27895406 -0.90957797 0.11211979 55
-0.28302014 -0.92226195 0.081054844 72
-0.28238007 -0.91960388 0.048410755 70
-0.27846658 -0.90629548 0.015881689 77
-0.28012291 -0.90886033 -0.24458411 61
-0.27976167 -0.90712583 -0.21032937 60
-0.28337735 -0.91828048 -0.17919953 60
-0.28375232 -0.91892636 -0.14626634 65
-0.28818366 -0.93269956 -0.11516666 63
-0.28200856 -0.91214955 -0.080183402 65
-0.28135657 -0.90947819 -0.047728047 68
-0.28184325 -0.91048867 -0.015809406 60
-0.28283331 -0.91312265 0.24571793 60
-0.28248119 -0.91142309 0.21129413 64
-0.28320536 -0.91319597 0.17824621 58
-0.28357902 -0.91383696 0.14532372 62
-0.28212735 -0.90859872 0.11211979 61
-0.28623772 -0.92126846 0.081054844 72
-0.28558835 -0.91861254 0.048410755 70
-0.28311345 -0.91009152 0.01596895 79
-0.28329372 -0.90787697 -0.24458411 60
-0.28292644 -0.90614378 -0.21032937 63
-0.28658101 -0.91728568 -0.17919953 62
-0.28695828 -0.91793031 -0.14626634 67
-0.2914376 -0.93168795 -0.11516666 58
-0.28519082 -0.91115963 -0.080183402 70
-0.28452951 -0.9084906 -0.047728047 67
-0.28501976 -0.90949923 -0.015809406 61
-0.28601897 -0.91212982 0.24571793 65
-0.28566095 -0.91043144 0.21129413 63
-0.28639129 -0.91220182 0.17824621 60
-0.28824732 -0.91755307 0.14610504 63
-0.28529724 -0.90760839 0.11211979 55
-0.28945178 -0.92026365 0.081054844 69
-0.28879318 -0.91761011 0.048410755 71
-0.28628853 -0.90909779 0.01596895 78
-0.28646106 -0.90688258 -0.24458411 58
-0.28608775 -0.90515071 -0.21032937 62
-0.28978121 -0.91627979 -0.17919953 60
-0.29016069 -0.91692305 -0.14626634 65
-0.29468805 -0.93066496 -0.11516666 63
-0.28987408 -0.91490692 -0.080619186 68
-0.28769901 -0.90749186 -0.047728047 68
-0.28819278 -0.90849882 -0.015809406 59
-0.29066235 -0.9157294 0.24701118 63
-0.29031196 -0.91407228 0.21241803 62
-0.28957373 -0.91119659 0.17824621 56
-0.29144838 -0.91654128 0.14610504 58
-0.28846365 -0.90660697 0.11211979 59
-0.29417342 -0.92399395 0.081490621 73
-0.29199448 -0.91659641 0.048410755 68
-0.28946012 -0.90809286 0.01596895 77
-0.28962493 -0.90587711 -0.24458411 61
-0.29073 -0.90878671 -0.21145412 64
-0.29297784 -0.91526264 -0.17919953 62
-0.29335955 -0.91590458 -0.14626634 65
-0.29793489 -0.92963064 -0.11516666 61
-0.29306591 -0.91388953 -0.080619186 67
-0.290865 -0.9064821 -0.047728047 65
-0.29289049 -0.91224724 -0.015895795 59
-0.29385707 -0.91470921 0.24701118 58
-0.2935009 -0.91305333 0.21241803 62
-0.29275265 -0.91018021 0.17824621 59
-0.29464597 -0.91551834 0.14610504 59
-0.29162654 -0.90559453 0.11211979 59
-0.29739696 -0.92296141 0.081490621 69
-0.29519221 -0.91557163 0.048410755 68
-0.2926282 -0.90707695 0.01596895 79
-0.29427209 -0.90945566 -0.2458782 58
-0.29390049 -0.90776634 -0.21145412 60
-0.2976836 -0.91890383 -0.18015271 57
-0.29655489 -0.91487497 -0.14626634 65
-0.30117807 -0.92858499 -0.11516666 64
-0.29625419 -0.91286099 -0.080619186 67
-0.29402742 -0.90546119 -0.047728047 66
-0.29607305 -0.9112193 -0.015895795 61
-0.29704821 -0.91367793 0.24701118 59
-0.29668629 -0.91202325 0.21241803 62
-0.29592797 -0.90915281 0.17824621 59
-0.29783991 -0.91448432 0.14610504 56
-0.29478589 -0.904571 0.11211979 57
-0.30061689 -0.92191768 0.081490621 72
-0.29838637 -0.91453564 0.048410755 68
-0.2957927 -0.90604991 0.01596895 76
-0.29744488 -0.90842295 -0.2458782 62
-0.2970674 -0.90673488 -0.21145412 61
-0.30088937 -0.91785908 -0.18015271 61
-0.30128574 -0.91852671 -0.14704852 63
-0.30441761 -0.92752802 -0.11516666 60
-0.29943889 -0.91182131 -0.080619186 64
-0.29718629 -0.90442938 -0.047728047 68
-0.29925197 -0.91018027 -0.015895795 60
-0.30023575 -0.91263545 0.24701118 62
-0.29986805 -0.91098207 0.21241803 62
-0.29909971 -0.90811425 0.17824621 56
-0.30257601 -0.9181295 0.14688635 58
-0.29794163 -0.90353656 0.11211979 57
-0.30383316 -0.92086267 0.081490621 71
-0.30157685 -0.91348851 0.048410755 73
-0.29895359 -0.90501189 0.01596895 76
-0.30061406 -0.90737909 -0.2458782 62
-0.30023068 -0.9056924 -0.21145412 59
-0.30409145 -0.91680318 -0.18015271 62
-0.30449018 -0.91746938 -0.14704852 67
-0.3076534 -0.92645979 -0.11516666 62
-0.3026199 -0.91077048 -0.080619186 67
-0.30034155 -0.90338647 -0.047728047 65
-0.30242729 -0.9091301 -0.015895795 58
-0.30494493 -0.91616452 0.24830443 60
-0.30458558 -0.91455221 0.21354194 62
-0.30226779 -0.90706468 0.17824621 56
-0.30577904 -0.91706771 0.14688635 60
-0.30266434 -0.90719867 0.11272913 60
-0.3086229 -0.92452127 0.081926398 69
-0.3047637 -0.91243017 0.048410755 65
-0.30211088 -0.90396285 0.01596895 76
-0.30377957 -0.90632421 -0.2458782 63
-0.30493939 -0.90925795 -0.21257888 62
-0.30728984 -0.91573614 -0.18015271 59
-0.30769089 -0.91640097 -0.14704852 69
-0.31246594 -0.93008459 -0.11577601 64
-0.30579725 -0.90970862 -0.080619186 68
-0.30349308 -0.90233254 -0.047728047 68
-0.30559891 -0.9080689 -0.015895795 57
-0.30814108 -0.91509444 0.24830443 64
-0.30777609 -0.91348344 0.21354194 62
-0.3054322 -0.90600401 0.17824621 53
-0.30897832 -0.91599482 0.14688635 60
-0.3058292 -0.90613669 0.11272913 58
-0.31184819 -0.92343831 0.081926398 70
-0.3079468 -0.91136086 0.048410755 63
-0.30526444 -0.90290278 0.01596895 77
-0.30849224 -0.90983218 -0.2471723 63
-0.30811146 -0.90818793 -0.21257888 61
-0.31048447 -0.91465795 -0.18015271 61
-0.31088787 -0.91532135 -0.14704852 66
-0.31571066 -0.92898822 -0.11577601 59
-0.30897087 -0.90863562 -0.080619186 67
-0.30824929 -0.90599477 -0.047988854 68
-0.30876678 -0.90699661 -0.015895795 60
-0.31133348 -0.91401327 0.24830443 61
-0.31096289 -0.91240352 0.21354194 64
-0.31017709 -0.90957791 0.1791994 57
-0.31217387 -0.91491067 0.14688635 61
-0.31059378 -0.90976024 0.11333849 56
-0.31506971 -0.92234415 0.081926398 72
-0.31112617 -0.91028035 0.048410755 69
-0.30841431 -0.90183175 0.01596895 77
-0.31166625 -0.90874976 -0.2471723 63
-0.31127974 -0.90710688 -0.21257888 62
-0.31367534 -0.91356856 -0.18015271 61
-0.31408101 -0.91423053 -0.14704852 64
-0.31895149 -0.92788047 -0.11577601 60
-0.3121407 -0.90755153 -0.080619186 69
-0.31140995 -0.90491331 -0.047988854 71
-0.31193092 -0.90591329 -0.015895795 60
-0.31452209 -0.91292095 0.24830443 63
-0.31414589 -0.91131252 0.21354194 61
-0.31335023 -0.90848964 0.1791994 60
-0.31536561 -0.91381538 0.14688635 64
-0.31376752 -0.90867049 0.11333849 57
-0.31828737 -0.92123872 0.081926398 69
-0.31430176 -0.90918881 0.048410755 67
-0.3131946 -0.90547425 0.016056212 77
-0.31483647 -0.90765637 -0.2471723 62
-0.31444424 -0.9060148 -0.21257888 61
-0.31686237 -0.91246802 -0.18015271 57
-0.31727037 -0.91312867 -0.14704852 66
-0.32218847 -0.92676151 -0.11577601 61
-0.31530675 -0.90645647 -0.080619186 69
-0.31456676 -0.90382069 -0.047988854 65
-0.31509125 -0.90481895 -0.015895795 61
-0.31770685 -0.91181749 0.24830443 63
-0.31732506 -0.91021043 0.21354194 66
-0.3165195 -0.9073903 0.1791994 59
-0.31855351 -0.912709 0.14688635 59
-0.31693748 -0.90756971 0.11333849 55
-0.32150117 -0.92012203 0.081926398 69
-0.3174735 -0.90808612 0.048410755 67
-0.31635338 -0.90437543 0.016056212 78
-0.31800288 -0.90655184 -0.2471723 61
-0.31760493 -0.9049117 -0.21257888 62
-0.32004556 -0.91135645 -0.18015271 63
-0.32045585 -0.91201556 -0.14704852 69
-0.32542151 -0.92563123 -0.11577601 68
-0.32012182 -0.91004914 -0.081054971 66
-0.31937751 -0.90742719 -0.048249666 68
-0.31824774 -0.90371358 -0.015895795 58
-0.32088774 -0.91070294 0.24830443 63
-0.32212025 -0.913692 0.21466585 62
-0.32131776 -0.9109087 0.1801526 56
-0.3217375 -0.91159147 0.14688635 58
-0.32010359 -0.90645784 0.11333849 59
-0.32471102 -0.91899419 0.081926398 69
-0.32230568 -0.9116801 0.048672438 69
-0.31950831 -0.90326566 0.016056212 77
-0.32277995 -0.90998805 -0.24846639 61
-0.32076171 -0.90379751 -0.21257888 61
-0.32322484 -0.91023374 -0.18015271 61
-0.32363743 -0.91089141 -0.14704852 66
-0.32865056 -0.92448962 -0.11577601 63
-0.32329655 -0.90892613 -0.081054971 69
-0.32254305 -0.90630686 -0.048249666 63
-0.32140037 -0.90259719 -0.015895795 63
-0.32406473 -0.90957725 0.24830443 66
-0.32530767 -0.91256201 0.21466585 62
-0.32449546 -0.90978158 0.1801526 58
-0.32491758 -0.91046286 0.14688635 63
-0.32326573 -0.90533495 0.11333849 55
-0.32791692 -0.91785514 0.081926398 71
-0.32548609 -0.91054952 0.048672438 68
-0.32265937 -0.90214485 0.016056212 77
-0.32595444 -0.9088558 -0.24846639 62
-0.32556006 -0.90725785 -0.21370363 63
-0.32640016 -0.90909994 -0.18015271 65
-0.32848468 -0.91440386 -0.14783069 66
-0.33355424 -0.92800701 -0.11638536 62
-0.32815292 -0.91247922 -0.081490748 69
-0.32570472 -0.90517545 -0.048249666 60
-0.32454905 -0.90146977 -0.015895795 58
-0.32723778 -0.90844053 0.24830443 64
-0.32849112 -0.91142094 0.21466585 60
-0.32933426 -0.91326052 0.18110578 53
-0.32809371 -0.90932316 0.14688635 57
-0.32642397 -0.90420109 0.11333849 57
-0.33281097 -0.92138958 0.082362175 76
-0.32866254 -0.90940779 0.048672438 61
-0.32580647 -0.90101314 0.016056212 80
-0.32912496 -0.90771246 -0.24846639 63
-0.32872501 -0.90611595 -0.21370363 61
-0.33124623 -0.91256875 -0.18110591 64
-0.33167455 -0.91325164 -0.14783069 56
-0.33679155 -0.92683703 -0.11638536 68
-0.33133605 -0.91132814 -0.081490748 65
-0.33056936 -0.90872544 -0.048510477 68
-0.32940364 -0.90502918 -0.015982186 65
-0.33205956 -0.91183108 0.24959768 58
-0.3333385 -0.91484642 0.21578975 66
-0.33252013 -0.91210544 0.18110578 60
-0.33295816 -0.91281182 0.14766766 63
-0.32957825 -0.90305614 0.11333849 55
-0.33602521 -0.92022228 0.082362175 75
-0.33183494 -0.90825498 0.048672438 71
-0.32894957 -0.89987034 0.016056212 74
-0.33379453 -0.91115093 -0.24976048 65
-0.33157003 -0.90507877 -0.21370363 58
-0.33411151 -0.91152358 -0.18110591 66
-0.33454195 -0.91220516 -0.14783069 63
-0.33970162 -0.9257744 -0.11638536 61
-0.33419746 -0.91028273 -0.081490748 71
-0.33342257 -0.90768242 -0.048510477 63
-0.33224526 -0.90398985 -0.015982186 54
-0.33492252 -0.91078335 0.24959768 69
-0.33621094 -0.91379464 0.21578975 62
-0.33538395 -0.91105628 0.18110578 58
-0.33582419 -0.91176134 0.14766766 63
-0.33241364 -0.90201628 0.11333849 63
-0.33891448 -0.91916203 0.082362175 75
-0.33641487 -0.91189253 0.048934117 70
-0.33350614 -0.90352243 0.016143475 80
-0.33681419 -0.91003895 -0.24976048 53
-0.33472732 -0.90391582 -0.21370363 64
-0.3372913 -0.91035181 -0.18110591 66
-0.33944064 -0.91566235 -0.14861286 69
-0.34465694 -0.92923594 -0.1169947 69
-0.3373729 -0.90911067 -0.081490748 76
-0.33658892 -0.90651304 -0.048510477 61
-0.3371397 -0.90751094 -0.016068578 58
-0.33809969 -0.90960872 0.24959768 62
-0.33939862 -0.91261554 0.21578975 61
-0.3385621 -0.90988004 0.18110578 57
-0.33900478 -0.9105835 0.14766766 62
-0.33556023 -0.90085042 0.11333849 63
-0.34212092 -0.9179734 0.082362175 66
-0.33959594 -0.91071266 0.048934117 56
-0.336658 -0.90235281 0.016143475 74
-0.34014738 -0.9087984 -0.24976048 64
-0.33974662 -0.90724534 -0.21482839 66
-0.34062561 -0.90910941 -0.18110591 65
-0.34279445 -0.91441214 -0.14861286 69
-0.34806046 -0.92796642 -0.1169947 71
-0.34070268 -0.90786803 -0.081490748 75
-0.33990923 -0.90527326 -0.048510477 70
-0.34222177 -0.91094905 -0.016154967 60
-0.34143129 -0.9083634 0.24959768 63
-0.34274125 -0.91136545 0.21578975 67
-0.34189466 -0.90863299 0.18110578 55
-0.34408 -0.91395682 0.14844896 65
-0.34060913 -0.90425867 0.11394783 63
-0.34548315 -0.9167133 0.082362175 71
-0.34469327 -0.91413391 0.049195796 65
-0.33996305 -0.90111279 0.016143475 77
-0.3433176 -0.90760553 -0.24976048 64
-0.34291142 -0.9060539 -0.21482839 68
-0.34553513 -0.91250515 -0.18205909 62
-0.34598425 -0.91320997 -0.14861286 71
-0.35305658 -0.93138641 -0.11760405 67
-0.34563598 -0.91133046 -0.081926525 69
-0.34306714 -0.90408123 -0.048510477 69
-0.34539947 -0.90974897 -0.016154967 68
-0.34631512 -0.91168112 0.25089094 65
-0.34765133 -0.91471767 0.21691366 63
-0.34506431 -0.90743405 0.18110578 63
-0.34726819 -0.91275018 0.14844896 64
-0.3437635 -0.90306419 0.11394783 61
-0.35045382 -0.9201566 0.082797959 75
-0.34788209 -0.91292512 0.049195796 73
-0.34488741 -0.90459192 0.016230738 79
-0.34648365 -0.90640157 -0.24976048 69
-0.34607208 -0.90485138 -0.21482839 68
-0.34871826 -0.91129345 -0.18205909 70
-0.34916982 -0.91199666 -0.14861286 72
-0.35630557 -0.9301483 -0.11760405 68
-0.34881505 -0.91011846 -0.081926525 69
-0.34800863 -0.90754044 -0.048771285 77
-0.35036373 -0.91320527 -0.016241357 54
-0.34949538 -0.91046667 0.25089094 68
-0.35084215 -0.91349858 0.21691366 65
-0.34822977 -0.90622401 0.18110578 57
-0.35222441 -0.91614205 0.14923027 75
-0.34691367 -0.90185875 0.11394783 60
-0.35366362 -0.91892767 0.082797959 76
-0.35106665 -0.91170526 0.049195796 76
-0.34804291 -0.90338248 0.016230738 82
-0.34964547 -0.90518659 -0.24976048 72
-0.3492285 -0.90363789 -0.21482839 68
-0.35189712 -0.91007066 -0.18205909 68
-0.35235119 -0.91077232 -0.14861286 72
-0.36134166 -0.93352705 -0.11821339 72
-0.35198981 -0.90889531 -0.081926525 78
-0.35117444 -0.9063201 -0.048771285 68
-0.35354927 -0.9119767 -0.016241357 68
-0.35441798 -0.91374415 0.25218418 63
-0.35402873 -0.91226834 0.21691366 66
-0.3531675 -0.90957844 0.18205896 61
-0.3554202 -0.91490698 0.14923027 66
-0.35185751 -0.90526789 0.11455718 55
-0.35686913 -0.91768759 0.082797959 75
-0.35605749 -0.91512758 0.049457476 76
-0.35300773 -0.90682077 0.016317999 82
-0.35455897 -0.90845972 -0.25105458 64
-0.35415274 -0.90695143 -0.21595314 76
-0.35685787 -0.91340852 -0.18301228 70
-0.35732612 -0.91413629 -0.14939503 73
-0.3645981 -0.93226004 -0.11821339 73
-0.35697529 -0.91229951 -0.082362302 69
-0.35433593 -0.90508872 -0.048771285 72
-0.35673052 -0.91073698 -0.016241357 62
-0.35760537 -0.91250145 0.25218418 70
-0.35898945 -0.91556281 0.21803756 73
-0.35634038 -0.90834016 0.18205896 64
-0.35861167 -0.91366071 0.14923027 70
-0.35501534 -0.90403414 0.11455718 66
-0.36189178 -0.92107224 0.083233736 90
-0.35924971 -0.91387916 0.049457476 86
-0.35617098 -0.90558302 0.016317999 80
-0.35772792 -0.90721655 -0.25105458 68
-0.3573164 -0.90570968 -0.21595314 71
-0.36004409 -0.91215724 -0.18301228 75
-0.36051488 -0.91288346 -0.14939503 77
-0.36785007 -0.93098164 -0.11821339 75
-0.36015764 -0.91104794 -0.082362302 86
-0.35749313 -0.90384632 -0.048771285 74
-0.35990742 -0.90948623 -0.016241357 69
-0.3607884 -0.91124761 0.25218418 71
-0.36218318 -0.91430414 0.21803756 74
-0.36131734 -0.9116537 0.18301216 65
-0.36179876 -0.9124034 0.14923027 73
-0.35999897 -0.9074024 0.11516652 72
-0.36510471 -0.91980344 0.083233736 89
-0.36428052 -0.91726011 0.049719159 73
-0.35932988 -0.90433425 0.016317999 86
-0.36267984 -0.91044909 -0.25234866 80
-0.36227947 -0.90898257 -0.2170779 84
-0.36504391 -0.91545415 -0.18396547 75
-0.36369923 -0.91161948 -0.14939503 84
-0.37109753 -0.92969191 -0.11821339 70
-0.36333561 -0.90978521 -0.082362302 89
-0.36249864 -0.90722966 -0.049032092 80
-0.36307994 -0.9082244 -0.016241357 82
-0.36396706 -0.90998274 0.25218418 73
-0.36537248 -0.91303432 0.21803756 72
-0.36449742 -0.91038692 0.18301216 79
-0.36498141 -0.9111349 0.14923027 89
-0.36316422 -0.90614021 0.11516652 67
-0.37016699 -0.92314649 0.083669513 94
-0.36748013 -0.91598296 0.049719159 85
-0.36434662 -0.90771389 0.016405262 94
-0.36585569 -0.90917754 -0.25234866 88
-0.3654502 -0.9077124 -0.2170779 95
-0.36823723 -0.91417432 -0.18396547 89
-0.36687917 -0.91034436 -0.14939503 82
-0.3743405 -0.92839092 -0.11821339 93
-0.36650914 -0.90851134 -0.082362302 98
-0.36566326 -0.90595877 -0.049032092 93
-0.36811996 -0.91158706 -0.016327748 88
-0.36714128 -0.90870667 0.25218418 84
-0.37038326 -0.91627038 0.21916147 72
-0.3695133 -0.91365927 0.18396534 80
-0.36815965 -0.90985537 0.14923027 100
-0.36632502 -0.90486705 0.11516652 81
-0.37338713 -0.92184877 0.083669513 90
-0.37255061 -0.91932225 0.049980838 99
-0.36751291 -0.90643656 0.016405262 97
-0.37084565 -0.91236907 -0.25364277 94
-0.36845827 -0.90649557 -0.2170779 100
-0.37311575 -0.91749489 -0.18491866 92
-0.36989594 -0.90912277 -0.14939503 98
-0.37741712 -0.92714447 -0.11821339 100
-0.36951986 -0.907291 -0.082362302 102
-0.36866552 -0.90474123 -0.049032092 101
-0.37114087 -0.91036129 -0.016327748 103
-0.37015262 -0.90748417 0.25218418 97
-0.37341967 -0.9150371 0.21916147 89
-0.3725411 -0.91242892 0.18396534 96
-0.3730424 -0.91320133 0.15001158 104
-0.36932364 -0.9036473 0.11516652 96
-0.37832725 -0.92521584 0.08410529 108
-0.37559712 -0.91808176 0.049980838 94
-0.37051675 -0.90521282 0.016405262 99
-0.37386915 -0.91113424 -0.25364277 102
-0.37162027 -0.90520382 -0.2170779 106
-0.3763161 -0.91618687 -0.18491866 103
-0.37306714 -0.90782601 -0.14939503 103
-0.38065112 -0.92582136 -0.11821339 108
-0.37268466 -0.90599555 -0.082362302 110
-0.3718214 -0.90344882 -0.049032092 105
-0.37431636 -0.90906024 -0.016327748 112
-0.37515783 -0.91065228 0.25347742 103
-0.37661147 -0.91372806 0.21916147 100
-0.37759501 -0.91566062 0.18491852 98
-0.37622783 -0.91189361 0.15001158 113
-0.37436926 -0.90693986 0.11577588 104
-0.38155454 -0.92388964 0.08410529 112
-0.37879953 -0.91676509 0.049980838 108
-0.37367427 -0.90391397 0.016405262 110
-0.3770473 -0.90982366 -0.25364277 113
-0.37462002 -0.90396655 -0.2170779 114
-0.37935221 -0.91493398 -0.18491866 115
-0.37607554 -0.90658391 -0.14939503 115
-0.38371918 -0.92455405 -0.11821339 113
-0.37568697 -0.9047547 -0.082362302 120
-0.37481529 -0.90221089 -0.049032092 115
-0.37732884 -0.90781397 -0.016327748 114
-0.37817559 -0.9094032 0.25347742 111
-0.37776789 -0.90797585 0.21803756 109
-0.38062936 -0.91440344 0.18491852 112
-0.37924969 -0.91064095 0.15001158 121
-0.37737471 -0.90569341 0.11577588 105
-0.3846162 -0.92261928 0.08410529 120
-0.38183755 -0.91550392 0.049980838 118
-0.3766697 -0.90266985 0.016405262 116
-0.37819856 -0.90411282 -0.25234866 120
-0.37777317 -0.9026534 -0.2170779 127
-0.38254362 -0.91360414 -0.18491866 121
-0.37923783 -0.90526563 -0.14939503 118
-0.38694414 -0.92320895 -0.11821339 122
-0.37691668 -0.89884442 -0.081926525 124
-0.37603062 -0.89629269 -0.048771285 123
-0.38049543 -0.90649134 -0.016327748 123
-0.38134772 -0.9080776 0.25347742 117
-0.38093501 -0.90665168 0.21803756 119
-0.38381889 -0.91306925 0.18491852 121
-0.38434067 -0.91386396 0.1507929 129
-0.3805339 -0.90437061 0.11577588 115
-0.3878344 -0.92127103 0.08410529 131
-0.38309279 -0.90956384 0.049719159 124
-0.37981832 -0.90134954 0.016405262 122
-0.38150975 -0.90272057 -0.25234866 129
-0.37918171 -0.89677548 -0.21595314 129
-0.38397726 -0.90767545 -0.18396547 127
-0.38062841 -0.89932168 -0.14861286 125
-0.39032528 -0.92178452 -0.11821339 129
-0.38020858 -0.89745688 -0.081926525 125
-0.37931317 -0.89490843 -0.048771285 128
-0.38186353 -0.90048808 -0.016241357 126
-0.38467342 -0.90667379 0.25347742 123
-0.38425553 -0.90524936 0.21803756 125
-0.38524425 -0.90713853 0.18396534 128
-0.38575634 -0.90790385 0.15001158 127
-0.38384601 -0.90296984 0.11577588 118
-0.38925901 -0.91525978 0.083669513 133
-0.38642395 -0.90815365 0.049719159 128
-0.38116121 -0.89535165 0.016317999 115
-0.38276288 -0.8969413 -0.25105458 121
-0.38039675 -0.89096588 -0.21482839 120
-0.38521522 -0.90181583 -0.18301228 130
-0.38376531 -0.89798754 -0.14861286 125
-0.39158949 -0.91585326 -0.11760405 122
-0.38137996 -0.8915447 -0.081490748 105
-0.38047007 -0.88898849 -0.048510477 123
-0.38500452 -0.89914966 -0.016241357 104
-0.38593405 -0.90088594 0.25218418 118
-0.38549379 -0.89942449 0.21691366 118
-0.38840842 -0.90578824 0.18396534 115
-0.38892317 -0.90655172 0.15001158 105
-0.38699561 -0.9016245 0.11577588 118
-0.39245149 -0.91389549 0.083669513 118
-0.38762063 -0.90221155 0.049457476 113
-0.38231003 -0.88942277 0.016230738 88
-0.38398033 -0.8911643 -0.24976048 100
-0.38350448 -0.88963258 -0.21482839 100
-0.386417 -0.89595872 -0.18205909 112
-0.38494098 -0.8921082 -0.14783069 109
-0.394784 -0.91448081 -0.11760405 100
-0.38251474 -0.88563532 -0.081054971 77
-0.38159022 -0.88307136 -0.048249666 102
-0.3841731 -0.8886227 -0.016068578 79
-0.38715899 -0.8951003 0.25089094 93
-0.38863102 -0.89807338 0.21691366 90
-0.38961774 -0.89992261 0.18301216 88
-0.38815939 -0.8961252 0.14844896 75
-0.38619387 -0.89116102 0.11455718 98
-0.3936578 -0.90794998 0.083233736 97
-0.38679355 -0.89169151 0.048934117 92
-0.38143185 -0.87891078 0.016056212 55
-0.38708875 -0.88981855 -0.24976048 67
-0.38466334 -0.88382143 -0.21370363 65
-0.38562307 -0.88560408 -0.18015271 89
-0.38608029 -0.88623154 -0.14704852 78
-0.39599088 -0.90854776 -0.1169947 69
-0.38162193 -0.87516308 -0.080183402 46
-0.38267377 -0.87715733 -0.047988854 70
-0.38527277 -0.88269436 -0.015982186 52
-0.38834825 -0.88931721 0.24959768 55
-0.38981301 -0.89224684 0.21578975 57
-0.39079085 -0.89405972 0.18205896 55
-0.38930634 -0.89023995 0.14766766 42
-0.38731307 -0.88526094 0.11394783 62
-0.39482743 -0.9020074 0.082797959 66
-0.3879008 -0.8857621 0.048672438 56
-0.38048506 -0.86841601 0.015881689 32
-0.38825041 -0.88404 -0.24846639 35
-0.38578632 -0.87801307 -0.21257888 38
-0.38673678 -0.87975925 -0.17919953 45
-0.38718331 -0.88035798 -0.14626634 41
-0.39716116 -0.90261751 -0.11638536 41
-0.38266763 -0.86926687 -0.079747625 33
-0.38170812 -0.86667699 -0.047467239 39
-0.38633576 -0.87676936 -0.015895795 33
-0.38755357 -0.87911725 0.24701118 32
-0.39095905 -0.88642287 0.21466585 35
-0.38994634 -0.88370901 0.1801526 34
-0.38842249 -0.87983984 0.14610504 31
-0.38639069 -0.87482417 0.11272913 35
-0.39596039 -0.89606768 0.082362175 33
-0.3889713 -0.87983584 0.048410755 32
-0.38149187 -0.86251056 0.015794426 56
-0.39133391 -0.8826794 -0.24846639 30
-0.38687348 -0.87220764 -0.21145412 29
-0.38781449 -0.87391758 -0.17824633 26
-0.38825008 -0.87448746 -0.14548418 30
-0.39829493 -0.89669025 -0.11577601 31
-0.38367683 -0.86337405 -0.079311848 31
-0.38270253 -0.86077672 -0.047206428 31
-0.38533035 -0.86627996 -0.015723016 33
-0.38865623 -0.87334651 0.24571793 26
-0.39206922 -0.880602 0.21354194 32
-0.39103153 -0.87785888 0.1791994 28
-0.38747075 -0.86945677 0.14454241 31
-0.38742113 -0.86893749 0.11211979 30
-0.39705676 -0.89013118 0.081926398 34
-0.39000529 -0.87391305 0.048149075 34
-0.38042393 -0.85204381 0.015619903 56
-0.39243981 -0.87689966 -0.2471723 30
-0.38792482 -0.86640537 -0.21032937 31
-0.38885611 -0.86807907 -0.17729315 27
-0.38928056 -0.86862028 -0.14470199 31
-0.39939213 -0.89076608 -0.11516666 32
-0.38668823 -0.86202949 -0.079311848 45
-0.38366041 -0.85488009 -0.04694562 32
-0.38835189 -0.86492956 -0.015723016 36
-0.3897233 -0.86757874 0.24442467 28
-0.39314353 -0.87478417 0.21241803 32
-0.39208063 -0.87201202 0.17824621 28
-0.39050338 -0.86809891 0.14454241 38
-0.38841522 -0.86305428 0.11151044 29
-0.39811647 -0.88419795 0.081490621 35
-0.39100263 -0.86799377 0.047887396 37
-0.38339582 -0.85071075 0.015619903 62
-0.39351016 -0.87112314 -0.2458782 36
-0.39094675 -0.86504596 -0.21032937 38
-0.39188391 -0.86671644 -0.17729315 34
-0.39027485 -0.86275661 -0.14391983 37
-0.40045285 -0.88484526 -0.11455731 45
-0.38764045 -0.85613698 -0.078876071 54
-0.38664216 -0.85353571 -0.04694562 36
-0.38930508 -0.85901529 -0.015636625 48
-0.39075491 -0.86181426 0.24313143 35
-0.39418203 -0.86896962 0.21129413 40
-0.39309371 -0.8661685 0.17729303 35
-0.39148951 -0.86223382 0.1437611 48
-0.389373 -0.85717487 0.11090109 40
-0.39913964 -0.87826824 0.081054844 51
-0.39196345 -0.86207831 0.047625717 50
-0.38429305 -0.84481674 0.015532641 70
-0.39654857 -0.86974418 -0.2458782 55
-0.39194208 -0.85924357 -0.20920461 55
-0.39490691 -0.86534321 -0.17729315 50
-0.391233 -0.8568967 -0.14313765 55
-0.40147719 -0.87892801 -0.11394797 59
-0.39269689 -0.85930896 -0.079311848 66
-0.38961923 -0.8521809 -0.04694562 49
-0.39230123 -0.85765111 -0.015636625 54
-0.3937608 -0.86044502 0.24313143 43
-0.39721289 -0.86758834 0.21129413 51
-0.39407077 -0.86032856 0.17633983 42
-0.39655426 -0.86535156 0.14454241 58
-0.39236274 -0.85581046 0.11090109 64
-0.40220293 -0.87686956 0.081054844 61
-0.3949703 -0.86070478 0.047625717 62
-0.38723966 -0.84347016 0.015532641 76
-0.39756319 -0.86396724 -0.24458411 52
-0.39290166 -0.85344476 -0.20807984 54
-0.39792514 -0.86395949 -0.17729315 59
-0.39422175 -0.85552585 -0.14313765 66
-0.40454277 -0.87752122 -0.11394797 52
-0.39569405 -0.85793293 -0.079311848 71
-0.39259151 -0.85081565 -0.04694562 58
-0.39529261 -0.85627657 -0.015636625 54
-0.39676192 -0.85906529 0.24313143 53
-0.39819536 -0.86177379 0.21017022 58
-0.39707145 -0.85894775 0.17633983 50
-0.39957249 -0.86396205 0.14454241 56
-0.39743167 -0.85893959 0.11151044 50
-0.40316889 -0.87094015 0.08061906 74
-0.39797232 -0.85932088 0.047625717 69
-0.39018157 -0.84211326 0.015532641 76
-0.39854237 -0.85819393 -0.24329001 58
-0.39587834 -0.85206807 -0.20807984 57
-0.40093848 -0.86256522 -0.17729315 66
-0.39720568 -0.85414451 -0.14313765 57
-0.40760344 -0.87610376 -0.11394797 60
-0.39868635 -0.85654646 -0.079311848 61
-0.39555901 -0.84944004 -0.04694562 60
-0.40039033 -0.85942304 -0.015723016 59
-0.39975819 -0.85767508 0.24313143 55
-0.40120107 -0.86037862 0.21017022 59
-0.40006733 -0.85755646 0.17633983 50
-0.40258586 -0.862562 0.14454241 65
-0.40042749 -0.85754704 0.11151044 52
-0.40620658 -0.86952746 0.08061906 58
-0.40308359 -0.86244994 0.047887396 69
-0.39523622 -0.84527475 0.015619903 76
-0.40153557 -0.85679746 -0.24329001 59
-0.3988502 -0.85068101 -0.20807984 60
-0.40394694 -0.8611604 -0.17729315 55
-0.40228277 -0.85722345 -0.14391983 59
-0.41065913 -0.87467557 -0.11394797 59
-0.40167382 -0.85514963 -0.079311848 60
-0.40064535 -0.85257322 -0.047206428 58
-0.40338784 -0.85802019 -0.015723016 58
-0.4027496 -0.85627449 0.24313143 56
-0.40420192 -0.85897291 0.21017022 59
-0.40305832 -0.85615474 0.17633983 48
-0.40769863 -0.86561936 0.14532372 57
-0.40341845 -0.85614413 0.11151044 55
-0.40923929 -0.86810422 0.08061906 59
-0.40609166 -0.86103767 0.047887396 68
-0.39818439 -0.84388995 0.015619903 74
-0.40452391 -0.85539067 -0.24329001 57
-0.4018172 -0.84928358 -0.20807984 63
-0.4069505 -0.85974509 -0.17729315 55
-0.4052726 -0.85581398 -0.14391983 61
-0.41370982 -0.87323684 -0.11394797 58
-0.40465644 -0.8537423 -0.079311848 62
-0.40361893 -0.85116953 -0.047206428 59
-0.40638044 -0.8566069 -0.015723016 57
-0.40780702 -0.85922664 0.24442467 54
-0.40719783 -0.85755676 0.21017022 61
-0.40604439 -0.85474259 0.17633983 52
-0.41071773 -0.864191 0.14532372 54
-0.40853551 -0.85921258 0.11211979 53
-0.41440675 -0.87116849 0.081054844 62
-0.40909478 -0.85961485 0.047887396 69
-0.40112767 -0.8424949 0.015619903 75
-0.40750733 -0.85397339 -0.24329001 62
-0.40477931 -0.84787577 -0.20807984 63
-0.40994909 -0.8583194 -0.17729315 57
-0.40825748 -0.85439408 -0.14391983 58
-0.41675547 -0.87178737 -0.11394797 58
-0.40763408 -0.8523246 -0.079311848 61
-0.40874276 -0.85425961 -0.047467239 62
-0.40936807 -0.85518312 -0.015723016 59
-0.41080379 -0.85779792 0.24442467 58
-0.41018879 -0.85613012 0.21017022 61
-0.41114715 -0.85774618 0.17729303 51
-0.41373184 -0.86275202 0.14532372 54
-0.41153225 -0.85778129 0.11211979 57
-0.41744515 -0.86971664 0.081054844 59
-0.41425428 -0.86268276 0.048149075 73
-0.40406609 -0.84108961 0.015619903 75
-0.41048577 -0.85254568 -0.24329001 60
-0.40773648 -0.84645772 -0.20807984 63
-0.41294268 -0.85688317 -0.17729315 54
-0.41338208 -0.85741228 -0.14470199 59
-0.41979599 -0.87032729 -0.11394797 60
-0.41060674 -0.85089648 -0.079311848 62
-0.41172218 -0.85282761 -0.047467239 63
-0.414525 -0.85825068 -0.015809406 58
-0.41379556 -0.85635877 0.24442467 55
-0.41317475 -0.85469311 0.21017022 62
-0.41413873 -0.85630578 0.17729303 53
-0.41674086 -0.86130255 0.14532372 57
-0.41452396 -0.85633951 0.11211979 56
-0.42047849 -0.86825418 0.081054844 61
-0.41726309 -0.86123145 0.048149075 68
-0.4091801 -0.84417266 0.015707165 74
-0.41345921 -0.85110766 -0.24329001 59
-0.41281828 -0.84941113 -0.20920461 61
-0.41593125 -0.8554365 -0.17729315 53
-0.41637251 -0.85596412 -0.14470199 59
-0.42283148 -0.86885667 -0.11394797 57
-0.41575482 -0.85393637 -0.079747625 63
-0.41688308 -0.85587418 -0.047728047 61
-0.41751832 -0.85679847 -0.015809406 63
-0.41678232 -0.85490912 0.24442467 59
-0.41829139 -0.85762459 0.21129413 62
-0.41712528 -0.85485494 0.17729303 49
-0.41974485 -0.85984266 0.14532372 54
-0.41968846 -0.85934669 0.11272913 57
-0.42569336 -0.87125653 0.081490621 61
-0.42245957 -0.86425555 0.048410755 68
-0.41212434 -0.84273922 0.015707165 76
-0.41855314 -0.85399598 -0.24458411 59
-0.41578075 -0.84796494 -0.20920461 60
-0.42107642 -0.8583861 -0.17824633 56
-0.42153358 -0.85893881 -0.14548418 62
-0.42804894 -0.87183011 -0.11455731 57
-0.41873309 -0.85247993 -0.079747625 63
-0.41986811 -0.85441381 -0.047728047 61
-0.42050657 -0.85533589 -0.015809406 58
-0.42189562 -0.85778308 0.24571793 56
-0.42128253 -0.85615927 0.21129413 64
-0.42227456 -0.85779738 0.17824621 49
-0.42274368 -0.85837221 0.14532372 57
-0.42268559 -0.85787642 0.11272913 59
-0.42873201 -0.86976528 0.081490621 56
-0.42547381 -0.86277562 0.048410755 68
-0.41727543 -0.84577882 0.015794426 75
-0.42153159 -0.85252976 -0.24458411 55
-0.41873819 -0.84650838 -0.20920461 58
-0.42407018 -0.85691106 -0.17824633 54
-0.42452925 -0.85746223 -0.14548418 58
-0.43108958 -0.87033063 -0.11455731 58
-0.42170623 -0.85101306 -0.079747625 61
-0.42284802 -0.852943 -0.047728047 61
-0.42348966 -0.85386276 -0.015809406 57
-0.42488727 -0.85630518 0.24571793 54
-0.42643484 -0.85904747 0.21241803 58
-0.42526627 -0.85631818 0.17824621 52
-0.4279348 -0.86131406 0.14610504 55
-0.42567754 -0.85639578 0.11272913 58
-0.43398327 -0.87272334 0.081926398 59
-0.42848289 -0.86128521 0.048410755 72
-0.4202252 -0.84431708 0.015794426 76
-0.42450491 -0.85105318 -0.24458411 55
-0.42169049 -0.84504151 -0.20920461 61
-0.42705879 -0.85542554 -0.17824633 56
-0.42972636 -0.86039311 -0.14626634 59
-0.43412498 -0.86882055 -0.11455731 59
-0.42467427 -0.84953588 -0.079747625 62
-0.42582276 -0.85146171 -0.047728047 60
-0.42870453 -0.85685015 -0.015895795 60
-0.43003559 -0.85913581 0.24701118 50
-0.42943087 -0.85755366 0.21241803 60
-0.42825279 -0.85482848 0.17824621 51
-0.43093872 -0.85981506 0.14610504 54
-0.42866436 -0.85490471 0.11272913 57
-0.43702701 -0.87120318 0.081926398 56
-0.4314867 -0.85978431 0.048410755 69
-0.42316985 -0.84284508 0.015794426 75
-0.42964384 -0.85388047 -0.2458782 55
-0.42682821 -0.84791607 -0.21032937 63
-0.43004215 -0.85392958 -0.17824633 55
-0.43272707 -0.85888785 -0.14626634 59
-0.43715507 -0.86729991 -0.11455731 56
-0.42987981 -0.85249579 -0.080183402 65
-0.42879233 -0.84997016 -0.047728047 59
-0.43169287 -0.85534853 -0.015895795 58
-0.43303192 -0.85762942 0.24701118 50
-0.43461832 -0.86039817 0.21354194 57
-0.43344787 -0.85770905 0.1791994 54
-0.43616566 -0.86271292 0.14688635 54
-0.43388584 -0.85783172 0.11333849 57
-0.44006541 -0.86967236 0.081926398 59
-0.43448529 -0.85827285 0.048410755 66
-0.42836806 -0.84582269 0.015881689 75
-0.43262184 -0.85237551 -0.2458782 57
-0.4297854 -0.846421 -0.21032937 62
-0.43302029 -0.85242331 -0.17824633 51
-0.43572253 -0.85737211 -0.14626634 59
-0.44242904 -0.87019241 -0.11516666 59
-0.43285295 -0.85099 -0.080183402 61
-0.4340212 -0.85291839 -0.047988854 61
-0.43467596 -0.85383642 -0.015895795 56
-0.43602297 -0.85611266 0.24701118 55
-0.43761906 -0.85887581 0.21354194 60
-0.43643919 -0.8561908 0.1791994 54
-0.43917441 -0.86118519 0.14688635 53
-0.43687758 -0.85631192 0.11333849 58
-0.44536284 -0.87256742 0.082362175 57
-0.43974933 -0.86119807 0.048672438 68
-0.43131793 -0.84432226 0.015881689 75
-0.43559453 -0.85086024 -0.2458782 54
-0.43495819 -0.84925181 -0.21145412 59
-0.43823141 -0.8552748 -0.17919953 59
-0.43871266 -0.85584593 -0.14626634 57
-0.44546387 -0.86864281 -0.11516666 61
-0.43582082 -0.84947389 -0.080183402 63
-0.4369958 -0.85139817 -0.047988854 61
-0.43993738 -0.85676116 -0.015982186 58
-0.44121563 -0.85888153 0.24830443 53
-0.44284141 -0.86167628 0.21466585 59
-0.44166952 -0.85902727 0.1801526 49
-0.44443676 -0.86403853 0.14766766 53
-0.43986401 -0.85478175 0.11333849 60
-0.44840595 -0.87100744 0.082362175 58
-0.44275281 -0.85965782 0.048672438 69
-0.43426254 -0.84281152 0.015881689 76
-0.44077778 -0.85362577 -0.2471723 57
-0.43791997 -0.84772837 -0.21145412 60
-0.4412142 -0.85373992 -0.17919953 54
-0.44169745 -0.85430932 -0.14626634 59
-0.4507733 -0.87149054 -0.11577601 56
-0.44107255 -0.85237122 -0.080619186 59
-0.43996507 -0.84986758 -0.047988854 58
-0.44292533 -0.85522026 -0.015982186 59
-0.44421101 -0.85733622 0.24830443 55
-0.44584653 -0.86012524 0.21466585 60
-0.4446654 -0.85748029 0.1801526 47
-0.44745013 -0.86248189 0.14766766 56
-0.44513124 -0.85764593 0.11394783 59
-0.45373896 -0.87385756 0.082797959 60
-0.44805259 -0.86253804 0.048934117 67
-0.43950716 -0.84572649 0.01596895 73
-0.44375476 -0.85208195 -0.2471723 55
-0.44087642 -0.84619457 -0.21145412 62
-0.44419163 -0.85219449 -0.17919953 54
-0.44467685 -0.85276234 -0.14626634 58
-0.4538126 -0.86991173 -0.11577601 59
-0.44404516 -0.85082638 -0.080619186 59
-0.44292897 -0.84832662 -0.047988854 60
-0.44822252 -0.85810018 -0.016068578 56
-0.44720098 -0.85578042 0.24830443 55
-0.44884619 -0.85856366 0.21466585 60
-0.44993061 -0.86027223 0.18110578 49
-0.45045802 -0.86091477 0.14766766 54
-0.44812229 -0.85608685 0.11394783 53
-0.45678651 -0.87226838 0.082797959 57
-0.45106068 -0.86096883 0.048934117 68
-0.4424566 -0.84418714 0.01596895 76
-0.44897217 -0.85480356 -0.24846639 54
-0.44382751 -0.84465045 -0.21145412 63
-0.44944751 -0.85498345 -0.18015271 53
-0.44994947 -0.85557574 -0.14704852 62
-0.45915711 -0.87271422 -0.11638536 57
-0.44933245 -0.85367894 -0.081054971 63
-0.44588751 -0.84677535 -0.047988854 61
-0.45121515 -0.85653031 -0.016068578 56
-0.45243731 -0.85848701 0.24959768 53
-0.45411268 -0.86130142 0.21578975 64
-0.45293078 -0.85869646 0.18110578 51
-0.45346043 -0.85933709 0.14766766 54
-0.45110786 -0.8545174 0.11394783 58
-0.4598285 -0.87066853 0.082797959 60
-0.45639586 -0.8638038 0.049195796 65
-0.44540066 -0.84263754 0.01596895 76
-0.45195326 -0.85323113 -0.24846639 57
-0.4467732 -0.84309602 -0.21145412 61
-0.45242923 -0.85340935 -0.18015271 54
-0.45293328 -0.85399991 -0.14704852 58
-0.46220067 -0.87110615 -0.11638536 58
-0.45230958 -0.85210526 -0.081054971 63
-0.45118245 -0.84962374 -0.048249666 62
-0.45420223 -0.85495007 -0.016068578 57
-0.45543122 -0.85690242 0.24959768 55
-0.45711643 -0.85971105 0.21578975 57
-0.45592543 -0.8571102 0.18110578 48
-0.45877737 -0.86210877 0.14844896 54
-0.45642006 -0.85731816 0.11455718 59
-0.46286491 -0.86905813 0.082797959 62
-0.45940834 -0.86220551 0.049195796 65
-0.45069093 -0.84548932 0.016056212 77
-0.45492885 -0.85164833 -0.24846639 57
-0.44971344 -0.8415314 -0.21145412 62
-0.45771953 -0.85615343 -0.18110591 52
-0.45824063 -0.85676843 -0.14783069 59
-0.4675799 -0.87386322 -0.1169947 54
-0.45763192 -0.85491264 -0.081490748 59
-0.4541454 -0.84804362 -0.048249666 58
-0.45718381 -0.8533594 -0.016068578 56
-0.45841962 -0.85530746 0.24959768 57
-0.4601146 -0.85811019 0.21578975 60
-0.45891452 -0.85551351 0.18110578 50
-0.46178392 -0.860502 0.14844896 54
-0.45940986 -0.85571975 0.11455718 54
-0.46825248 -0.87182528 0.083233736 58
-0.46241516 -0.8605966 0.049195796 65
-0.45363948 -0.84391093 0.016056212 74
-0.46018925 -0.85430712 -0.24976048 51
-0.45495936 -0.8442452 -0.21257888 62
-0.46070528 -0.85455042 -0.18110591 56
-0.46122852 -0.85516363 -0.14783069 57
-0.4706274 -0.8722257 -0.1169947 60
-0.46061337 -0.85330999 -0.081490748 59
-0.45947549 -0.85084677 -0.048510477 63
-0.46253604 -0.85615677 -0.016154967 64
-0.46140239 -0.85370207 0.24959768 53
-0.46542442 -0.86078447 0.21691366 60
-0.46423331 -0.85822362 0.18205896 52
-0.46713522 -0.8632282 0.14923027 54
-0.46475676 -0.85847509 0.11516652 57
-0.47129288 -0.87018543 0.083233736 59
-0.4654164 -0.8589772 0.049195796 67
-0.45896488 -0.84671742 0.016143475 74
-0.46316856 -0.85269547 -0.24976048 57
-0.45790356 -0.84265196 -0.21257888 58
-0.46368542 -0.85293704 -0.18110591 53
-0.46657026 -0.85788673 -0.14861286 59
-0.47366917 -0.87057757 -0.1169947 59
-0.46358916 -0.85169697 -0.081490748 58
-0.4624427 -0.84923768 -0.048510477 60
-0.46552175 -0.85453701 -0.016154967 56
-0.46669084 -0.85632718 0.25089094 54
-0.46842626 -0.85915464 0.21691366 58
-0.46722624 -0.85659784 0.18205896 52
-0.47014561 -0.86159235 0.14923027 53
-0.46775058 -0.85684752 0.11516652 57
-0.47671491 -0.87290657 0.083669513 58
-0.46841195 -0.85734737 0.049195796 67
-0.4619177 -0.84511018 0.016143475 74
-0.46614221 -0.85107356 -0.24976048 55
-0.46318322 -0.84532094 -0.21370363 60
-0.46901923 -0.85561734 -0.18205909 50
-0.46956196 -0.85625291 -0.14861286 56
-0.47670519 -0.8689189 -0.1169947 57
-0.46895587 -0.85444009 -0.081926525 59
-0.46780747 -0.85199517 -0.048771285 58
-0.47090867 -0.85728848 -0.016241357 58
-0.46967712 -0.85469294 0.25089094 54
-0.47142243 -0.85751432 0.21691366 61
-0.47021347 -0.85496175 0.18205896 55
-0.47553092 -0.86427295 0.15001158 53
-0.47073868 -0.85520959 0.11516652 56
-0.47975904 -0.87123728 0.083669513 59
-0.47381109 -0.86008054 0.049457476 67
-0.46727785 -0.84787101 0.016230738 75
-0.46911016 -0.84944123 -0.24976048 58
-0.46613115 -0.84369898 -0.21370363 60
-0.47200301 -0.85397494 -0.18205909 52
-0.47254801 -0.85460865 -0.14861286 58
-0.47973534 -0.86724961 -0.1169947 57
-0.47193557 -0.85279793 -0.081926525 61
-0.47077867 -0.850357 -0.048771285 57
-0.47632048 -0.86001277 -0.016327748 55
-0.47499853 -0.85727298 0.25218418 58
-0.47677484 -0.86012465 0.21803756 62
-0.4755753 -0.8576076 0.18301216 49
-0.47854492 -0.86260772 0.15001158 56
-0.47372106 -0.85356116 0.11516652 56
-0.48279729 -0.86955726 0.083669513 58
-0.47681043 -0.85842133 0.049457476 65
-0.47023466 -0.84623468 0.016230738 75
-0.47442198 -0.85201812 -0.25105458 53
-0.47144419 -0.84632283 -0.21482839 59
-0.47498107 -0.85232216 -0.18205909 50
-0.47552827 -0.85295391 -0.14861286 60
-0.48517704 -0.86990392 -0.11760405 58
-0.47490951 -0.85114533 -0.081926525 57
-0.47374409 -0.84870851 -0.048771285 61
-0.47931957 -0.85834491 -0.016327748 55
-0.47798806 -0.85560966 0.25218418 56
-0.47977433 -0.85845518 0.21803756 61
-0.47856599 -0.85594231 0.18301216 49
-0.48155308 -0.86093205 0.15001158 52
-0.47912106 -0.85623324 0.11577588 57
-0.48826271 -0.87221295 0.08410529 58
-0.48224375 -0.86110824 0.049719159 64
-0.47318569 -0.8445881 0.016230738 75
-0.47739318 -0.85035694 -0.25105458 54
-0.47439554 -0.84467196 -0.21482839 59
-0.47795334 -0.85065901 -0.18205909 50
-0.48092249 -0.85559374 -0.14939503 57
-0.48821062 -0.86820501 -0.11760405 57
-0.47787768 -0.84948242 -0.081926525 59
-0.47670376 -0.84704965 -0.048771285 60
-0.48476544 -0.86102283 -0.016414138 58
-0.48334205 -0.85814422 0.25347742 55
-0.4851597 -0.86101985 0.21916147 61
-0.4815509 -0.85426658 0.18301216 47
-0.48698121 -0.86354756 0.1507929 53
-0.48210692 -0.85455555 0.11577588 54
-0.49130434 -0.87050325 0.08410529 56
-0.48524663 -0.85941964 0.049719159 64
-0.47858968 -0.84728408 0.016317999 74
