# .PCD v0.7 - Point Cloud Data file format
VERSION 0.7
FIELDS x y z intensity
SIZE 4 4 4 4
TYPE F F F F
COUNT 1 1 1 1
WIDTH 1374
HEIGHT 1
VIEWPOINT 0 0 0 1 0 0 0
POINTS 1374
DATA ascii
-2.3805492 2.5725596 -0.30330247 13
-2.3790944 2.5718875 -0.18100145 14
-2.3577421 2.5496976 -0.059350066 8
-2.3864908 2.5816908 0.93114161 12
-2.3802047 2.5757923 0.80022031 10
-2.3706272 2.5663261 0.67104459 12
-2.367887 2.5642576 0.5461359 10
-2.3553276 2.5515499 0.42166793 7
-2.3803329 2.5795417 0.30373776 14
-2.3720937 2.5715132 0.18134408 12
-2.3575616 2.5566545 0.060036272 12
-1.3440864 1.4601475 -0.52152056 3
-1.5433899 1.6772482 -0.51738775 3
-1.836899 1.9969128 -0.51948798 3
-2.2487941 2.445545 -0.520145 4
-2.3902807 2.6003213 -0.42898059 13
-2.3580739 2.5661829 -0.30155933 13
-2.3565907 2.5654674 -0.17995821 14
-2.3353021 2.5431828 -0.059004504 8
-2.3644001 2.5757732 0.92596859 13
-2.3580232 2.5697262 0.79572469 10
-2.3483832 2.5601175 0.6672318 13
-2.3455706 2.5579476 0.54301065 10
-2.332993 2.5451229 0.41923052 7
-2.3612189 2.5768178 0.30243042 13
-2.3496125 2.5650501 0.18029736 12
-2.3351178 2.5501204 0.059687223 12
-1.3389813 1.4648304 -0.52152056 3
-1.5375259 1.6826254 -0.51738775 3
-1.8299173 2.0033126 -0.51948798 3
-2.2369142 2.4497333 -0.51936287 4
-2.3711522 2.5976529 -0.42715251 13
-2.3390298 2.5633602 -0.30025199 13
-2.3375261 2.5626106 -0.17917578 14
-2.3163054 2.5402369 -0.058745332 8
-2.3456335 2.5733023 0.9220888 13
-2.3391943 2.5671377 0.79235297 10
-2.3295164 2.5574136 0.66437227 13
-2.3266525 2.5551648 0.54066676 10
-2.3140728 2.5422411 0.41740248 7
-2.3421528 2.573992 0.30112308 14
-2.330565 2.5621552 0.17951232 12
-2.3161125 2.5471597 0.05942544 12
-1.3336035 1.4697281 -0.52152056 4
-1.5280751 1.6846408 -0.51626295 3
-1.8225626 2.0100062 -0.51948798 3
-2.2279205 2.4579153 -0.51936287 4
-2.3516185 2.5952935 -0.4253245 13
-2.319587 2.5608411 -0.29894465 14
-2.3180637 2.5600569 -0.17839335 14
-2.2935598 2.5338838 -0.058399774 8
-2.3264647 2.5711381 0.91820908 13
-2.3166966 2.5612414 0.78785735 10
-2.3102517 2.5550122 0.66151267 14
-2.3040254 2.5490205 0.53754151 11
-2.2947581 2.5396585 0.41557443 7
-2.3193481 2.5677738 0.29937997 14
-2.3111198 2.559562 0.17872728 12
-2.2967122 2.5444984 0.059163652 12
-1.328465 1.4743744 -0.52152056 5
-1.5221853 1.6899645 -0.51626295 3
-1.8155352 2.0163558 -0.51948798 3
-2.2160234 2.4620066 -0.51858068 4
-2.3292673 2.5887296 -0.42288712 13
-2.3006411 2.5578125 -0.29763731 14
-2.2990978 2.556994 -0.17761093 14
-2.2746754 2.5307202 -0.058140606 8
-2.3045633 2.5648725 0.91303611 12
-2.2979753 2.5584385 0.78448564 11
-2.2914813 2.5521045 0.65865314 13
-2.2852173 2.5460217 0.53519756 10
-2.2759364 2.5365722 0.41374642 7
-2.3003933 2.5647302 0.29807264 14
-2.2921715 2.5564609 0.17794225 12
-2.2744644 2.5376132 0.058814604 12
-1.3233104 1.4790026 -0.52152056 5
-1.5130292 1.6916364 -0.51513821 3
-1.8084856 2.022681 -0.51948798 3
-2.2074158 2.469727 -0.51858068 4
-2.310297 2.5857422 -0.42105904 13
-2.2817442 2.5546825 -0.29632998 14
-2.2801816 2.5538299 -0.1768285 14
-2.2558408 2.5274556 -0.057881434 8
-2.2859497 2.5620897 0.90915632 13
-2.2760592 2.5519009 0.77999008 10
-2.2694931 2.5454333 0.65484035 13
-2.2664583 2.5429227 0.53285366 11
-2.2538626 2.5296795 0.41130903 8
-2.2814882 2.5615857 0.2967653 14
-2.2732728 2.5532589 0.17715721 12
-2.2556267 2.5343297 0.05855282 12
-1.3181397 1.4836128 -0.52152056 4
-1.507115 1.6969076 -0.51513821 3
-1.8014144 2.0289812 -0.51948798 3
-2.1987815 2.4774175 -0.51858068 4
-2.2913764 2.582654 -0.419231 14
-2.262898 2.5514524 -0.29502264 13
-2.2613158 2.550565 -0.17604607 15
-2.237057 2.5240908 -0.057622265 8
-2.2641809 2.5555933 0.90398329 13
-2.2574465 2.5488882 0.7766183 11
-2.250833 2.542315 0.65198076 13
-2.2477489 2.5397241 0.53050971 10
-2.2351534 2.526381 0.40948096 7
-2.2626333 2.5583405 0.29545796 14
-2.2544246 2.5499561 0.17637217 12
-2.2368345 2.5309501 0.058291033 12
-1.316148 1.4918267 -0.52281469 4
-1.5011826 1.7021581 -0.51513821 3
-1.7943208 2.0352571 -0.51948798 3
-2.1868551 2.4813726 -0.51779848 5
-2.2725055 2.5794656 -0.41740298 13
-2.2408097 2.5443838 -0.29327953 14
-2.2425005 2.5471995 -0.17526364 15
-2.2183244 2.5206254 -0.057363093 8
-2.2456758 2.5526023 0.90010357 13
-2.238883 2.5457771 0.77324659 10
-2.2289822 2.5354111 0.64816803 13
-2.2290893 2.5364258 0.52816576 11
-2.216495 2.5229828 0.40765294 7
-2.2405419 2.5512526 0.29371485 14
-2.2356274 2.5465531 0.17558713 12
-2.2180934 2.5274701 0.058029246 13
-1.3109326 1.4964117 -0.52281469 4
-1.4952319 1.7073879 -0.51513821 3
-1.7904387 2.0452013 -0.52044117 3
-2.17818 2.488991 -0.51779848 5
-2.250417 2.5724416 -0.41496557 13
-2.2220776 2.5409415 -0.29197219 14
-2.2237365 2.5437343 -0.17448123 15
-2.1996429 2.51706 -0.057103917 8
-2.2240415 2.545876 0.8949306 12
-2.2203691 2.5425677 0.76987487 10
-2.2104347 2.5320835 0.64530849 13
-2.2104807 2.5330286 0.52582186 11
-2.1978874 2.5194852 0.4058249 7
-2.2218018 2.5477962 0.29240751 13
-2.2168815 2.5430498 0.17480208 13
-2.1994042 2.5238905 0.057767462 13
-1.3057011 1.5009786 -0.52281469 4
-1.4924595 1.7162728 -0.51626295 3
-1.7832887 2.0514388 -0.52044117 4
-2.1694787 2.4965792 -0.51779848 5
-2.2316604 2.5690415 -0.41313753 14
-2.2033973 2.5374 -0.29066485 14
-2.2017508 2.5363982 -0.17343798 14
-2.1810138 2.5133955 -0.056844749 9
-2.2056468 2.5426784 0.89105082 12
-2.1987126 2.5355792 0.76537925 10
-2.1919377 2.5286577 0.6424489 13
-2.1919229 2.5295324 0.52347791 10
-2.1760821 2.5121377 0.40338752 7
-2.2031128 2.5442398 0.29110017 14
-2.1981874 2.5394471 0.17401704 12
-2.1807671 2.5202112 0.057505675 12
-1.3004538 1.5055271 -0.52281469 4
-1.4864595 1.721472 -0.51626295 3
-1.7761171 2.057651 -0.52044117 4
-2.1607506 2.5041368 -0.51779848 6
-2.2129548 2.5655422 -0.41130951 14
-2.1847682 2.5337589 -0.28935751 14
-2.1831038 2.532722 -0.17265557 15
-2.1624372 2.5096316 -0.056585576 9
-2.1873012 2.5393836 0.88717103 12
-2.1803114 2.5321624 0.76200753 10
-2.1734917 2.5251334 0.63958937 13
-2.1734166 2.5259376 0.52113402 11
-2.1575913 2.508431 0.40155947 8
-2.1844759 2.5405838 0.28979284 14
-2.1795454 2.5357449 0.173232 13
-2.1621828 2.5164328 0.057243891 13
-1.2920464 1.5063915 -0.52152056 4
-1.4804413 1.7266502 -0.51626295 3
-1.7689236 2.0638382 -0.52044117 4
-2.1519964 2.5116639 -0.51779848 6
-2.1910727 2.5581746 -0.40887213 14
-2.1661921 2.530019 -0.28805017 14
-2.1612623 2.5251532 -0.17161232 14
-2.1439137 2.5057688 -0.056326408 9
-2.1690059 2.5359919 0.8832913 12
-2.1619613 2.5286486 0.75863582 11
-2.155097 2.5215111 0.63672978 13
-2.1549623 2.5222445 0.51879007 10
-2.139153 2.504626 0.39973143 7
-2.1658919 2.5368295 0.2884855 14
-2.1577148 2.5281456 0.17218529 13
-2.143651 2.5125554 0.056982104 13
-1.2836488 1.5072156 -0.52022654 4
-1.4744052 1.7318075 -0.51626295 3
-1.7585274 2.0662625 -0.51948798 4
-2.1432161 2.5191605 -0.51779848 6
-2.1724842 2.554466 -0.40704405 14
-2.1476686 2.5261803 -0.28674284 14
-2.1427341 2.5212679 -0.17082989 15
-2.1254435 2.5018075 -0.056067236 8
-2.1476345 2.5288222 0.87811828 12
-2.143662 2.5250375 0.7552641 11
-2.1367543 2.5177915 0.63387018 13
-2.1333652 2.5146875 0.51566482 11
-2.1207676 2.5007229 0.39790338 7
-2.1473606 2.5329762 0.28717816 14
-2.1391923 2.5242341 0.17140025 13
-2.1251683 2.5085838 0.05672032 13
-1.278116 1.5119104 -0.52022654 3
-1.4680479 1.7371998 -0.51626295 3
-1.7477751 2.0689445 -0.51853484 4
-2.1339684 2.5269988 -0.51779848 6
-2.1503019 2.5472424 -0.40460667 11
-2.1287582 2.522615 -0.2854355 14
-2.1238201 2.5176544 -0.17004748 15
-2.1065912 2.4981153 -0.055808067 9
-2.1290123 2.525598 0.87423849 12
-2.1218348 2.5179751 0.75076848 10
-2.1180253 2.5143445 0.63101065 13
-2.1145909 2.511157 0.51332086 11
-2.102 2.4970894 0.39607537 7
-2.1284411 2.5293963 0.28587085 14
-2.1202836 2.5205948 0.17061521 13
-2.1063123 2.504873 0.056458529 12
-1.2697254 1.5126634 -0.5189324 3
-1.4619751 1.7423136 -0.51626295 3
-1.7405424 2.0750327 -0.51853484 4
-2.1251347 2.5344324 -0.51779848 8
-2.1318333 2.5433228 -0.40277863 11
-2.1103427 2.5185769 -0.28412816 15
-2.1086066 2.5173972 -0.16952586 15
-2.0882299 2.4939542 -0.055548895 8
-2.1108835 2.5219035 0.87035877 12
-2.103653 2.5141563 0.74739677 10
-2.0997882 2.5104277 0.62815106 13
-2.0963089 2.5071568 0.51097697 11
-2.0837228 2.4929881 0.39424729 7
-2.1100178 2.5253432 0.28456348 14
-2.1018698 2.516484 0.16983017 13
-2.0879385 2.5007019 0.056196745 13
-1.2644374 1.5170863 -0.5189324 3
-1.4558843 1.7474064 -0.51626295 3
-1.7332886 2.0810957 -0.51853484 4
-2.1162748 2.5418351 -0.51779848 9
-2.1102438 2.5354912 -0.40034124 11
-2.0919812 2.5144405 -0.28282082 15
-2.0902276 2.5132253 -0.16874342 15
-2.0731196 2.4935403 -0.055376116 9
-2.0928061 2.5181131 0.86647898 12
-2.0855241 2.510242 0.74402505 10
-2.0816047 2.5064144 0.62529153 13
-2.0780807 2.5030599 0.50863302 11
-2.0686691 2.4926085 0.39302862 7
-2.0916488 2.5211928 0.28325617 14
-2.0835104 2.5122752 0.16904514 13
-2.0696297 2.4964249 0.055934958 13
-1.2591342 1.5214907 -0.5189324 3
-1.4497758 1.7524776 -0.51626295 3
-1.7260137 2.0871332 -0.51853484 3
-2.1073892 2.5492067 -0.51779848 10
-2.0918963 2.5313654 -0.3985132 10
-2.0736747 2.5102074 -0.28151348 15
-2.0719042 2.5089562 -0.167961 14
-2.0548551 2.4891953 -0.055116944 9
-2.0747814 2.5142274 0.86259925 11
-2.0674479 2.5062313 0.74065334 10
-2.0634749 2.5023048 0.62243193 13
-2.059907 2.4988663 0.50628912 11
-2.0504875 2.4883246 0.3912006 7
-2.0765016 2.5207896 0.2823846 14
-2.0652061 2.5079691 0.1682601 13
-2.0513711 2.4920545 0.055673171 12
-1.2538155 1.5258766 -0.5189324 3
-1.4436496 1.7575276 -0.51626295 3
-1.7187177 2.0931456 -0.51853484 4
-2.0953445 2.5527301 -0.51701629 13
-2.0736034 2.5271423 -0.39668515 11
-2.0522642 2.5020258 -0.27977037 11
-2.0536356 2.5045893 -0.16717857 15
-2.0366461 2.4847538 -0.054857776 9
-2.0568089 2.5102465 0.85871947 12
-2.0494254 2.5021257 0.73728162 10
-2.0453992 2.4980996 0.6195724 13
-2.0417874 2.4945762 0.50394517 11
-2.0323613 2.4839442 0.38937253 7
-2.058229 2.5164559 0.28107727 14
-2.0469575 2.5035663 0.16747504 13
-2.033169 2.4875877 0.055411387 13
-1.2484815 1.530244 -0.5189324 3
-1.437506 1.7625562 -0.51626295 3
-1.7145022 2.1029363 -0.51948798 4
-2.0645819 2.533232 -0.51154113 13
-2.0585003 2.5266702 -0.39546645 11
-2.0340815 2.4975879 -0.27846304 12
-2.0354228 2.5001261 -0.16639614 11
-2.0184934 2.4802155 -0.054598603 9
-2.0419381 2.5099175 0.85613298 11
-2.0345311 2.5017047 0.73503381 10
-2.0273781 2.4937983 0.61671281 13
-2.0237234 2.4901907 0.50160128 11
-2.0142908 2.4794679 0.38754448 7
-2.0400126 2.5120256 0.27976996 14
-2.028765 2.4990666 0.16669002 13
-2.0150225 2.4830241 0.0551496 13
-1.2434002 1.5343757 -0.5189324 3
-1.4319617 1.7670635 -0.51626295 3
-1.7078872 2.1083121 -0.51948798 4
-2.041074 2.5205162 -0.50763023 17
-2.0411851 2.5215528 -0.39363843 12
-2.0168252 2.4923496 -0.27715567 12
-2.0181377 2.4948621 -0.16561371 11
-2.0012615 2.4748826 -0.054339435 9
-2.0249341 2.5050516 0.8522532 12
-2.0174754 2.4967153 0.73166209 10
-2.0102811 2.4887006 0.61385328 13
-2.0065825 2.4850092 0.4992573 11
-1.9971402 2.4741986 0.38571647 8
-2.022727 2.5067925 0.27846259 14
-2.0146341 2.4976549 0.16616665 13
-2.000936 2.4815586 0.054975078 12
-1.2383052 1.5384905 -0.5189324 3
-1.4257847 1.7720512 -0.51626295 4
-1.7005174 2.1142609 -0.51948798 4
-2.0167913 2.5083818 -0.50371939 13
-2.0261526 2.5209262 -0.39241973 12
-1.9987538 2.4877257 -0.27584836 12
-2.0000365 2.4902122 -0.16483128 11
-1.9832211 2.4701583 -0.054080263 9
-2.0071082 2.5008044 0.84837347 12
-1.9996014 2.492342 0.72829044 10
-1.9954399 2.4880445 0.61194688 13
-1.9886285 2.4804387 0.49691334 11
-1.9791805 2.4695373 0.38388839 7
-2.0046213 2.5021763 0.27715525 14
-1.9965397 2.49298 0.16538161 13
-1.9828886 2.4768202 0.05471329 13
-1.2323887 1.543234 -0.5189324 3
-1.4189701 1.7775128 -0.51626295 4
-1.6923866 2.1207747 -0.51948798 3
-1.9948261 2.5006649 -0.50059068 13
-2.0071757 2.5170472 -0.39059168 12
-1.9798726 2.4836974 -0.27454099 12
-1.981125 2.4861586 -0.16404887 11
-1.9643773 2.4660244 -0.053821094 8
-1.9884651 2.4971578 0.84449369 11
-1.9809138 2.4885662 0.72491866 10
-1.9767032 2.4841659 0.60908735 13
-1.9698669 2.4764614 0.49456945 11
-1.9604176 2.4654655 0.38206038 6
-1.9888002 2.5020564 0.27628368 14
-1.98074 2.4928091 0.16485825 13
-1.9640355 2.4726717 0.054451503 13
-1.2239938 1.5437419 -0.51763833 3
-1.415783 1.7862732 -0.51738775 4
-1.6819255 2.1228225 -0.51853484 4
-1.9768866 2.4959991 -0.49824417 13
-1.9922163 2.5162563 -0.38937297 12
-1.9650083 2.4827816 -0.27366945 12
-1.9631404 2.4813113 -0.16326644 11
-1.9464535 2.4611027 -0.053561922 9
-1.9737453 2.496506 0.8419072 11
-1.9631523 2.4839983 0.72154701 10
-1.9588916 2.4794967 0.60622776 13
-1.9520278 2.4716954 0.4922255 11
-1.9425743 2.460608 0.38023233 7
-1.9707972 2.4972534 0.27497637 14
-1.9627488 2.4879475 0.16407321 13
-1.9461 2.4677405 0.054189719 13
-1.2185977 1.5480052 -0.51763833 3
-1.4095391 1.7912045 -0.51738775 4
-1.6745052 2.1286807 -0.51853484 3
-1.9620569 2.4951208 -0.49667984 13
-1.9742199 2.5114903 -0.38754493 12
-1.9470972 2.4778764 -0.27236211 12
-1.9482981 2.4802957 -0.16274482 11
-1.931676 2.4600184 -0.053389143 9
-1.9560724 2.4919829 0.83802748 11
-1.9484543 2.48317 0.71929914 10
-1.9441658 2.4785953 0.60432136 13
-1.9372934 2.4707215 0.49066287 11
-1.9278504 2.4595621 0.37901363 7
-1.9528518 2.4923551 0.27366903 14
-1.9478945 2.486922 0.16354986 13
-1.9313155 2.4666419 0.054015197 14
-1.2131867 1.5522494 -0.51763833 3
-1.4032781 1.7961137 -0.51738775 3
-1.6700855 2.1383808 -0.51948798 3
-1.944218 2.4902763 -0.4943333 13
-1.9562812 2.5066295 -0.38571692 12
-1.9323082 2.4768035 -0.27149057 12
-1.9304163 2.4752691 -0.16196239 11
-1.9138559 2.4549181 -0.053129975 8
-1.9384551 2.4873669 0.83414769 11
-1.9307921 2.478426 0.71592742 10
-1.926455 2.4737492 0.60146183 13
-1.9195563 2.4657781 0.48831898 11
-1.9101096 2.4545271 0.37718561 7
-1.9349649 2.4873621 0.2723617 14
-1.9300061 2.4818814 0.16276482 14
-1.913489 2.4615276 0.05375341 14
-1.207761 1.5564747 -0.51763833 3
-1.397 1.8010011 -0.51738775 3
-1.662611 2.1441975 -0.51948798 3
-1.9264371 2.4853382 -0.49198681 13
-1.9384006 2.5016742 -0.38388884 12
-1.9145005 2.4717197 -0.27018321 12
-1.9156506 2.4740965 -0.16144077 11
-1.899155 2.4536767 -0.052957188 9
-1.9208941 2.4826584 0.83026797 10
-1.9161676 2.4774427 0.71367961 10
-1.9118037 2.4726925 0.59955543 12
-1.9048971 2.4646485 0.48675635 11
-1.8954617 2.4533253 0.37596691 7
-1.9201814 2.4862173 0.27149016 14
-1.9152282 2.4806986 0.16224146 13
-1.8987762 2.4602766 0.053578883 13
-1.2023205 1.5606812 -0.51763833 3
-1.387732 1.8020066 -0.51626295 4
-1.6581105 2.1538775 -0.52044117 3
-1.9117265 2.4842203 -0.49042246 13
-1.9236045 2.5005584 -0.38267016 12
-1.899788 2.4704907 -0.26931167 11
-1.8978732 2.4688921 -0.16065834 11
-1.8844864 2.4523633 -0.052784409 9
-1.9063317 2.4816878 0.82768142 10
-1.8986062 2.4725237 0.7103079 9
-1.8941947 2.4676704 0.59669584 13
-1.8872631 2.4595287 0.4844124 11
-1.8778251 2.4481134 0.37413886 7
-1.9023985 2.4810464 0.27018279 14
-1.8974448 2.4754803 0.16145642 13
-1.8840952 2.4589529 0.053404361 13
-1.1968654 1.5648686 -0.51763833 3
-1.3814335 1.8068397 -0.51626295 4
-1.6505821 2.1596522 -0.52044117 4
-1.8940488 2.4791055 -0.48807591 13
-1.9058278 2.4954255 -0.38084212 12
-1.8820854 2.46523 -0.26800433 12
-1.883185 2.4675632 -0.16013673 12
-1.8668178 2.4470024 -0.052525241 9
-1.888871 2.4768057 0.8238017 10
-1.8840563 2.4713871 0.70806009 9
-1.8766445 2.4625556 0.59383631 12
-1.8726807 2.4582443 0.48284978 10
-1.8632549 2.4467571 0.37292019 7
-1.8876925 2.4797454 0.26931125 14
-1.8827446 2.4741414 0.16093306 13
-1.8664204 2.453578 0.053142574 13
-1.1913956 1.5690368 -0.51763833 3
-1.375118 1.8116508 -0.51626295 4
-1.6460001 2.1693108 -0.52139437 4
-1.8764305 2.4738979 -0.48572943 13
-1.8911086 2.4941537 -0.37962344 12
-1.867451 2.4638453 -0.26713276 12
-1.8655138 2.462182 -0.1593543 11
-1.852228 2.4455333 -0.052352462 9
-1.874383 2.4756827 0.82121515 9
-1.8665975 2.4662943 0.70468843 10
-1.8621142 2.4612627 0.59192997 13
-1.8551517 2.4529498 0.48050588 11
-1.845724 2.4413698 0.37109211 7
-1.8700155 2.4743981 0.26800391 14
-1.8650672 2.4687462 0.16014802 13
-1.8518188 2.4520993 0.052968048 13
-1.1856369 1.5733931 -0.51763833 3
-1.3684688 1.8166786 -0.51626295 4
-1.6350857 2.1714082 -0.52044117 4
-1.8614106 2.4728677 -0.48416507 13
-1.8730026 2.4891717 -0.37779537 12
-1.8494257 2.4587317 -0.26582542 12
-1.8504754 2.4610212 -0.15883268 12
-1.8342412 2.4403172 -0.052093286 9
-1.8565927 2.4709518 0.81733537 10
-1.8516936 2.4653277 0.70244062 9
-1.8442395 2.456296 0.58907038 12
-1.8402194 2.4518328 0.47894323 11
-1.830807 2.4401791 0.36987343 7
-1.8549566 2.4732659 0.26713234 14
-1.850016 2.4675756 0.15962467 13
-1.8338246 2.4468689 0.052706264 14
-1.1830306 1.5813892 -0.5189324 3
-1.3621191 1.8214444 -0.51626295 4
-1.6274962 2.1771026 -0.52044117 4
-1.8438988 2.4674826 -0.48181856 12
-1.8583624 2.4877429 -0.37657669 12
-1.8348713 2.45719 -0.26495388 12
-1.8358998 2.4594629 -0.15831105 11
-1.819732 2.4386916 -0.051920507 9
-1.8421804 2.4696748 0.81474888 9
-1.8372521 2.4639647 0.70019281 9
-1.8297875 2.4548478 0.58716398 12
-1.8257484 2.4503212 0.4773806 11
-1.8133845 2.4346147 0.36804542 7
-1.8403628 2.4717355 0.26626077 14
-1.8354287 2.4660072 0.15910131 13
-1.8192985 2.4452374 0.052531742 13
-1.1775032 1.5855091 -0.5189324 3
-1.3557527 1.826188 -0.51626295 4
-1.6169616 2.1788285 -0.51948798 4
-1.8293897 2.4659712 -0.4802542 12
-1.840799 2.4822559 -0.37474868 12
-1.8173841 2.4515758 -0.26364651 12
-1.8183851 2.4538212 -0.15752864 12
-1.802281 2.4329772 -0.051661339 9
-1.8249259 2.4644456 0.81086916 8
-1.819944 2.4586151 0.69682103 9
-1.8124487 2.4493833 0.58430439 12
-1.8113103 2.4487386 0.47581798 10
-1.798974 2.4329491 0.36682671 7
-1.8228415 2.4661279 0.26495346 14
-1.8179079 2.4603515 0.15831625 14
-1.801847 2.4395053 0.052269954 13
-1.1719615 1.5896097 -0.5189324 3
-1.3464797 1.8269877 -0.51513821 4
-1.6064349 2.1805081 -0.51853484 4
-1.8119853 2.4604127 -0.47790766 12
-1.8262386 2.4806733 -0.37352994 12
-1.8029107 2.4498813 -0.26277497 11
-1.8038907 2.4521096 -0.15700702 11
-1.7878541 2.4311988 -0.05148856 9
-1.8105906 2.4630177 0.80828267 8
-1.8055807 2.4571009 0.69457322 9
-1.798076 2.4477835 0.58239806 13
-1.7939825 2.4431043 0.47347406 10
-1.7816607 2.427212 0.36499867 7
-1.8083286 2.4644442 0.2640819 14
-1.8034021 2.4586298 0.1577929 14
-1.7874082 2.4377167 0.052095428 13
-1.1664057 1.593691 -0.5189324 3
-1.340094 1.8316767 -0.51513821 3
-1.5988138 2.1861024 -0.51853484 4
-1.7975566 2.4587493 -0.4763433 12
-1.8117118 2.4790194 -0.37231123 12
-1.7884716 2.4481156 -0.26190341 12
-1.786486 2.4462943 -0.15622459 12
-1.7734612 2.4293489 -0.051315777 9
-1.7934408 2.4576185 0.80440289 8
-1.7912503 2.4555163 0.69232541 9
-1.7837368 2.4461133 0.58049166 12
-1.7796254 2.44137 0.47191146 11
-1.7673321 2.4253948 0.36377996 7
-1.7938498 2.4626892 0.26321036 14
-1.7889309 2.4568369 0.15726954 13
-1.7730041 2.4358573 0.051920906 14
-1.1608355 1.5977528 -0.5189324 3
-1.3336921 1.8363433 -0.51513821 3
-1.5911732 2.1916697 -0.51853484 4
-1.7802612 2.4530189 -0.47399682 13
-1.7943048 2.4732773 -0.37048322 12
-1.7711425 2.4422469 -0.26059607 12
-1.7720745 2.4444299 -0.15570298 11
-1.7561697 2.4233804 -0.051056605 10
-1.7791842 2.4560409 0.8018164 8
-1.7740954 2.4499159 0.6889537 9
-1.7694312 2.4443729 0.57858527 12
-1.7653023 2.4395652 0.47034883 11
-1.7501293 2.419486 0.36195195 7
-1.7794054 2.4608631 0.26233879 14
-1.7715689 2.4509265 0.1564845 14
-1.7586348 2.4339273 0.051746383 14
-1.1552514 1.6017951 -0.5189324 3
-1.3301229 1.8449392 -0.51626295 3
-1.583513 2.1972108 -0.51853484 4
-1.7659142 2.4512043 -0.47243246 12
-1.7798601 2.4714715 -0.36926451 12
-1.7567865 2.4403298 -0.25972453 12
-1.7547815 2.4384422 -0.15492055 11
-1.7418611 2.4213793 -0.050883826 9
-1.7649605 2.4543939 0.79922986 7
-1.7598454 2.4481819 0.68670589 9
-1.7551595 2.4425626 0.57667893 12
-1.7481322 2.4336791 0.46800488 11
-1.735884 2.4175179 0.36073324 7
-1.7620908 2.4549198 0.26103145 13
-1.7571809 2.4489815 0.15596114 13
-1.7443007 2.4319263 0.051571857 13
-1.149653 1.6058179 -0.5189324 3
-1.3236748 1.849571 -0.51626295 3
-1.5758338 2.2027247 -0.51853484 4
-1.7516019 2.4493196 -0.47086814 13
-1.7625639 2.4655576 -0.36743647 13
-1.7424655 2.4383423 -0.25885296 12
-1.7404541 2.4364266 -0.15439893 12
-1.7275878 2.4193079 -0.050711047 9
-1.7507703 2.4526775 0.79664338 7
-1.7427993 2.4424121 0.68333423 9
-1.7409223 2.4406826 0.57477254 12
-1.7338922 2.4317243 0.46644226 10
-1.7216738 2.4154801 0.35951456 8
-1.7477301 2.4529426 0.26015988 13
-1.7428284 2.4469664 0.15543778 13
-1.7271024 2.4257829 0.05131007 13
-1.1440406 1.6098212 -0.5189324 4
-1.3172106 1.8541802 -0.51626295 3
-1.5681351 2.2082121 -0.51853484 4
-1.7373242 2.447365 -0.46930379 13
-1.7482028 2.4636004 -0.36621779 13
-1.7281797 2.4362843 -0.25798139 12
-1.7232742 2.4302676 -0.1536165 11
-1.7104592 2.4130878 -0.050451875 9
-1.733821 2.4469514 0.79276359 7
-1.7286309 2.4405291 0.68108642 8
-1.7238833 2.4347274 0.571913 12
-1.7196871 2.4297001 0.46487963 11
-1.7074989 2.4133725 0.35829583 7
-1.733405 2.4508951 0.25928834 14
-1.7256287 2.4408038 0.15465274 13
-1.7128538 2.4236314 0.051135547 14
-1.1356304 1.6098584 -0.51763833 3
-1.313538 1.8627485 -0.51738775 3
-1.5604175 2.2136726 -0.51853484 4
-1.7230816 2.4453406 -0.46773943 12
-1.7338768 2.4615734 -0.36499909 13
-1.7139297 2.4341567 -0.25710985 12
-1.7090325 2.4281018 -0.15309489 12
-1.6962721 2.4108665 -0.050279092 9
-1.7197119 2.4450874 0.79017711 6
-1.714497 2.4385772 0.67883861 9
-1.7097296 2.4326985 0.57000661 12
-1.7026786 2.4235649 0.46253574 10
-1.6905079 2.4071345 0.35646781 7
-1.7162533 2.444701 0.257981 14
-1.7113616 2.438638 0.15412939 14
-1.6986412 2.4214106 0.050961021 14
-1.130004 1.6138127 -0.51763833 3
-1.3070277 1.8673222 -0.51738775 3
-1.5526809 2.219106 -0.51853484 4
-1.706044 2.4391999 -0.46539292 13
-1.7167429 2.4554093 -0.36317107 12
-1.6997154 2.4319589 -0.25623828 12
-1.6948271 2.4258664 -0.15257327 11
-1.6821214 2.4085755 -0.050106313 9
-1.7056371 2.4431551 0.78759056 6
-1.7003981 2.4365566 0.6765908 8
-1.6928024 2.4265749 0.56714702 12
-1.6885586 2.421392 0.46097311 10
-1.6764189 2.4048784 0.35524914 8
-1.7020139 2.4425035 0.25710946 14
-1.697131 2.4364028 0.15360603 13
-1.6844652 2.4191198 0.050786499 14
-1.1243639 1.6177473 -0.51763833 3
-1.2977216 1.8678721 -0.51626295 3
-1.5477251 2.2285435 -0.51948798 5
-1.6918863 2.4370267 -0.46382856 12
-1.7025027 2.4532325 -0.36195236 13
-1.6826987 2.4255996 -0.25493094 12
-1.6806581 2.4235613 -0.15205164 11
-1.6680076 2.4062154 -0.049933534 9
-1.6915966 2.4411542 0.78500408 6
-1.6863339 2.4344671 0.67434299 8
-1.6787335 2.4243984 0.56524068 12
-1.6744745 2.4191499 0.45941046 10
-1.6623667 2.4025533 0.35403043 8
-1.6878105 2.4402363 0.25623786 14
-1.6829368 2.434098 0.15308267 13
-1.6674836 2.4126475 0.050524715 14
-1.11871 1.6216623 -0.51763833 3
-1.2856623 1.8643692 -0.51401347 3
-1.5399364 2.2339325 -0.51948798 4
-1.6777651 2.4347849 -0.46226421 13
-1.6882985 2.4509864 -0.36073366 13
-1.6685717 2.4232535 -0.25405937 12
-1.666526 2.4211872 -0.15153003 12
-1.6539304 2.4037862 -0.049760751 10
-1.677591 2.4390852 0.7824176 6
-1.6723052 2.4323092 0.67209518 8
-1.6619203 2.4181085 0.56238109 11
-1.6632235 2.4209099 0.45862916 10
-1.6455417 2.3960688 0.35220239 7
-1.6736441 2.4379003 0.25536633 13
-1.6687794 2.4317238 0.15255931 13
-1.6533958 2.4102085 0.050350189 14
-1.1130426 1.6255574 -0.51763833 3
-1.2763948 1.8648256 -0.51288873 3
-1.534901 2.2433453 -0.52044117 4
-1.660892 2.4283979 -0.45991769 12
-1.6769317 2.4527681 -0.36012432 13
-1.6516714 2.4167264 -0.25275204 12
-1.6524311 2.4187438 -0.15100841 12
-1.6398909 2.4012878 -0.049587972 8
-1.6608975 2.4329596 0.77853787 5
-1.6555659 2.4260588 0.6687234 8
-1.6479374 2.4157853 0.56047469 11
-1.6491981 2.4185402 0.45706654 11
-1.6315773 2.3935966 0.35098368 7
-1.6595144 2.4354951 0.25449476 14
-1.654659 2.4292805 0.15203595 13
-1.6393453 2.4077005 0.050175667 14
-1.1073616 1.6294327 -0.51763833 3
-1.26714 1.8652395 -0.51176393 3
-1.5243032 2.2446287 -0.51948798 4
-1.646858 2.4260087 -0.45835334 13
-1.6627865 2.4503937 -0.35890561 13
-1.6376331 2.4142327 -0.25188047 12
-1.6383735 2.4162319 -0.1504868 11
-1.6286942 2.4028594 -0.049501583 9
-1.6469764 2.4307451 0.77595139 5
-1.641623 2.4237554 0.66647559 8
-1.633991 2.4133942 0.5585683 11
-1.6352097 2.4161024 0.45550394 10
-1.6176505 2.3910568 0.349765 7
-1.6454221 2.4330211 0.25362322 13
-1.6405765 2.4267683 0.15151259 14
-1.6253326 2.4051239 0.050001144 13
-1.0989662 1.6292843 -0.51634425 3
-1.2606213 1.8696514 -0.51176393 3
-1.5164589 2.2499359 -0.51948798 4
-1.6328607 2.4235513 -0.45678899 12
-1.6486784 2.4479506 -0.35768694 13
-1.6236324 2.4116707 -0.25100893 12
-1.6215657 2.4095085 -0.14970437 12
-1.6147156 2.4002342 -0.049328804 9
-1.633091 2.4284635 0.77336484 5
-1.6277165 2.4213841 0.66422778 7
-1.6200814 2.4109354 0.55666196 11
-1.6212585 2.4135964 0.45394132 9
-1.6037613 2.3884487 0.3485463 8
-1.6313676 2.4304786 0.25275165 13
-1.6237491 2.4200413 0.15072754 13
-1.6113578 2.4024789 0.049826618 13
-1.0956733 1.637315 -0.51763833 3
-1.2564691 1.8783088 -0.51288873 3
-1.5027455 2.2473185 -0.51758158 5
-1.6184784 2.4213085 -0.45522466 13
-1.6341809 2.445724 -0.35646823 12
-1.6092492 2.4093215 -0.25013736 13
-1.6071782 2.4071302 -0.14918275 12
-1.6003569 2.3978198 -0.049156025 9
-1.6188182 2.4263973 0.77077836 5
-1.6161276 2.4232805 0.66310394 7
-1.6057889 2.408689 0.55475557 11
-1.6069239 2.4113035 0.45237869 10
-1.5894935 2.3860502 0.34732762 6
-1.6169267 2.4281495 0.25188008 14
-1.6093349 2.4176633 0.15020418 12
-1.5970026 2.4000449 0.049652096 13
-1.0792634 1.625037 -0.5124619 4
-1.2525994 1.8867419 -0.51401347 3
-1.4948918 2.2525504 -0.51758158 5
-1.6045564 2.4187129 -0.45366031 13
-1.6201483 2.4431417 -0.35524952 13
-1.5953251 2.4066207 -0.2492658 13
-1.5932499 2.4044013 -0.14866114 12
-1.5864557 2.3950558 -0.048983242 10
-1.6050056 2.423979 0.76819187 5
-1.6022805 2.4207816 0.66085607 6
-1.5919545 2.4060929 0.55284917 10
-1.5930485 2.4086595 0.45081607 10
-1.5756812 2.3833044 0.34610891 7
-1.6029485 2.425468 0.25100854 14
-1.5953814 2.4149339 0.14968082 14
-1.5830998 2.3972652 0.04947757 13
-1.0921898 1.6570216 -0.52152056 3
-1.2486864 1.895171 -0.51513821 3
-1.4843202 2.2536559 -0.51662844 5
-1.5933882 2.4201744 -0.45287815 13
-1.6061537 2.440491 -0.35403085 13
-1.5814396 2.4038525 -0.24839425 12
-1.5793602 2.4016044 -0.14813951 11
-1.5725936 2.3922243 -0.048810463 9
-1.5912298 2.4214942 0.76560533 5
-1.5884711 2.4182155 0.65860826 6
-1.5808519 2.4075322 0.55189604 10
-1.576501 2.4018195 0.44847211 10
-1.5619074 2.3804917 0.34489024 6
-1.5890088 2.4227183 0.25013697 13
-1.5814664 2.4121368 0.14915746 12
-1.5692471 2.3944104 0.049303047 14
-1.0969743 1.6769909 -0.52669698 3
-1.2420634 1.8995184 -0.51513821 3
-1.4764444 2.2588234 -0.51662844 5
-1.5795281 2.4174531 -0.45131379 13
-1.5894836 2.4336176 -0.35220277 13
-1.567593 2.4010165 -0.24752268 12
-1.5682385 2.4029212 -0.14787871 11
-1.5587702 2.3893247 -0.048637681 9
-1.5774909 2.4189427 0.76301885 5
-1.574699 2.4155829 0.65636045 7
-1.5670791 2.4048114 0.54998964 10
-1.5627164 2.3990316 0.44690952 10
-1.5481725 2.3776114 0.34367153 6
-1.5751079 2.4199014 0.24926542 14
-1.5675906 2.409272 0.14863411 12
-1.5554279 2.3914917 0.049128518 13
nan nan nan 0
-1.2354254 1.9038423 -0.51513821 3
-1.4685504 2.2639635 -0.51662844 5
-1.5657065 2.4146647 -0.44974947 13
-1.5755805 2.4308221 -0.3509841 13
-1.5537853 2.3981135 -0.24665113 13
-1.5544124 2.3999989 -0.14735709 12
-1.5449866 2.3863583 -0.048464898 8
-1.5637892 2.4163246 0.7604323 4
-1.5609646 2.4128835 0.65411264 6
-1.5533446 2.4020238 0.54808331 11
-1.5462897 2.3920298 0.44456559 9
-1.5344766 2.3746648 0.34245285 6
-1.561246 2.4170167 0.24839386 14
-1.5537542 2.4063396 0.14811075 12
-1.5416484 2.3885059 0.048953995 13
nan nan nan 0
-1.2287722 1.9081432 -0.51513821 3
-1.4606389 2.2690756 -0.51662844 5
-1.5492511 2.4076564 -0.44740292 13
-1.5617163 2.4279594 -0.34976539 13
-1.5400172 2.3951433 -0.24577957 13
-1.5406257 2.3970091 -0.14683546 9
-1.5285404 2.3791189 -0.04820573 9
-1.5501251 2.4136407 0.75784576 4
-1.5472685 2.4101179 0.65186483 6
-1.5396487 2.3991694 0.54617691 10
-1.5325973 2.3890991 0.44300297 11
-1.5208205 2.3716514 0.34123415 7
-1.5474235 2.4140649 0.24752231 13
-1.5399575 2.4033406 0.14758739 11
-1.5279088 2.3854532 0.048779473 13
nan nan nan 0
-1.222104 1.9124207 -0.51513821 3
-1.4527094 2.2741606 -0.51662844 5
-1.535522 2.4047253 -0.44583857 12
-1.5478914 2.4250298 -0.34854671 13
-1.5262887 2.3921061 -0.24490802 12
-1.5268791 2.3939526 -0.14631385 11
-1.5148515 2.3760092 -0.048032951 9
-1.5364988 2.4108908 0.75525928 5
-1.5336107 2.4072862 0.64961702 6
-1.5259914 2.3962491 0.54427052 11
-1.5189444 2.3861022 0.44144034 9
-1.5072041 2.3685718 0.34001544 7
-1.5336407 2.411046 0.24665076 13
-1.5262004 2.4002743 0.14706403 13
-1.5142094 2.382334 0.048604947 13
-1.0501688 1.6554394 -0.51505011 3
-1.215421 1.916675 -0.51513821 3
-1.4447623 2.2792175 -0.51662844 5
-1.521832 2.4017274 -0.44427425 12
-1.534106 2.4220331 -0.34732801 13
-1.5126004 2.3890026 -0.24403645 12
-1.5131727 2.3908298 -0.14579223 10
-1.5012027 2.372833 -0.047860172 9
-1.522911 2.4080758 0.75267279 5
-1.5199915 2.4043884 0.64736921 5
-1.5149957 2.3974121 0.54331732 10
-1.505331 2.383039 0.43987769 10
-1.490978 2.3612299 0.3381874 6
-1.5198981 2.4079607 0.24577919 13
-1.5124838 2.3971415 0.14654067 13
-1.5032175 2.3833766 0.048517689 12
-1.0392381 1.6509206 -0.5124619 3
-1.2061284 1.9167824 -0.51401347 3
-1.4367975 2.2842469 -0.51662844 5
-1.5081818 2.3986638 -0.44270989 12
-1.5203605 2.4189699 -0.34610933 14
-1.5016022 2.3900504 -0.24360067 12
-1.4995068 2.3876402 -0.14527062 11
-1.4902527 2.3738246 -0.047773778 9
-1.5119284 2.4092858 0.75137955 5
-1.5064114 2.4014251 0.6451214 5
-1.5014027 2.3943689 0.54141092 9
-1.4943806 2.3840947 0.43909642 8
-1.4774567 2.3580091 0.33696872 8
-1.5061955 2.4048088 0.24490763 13
-1.4988078 2.3939421 0.14601731 14
-1.4895844 2.3801339 0.048343163 13
nan nan nan 0
-1.1994301 1.9209809 -0.51401347 3
-1.4262164 2.2850845 -0.51567525 5
-1.4945716 2.395534 -0.44114554 13
-1.5066552 2.4158404 -0.34489062 13
-1.48798 2.3868234 -0.24272911 12
-1.4858817 2.3843846 -0.14474899 11
-1.4766709 2.3705254 -0.047600996 9
-1.4984033 2.4063489 0.74879307 5
-1.4928705 2.3983965 0.64287359 5
-1.4878496 2.3912601 0.53950459 9
-1.4834412 2.3851027 0.43831509 10
-1.463976 2.3547227 0.33575001 7
-1.4951627 2.4058213 0.24447185 13
-1.4878073 2.394918 0.14575563 12
-1.4759924 2.3768251 0.048168641 12
nan nan nan 0
-1.1927174 1.925156 -0.51401347 3
-1.4182312 2.2900491 -0.51567525 5
-1.4810017 2.3923383 -0.43958122 12
-1.4929901 2.4126446 -0.34367192 14
-1.4743989 2.3835311 -0.24185754 12
-1.4722974 2.3810627 -0.14422737 12
-1.4631304 2.3671608 -0.047428217 9
-1.4849173 2.403347 0.74620652 5
-1.4793693 2.3953023 0.64062583 5
-1.4743366 2.3880861 0.53759819 9
-1.4699194 2.381861 0.43675247 9
-1.4505366 2.3513713 0.33453134 8
-1.4815269 2.4025462 0.24360029 13
-1.4741985 2.3915958 0.14523228 14
-1.4624418 2.3734503 0.047994114 13
nan nan nan 0
-1.1885415 1.9334582 -0.51513821 4
-1.410229 2.2949855 -0.51567525 5
-1.4674724 2.3890777 -0.43801686 12
-1.4793661 2.4093833 -0.34245324 13
-1.4608587 2.3801727 -0.24098599 13
-1.4613658 2.3819315 -0.14396657 11
-1.4522449 2.3679922 -0.047341831 9
-1.4714702 2.4002802 0.74362004 5
-1.4659079 2.3921437 0.63837802 5
-1.4608642 2.3848472 0.5356918 9
-1.4590174 2.3827658 0.43597117 9
-1.4397291 2.3521874 0.333922 7
-1.4705319 2.4034543 0.24316452 12
-1.4606308 2.3882079 0.14470892 13
-1.4489329 2.3700101 0.047819592 14
nan nan nan 0
-1.1817852 1.9375952 -0.51513821 3
-1.4022093 2.2998941 -0.51567525 5
-1.4565539 2.3899682 -0.43723467 12
-1.4657828 2.4060562 -0.34123453 14
-1.4473602 2.376749 -0.24011444 12
-1.4478501 2.3784881 -0.14344496 11
-1.4387728 2.3645053 -0.047169048 9
-1.458063 2.3971491 0.74103355 5
-1.4676733 2.413898 0.64287359 5
-1.4474322 2.3815434 0.53378546 9
-1.4455626 2.3794029 0.43440855 8
-1.4263576 2.3487153 0.33270329 6
-1.456964 2.4000571 0.24229297 12
-1.4471048 2.3847544 0.14418554 13
-1.4328728 2.3622303 0.047557805 13
nan nan nan 0
-1.1775368 1.9458765 -0.51626295 3
-1.3916322 2.300575 -0.51472205 4
-1.443092 2.386586 -0.43567032 13
-1.4522409 2.4026637 -0.34001586 14
-1.4339033 2.3732605 -0.23924288 12
-1.4343759 2.3749793 -0.14292334 11
-1.4253428 2.3609536 -0.046996269 9
-1.4446956 2.3939538 0.73844707 5
-1.4617549 2.4231782 0.64399755 9
-1.4340409 2.3781745 0.53187907 8
-1.4321491 2.3759751 0.43284592 9
-1.4155891 2.3494291 0.33209395 7
-1.4434375 2.3965945 0.24142142 12
-1.4336209 2.3812358 0.14366218 13
-1.4194628 2.3586509 0.047383279 13
-1.0193561 1.6971642 -0.52022654 3
-1.1707371 1.949975 -0.51626295 3
-1.3835932 2.3054187 -0.51472205 5
-1.4296715 2.3831394 -0.43410599 13
-1.4387406 2.3992062 -0.33879715 14
-1.4204884 2.3697066 -0.23837131 13
-1.4209441 2.3714054 -0.14240173 12
-1.4119552 2.357337 -0.04682349 9
-1.4313681 2.3906944 0.73586053 6
-1.4582915 2.4366269 0.64624536 9
-1.420691 2.3747418 0.52997267 9
-1.421312 2.3767211 0.43206459 9
-1.4022869 2.3458369 0.33087525 6
-1.4299531 2.3930669 0.24054985 13
-1.4201792 2.3776524 0.14313883 13
-1.4060953 2.3550067 0.047208756 13
-1.0109535 1.696563 -0.5189324 3
-1.1639234 1.9540497 -0.51626295 3
-1.3755373 2.3102343 -0.51472205 5
-1.4162924 2.3796279 -0.43254164 12
-1.4278196 2.3999484 -0.33818778 14
-1.409662 2.3703697 -0.23793554 13
-1.4075546 2.3677669 -0.1418801 12
-1.3986104 2.3536558 -0.046650708 9
-1.4180812 2.3873711 0.73327404 5
-1.4472897 2.4375131 0.6451214 9
-1.4098878 2.3754656 0.52901947 8
-1.4079673 2.3731735 0.430502 8
-1.3890271 2.3421803 0.32965657 7
-1.4165112 2.3894746 0.23967829 13
-1.4067801 2.3740039 0.14261547 14
-1.3953185 2.3555992 0.047121495 13
-1.0099407 1.7083966 -0.52152056 3
-1.154617 1.9539065 -0.51513821 3
-1.3674648 2.3150218 -0.51472205 5
-1.4054664 2.3803048 -0.43175948 13
-1.4143885 2.3963702 -0.33696911 14
-1.3963172 2.3666961 -0.23706399 13
-1.3942081 2.3640637 -0.14135848 12
-1.3853084 2.3499105 -0.046477929 9
-1.4048349 2.3839843 0.73068756 6
-1.4338268 2.4341545 0.64287359 9
-1.3966064 2.3719134 0.52711314 7
-1.3946648 2.3695612 0.42893937 9
-1.3758097 2.3384597 0.32843786 6
-1.4031116 2.3858175 0.23880674 13
-1.3934238 2.3702912 0.14209211 13
-1.3820218 2.3518353 0.046946973 13
-0.99664146 1.6994134 -0.51763833 3
-1.1477895 1.9579251 -0.51513821 3
-1.3593755 2.3197811 -0.51472205 5
-1.3921572 2.3766739 -0.43019515 13
-1.4035075 2.3970103 -0.33635977 14
-1.3830153 2.362958 -0.23619244 13
-1.3809046 2.3602965 -0.14083686 11
-1.3720496 2.3461003 -0.046305142 9
-1.3916296 2.3805342 0.72810096 6
-1.4228634 2.4349384 0.64174974 9
-1.3833672 2.3682973 0.52520674 7
-1.3814045 2.3658855 0.42737675 8
-1.3626355 2.334676 0.32721916 6
-1.389755 2.3820963 0.23793519 13
-1.3826259 2.3708274 0.14183044 13
-1.3687685 2.348007 0.046772443 13
-0.99313205 1.7070565 -0.5189324 3
-1.1409482 1.9619197 -0.51513821 3
-1.3512696 2.324512 -0.51472205 5
-1.3788903 2.3729789 -0.4286308 13
-1.3901467 2.3933122 -0.33514106 14
-1.3722576 2.3634636 -0.23575665 13
-1.3676443 2.3564653 -0.14031525 12
-1.3588344 2.3422272 -0.046132363 9
-1.3784657 2.3770211 0.72551447 6
-1.4094683 2.4314599 0.63950193 9
-1.3726311 2.3688653 0.52425355 7
-1.3681872 2.3621464 0.42581412 8
-1.3519908 2.3351233 0.32660982 6
-1.3764414 2.3783107 0.23706363 13
-1.3693413 2.3669956 0.14130709 13
-1.3580613 2.348443 0.046685185 13
-0.98716724 1.7105128 -0.5189324 3
-1.1340928 1.9658904 -0.51513821 3
-1.3406955 2.3249626 -0.51376885 5
-1.3681322 2.3734992 -0.42784861 12
-1.3768287 2.38955 -0.33392239 14
-1.3590273 2.3596067 -0.23488508 13
-1.3544277 2.3525701 -0.13979362 11
-1.3456631 2.3382902 -0.045959584 9
-1.3653431 2.373445 0.72292799 7
-1.3985437 2.4321415 0.63837802 9
-1.3594619 2.3651314 0.52234721 7
-1.3550128 2.3583436 0.4242515 8
-1.34136 2.3355248 0.32600048 6
-1.3656511 2.3787808 0.23662783 13
-1.3561 2.3630993 0.14078373 13
-1.3448805 2.3444963 0.046510659 14
-0.98119044 1.7139482 -0.5189324 3
-1.1248038 1.9656084 -0.51401347 3
-1.3325717 2.3296282 -0.51376885 5
-1.3549364 2.3696861 -0.42628425 13
-1.3635541 2.3857243 -0.33270368 14
-1.3483117 2.3600116 -0.23444931 14
-1.3437314 2.3529477 -0.13953282 12
-1.3325359 2.3342898 -0.045786802 9
-1.3522625 2.369807 0.72034144 7
-1.3852177 2.4285445 0.63613021 8
-1.3487667 2.3655982 0.52139401 6
-1.3418816 2.3544776 0.4226889 8
-1.3307427 2.3358808 0.32539111 16
-1.3524097 2.3748767 0.23575628 13
-1.3453729 2.3634791 0.14052203 14
-1.334216 2.3448315 0.046423398 13
-0.97520161 1.7173628 -0.5189324 3
-1.1179357 1.9695227 -0.51401347 3
-1.3244317 2.3342657 -0.51376885 5
-1.3417836 2.3658099 -0.4247199 13
-1.3527704 2.386152 -0.33209434 14
-1.3351537 2.3560364 -0.23357774 13
-1.3305877 2.3489349 -0.1390112 12
-1.3219163 2.3345768 -0.045700416 9
-1.3392239 2.3661063 0.71775496 7
-1.374333 2.4291248 0.63500631 8
-1.3380847 2.3660195 0.52044082 6
-1.3312244 2.3548484 0.4219076 8
-1.3201394 2.3361912 0.32478178 11
-1.3392121 2.3709092 0.23488472 13
-1.3322046 2.3594651 0.13999867 13
-1.3211085 2.3407669 0.046248872 14
-0.96920097 1.7207564 -0.5189324 3
-1.1086639 1.9691681 -0.51288873 3
-1.3138682 2.3345971 -0.51281571 5
-1.3286748 2.3618712 -0.42315558 13
-1.339568 2.3822081 -0.33087564 14
-1.3220403 2.3519986 -0.23270617 13
-1.3199344 2.3492119 -0.13875039 11
-1.3088629 2.3304594 -0.045527633 9
-1.3262278 2.3623433 0.71516848 7
-1.3610766 2.4254096 0.63275844 8
-1.3250152 2.3621147 0.51853442 6
-1.3181658 2.3508656 0.42034498 8
-1.3095499 2.3364558 0.32417244 11
-1.3260587 2.3668787 0.23401317 13
-1.3190809 2.3553879 0.13947532 13
-1.3104879 2.3410022 0.046161614 14
-0.96083307 1.7199129 -0.51763833 3
-1.1017835 1.973026 -0.51288873 4
-1.3057109 2.3391693 -0.51281571 5
-1.3156097 2.3578696 -0.42159122 13
-1.3264098 2.3782015 -0.32965693 14
-1.3113968 2.3522487 -0.23227042 13
-1.3068649 2.3450818 -0.13822877 12
-1.2982873 2.3306468 -0.045441244 9
-1.3132741 2.3585186 0.71258199 7
-1.3478631 2.4216316 0.63051063 8
-1.3143753 2.3624358 0.51758122 6
-1.3051509 2.3468204 0.41878232 7
-1.2989751 2.3366754 0.3235631 12
-1.3153694 2.3671391 0.23357739 13
-1.3084265 2.355613 0.13921364 13
-1.2974547 2.3368208 0.045987088 13
-0.95686275 1.7276477 -0.5189324 3
-1.0945446 1.977051 -0.51288873 3
-1.294752 2.3396447 -0.51186246 5
-1.3021779 2.3540328 -0.42002687 13
-1.3128815 2.3743608 -0.32843825 15
-1.2979475 2.3483202 -0.23139885 13
-1.2958462 2.3454854 -0.13796796 12
-1.2873195 2.3310132 -0.045354854 9
-1.2999527 2.3548598 0.70999545 8
-1.3366246 2.4222901 0.62938678 9
-1.3009665 2.3586416 0.51567489 5
-1.2941562 2.3472636 0.41800103 7
-1.2880067 2.3370743 0.32295373 11
-1.3018776 2.3632188 0.23270582 13
-1.2949669 2.351645 0.13869028 13
-1.2864703 2.3371809 0.045899823 13
-0.95082635 1.7309773 -0.5189324 3
-1.0876368 1.9808596 -0.51288873 4
-1.2865772 2.3441498 -0.51186246 5
-1.2892022 2.3499048 -0.41846254 13
-1.3021992 2.374578 -0.32782891 15
-1.284954 2.3441012 -0.2305273 13
-1.2828523 2.3412368 -0.13744634 12
-1.2767733 2.3311076 -0.045268461 9
-1.2894053 2.3551464 0.70870227 8
-1.3234832 2.4183931 0.62713897 9
-1.2903699 2.3588626 0.51472169 5
-1.2812161 2.3431003 0.4164384 7
-1.2750806 2.3328466 0.32173505 11
-1.2888442 2.3590064 0.23183426 13
-1.2819638 2.3473868 0.13816692 13
-1.2735075 2.3328843 0.045725301 14
-0.94708884 1.7385271 -0.52022654 3
-1.0830455 1.9889225 -0.51401347 4
-1.2783868 2.3486266 -0.51186246 5
-1.2786313 2.3500526 -0.41768035 13
-1.2891603 2.3703892 -0.32661018 15
-1.2720057 2.3398199 -0.22965574 13
-1.272288 2.3413131 -0.13718553 12
-1.2638561 2.3267643 -0.045095682 9
-1.2765673 2.3511441 0.70611572 9
-1.3103855 2.4144342 0.62489116 9
-1.277447 2.3547237 0.5128153 5
-1.2706752 2.3432169 0.41565707 7
-1.2645646 2.3329203 0.32112572 11
-1.2782291 2.3591118 0.23139849 13
-1.2713841 2.3474567 0.13790524 13
-1.2629825 2.3329163 0.04563804 13
-0.94330996 1.7460715 -0.52152056 3
-1.0760962 1.9926908 -0.51401347 4
-1.2701808 2.3530748 -0.51186246 6
-1.2657303 2.3458092 -0.416116 13
-1.2785224 2.370507 -0.32600087 15
-1.2614666 2.3398614 -0.22921994 13
-1.25937 2.3369489 -0.13666391 11
-1.2533557 2.3267605 -0.045009293 10
-1.2660626 2.3513329 0.70482248 9
-1.2996404 2.4147031 0.6237672 10
-1.2668942 2.3548462 0.5118621 6
-1.260149 2.3432887 0.41487581 7
-1.2517141 2.328578 0.31990701 10
-1.2652712 2.3547835 0.23052694 13
-1.2608196 2.3474815 0.13764356 13
-1.2501019 2.3285012 0.045463517 13
-0.93949008 1.7536107 -0.52281469 3
-1.0714339 2.00073 -0.51513821 3
-1.2619593 2.3574941 -0.51186246 6
-1.2552043 2.3458591 -0.41533384 13
-1.2655588 2.3662033 -0.32478216 15
-1.2485945 2.3354654 -0.22834839 13
-1.2488514 2.3369267 -0.13640311 11
-1.2405152 2.3223026 -0.044836514 9
-1.2532974 2.3472168 0.70223594 9
-1.2843215 2.4063306 0.62039554 10
-1.2540457 2.3505929 0.50995576 5
-1.249638 2.3433156 0.41409445 7
-1.2389094 2.3241742 0.31868833 11
-1.2547015 2.35479 0.23009115 12
-1.2479234 2.3430543 0.1371202 13
-1.239617 2.328438 0.045376252 13
-0.93336314 1.7568794 -0.52281469 3
-1.0644436 2.004458 -0.51513821 3
-1.2537224 2.3618848 -0.51186246 6
-1.2423788 2.3415015 -0.41376951 13
-1.2549663 2.3662221 -0.32417279 15
-1.2381017 2.3354089 -0.22791262 13
-1.2360104 2.3324478 -0.1358815 12
-1.2300612 2.3222008 -0.04475012 9
-1.2428365 2.3473091 0.70094275 10
-1.2713561 2.4021869 0.61814773 11
-1.2412425 2.3462789 0.50804937 5
-1.2368333 2.3389318 0.41253185 6
-1.2261506 2.3197095 0.31746963 10
-1.2441473 2.3547513 0.22965539 13
-1.2374051 2.3429809 0.13685852 14
-1.2268139 2.3239088 0.04520173 13
-0.9224171 1.7517419 -0.52022654 3
-1.0570897 2.0083456 -0.51513821 3
-1.2450572 2.3664641 -0.51186246 6
-1.2314898 2.3416681 -0.41298732 14
-1.2416668 2.3620205 -0.32295412 15
-1.2272166 2.3355215 -0.22747684 13
-1.2228098 2.3281214 -0.13535988 12
-1.2168939 2.3178408 -0.044577342 9
-1.2297361 2.3432951 0.69835621 11
-1.2557533 2.393887 0.61477602 11
-1.2303554 2.3464653 0.50709617 5
-1.2259599 2.3390751 0.41175056 6
-1.2153372 2.319792 0.31686029 10
-1.2308868 2.3504708 0.22878383 13
-1.2241782 2.3386531 0.13633516 13
-1.2136527 2.3195307 0.045027204 13
-0.91406143 1.7506698 -0.5189324 3
-1.0523268 2.0163422 -0.51626295 3
-1.234519 2.3664441 -0.51090926 7
-1.221025 2.341574 -0.41220516 13
-1.2311205 2.3619394 -0.32234478 15
-1.2167553 2.3353739 -0.22704107 14
-1.2123692 2.3279469 -0.13509907 12
-1.2041788 2.3132057 -0.044404563 9
-1.2193195 2.3432889 0.69706297 11
-1.2406451 2.385289 0.6114043 12
-1.2176288 2.342036 0.50518978 5
-1.2155102 2.338958 0.41096923 6
-1.2026567 2.3152122 0.31564158 9
-1.2203792 2.3503323 0.22834805 12
-1.2137071 2.3384802 0.13607349 14
-1.2032406 2.3193185 0.044939946 13
-0.90380883 1.7451142 -0.51634425 3
-1.0459871 2.0196383 -0.51626295 3
-1.2270784 2.3703105 -0.51090926 7
-1.2091235 2.3366263 -0.41064081 14
-1.2191342 2.3569796 -0.32112607 15
-1.2048373 2.3303359 -0.22616951 13
-1.2004648 2.3228724 -0.13457744 11
-1.1946113 2.3125358 -0.044318173 9
-1.2075199 2.3385248 0.69447643 11
-1.2264416 2.3761866 0.60803258 9
-1.2057643 2.3371258 0.50328338 5
-1.203629 2.3339868 0.4094066 6
-1.1931036 2.314568 0.31503224 10
-1.210708 2.3497269 0.22791228 12
-1.201782 2.3334036 0.13555013 14
-1.1913778 2.3141944 0.04476542 13
-0.89801681 1.7481017 -0.51634425 3
-1.0389309 2.0232773 -0.51626295 3
-1.2187971 2.3745794 -0.51090926 9
-1.1987054 2.3364387 -0.40985861 14
-1.2086347 2.3568048 -0.32051674 15
-1.1944233 2.3300946 -0.22573371 13
-1.1900724 2.3226051 -0.13431664 11
-1.1819739 2.3077922 -0.04414539 9
-1.1971486 2.3384264 0.69318318 11
-1.209262 2.3631046 0.60353696 10
-1.1953638 2.3369508 0.50233024 5
-1.1932263 2.3337767 0.4086253 6
-1.1827586 2.3142996 0.31442288 9
-1.2002326 2.349503 0.22747648 12
-1.191359 2.3331375 0.13528845 13
-1.1810198 2.3138862 0.044678159 13
-0.89379478 1.7556854 -0.51763833 3
-1.0315082 2.0270715 -0.51626295 3
-1.2123109 2.3834054 -0.51186246 10
-1.1878958 2.3364143 -0.40907648 13
-1.1977402 2.3567948 -0.3199074 15
-1.1813632 2.3255751 -0.22486216 13
-1.1770303 2.318047 -0.13379502 11
-1.171245 2.307651 -0.044059001 9
-1.1841995 2.3341839 0.69059664 12
-1.1983891 2.3631754 0.602413 10
-1.1823521 2.3325603 0.50042385 5
-1.1824325 2.3337288 0.40784398 6
-1.1697837 2.3097644 0.3132042 9
-1.1871139 2.3449984 0.22660492 12
-1.1782907 2.3285778 0.13476509 13
-1.1702745 2.3137383 0.044590894 13
-0.88983685 1.7631062 -0.5189324 3
-1.0244261 2.0306597 -0.51626295 3
-1.2061939 2.3920054 -0.51281571 11
-1.1752874 2.3317268 -0.40751213 14
-1.1850401 2.3520973 -0.31868869 15
-1.170998 2.3252361 -0.22442639 13
-1.1644413 2.3132215 -0.13327339 11
-1.1586885 2.3027937 -0.043886222 8
-1.1738743 2.3339887 0.68930346 12
-1.1857561 2.3586383 0.60016519 11
-1.1697949 2.3279016 0.49851748 5
-1.1720625 2.3334293 0.40706271 5
-1.1594872 2.3093984 0.31259486 9
-1.176687 2.3446763 0.22616915 12
-1.1679164 2.3282135 0.13450339 13
-1.1577092 2.3088713 0.044416368 13
-0.88367707 1.7662015 -0.5189324 3
-1.0173315 2.0342233 -0.51626295 3
-1.1934475 2.3874207 -0.51090926 14
-1.1649337 2.3313975 -0.40672994 14
-1.1746051 2.3517799 -0.31807932 15
-1.1584246 2.3203964 -0.22355483 13
-1.1541301 2.3128042 -0.13301259 11
-1.1484118 2.3023508 -0.043799829 9
-1.1614099 2.329427 0.68671691 12
-1.1731694 2.3540421 0.59791738 11
-1.1594734 2.3275776 0.49756429 5
-1.1617088 2.3330853 0.40628135 6
-1.1469964 2.3045459 0.31137615 9
-1.1662766 2.3443093 0.22573337 12
-1.1553358 2.3233342 0.13398004 13
-1.1474178 2.3084219 0.044329111 13
-0.8796525 1.7736022 -0.52022654 3
-1.0102246 2.0377622 -0.51626295 3
-1.17421 2.3695824 -0.50614333 14
-1.1524044 2.3265989 -0.40516558 14
-1.1619848 2.3469706 -0.31686065 15
-1.1481085 2.3199615 -0.22311905 13
-1.1416221 2.3078678 -0.13249098 11
-1.1359364 2.2973824 -0.04362705 9
-1.1489916 2.3248072 0.68413043 12
-1.1606293 2.3493865 0.59566957 11
-1.1469952 2.3228087 0.49565789 5
-1.1491861 2.3282692 0.40471876 5
-1.1367493 2.3040853 0.31076682 8
-1.1536803 2.3394318 0.22486182 11
-1.1450112 2.3228743 0.13371836 14
-1.1349337 2.3034439 0.044154584 13
-0.873146 1.7768143 -0.52022654 3
-1.0006012 2.0370784 -0.51513821 3
-1.1590275 2.3606522 -0.50328374 16
-1.1416937 2.3263738 -0.40438342 13
-1.1511893 2.3467584 -0.31625131 14
-1.1352119 2.3152096 -0.22224748 13
-1.1309581 2.3075526 -0.13223016 11
-1.1253091 2.2970412 -0.04354066 8
-1.1383388 2.3246651 0.68283719 13
-1.1477269 2.3448727 0.59342182 12
-1.1363169 2.3225884 0.49470475 6
-1.1384753 2.3280292 0.40393746 5
-1.123938 2.299319 0.30954811 8
-1.1429116 2.3391693 0.22442605 11
-1.1321074 2.3180821 0.133195 13
-1.1242903 2.3030956 0.044067323 13
-0.86693841 1.7798514 -0.52022654 3
-0.99348444 2.0405588 -0.51513821 3
-1.1421889 2.3470299 -0.49947101 15
-1.1314058 2.3259039 -0.40360126 14
-1.1386504 2.341836 -0.3150326 15
-1.1249461 2.314678 -0.2218117 13
-1.1207147 2.3069954 -0.13196936 11
-1.1129168 2.291961 -0.043367881 9
-1.1259995 2.3199341 0.68025064 12
-1.1352816 2.3400979 0.59117401 12
-1.126061 2.322124 0.49375153 5
-1.1260339 2.3231008 0.40237483 5
-1.1137412 2.2987618 0.30893877 7
-1.1325684 2.3386614 0.22399026 11
-1.1218333 2.3175254 0.13293332 13
-1.1140668 2.302506 0.043980062 13
-0.85862046 1.7785174 -0.5189324 3
-0.98635542 2.0440142 -0.51513821 4
-1.1275922 2.3377399 -0.49661148 15
-1.1189907 2.3209424 -0.40203691 14
-1.1283145 2.3413258 -0.31442326 15
-1.1146981 2.3141034 -0.22137593 13
-1.1104887 2.3063941 -0.13170855 11
-1.1027415 2.291327 -0.043281488 8
-1.1158009 2.3194983 0.67895746 13
-1.1228836 2.3352649 0.5889262 13
-1.113696 2.317193 0.49184516 6
-1.1157793 2.3225658 0.40159351 5
-1.1014137 2.2936883 0.30772007 7
-1.1200873 2.3336196 0.22311871 11
-1.1115769 2.3169255 0.13267164 13
-1.1016996 2.2973654 0.04380554 13
-0.8524071 1.7815037 -0.5189324 3
-0.97711235 2.0430496 -0.51401347 4
-1.1130743 2.328377 -0.49375188 17
