# .PCD v0.7 - Point Cloud Data file format
VERSION 0.7
FIELDS x y z intensity
SIZE 4 4 4 4
TYPE F F F F
COUNT 1 1 1 1
WIDTH 1366
HEIGHT 1
VIEWPOINT 0 0 0 1 0 0 0
POINTS 1366
DATA ascii
-1.9859746 2.4886775 -0.16430967 15
-1.9754509 2.4763768 -0.054080263 12
-1.9871968 2.491993 0.84320045 10
-1.9826508 2.4871824 0.72491866 10
-1.9692605 2.4712694 0.60622776 8
-1.9808263 2.4866741 0.49691334 13
-1.974504 2.4796252 0.38449776 13
-1.9812403 2.4889762 0.27497637 11
-1.9824798 2.4914255 0.16485825 13
-1.9626492 2.4673877 0.054364245 12
-1.2310778 1.5504518 -0.52022654 3
-1.4079431 1.7738365 -0.51401347 4
-1.6864579 2.1254926 -0.51948798 4
-1.9786289 2.4946184 -0.49824417 13
-1.9939724 2.5148647 -0.38937297 12
-1.9729291 2.4892163 -0.27454099 13
-1.967973 2.4838538 -0.16352725 15
-1.9574831 2.4715002 -0.053821094 11
-1.9694917 2.4875543 0.83932066 10
-1.9648861 2.4826274 0.72154701 10
-1.9514858 2.4665806 0.60336822 8
-1.9629434 2.4819527 0.49456945 13
-1.9566029 2.4748232 0.38266972 13
-1.9663631 2.488061 0.2741048 11
-1.9644852 2.4865768 0.16407321 13
-1.9478225 2.4663813 0.054189719 12
-1.2229387 1.5507333 -0.5189324 3
-1.4023635 1.7782509 -0.51401347 4
-1.679772 2.1307802 -0.51948798 4
-1.9646685 2.4930644 -0.49667984 12
-1.9768487 2.5094216 -0.38754493 12
-1.9558543 2.4836624 -0.27323368 14
-1.9508944 2.4782538 -0.16274482 15
-1.9435257 2.4697802 -0.053648315 11
-1.9556948 2.4861372 0.83673418 10
-1.9480423 2.4772985 0.71817523 10
-1.9376607 2.4649818 0.60146183 8
-1.9459823 2.4764578 0.4922255 13
-1.9396218 2.46925 0.3808417 13
-1.9493085 2.4824736 0.27279747 11
-1.9504977 2.4848809 0.16354986 13
-1.9308113 2.4606853 0.053927932 12
-1.2177895 1.5547801 -0.5189324 3
-1.3961478 1.7831353 -0.51401347 3
-1.6723239 2.1366308 -0.51948798 4
-1.9468248 2.488239 -0.4943333 12
-1.9589052 2.5045795 -0.38571692 12
-1.9410369 2.4826267 -0.27236211 14
-1.9360821 2.4771805 -0.1622232 11
-1.9287373 2.4686706 -0.053475533 11
-1.938086 2.4815292 0.83285445 10
-1.9303882 2.4725623 0.71480352 9
-1.9199849 2.4601221 0.59860224 8
-1.9312505 2.4754479 0.49066287 13
-1.9218348 2.4642653 0.37901363 13
-1.9345059 2.4814062 0.27192593 11
-1.9326041 2.4798589 0.16276482 13
-1.9160656 2.4595225 0.05375341 12
-1.2120829 1.5592332 -0.5189324 3
-1.3925924 1.7920876 -0.51513821 4
-1.6644816 2.1427457 -0.51948798 3
-1.9286053 2.4836562 -0.49198681 13
-1.940583 2.4999816 -0.38388884 12
-1.9227638 2.4779184 -0.27105477 14
-1.9178089 2.4724238 -0.16144077 11
-1.9104857 2.463871 -0.053216361 11
-1.9201009 2.4771638 0.82897466 9
-1.9123608 2.4680674 0.7114318 9
-1.9049439 2.4593818 0.59669584 8
-1.9130943 2.4707952 0.48831898 12
-1.9036771 2.4595194 0.37718561 13
-1.9162544 2.4766617 0.27061859 11
-1.9173923 2.4790263 0.16224146 14
-1.8978643 2.4546635 0.053491622 12
-1.2066327 1.5634547 -0.5189324 3
-1.3863283 1.7969376 -0.51513821 4
-1.656992 2.1485429 -0.51948798 4
-1.9138937 2.4825511 -0.49042246 13
-1.9227567 2.4949479 -0.38206083 12
-1.9080229 2.4767237 -0.27018321 14
-1.9000269 2.4672348 -0.16065834 11
-1.8957745 2.4626019 -0.053043582 11
-1.9026057 2.472368 0.82509488 9
-1.8977926 2.4670045 0.70918405 9
-1.8873714 2.454344 0.59383631 8
-1.8984383 2.4696271 0.48675635 13
-1.8890325 2.4582791 0.37596691 13
-1.9015287 2.4754353 0.26974702 11
-1.9026452 2.4777837 0.1617181 13
-1.8801525 2.4493768 0.053229839 12
-1.2008944 1.5678667 -0.5189324 3
-1.379733 1.8020067 -0.51513821 4
-1.6491059 2.1546016 -0.51948798 4
-1.8957791 2.4777827 -0.48807591 13
-1.9075694 2.4940944 -0.38084212 13
-1.8898566 2.4718294 -0.2688759 14
-1.8849072 2.4662478 -0.16013673 12
-1.8776308 2.4576161 -0.052784409 11
-1.8847367 2.4678094 0.82121515 9
-1.8798684 2.462326 0.70581228 9
-1.8694296 2.4495392 0.59097672 8
-1.8833829 2.4687157 0.48519373 13
-1.8709813 2.4533477 0.37413886 13
-1.8833836 2.4705045 0.26843968 11
-1.8844715 2.4728265 0.16093306 13
-1.8651034 2.4482977 0.053055312 12
-1.1954141 1.5720491 -0.5189324 3
-1.3734343 1.8068119 -0.51513821 4
-1.6386055 2.1564372 -0.51853484 4
-1.8811442 2.4765201 -0.48651159 13
-1.8898482 2.4888806 -0.37901407 13
-1.8751938 2.4704762 -0.26800433 14
-1.8672324 2.4608791 -0.1593543 12
-1.8629984 2.4561889 -0.052611627 11
-1.8702747 2.4666762 0.81862867 8
-1.8653759 2.4611075 0.70356447 9
-1.8519753 2.4443133 0.58811718 9
-1.8658087 2.4634643 0.48284978 13
-1.856415 2.4519506 0.37292019 13
-1.8687365 2.4691203 0.26756814 10
-1.8698028 2.4714253 0.16040969 13
-1.8474939 2.4428353 0.052793525 12
-1.1896442 1.5764198 -0.5189324 3
-1.3668028 1.8118336 -0.51513821 4
-1.6306907 2.1624284 -0.51853484 4
-1.8631365 2.4715676 -0.48416507 14
-1.87474 2.4878635 -0.37779537 13
-1.8571355 2.4653969 -0.26669699 14
-1.852193 2.4597287 -0.15883268 12
-1.8479704 2.4550123 -0.052438848 11
-1.8525091 2.4619365 0.81474888 8
-1.8504857 2.4601409 0.70131665 9
-1.8371046 2.4432387 0.58621085 8
-1.8508328 2.4623909 0.48128715 13
-1.8414536 2.450803 0.37170148 12
-1.8507 2.464005 0.26626077 11
-1.8517382 2.4662833 0.15962467 13
-1.8325313 2.4415896 0.052619003 13
-1.1841342 1.5805629 -0.5189324 3
-1.3604699 1.8165936 -0.51513821 3
-1.6231325 2.1681073 -0.51853484 4
-1.84858 2.4701486 -0.48260072 13
-1.8600988 2.486445 -0.37657669 13
-1.8425524 2.4638865 -0.26582542 14
-1.834627 2.4541817 -0.15805025 12
-1.8304118 2.4494343 -0.052179679 11
-1.8352327 2.4567797 0.81086916 8
-1.8360567 2.4587777 0.69906884 8
-1.8197566 2.4378364 0.58335125 8
-1.8333653 2.4569621 0.47894323 12
-1.8239856 2.4452822 0.36987343 13
-1.8361329 2.4624636 0.26538923 11
-1.8341657 2.4607217 0.15883961 13
-1.8150314 2.4359493 0.052357219 12
-1.1786097 1.5846868 -0.5189324 3
-1.3541207 1.8213315 -0.51513821 4
-1.6184822 2.1776993 -0.51948798 4
-1.8311108 2.4646935 -0.4802542 12
-1.8454905 2.4849544 -0.37535799 13
-1.8280025 2.4623046 -0.26495388 14
-1.8200978 2.4525511 -0.15752864 12
-1.8158935 2.4477787 -0.0520069 11
-1.8208919 2.4554119 0.80828267 8
-1.82166 2.4573441 0.69682103 9
-1.8053913 2.4362867 0.58144486 8
-1.8188987 2.45541 0.4773806 13
-1.8095322 2.4436574 0.36865473 13
-1.8186357 2.4568477 0.2640819 11
-1.8196253 2.4590816 0.15831625 14
-1.8005767 2.4342277 0.052182693 12
-1.173071 1.5887911 -0.5189324 4
-1.3477547 1.8260472 -0.51513821 3
-1.6108707 2.1833355 -0.51948798 5
-1.8166339 2.4631217 -0.47868985 13
-1.830915 2.4833922 -0.37413931 12
-1.8105309 2.4566414 -0.26364651 14
-1.8026406 2.4468293 -0.15674621 12
-1.7984443 2.4420259 -0.051747728 11
-1.8037195 2.4500844 0.80440289 7
-1.8044081 2.451916 0.69344938 8
-1.7910589 2.4346666 0.57953846 8
-1.8044651 2.4537871 0.47581798 13
-1.7921729 2.4379632 0.36682671 13
-1.8041496 2.4551535 0.26321036 11
-1.8021622 2.4533463 0.15753123 13
-1.7831918 2.4284093 0.051920906 12
-1.1675179 1.5928763 -0.5189324 3
-1.3413724 1.8307407 -0.51513821 3
-1.6032397 2.1889453 -0.51948798 5
-1.7992727 2.4574938 -0.4763433 13
-1.8134421 2.4777539 -0.37231123 13
-1.7960624 2.4549065 -0.26277497 14
-1.7881935 2.4450464 -0.15622459 12
-1.7840081 2.4402175 -0.051574945 12
-1.7894565 2.4485667 0.8018164 7
-1.7900903 2.4503314 0.69120157 9
-1.7738651 2.4290121 0.57667893 8
-1.7871531 2.4481046 0.47347406 13
-1.7778013 2.4361868 0.36560804 13
-1.7896978 2.453388 0.26233879 11
-1.7877036 2.4515531 0.15700787 13
-1.7688147 2.4265392 0.051746383 12
-1.1619507 1.5969419 -0.5189324 3
-1.3349738 1.8354118 -0.51513821 3
-1.5927029 2.1905584 -0.51853484 4
-1.7848766 2.45577 -0.47477898 13
-1.798948 2.4760392 -0.37109256 13
-1.7816281 2.4531007 -0.26190341 14
-1.7708472 2.4391515 -0.15544216 12
-1.7666703 2.4342921 -0.051315777 11
-1.775226 2.446979 0.79922986 7
-1.7729452 2.4447327 0.68782979 9
-1.7596139 2.4272413 0.57477254 8
-1.7728008 2.4463301 0.47191146 13
-1.7605522 2.4303205 0.36377996 13
-1.7723585 2.4475172 0.26103145 11
-1.7703515 2.4456444 0.15622282 14
-1.7544721 2.4245985 0.051571857 13
-1.1563693 1.6009881 -0.5189324 3
-1.3257068 1.8361105 -0.51401347 3
-1.5850466 2.1961048 -0.51853484 4
-1.7676251 2.4499707 -0.47243246 13
-1.7815853 2.4702284 -0.36926451 13
-1.7672285 2.4512241 -0.26103184 14
-1.7564833 2.4372165 -0.15492055 12
-1.7523178 2.4323316 -0.051142998 11
-1.7610286 2.4453225 0.79664338 7
-1.7587076 2.4429984 0.68558204 9
-1.7453966 2.425401 0.57286614 8
-1.7584829 2.4444854 0.47034883 13
-1.7462633 2.4283929 0.36256129 13
-1.7579898 2.4456003 0.26015988 11
-1.7559764 2.4436994 0.15569946 13
-1.740165 2.4225874 0.051397335 13
-1.1535879 1.6089401 -0.52022654 3
-1.3192894 1.8407269 -0.51401347 3
-1.5745122 2.197634 -0.51758158 4
-1.7533115 2.4480963 -0.47086814 13
-1.7671738 2.4683616 -0.36804584 13
-1.7528636 2.4492767 -0.2601603 14
-1.7421547 2.4352107 -0.15439893 12
-1.7380006 2.4303005 -0.050970219 11
-1.7468646 2.4435964 0.79405689 7
-1.7416712 2.4372308 0.68221027 8
-1.7283605 2.419497 0.57000661 8
-1.7413293 2.4385514 0.46800488 12
-1.7291261 2.4223559 0.36073324 12
-1.7407628 2.439558 0.25885257 10
-1.7416365 2.441684 0.1551761 13
-1.7258931 2.420506 0.051222809 12
-1.1479647 1.612957 -0.52022654 3
-1.3128562 1.8453208 -0.51401347 3
-1.5668316 2.2031167 -0.51758158 4
-1.7390324 2.4461515 -0.46930379 13
-1.7499224 2.4623795 -0.36621779 13
-1.7356496 2.4431987 -0.25885296 14
-1.7278614 2.433135 -0.15387732 12
-1.723719 2.4281993 -0.050797433 11
-1.7299389 2.4378626 0.79017711 7
-1.7275156 2.435348 0.67996246 9
-1.7142262 2.4175076 0.56810021 8
-1.7270947 2.4365568 0.46644226 13
-1.7149217 2.4202785 0.35951456 13
-1.7264786 2.4374905 0.257981 11
-1.7273322 2.4395986 0.15465274 14
-1.7116573 2.418355 0.051048286 13
-1.1423274 1.6169543 -0.52022654 3
-1.3092173 1.8538719 -0.51513821 3
-1.5591317 2.2085726 -0.51758158 5
-1.7247883 2.4441371 -0.46773943 13
-1.7355951 2.4603624 -0.36499909 13
-1.7213696 2.4411008 -0.25798139 14
-1.7136042 2.4309895 -0.15335569 12
-1.7094733 2.426028 -0.050624654 11
-1.7158558 2.4359889 0.78759056 6
-1.713394 2.4333961 0.67771465 8
-1.7001269 2.4154491 0.56619388 8
-1.7100537 2.4304538 0.46409836 13
-1.7007529 2.4181314 0.35829583 13
-1.7122301 2.4353528 0.25710946 11
-1.7130638 2.4374428 0.15412939 14
-1.6974576 2.4161336 0.050873764 12
-1.1339033 1.6169776 -0.5189324 3
-1.3055345 1.8624197 -0.51626295 3
-1.5514129 2.2140014 -0.51758158 4
-1.7105799 2.4420533 -0.46617511 13
-1.7213032 2.4582753 -0.36378038 13
-1.7071255 2.4389334 -0.25710985 14
-1.6993828 2.4287736 -0.15283407 12
-1.6952639 2.4237874 -0.050451875 11
-1.7018073 2.4340472 0.78500408 6
-1.6993074 2.4313753 0.67546684 8
-1.6832517 2.4092982 0.56333429 8
-1.6959039 2.4283102 0.46253574 13
-1.68662 2.415915 0.35707715 13
-1.6980175 2.4331453 0.25623786 10
-1.6988316 2.4352174 0.15360603 14
-1.6832941 2.4138427 0.050699238 13
-1.1282521 1.6209258 -0.5189324 3
-1.3018081 1.8709649 -0.51738775 3
-1.5436751 2.2194035 -0.51758158 4
-1.6935873 2.4358451 -0.46382856 12
-1.7042149 2.4520435 -0.36195236 13
-1.6929175 2.4366961 -0.25623828 14
-1.6851981 2.4264884 -0.15231246 12
-1.6782398 2.4173701 -0.050192706 11
-1.6850394 2.4280686 0.78112435 5
-1.685256 2.429286 0.67321903 7
-1.6692375 2.4070923 0.56142789 7
-1.6817904 2.4260981 0.46097311 12
-1.6725234 2.4136295 0.35585845 13
-1.6838412 2.4308684 0.25536633 10
-1.6846356 2.4329224 0.15308267 14
-1.6691675 2.4114828 0.050524715 13
-1.1225871 1.6248542 -0.5189324 3
-1.2925006 1.8714888 -0.51626295 3
-1.5359185 2.2247782 -0.51758158 4
-1.6794646 2.4336131 -0.46226421 13
-1.6900091 2.4498072 -0.36073366 13
-1.6759186 2.4302893 -0.25493094 15
-1.6710498 2.424134 -0.15179083 11
-1.6641183 2.4149806 -0.050019924 12
-1.671074 2.4259808 0.77853787 5
-1.6684768 2.4231157 0.66984737 7
-1.655259 2.4048181 0.55952156 7
-1.6677123 2.4238164 0.45941046 12
-1.6584634 2.4112749 0.35463977 13
-1.6697016 2.4285223 0.25449476 11
-1.6704767 2.4305582 0.15255931 14
-1.6550779 2.4090536 0.050350189 13
-1.1141772 1.6247799 -0.51763833 3
-1.2804509 1.8679522 -0.51401347 3
-1.5281432 2.2301261 -0.51758158 4
-1.6653779 2.4313121 -0.46069989 13
-1.67584 2.4475021 -0.35951498 13
-1.6617982 2.4279037 -0.25405937 14
-1.6569387 2.4217105 -0.15126921 12
-1.6500337 2.4125218 -0.049847145 11
-1.6571437 2.423825 0.77595139 5
-1.6545104 2.4208801 0.66759956 7
-1.6413171 2.4024758 0.55761516 7
-1.6536713 2.4214664 0.45784783 12
-1.6444402 2.4088521 0.35342106 12
-1.6555991 2.4261074 0.25362322 10
-1.6563548 2.4281247 0.15203595 14
-1.6410258 2.4065557 0.050175667 12
-1.1166512 1.6406369 -0.52152056 3
-1.2684418 1.8643545 -0.51176393 3
-1.5175892 2.2313883 -0.51662844 4
-1.6513277 2.4289424 -0.45913553 13
-1.6617074 2.4451277 -0.35829625 13
-1.6449163 2.421329 -0.25275204 14
-1.6400599 2.4150875 -0.1504868 12
-1.6331789 2.4058578 -0.049587972 12
-1.6432489 2.4216015 0.77336484 5
-1.6405798 2.4185767 0.66535175 7
-1.6274116 2.4000657 0.55570877 7
-1.6396669 2.4190481 0.45628521 13
-1.6304544 2.4063606 0.35220239 12
-1.6415339 2.4236236 0.25275165 11
-1.6422702 2.4256225 0.15151259 14
-1.624209 2.3998485 0.049913879 13
-1.1001034 1.6285167 -0.51634425 3
-1.2537471 1.8566585 -0.50838971 3
-1.5097909 2.2366722 -0.51662844 4
-1.6373147 2.4265046 -0.45757118 13
-1.6476117 2.4426844 -0.35707757 12
-1.6308849 2.4187963 -0.25188047 14
-1.6260383 2.4125166 -0.14996518 11
-1.6191841 2.4032524 -0.049415193 11
-1.6320878 2.423317 0.7720716 5
-1.6266857 2.4162059 0.66310394 7
-1.6135432 2.3975875 0.55380243 7
-1.6256996 2.4165616 0.45472261 12
-1.6165059 2.403801 0.35098368 12
-1.630285 2.4252052 0.25231588 11
-1.6282233 2.4230516 0.15098923 13
-1.6102471 2.3972037 0.049739353 13
-1.0971017 1.6363583 -0.51763833 4
-1.2553954 1.8731643 -0.51176393 3
-1.5019743 2.2419286 -0.51662844 5
-1.6233386 2.4239986 -0.45600685 13
-1.6335537 2.4401729 -0.35585886 14
-1.6168916 2.4161954 -0.25100893 14
-1.6120547 2.4098773 -0.14944357 12
-1.6052277 2.400578 -0.049242411 12
-1.6101989 2.408922 0.76560533 4
-1.6155348 2.4178181 0.66198003 7
-1.6024379 2.3991237 0.55284917 7
-1.6117698 2.4140072 0.45315999 12
-1.6025952 2.4011734 0.349765 12
-1.6162808 2.4225943 0.25144431 11
-1.6142145 2.4204123 0.15046588 13
-1.5963234 2.3944907 0.049564831 13
nan nan nan 0
-1.2569437 1.8897047 -0.51513821 3
-1.4968568 2.251245 -0.51758158 5
-1.6094003 2.4214246 -0.4544425 13
-1.6195333 2.437593 -0.35464019 13
-1.6029363 2.4135263 -0.25013736 14
-1.5981092 2.4071701 -0.14892195 10
-1.5913095 2.3978357 -0.049069632 12
-1.6231403 2.4467261 0.77595139 8
-1.6017001 2.4153221 0.65973222 7
-1.5886297 2.3965206 0.55094284 7
-1.5978775 2.4113851 0.45159736 11
-1.5887226 2.3984783 0.3485463 12
-1.6023148 2.4199152 0.25057277 9
-1.600244 2.4177046 0.14994252 12
-1.582438 2.3917096 0.049390309 12
nan nan nan 0
-1.2557077 1.9022124 -0.51738775 3
-1.4889894 2.2564561 -0.51758158 4
-1.5954995 2.4187829 -0.45287815 13
-1.6055509 2.4349451 -0.35342148 13
-1.5917604 2.414948 -0.24970159 14
-1.5842026 2.4043946 -0.14840032 11
-1.5774302 2.3950257 -0.048896853 11
-1.6225574 2.464479 0.77983105 8
-1.5879023 2.4127586 0.65748441 6
-1.5748594 2.3938503 0.54903644 7
-1.5840235 2.4086955 0.45003474 13
-1.5748885 2.3957152 0.34732762 12
-1.5911224 2.4213307 0.25013697 10
-1.5835708 2.4107556 0.14915746 14
-1.568592 2.3888612 0.049215782 11
-1.0719639 1.635639 -0.51375604 4
-1.2597393 1.9228848 -0.52188677 3
-1.4811039 2.2616401 -0.51758158 5
-1.581637 2.4160738 -0.45131379 12
-1.5943242 2.4363823 -0.35281214 13
-1.5778676 2.4121528 -0.24883004 14
-1.5676022 2.3973727 -0.14761789 11
-1.56359 2.3921483 -0.04872407 12
-1.6165868 2.4741712 0.78112435 8
-1.5741421 2.4101286 0.6552366 6
-1.5611272 2.391113 0.54713005 6
-1.5702077 2.4059386 0.44847211 12
-1.5610931 2.3928852 0.34610891 13
-1.5744983 2.4143538 0.24882965 9
-1.5696926 2.4079032 0.14863411 12
-1.554785 2.3859451 0.04904126 13
-1.0817569 1.6638513 -0.52152056 3
-1.2367542 1.9029794 -0.51513821 3
-1.4701308 2.2629375 -0.51662844 4
-1.5673918 2.4135711 -0.44974947 13
-1.5799793 2.4338844 -0.35159346 13
-1.5635934 2.4095631 -0.24795848 14
-1.5533701 2.3947239 -0.14709628 12
-1.5493722 2.3894737 -0.048551291 11
-1.6022538 2.4719739 0.77853787 8
-1.5573503 2.4036157 0.65186483 6
-1.5496846 2.3926992 0.54617691 6
-1.556011 2.4033864 0.44690952 12
-1.5469196 2.3902583 0.34489024 12
-1.5602274 2.4117441 0.24795809 10
-1.5554339 2.4052544 0.14811075 13
-1.5406017 2.3832309 0.048866734 12
-1.0497587 1.6270347 -0.50857961 4
-1.230104 1.9072849 -0.51513821 3
-1.459563 2.2639301 -0.51567525 4
-1.5536069 2.4107256 -0.44818512 12
-1.5660986 2.4310408 -0.35037476 13
-1.5497794 2.4066308 -0.24708691 14
-1.5395963 2.3917346 -0.14657466 12
-1.5383165 2.3906634 -0.048464898 11
-1.5857766 2.4653652 0.77465808 8
-1.5436808 2.400841 0.64961702 5
-1.5360155 2.3898361 0.54427052 6
-1.542273 2.4004934 0.44534689 12
-1.533203 2.3872919 0.34367153 13
-1.5437267 2.4046009 0.24665076 10
-1.541635 2.4022648 0.14758739 13
-1.5268689 2.3801818 0.048692212 11
-1.072719 1.6754302 -0.52281469 3
-1.2076813 1.8869468 -0.50838971 3
-1.4516516 2.2690113 -0.51567525 5
-1.5398611 2.4078133 -0.44662076 13
-1.5522571 2.4281297 -0.34915608 13
-1.536005 2.4036314 -0.24621536 14
-1.52855 2.3928862 -0.14631385 12
-1.5245813 2.3875914 -0.048292119 11
-1.5719638 2.4627433 0.7720716 8
-1.5248085 2.389786 0.6451214 5
-1.5197457 2.3827684 0.54141092 6
-1.5285746 2.3975337 0.44378427 12
-1.519526 2.3842592 0.34245285 12
-1.5272948 2.397372 0.2453434 11
-1.5278758 2.3992083 0.14706403 13
-1.5131876 2.377059 0.048517689 13
-1.0590942 1.6669351 -0.5189324 3
-1.2089229 1.9034883 -0.51176393 3
-1.4410917 2.2699208 -0.51472205 4
-1.5261545 2.4048343 -0.44505644 12
-1.5384551 2.4251523 -0.34793738 13
-1.5222702 2.4005651 -0.24534379 15
-1.5148416 2.3897727 -0.14579223 11
-1.513562 2.3886759 -0.04820573 10
-1.5581889 2.4600549 0.76948506 8
-1.5190636 2.3992105 0.64624536 5
-1.5061692 2.3797641 0.53950459 6
-1.5149157 2.3945081 0.44222164 12
-1.5032364 2.3769658 0.34062478 12
-1.5135939 2.3942683 0.24447185 11
-1.5141571 2.396085 0.14654067 13
-1.4995412 2.3738735 0.048343163 12
nan nan nan 0
-1.2074662 1.9159398 -0.51401347 3
-1.4331594 2.2749374 -0.51472205 4
-1.5098561 2.3976104 -0.44270989 11
-1.5246929 2.4221079 -0.34671867 13
-1.508576 2.397433 -0.24447222 14
-1.5011734 2.3865929 -0.14527062 11
-1.4998926 2.3854804 -0.048032951 13
-1.5444518 2.4573004 0.76689857 8
-1.5054957 2.3962474 0.64399755 5
-1.4926322 2.376694 0.53759819 6
-1.5012964 2.3914163 0.44065902 11
-1.4896541 2.3737912 0.3394061 11
-1.4999332 2.391098 0.24360029 11
-1.5004786 2.392895 0.14601731 14
-1.4885905 2.3748574 0.048255898 12
nan nan nan 0
-1.2033541 1.9242738 -0.51513821 3
-1.4252095 2.2799261 -0.51472205 5
-1.4962436 2.3944898 -0.44114554 13
-1.5109705 2.418997 -0.34549999 14
-1.4975601 2.3984594 -0.24403645 14
-1.4875458 2.3833466 -0.14474899 11
-1.4862641 2.3822186 -0.047860172 11
-1.5307534 2.4544804 0.76431209 8
-1.507432 2.418026 0.64849317 5
-1.4765391 2.3693926 0.5347386 6
-1.4877172 2.3882585 0.43909642 10
-1.4761125 2.3705511 0.3381874 13
-1.4889455 2.3920908 0.24316452 10
-1.4868411 2.3896394 0.14549395 13
-1.4750111 2.3715487 0.048081376 13
nan nan nan 0
-1.1991984 1.9326022 -0.51626295 3
-1.4172425 2.2848871 -0.51472205 5
-1.4826716 2.3913038 -0.43958122 13
-1.4972887 2.4158201 -0.34428129 13
-1.4839324 2.3952038 -0.2431649 14
-1.4765884 2.3842795 -0.14448819 12
-1.4726768 2.3788905 -0.047687389 12
-1.5170932 2.4515946 0.76172554 8
-1.5041083 2.4315598 0.65074098 10
-1.4630966 2.3661828 0.53283226 6
-1.4767749 2.3892362 0.43831509 11
-1.4652203 2.3714676 0.33757806 12
-1.4753519 2.3887978 0.24229297 10
-1.4732445 2.3863173 0.1449706 13
-1.461473 2.3681743 0.047906853 13
nan nan nan 0
-1.1924452 1.9367763 -0.51626295 3
-1.4092581 2.2898202 -0.51472205 5
-1.4691399 2.3880525 -0.43801686 12
-1.4810477 2.40835 -0.34245324 14
-1.4703455 2.3918824 -0.24229334 14
-1.4630286 2.3809109 -0.14396657 12
-1.4591308 2.3754971 -0.04751461 11
-1.5034719 2.4486434 0.75913906 8
-1.5007085 2.4450998 0.65298879 10
-1.4471279 2.3587248 0.52997267 6
-1.4632621 2.3859565 0.43675247 11
-1.451746 2.3681056 0.33635938 12
-1.464402 2.3896861 0.24185717 9
-1.4622977 2.3871875 0.14470892 13
-1.4479764 2.3647344 0.047732327 13
nan nan nan 0
-1.1856773 1.9409269 -0.51626295 3
-1.4012567 2.2947257 -0.51472205 5
-1.4556491 2.3847356 -0.43645251 12
-1.4674622 2.4050324 -0.34123453 14
-1.4568 2.3884954 -0.24142179 15
-1.4495102 2.3774767 -0.14344496 11
-1.4430248 2.367769 -0.047255438 10
-1.4898897 2.4456275 0.75655258 8
-1.4870963 2.4420011 0.65074098 10
-1.4312292 2.3511839 0.52711314 6
-1.4523576 2.386831 0.43597117 10
-1.4383131 2.3646789 0.33514068 11
-1.450876 2.3862712 0.24098562 10
-1.4487695 2.3837438 0.14418554 11
-1.4345216 2.3612294 0.047557805 12
nan nan nan 0
-1.1788949 1.9450539 -0.51626295 3
-1.3932379 2.299603 -0.51472205 5
-1.4447576 2.3855779 -0.43567032 13
-1.453918 2.4016492 -0.34001586 14
-1.4432962 2.3850431 -0.24055022 14
-1.4360336 2.3739774 -0.14292334 11
-1.4295775 2.3642356 -0.047082655 11
-1.4763471 2.4425461 0.75396603 9
-1.4735242 2.4388373 0.64849317 9
-1.4255508 2.3603671 0.52806634 5
-1.4389125 2.3834302 0.43440855 10
-1.4274857 2.3654361 0.33453134 11
-1.4399648 2.3870561 0.24054985 10
-1.4352829 2.3802342 0.14366218 13
-1.4211091 2.3576593 0.047383279 11
-1.0056031 1.6716211 -0.5124619 3
-1.1695877 1.9449822 -0.51513821 3
-1.3852023 2.3044522 -0.51472205 5
-1.4313347 2.3821406 -0.43410599 13
-1.4404153 2.398201 -0.33879715 14
-1.4298342 2.381526 -0.23967867 15
-1.4225992 2.3704128 -0.14240173 12
-1.4161724 2.3606374 -0.046909876 11
-1.462844 2.4394002 0.75137955 9
-1.4599922 2.4356084 0.64624536 9
-1.4223485 2.3737493 0.52997267 5
-1.4255085 2.3799651 0.43284592 10
-1.4141215 2.3618889 0.33331263 12
-1.4265077 2.3835201 0.23967829 11
-1.4218388 2.3766603 0.14313883 13
-1.407739 2.3540244 0.047208756 12
-1.0022371 1.6792684 -0.51375604 3
-1.1627914 1.9490529 -0.51513821 3
-1.3771498 2.3092735 -0.51472205 5
-1.4179534 2.3786385 -0.43254164 13
-1.4294947 2.3989511 -0.33818778 14
-1.4164145 2.3779438 -0.23880711 15
-1.4092073 2.3667836 -0.1418801 12
-1.4028099 2.3569748 -0.046737097 11
-1.4493811 2.4361901 0.74879307 9
-1.4489911 2.4365022 0.6451214 8
-1.4190701 2.3871381 0.53187907 12
-1.4121466 2.3764355 0.43128332 10
-1.4007995 2.3582768 0.33209395 11
-1.4130929 2.3799191 0.23880674 11
-1.408437 2.3730211 0.14261547 13
-1.3944118 2.3503251 0.047034234 12
-1.0012906 1.6910681 -0.51634425 3
-1.1534991 1.9489073 -0.51401347 3
-1.3690805 2.3140664 -0.51472205 5
-1.4046141 2.3750722 -0.43097728 12
-1.4160613 2.3953822 -0.33696911 14
-1.4030372 2.3742969 -0.23793554 15
-1.3958583 2.3630898 -0.14135848 12
-1.3894902 2.3532474 -0.046564315 11
-1.4359585 2.4329157 0.74620652 10
-1.4355259 2.4331529 0.64287359 9
-1.418209 2.4047604 0.5347386 12
-1.3988268 2.3728418 0.4297207 10
-1.38752 2.3546011 0.33087525 11
-1.3971927 2.3719621 0.2374994 11
-1.3950783 2.369318 0.14209211 14
-1.3811276 2.3465614 0.046859708 12
-1.0002738 1.7028815 -0.5189324 3
-1.1466893 1.9529219 -0.51401347 3
-1.3585103 2.3145983 -0.51376885 5
-1.393816 2.3757014 -0.43019515 12
-1.4051805 2.3960299 -0.33635977 14
-1.3897027 2.3705862 -0.23706399 15
-1.382552 2.3593318 -0.14083686 12
-1.3787408 2.3537698 -0.046477929 12
-1.4225764 2.4295776 0.74362004 10
-1.4221017 2.4297395 0.64062583 9
-1.4023705 2.3969867 0.53187907 11
-1.3855492 2.3691838 0.42815807 9
-1.3742833 2.3508615 0.32965657 11
-1.3838784 2.3682234 0.23662783 11
-1.3817624 2.36555 0.14156875 13
-1.3678864 2.3427336 0.046685185 13
-0.98946041 1.698017 -0.51634425 3
-1.1398653 1.9569128 -0.51401347 3
-1.3504224 2.3193264 -0.51376885 5
-1.3805466 2.3720157 -0.4286308 13
-1.3918172 2.3923411 -0.33514106 14
-1.3789154 2.3711166 -0.2366282 15
-1.3692892 2.3555098 -0.14031525 12
-1.3654927 2.3499227 -0.046305142 11
-1.4068093 2.421999 0.73974025 11
-1.4111656 2.4304755 0.63950193 9
-1.3890672 2.3933771 0.52997267 11
-1.3723142 2.3654623 0.42659545 10
-1.3610897 2.3470581 0.32843786 11
-1.3706073 2.3644211 0.23575628 11
-1.3684899 2.3617184 0.14104539 13
-1.3571949 2.3431683 0.04659792 13
-0.98594421 1.705642 -0.51763833 3
-1.1305902 1.9566615 -0.51288873 3
-1.3398633 2.3197758 -0.51281571 5
-1.3673197 2.3682668 -0.42706645 13
-1.3784965 2.3885882 -0.33392239 14
-1.3656522 2.3672864 -0.23575665 15
-1.3560697 2.351624 -0.13979362 12
-1.3547851 2.3503437 -0.046218757 12
-1.3887012 2.4101553 0.73456728 12
-1.3978097 2.4269428 0.63725412 9
-1.3758063 2.3897038 0.52806634 11
-1.3615855 2.3659577 0.42581412 10
-1.3479394 2.3431914 0.32721916 11
-1.3573797 2.3605549 0.23488472 10
-1.3552612 2.3578231 0.14052203 13
-1.3440263 2.3392222 0.046423398 12
-0.97758198 1.7048835 -0.51634425 3
-1.1237533 1.9605961 -0.51288873 3
-1.3293176 2.3201797 -0.51186246 5
-1.3565904 2.3687398 -0.42628425 13
-1.3652194 2.3847718 -0.33270368 14
-1.3524327 2.3633926 -0.23488508 15
-1.3453737 2.3520091 -0.13953282 12
-1.3416097 2.3463788 -0.046045974 11
-1.3706932 2.3982151 0.72939426 9
-1.3869127 2.4275768 0.63613021 8
-1.3650223 2.3902295 0.52711314 10
-1.3484218 2.3621182 0.4242515 9
-1.3348327 2.3392615 0.32600048 11
-1.3466637 2.3609524 0.23444895 10
-1.3445494 2.3582017 0.14026035 13
-1.3309019 2.3352125 0.046248872 12
-0.97401261 1.7124835 -0.51763833 3
-1.1193105 1.9687418 -0.51401347 3
-1.3212105 2.324806 -0.51186246 5
-1.343435 2.3648727 -0.4247199 13
-1.3544359 2.3852072 -0.33209434 14
-1.339257 2.3594356 -0.23401353 15
-1.3322273 2.3480055 -0.1390112 12
-1.3309447 2.346699 -0.045959584 11
-1.3527856 2.386179 0.72422123 10
-1.3736262 2.4239259 0.6338824 9
-1.3518322 2.3864381 0.52520674 10
-1.3377349 2.3625135 0.42347023 9
-1.3242145 2.3395879 0.32539111 11
-1.3335087 2.3569682 0.23357739 10
-1.3313935 2.354188 0.139737 14
-1.3202822 2.3354924 0.046161614 12
-0.96802902 1.715873 -0.51763833 3
-1.1100385 1.9683936 -0.51288873 3
-1.3106772 2.3251278 -0.51090926 5
-1.3303233 2.3609431 -0.42315558 13
-1.3412309 2.3812726 -0.33087564 14
-1.3285692 2.3597558 -0.23357774 15
-1.3191253 2.3439386 -0.13848959 12
-1.3178428 2.3426163 -0.045786802 11
-1.3397133 2.3824666 0.72163475 10
-1.3627696 2.4244587 0.63275844 8
-1.3410895 2.3868635 0.52425355 10
-1.3246434 2.3585567 0.4219076 9
-1.3111808 2.335541 0.32417244 10
-1.320398 2.352921 0.23270582 10
-1.3207251 2.3544667 0.13947532 13
-1.3072318 2.3313656 0.045987088 13
-0.96203363 1.7192416 -0.51763833 3
-1.1031607 1.9722564 -0.51288873 4
-1.3025529 2.3296888 -0.51090926 5
-1.3172555 2.3569505 -0.42159122 12
-1.3280698 2.3772748 -0.32965693 15
-1.3154671 2.3556812 -0.23270617 15
-1.3085017 2.3441689 -0.13822877 12
-1.3072218 2.3428366 -0.045700416 11
-1.3266835 2.3786922 0.71904826 10
-1.3495535 2.4206901 0.63051063 8
-1.3279709 2.3829553 0.52234721 10
-1.3139989 2.3588517 0.42112628 10
-1.2981917 2.3314319 0.32295373 10
-1.3097543 2.3531637 0.23227006 10
-1.3076432 2.3503356 0.13895196 14
-1.2942262 2.3271763 0.045812566 12
-0.95572579 1.7227561 -0.51763833 3
-1.0959246 1.9762863 -0.51288873 4
-1.2940055 2.3344471 -0.51090926 5
-1.303821 2.3531232 -0.42002687 13
-1.3169433 2.377785 -0.32904762 15
-1.3044118 2.3561292 -0.23227042 15
-1.2974834 2.3445802 -0.13796796 12
-1.2937863 2.3388629 -0.045527633 12
-1.313282 2.3750854 0.71646172 11
-1.3383154 2.4213562 0.62938678 9
-1.3168545 2.3835104 0.52139401 9
-1.3005695 2.3550057 0.41956365 9
-1.2872396 2.3318298 0.32234439 10
-1.2963079 2.3492262 0.23139849 10
-1.2966083 2.3507404 0.13869028 13
-1.2832742 2.3275261 0.045725301 12
-0.94970644 1.7260816 -0.51763833 3
-1.0890194 1.9800998 -0.51288873 4
-1.2858489 2.3389499 -0.51090926 5
-1.2932206 2.353332 -0.41924468 13
-1.3038567 2.3736682 -0.32782891 15
-1.2913848 2.3519359 -0.23139885 15
-1.2844865 2.3403406 -0.13744634 12
-1.2808051 2.334599 -0.045354854 11
-1.3026611 2.3754201 0.71516848 11
-1.3251712 2.4174683 0.62713897 9
-1.3038092 2.3794835 0.51948762 9
-1.2875965 2.3508682 0.41800103 9
-1.2743256 2.3276029 0.32112572 10
-1.2857084 2.3493674 0.23096271 10
-1.2836024 2.3464911 0.13816692 13
-1.2703391 2.3232222 0.045550779 12
-0.94367552 1.7293863 -0.51763833 3
-1.082101 1.9838891 -0.51288873 3
-1.2776766 2.3434241 -0.51090926 5
-1.2802718 2.3491595 -0.41768035 14
-1.2908148 2.3694887 -0.32661018 14
-1.280785 2.3520546 -0.23096307 15
-1.2739222 2.3404243 -0.13718553 12
-1.2678695 2.3302729 -0.045182075 11
-1.2897462 2.3714666 0.71258199 12
-1.3120708 2.4135187 0.62489116 9
-1.2931519 2.3797076 0.51853442 9
-1.2770252 2.3510087 0.4172197 8
-1.2638249 2.3276756 0.32051635 10
-1.2751237 2.3494632 0.23052694 10
-1.2730227 2.3465686 0.13790524 14
-1.2598445 2.3232446 0.045463517 12
-0.93763304 1.7326698 -0.51763833 3
-1.0751692 1.9876542 -0.51288873 3
-1.2694887 2.3478696 -0.51090926 5
-1.2697158 2.3492696 -0.41689819 13
-1.280177 2.3696139 -0.32600087 15
-1.2702003 2.3521285 -0.2305273 15
-1.2610012 2.3360691 -0.13666391 12
-1.2573535 2.3302846 -0.045095682 11
-1.2768749 2.3674526 0.70999545 12
-1.3013258 2.4137952 0.6237672 10
-1.2801802 2.3755653 0.51662809 9
-1.2641268 2.3467565 0.41565707 8
-1.2509866 2.3233337 0.31929767 9
-1.2621936 2.3451278 0.22965539 11
-1.2624582 2.3466008 0.13764356 14
-1.2469916 2.3188221 0.045288995 12
-0.93157923 1.7359321 -0.51763833 3
-1.0682245 1.9913952 -0.51288873 3
-1.2612854 2.3522868 -0.51090926 6
-1.2568418 2.3449819 -0.41533384 13
-1.2672105 2.3653193 -0.32478216 15
-1.257279 2.3477659 -0.22965574 15
-1.2504827 2.3360543 -0.13640311 12
-1.2444946 2.3258436 -0.044922903 11
-1.2663252 2.3676362 0.70870227 12
-1.2882982 2.4097302 0.62151939 10
-1.2695667 2.3756905 0.51567489 9
-1.2536005 2.3467987 0.41487581 8
-1.2405316 2.3233087 0.31868833 10
-1.2516545 2.345125 0.2292196 9
-1.2495588 2.3421826 0.1371202 13
-1.2365376 2.3187497 0.04520173 13
-0.92551398 1.7391734 -0.51763833 3
-1.0612668 1.9951119 -0.51288873 3
-1.2507623 2.3523414 -0.50995612 6
-1.2463309 2.3449941 -0.41455165 13
-1.2566179 2.3653452 -0.32417279 15
-1.2467401 2.3477411 -0.22921994 15
-1.2399796 2.3359947 -0.1361423 12
-1.2340254 2.3257577 -0.044836514 11
-1.253527 2.3635085 0.70611572 12
-1.2753148 2.4056032 0.61927158 11
-1.2589681 2.3757708 0.51472169 9
-1.2407776 2.342432 0.41331318 8
-1.2277697 2.3188531 0.31746963 9
-1.2411309 2.3450775 0.22878383 10
-1.2390405 2.3421164 0.13685852 14
-1.223762 2.314213 0.045027204 12
-0.91913342 1.7425538 -0.51763833 3
-1.0539472 1.9989882 -0.51288873 3
-1.2421322 2.35691 -0.50995612 6
-1.2331243 2.3408079 -0.41298732 13
-1.2433155 2.3611529 -0.32295412 15
-1.2334869 2.3434796 -0.22834839 15
-1.2267597 2.331686 -0.13562068 11
-1.2231658 2.32584 -0.04475012 11
-1.2403612 2.3595366 0.70352924 13
-1.2619567 2.4016354 0.61702383 11
-1.2479697 2.3760238 0.51376849 8
-1.2298882 2.342591 0.41253185 8
-1.2169563 2.318943 0.31686029 9
-1.2278998 2.3407888 0.22791228 9
-1.2258105 2.3377979 0.13633516 13
-1.2129511 2.314255 0.044939946 12
-0.91080683 1.741472 -0.51634425 3
-1.046963 2.002655 -0.51288873 4
-1.2338974 2.3612313 -0.50995612 7
-1.2226593 2.3407209 -0.41220516 13
-1.232769 2.3610795 -0.32234478 14
-1.2229946 2.3433554 -0.22791262 15
-1.2163037 2.3315272 -0.13535988 12
-1.2104166 2.3212299 -0.044577342 10
-1.22542 2.3510029 0.69964945 13
-1.24231 2.3844223 0.6114043 12
-1.237401 2.3760121 0.5128153 8
-1.2194232 2.3424897 0.41175056 7
-1.2042727 2.3143721 0.31564158 9
-1.217423 2.3406417 0.22747648 10
-1.2153393 2.3376322 0.13607349 14
-1.200249 2.3096061 0.04476542 12
-0.90502691 1.7444829 -0.51634425 3
-1.0406663 2.0059342 -0.51288873 4
-1.2264733 2.3650961 -0.50995612 7
-1.2107545 2.3357818 -0.41064081 14
-1.2230624 2.3605342 -0.32173541 15
-1.2110453 2.3383398 -0.22704107 15
-1.2043818 2.3264682 -0.13483825 11
-1.2008207 2.3205812 -0.044490952 11
-1.2135901 2.3462613 0.69706297 11
-1.2281003 2.3753297 0.60803258 9
-1.2254233 2.3711667 0.5109089 8
-1.2097914 2.3419213 0.41096923 7
-1.1924422 2.309325 0.31442288 9
-1.2054946 2.3356025 0.22660492 10
-1.2034107 2.3325639 0.13555013 13
-1.1907017 2.308919 0.044678159 13
-0.89923698 1.7474743 -0.51634425 3
-1.0336579 2.0095546 -0.51288873 3
-1.2182102 2.3693628 -0.50995612 8
-1.2003363 2.3356013 -0.40985861 13
-1.2102797 2.3559604 -0.32051674 15
-1.2006003 2.3381219 -0.22660528 15
-1.1916935 2.3217738 -0.13431664 11
-1.1881489 2.3158627 -0.044318173 11
-1.2009848 2.341888 0.69447643 12
-1.2109114 2.3622596 0.60353696 10
-1.2149009 2.3710618 0.50995576 8
-1.1993579 2.3417344 0.41018793 7
-1.1821125 2.3090558 0.31381357 8
-1.1950655 2.3353624 0.22616915 10
-1.1929876 2.3323052 0.13528845 14
-1.1780832 2.3041589 0.044503633 12
-0.89032722 1.7466115 -0.51505011 3
-1.0259342 2.0135088 -0.51288873 3
-1.2113311 2.3783967 -0.51090926 10
-1.1868784 2.3313911 -0.40829429 14
-1.198974 2.3561673 -0.3199074 15
-1.1870972 2.3338356 -0.22573371 15
-1.1805067 2.3218811 -0.13405582 12
-1.1769829 2.3159509 -0.04423178 11
-1.187609 2.3378699 0.69188994 12
-1.1952147 2.3538597 0.60016519 10
-1.2013447 2.3669555 0.50804937 8
-1.1881231 2.341918 0.4094066 6
-1.1687485 2.3047254 0.31259486 8
-1.1838374 2.3354907 0.22573337 9
-1.1795098 2.3279605 0.13476509 13
-1.1669683 2.3042054 0.044416368 12
-0.88640332 1.7540191 -0.51634425 3
-1.021096 2.021426 -0.51401347 3
-1.2030215 2.3826106 -0.51090926 12
-1.1765081 2.3311112 -0.40751213 14
-1.1885068 2.3559072 -0.31929803 15
-1.1767007 2.3335176 -0.22529794 15
-1.1678997 2.3170702 -0.13353421 11
-1.1643929 2.3111162 -0.044059001 11
-1.1750962 2.3333738 0.68930346 12
-1.1848003 2.3536656 0.59904134 10
-1.1886629 2.3623652 0.50614297 8
-1.175503 2.3372271 0.40784398 6
-1.1584673 2.3043571 0.31198549 8
-1.1734414 2.3351583 0.2252976 10
-1.1691353 2.3276017 0.13450339 14
-1.1544259 2.2993324 0.044241846 12
-0.88058192 1.7569489 -0.51634425 3
-1.0147405 2.0246239 -0.51401347 3
-1.197729 2.3907666 -0.51186246 14
-1.1647565 2.3259645 -0.40594777 13
-1.176657 2.3507538 -0.31807932 15
-1.1649065 2.3282936 -0.22442639 15
-1.1583813 2.3162618 -0.13327339 11
-1.1548911 2.3102908 -0.043972608 11
-1.165601 2.3327334 0.68801016 13
-1.1730464 2.348659 0.59679353 11
-1.1768508 2.3573053 0.50423664 9
-1.1659496 2.3364897 0.40706271 6
-1.149007 2.303544 0.31137615 8
-1.1616546 2.3299181 0.22442605 9
-1.1573628 2.3223252 0.13398004 12
-1.1449735 2.29847 0.044154584 12
-0.87690055 1.7641842 -0.51763833 3
-1.0076671 2.0281537 -0.51401347 3
-1.1784605 2.3729527 -0.50709653 13
-1.1544344 2.3255925 -0.40516558 14
-1.1662383 2.3504014 -0.31747001 15
-1.154559 2.3278835 -0.2239906 15
-1.1458534 2.3113441 -0.13275178 11
-1.1423802 2.3053491 -0.043799829 11
-1.1531637 2.3281317 0.68542367 13
-1.1605175 2.3440068 0.59454572 11
-1.164261 2.3526006 0.50233024 9
-1.1555967 2.3361185 0.40628135 7
-1.1387595 2.3030922 0.31076682 7
-1.1513076 2.3294935 0.22399026 9
-1.1470379 2.3218741 0.13371836 13
-1.13473 2.2979701 0.044067323 13
-0.87225306 1.7718712 -0.5189324 3
-0.99987209 2.0320079 -0.51401347 3
-1.1606753 2.3598425 -0.50328374 13
-1.1433175 2.3255761 -0.40438342 14
-1.1550161 2.3504078 -0.31686065 15
-1.1434162 2.3278289 -0.22355483 15
-1.1347696 2.311245 -0.13249098 11
-1.1313175 2.3052309 -0.043713439 11
-1.1420887 2.3282061 0.68413043 13
-1.1472186 2.3396966 0.59229791 12
-1.1530589 2.3526459 0.50137705 9
-1.1422729 2.3316686 0.40471876 6
-1.1277254 2.3029907 0.31015745 7
-1.1401647 2.329423 0.22355449 9
-1.1359197 2.3217766 0.13345668 13
-1.1215056 2.2933283 0.043892797 13
-0.86606276 1.7749051 -0.5189324 3
-0.99277294 2.0354857 -0.51401347 4
-1.1438272 2.3462319 -0.49947101 16
-1.1308662 2.3206742 -0.4028191 13
-1.1424583 2.3455021 -0.31564194 16
-1.1309227 2.3228488 -0.22268325 15
-1.1223249 2.3062124 -0.13196936 11
-1.1188902 2.3001747 -0.04354066 11
-1.1297309 2.3234913 0.68154395 13
-1.1347854 2.334923 0.5900501 12
-1.1405503 2.347827 0.49947065 10
-1.1319698 2.3311992 0.40393746 6
-1.1153456 2.2979836 0.30893877 7
-1.1276783 2.3244259 0.22268291 9
-1.1256297 2.3212345 0.133195 12
-1.1113131 2.2927306 0.04380554 12
-0.85986197 1.7779174 -0.5189324 3
-0.98354143 2.0345528 -0.51288873 4
-1.1292239 2.3369522 -0.49661148 13
-1.1206107 2.3201606 -0.40203691 14
-1.1321063 2.3450067 -0.3150326 15
-1.1206428 2.3222964 -0.22224748 15
-1.1120986 2.3056183 -0.13170855 11
-1.1086832 2.2995632 -0.043454267 10
-1.1195166 2.3230696 0.68025064 14
-1.1223993 2.3300912 0.58780229 13
-1.1302185 2.3473716 0.49851748 10
-1.1216838 2.3306863 0.40315613 6
-1.1051662 2.2973912 0.30832943 6
-1.1173992 2.3238592 0.22224714 9
-1.1131942 2.316149 0.13267164 13
-1.0989735 2.2875834 0.043631013 12
-0.85365063 1.7809081 -0.5189324 3
-0.97853851 2.0423667 -0.51401347 4
-1.1168195 2.332026 -0.49470508 15
-1.1082405 2.3151493 -0.40047255 14
-1.11963 2.3399909 -0.31381392 15
-1.1082315 2.3172073 -0.22137593 15
-1.1018902 2.3049817 -0.13144773 11
-1.0963386 2.2943976 -0.043281488 11
-1.1072377 2.3182468 0.67766416 14
-1.1100609 2.3252013 0.58555448 13
-1.1199039 2.3468726 0.49756429 10
-1.1114153 2.3301301 0.40237483 6
-1.0928686 2.2922754 0.30711073 6
-1.104995 2.3187523 0.22137558 9
-1.1029553 2.3155127 0.13240996 13
-1.0888325 2.2868917 0.043543749 13
-0.84535658 1.7795147 -0.51763833 3
-0.97140336 2.0457702 -0.51401347 3
-1.1044633 2.3270419 -0.49279872 14
-1.0980356 2.3145418 -0.39969036 14
-1.1072023 2.3349166 -0.31259522 15
-1.0980028 2.3165605 -0.22094014 15
-1.0916997 2.3043013 -0.13118692 11
-1.0861834 2.2936924 -0.043195099 11
-1.095006 2.3133667 0.67507768 13
-1.0956868 2.31585 0.58218277 11
-1.1075082 2.3418932 0.49565789 11
-1.0990537 2.3250659 0.40081221 6
-1.0827402 2.2915893 0.30650139 6
-1.0947672 2.3180912 0.2209398 9
-1.0906029 2.310318 0.1318866 13
-1.0765766 2.281636 0.043369226 12
-0.83913976 1.7824547 -0.51763833 3
-0.96425635 2.0491486 -0.51401347 4
-1.0942446 2.3264415 -0.49184549 15
-1.0857474 2.3094223 -0.39812601 15
-1.0969346 2.3342755 -0.31198588 15
-1.0877922 2.3158708 -0.22050437 15
-1.0794054 2.2990582 -0.1306653 11
-1.0739226 2.2884183 -0.04302232 11
-1.0848732 2.3128023 0.67378443 14
-1.0834597 2.310838 0.57993495 11
-1.097244 2.3413005 0.49470475 11
-1.0888361 2.3244157 0.40003088 6
-1.0726302 2.2908604 0.30589205 6
-1.0845577 2.3173873 0.22050403 8
-1.0804161 2.309588 0.13162492 13
-1.0664881 2.2808516 0.043281965 12
-0.83291268 1.785373 -0.51763833 3
-0.95709765 2.0525019 -0.51401347 4
-1.08197 2.3213491 -0.48993912 15
-1.0755938 2.3087218 -0.39734387 15
-1.0845897 2.3290925 -0.31076717 15
-1.0775998 2.3151379 -0.22006857 14
-1.0692675 2.2982852 -0.1304045 12
-1.0638199 2.2876198 -0.042935926 11
-1.0727216 2.3078156 0.67119795 14
-1.0712811 2.3057692 0.57768714 11
-1.0849298 2.3362131 0.49279836 12
-1.0765572 2.3192434 0.39846826 6
-1.0604496 2.2855871 0.30467334 6
-1.0743662 2.3166404 0.22006825 8
-1.0681478 2.3042853 0.13110156 13
-1.0543165 2.2754884 0.043107443 12
-0.82464892 1.7838857 -0.51634425 3
-0.94788378 2.0514081 -0.51288873 3
-1.0718025 2.3206561 -0.48898596 14
-1.0633886 2.3034947 -0.39577952 14
-1.0743738 2.3283582 -0.31015781 15
-1.0674257 2.3143623 -0.21963282 14
-1.0570575 2.2929344 -0.12988289 11
-1.0537361 2.2867794 -0.042849541 11
-1.0626386 2.3071587 0.66990465 14
-1.0611886 2.3050692 0.57656324 12
-1.0726649 2.331068 0.49089199 12
-1.0663911 2.3185 0.39768693 6
-1.0503919 2.2847657 0.30406398 5
-1.0641932 2.3158507 0.21963248 8
-1.0580137 2.3034623 0.13083988 13
-1.0442814 2.2746115 0.043020178 12
-0.81841701 1.7867534 -0.51634425 3
-0.93868911 2.0502744 -0.51176393 4
-1.0616527 2.3199198 -0.48803276 14
-1.0532873 2.3027017 -0.39499733 14
-1.0621126 2.3230674 -0.30893913 15
-1.0552 2.3090136 -0.21876125 14
-1.0469726 2.2920685 -0.12962207 11
-1.0436709 2.2858958 -0.042763148 10
-1.0505683 2.3020663 0.66731817 14
-1.0511138 2.3043265 0.57543933 12
-1.0604489 2.3258662 0.48898563 12
-1.0541955 2.3132205 0.39612433 6
-1.0403531 2.2839019 0.30345467 5
-1.0540389 2.3150179 0.21919669 8
-1.0478983 2.3025966 0.1305782 13
-1.0342653 2.2736926 0.04293292 11
-0.8121751 1.7895993 -0.51634425 3
-0.9315266 2.0535386 -0.51176393 4
-1.0515214 2.3191411 -0.48707953 15
-1.0432044 2.3018663 -0.39421517 14
-1.0519495 2.3222406 -0.30832979 15
-1.045079 2.3081453 -0.21832547 15
-1.0369067 2.2911601 -0.12936127 12
-1.0336249 2.28497 -0.042676758 11
-1.0405364 2.3013186 0.66602492 15
-1.0390511 2.2991021 0.57319152 12
-1.0462617 2.3161345 0.48612604 10
-1.0440823 2.3123853 0.39534304 6
-1.0303329 2.2829964 0.3028453 5
-1.0418553 2.3096023 0.21832512 8
-1.0378021 2.3016889 0.13031653 13
-1.0242682 2.2727308 0.042845655 11
-0.80790383 1.7968283 -0.51763833 3
-0.92235571 2.0523343 -0.51063919 4
-1.0393972 2.313843 -0.48517317 14
-1.0331402 2.3009884 -0.39343297 14
-1.0418049 2.3213704 -0.30772042 15
-1.0349771 2.3072345 -0.2178897 14
-1.024817 2.2856531 -0.12883966 11
-1.023598 2.2840021 -0.042590369 11
-1.0305225 2.3005288 0.66473162 15
-1.0290283 2.2982681 0.57206756 13
-1.0321555 2.3063319 0.48326644 11
-1.0319711 2.3069997 0.39378041 6
-1.020332 2.2820485 0.30223596 5
-1.0317547 2.3086777 0.21788937 7
-1.0277249 2.3007383 0.13005485 12
-1.0142905 2.2717276 0.042758394 12
-0.8016268 1.7996374 -0.51763833 3
-0.91518617 2.0555413 -0.51063919 4
-1.0293185 2.312973 -0.48422 15
-1.0210878 2.2955563 -0.39186865 14
-1.0316793 2.3204582 -0.30711108 15
-1.0228715 2.3017299 -0.21701814 14
-1.0148054 2.2846534 -0.12857884 11
-1.0135905 2.2829921 -0.042503979 11
-1.0185676 2.2952826 0.66214514 14
-1.0190241 2.2973928 0.57094371 12
-1.0201199 2.3009465 0.48136008 11
-1.021911 2.3060725 0.39299908 6
-1.01035 2.2810585 0.30162659 5
-1.0196568 2.3031557 0.2170178 7
-1.0156465 2.2951796 0.12953149 12
-1.0043322 2.2706821 0.042671129 12
-0.79728973 1.806843 -0.5189324 3
-0.90800542 2.0587232 -0.51063919 4
-1.0192584 2.3120604 -0.4832668 15
-1.0110773 2.2945876 -0.39108649 14
-1.0195725 2.3149619 -0.30589241 15
-1.0128239 2.3007274 -0.21658234 14
-1.0048133 2.2836115 -0.12831803 11
-1.0015899 2.2773638 -0.0423312 11
-1.0086057 2.2944024 0.66085184 15
-1.0070788 2.2920148 0.5686959 13
-1.0081346 2.2955053 0.47945368 12
-1.01187 2.3051038 0.39221779 7
-0.9983936 2.2754824 0.30040792 5
-1.0096105 2.3021393 0.21658202 7
-1.0056241 2.294138 0.12926981 12
-0.99439365 2.2695951 0.042583872 12
-0.79097784 1.8096151 -0.5189324 3
-0.90081358 2.0618804 -0.51063919 4
-1.0072532 2.3066082 -0.48136041 15
-1.001086 2.2935767 -0.3903043 13
-1.0095011 2.3139579 -0.30528304 15
-1.0008048 2.2951171 -0.21571079 14
-0.99484092 2.2825274 -0.12805721 11
-0.98964113 2.2716799 -0.042158417 10
-0.9967342 2.2890525 0.65826535 15
-0.99712777 2.291049 0.567572 13
-0.99619973 2.2900088 0.47754732 12
-0.99987906 2.2995639 0.39065516 7
-0.9884665 2.2744021 0.29979858 5
-0.99958384 2.3010812 0.21614625 7
-0.99562126 2.2930541 0.12900813 12
-0.98248476 2.2638805 0.042409342 11
-0.78050381 1.8036374 -0.51634425 3
-0.89325041 2.0651681 -0.51063919 4
-0.99684453 2.305779 -0.48040724 16
-0.98875511 2.2881639 -0.38873994 14
-0.99904561 2.3130867 -0.3046737 15
-0.99041188 2.2941971 -0.21527502 14
-0.98449004 2.281574 -0.12779641 11
-0.97932845 2.2707012 -0.042072024 10
-0.98451376 2.2838199 0.65567887 12
-0.98486811 2.2857394 0.56532419 13
-0.98585832 2.2891369 0.47659415 12
-0.98949134 2.2986767 0.38987383 7
-0.97816223 2.2734509 0.29918921 5
-0.9891755 2.3001535 0.21571046 7
-0.98523825 2.2921004 0.12874645 11
-0.97220725 2.2628729 0.042322084 12
-0.77039802 1.7974727 -0.51375604 3
-0.8841176 2.0637951 -0.50951445 4
-0.98685777 2.3047326 -0.47945404 16
-0.97881883 2.2870612 -0.38795781 14
-0.98901343 2.3119969 -0.30406433 15
-0.97848117 2.2884805 -0.21440347 14
-0.9745577 2.280405 -0.1275356 11
-0.96746868 2.2649109 -0.041899245 10
-0.9746393 2.2828009 0.65438563 12
-0.97497123 2.2846823 0.56420028 13
-0.975936 2.2880492 0.47564095 13
-0.97952467 2.297574 0.38909256 7
-0.97216606 2.2814171 0.29979858 5
-0.97918862 2.2990098 0.21527469 6
-0.97527558 2.2909315 0.12848477 12
-0.96233881 2.2616553 0.042234819 12
-0.76223183 1.7957052 -0.5124619 3
-0.87690824 2.0668688 -0.50951445 4
-0.97497422 2.2991257 -0.47754765 16
-0.96890223 2.285917 -0.38717562 14
-0.97900116 2.3108656 -0.30345502 15
-0.9685446 2.2872951 -0.21396768 14
-0.96269929 2.2745965 -0.12701398 11
-0.95760894 2.26367 -0.041812852 10
-0.9629029 2.2772918 0.65179914 12
-0.96509361 2.2835839 0.56307638 13
-0.96603328 2.2869205 0.47468778 13
-0.96765679 2.2918797 0.38752994 7
-0.96805561 2.2939415 0.30101728 4
-0.96922171 2.2978241 0.21483891 6
-0.9653331 2.289721 0.12822309 11
-0.95056188 2.2557843 0.042060297 11
-0.75783062 1.8028073 -0.51375604 3
-0.86968815 2.069917 -0.50951445 4
-0.96504241 2.2979896 -0.47659451 16
-0.95900577 2.2847321 -0.38639346 14
-0.9690088 2.3096926 -0.30284566 15
-0.95862848 2.2860687 -0.21353191 14
-0.95282346 2.2733378 -0.12675317 12
-0.94776976 2.262388 -0.041726466 10
-0.95308238 2.2761841 0.65050584 12
-0.9552356 2.2824445 0.56195247 14
-0.95425636 2.2812226 0.47278142 14
-0.95774573 2.2906871 0.38674861 7
-0.96769649 2.3156223 0.30345467 12
-0.95927513 2.2965975 0.21440314 6
-0.9554109 2.2884688 0.12796141 11
-0.9407568 2.2544751 0.041973036 11
-0.75153303 1.8054417 -0.51375604 3
-0.86245751 2.0729403 -0.50951445 4
-0.95513028 2.2968121 -0.47564128 16
-0.94912928 2.2835052 -0.38561127 15
-0.95903665 2.3084781 -0.30223632 15
-0.94873255 2.2848008 -0.21309611 14
-0.94296819 2.2720382 -0.12649237 11
-0.93795121 2.2610645 -0.041640073 11
-0.94328147 2.2750359 0.64921266 12
-0.94539732 2.2812641 0.56082857 14
-0.94440919 2.2800047 0.47182819 13
-0.94785476 2.2894533 0.38596731 8
-0.95770997 2.3144004 0.3028453 12
-0.94934899 2.2953289 0.21396735 6
-0.94550925 2.2871754 0.12769973 11
-0.93097228 2.2531247 0.041885771 11
-0.74522626 1.808054 -0.51375604 3
-0.85707217 2.0804429 -0.51063919 4
-0.94523835 2.2955937 -0.47468811 16
-0.93927306 2.2822375 -0.3848291 14
-0.94719684 2.3026326 -0.30101761 15
-0.93885732 2.2834918 -0.21266034 14
-0.93123567 2.2660792 -0.12597075 11
-0.92625415 2.2550764 -0.041467294 10
-0.93349993 2.2738464 0.64791936 12
-0.93372947 2.2755356 0.55858076 14
-0.93458235 2.2787466 0.47087502 13
-0.93611103 2.2836092 0.38440469 8
-0.94398081 2.3039529 0.30101728 10
-0.93944335 2.2940197 0.21353158 6
-0.93562824 2.285841 0.12743805 10
-0.9212088 2.2517335 0.04179851 11
-0.73891044 1.8106443 -0.51375604 3
-0.84980488 2.0834219 -0.51063919 4
-0.93351358 2.289789 -0.47278175 16
-0.92943728 2.2809289 -0.38404691 14
-0.93728137 2.3013287 -0.30040827 15
-0.9290027 2.2821419 -0.21222456 14
-0.92143816 2.2646909 -0.12570994 11
-0.91649359 2.253665 -0.041380905 10
-0.92191976 2.2681425 0.64533287 12
-0.92394686 2.2742674 0.55745685 14
-0.92292905 2.2728994 0.46896866 14
-0.92627674 2.2822866 0.38362336 8
-0.9322018 2.2980363 0.29979858 10
-0.92955846 2.2926688 0.21309578 6
-0.92576814 2.2844653 0.12717636 10
-0.91146636 2.2503018 0.041711248 11
-0.73258561 1.8132125 -0.51375604 4
-0.84070283 2.0818582 -0.50951445 4
-0.92367792 2.288482 -0.47182852 14
-0.91962206 2.2795796 -0.38326478 14
-0.9273867 2.2999837 -0.29979894 15
-0.91916889 2.2807505 -0.21178877 15
-0.909796 2.2586303 -0.12518832 11
-0.90675414 2.2522128 -0.041294511 10
-0.91219383 2.266866 0.64403963 13
-0.91418457 2.2729585 0.55633295 14
-0.91132802 2.2669992 0.46706229 11
-0.91646326 2.2809236 0.38284209 9
-0.91862607 2.2874606 0.29797053 11
-0.91969442 2.2912772 0.21266001 5
-0.91406989 2.2784147 0.126653 10
-0.90174532 2.2488301 0.041623987 11
-0.72445828 1.8112744 -0.5124619 4
-0.83343071 2.08478 -0.50951445 5
-0.9120416 2.2825766 -0.46992216 14
-0.90799612 2.2736034 -0.38170043 14
-0.91751277 2.2985976 -0.29918957 14
-0.9093563 2.279319 -0.211353 14
-0.90005702 2.2571547 -0.12492751 11
-0.89703608 2.2507203 -0.041208126 10
-0.90070069 2.2610626 0.64145315 13
-0.90444279 2.2716095 0.55520904 14
-0.89977956 2.2610457 0.4651559 10
-0.90484536 2.274931 0.38127947 9
-0.90880245 2.2860415 0.2973612 11
-0.90985149 2.2898445 0.21222423 5
-0.90611118 2.2815914 0.126653 10
-0.89204544 2.2473173 0.041536722 11
-0.71635336 1.8093016 -0.51116782 4
-0.82614839 2.0876765 -0.50951445 4
-0.90226305 2.2811818 -0.46896899 15
-0.89823866 2.2721665 -0.38091823 14
-0.90583622 2.2925553 -0.29797086 15
-0.89773536 2.2732139 -0.21048145 14
-0.89033926 2.2556379 -0.1246667 11
-0.88917404 2.2538378 -0.041208126 10
-0.89103079 2.2596993 0.64015985 13
-0.89472133 2.2702198 0.55408514 15
-0.89008266 2.2596056 0.4642027 11
-0.89508957 2.2734804 0.38049814 10
