# .PCD v0.7 - Point Cloud Data file format
VERSION 0.7
FIELDS x y z intensity
SIZE 4 4 4 4
TYPE F F F F
COUNT 1 1 1 1
WIDTH 1420
HEIGHT 1
VIEWPOINT 0 0 0 1 0 0 0
POINTS 1420
DATA ascii
1.767027 1.729797 0.47278142 14
1.7710021 1.7330832 0.38596731 12
1.7550008 1.716825 0.29675183 12
1.775897 1.7366601 0.21396735 12
1.7697629 1.7300574 0.12769973 13
1.7543132 1.7143557 0.042147558 49
1.3687419 1.3352333 -0.50210917 3
1.5760279 1.5369079 -0.49939165 4
1.7811896 1.7363707 -0.47564128 5
1.7816533 1.7362163 -0.38795781 12
1.7976955 1.7512379 -0.30345502 13
1.7795302 1.7329367 -0.21396768 13
1.7769762 1.7298455 -0.1275356 13
1.7686536 1.7211425 -0.041985635 12
1.7791821 1.7307837 0.65438563 15
1.7808182 1.7317705 0.56420028 16
1.7765735 1.7270396 0.47373459 14
1.7805825 1.7303325 0.38674861 13
1.7645425 1.7141464 0.2973612 12
1.7890948 1.7373906 0.21483891 12
1.7829566 1.7308252 0.12822309 13
1.7674623 1.7151847 0.042322084 50
1.3733944 1.3304474 -0.50210917 3
1.581383 1.531397 -0.49939165 3
1.7978195 1.7403843 -0.47850087 5
1.7912518 1.7334208 -0.38873994 12
1.8073643 1.7484025 -0.30406433 14
1.7891493 1.7301774 -0.21440347 13
1.7865937 1.7271025 -0.12779641 13
1.7818409 1.7219065 -0.042158417 12
1.7886866 1.7279184 0.65567887 15
1.7903569 1.728928 0.56532419 16
1.7861227 1.7242365 0.47468778 13
1.7901654 1.727536 0.38752994 12
1.7776587 1.7148676 0.2985799 12
1.7987342 1.7345928 0.21527469 13
1.7925822 1.7280563 0.12848477 13
1.7770383 1.7124736 0.042409342 48
1.3745495 1.322297 -0.50081509 3
1.5867189 1.5258677 -0.49939165 3
1.8180376 1.7477045 -0.48231363 6
1.8008525 1.7305795 -0.38952214 12
1.8170354 1.7455212 -0.3046737 13
1.7987703 1.7273713 -0.21483923 13
1.7962136 1.7243136 -0.12805721 13
1.7914474 1.7191374 -0.042244807 11
1.7981926 1.7250077 0.65697211 15
1.7998978 1.7260402 0.56644809 16
1.7956736 1.721388 0.47564095 14
1.7997506 1.7246934 0.38831124 12
1.7872174 1.7120848 0.29918921 12
1.8083755 1.7317482 0.21571046 13
1.8058171 1.7286941 0.12900813 13
1.7902287 1.713173 0.042583872 48
1.3791568 1.3174908 -0.50081509 3
1.5920355 1.5203197 -0.49939165 3
1.8418787 1.7582936 -0.48707953 6
1.8104551 1.7276922 -0.3903043 12
1.8267081 1.7425933 -0.30528304 13
1.8083937 1.7245196 -0.21527502 13
1.8058358 1.7214783 -0.12831803 11
1.8010566 1.7163227 -0.0423312 11
1.8111973 1.7253832 0.65955865 15
1.812968 1.7264667 0.5686959 16
1.8052264 1.7184937 0.47659415 13
1.8093374 1.7218052 0.38909256 12
1.8003743 1.7126769 0.30040792 11
1.8216283 1.7322903 0.21658202 12
1.8154593 1.7258205 0.12926981 12
1.799822 1.7103572 0.042671129 47
1.3802435 1.3093448 -0.49952096 3
1.5937976 1.5114007 -0.49826688 3
1.851567 1.7552303 -0.48803276 5
1.8200593 1.7247589 -0.39108649 12
1.8363827 1.7396193 -0.30589241 13
1.8180189 1.7216213 -0.21571079 12
1.81546 1.7185971 -0.12857884 13
1.8106678 1.7134614 -0.042417586 11
1.8207175 1.7223693 0.66085184 15
1.8225235 1.7234751 0.56981981 14
1.814781 1.7155536 0.47754732 14
1.8189259 1.7188708 0.38987383 12
1.8099493 1.7097901 0.30101728 11
1.8312855 1.7293408 0.2170178 11
1.8251033 1.7229002 0.12953149 12
1.8094172 1.7074956 0.042758394 47
1.3848056 1.3045188 -0.49952096 3
1.5955169 1.5024883 -0.49714214 3
1.850535 1.7420279 -0.48612636 5
1.8332616 1.7251639 -0.39265084 12
1.8460586 1.736599 -0.30650172 13
1.8312747 1.7220894 -0.21658234 13
1.8250861 1.7156694 -0.12883966 12
1.820281 1.7105542 -0.042503979 12
1.8302388 1.7193104 0.66214514 14
1.8356314 1.723773 0.57206756 15
1.824337 1.7125677 0.47850055 14
1.8285161 1.7158906 0.39065516 12
1.8195257 1.706857 0.30162659 12
1.8409443 1.7263452 0.21745357 12
1.8347489 1.7199339 0.12979317 13
1.8153665 1.7011691 0.042758394 50
1.3858237 1.2963777 -0.49822688 3
1.600752 1.4969097 -0.49714214 3
1.8530188 1.7322059 -0.48517317 5
1.8428806 1.7221259 -0.39343297 12
1.8593622 1.7369199 -0.30772042 13
1.8409154 1.7190862 -0.21701814 12
1.8347137 1.7126955 -0.12910046 13
1.8298959 1.7076006 -0.042590369 12
1.839761 1.716206 0.66343844 15
1.8452008 1.7206779 0.57319152 15
1.8374844 1.712883 0.48040691 14
1.8417207 1.7162312 0.39221779 12
1.8327354 1.7072606 0.3028453 12
1.8506044 1.723303 0.21788937 12
1.8443962 1.716921 0.13005485 14
1.8249533 1.6982275 0.042845655 48
1.3903406 1.2915323 -0.49822688 3
1.6131073 1.4979433 -0.49939165 3
1.8554569 1.7223879 -0.48422 4
1.8525008 1.7190419 -0.39421517 12
1.8690524 1.733794 -0.30832979 13
1.8542094 1.7194232 -0.2178897 13
1.8480048 1.7130698 -0.12962207 13
1.8431792 1.7079985 -0.042763148 11
1.8492836 1.7130555 0.66473162 15
1.8547703 1.7175366 0.57431537 15
1.8470541 1.7097925 0.48136008 13
1.8513248 1.713146 0.39299908 12
1.8423268 1.7042228 0.30345467 11
1.8639226 1.7235961 0.21876092 12
1.8540448 1.7138618 0.13031653 13
1.8345418 1.6952398 0.04293292 49
1.3948404 1.2866714 -0.49822688 3
1.6183263 1.4923033 -0.49939165 3
1.8578488 1.7125736 -0.4832668 4
1.8621217 1.7159114 -0.39499733 12
1.8787431 1.7306215 -0.30893913 13
1.8638639 1.7163143 -0.21832547 12
1.8576469 1.7099904 -0.12988289 12
1.852809 1.7049395 -0.042849541 11
1.8588067 1.7098597 0.66602492 14
1.8643407 1.7143496 0.57543933 15
1.8566248 1.7066566 0.48231328 14
1.8609301 1.7100147 0.39378041 11
1.8519192 1.7011386 0.30406398 12
1.8735963 1.7204481 0.21919669 12
1.8636943 1.7107559 0.1305782 13
1.847815 1.6955856 0.043107443 47
1.3993232 1.2817945 -0.49822688 3
1.6271183 1.4899352 -0.50051636 3
1.8638154 1.7060782 -0.4832668 4
1.8753866 1.7160685 -0.39656168 12
1.8884344 1.7274026 -0.30954847 13
1.8771956 1.7165203 -0.21919702 12
1.86729 1.7068644 -0.13014369 12
1.8624393 1.7018337 -0.042935926 11
1.8718961 1.7098756 0.66861141 14
1.8739115 1.7111167 0.57656324 15
1.8698212 1.7067834 0.48421967 14
1.874184 1.7101662 0.39534304 11
1.8615125 1.6980085 0.30467334 11
1.8832712 1.7172539 0.21963248 12
1.8733448 1.7076037 0.13083988 13
1.8574176 1.6924922 0.043194704 48
1.403789 1.2769022 -0.49822688 3
1.628705 1.4809691 -0.49939165 3
1.8697594 1.6995618 -0.4832668 3
1.8850204 1.7128329 -0.39734387 12
1.9017997 1.7274736 -0.31076717 13
1.8868636 1.7133057 -0.21963282 12
1.8769341 1.7036918 -0.1304045 12
1.8720709 1.6986817 -0.04302232 11
1.8814305 1.706576 0.66990465 15
1.883482 1.7078377 0.57768714 15
1.8794042 1.7035425 0.48517281 14
1.8838016 1.7069296 0.39612433 11
1.8711063 1.6948317 0.30528268 11
1.8929462 1.7140127 0.22006825 12
1.8866978 1.7077558 0.13136324 13
1.8670213 1.6893528 0.043281965 47
1.4082376 1.2719944 -0.49822688 3
1.6338646 1.4752748 -0.49939165 3
1.8756806 1.6930248 -0.4832668 3
1.8983209 1.7128592 -0.3989082 12
1.9115031 1.7241484 -0.31137651 13
1.8965317 1.7100443 -0.22006857 13
1.8865783 1.7004727 -0.1306653 12
1.8817028 1.6954831 -0.043108709 11
1.8909651 1.7032307 0.67119795 14
1.8966734 1.7077727 0.57993495 15
1.8889873 1.7002554 0.48612604 14
1.8934199 1.7036469 0.39690566 12
1.8807009 1.691609 0.30589205 11
1.9063255 1.7140553 0.2209398 12
1.896361 1.7044973 0.13162492 12
1.8803443 1.689508 0.043456491 47
1.4126692 1.2670709 -0.49822688 3
1.6353768 1.46631 -0.49826688 3
1.8852341 1.6897434 -0.48422 3
1.907966 1.7095176 -0.39969036 12
1.9212067 1.7207768 -0.31198588 13
1.9062004 1.7067364 -0.22050437 12
1.8999437 1.7005371 -0.13118692 12
1.8913355 1.6922379 -0.043195099 12
1.9004989 1.6998394 0.67249113 14
1.906255 1.7043892 0.58105886 15
1.90223 1.7001932 0.4880324 13
1.9030377 1.7003175 0.39768693 11
1.8939968 1.6916455 0.30711073 11
1.9160125 1.710708 0.22137558 12
1.9060243 1.7011923 0.1318866 13
1.8899604 1.6862619 0.043543749 48
1.4170834 1.2621319 -0.49822688 3
1.6368469 1.4573531 -0.49714214 3
1.891121 1.6831524 -0.48422 4
1.9176114 1.7061299 -0.40047255 13
1.934618 1.7206562 -0.31320456 13
1.9195913 1.7066914 -0.22137593 12
1.9096005 1.697212 -0.13144773 12
1.9047056 1.6922666 -0.043367881 11
1.910032 1.6964027 0.67378443 15
1.9158361 1.7009593 0.58218277 16
1.9118243 1.6968008 0.48898563 13
1.9126557 1.6969421 0.39846826 12
1.9036031 1.6883167 0.30772007 12
1.9294267 1.7106184 0.22224714 12
1.9156878 1.6978403 0.13214828 12
1.8995769 1.6829699 0.043631013 49
1.4178628 1.2539783 -0.49693277 3
1.6419239 1.4516305 -0.49714214 3
1.8969848 1.6765407 -0.48422 4
1.9309573 1.7059653 -0.40203691 12
1.9443324 1.717178 -0.31381392 12
1.9292709 1.7032769 -0.2218117 12
1.9192567 1.6938396 -0.13170855 12
1.9143498 1.6889149 -0.043454267 11
1.9195642 1.6929195 0.67507768 14
1.9254166 1.6974837 0.58330667 16
1.9214178 1.6933622 0.4899388 13
1.9259787 1.6967845 0.40003088 12
1.9132093 1.6849418 0.30832943 12
1.9391246 1.7071642 0.22268291 12
1.9290992 1.6977406 0.13267164 13
1.9091935 1.679631 0.043718275 47
1.4222313 1.2490213 -0.49693277 3
1.6469811 1.4458903 -0.49714214 3
1.9028254 1.6699089 -0.48422 4
1.9406129 1.7024715 -0.4028191 12
1.9540458 1.7136526 -0.31442326 12
1.9426956 1.703099 -0.22268325 12
1.928913 1.690421 -0.13196936 12
1.9239939 1.6855165 -0.04354066 11
1.925462 1.6862086 0.67507768 14
1.9349959 1.6939613 0.58443058 16
1.9347045 1.6931099 0.49184516 13
1.9356071 1.6933032 0.40081221 12
1.9265506 1.684787 0.30954811 11
1.9488219 1.7036632 0.22311871 12
1.9387735 1.6942821 0.13293332 13
1.91881 1.6762455 0.04380554 48
1.4229425 1.2408749 -0.4956387 3
1.6520181 1.4401324 -0.49714214 3
1.912343 1.6664811 -0.48517317 4
1.9502672 1.6989307 -0.40360126 12
1.9675007 1.7133394 -0.31564194 12
1.9523857 1.6995779 -0.22311905 12
1.9385685 1.6869552 -0.13223016 12
1.9374094 1.6853524 -0.043713439 11
1.9349809 1.6826465 0.67637092 13
1.9445741 1.690393 0.58555448 16
1.9443077 1.6895657 0.49279836 14
1.9489625 1.6930135 0.40237483 12
1.936167 1.6813055 0.31015745 12
1.9585184 1.7001154 0.22355449 13
1.9484471 1.6907767 0.133195 12
1.9322022 1.6760889 0.043980062 47
1.4272654 1.2359004 -0.4956387 3
1.6570351 1.434357 -0.49714214 3
1.9181485 1.6597956 -0.48517317 4
1.9599208 1.6953436 -0.40438342 12
1.9772235 1.7097073 -0.31625131 12
1.962075 1.6960099 -0.22355483 13
1.9482235 1.683443 -0.13249098 12
1.9470638 1.6818472 -0.043799829 11
1.9444983 1.6790386 0.67766416 12
1.954151 1.6867783 0.58667839 15
1.9539094 1.6859747 0.49375153 13
1.9585999 1.6894257 0.40315613 12
1.9457823 1.6777776 0.31076682 11
1.9719868 1.6997728 0.22442605 12
1.9619024 1.6904836 0.13371836 12
1.9418287 1.6725966 0.044067323 47
1.4279087 1.227762 -0.49434459 3
1.6620318 1.4285642 -0.49714214 3
1.9276537 1.6562889 -0.48612636 4
1.9733193 1.6949275 -0.40594777 11
1.9869446 1.7060277 -0.31686065 12
1.9717627 1.6923947 -0.2239906 12
1.9616669 1.6831349 -0.13301259 12
1.9605119 1.6815499 -0.043972608 11
1.9576805 1.6785282 0.68025064 11
1.9674252 1.6862879 0.5889262 14
1.9635102 1.6823379 0.49470475 13
1.9719869 1.6890039 0.40471876 12
1.9553968 1.674203 0.31137615 11
1.9816923 1.6961176 0.22486182 11
1.9715853 1.6868712 0.13398004 12
1.9552538 1.6723071 0.044241846 46
1.4321856 1.2227702 -0.49434459 3
1.6670083 1.4227539 -0.49714214 3
1.9334234 1.64955 -0.48612636 4
1.9829811 1.6912335 -0.40672994 11
2.0004406 1.7055213 -0.31807932 12
1.98524 1.6919633 -0.22486216 12
1.9713309 1.6795151 -0.13327339 12
1.9701759 1.6779377 -0.044059001 10
1.9672054 1.6748155 0.68154395 12
1.97701 1.6825678 0.5900501 14
1.9768474 1.6818346 0.49661112 14
1.9816326 1.6853096 0.40550008 11
1.968791 1.6737962 0.31259486 11
1.9913961 1.6924156 0.2252976 12
1.9850723 1.6864444 0.13450339 12
1.9648899 1.6687081 0.044329111 48
1.4364452 1.2177634 -0.49434459 3
1.6682477 1.4137764 -0.49601737 3
1.9429146 1.6459635 -0.48707953 4
1.992641 1.6874927 -0.40751213 11
2.0101695 1.7017345 -0.31868869 12
1.9949361 1.688241 -0.22529794 12
1.9848059 1.6790737 -0.13379502 13
1.9836555 1.6775064 -0.04423178 11
1.9804164 1.6741747 0.68413043 12
1.9865924 1.6788012 0.59117401 14
1.9864554 1.6780913 0.49756429 14
1.9912765 1.6815684 0.40628135 11
1.9784138 1.670115 0.3132042 11
2.0049052 1.6918788 0.22616915 12
1.9947635 1.6827246 0.13476509 12
1.9783463 1.6682847 0.044503633 47
1.4443821 1.2158521 -0.4956387 3
1.6731725 1.4079446 -0.49601737 3
1.9524044 1.6423311 -0.48803276 4
2.0022991 1.6837051 -0.40829429 11
2.0236952 1.7010942 -0.3199074 12
2.0046306 1.6844715 -0.22573371 12
1.994478 1.6753465 -0.13405582 12
1.9933276 1.673787 -0.044318173 12
1.9899477 1.6703568 0.68542367 12
1.9999049 1.6781198 0.59342182 15
1.9960617 1.6743014 0.49851748 13
2.0047026 1.6809535 0.40784398 11
1.9880351 1.6663868 0.31381357 11
2.0146165 1.688069 0.22660492 12
2.0082808 1.6821638 0.13528845 13
1.9879906 1.6645782 0.044590894 47
1.4523231 1.2139002 -0.49693277 3
1.6743386 1.3989719 -0.49489263 3
1.9581252 1.635506 -0.48803276 4
2.0157459 1.6830357 -0.40985861 11
2.0334308 1.6971996 -0.32051674 12
2.014323 1.6806548 -0.22616951 12
2.007983 1.6747707 -0.13457744 12
2.0029976 1.6700201 -0.044404563 11
2.0031867 1.669585 0.68801016 13
2.0094936 1.6742473 0.59454572 15
2.0094368 1.6736059 0.50042385 13
2.0143533 1.6771054 0.4086253 11
2.0014687 1.6657865 0.31503224 11
2.0243258 1.6842122 0.22704072 12
2.0179791 1.678336 0.13555013 13
2.0014775 1.6640208 0.04476542 46
1.4565514 1.2088233 -0.49693277 3
1.6792116 1.3931189 -0.49489263 3
1.9676007 1.6317943 -0.48898596 4
2.0254104 1.6791413 -0.41064081 11
2.0469849 1.6964246 -0.32173541 11
2.0278485 1.6799686 -0.22704107 11
2.0176628 1.6709363 -0.13483825 12
2.0165167 1.669394 -0.044577342 11
2.016444 1.668741 0.69059664 12
2.0190794 1.6703281 0.59566957 14
2.0190489 1.6697094 0.50137705 13
2.027808 1.6763573 0.41018793 12
2.0110965 1.6619513 0.31564158 10
2.0378726 1.6834803 0.22791228 11
2.0315256 1.6776407 0.13607349 12
2.0111289 1.6602067 0.044852681 46
1.4607621 1.2037317 -0.49693277 3
1.6803038 1.3841511 -0.49376786 3
1.9732847 1.6249161 -0.48898596 4
2.0388849 1.6783382 -0.41220516 11
2.0567262 1.6924223 -0.32234478 12
2.0375469 1.676044 -0.22747684 12
2.0273395 1.6670543 -0.13509907 12
2.0261939 1.6655196 -0.044663735 10
2.0259886 1.6647584 0.69188994 10
2.0324273 1.6694551 0.59791738 14
2.0286586 1.6657665 0.50233024 13
2.0374646 1.6724019 0.41096923 12
2.0207222 1.6580693 0.31625095 11
2.0475876 1.6795152 0.22834805 11
2.0412304 1.673705 0.13633516 12
2.0246446 1.6595148 0.045027204 46
1.4649551 1.1986252 -0.49693277 3
1.6888965 1.3813618 -0.49489263 3
1.9827443 1.621125 -0.48993912 4
2.0485544 1.6743361 -0.41298732 11
2.0703075 1.6915127 -0.32356349 11
2.0511007 1.6752231 -0.22834839 12
2.0408819 1.6662832 -0.13562068 12
2.0397415 1.6647588 -0.044836514 11
2.0392718 1.6637827 0.69447643 10
2.0420179 1.6654296 0.59904134 14
2.0420692 1.664878 0.50423664 13
2.0509462 1.6715196 0.41253185 11
2.0341926 1.6572746 0.31746963 11
2.0573001 1.6755031 0.22878383 11
2.0509324 1.669722 0.13659684 12
2.0343027 1.6555929 0.045114469 46
1.4653816 1.190459 -0.4956387 3
1.6937081 1.375458 -0.49489263 3
1.988391 1.6141939 -0.48993912 4
2.0620561 1.6733989 -0.41455165 11
2.0800533 1.687402 -0.32417279 12
2.0608046 1.6711906 -0.22878417 12
2.0505645 1.6622934 -0.1358815 12
2.0494237 1.6607759 -0.044922903 11
2.0488203 1.6596946 0.69576973 11
2.0553916 1.6644237 0.60128915 13
2.0516832 1.6608279 0.50518978 13
2.0606077 1.667457 0.41331318 11
2.0438235 1.6532848 0.31807896 11
2.0708823 1.6745756 0.22965539 12
2.0606315 1.6656916 0.13685852 12
2.0478463 1.6547658 0.045288995 46
1.4695282 1.1853367 -0.4956387 3
1.698499 1.3695376 -0.49489263 3
1.9940135 1.6072434 -0.48993912 4
2.0717301 1.6692892 -0.41533384 11
2.0936606 1.686357 -0.3253915 12
2.0743849 1.6702344 -0.22965574 11
2.0641341 1.6613871 -0.13640311 12
2.0629985 1.6598799 -0.045095682 10
2.0583646 1.6555597 0.69706297 12
2.0649858 1.6602916 0.602413 13
2.0651195 1.6598059 0.50709617 13
2.0741153 1.6664402 0.41487581 11
2.0573206 1.6523558 0.31929767 11
2.0805991 1.6704547 0.23009115 12
2.0742214 1.6647393 0.13738188 12
2.0575092 1.6507359 0.045376252 46
1.4698871 1.1771808 -0.49434459 3
1.7032691 1.3636004 -0.49489263 3
1.9996117 1.6002733 -0.48993912 4
2.0852568 1.6682174 -0.41689819 11
2.10341 1.6821382 -0.32600087 12
2.0840931 1.6660937 -0.23009151 12
2.0777221 1.6604061 -0.13692473 12
2.0726862 1.655789 -0.045182075 11
2.0716794 1.6543925 0.69964945 11
2.0783839 1.6591526 0.60466087 13
2.0785737 1.6587102 0.50900251 13
2.0837803 1.6622698 0.41565707 12
2.066956 1.6482586 0.31990701 11
2.0942073 1.6693918 0.23096271 12
2.0839248 1.6606002 0.13764356 12
2.0710795 1.6497735 0.045550779 47
1.4739872 1.1720427 -0.49434459 3
1.7080187 1.3576465 -0.49489263 3
2.0090284 1.596337 -0.49089235 4
2.0949345 1.6639998 -0.41768035 12
2.1131556 1.6778716 -0.32661018 12
2.0976989 1.6650019 -0.23096307 12
2.0874169 1.656247 -0.13718553 11
2.086287 1.6547571 -0.045354854 11
2.0812263 1.6501516 0.70094275 12
2.0917993 1.65794 0.60690868 14
2.0920453 1.6575406 0.5109089 14
2.0973129 1.6611185 0.4172197 11
2.0765877 1.6441138 0.32051635 11
2.1039276 1.6651626 0.23139849 12
2.0975401 1.659512 0.13816692 12
2.0846677 1.6487362 0.045725301 47
1.4818602 1.169883 -0.4956387 3
1.7089227 1.348658 -0.49376786 3
2.0145884 1.5893145 -0.49089235 4
2.1046078 1.6597352 -0.41846254 12
2.1228969 1.6735576 -0.32721955 12
2.1074102 1.6607524 -0.23139885 11
2.1010301 1.6551303 -0.13770714 11
2.095978 1.6505575 -0.045441244 10
2.094564 1.6488516 0.70352924 13
2.1014025 1.6536412 0.60803258 14
2.1055341 1.6562974 0.5128153 14
2.1069806 1.6568401 0.41800103 12
2.0901172 1.6429892 0.32173505 11
2.1136436 1.6608859 0.23183426 12
2.1072469 1.6552646 0.1384286 12
2.0943422 1.6445369 0.045812566 47
1.4859349 1.1647032 -0.4956387 3
1.7097853 1.3396798 -0.49264312 3
2.023988 1.5852993 -0.49184549 4
2.118165 1.6584674 -0.42002687 11
2.1365418 1.6722544 -0.32843825 12
2.1210403 1.6595247 -0.23227042 12
2.110728 1.6508625 -0.13796796 12
2.1096034 1.6493893 -0.045614023 11
2.1041119 1.6445042 0.70482248 12
2.1148403 1.6522948 0.61028039 14
2.1151712 1.6519588 0.51376849 15
2.1166437 1.6525143 0.41878232 11
2.0997519 1.6387365 0.32234439 11
2.1272826 1.6596254 0.23270582 12
2.1208866 1.6540401 0.13895196 12
2.1079555 1.6433637 0.045987088 46
1.4899913 1.1595093 -0.4956387 3
1.7144513 1.3337033 -0.49264312 3
2.0295093 1.5782244 -0.49184549 4
2.1278405 1.6540946 -0.42080906 11
2.1462848 1.6678317 -0.32904762 12
2.1307538 1.6551664 -0.23270617 12
2.1204216 1.646547 -0.13822877 11
2.1192973 1.6450809 -0.045700416 11
2.1174712 1.6430714 0.70740896 11
2.124445 1.6478889 0.6114043 13
2.1286824 1.6505806 0.51567489 16
2.1302061 1.651167 0.42034498 12
2.1133053 1.6374764 0.3235631 10
2.137001 1.6552399 0.23314162 12
2.1305954 1.6496836 0.13921364 12
2.1176324 1.6390555 0.046074349 46
1.4940296 1.1543012 -0.4956387 3
1.7190963 1.3277107 -0.49264312 3
2.0388913 1.5741301 -0.49279872 4
2.1414204 1.6526915 -0.42237341 11
2.1599522 1.6663923 -0.3302663 12
2.144407 1.6538023 -0.23357774 12
2.1340649 1.6452324 -0.13875039 11
2.1289864 1.6407248 -0.045786802 10
2.1270196 1.6386178 0.70870227 11
2.1340442 1.6434356 0.6125282 12
2.1383204 1.6461344 0.51662809 15
2.1398704 1.6467328 0.42112628 12
2.1268752 1.6361415 0.32478178 11
2.1506627 1.6538432 0.23401317 12
2.144258 1.6483225 0.139737 12
2.1312687 1.6377456 0.046248872 47
1.4980499 1.149079 -0.4956387 3
1.7275863 1.3246661 -0.49376786 3
2.0482693 1.5699893 -0.49375188 4
2.1510963 1.64821 -0.42315558 10
2.1736357 1.6648779 -0.331485 12
2.1541216 1.649335 -0.23401353 11
2.1437602 1.640808 -0.1390112 12
2.1426415 1.6393589 -0.045959584 11
2.1403997 1.6370513 0.71128875 9
2.1475086 1.6418947 0.61477602 11
2.1518531 1.6446213 0.51853442 14
2.1534543 1.6452496 0.4226889 12
2.1365175 1.6317195 0.32539111 11
2.1643405 1.6523708 0.23488472 11
2.1539681 1.643857 0.13999867 13
2.1409473 1.6333286 0.046336137 46
1.5020517 1.1438429 -0.4956387 3
1.7321998 1.3186277 -0.49376786 3
2.0576429 1.5658023 -0.49470508 4
2.1646976 1.6466709 -0.4247199 9
2.1833839 1.6602843 -0.33209434 12
2.1677966 1.6478343 -0.23488508 12
2.1574259 1.6393569 -0.13953282 12
2.1523321 1.6348938 -0.046045974 11
2.1537943 1.6354117 0.71387523 9
2.1571076 1.6373343 0.61589992 10
2.1614904 1.6400665 0.51948762 13
2.1631191 1.6407074 0.42347023 12
2.1501091 1.6302484 0.32660982 11
2.1740651 1.6478148 0.23532051 12
2.1676528 1.642359 0.14052203 12
2.1546061 1.6318821 0.046510659 47
1.5021828 1.1356802 -0.49434459 3
1.740679 1.3155106 -0.49489263 3
2.0670123 1.5615689 -0.49565825 4
2.1783142 1.6450571 -0.42628425 9
2.197088 1.6586329 -0.33331302 12
2.1775112 1.6432576 -0.23532088 11
2.1671212 1.6348231 -0.13979362 12
2.1660087 1.6333908 -0.046218757 11
2.1633463 1.6307909 0.71516848 9
2.1705918 1.6356586 0.61814773 9
2.1711228 1.6354648 0.52044082 11
2.1767232 1.639088 0.42503282 13
2.163717 1.6287025 0.32782853 11
2.1877639 1.6462054 0.23619208 12
2.1773629 1.637784 0.14078373 12
2.1642849 1.6273556 0.04659792 51
1.5022752 1.1275306 -0.49305049 3
1.7491572 1.3123503 -0.49601737 3
2.0763774 1.5572892 -0.49661148 4
2.1879945 1.6404059 -0.42706645 9
2.2108066 1.6569061 -0.33453172 12
2.1912067 1.6416196 -0.23619244 14
2.1808081 1.6332349 -0.14031525 12
2.175699 1.628816 -0.046305142 13
2.1728926 1.6261234 0.71646172 10
2.1840904 1.6339089 0.62039554 11
2.1807492 1.6308156 0.52139401 14
2.1863868 1.6344368 0.42581412 13
2.1773398 1.6270813 0.32904723 12
2.1974874 1.6415395 0.23662783 14
2.1870673 1.6331611 0.14104539 15
2.1779647 1.6257716 0.046772443 54
1.5023292 1.1193942 -0.49175641 3
1.7537274 1.3062365 -0.49601737 3
2.0818007 1.5500318 -0.49661148 4
2.2016304 1.6386553 -0.4286308 11
2.2205586 1.6521412 -0.33514106 13
2.2009203 1.6369334 -0.2366282 13
2.1905029 1.6285915 -0.14057605 14
2.1893964 1.6271758 -0.046477929 13
2.1824327 1.6214089 0.71775496 10
2.193692 1.6291798 0.62151939 11
2.1903696 1.6261193 0.52234721 13
2.2000103 1.632681 0.42737675 13
2.1869917 1.6224277 0.32965657 13
2.2072048 1.6368259 0.23706363 13
2.2007771 1.6314638 0.14156875 14
2.1876431 1.6211358 0.046859708 51
1.5062274 1.1141433 -0.49175641 3
1.7621939 1.3030035 -0.49714214 3
2.0911455 1.5456729 -0.49756464 4
2.2113087 1.6338949 -0.42941296 11
2.2342958 1.6502769 -0.33635977 12
2.2106283 1.6321995 -0.23706399 11
2.2001917 1.6239007 -0.14083686 13
2.1990857 1.6224915 -0.046564315 10
2.1919661 1.6166477 0.71904826 9
2.2072084 1.6272948 0.6237672 10
2.1999834 1.6213756 0.52330035 12
2.2096722 1.627921 0.42815807 11
2.2006338 1.6206697 0.33087525 11
2.2209275 1.6350174 0.23793519 11
2.2104802 1.6267313 0.14183044 11
2.1973155 1.6164522 0.046946973 48
1.5140002 1.1117373 -0.49305049 3
1.7706587 1.2997271 -0.49826688 3
2.0965283 1.5383642 -0.49756464 4
2.2249627 1.6320078 -0.43097728 10
2.2440448 1.6454021 -0.33696911 12
2.2243469 1.6303622 -0.23793554 12
2.2139022 1.6221129 -0.14135848 10
2.2128024 1.6207134 -0.046737097 11
2.201493 1.6118398 0.72034144 8
2.2168069 1.6224579 0.62489116 9
2.2135522 1.6194825 0.52520674 13
2.2233138 1.6260287 0.4297207 12
2.210284 1.6159071 0.33148462 11
2.2306428 1.6301937 0.23837095 13
2.2242088 1.6248964 0.1423538 13
2.2069819 1.6117207 0.047034234 49
1.5178716 1.1064456 -0.49305049 3
1.7791224 1.2964077 -0.49939165 3
2.1018853 1.5310364 -0.49756464 4
2.2346382 1.6271381 -0.43175948 11
2.2577994 1.6434 -0.33818778 12
2.2340519 1.6255182 -0.23837131 12
2.2235889 1.6173118 -0.14161928 12
2.2265329 1.6188591 -0.046909876 12
2.2110128 1.606985 0.72163475 8
2.2263982 1.6175735 0.62601501 10
2.2231636 1.6146305 0.52615994 14
2.2329724 1.6211592 0.430502 13
2.2199271 1.6110967 0.33209395 12
2.2403512 1.6253225 0.23880674 13
2.2339091 1.6200538 0.14261547 12
2.2166419 1.6069412 0.047121495 49
1.5256373 1.1039717 -0.49434459 3
1.7875841 1.2930447 -0.50051636 3
2.1032395 1.5208143 -0.49661148 4
2.2483091 1.6251138 -0.43332383 11
2.2675447 1.6384153 -0.33879715 12
2.2477882 1.623543 -0.23924288 13
2.2373173 1.615386 -0.14214091 12
2.2402775 1.6169287 -0.047082655 13
2.2244425 1.6049093 0.72422123 9
2.2399342 1.615492 0.62826282 11
2.2367487 1.6126012 0.52806634 14
2.2466309 1.6191299 0.43206459 14
2.2335906 1.6091398 0.33331263 12
2.2540951 1.623314 0.23967829 14
2.2476554 1.6180809 0.14313883 14
2.2303531 1.6050341 0.047296021 51
1.5294815 1.0986396 -0.49434459 3
1.7960442 1.2896386 -0.50164115 3
2.1085355 1.5134634 -0.49661148 4
2.2579806 1.6201349 -0.43410599 13
2.2772827 1.6333824 -0.33940649 13
2.2615376 1.6214917 -0.24011444 13
2.2510593 1.6133841 -0.14266253 14
2.2540359 1.614922 -0.047255438 12
2.2378843 1.602759 0.72680777 10
2.2534826 1.6133355 0.63051063 10
2.2503471 1.6104966 0.52997267 14
2.2603021 1.6170247 0.43362722 15
2.2472675 1.6071067 0.33453134 12
2.2678518 1.6212293 0.24054985 13
2.2614145 1.6160312 0.14366218 14
2.2481458 1.6059566 0.047557805 56
1.5372396 1.0960979 -0.4956387 3
1.804502 1.286189 -0.50276589 3
2.109808 1.5032457 -0.49565825 4
2.271667 1.6179731 -0.43567032 10
2.2910559 1.6311802 -0.3406252 11
2.2753003 1.619364 -0.24098599 18
2.2688835 1.6142006 -0.14344496 14
2.2678075 1.612839 -0.047428217 18
2.2552748 1.6033334 0.73068756 12
2.2670431 1.6111041 0.63275844 14
2.263958 1.6083169 0.53187907 21
2.2739859 1.6148437 0.43518984 21
2.260957 1.6049979 0.33575001 17
2.2856834 1.6219506 0.24185717 21
2.275187 1.6139053 0.14418554 21
2.2659724 1.6067746 0.047819592 60
1.5410563 1.0907252 -0.4956387 3
1.8089807 1.2798823 -0.50276589 3
2.11905 1.4987062 -0.49661148 4
2.2853658 1.6157354 -0.43723467 10
2.3007889 1.6260371 -0.34123453 11
2.2931435 1.620034 -0.24229334 23
2.2826614 1.6120315 -0.14396657 19
2.2815917 1.6106793 -0.047600996 22
2.2726963 1.6038054 0.73456728 16
2.2806156 1.6087978 0.63500631 17
2.2815919 1.6088901 0.5347386 16
2.2876818 1.6125869 0.43675247 17
2.2746594 1.6028131 0.33696872 22
2.2994754 1.619699 0.24272874 17
2.2889719 1.6117029 0.14470892 17
2.2838314 1.6074871 0.048081376 65
1.5448543 1.0853393 -0.4956387 3
1.8134372 1.2735599 -0.50276589 3
2.132303 1.4969407 -0.49851784 4
2.2990766 1.6134219 -0.43879902 10
2.3145761 1.6236961 -0.34245324 11
2.306941 1.6177393 -0.2431649 17
2.2964518 1.6097859 -0.14448819 16
2.2994826 1.6113119 -0.047860172 16
2.2861927 1.6014044 0.73715377 18
2.2941995 1.6064161 0.63725412 22
2.2952363 1.6065453 0.536645 19
2.3013899 1.610254 0.43831509 18
2.2883737 1.600552 0.3381874 17
2.3132794 1.6173706 0.24360029 22
2.3068619 1.6122843 0.14549395 19
2.3017232 1.608095 0.048343163 68
1.5446719 1.0771775 -0.49434459 3
1.8098786 1.2616501 -0.50051636 3
2.141542 1.4922944 -0.49947101 4
2.312799 1.611032 -0.44036335 10
2.3243022 1.6184425 -0.34306258 11
2.32075 1.6153677 -0.24403645 17
2.3102543 1.6074637 -0.1450098 18
2.3133013 1.6089846 -0.048032951 17
2.3036654 1.6016859 0.74103355 18
2.3077941 1.6039592 0.63950193 23
2.3088923 1.6041249 0.53855139 18
2.3151093 1.6078451 0.43987769 18
2.3020999 1.5982146 0.3394061 17
2.3230035 1.6121259 0.24403608 21
2.3206809 1.6099142 0.14601731 21
2.3155386 1.6057481 0.048517689 66
1.564307 1.0827739 -0.49952096 3
1.8102653 1.2525529 -0.49939165 3
2.150775 1.4876021 -0.50042421 3
2.3265326 1.6085662 -0.44192773 11
2.3381028 1.6159629 -0.34428129 10
2.3345706 1.6129194 -0.24490802 19
2.3240685 1.6050645 -0.14553143 19
2.3271317 1.6065803 -0.04820573 18
2.3171926 1.5991215 0.74362004 21
2.3213997 1.6014268 0.64174974 23
2.3225591 1.6016284 0.54045779 20
2.3288398 1.60536 0.44144034 18
2.3158379 1.595801 0.34062478 19
2.3368206 1.6096582 0.24490763 22
2.3345115 1.6074672 0.14654067 21
2.3293657 1.6033247 0.048692212 66
1.5242894 1.0472237 -0.48528594 3
1.8106103 1.243468 -0.49826688 3
2.160001 1.4828634 -0.5013774 4
2.3362052 1.6032295 -0.44270989 10
2.3519139 1.6134061 -0.34549999 11
2.3484025 1.6103944 -0.24577957 18
2.3378942 1.6025887 -0.14605305 19
2.3409736 1.604099 -0.048378512 17
2.33073 1.596482 0.74620652 20
2.3350155 1.5988189 0.64399755 23
2.3362362 1.599056 0.54236418 18
2.3425813 1.6027983 0.44300297 18
2.3295865 1.5933107 0.34184349 18
2.3506486 1.607114 0.24577919 22
2.3483531 1.604943 0.14706403 20
2.3432043 1.6008242 0.048866734 66
1.5558671 1.060943 -0.49434459 3
1.8149399 1.2371403 -0.49826688 3
2.165164 1.4753146 -0.5013774 4
2.3499503 1.600625 -0.44427425 10
2.365736 1.6107727 -0.34671867 10
2.3622446 1.6077923 -0.24665113 19
2.3517306 1.6000355 -0.14657466 21
2.3548262 1.6015406 -0.048551291 18
2.3442767 1.5937674 0.74879307 19
2.3486414 1.5961355 0.64624536 22
2.3499238 1.5964077 0.54427052 19
2.3563328 1.6001606 0.44456559 16
2.3433464 1.5907439 0.34306216 18
2.3644874 1.6044925 0.24665076 21
2.3622055 1.6023419 0.14758739 21
2.357053 1.5982463 0.04904126 68
1.5555613 1.0527985 -0.49305049 3
1.8232825 1.2335274 -0.49939165 3
2.1743665 1.4704974 -0.5023306 4
2.3637059 1.5979441 -0.44583857 10
2.3795679 1.6080623 -0.34793738 11
2.3719702 1.602325 -0.24708691 19
2.3655777 1.5974054 -0.14709628 18
2.3645458 1.5961078 -0.048637681 17
2.3578331 1.5909777 0.75137955 21
2.3622768 1.5933764 0.64849317 22
2.3636215 1.5936831 0.54617691 19
2.3700945 1.597446 0.44612822 17
2.3571165 1.5881004 0.3442809 17
2.3783367 1.601794 0.24752231 23
2.3760681 1.5996635 0.14811075 21
2.366765 1.5928 0.049128518 68
nan nan nan 0
1.8275772 1.2271556 -0.49939165 3
2.1835616 1.4656339 -0.50328374 3
2.3774712 1.5951866 -0.44740292 10
2.3934095 1.6052748 -0.34915608 11
2.3858235 1.5995831 -0.24795848 18
2.3794348 1.5946981 -0.14761789 19
2.3784099 1.5934095 -0.048810463 16
2.3713984 1.5881128 0.75396603 19
2.3759215 1.5905411 0.65074098 24
2.3773284 1.5908823 0.54808331 18
2.3838658 1.5946547 0.44769084 20
2.3708963 1.58538 0.34549958 17
2.3963366 1.6017864 0.24882965 19
2.389941 1.596908 0.14863411 22
2.3806252 1.5900824 0.049303047 65
nan nan nan 0
1.8399578 1.226172 -0.50164115 3
2.1804945 1.4525605 -0.5013774 3
2.3912458 1.5923524 -0.44896728 10
2.4072609 1.6024104 -0.35037476 11
2.3996859 1.596764 -0.24883004 18
2.3933017 1.5919133 -0.14813951 19
2.3922832 1.5906336 -0.048983242 17
2.3889947 1.5878457 0.75784576 20
2.389575 1.5876303 0.65298879 17
2.3910446 1.5880051 0.54998964 19
2.3976464 1.5917869 0.44925344 15
2.384686 1.5825827 0.34671828 18
2.4102147 1.5989188 0.2497012 20
2.4038231 1.5940747 0.14915746 18
2.3944945 1.5872871 0.04947757 68
nan nan nan 0
1.8320361 1.2116792 -0.49826688 3
2.1814573 1.4422333 -0.50042421 3
2.4050298 1.5894413 -0.4505316 9
2.4211211 1.5994687 -0.35159346 10
2.413558 1.5938673 -0.24970159 18
2.4071784 1.5890512 -0.14866114 17
2.4061663 1.5877802 -0.049156025 16
2.4025862 1.584816 0.7604323 21
2.4032371 1.5846434 0.6552366 17
2.4047694 1.5850515 0.55189604 17
2.4114363 1.5888422 0.45081607 14
2.3984847 1.5797085 0.34793696 15
2.4241018 1.595974 0.25057277 19
2.4177148 1.5911642 0.14968082 19
2.4083738 1.5844144 0.049652096 66
nan nan nan 0
1.8281088 1.1999301 -0.49601737 3
2.1536477 1.413069 -0.49279872 3
2.4188221 1.5864532 -0.45209596 9
2.4349899 1.5964499 -0.35281214 9
2.427439 1.5908935 -0.25057316 16
2.4210637 1.5861113 -0.14918275 17
2.4200585 1.5848491 -0.049328804 15
2.4161856 1.5817103 0.76301885 21
2.4169075 1.5815804 0.65748441 17
2.4143953 1.5793346 0.55284917 17
2.4252343 1.5858204 0.45237869 17
2.4122922 1.5767568 0.34915566 16
2.4338276 1.590227 0.25100854 21
2.4316154 1.588176 0.15020418 19
2.4222617 1.5814638 0.049826618 66
nan nan nan 0
1.8445328 1.2015189 -0.49939165 3
2.1873593 1.4242907 -0.49947101 4
2.4326229 1.5833884 -0.45366031 9
2.4488673 1.5933535 -0.35403085 11
2.4413283 1.5878417 -0.2514447 16
2.434958 1.5830939 -0.14970437 17
2.4339597 1.5818405 -0.049501583 17
2.4297926 1.5785291 0.76560533 20
2.4305856 1.5784414 0.65973222 17
2.4281271 1.5762422 0.55475557 17
2.4390407 1.5827216 0.45394132 17
2.4261086 1.5737284 0.35037434 19
2.4477224 1.5871415 0.25188008 18
2.445524 1.5851098 0.15072754 19
2.4361584 1.5784357 0.050001144 67
nan nan nan 0
nan nan nan 0
2.2046852 1.4246384 -0.5023306 4
2.4464316 1.5802464 -0.45522466 9
2.4627526 1.5901797 -0.35524952 11
2.4552259 1.5847127 -0.25231627 16
2.4530566 1.5827059 -0.1504868 17
2.4478688 1.5787539 -0.049674366 17
2.4434066 1.5752722 0.76819187 20
2.4442711 1.5752256 0.66198003 16
2.4418669 1.5730731 0.55666196 19
2.4528546 1.5795459 0.45550394 15
2.4399328 1.5706223 0.35159305 18
2.4616251 1.5839784 0.25275165 19
2.4594412 1.581966 0.1512509 21
2.4500635 1.5753299 0.050175667 64
nan nan nan 0
nan nan nan 0
2.2179084 1.422233 -0.504237 4
2.460248 1.5770273 -0.45678899 9
2.4808238 1.5896053 -0.35707757 10
2.4691315 1.5815058 -0.25318784 18
2.4669764 1.5795183 -0.15100841 14
2.4617863 1.5755895 -0.049847145 17
2.4570274 1.5719392 0.77077836 21
2.4579639 1.5719339 0.66422778 17
2.4597495 1.5724711 0.55952156 20
2.4666762 1.5762928 0.45706654 15
2.4537652 1.567439 0.35281172 17
2.4755354 1.5807374 0.25362322 23
2.4733658 1.5787444 0.15177426 18
2.4639764 1.5721459 0.050350189 67
nan nan nan 0
nan nan nan 0
2.2394235 1.4250226 -0.50804973 3
2.4699049 1.5710803 -0.45757118 9
2.4947331 1.5862619 -0.35829625 11
2.4830441 1.578221 -0.25405937 16
2.4766893 1.5735748 -0.15126921 18
2.4799311 1.5750272 -0.050106313 17
2.4706545 1.5685304 0.77336484 21
2.4716632 1.5685656 0.66647559 16
2.4735129 1.5691339 0.56142789 19
2.4846756 1.5756071 0.45941046 15
2.4676046 1.5641781 0.35403043 17
2.4894528 1.5774184 0.25449476 23
2.487298 1.5754448 0.15229762 17
2.4778967 1.5688841 0.050524715 68
nan nan nan 0
nan nan nan 0
2.2402337 1.4145762 -0.50709653 3
2.4837263 1.5677211 -0.45913553 8
2.5086493 1.5828403 -0.35951498 9
2.4969642 1.5748583 -0.25493094 16
2.4948382 1.5729089 -0.15205164 18
2.4938726 1.5716919 -0.050279092 17
2.4883742 1.5676199 0.77724457 22
2.481246 1.5625244 0.66759956 17
2.4872828 1.5657197 0.56333429 18
2.4985204 1.5721849 0.46097311 15
2.4814513 1.5608398 0.35524914 16
2.5033774 1.5740217 0.25536633 19
2.5012372 1.5720669 0.15282097 18
2.4960573 1.5682034 0.050786499 63
nan nan nan 0
nan nan nan 0
2.2451577 1.4067477 -0.50709653 3
2.4975541 1.5642843 -0.46069989 10
2.5225718 1.5793409 -0.36073366 9
2.5108907 1.5714176 -0.25580251 17
2.5045469 1.566839 -0.15231246 20
2.5078211 1.5682784 -0.050451875 14
2.502022 1.5640446 0.77983105 21
2.4949489 1.5590175 0.66984737 16
2.5052218 1.5648289 0.56619388 17
2.5123711 1.5686851 0.46253574 16
2.4995143 1.5600512 0.35707715 17
2.5215342 1.5731834 0.25667366 18
2.515183 1.5686109 0.15334433 17
2.5100007 1.5647707 0.050961021 65
nan nan nan 0
nan nan nan 0
2.2458863 1.3963106 -0.50614333 3
2.5113881 1.5607703 -0.46226421 10
2.532285 1.5731447 -0.361343 11
2.5290554 1.5705265 -0.25710985 17
2.5184853 1.5633538 -0.15283407 20
2.521776 1.5647868 -0.050624654 16
2.5156751 1.5603931 0.7824176 20
2.5086567 1.5554336 0.67209518 17
2.5190129 1.5612459 0.56810021 18
2.526228 1.5651075 0.46409836 16
2.5133832 1.5565428 0.35829583 16
2.5354807 1.5696156 0.25754523 16
2.529135 1.5650765 0.15386769 20
2.5282023 1.5638893 0.051222809 63
nan nan nan 0
1.8401706 1.1356257 -0.49039361 4
2.250747 1.3884625 -0.50614333 3
2.5294313 1.5597707 -0.46461076 8
2.5462101 1.5695038 -0.3625617 10
2.5430031 1.5669147 -0.25798139 16
2.5366817 1.5624088 -0.1536165 17
2.5357368 1.5612166 -0.050797433 14
2.5293331 1.5566652 0.78500408 21
2.5223706 1.5517732 0.67434299 17
2.5328093 1.5575857 0.57000661 18
2.5400901 1.5614524 0.46566096 16
2.5272579 1.5529562 0.35951456 17
2.5494328 1.5659695 0.25841677 19
2.543093 1.5614641 0.15439107 17
2.5421674 1.560285 0.051397335 65
nan nan nan 0
1.8856717 1.1546363 -0.50164115 3
2.2555797 1.3805975 -0.50614333 4
2.5432856 1.5560865 -0.46617511 7
2.5601404 1.5657851 -0.36378038 11
2.5569568 1.5632247 -0.25885296 18
2.5506411 1.5587522 -0.15413812 17
2.5497036 1.5575681 -0.050970219 16
2.5429957 1.5528609 0.78759056 21
2.5402472 1.5505739 0.67771465 15
2.5466106 1.5538481 0.571913 18
2.5539577 1.5577196 0.46722358 16
2.5453751 1.5518754 0.36134258 18
2.5633903 1.5622451 0.25928834 20
2.5570564 1.5577731 0.15491442 18
2.556138 1.5566019 0.051571857 67
nan nan nan 0
nan nan nan 0
2.2603853 1.3727156 -0.50614333 3
2.5613661 1.5548873 -0.4685216 6
2.5740757 1.561988 -0.36499909 9
2.5709152 1.5594561 -0.25972453 17
2.564606 1.555017 -0.15465973 19
2.5636756 1.553841 -0.051142998 15
2.5566623 1.5489801 0.79017711 21
2.5581465 1.5492691 0.68108642 16
2.5604165 1.5500332 0.57381934 20
2.5678298 1.5539086 0.46878621 17
2.559269 1.548118 0.36256129 17
2.5773525 1.5584424 0.26015988 21
2.5710249 1.5540035 0.15543778 19
2.5701137 1.5528404 0.051746383 66
nan nan nan 0
nan nan nan 0
2.2651632 1.364817 -0.50614333 3
2.5794694 1.5535809 -0.47086814 6
2.5880158 1.5581126 -0.36621779 9
2.5891461 1.5581777 -0.26103184 17
2.5828545 1.5537772 -0.15544216 16
2.5776527 1.5500352 -0.051315777 17
2.5744727 1.5475112 0.79405689 21
2.5760672 1.5478579 0.68445808 18
2.5742271 1.5461407 0.57572573 18
2.5817065 1.5500199 0.47034883 17
2.573168 1.5442827 0.36377996 15
2.5913193 1.554561 0.26103145 17
2.5849979 1.5501553 0.15596114 19
2.5840943 1.5490004 0.051920906 66
nan nan nan 0
nan nan nan 0
2.2694397 1.3576941 -0.50614333 3
2.6012909 1.555608 -0.47399682 11
2.6056769 1.5576135 -0.36804584 10
2.6025801 1.5551457 -0.26190341 18
2.5962963 1.5507761 -0.15596379 18
2.5910943 1.5470552 -0.05148856 15
2.5876162 1.5443662 0.79664338 21
2.5892854 1.5447495 0.68670589 16
2.587503 1.543074 0.57763213 19
2.5950475 1.5469593 0.47191146 16
2.5907967 1.5438123 0.36560804 18
2.604749 1.5515106 0.26190299 21
2.5984359 1.5471356 0.1564845 18
2.6018357 1.548545 0.052182693 65
1.6149262 0.9592545 -0.49305049 3
1.8802696 1.1164228 -0.49601737 3
2.2741652 1.349764 -0.50614333 3
2.6279411 1.5591173 -0.47790766 10
2.6196353 1.5535715 -0.36926451 10
2.6165621 1.5511315 -0.26277497 17
2.610285 1.5467949 -0.15648541 20
2.6093822 1.5456446 -0.051747728 17
2.6054592 1.5427067 0.80052316 22
2.60724 1.5431466 0.6900776 16
2.6013222 1.539031 0.57953846 18
2.6089332 1.5429193 0.47347406 16
2.6047137 1.5398103 0.36682671 17
2.6187253 1.5474766 0.26277456 20
2.6167178 1.5456743 0.15726954 18
2.6158352 1.5445371 0.052357219 65
nan nan nan 0
1.8801509 1.1070518 -0.49489263 3
2.2748666 1.3389299 -0.50519013 3
2.6293817 1.5469706 -0.4771255 10
2.6381452 1.551507 -0.37109256 10
2.6351116 1.5491039 -0.26408231 17
2.6245465 1.5422769 -0.15700702 20
2.623651 1.5411345 -0.051920507 17
2.619426 1.5380379 0.80310965 21
2.6212819 1.5385123 0.69232541 17
2.6196458 1.5369376 0.58239806 18
2.6273508 1.5408417 0.47581798 16
2.6189024 1.5352728 0.36804542 18
2.6372721 1.5454233 0.2640819 19
2.6309822 1.5411205 0.1577929 17
2.6301064 1.539991 0.052531742 66
1.625919 0.95011061 -0.49434459 3
1.8924174 1.1053966 -0.49714214 3
2.2752881 1.3285062 -0.504237 3
2.6390307 1.5402724 -0.47790766 9
2.6521177 1.5472903 -0.37231123 10
2.6491084 1.5449148 -0.26495388 17
2.6385417 1.5381354 -0.15752864 19
2.6376534 1.5370009 -0.052093286 16
2.6372991 1.5361779 0.80698937 22
2.635057 1.5342561 0.69457322 16
2.6334791 1.5327219 0.58430439 20
2.6412508 1.536628 0.4773806 16
2.6371157 1.5336064 0.36987343 18
2.651263 1.5412146 0.26495346 21
2.6492975 1.5394533 0.15857795 18
2.6484349 1.5383338 0.052793525 68
1.6377479 0.94898766 -0.49693277 3
1.8711617 1.0838025 -0.49039361 3
2.2758944 1.3176986 -0.50328374 3
2.6446583 1.5305896 -0.47790766 8
2.6663628 1.5425297 -0.37352994 10
2.6676886 1.5426754 -0.26626119 17
2.6571302 1.5359508 -0.15831105 18
2.6519263 1.5323253 -0.052266069 17
2.6512764 1.5313326 0.80957586 22
2.6491013 1.5294598 0.69682103 16
2.6518326 1.5304197 0.58716398 18
2.6596985 1.5343405 0.47972456 17
2.6513171 1.5288887 0.37109211 19
2.6698401 1.5389493 0.26626077 21
2.6635747 1.5347184 0.15910131 19
2.6627195 1.5336065 0.052968048 66
1.6368634 0.94085836 -0.4956387 3
1.887606 1.0845454 -0.49376786 3
2.2762237 1.3073016 -0.5023306 3
2.6499848 1.5213486 -0.47790766 6
2.684644 1.5406233 -0.37535799 10
2.6816983 1.5383108 -0.26713276 17
2.6711388 1.5316339 -0.15883268 18
2.6702709 1.5305172 -0.052525241 17
2.669178 1.5292717 0.81345564 22
2.6671071 1.5274673 0.70019281 17
2.665678 1.5260309 0.58907038 19
2.6736109 1.5299528 0.48128715 16
2.6695614 1.527017 0.37292019 18
2.6838439 1.5345651 0.26713234 19
2.6819205 1.5328444 0.15988633 18
2.6810822 1.5317367 0.053229839 66
1.6443332 0.93753105 -0.49693277 3
1.8913803 1.0779498 -0.49376786 2
2.2807732 1.2993482 -0.5023306 3
2.6595707 1.514533 -0.47868985 6
2.698631 1.5361528 -0.37657669 10
2.7000396 1.5363307 -0.2684401 17
2.6894896 1.5297064 -0.15961511 18
2.6886351 1.5285994 -0.052784409 17
2.682898 1.524718 0.81604218 25
2.6808953 1.522961 0.70244062 17
2.6837931 1.5239877 0.59192997 20
2.6918199 1.5279244 0.4836311 17
2.6835079 1.5225872 0.37413886 19
2.7021823 1.5325593 0.26843968 19
2.7002859 1.530861 0.16067138 19
2.6994572 1.5297687 0.053491622 67
1.6433918 0.92940801 -0.4956387 3
1.8951315 1.071341 -0.49376786 2
2.2810216 1.2889642 -0.5013774 3
2.6691408 1.5076687 -0.47947201 5
2.7169414 1.5340436 -0.37840474 10
2.7183993 1.5342411 -0.26974744 17
2.7078598 1.5276695 -0.16039754 19
2.7070181 1.526572 -0.053043582 16
2.7008262 1.5224588 0.81992191 23
2.6989288 1.5207686 0.70581228 16
2.6976497 1.5194277 0.59383631 20
2.710047 1.5257875 0.48597503 16
2.7017813 1.5205127 0.37596691 18
2.7205389 1.530444 0.26974702 20
2.7186701 1.5287681 0.16145642 19
2.717855 1.5276855 0.05375341 67
1.6424139 0.92130309 -0.49434459 3
1.8946105 1.0623367 -0.49264312 3
2.285507 1.2809941 -0.5013774 3
2.6786959 1.5007564 -0.4802542 5
2.7352693 1.5318249 -0.38023278 10
2.7411232 1.534475 -0.27149057 17
2.7262478 1.5255227 -0.16117996 19
2.7297828 1.5268754 -0.053389143 17
2.7145553 1.517736 0.82250839 20
2.7127268 1.5160923 0.70806009 17
2.7157919 1.5171833 0.59669584 21
2.7282922 1.5235418 0.48831898 18
2.7200723 1.5183289 0.37779495 17
2.7389138 1.5282192 0.27105436 22
2.737072 1.5265652 0.16224146 20
2.7406368 1.5279264 0.054102458 70
1.6456198 0.91556436 -0.49434459 3
1.8983072 1.0557168 -0.49264312 2
2.2942545 1.2753932 -0.5023306 3
2.6925516 1.4961944 -0.48181856 5
2.7536151 1.529497 -0.38206083 10
2.7595274 1.5321509 -0.27279788 21
2.7446539 1.5232661 -0.16196239 20
2.7525823 1.527038 -0.053734701 19
2.7325084 1.5152781 0.82638818 18
2.7307861 1.5136999 0.7114318 18
2.7339513 1.5148307 0.59955543 22
2.7465541 1.5211873 0.49066287 21
2.7383809 1.516036 0.379623 19
2.7573061 1.5258846 0.2723617 27
2.7554917 1.5242525 0.1630265 24
2.7590785 1.5256078 0.054364245 78
1.6488056 0.90981448 -0.49434459 3
1.9019808 1.0490841 -0.49264312 3
2.2986927 1.2673769 -0.5023306 3
2.7020831 1.4891703 -0.48260072 6
2.7676311 1.5246651 -0.38327953 12
2.7823114 1.5321196 -0.27454099 36
2.7674515 1.5233073 -0.16300564 28
2.7710361 1.5246505 -0.053993873 57
2.7462454 1.5103858 0.82897466 16
2.7488613 1.5111998 0.71480352 23
2.7521269 1.5123696 0.60241497 18
2.7691617 1.5211015 0.49378812 51
2.7567062 1.5136336 0.38145101 24
2.7800815 1.5258368 0.2741048 70
2.7739284 1.5218297 0.16381153 60
2.7863038 1.5279865 0.054800551 84
1.6519716 0.90405351 -0.49434459 3
1.9056311 1.0424385 -0.49264312 2
2.3117156 1.264055 -0.504237 3
2.7159317 1.4844661 -0.48416507 6
2.7816463 1.5197538 -0.38449821 35
2.7832711 1.5200107 -0.27410525 58
2.7815175 1.5184228 -0.16352725 89
2.7895064 1.5221522 -0.054253042 100
2.7599809 1.5054158 0.83156121 25
2.7669525 1.5085919 0.71817523 43
2.7703187 1.5098002 0.60527456 63
2.7831278 1.5161511 0.49535075 79
2.7706902 1.5087484 0.38266972 61
2.7941406 1.5208858 0.27497637 102
2.7879956 1.5169102 0.16433489 98
2.7828372 1.5134743 0.054626029 59
1.6551172 0.89828157 -0.49434459 3
1.9092582 1.0357802 -0.49264312 3
2.2945402 1.2442789 -0.49947101 3
2.7254384 1.47733 -0.48494723 7
2.7912977 1.512399 -0.38510755 68
2.7841799 1.5079138 -0.27366945 18
2.7911918 1.5110815 -0.16378805 88
2.7948027 1.5124056 -0.054253042 34
2.7737153 1.5003684 0.83414769 62
2.7850587 1.5058761 0.72154701 61
2.7842083 1.5047883 0.60718095 48
2.7927487 1.5087744 0.49613208 10
2.7803066 1.5014259 0.38327909 43
2.8038156 1.5134891 0.27541214 31
2.797668 1.5095402 0.16459657 25
2.7837033 1.5013781 0.054538768 8
1.6582427 0.89249867 -0.49434459 3
1.9171523 1.0314175 -0.49376786 3
2.2815781 1.226963 -0.49565825 3
2.7305787 1.4678075 -0.48494723 6
2.7921882 1.5002973 -0.38449821 11
2.7806504 1.4934725 -0.27279788 15
2.805248 1.506053 -0.16430967 12
2.8088751 1.5073687 -0.054425824 8
2.7831919 1.4929605 0.83544099 12
2.7988856 1.5007497 0.72379482 10
2.7980962 1.4996978 0.60908735 8
2.8023512 1.5013487 0.49691334 5
2.7855306 1.4917116 0.38327909 7
2.813473 1.5060436 0.27584794 9
2.8073227 1.502121 0.16485825 7
2.7889273 1.4916519 0.054538768 8
1.6656088 0.88897896 -0.4956387 3
1.920741 1.024719 -0.49376786 2
2.2685235 1.209753 -0.49184549 3
2.7356856 1.4582671 -0.48494723 6
2.8324466 1.5092111 -0.38937297 5
2.7946393 1.48844 -0.27366945 7
2.8148954 1.4985981 -0.16457048 7
2.8229461 1.5022517 -0.054598603 8
2.7969146 1.4877726 0.83802748 6
2.8170123 1.4978324 0.72716647 6
2.8163166 1.4968321 0.61194688 4
2.8162975 1.4961916 0.49847597 6
2.7907209 1.4819793 0.38327909 4
2.827512 1.5008842 0.27671948 8
2.8125489 1.4923124 0.16485825 9
2.7985334 1.4842501 0.054626029 8
1.6687018 0.88315946 -0.4956387 3
1.9243062 1.0180082 -0.49376786 2
2.2553763 1.1926491 -0.48803276 3
2.7363932 1.4464011 -0.48416507 6
2.8728008 1.517862 -0.39424777 10
2.8218403 1.4903066 -0.27584836 8
2.8333564 1.4957563 -0.1653529 7
2.8370159 1.4970551 -0.054771382 17
2.8149066 1.4847604 0.8419072 9
2.8308432 1.4925348 0.72941428 9
2.830209 1.491569 0.61385328 10
2.8346109 1.493257 0.50081992 6
2.8178325 1.4837899 0.38632578 15
2.8503647 1.500285 0.27846259 8
2.8309977 1.4894605 0.16564329 9
2.8125465 1.4791261 0.054800551 22
1.6717744 0.87732923 -0.4956387 3
1.927848 1.0112848 -0.49376786 2
2.2551787 1.1824899 -0.48707953 3
2.7414255 1.4368404 -0.48416507 5
2.9132493 1.5262491 -0.39912254 10
2.8535004 1.4943119 -0.27846304 5
2.8518317 1.4928039 -0.16613534 15
2.8555129 1.4940959 -0.055030555 12
2.8371918 1.4838791 0.84708017 7
2.8489888 1.4894158 0.73278606 8
2.8484485 1.4885004 0.61671281 9
2.8529384 1.4902128 0.50316387 6
2.8405914 1.4831325 0.38876316 12
2.8688319 1.4972402 0.27976996 8
2.8450334 1.4841882 0.16616665 9
2.8221254 1.471611 0.054887816 29
1.6748266 0.87148833 -0.4956387 3
1.9313663 1.0045493 -0.49376786 2
2.2592928 1.1746105 -0.48707953 3
2.7464242 1.4272624 -0.48416507 6
2.9185593 1.5160706 -0.39912254 9
2.8808022 1.495819 -0.28064194 10
2.8703206 1.4897405 -0.16691776 14
2.8740234 1.4910258 -0.055289723 11
2.8552172 1.4806367 0.85095996 6
2.8714721 1.4884303 0.73728162 7
2.8710592 1.4875805 0.6205256 11
2.8712788 1.4870588 0.50550777 6
2.86338 1.4823341 0.3912006 12
2.8873117 1.4940842 0.28107727 7
2.8590672 1.4788362 0.16669002 8
2.836127 1.466343 0.055062339 29
1.6778585 0.86563677 -0.4956387 3
1.9391912 1.0000345 -0.49489263 2
2.2633791 1.1667171 -0.48707953 3
2.7513897 1.4176668 -0.48416507 6
2.9194219 1.5036016 -0.3985132 8
2.9125774 1.4994333 -0.28325659 10
2.8888226 1.4865663 -0.16770019 13
2.8747652 1.4786979 -0.055203337 11
2.8775496 1.479495 0.85613298 6
2.8896501 1.4850789 0.74065334 6
2.893698 1.4865208 0.62433833 11
2.8940253 1.4860506 0.50863302 7
2.8817821 1.4791284 0.39302862 11
2.9058049 1.4908178 0.2823846 7
2.8730974 1.473404 0.16721338 7
2.8456767 1.4587146 0.0551496 26
1.6765701 0.85757536 -0.49434459 3
1.9339947 0.98882371 -0.49264312 2
2.2674379 1.1588092 -0.48707953 3
2.7563214 1.4080541 -0.48416507 6
2.9113927 1.4866309 -0.39668515 6
2.92223 1.4915217 -0.28369236 10
2.9028897 1.4810117 -0.1682218 11
2.8799093 1.4686539 -0.055203337 9
2.8999088 1.4782153 0.86130601 7
2.9121804 1.4838305 0.74514896 8
2.9163642 1.4853212 0.62815106 13
2.9079971 1.4804206 0.51019561 7
2.8957739 1.4735615 0.39424729 10
2.9287498 1.4896984 0.28412771 6
2.887125 1.4678919 0.16773674 6
2.8552079 1.4510374 0.055236865 23
1.6795533 0.85171777 -0.49434459 3
1.9374347 0.98206675 -0.49264312 2
2.2714691 1.1508873 -0.48707953 3
2.7612195 1.3984241 -0.48416507 6
2.8944259 1.4652519 -0.39363843 5
2.9451962 1.4903078 -0.2854355 9
2.8946748 1.4641088 -0.16743939 9
2.8760953 1.4540811 -0.055030555 8
2.9222937 1.4767975 0.86647898 7
2.9347374 1.4824431 0.74964464 8
2.9390569 1.4839811 0.63196379 13
2.9263737 1.4769362 0.51253957 6
2.9097614 1.4679149 0.395466 8
2.9517219 1.4884369 0.28587085 13
2.9100666 1.4667947 0.16878346 6
2.8513265 1.4365634 0.055062339 20
1.6825161 0.84584987 -0.49434459 3
1.9364974 0.97311026 -0.49151835 2
2.2710867 1.1407484 -0.48612636 3
2.7660842 1.3887771 -0.48416507 6
2.8817809 1.4462357 -0.39120105 5
2.9459281 1.4777846 -0.28499973 8
