# .PCD v0.7 - Point Cloud Data file format
VERSION 0.7
FIELDS x y z intensity
SIZE 4 4 4 4
TYPE F F F F
COUNT 1 1 1 1
WIDTH 1362
HEIGHT 1
VIEWPOINT 0 0 0 1 0 0 0
POINTS 1362
DATA ascii
0.47223091 2.0133679 -0.24922307 33
0.46631959 1.986605 -0.17518331 36
0.46778974 1.9913058 -0.10484522 50
0.47098309 2.0033288 -0.034901641 87
0.4678266 1.9883449 0.53669971 28
0.46772018 1.9863374 0.46192494 30
0.46585557 1.9768723 0.38699445 28
0.47015569 1.9935613 0.31799328 31
0.4682017 1.9837263 0.24556671 32
0.47252804 2.0004947 0.17649037 47
0.47286281 2.0003514 0.10571863 84
0.47262749 1.9977984 0.035166595 97
0.45411268 1.9120867 -0.51634425 5
0.47411373 1.9947546 -0.46452424 28
0.4768098 2.0045426 -0.39271384 31
0.47431707 1.9925182 -0.31834438 36
0.479256 2.0117071 -0.24922307 33
0.47325131 1.9849652 -0.17518331 35
0.47473782 1.9896607 -0.10484522 56
0.47797316 2.0016725 -0.034901641 90
0.47364175 1.9820021 0.53540641 28
0.47465095 1.9846927 0.46192494 28
0.47275332 1.9752342 0.38699445 27
0.47711164 1.991908 0.31799328 31
0.47512335 1.9820799 0.24556671 32
0.48067015 2.0036767 0.17692617 45
0.47984245 1.9986887 0.10571863 86
0.47959822 1.9961364 0.035166595 97
0.46078435 1.9104899 -0.51634425 5
0.48221695 1.9978232 -0.46564895 26
0.48380402 2.0028658 -0.39271384 32
0.48126936 1.9908503 -0.31834438 35
0.48627526 2.0100219 -0.24922307 33
0.48017725 1.9833012 -0.17518331 37
0.48168012 1.9879916 -0.10484522 57
0.48495737 1.9999919 -0.034901641 90
0.48055735 1.9803368 0.53540641 27
0.48157591 1.9830238 0.46192494 29
0.47964528 1.9735719 0.38699445 28
0.48406178 1.9902304 0.31799328 30
0.48203921 1.9804094 0.24556671 31
0.48766133 2.0019867 0.17692617 41
0.48681626 1.9970015 0.10571863 78
0.48656312 1.9944501 0.035166595 97
0.46630162 1.9041789 -0.51505011 5
0.48918769 1.9961278 -0.46564895 24
0.49079239 2.0011649 -0.39271384 32
0.4882158 1.9891583 -0.31834438 37
0.49328858 2.0083122 -0.24922307 33
0.48709735 1.9816129 -0.17518331 35
0.48861659 1.9862981 -0.10484522 62
0.4919357 1.998287 -0.034901641 86
0.48746711 1.9786472 0.53540641 27
0.48849502 1.9813306 0.46192494 28
0.48770717 1.9766508 0.38794762 28
0.49100602 1.9885286 0.31799328 30
0.48894918 1.9787146 0.24556671 31
0.49464661 2.0002723 0.17692617 42
0.49378413 1.99529 0.10571863 81
0.49352205 1.9927396 0.035166595 96
0.4729456 1.9025395 -0.51505011 5
0.49615252 1.994408 -0.46564895 25
0.49777478 1.9994395 -0.39271384 32
0.49515626 1.987442 -0.31834438 36
0.50029588 2.0065782 -0.24922307 33
0.49521729 1.9847332 -0.17561908 36
0.49554712 1.9845804 -0.10484522 56
0.49890804 1.9965576 -0.034901641 82
0.49437091 1.9769336 0.53540641 27
0.49540818 1.9796134 0.46192494 30
0.49460399 1.9749364 0.38794762 27
0.4979443 1.9868026 0.31799328 30
0.49585322 1.9769957 0.24556671 32
0.50162584 1.9985334 0.17692617 47
0.50074595 1.9935542 0.10571863 78
0.50047499 1.9910047 0.035166595 91
0.48076528 1.90556 -0.51634425 5
0.50311124 1.992664 -0.46564895 24
0.50475109 1.9976897 -0.39271384 34
0.50209075 1.9857014 -0.31834438 36
0.5072971 2.0048196 -0.24922307 34
0.50214225 1.9829925 -0.17561908 35
0.50247157 1.9828385 -0.10484522 54
0.50464541 1.9899582 -0.034815248 81
0.50126868 1.9751959 0.53540641 27
0.50231528 1.9778721 0.46192494 29
0.50149482 1.9731979 0.38794762 27
0.50487649 1.9850522 0.31799328 31
0.50275117 1.9752529 0.24556671 32
0.50736952 1.9919434 0.17649037 41
0.50770175 1.9917942 0.10571863 79
0.50742185 1.9892455 0.035166595 88
0.48861185 1.9085488 -0.51763833 5
0.51006389 1.9908957 -0.46564895 24
0.51172125 1.9959158 -0.39271384 33
0.50901908 1.9839367 -0.31834438 35
0.51429218 2.0030365 -0.24922307 33
0.50906116 1.9812276 -0.17561908 36
0.50938988 1.9810724 -0.10484522 56
0.51158857 1.9881846 -0.034815248 78
0.50936472 1.9781115 0.53669971 27
0.50921631 1.9761066 0.46192494 29
0.50837952 1.9714353 0.38794762 26
0.51180255 1.9832779 0.31799328 29
0.50964308 1.9734859 0.24556671 33
0.5143196 1.99016 0.17649037 42
0.5146513 1.9900099 0.10571863 76
0.51436257 1.9874623 0.035166595 85
0.49527091 1.9068317 -0.51763833 5
0.51701033 1.9891031 -0.46564895 24
0.51868522 1.9941173 -0.39271384 31
0.5159412 1.9821478 -0.31834438 37
0.52253187 2.0060315 -0.24983244 33
0.51597387 1.9794385 -0.17561908 37
0.51630205 1.9792823 -0.10484522 52
0.51852548 1.9863867 -0.034815248 74
0.51626652 1.9763213 0.53669971 27
0.51611114 1.9743172 0.46192494 29
0.51525795 1.9696487 0.38794762 27
0.51872236 1.9814792 0.31799328 30
0.51652867 1.9716949 0.24556671 32
0.52126342 1.9883527 0.17649037 41
0.52159458 1.9882011 0.10571863 70
0.52129698 1.9856547 0.035166595 83
0.5031544 1.9097614 -0.5189324 5
0.5239504 1.9872863 -0.46564895 25
0.52564275 1.9922945 -0.39271384 31
0.52285707 1.9803348 -0.31834438 34
0.52953106 2.0041955 -0.24983244 34
0.52288026 1.9776254 -0.17561908 38
0.52320784 1.9774679 -0.10484522 55
0.52545613 1.9845645 -0.034815248 71
0.52316207 1.9745072 0.53669971 26
0.52299964 1.9725035 0.46192494 29
0.52213019 1.967838 0.38794762 27
0.5256359 1.9796565 0.31799328 28
0.52340806 1.96988 0.24556671 32
0.52820092 1.9865209 0.17649037 41
0.52853149 1.9863684 0.10571863 69
0.528225 1.9838229 0.035166595 85
0.50981766 1.9079934 -0.5189324 5
0.53088415 1.9854453 -0.46564895 26
0.53259397 1.9904476 -0.39271384 31
0.52976656 1.9784976 -0.31834438 36
0.5365237 2.0023348 -0.24983244 33
0.52978021 1.9757882 -0.17561908 34
0.53010738 1.9756296 -0.10484522 55
0.5323804 1.9827182 -0.034815248 72
0.53005117 1.972669 0.53669971 27
0.52988172 1.9706659 0.46192494 28
0.52899605 1.9660037 0.38794762 27
0.53254294 1.9778097 0.31799328 30
0.53028101 1.9680408 0.24556671 32
0.53513193 1.9846652 0.17649037 42
0.53546202 1.9845114 0.10571863 61
0.53514659 1.981967 0.035166595 79
0.51647466 1.9062023 -0.5189324 5
0.53781146 1.9835801 -0.46564895 26
0.53953868 1.9885764 -0.39271384 31
0.53666955 1.9766363 -0.31834438 35
0.5435099 2.0004499 -0.24983244 33
0.53667378 1.9739269 -0.17561908 36
0.53700036 1.9737672 -0.10484522 56
0.53929812 1.9808478 -0.034815248 74
0.53693384 1.9708068 0.53669971 27
0.53675741 1.9688044 0.46192494 28
0.53585547 1.9641451 0.38794762 26
0.53944355 1.9759386 0.31799328 29
0.53714758 1.9661778 0.24556671 32
0.54205644 1.9827851 0.17649037 41
0.542386 1.9826303 0.10571863 63
0.54074168 1.9752651 0.035079334 77
0.52312547 1.9043878 -0.5189324 5
0.54473215 1.9816906 -0.46564895 26
0.54647684 1.986681 -0.39271384 32
0.54356599 1.974751 -0.31834438 35
0.55048949 1.9985404 -0.24983244 32
0.5435608 1.9720415 -0.17561908 34
0.54388684 1.9718807 -0.10484522 51
0.54620928 1.9789532 -0.034815248 74
0.54380995 1.9689205 0.53669971 26
0.54362655 1.9669186 0.46192494 29
0.5427084 1.9622626 0.38794762 25
0.54633754 1.9740436 0.31799328 29
0.54268301 1.9595084 0.24495737 32
0.54897434 1.9808809 0.17649037 41
0.54930335 1.9807248 0.10571863 58
0.54763341 1.9733655 0.035079334 73
0.52847433 1.8978976 -0.51763833 5
0.55164617 1.9797771 -0.46564895 26
0.55340832 1.9847614 -0.39271384 32
0.55045581 1.9728415 -0.31834438 35
0.55746233 1.9966067 -0.24983244 33
0.55044121 1.9701321 -0.17561908 35
0.55076665 1.9699701 -0.10484522 48
0.55311376 1.9770346 -0.034815248 72
0.5506795 1.9670103 0.53669971 27
0.55180329 1.9697003 0.46304882 29
0.55087954 1.9650823 0.38890082 27
0.55322492 1.9721246 0.31799328 30
0.5495196 1.9576021 0.24495737 32
0.55588561 1.9789525 0.17649037 39
0.55621409 1.9787953 0.10571863 54
0.55451834 1.971442 0.035079334 67
0.53509599 1.8960414 -0.51763833 5
0.55855358 1.9778394 -0.46564895 25
0.56033307 1.9828174 -0.39271384 31
0.55733901 1.970908 -0.31834438 35
0.56442839 1.9946486 -0.24983244 32
0.55731487 1.9681987 -0.17561908 36
0.55763978 1.9680356 -0.10484522 41
0.55864781 1.9702823 -0.034728859 61
0.55754226 1.9650761 0.53669971 26
0.55867547 1.9677621 0.46304882 30
0.55773556 1.9631474 0.38890082 27
0.56010556 1.9701815 0.31799328 29
0.55634958 1.955672 0.24495737 30
0.56279004 1.977 0.17649037 44
0.56311792 1.9768417 0.10571863 52
0.56002617 1.9646865 0.034992073 50
0.54204178 1.8940674 -0.51763833 4
0.56714016 1.9804626 -0.46677375 26
0.56759673 1.9807503 -0.39271384 31
0.56455898 1.9688522 -0.31834438 35
0.5731042 1.9973369 -0.25044179 32
0.56452501 1.9661428 -0.17561908 33
0.56484926 1.9659785 -0.10484522 38
0.56586552 1.9682214 -0.034728859 42
0.56474084 1.9630194 0.53669971 25
0.56588393 1.9657012 0.46304882 27
0.56492716 1.9610901 0.38890082 26
0.56732285 1.9681152 0.31799328 28
0.56351376 1.9536197 0.24495737 30
0.5700323 1.9749241 0.17649037 38
0.56897408 1.9699672 0.10545694 43
0.56722337 1.9626206 0.034992073 44
0.54864997 1.8921638 -0.51763833 5
0.57404983 1.9784708 -0.46677375 26
0.57450736 1.978757 -0.39271384 31
0.57142812 1.9668694 -0.31834438 33
0.5800727 1.9953243 -0.25044179 30
0.57138467 1.9641602 -0.17561908 31
0.57170832 1.9639949 -0.10484522 36
0.5713343 1.9614342 -0.034642469 38
0.57158965 1.9610361 0.53669971 25
0.57274204 1.963714 0.46304882 27
0.57176918 1.9591062 0.38890082 26
0.57418942 1.966123 0.31799328 26
0.57032973 1.9516408 0.24495737 29
0.5769226 1.9729222 0.17649037 35
0.57584703 1.9679691 0.10545694 38
0.57267237 1.9558293 0.034904812 35
0.55525148 1.8902371 -0.51763833 5
0.58095247 1.976455 -0.46677375 25
0.58141094 1.9767396 -0.39271384 28
0.57829034 1.9648627 -0.31834438 33
0.58703417 1.9932872 -0.25044179 30
0.57823735 1.9621538 -0.17561908 30
0.57856047 1.9619873 -0.10484522 33
0.57817757 1.959428 -0.034642469 36
0.57843143 1.9590288 0.53669971 25
0.57959324 1.9617028 0.46304882 25
0.57860422 1.9570984 0.38890082 25
0.58104897 1.9641067 0.31799328 30
0.57854742 1.9543966 0.24556671 29
0.58380586 1.9708964 0.17649037 35
0.58271307 1.9659469 0.10545694 36
0.57948959 1.9538202 0.034904812 37
0.56184626 1.8882874 -0.51763833 5
0.58784807 1.9744149 -0.46677375 26
0.58830756 1.9746981 -0.39271384 29
0.58514541 1.9628321 -0.31834438 32
0.59398842 1.991226 -0.25044179 31
0.58508301 1.9601234 -0.17561908 34
0.58540559 1.9599558 -0.10484522 33
0.58501369 1.9573978 -0.034642469 39
0.58526623 1.9569979 0.53669971 27
0.58643734 1.9596677 0.46304882 27
0.58402425 1.9503648 0.38794762 27
0.58790141 1.9620664 0.31799328 29
0.58536595 1.9523652 0.24556671 33
0.59068197 1.9688464 0.17649037 36
0.58813632 1.9591188 0.10519527 37
0.58486795 1.9469976 0.03481755 33
0.56810498 1.8864138 -0.51763833 5
0.59439224 1.9724547 -0.46677375 28
0.59485269 1.9727362 -0.39271384 31
0.59165126 1.960881 -0.31834438 35
0.60058832 1.9892453 -0.25044179 32
0.59157979 1.9581724 -0.17561908 31
0.59190178 1.9580036 -0.10484522 35
0.59005404 1.950662 -0.03455608 33
0.59175265 1.9550463 0.53669971 24
0.59293252 1.9577123 0.46304882 27
0.59048867 1.9484173 0.38794762 25
0.5944047 1.9601061 0.31799328 28
0.59183705 1.9504132 0.24556671 30
0.59720773 1.966877 0.17649037 35
0.5946297 1.9571579 0.10519527 34
0.59132117 1.9450474 0.03481755 32
0.57327753 1.8797997 -0.51634425 5
0.60127372 1.9703679 -0.46677375 26
0.60173512 1.9706478 -0.39271384 29
0.59849232 1.9588038 -0.31834438 32
0.60752845 1.9871367 -0.25044179 30
0.5984115 1.9560956 -0.17561908 31
0.59727126 1.9511509 -0.1045844 31
0.59685951 1.9485905 -0.03455608 33
0.59857339 1.9529688 0.53669971 26
0.59833419 1.9509728 0.46192494 26
0.59728634 1.9463443 0.38794762 28
0.60124308 1.9580193 0.31799328 30
0.59864163 1.9483354 0.24556671 31
0.60406977 1.9647802 0.17649037 36
0.60145789 1.9550701 0.10519527 34
0.59811342 1.9429694 0.03481755 32
0.58016342 1.8776858 -0.51634425 5
0.60849148 1.968151 -0.46677375 28
0.60895389 1.9684292 -0.39271384 30
0.60566771 1.9565971 -0.31834438 34
0.61480755 1.9848967 -0.25044179 31
0.60410237 1.9491315 -0.17518331 28
0.60441858 1.9489486 -0.1045844 32
0.60251576 1.9416152 -0.03446969 33
0.60429513 1.9461491 0.53540641 25
0.60548085 1.9487667 0.46192494 26
0.60441607 1.944142 0.38794762 26
0.60841554 1.9558024 0.31799328 26
0.60577863 1.9461282 0.24556671 30
0.61126697 1.9625531 0.17649037 33
0.60713387 1.9480855 0.10493358 32
0.6037361 1.9359937 0.034730289 28
0.58527243 1.8710399 -0.51505011 5
0.61390263 1.9613655 -0.46564895 22
0.61435443 1.9616077 -0.39176068 30
0.61249381 1.954471 -0.31834438 31
0.62024748 1.9780029 -0.24983244 28
0.61090243 1.9470109 -0.17518331 27
0.60972244 1.9420633 -0.1043236 31
0.60928959 1.9395001 -0.03446969 29
0.61108476 1.9440279 0.53540641 24
0.61227965 1.9466413 0.46192494 26
0.61119866 1.9420203 0.38794762 24
0.61523885 1.9536668 0.31799328 25
0.61256814 1.9440018 0.24556671 25
0.61811388 1.9604074 0.17649037 30
0.61393023 1.9459543 0.10493358 30
0.6104967 1.9338725 0.034730289 24
0.5903421 1.8643813 -0.51375604 4
0.61927384 1.9545662 -0.46452424 17
0.62119794 1.9594512 -0.39176068 26
0.61931247 1.9523211 -0.31834438 28
0.62714815 1.9758258 -0.24983244 26
0.61769509 1.9448668 -0.17518331 24
0.61649781 1.9399232 -0.1043236 26
0.61605603 1.9373616 -0.03446969 26
0.61786699 1.941883 0.53540641 23
0.61907095 1.9444922 0.46192494 23
0.61797386 1.9398751 0.38794762 22
0.6220547 1.9515073 0.31799328 23
0.61935031 1.9418517 0.24556671 24
0.62495315 1.9582378 0.17649037 29
0.62071913 1.9437996 0.10493358 26
0.61723709 1.9317318 0.034730289 24
0.59537238 1.8577099 -0.5124619 4
0.62609279 1.9523927 -0.46452424 12
0.62653422 1.9525971 -0.39080748 21
0.62763321 1.9548492 -0.31912658 26
0.63404131 1.9736246 -0.24983244 24
0.62448019 1.9426987 -0.17518331 27
0.62479442 1.9425124 -0.1045844 24
0.62434649 1.9399582 -0.03455608 25
0.62464166 1.9397143 0.53540641 24
0.62734884 1.9469565 0.46304882 24
0.6262477 1.9423776 0.38890082 25
0.62886292 1.949324 0.31799328 30
0.6261248 1.939678 0.24556671 22
0.63178486 1.9560443 0.17649037 32
0.62750047 1.9416209 0.10493358 28
0.62551445 1.934322 0.03481755 30
0.60185343 1.8556204 -0.5124619 4
0.63140023 1.9455614 -0.46339944 9
0.63183028 1.9457299 -0.38985425 17
0.63445306 1.9526465 -0.31912658 28
0.64092666 1.9713993 -0.24983244 30
0.63125765 1.9405071 -0.17518331 34
0.63157123 1.9403197 -0.1045844 28
0.63266259 1.9425204 -0.034642469 32
0.63290524 1.9421144 0.53669971 31
0.63414121 1.9447547 0.46304882 32
0.63302404 1.9401797 0.38890082 29
0.63566351 1.9471171 0.31799328 35
0.63443279 1.942198 0.24617606 33
0.64015645 1.9585617 0.17692617 36
0.63582629 1.9441645 0.10519527 33
0.63381755 1.9368781 0.034904812 34
0.606821 1.8489194 -0.51116782 4
0.63970768 1.9479742 -0.46452424 8
0.63861835 1.9435124 -0.38985425 13
0.64126521 1.95042 -0.31912658 31
0.64935511 1.9738644 -0.25044179 33
0.63958478 1.9430227 -0.17561908 39
0.63990247 1.9428461 -0.10484522 32
0.64100415 1.9450485 -0.034728859 36
0.64119315 1.9444802 0.53799289 35
0.64245236 1.9471561 0.46417275 37
0.64133143 1.9426192 0.38985398 34
0.64400542 1.9495757 0.31877461 38
0.64120847 1.9399716 0.24617606 37
0.64698917 1.9563152 0.17692617 41
0.64417738 1.9466734 0.10545694 39
0.64214599 1.9393996 0.034992073 38
0.61327118 1.84679 -0.51116782 4
0.64650351 1.9457294 -0.46452424 17
0.6453985 1.9412714 -0.38985425 13
0.64806956 1.9481696 -0.31912658 32
0.65624124 1.9715858 -0.25044179 41
0.64793724 1.9455042 -0.17605488 41
0.64825886 1.9453374 -0.10510603 37
0.64937103 1.9475415 -0.034815248 39
0.64950532 1.9468118 0.5392862 37
0.65078795 1.9495231 0.46529663 39
0.64810848 1.9403688 0.38985398 37
0.65080678 1.9473158 0.31877461 36
0.64955014 1.942428 0.2467854 39
0.65381402 1.9540448 0.17692617 42
0.65255386 1.9491482 0.10571863 40
0.65049982 1.9418867 0.035079334 37
0.61971396 1.844638 -0.51116782 4
0.65484369 1.9480788 -0.46564895 13
0.6521709 1.9390068 -0.38985425 15
0.65486598 1.9458957 -0.31912658 36
0.66470307 1.9739863 -0.25105113 40
0.6547243 1.9432306 -0.17605488 40
0.65504545 1.9430628 -0.10510603 39
0.65616524 1.9452629 -0.034815248 39
0.65629697 1.9445328 0.5392862 37
0.65758914 1.9472394 0.46529663 42
0.65644896 1.9427445 0.39080721 37
0.65760016 1.9450322 0.31877461 35
0.65632653 1.9401489 0.2467854 39
0.66222781 1.9564686 0.17736192 47
0.65935367 1.9468584 0.10571863 40
0.65727431 1.9396042 0.035079334 38
0.62614924 1.8424635 -0.51116782 4
0.66163981 1.945781 -0.46564895 15
0.65893537 1.9367185 -0.38985425 15
0.66324592 1.9482728 -0.31990871 39
0.67158955 1.9716539 -0.25105113 40
0.66311026 1.9456478 -0.17649063 39
0.6634357 1.9454906 -0.10536684 38
0.66456586 1.9476919 -0.034901641 42
0.66464108 1.9468006 0.54057944 36
0.66595715 1.9495428 0.46642056 39
0.66322637 1.9404413 0.39080721 37
0.66598362 1.9473976 0.31955591 36
0.6647017 1.9425417 0.24739476 38
0.66905314 1.9541451 0.17736192 44
0.66776365 1.9492685 0.1059803 41
0.66566175 1.9420272 0.035166595 37
0.63257682 1.8402667 -0.51116782 4
0.67001235 1.9480666 -0.46677375 16
0.6672889 1.9390477 -0.39080748 15
0.67004263 1.9459457 -0.31990871 37
0.67846781 1.9692976 -0.25105113 41
0.66989779 1.9433212 -0.17649063 39
0.67022264 1.9431629 -0.10536684 40
0.67136049 1.9453603 -0.034901641 39
0.67143261 1.9444687 0.54057944 36
0.67275834 1.9472061 0.46642056 38
0.67159945 1.9427533 0.39176041 36
0.67277724 1.945061 0.31955591 35
0.67147833 1.9402096 0.24739476 40
0.6758703 1.9517977 0.17736192 46
0.67456377 1.9469256 0.1059803 41
0.67243659 1.9396917 0.035166595 39
0.63899666 1.8380474 -0.51116782 4
0.67680824 1.9457159 -0.46677375 17
0.67405337 1.9367067 -0.39080748 15
0.67683113 1.9435949 -0.31990871 38
0.68533778 1.9669174 -0.25105113 41
0.67667717 1.9409711 -0.17649063 39
0.67700148 1.9408115 -0.10536684 40
0.67814702 1.943005 -0.034901641 40
0.67821604 1.9421132 0.54057944 38
0.67955124 1.9448459 0.46642056 42
0.67837679 1.9403971 0.39176041 41
0.67956269 1.9427007 0.31955591 38
0.67824686 1.9378539 0.24739476 39
0.68432564 1.9541279 0.17779772 42
0.68135571 1.9445591 0.1059803 39
0.67920327 1.9373326 0.035166595 39
0.64540869 1.8358057 -0.51116782 4
0.68521261 1.9479374 -0.46789846 18
0.68080968 1.9343419 -0.39080748 15
0.68361145 1.9412205 -0.31990871 34
0.69384867 1.9691937 -0.2516605 38
0.68510455 1.9432951 -0.17692643 42
0.68543303 1.9431452 -0.10562764 38
0.6849252 1.940626 -0.034901641 39
0.68499118 1.939734 0.54057944 37
0.68633586 1.942462 0.46642056 39
0.68514591 1.9380174 0.39176041 38
0.6863398 1.9403167 0.31955591 36
0.68666273 1.9401526 0.24800409 39
0.69114262 1.9517274 0.17779772 49
0.68813932 1.942169 0.1059803 40
0.68596172 1.9349501 0.035166595 38
0.65019524 1.8289909 -0.50987375 4
0.69200802 1.9455338 -0.46789846 18
0.68755758 1.9319538 -0.39080748 16
0.69038337 1.9388225 -0.31990871 33
0.70071822 1.9667598 -0.2516605 38
0.69188374 1.9408919 -0.17692643 41
0.69221169 1.9407407 -0.10562764 40
0.69169509 1.9382232 -0.034901641 40
0.69338214 1.9418799 0.54187268 37
0.69311213 1.9400545 0.46642056 40
0.69190669 1.9356139 0.39176041 36
0.69310856 1.9379092 0.31955591 37
0.69343102 1.9377439 0.24800409 39
0.6979512 1.9493028 0.17779772 44
0.69491458 1.9397551 0.1059803 40
0.69271177 1.9325438 0.035166595 38
0.65167487 1.8130753 -0.50599146 4
0.69879496 1.9431062 -0.46789846 18
0.69429719 1.9295419 -0.39080748 14
0.69714695 1.9364009 -0.31990871 34
0.7075792 1.9643018 -0.2516605 39
0.69865453 1.9384649 -0.17692643 39
0.69898188 1.9383126 -0.10562764 39
0.70015323 1.9404994 -0.034988027 38
0.70015633 1.9394476 0.54187268 37
0.69987994 1.9376233 0.46642056 42
0.698659 1.933187 0.39176041 36
0.69986898 1.935478 0.31955591 35
0.70019078 1.9353116 0.24800409 38
0.70475131 1.9468547 0.17779772 46
0.70168132 1.9373175 0.1059803 40
0.69945341 1.9301139 0.035166595 37
0.64975244 1.7880932 -0.49952096 5
0.70723808 1.9452338 -0.46902326 17
0.70102835 1.9271066 -0.39080748 15
0.70390201 1.9339556 -0.31990871 33
0.71443158 1.9618199 -0.2516605 38
0.70541674 1.9360143 -0.17692643 42
0.70574361 1.9358609 -0.10562764 37
0.70692259 1.9380436 -0.034988027 37
0.70692205 1.9369918 0.54187268 38
0.70831037 1.9397447 0.46754444 38
0.70540285 1.9307363 0.39176041 38
0.70662075 1.9330231 0.31955591 36
0.70694196 1.9328557 0.24800409 40
0.71154279 1.9443828 0.17779772 48
0.70843959 1.9348563 0.1059803 39
0.70790619 1.9323549 0.03525386 37
0.65432483 1.781281 -0.49822688 5
0.71402389 1.9427532 -0.46902326 17
0.70775092 1.9246479 -0.39080748 15
0.71064842 1.9314866 -0.31990871 32
0.72127527 1.9593141 -0.2516605 35
0.71217042 1.9335402 -0.17692643 39
0.7124967 1.9333856 -0.10562764 40
0.71368331 1.9355643 -0.034988027 36
0.71367908 1.9345124 0.54187268 38
0.71507698 1.9372605 0.46754444 38
0.71383858 1.9328667 0.39271358 34
0.71507579 1.9351776 0.32033724 39
0.71540558 1.9350313 0.24861345 39
0.71832561 1.9418873 0.17779772 42
0.71518922 1.9323717 0.1059803 38
0.71464711 1.9298722 0.03525386 35
0.66726309 1.7970965 -0.50340325 5
0.72249764 1.9448158 -0.47014797 17
0.71446484 1.9221655 -0.39080748 15
0.71910769 1.9336231 -0.3206909 29
0.72811013 1.9567845 -0.2516605 37
0.7189154 1.9310424 -0.17692643 40
0.72098416 1.9355661 -0.10588846 49
0.72218126 1.9377458 -0.03507442 39
0.72042739 1.9320095 0.54187268 37
0.7218349 1.9347525 0.46754444 39
0.72058117 1.9303632 0.39271358 38
0.72182649 1.9326696 0.32033724 37
0.72215581 1.9325223 0.24861345 36
0.72509968 1.9393679 0.17779772 42
0.72193009 1.9298635 0.1059803 38
0.72137922 1.9273658 0.03525386 37
0.68201649 1.8173648 -0.50987375 4
0.7292819 1.942282 -0.47014797 17
0.72117013 1.91966 -0.39080748 17
0.72585297 1.9311012 -0.3206909 27
0.73493618 1.954231 -0.2516605 36
0.72740567 1.9331828 -0.1773622 40
0.72773618 1.9330376 -0.10588846 47
0.72894084 1.9352131 -0.03507442 39
0.72716701 1.9294828 0.54187268 38
0.72858411 1.9322211 0.46754444 38
0.7290476 1.9324285 0.39366677 37
0.72856838 1.9301382 0.32033724 37
0.72889715 1.9299896 0.24861345 37
0.73186493 1.936825 0.17779772 49
0.73042792 1.9320022 0.10624199 43
0.72810262 1.9248359 0.03525386 36
0.69038635 1.8193684 -0.51116782 5
0.73639584 1.9395961 -0.47014797 16
0.72820121 1.9170039 -0.39080748 15
0.73292589 1.9284278 -0.3206909 28
0.7420938 1.9515241 -0.2516605 41
0.73448622 1.9305037 -0.1773622 39
0.73659253 1.9350237 -0.10614926 33
0.73602891 1.9325284 -0.03507442 37
0.73423404 1.9268047 0.54187268 36
0.73566115 1.9295378 0.46754444 39
0.73612541 1.9297434 0.39366677 36
0.73563778 1.9274548 0.32033724 37
0.73596597 1.9273051 0.24861345 40
0.73895884 1.9341296 0.17779772 41
0.73750418 1.9293121 0.10624199 38
0.73693842 1.9268237 0.035341118 33
0.71575427 1.8665514 -0.5254029 4
0.7431618 1.9370136 -0.47014797 15
0.73488832 1.9144503 -0.39080748 14
0.73965293 1.9258578 -0.3206909 31
0.74890143 1.9489219 -0.2516605 40
0.74122047 1.9279282 -0.1773622 37
0.74334252 1.9324406 -0.10614926 34
0.74097449 1.9252816 -0.034988027 36
0.74269086 1.928737 0.54316592 37
0.74414366 1.9315046 0.46866837 42
0.74285698 1.9271621 0.39366677 33
0.74413842 1.9294832 0.32111856 44
0.74268907 1.9247245 0.24861345 46
0.74749959 1.9361849 0.17823349 39
0.74423426 1.9267259 0.10624199 44
0.74366599 1.9242371 0.035341118 33
0.71147513 1.8371454 -0.51763833 4
0.74924344 1.9346694 -0.47014797 15
0.74089915 1.912132 -0.39080748 16
0.74569952 1.9235245 -0.3206909 33
0.75502044 1.9465595 -0.2516605 47
0.74727356 1.92559 -0.1773622 44
0.74940979 1.9300959 -0.10614926 42
0.74701923 1.9229443 -0.034988027 39
0.74874651 1.9263943 0.54316592 37
0.75020796 1.9291573 0.46866837 36
0.74890763 1.9248189 0.39366677 35
0.75019646 1.9271358 0.32111856 35
0.74873209 1.9223816 0.24861345 36
0.75357866 1.933827 0.17823349 49
0.75209719 1.9290303 0.10650366 40
0.74970126 1.9218938 0.035341118 35
0.71404523 1.8257803 -0.51505011 5
0.75599205 1.9320422 -0.47014797 16
0.74935865 1.9141049 -0.39176068 17
0.75240934 1.9209098 -0.3206909 31
0.7618106 1.9439121 -0.2516605 42
0.75399059 1.9229699 -0.1773622 45
0.7561425 1.9274681 -0.10614926 34
0.75372702 1.920325 -0.034988027 44
0.75546628 1.923769 0.54316592 33
0.75515568 1.9219919 0.46754444 36
0.75562197 1.9221929 0.39366677 36
0.75691885 1.9245055 0.32111856 35
0.75543785 1.9197564 0.24861345 38
0.76032436 1.9311848 0.17823349 43
0.7588262 1.9263932 0.10650366 35
0.75457239 1.9146142 0.03525386 38
0.71718115 1.814168 -0.5124619 5
0.76306832 1.9292585 -0.47014797 16
0.75636911 1.9113456 -0.39176068 17
0.75944477 1.9181392 -0.3206909 30
0.77075797 1.9457208 -0.25226983 33
0.76103359 1.9201936 -0.1773622 38
0.76320195 1.9246838 -0.10614926 36
0.76076031 1.9175495 -0.034988027 39
0.76251221 1.9209871 0.54316592 37
0.76399344 1.9237394 0.46866837 37
0.76266205 1.9194105 0.39366677 39
0.76579177 1.9263074 0.32189986 36
0.76246905 1.9169747 0.24861345 39
0.76923913 1.9330132 0.17866927 38
0.76772881 1.9282383 0.10676534 38
0.76158476 1.9118357 0.03525386 38
0.72350937 1.8116535 -0.5124619 3
0.76979798 1.9265832 -0.47014797 17
0.76485831 1.9132512 -0.39271384 15
0.76613569 1.9154766 -0.3206909 28
0.77754515 1.9430184 -0.25226983 39
0.76958311 1.9221494 -0.17779799 39
0.7699157 1.922008 -0.10614926 37
0.76744914 1.9148823 -0.034988027 40
0.7710107 1.922797 0.54445922 36
0.77070385 1.9210609 0.46866837 39
0.77118576 1.9212917 0.39461994 36
0.77251118 1.9236226 0.32189986 35
0.76915592 1.9143015 0.24861345 38
0.7759819 1.9303162 0.17866927 47
0.77445495 1.9255468 0.10676534 41
0.76825362 1.9091656 0.03525386 33
0.72802192 1.804638 -0.51116782 4
0.77651834 1.9238843 -0.47014797 17
0.77153212 1.9105697 -0.39271384 14
0.77281731 1.9127907 -0.3206909 25
0.7843228 1.9402925 -0.25226983 40
0.77628797 1.9194515 -0.17779799 37
0.77662009 1.9193089 -0.10614926 46
0.77600473 1.9168258 -0.03507442 39
0.77771783 1.9200939 0.54445922 36
0.77740496 1.918359 0.46866837 45
0.77788764 1.9185882 0.39461994 36
0.77922118 1.9209143 0.32189986 37
0.77583343 1.9116049 0.24861345 38
0.7827152 1.9275959 0.17866927 43
0.78117168 1.9228317 0.10676534 43
0.77491319 1.9064722 0.03525386 37
0.73067188 1.7931408 -0.50857961 4
0.78506845 1.9256732 -0.47127277 17
0.7800504 1.9124099 -0.39366707 15
0.77948946 1.9100813 -0.3206909 25
0.79296684 1.9421376 -0.25287917 37
0.78486693 1.9213409 -0.17823376 38
0.78331494 1.9165862 -0.10614926 35
0.78269094 1.9141053 -0.03507442 38
0.78441548 1.9173675 0.54445922 35
0.78409648 1.9156337 0.46866837 37
0.78458005 1.915861 0.39461994 33
0.78592169 1.9181826 0.32189986 35
0.78438377 1.9134771 0.24922279 39
0.78943902 1.9248519 0.17866927 40
0.78787887 1.9200931 0.10676534 39
0.78346187 1.9083804 0.035341118 35
0.73692667 1.7905793 -0.50857961 4
0.79178554 1.9229212 -0.47127277 17
0.78859079 1.9142134 -0.39462024 14
0.78803408 1.9119146 -0.32147309 25
0.79974139 1.9393578 -0.25287917 39
0.79156888 1.9185895 -0.17823376 42
0.79000032 1.9138403 -0.10614926 36
0.79127592 1.9159822 -0.03516081 40
0.79110354 1.9146177 0.54445922 37
0.79077852 1.9128851 0.46866837 40
0.79126281 1.9131107 0.39461994 38
0.79261261 1.9154276 0.32189986 37
0.79105824 1.9107274 0.24922279 39
0.7980594 1.9266863 0.17910506 37
0.79648793 1.9219437 0.10702702 37
0.79011858 1.9056339 0.035341118 37
0.73946518 1.7790766 -0.50599146 4
0.8003636 1.9246441 -0.47239748 18
0.79526782 1.9114491 -0.39462024 15
0.79470313 1.9091523 -0.32147309 25
0.8065061 1.9365543 -0.25287917 37
0.79826117 1.9158146 -0.17823376 36
0.7966761 1.9110709 -0.10614926 38
0.79795915 1.9132085 -0.03516081 36
0.79964191 1.9163017 0.54575241 36
0.79932791 1.9146088 0.46979225 40
0.79793602 1.910337 0.39461994 36
0.79929388 1.9126493 0.32189986 43
0.79963744 1.9125329 0.24983214 40
0.80477989 1.9238889 0.17910506 49
0.8031919 1.9191517 0.10702702 37
0.79676569 1.9028643 0.035341118 33
0.7456708 1.7764845 -0.50599146 5
0.80707699 1.9218384 -0.47239748 18
0.80383641 1.9131864 -0.39557344 17
0.80136245 1.9063666 -0.32147309 23
0.81518483 1.9383017 -0.25348851 39
0.80687559 1.9176078 -0.17866954 37
0.8033421 1.9082785 -0.10614926 46
0.80657321 1.9150188 -0.035247199 39
0.80632621 1.9134988 0.54575241 37
0.80600619 1.9118069 0.46979225 39
0.80459946 1.90754 0.39461994 37
0.80596536 1.9098475 0.32189986 37
0.80630857 1.90973 0.24983214 35
0.81149065 1.921068 0.17910506 41
0.81182986 1.9209358 0.1072887 37
0.80534995 1.9046758 0.035428382 39
0.75375205 1.7783175 -0.50728554 4
0.81378055 1.9190096 -0.47239748 18
0.8105098 1.9103689 -0.39557344 17
0.80801207 1.9035578 -0.32147309 23
0.82194585 1.9354444 -0.25348851 40
0.81356436 1.9147795 -0.17866954 45
0.80999833 1.9054626 -0.10614926 41
0.81325299 1.9121917 -0.035247199 38
0.81300062 1.9106724 0.54575241 36
0.81267476 1.9089818 0.46979225 38
0.81125307 1.9047198 0.39461994 36
0.8145631 1.9115658 0.32268119 36
0.81296986 1.9069039 0.24983214 39
0.81819147 1.9182236 0.17910506 44
0.81853026 1.9180902 0.1072887 42
0.8119936 1.9018531 0.035428382 35
0.76185519 1.7801155 -0.50857961 4
0.82239181 1.9206358 -0.47352228 18
0.8171733 1.907528 -0.39557344 15
0.81659716 1.9052646 -0.32225525 22
0.82869679 1.9325634 -0.25348851 41
0.82024324 1.9119281 -0.17866954 38
0.81664473 1.9026235 -0.10614926 37
0.81992275 1.9093413 -0.035247199 37
0.81966513 1.9078228 0.54575241 34
0.82125741 1.9106095 0.47091618 39
0.81983596 1.9063855 0.39557317 36
0.82123077 1.9087108 0.32268119 36
0.81962121 1.9040545 0.24983214 37
0.82685244 1.9199305 0.17954083 42
0.82522064 1.9152213 0.1072887 38
0.82060635 1.903598 0.035515644 37
0.76998007 1.7818788 -0.50987375 4
0.82909107 1.9177535 -0.47352228 17
0.82382679 1.904664 -0.39557344 15
0.82324284 1.9024025 -0.32225525 21
0.83740944 1.9342134 -0.25409788 39
0.82889199 1.9136242 -0.17910534 37
0.82526672 1.904343 -0.10641007 38
0.82658261 1.9064676 -0.035247199 38
0.82824177 1.9093812 0.54704571 36
0.82792169 1.9077311 0.47091618 39
0.82648551 1.9035121 0.39557317 37
0.82985598 1.910362 0.32346249 36
0.82626259 1.9011818 0.24983214 37
0.8335492 1.9170326 0.17954083 42
0.83389282 1.9169078 0.10755039 38
0.82724613 1.9007219 0.035515644 37
0.77812654 1.7836069 -0.51116782 4
0.83578026 1.9148477 -0.47352228 17
0.83047032 1.9017767 -0.39557344 15
0.82790142 1.894992 -0.32147309 21
0.84415603 1.9312786 -0.25409788 38
0.83556676 1.910719 -0.17910534 38
0.83190906 1.9014508 -0.10641007 37
0.8332324 1.9035707 -0.035247199 39
0.83490163 1.9064784 0.54704571 35
0.83457589 1.9048295 0.47091618 38
0.833125 1.9006156 0.39557317 34
0.83651936 1.9074537 0.32346249 36
0.83488798 1.9028308 0.25044149 39
0.84223807 1.9186724 0.17997661 44
0.84057897 1.9139854 0.10755039 41
0.83588701 1.9023998 0.035602909 37
0.78434777 1.78088 -0.51116782 4
0.8424592 1.9119186 -0.47352228 17
0.83710366 1.8988663 -0.39557344 15
0.8345111 1.8920906 -0.32147309 20
0.85089231 1.9283201 -0.25409788 39
0.84424293 1.9123473 -0.17954111 39
0.84055859 1.9031026 -0.10667088 37
0.83987206 1.9006505 -0.035247199 37
0.84155142 1.9035524 0.54704571 35
0.84319061 1.9063604 0.47204006 39
0.84174043 1.9021841 0.39652634 36
0.84517187 1.9090381 0.32424381 37
0.84152502 1.899905 0.25044149 39
0.8489303 1.9157208 0.17997661 43
0.84725493 1.9110395 0.10755039 40
0.8425225 1.8994703 0.035602909 35
0.79252154 1.7825443 -0.5124619 4
0.85110795 1.9134176 -0.47464699 17
0.8457225 1.900417 -0.3965266 15
0.84111071 1.889166 -0.32147309 18
0.85761815 1.9253381 -0.25409788 38
0.85091311 1.9093885 -0.17954111 38
0.84719652 1.9001569 -0.10667088 36
0.84853792 1.9022728 -0.035333589 37
0.84819096 1.9006032 0.54704571 36
0.84983993 1.9034055 0.47204006 37
0.8483752 1.8992343 0.39652634 37
0.85183054 1.9060762 0.32424381 35
0.85017741 1.9014863 0.25105083 37
0.85764605 1.9172925 0.18041238 44
0.85596025 1.9126279 0.10781206 37
0.84914774 1.8965179 0.035602909 35
0.7987389 1.779767 -0.5124619 4
0.85778183 1.9104351 -0.47464699 16
0.85235101 1.8974533 -0.3965266 15
0.84769994 1.8862185 -0.32147309 18
0.86636877 1.9268589 -0.25470722 40
0.85757291 1.9064068 -0.17954111 38
0.85587341 1.9017416 -0.10693169 36
0.85517293 1.8992993 -0.035333589 39
0.85482013 1.8976309 0.54704571 34
0.85848075 1.9048693 0.47316399 38
0.85499954 1.8962613 0.39652634 36
0.85847872 1.9030911 0.32424381 34
0.85680968 1.898507 0.25105083 39
0.86433345 1.914287 0.18041238 45
0.86263132 1.9096284 0.10781206 38
0.85782146 1.8980978 0.035690166 35
0.8049466 1.776968 -0.5124619 4
0.86645633 1.9118665 -0.47577178 16
0.85896915 1.8944665 -0.3965266 15
0.85427892 1.883248 -0.32147309 18
0.87308949 1.923823 -0.25470722 40
0.86422229 1.9034016 -0.17954111 39
0.86250657 1.8987424 -0.10693169 37
0.86386597 1.900854 -0.035419982 36
0.86343795 1.8990322 0.54833895 36
0.8651247 1.901861 0.47316399 38
0.86364675 1.8977329 0.39747953 35
0.86716288 1.9045774 0.32502508 35
0.86343145 1.8955047 0.25105083 38
0.8710103 1.9112583 0.18041238 45
0.86929196 1.9066056 0.10781206 38
0.86444187 1.8950918 0.035690166 34
0.81114447 1.7741474 -0.5124619 4
0.87312472 1.9088304 -0.47577178 15
0.86761934 1.8959197 -0.3974798 15
0.86084747 1.8802545 -0.32147309 17
0.8797996 1.9207637 -0.25470722 38
0.87293625 1.9049016 -0.1799769 37
0.86912918 1.8957201 -0.10693169 37
0.87049592 1.897827 -0.035419982 36
0.87006158 1.8960067 0.54833895 36
0.87379086 1.903257 0.47428787 36
0.87026578 1.8947066 0.39747953 34
0.87380582 1.9015388 0.32502508 35
0.87211573 1.8969882 0.2516602 39
0.87767655 1.9082062 0.18041238 44
0.87594187 1.9035597 0.10781206 40
0.87105167 1.8920628 0.035690166 36
0.81764156 1.7711625 -0.5124619 4
0.88011497 1.9056175 -0.47577178 14
0.87456238 1.892727 -0.3974798 15
0.86773318 1.8770866 -0.32147309 17
0.88891679 1.9220304 -0.25531656 38
0.8799122 1.9016893 -0.1799769 38
0.87816906 1.8970531 -0.10719251 38
0.87954694 1.8991603 -0.035506371 39
0.87903547 1.8971874 0.54963219 36
0.88076079 1.9000417 0.47428787 36
0.8792693 1.8959569 0.3984327 36
0.88076943 1.8983234 0.32502508 34
0.87906265 1.8937789 0.2516602 39
0.8846646 1.9049765 0.18041238 43
0.88291293 1.9003365 0.10781206 39
0.87798059 1.8888575 0.035690166 37
0.82381916 1.7682976 -0.5124619 4
0.88676149 1.9025337 -0.47577178 14
0.8811639 1.8896626 -0.3974798 15
0.87636799 1.8785217 -0.32225525 17
0.89562052 1.9189157 -0.25531656 38
0.88865227 1.9031193 -0.18041267 39
0.88478559 1.8939762 -0.10719251 37
0.88617086 1.8960785 -0.035506371 36
0.88565248 1.8941075 0.54963219 35
0.88738781 1.8969556 0.47428787 38
0.88588214 1.892876 0.3984327 35
0.88739049 1.8952373 0.32502508 35
0.88777298 1.895193 0.25226954 39
0.89342248 1.9063872 0.18084818 45
0.89166063 1.9017638 0.10807375 38
0.88669771 1.8903047 0.035777431 36
0.8320415 1.7697819 -0.51375604 4
0.8954708 1.9038352 -0.47689649 14
0.8898446 1.8910166 -0.39843297 15
0.88502336 1.8799192 -0.32303745 15
0.90442789 1.9202675 -0.25592589 38
0.89529002 1.9000057 -0.18041267 39
0.89139146 1.8908762 -0.10719251 39
0.892784 1.8929735 -0.035506371 36
0.89431971 1.8953723 0.55092543 34
0.89400405 1.8938465 0.47428787 37
0.89458013 1.8942105 0.3993859 37
0.89400065 1.8921282 0.32502508 35
0.89438307 1.8920826 0.25226954 38
0.90007156 1.9032569 0.18084818 44
0.89829361 1.8986397 0.10807375 40
0.89328474 1.8872008 0.035777431 34
0.84028417 1.7712302 -0.51505011 4
0.90211093 1.9006978 -0.47689649 13
0.89644003 1.8878988 -0.39843297 14
0.89369905 1.881279 -0.32381961 21
0.91112536 1.9170988 -0.25592589 37
0.90405571 1.9013674 -0.18084845 39
0.90013123 1.8922619 -0.10745331 36
0.89938629 1.8898456 -0.035506371 37
0.90093035 1.8922389 0.55092543 36
0.90060931 1.8907144 0.47428787 38
0.9011867 1.8910762 0.3993859 36
0.90272534 1.8934538 0.32580641 37
0.90311879 1.8934284 0.25287887 37
0.90885478 1.9045987 0.18128394 43
0.90491563 1.8954926 0.10807375 40
0.89986682 1.8840711 0.035777431 34
0.8485471 1.7726425 -0.51634425 4
0.9087401 1.8975374 -0.47689649 13
0.90302455 1.8847582 -0.39843297 14
0.90452981 1.8870544 -0.32538396 16
0.91781169 1.9139067 -0.25592589 36
0.91068721 1.8982002 -0.18084845 40
0.90673095 1.8891083 -0.10745331 38
0.90814149 1.891201 -0.035592761 37
0.90753001 1.8890826 0.55092543 35
0.90931422 1.8919504 0.4754118 37
0.90990931 1.8923426 0.40033907 36
0.90932924 1.8902913 0.32580641 36
0.90972263 1.8902645 0.25287887 38
0.9154976 1.9014146 0.18128394 40
0.91369343 1.8968205 0.10833542 39
0.90643799 1.8809186 0.035777431 36
0.85683012 1.7740188 -0.51763833 4
0.91535819 1.8943537 -0.47689649 13
0.91173434 1.8860136 -0.3993862 14
0.91326153 1.8883317 -0.32616612 15
0.92448694 1.9106913 -0.25592589 37
0.91730762 1.8950096 -0.18084845 39
0.91549611 1.8904259 -0.10771412 37
0.91473752 1.8880194 -0.035592761 36
0.91622537 1.8902495 0.55221874 34
0.91591281 1.8887647 0.4754118 38
0.91650921 1.8891548 0.40033907 35
0.91807842 1.8915486 0.32658771 35
0.91631526 1.8870775 0.25287887 37
0.92212915 1.8982074 0.18128394 40
0.92030901 1.8936197 0.10833542 39
0.91299808 1.8777431 0.035777431 36
0.86513293 1.7753586 -0.5189324 4
0.92196512 1.8911469 -0.47689649 12
0.91831219 1.8828197 -0.3993862 14
0.92201298 1.8895702 -0.32694829 16
0.93332803 1.9119124 -0.25653526 37
0.9261027 1.8962719 -0.18128422 38
0.92208928 1.8872188 -0.10771412 37
0.92132235 1.884815 -0.035592761 37
0.92281801 1.8870399 0.55221874 34
0.92464137 1.8899325 0.47653568 38
0.92309803 1.8859441 0.40033907 37
0.92467558 1.8883324 0.32658771 36
0.9228968 1.8838674 0.25287887 37
0.93094164 1.8994497 0.18171974 40
0.92691338 1.8903955 0.10833542 37
0.92174876 1.879033 0.035864696 34
0.87132484 1.7723279 -0.5189324 4
0.92856091 1.8879172 -0.47689649 11
0.9248789 1.8796026 -0.3993862 13
0.92860317 1.8863403 -0.32694829 16
0.93999612 1.9086429 -0.25653526 38
0.93271631 1.8930277 -0.18128422 37
0.92867136 1.8839885 -0.10771412 37
0.92789596 1.8815875 -0.035592761 38
0.92939937 1.8838071 0.55221874 32
0.93123281 1.8866934 0.47653568 37
0.92967558 1.8827105 0.40033907 35
0.93126142 1.8850932 0.32658771 35
0.9294672 1.8806344 0.25287887 38
0.93756634 1.8961886 0.18171974 43
0.93572032 1.8916241 0.10859711 39
0.92830217 1.8758039 0.035864696 36
0.87750608 1.7692757 -0.5189324 4
0.93514532 1.8846643 -0.47689649 10
0.93361658 1.880759 -0.40033937 14
0.93737876 1.8875104 -0.32773048 16
0.94665283 1.9053501 -0.25653526 38
0.93931854 1.8897604 -0.18128422 38
0.93746519 1.8852061 -0.10797492 37
0.93668509 1.8828131 -0.035679154 37
0.93812138 1.8848751 0.55351192 35
0.93998456 1.8877927 0.47765961 37
0.93843037 1.8838471 0.40129229 35
0.93783593 1.8818309 0.32658771 34
0.93824035 1.8818196 0.25348821 39
0.94417953 1.8929043 0.18171974 43
0.94231761 1.8883463 0.10859711 39
0.93707728 1.8770249 0.035951953 35
0.88367671 1.7662017 -0.5189324 4
0.94171828 1.8813887 -0.47689649 9
0.94017595 1.8774886 -0.40033937 14
0.94396168 1.8842269 -0.32773048 16
0.95329791 1.9020339 -0.25653526 37
0.94590932 1.88647 -0.18128422 37
0.94404012 1.8819224 -0.10797492 37
0.94325161 1.879532 -0.035679154 37
0.94469512 1.8815891 0.55351192 34
0.94656849 1.8845 0.47765961 38
0.94500053 1.8805599 0.40129229 36
0.94661731 1.8829582 0.32736903 37
0.94480342 1.8785331 0.25348821 37
0.9530201 1.8940465 0.1821555 41
0.94890344 1.8850454 0.10859711 38
0.9436236 1.8737425 0.035951953 36
0.8876605 1.7587949 -0.51763833 4
0.94827986 1.8780899 -0.47689649 8
0.94672388 1.8741953 -0.40033937 13
0.95053309 1.8809204 -0.32773048 16
0.96217048 1.9031235 -0.2571446 36
0.95473671 1.8876015 -0.18172 37
0.95060349 1.8786155 -0.10797492 37
0.95206457 1.8806882 -0.03576554 36
0.95125735 1.8782799 0.55351192 35
0.95314085 1.8811843 0.47765961 38
0.95377833 1.8816278 0.40224546 36
0.95318431 1.8796424 0.32736903 34
0.95360035 1.8796496 0.25409758 37
0.95962578 1.8907083 0.1821555 42
0.95547771 1.8817217 0.10859711 37
0.95242262 1.8748944 0.036039218 35
0.89379442 1.7556857 -0.51763833 4
0.95482981 1.8747684 -0.47689649 8
0.9532603 1.8708793 -0.40033937 15
0.95933568 1.8819907 -0.32851264 15
0.96880776 1.8997532 -0.2571446 37
0.96131986 1.8842573 -0.18172 38
0.95715523 1.8752859 -0.10797492 36
0.95862359 1.8773533 -0.03576554 37
0.95780796 1.8749479 0.55351192 36
0.96191865 1.8821839 0.47878349 37
0.96034056 1.8782871 0.40224546 34
0.95973969 1.8763038 0.32736903 35
0.96015573 1.8763094 0.25409758 37
0.96621966 1.887347 0.1821555 40
0.96431649 1.8828193 0.10885879 38
0.95896143 1.8715585 0.036039218 35
0.89991742 1.752555 -0.51763833 4
0.96136814 1.871424 -0.47689649 7
0.9620288 1.871906 -0.40129256 14
0.96589917 1.8786305 -0.32851264 16
0.97543323 1.8963599 -0.2571446 36
0.97017032 1.885319 -0.18215577 37
0.96598101 1.8763729 -0.10823574 37
0.9674601 1.8784404 -0.035851933 37
0.96655917 1.8758867 0.55480522 36
0.96848285 1.8788147 0.47878349 38
0.96914089 1.8792858 0.40319866 34
0.9685477 1.8773311 0.32815033 33
0.96669948 1.8729464 0.25409758 36
0.97508723 1.8883886 0.18259129 43
0.97088289 1.8794416 0.10885879 37
0.96778375 1.8726407 0.03612648 34
0.90602952 1.7494031 -0.51763833 4
0.97013605 1.8723825 -0.47802129 7
0.96855712 1.8685365 -0.40129256 14
0.97245097 1.8752475 -0.32851264 16
0.98204684 1.8929434 -0.2571446 37
0.97674543 1.8819211 -0.18215577 36
0.97252488 1.8729897 -0.10823574 36
0.97401112 1.8750517 -0.035851933 37
0.97310132 1.8725014 0.55480522 32
0.97503525 1.8754226 0.47878349 36
0.97569489 1.8758913 0.40319866 34
0.97509485 1.8739388 0.32815033 35
0.97552288 1.8739625 0.25470692 37
0.98167294 1.8849734 0.18259129 40
0.97743744 1.8760412 0.10885879 38
0.97431463 1.8692511 0.03612648 35
0.91213059 1.7462296 -0.51763833 4
0.97440964 1.8646668 -0.47689649 6
0.97507364 1.8651444 -0.40129256 15
0.98127967 1.8762178 -0.32929483 16
0.99094933 1.8939012 -0.25775397 36
0.98330855 1.8785001 -0.18215577 37
0.97905689 1.8695835 -0.10823574 37
0.98055041 1.8716404 -0.035851933 36
0.98187381 1.8733711 0.55609846 34
0.98383838 1.8763227 0.47990742 36
0.98451698 1.8768206 0.40415183 34
0.9839251 1.8748968 0.32893166 33
0.98205829 1.8705459 0.25470692 37
0.98824674 1.8815353 0.18259129 45
0.98398012 1.872618 0.10885879 38
0.98083359 1.8658389 0.03612648 34
0.92047143 1.747308 -0.5189324 4
0.99681246 1.8914236 -0.48476982 6
0.98157823 1.8617293 -0.40129256 15
0.98782295 1.872781 -0.32929483 17
0.99755418 1.8904307 -0.25775397 36
0.99218512 1.8794612 -0.18259157 36
0.98790872 1.8705696 -0.10849655 36
0.98707759 1.8682063 -0.035851933 36
0.98840708 1.8699323 0.55609846 34
0.99038196 1.8728771 0.47990742 35
0.99106228 1.8733726 0.40415183 34
0.99277377 1.8758155 0.32971296 35
0.99090391 1.8714924 0.25531626 37
0.99713999 1.8824756 0.18302706 41
0.99284875 1.8735838 0.10912047 34
0.98734057 1.8624036 0.03612648 34
0.92656511 1.7440844 -0.5189324 4
1.0239868 1.9266508 -0.49489263 10
0.98807091 1.8582915 -0.40129256 14
0.99667329 1.8736813 -0.33007699 17
1.0064783 1.891318 -0.25836328 38
0.99873972 1.8759863 -0.18259157 36
0.99443221 1.8671098 -0.10849655 37
0.99594367 1.8691612 -0.035938323 37
0.99492836 1.8664707 0.55609846 34
0.99691343 1.8694086 0.47990742 36
0.99759561 1.8699017 0.40415183 35
0.9993155 1.8723387 0.32971296 34
0.99743062 1.8680221 0.25531626 36
1.003705 1.8789835 0.18302706 40
0.99938273 1.8701067 0.10912047 39
0.99619269 1.8633547 0.036213744 35
0.93264741 1.7408395 -0.5189324 4
1.0238013 1.9101825 -0.49151835 9
0.99687082 1.8591567 -0.40224573 13
1.0032076 1.8701909 -0.33007699 16
1.0130742 1.8877932 -0.25836328 36
1.007638 1.876877 -0.18302734 37
1.0033063 1.8680263 -0.10875736 36
1.0024621 1.8656734 -0.035938323 36
1.0037243 1.8672405 0.5573917 33
1.0034329 1.8659173 0.47990742 38
1.0041167 1.866408 0.40415183 34
1.0081859 1.873188 0.33049428 34
1.0062978 1.8688985 0.2559256 36
1.0102577 1.8754685 0.18302706 41
1.0082731 1.8710021 0.10938215 36
1.0026909 1.859866 0.036213744 34
0.93871844 1.7375733 -0.5189324 4
1.0327795 1.9108833 -0.49264312 8
1.0033544 1.8556657 -0.40224573 13
1.0120794 1.8710215 -0.33085918 17
1.0220196 1.8886102 -0.25897264 38
1.0141834 1.8733482 -0.18302734 37
1.0098208 1.8645127 -0.10875736 36
1.0089685 1.8621628 -0.035938323 37
1.010236 1.8637255 0.5573917 35
1.0122625 1.8666861 0.4810313 37
1.0129662 1.8672062 0.40510502 34
1.0147183 1.8696573 0.33049428 35
1.0128155 1.8653744 0.2559256 36
1.0191756 1.8763076 0.18346284 40
1.014798 1.8674712 0.10938215 37
1.0115645 1.8607465 0.036301002 34
0.94246751 1.7300448 -0.51763833 4
1.0371119 1.9029884 -0.49151835 8
1.0121754 1.8564615 -0.40319896 14
1.0209688 1.8718125 -0.33164132 16
1.0286058 1.8850312 -0.25897264 38
1.0207164 1.8697968 -0.18302734 39
1.0187162 1.8653585 -0.10901816 36
1.0178596 1.8630168 -0.036024712 37
1.019052 1.864426 0.55868495 34
1.0187721 1.8631413 0.4810313 38
1.0194778 1.8636589 0.40510502 34
1.0212384 1.8661039 0.33049428 34
1.021704 1.866181 0.25653496 36
1.025719 1.8727386 0.18346284 40
1.0237099 1.8682964 0.10964382 38
1.0180537 1.8572042 0.036301002 34
0.94850081 1.7267445 -0.51763833 4
1.0437483 1.8993567 -0.49151835 7
1.0210141 1.8572181 -0.4041521 13
1.0274965 1.8682373 -0.33164132 16
1.0375718 1.885777 -0.25958198 37
1.029639 1.8705862 -0.18346313 37
1.0252212 1.8617911 -0.10901816 36
1.0243565 1.8594525 -0.036024712 35
1.0255538 1.8608574 0.55868495 34
1.0276219 1.8638403 0.48215523 36
1.0283474 1.8643866 0.40605819 34
1.0301321 1.8668514 0.33127558 34
1.0306101 1.8669475 0.2571443 35
1.0346577 1.8735068 0.18389861 40
1.0302253 1.8647116 0.10964382 38
1.0269486 1.8580147 0.036388267 33
0.95218253 1.7191982 -0.51634425 4
1.0503719 1.8957018 -0.49151835 7
1.0298704 1.8579359 -0.40510532 13
1.0364066 1.8689582 -0.33242351 15
1.044148 1.8821437 -0.25958198 38
1.0361623 1.8669807 -0.18346313 39
1.0341378 1.8625668 -0.10927898 36
1.0332683 1.8602357 -0.036111102 36
1.0343893 1.8614881 0.55997825 34
1.0364889 1.8645002 0.48327911 37
1.0348492 1.8607857 0.40605819 33
1.0366423 1.8632443 0.33127558 35
1.0371207 1.8633387 0.2571443 37
1.0411912 1.8698838 0.18389861 40
1.039158 1.8654661 0.1099055 37
1.0334281 1.8544186 0.036388267 34
0.9581778 1.7158639 -0.51634425 4
1.0569828 1.8920238 -0.49151835 8
1.0363494 1.8543296 -0.40510532 14
1.0429242 1.865329 -0.33242351 15
1.0531343 1.8828188 -0.26019135 37
1.0451052 1.8676991 -0.1838989 39
1.0406331 1.8589455 -0.10927898 37
1.0397556 1.8566176 -0.036111102 39
1.0432413 1.8620795 0.56127143 35
1.0429909 1.8608707 0.48327911 37
1.0437388 1.8614435 0.40701142 36
1.0431398 1.8596144 0.33127558 37
1.0460474 1.8640352 0.25775367 36
1.0501505 1.8705815 0.1843344 44
1.0456634 1.8618275 0.1099055 40
1.0398949 1.8508002 0.036388267 34
0.96416146 1.7125088 -0.51634425 4
1.0635806 1.8883226 -0.49151835 7
1.0452255 1.8549769 -0.40605849 13
1.051854 1.8659792 -0.33320567 16
1.0621378 1.883454 -0.26080069 39
1.0516182 1.8640395 -0.1838989 47
1.0495698 1.85965 -0.10953978 37
1.0486881 1.8573302 -0.036197495 38
1.0497348 1.8584267 0.56127143 38
1.0518771 1.8614604 0.48440304 42
1.0502301 1.8577887 0.40701142 40
1.052056 1.8602606 0.33205691 39
1.0525478 1.8603723 0.25775367 40
1.0566736 1.8669044 0.1843344 48
1.052156 1.8581661 0.1099055 43
1.046349 1.8471589 0.036388267 38
0.97013336 1.7091329 -0.51634425 4
1.0701656 1.8845985 -0.49151835 7
1.0516942 1.851317 -0.40605849 14
1.0583612 1.8622962 -0.33320567 16
1.0711586 1.8840492 -0.26141003 41
1.0581186 1.8603574 -0.1838989 53
1.0560548 1.8559749 -0.10953978 42
1.0551649 1.8536583 -0.036197495 41
1.0562155 1.854751 0.56127143 39
1.0583683 1.8577774 0.48440304 43
1.0591389 1.8583755 0.40796459 44
1.0585431 1.8565769 0.33205691 32
1.0614941 1.8609978 0.25836298 44
1.0656525 1.8675307 0.18477017 52
1.0586357 1.8544821 0.1099055 48
1.0527905 1.8434951 0.036388267 31
0.97609347 1.705736 -0.51634425 4
1.0767375 1.8808514 -0.49151835 7
1.0605894 1.851894 -0.40701169 14
1.0648553 1.8585905 -0.33320567 16
1.0752608 1.875993 -0.26080069 37
1.064606 1.8566525 -0.1838989 31
1.0600425 1.8479464 -0.10927898 43
1.0591406 1.8456277 -0.036111102 28
1.0626833 1.8510528 0.56127143 24
1.0624204 1.8498468 0.48327911 30
1.0656193 1.8546672 0.40796459 27
1.0650172 1.8528705 0.33205691 24
1.063036 1.8486767 0.2571443 29
1.0721648 1.8637995 0.18477017 34
1.0651026 1.8507755 0.1099055 29
1.0567247 1.8354764 0.036301002 18
0.9820416 1.7023185 -0.51634425 4
1.0832964 1.8770815 -0.49151835 6
1.0670474 1.8481805 -0.40701169 13
1.0713365 1.8548621 -0.33320567 14
1.0818028 1.8722283 -0.26080069 25
1.0710804 1.8529251 -0.1838989 23
1.0664866 1.8442348 -0.10927898 26
1.0630732 1.8375921 -0.036024712 23
1.0691383 1.8473321 0.56127143 16
1.068871 1.846127 0.48327911 21
1.0720868 1.8509362 0.40796459 19
1.0739546 1.8534148 0.33283818 14
1.0669938 1.8406614 0.25653496 18
1.0786641 1.8600457 0.18477017 25
1.0715564 1.8470463 0.1099055 20
1.0606159 1.827453 0.036213744 13
0.98797792 1.6988802 -0.51634425 4
1.0898421 1.8732886 -0.49151835 6
1.075961 1.8486866 -0.40796486 12
1.0778047 1.8511112 -0.33320567 14
1.0858337 1.8641523 -0.26019135 17
1.0775418 1.849175 -0.1838989 14
