# .PCD v0.7 - Point Cloud Data file format
VERSION 0.7
FIELDS x y z intensity
SIZE 4 4 4 4
TYPE F F F F
COUNT 1 1 1 1
WIDTH 1383
HEIGHT 1
VIEWPOINT 0 0 0 1 0 0 0
POINTS 1383
DATA ascii
0.74156612 1.916832 0.46529663 39
0.73668814 1.903236 0.38890082 33
0.73969775 1.9100209 0.31799328 38
0.73999667 1.9098029 0.2467854 34
0.74840194 1.9304953 0.17779772 39
0.74511802 1.9210296 0.1059803 35
0.73730248 1.8998964 0.034904812 37
0.71611118 1.8405266 -0.5189324 4
0.74731696 1.9197389 -0.46677375 15
0.74245399 1.9062624 -0.38985425 15
0.74546939 1.9130172 -0.31912658 36
0.75300848 1.9313676 -0.24983244 44
0.74701285 1.915002 -0.17649063 37
0.74551564 1.9101789 -0.10510603 36
0.74491906 1.9076675 -0.034728859 33
0.74683481 1.9115885 0.5392862 36
0.74825257 1.9142317 0.46529663 38
0.74511492 1.9052241 0.38985398 36
0.74816 1.9120263 0.31877461 34
0.74665862 1.9072082 0.2467854 46
0.75513607 1.9278711 0.17779772 44
0.75181919 1.918417 0.1059803 30
0.74575478 1.9019654 0.034992073 38
0.71723074 1.8245312 -0.51505011 4
0.75367892 1.91725 -0.46677375 16
0.74877131 1.9037899 -0.38985425 15
0.75361735 1.91513 -0.31990871 33
0.76122713 1.9334778 -0.25044179 38
0.75335914 1.9125142 -0.17649063 33
0.75367689 1.912342 -0.10536684 34
0.75307488 1.9098374 -0.034815248 41
0.75316978 1.9091016 0.5392862 35
0.75638509 1.9162718 0.46642056 41
0.75142884 1.9027427 0.38985398 40
0.7544964 1.9095349 0.31877461 37
0.75297904 1.9047217 0.2467854 38
0.76152498 1.9253565 0.17779772 41
0.75817668 1.9159133 0.1059803 37
0.75205779 1.8994819 0.034992073 35
0.71614987 1.8041871 -0.50987375 4
0.7603668 1.9146075 -0.46677375 16
0.75541216 1.9011645 -0.38985425 15
0.76029778 1.9124876 -0.31990871 33
0.76797152 1.9308088 -0.25044179 42
0.76187229 1.9145012 -0.17692643 40
0.7603476 1.9096996 -0.10536684 39
0.7597369 1.907197 -0.034815248 38
0.75982922 1.9064608 0.5392862 37
0.76306951 1.9136198 0.46642056 37
0.75806606 1.9001081 0.38985398 38
0.76298809 1.911476 0.31955591 36
0.75962317 1.9020817 0.2467854 33
0.76824105 1.9226865 0.17779772 43
0.76485991 1.9132551 0.1059803 38
0.75868362 1.8968451 0.034992073 35
0.70806336 1.7658148 -0.49952096 5
0.76671165 1.9120756 -0.46677375 16
0.75988507 1.8940939 -0.38890108 15
0.76663572 1.9099559 -0.31990871 27
0.77621955 1.9328567 -0.25105113 40
0.76821685 1.9119642 -0.17692643 40
0.76853853 1.9118003 -0.10562764 34
0.76792264 1.9093052 -0.034901641 41
0.76614708 1.9039307 0.5392862 37
0.77123058 1.9155982 0.46754444 38
0.76619679 1.9021367 0.39080721 37
0.76932263 1.9089353 0.31955591 30
0.76592648 1.8995522 0.2467854 37
0.77461267 1.9201283 0.17779772 43
0.77120024 1.9107082 0.1059803 40
0.76684165 1.8989544 0.035079334 38
0.71210289 1.7589805 -0.49822688 5
0.77338135 1.9093876 -0.46677375 16
0.7683354 1.8959787 -0.38985425 15
0.77329803 1.9072683 -0.31990871 33
0.78296173 1.9301354 -0.25105113 42
0.77488619 1.909271 -0.17692643 38
0.77520728 1.9091059 -0.10562764 36
0.77646428 1.9112446 -0.034988027 36
0.77278835 1.9012446 0.5392862 36
0.77791256 1.9128945 0.46754444 39
0.7728318 1.8994505 0.39080721 33
0.77784342 1.9108127 0.32033724 37
0.77442449 1.9014634 0.24739476 38
0.7813105 1.9174128 0.17779772 49
0.77786517 1.9080045 0.1059803 35
0.77346557 1.8962661 0.035079334 38
0.73683238 1.8010588 -0.51116782 4
0.78037441 1.9065403 -0.46677375 16
0.77527934 1.8931497 -0.38985425 13
0.78028333 1.9044211 -0.31990871 31
0.79003078 1.9272528 -0.25105113 39
0.78376871 1.9110264 -0.1773622 37
0.78409487 1.9108715 -0.10588846 30
0.78346413 1.9083859 -0.034988027 32
0.78158659 1.9028671 0.54057944 37
0.78491849 1.9100304 0.46754444 39
0.77978843 1.8966054 0.39080721 34
0.78484172 1.9079489 0.32033724 36
0.78138846 1.8986123 0.24739476 38
0.78833294 1.9145362 0.17779772 50
0.78485316 1.9051408 0.1059803 40
0.78231555 1.8980404 0.035166595 34
0.75786936 1.8341846 -0.52152056 4
0.78702474 1.9038047 -0.46677375 15
0.78375888 1.8949678 -0.39080748 15
0.78692621 1.9016857 -0.31990871 31
0.7986517 1.9290686 -0.2516605 37
0.79043472 1.9082788 -0.1773622 38
0.79076028 1.9081228 -0.10588846 33
0.79203564 1.9102576 -0.03507442 34
0.7882241 1.9001272 0.54057944 36
0.79158098 1.9072788 0.46754444 37
0.78828639 1.8984047 0.39176041 36
0.79149687 1.9051976 0.32033724 32
0.78801113 1.8958732 0.24739476 38
0.7950111 1.9117728 0.17779772 47
0.79149854 1.9023895 0.1059803 38
0.7889362 1.8952981 0.035166595 36
0.77728647 1.862728 -0.53057927 4
0.79554242 1.9055415 -0.46789846 15
0.79226071 1.8967496 -0.39176068 15
0.79355949 1.8989275 -0.31990871 28
0.80538052 1.9262689 -0.2516605 45
0.79709107 1.9055082 -0.1773622 35
0.79741603 1.9053508 -0.10588846 36
0.7986989 1.9074813 -0.03507442 36
0.79485196 1.8973641 0.54057944 35
0.79823375 1.9045042 0.46754444 38
0.79490823 1.8956417 0.39176041 37
0.79814249 1.9024231 0.32033724 41
0.79462421 1.8931109 0.24739476 36
0.80360812 1.9135783 0.17823349 45
0.80006844 1.9042184 0.10624199 44
0.79748458 1.8971413 0.03525386 35
0.77065581 1.8288491 -0.52152056 4
0.80218911 1.902753 -0.46789846 16
0.7988767 1.8939725 -0.39176068 14
0.80018318 1.8961457 -0.31990871 26
0.81209958 1.9234459 -0.2516605 41
0.80373764 1.902714 -0.1773622 39
0.80406207 1.9025558 -0.10588846 35
0.80535233 1.9046816 -0.03507442 37
0.8014701 1.8945781 0.54057944 37
0.80677599 1.9061931 0.46866837 35
0.80152047 1.8928553 0.39176041 34
0.80670476 1.9041729 0.32111856 38
0.80316406 1.8948946 0.24800409 39
0.81222749 1.9153473 0.17866927 47
0.80671054 1.901414 0.10624199 39
0.804102 1.8943461 0.03525386 36
0.777035 1.8261478 -0.52152056 4
0.80882609 1.8999412 -0.46789846 16
0.80740631 1.8956881 -0.39271384 15
0.80679709 1.8933409 -0.31990871 25
0.81880867 1.9205995 -0.2516605 40
0.8103745 1.899897 -0.1773622 40
0.81069833 1.8997375 -0.10588846 38
0.81199604 1.9018588 -0.03507442 40
0.80807853 1.8917688 0.54057944 35
0.81342489 1.9033654 0.46866837 39
0.80812287 1.890046 0.39176041 38
0.81334668 1.9013454 0.32111856 36
0.80977362 1.8920795 0.24800409 39
0.81890833 1.9125004 0.17866927 46
0.81334281 1.8985865 0.10624199 44
0.81070954 1.8915278 0.03525386 35
0.78149825 1.818987 -0.52022654 4
0.81545317 1.8971063 -0.46789846 15
0.81401861 1.8928581 -0.39271384 14
0.81340122 1.8905133 -0.31990871 25
0.82550782 1.9177296 -0.2516605 40
0.8170014 1.8970566 -0.1773622 37
0.81732476 1.8968961 -0.10588846 38
0.81862986 1.8990129 -0.03507442 40
0.81467718 1.8889366 0.54057944 37
0.82006389 1.9005144 0.46866837 38
0.81471545 1.8872136 0.39176041 36
0.81997859 1.8984947 0.32111856 36
0.81637329 1.8892413 0.24800409 37
0.82755584 1.9142022 0.17910506 49
0.82194728 1.9003186 0.10650366 41
0.81730723 1.8886862 0.03525386 37
0.78399903 1.8073865 -0.51763833 4
0.82207036 1.8942482 -0.46789846 16
0.82062089 1.8900051 -0.39271384 14
0.81999534 1.8876624 -0.31990871 23
0.83417499 1.9193878 -0.25226983 40
0.82361841 1.8941932 -0.1773622 39
0.82394117 1.8940315 -0.10588846 37
0.82525361 1.8961438 -0.03507442 39
0.82319409 1.8905098 0.54187268 36
0.82669294 1.8976402 0.46866837 39
0.82325917 1.8888577 0.39271358 36
0.82660061 1.8956209 0.32111856 38
0.82494748 1.890929 0.24861345 39
0.83423263 1.911302 0.17910506 48
0.82857561 1.8974378 0.10650366 38
0.82389504 1.8858218 0.03525386 36
0.79030317 1.8046389 -0.51763833 4
0.83063263 1.8958296 -0.46902326 16
0.82918394 1.8916248 -0.39366707 15
0.82657951 1.8847886 -0.31990871 22
0.84086984 1.9164643 -0.25226983 40
0.83222747 1.8958677 -0.17779799 40
0.83054757 1.8911439 -0.10588846 37
0.8318674 1.8932515 -0.03507442 40
0.82978821 1.8876249 0.54187268 37
0.83331192 1.894743 0.46866837 37
0.82984751 1.8859725 0.39271358 34
0.83520234 1.897244 0.32189986 36
0.83154309 1.8880379 0.24861345 37
0.84089923 1.9083782 0.17910506 46
0.83519387 1.894534 0.10650366 38
0.83047277 1.8829345 0.03525386 37
0.79495865 1.7973131 -0.51634425 4
0.83757561 1.8927724 -0.46902326 15
0.83611149 1.8885729 -0.39366707 14
0.83348209 1.8817464 -0.31990871 21
0.84989905 1.9179069 -0.25287917 38
0.83917052 1.8928046 -0.17779799 38
0.83747339 1.888087 -0.10588846 39
0.83880091 1.8901899 -0.03507442 39
0.8386609 1.888985 0.54316592 36
0.84222853 1.8961283 0.46979225 38
0.83874762 1.8874037 0.39366677 35
0.84215051 1.89417 0.32189986 38
0.83845752 1.8849775 0.24861345 39
0.84788811 1.9052833 0.17910506 46
0.84416312 1.8960218 0.10676534 39
0.83940262 1.8844445 0.035341118 36
0.80122757 1.7945273 -0.51634425 4
0.84417754 1.8898371 -0.46902326 15
0.84470135 1.8901237 -0.39462024 14
0.84004551 1.8788254 -0.31990871 20
0.8565886 1.9149284 -0.25287917 40
0.84780717 1.8944101 -0.17823376 40
0.84609926 1.8897092 -0.10614926 38
0.84539378 1.8872504 -0.03507442 37
0.84524953 1.8860461 0.54316592 36
0.84884214 1.8931769 0.46979225 39
0.84533077 1.8844644 0.39366677 35
0.84875721 1.8912189 0.32189986 36
0.84503222 1.8820392 0.24861345 37
0.85453361 1.902312 0.17910506 46
0.85077631 1.8930637 0.10676534 39
0.8459816 1.8815002 0.035341118 36
0.80550241 1.7873164 -0.51505011 4
0.85277164 1.8913201 -0.47014797 14
0.85129392 1.8871636 -0.39462024 14
0.84659868 1.8758818 -0.31990871 20
0.86530989 1.9164494 -0.25348851 39
0.8544147 1.8914392 -0.17823376 38
0.85269046 1.8867444 -0.10614926 37
0.85197639 1.8842878 -0.03507442 38
0.85381871 1.8874849 0.54445922 36
0.85544538 1.8902024 0.46979225 38
0.85190362 1.8815022 0.39366677 34
0.85739142 1.8927432 0.32268119 35
0.85364515 1.8835982 0.24922279 38
0.86322552 1.9038539 0.17954083 47
0.85944176 1.8946294 0.10702702 40
0.85460395 1.8830907 0.035428382 35
0.81173635 1.7844938 -0.51505011 4
0.85936838 1.8883319 -0.47014797 13
0.85991007 1.8886478 -0.39557344 14
0.85518879 1.8774095 -0.3206909 20
0.87199426 1.9134173 -0.25348851 38
0.86101192 1.8884453 -0.17823376 37
0.85927123 1.8837564 -0.10614926 37
0.85854858 1.8813025 -0.03507442 38
0.86040205 1.884493 0.54445922 37
0.86203825 1.8872048 0.46979225 39
0.85846609 1.8785169 0.39366677 36
0.86399317 1.8897388 0.32268119 35
0.86021489 1.8806069 0.24922279 39
0.86986595 1.9008291 0.17954083 47
0.86605 1.8916178 0.10702702 40
0.86117196 1.8800962 0.035428382 37
0.81796044 1.7816495 -0.51505011 4
0.86595464 1.8853207 -0.47014797 13
0.86649746 1.8856347 -0.39557344 15
0.86173701 1.8744129 -0.3206909 19
0.87866801 1.9103619 -0.25348851 39
0.86968076 1.8899531 -0.17866954 38
0.86584151 1.8807455 -0.10614926 37
0.86720169 1.8828348 -0.03516081 39
0.86899614 1.8858646 0.54575241 36
0.87066031 1.8886087 0.47091618 39
0.86707383 1.879966 0.39461994 36
0.87058425 1.8867114 0.32268119 36
0.86677414 1.8775927 0.24922279 37
0.87649578 1.8977811 0.17954083 48
0.8726477 1.8885833 0.10702702 39
0.86982715 1.8816165 0.035515644 35
0.82417464 1.7787834 -0.51505011 4
0.87457925 1.8867065 -0.47127277 14
0.87307423 1.8825985 -0.39557344 14
0.87035322 1.8758733 -0.32147309 17
0.88533109 1.9072831 -0.25348851 39
0.87627262 1.8869059 -0.17866954 37
0.87240124 1.8777118 -0.10614926 38
0.87376869 1.8797961 -0.03516081 41
0.87557375 1.8828197 0.54575241 35
0.87724751 1.8855581 0.47091618 38
0.87363082 1.876928 0.39461994 37
0.87716484 1.883661 0.32268119 35
0.87541866 1.8790541 0.24983214 38
0.88311493 1.8947101 0.17954083 43
0.88134497 1.890051 0.1072887 38
0.87638992 1.8785688 0.035515644 35
0.83037865 1.7758956 -0.51505011 4
0.88115978 1.8836421 -0.47127277 14
0.87964046 1.8795394 -0.39557344 14
0.87899005 1.8772962 -0.32225525 22
0.89408857 1.9086753 -0.25409788 38
0.88285381 1.8838357 -0.17866954 37
0.8810702 1.8791761 -0.10641007 37
0.88032508 1.8767347 -0.03516081 37
0.88214064 1.8797519 0.54575241 38
0.88382393 1.8824844 0.47091618 37
0.88226396 1.8783096 0.39557317 37
0.8837347 1.8805877 0.32268119 37
0.88197249 1.8759869 0.24983214 37
0.88972336 1.8916157 0.17954083 45
0.88793713 1.886963 0.1072887 38
0.88294202 1.8754982 0.035515644 37
0.83657271 1.7729863 -0.51505011 4
0.88772959 1.8805548 -0.47127277 14
0.88829195 1.8808957 -0.3965266 14
0.88764733 1.8786815 -0.32303745 16
0.90074569 1.9055427 -0.25409788 39
0.8894242 1.8807424 -0.17866954 38
0.88762432 1.8760891 -0.10641007 37
0.8868708 1.8736504 -0.03516081 39
0.890764 1.8810264 0.54704571 37
0.89038968 1.8793877 0.47091618 39
0.88881516 1.8752184 0.39557317 37
0.89240974 1.8819535 0.32346249 36
0.88851553 1.8728968 0.24983214 37
0.89845675 1.8929987 0.17997661 47
0.89451844 1.883852 0.1072887 39
0.89162856 1.8769205 0.035602909 35
0.84275645 1.7700553 -0.51505011 4
0.89638358 1.881843 -0.47239748 14
0.89485204 1.8777835 -0.3965266 13
0.89419973 1.8755716 -0.32303745 16
0.90739179 1.902387 -0.25409788 37
0.89812911 1.8821219 -0.17910534 37
0.89631885 1.8774852 -0.10667088 36
0.89556026 1.8750545 -0.035247199 36
0.89732456 1.8779055 0.54704571 36
0.89904588 1.880664 0.47204006 40
0.89535546 1.8721045 0.39557317 35
0.89897346 1.878827 0.32346249 35
0.89719057 1.8742603 0.25044149 36
0.9050591 1.889851 0.17997661 44
0.90324634 1.8852211 0.10755039 39
0.89817482 1.8737966 0.035602909 35
0.84683865 1.7627494 -0.51375604 4
0.90294701 1.8787025 -0.47239748 14
0.90140134 1.8746485 -0.3965266 13
0.90288204 1.8768891 -0.32381961 15
0.91617894 1.9036798 -0.25470722 38
0.90469348 1.8789755 -0.17910534 37
0.90286702 1.8743449 -0.10667088 38
0.90209997 1.871917 -0.035247199 38
0.90387416 1.8747619 0.54704571 35
0.90560508 1.8775142 0.47204006 39
0.90188485 1.8689677 0.39557317 37
0.90552634 1.8756776 0.32346249 37
0.90372753 1.8711172 0.25044149 39
0.91165036 1.8866802 0.17997661 44
0.90982151 1.8820567 0.10755039 39
0.90471005 1.8706501 0.035602909 36
0.85298657 1.7597827 -0.51375604 4
0.91162515 1.8799229 -0.47352228 14
0.91008198 1.8759066 -0.3974798 13
0.90942812 1.873726 -0.32381961 14
0.92281842 1.9004701 -0.25470722 37
0.91124678 1.8758061 -0.17910534 39
0.91158694 1.8756731 -0.10693169 37
0.9108147 1.8732525 -0.035333589 37
0.91252553 1.8759385 0.54833895 34
0.9121533 1.8743416 0.47204006 40
0.91055179 1.8702211 0.39652634 35
0.91423088 1.8769454 0.32424381 38
0.91242737 1.8724124 0.25105083 36
0.9204132 1.8879635 0.18041238 46
0.91638553 1.8788694 0.10755039 40
0.91342664 1.8719734 0.035690166 37
0.85912418 1.7567946 -0.51375604 4
0.91818172 1.8767292 -0.47352228 14
0.91662455 1.8727185 -0.3974798 13
0.91596305 1.87054 -0.32381961 15
0.92944664 1.8972372 -0.25470722 40
0.91998106 1.8770863 -0.17954111 40
0.91812867 1.8724797 -0.10693169 37
0.91734803 1.8700619 -0.035333589 39
0.91906828 1.8727419 0.54833895 37
0.9208377 1.8755196 0.47316399 39
0.9170745 1.8670312 0.39652634 37
0.92077708 1.8737427 0.32424381 38
0.91895771 1.8692161 0.25105083 37
0.92699784 1.8847393 0.18041238 48
0.92293847 1.8756591 0.10755039 43
0.91995549 1.8687735 0.035690166 37
0.8652513 1.7537849 -0.51375604 4
0.9268834 1.8778814 -0.47464699 14
0.92532915 1.8739084 -0.39843297 14
0.92467427 1.8717592 -0.3246018 16
0.93826246 1.8984303 -0.25531656 42
0.92652774 1.8738636 -0.17954111 43
0.92465925 1.8692634 -0.10693169 38
0.92608762 1.8713289 -0.035419982 41
0.92559975 1.8695223 0.54833895 39
0.92737889 1.8722939 0.47316399 44
0.92576551 1.8682169 0.39747953 39
0.92731208 1.870517 0.32424381 43
0.92768192 1.8704429 0.2516602 40
0.93357122 1.8814919 0.18041238 54
0.92948008 1.8724262 0.10755039 43
0.92647314 1.8655509 0.035690166 38
0.87136793 1.7507539 -0.51375604 4
0.93343276 1.8746346 -0.47464699 15
0.93186474 1.870667 -0.39843297 15
0.93120229 1.86852 -0.3246018 16
0.94488353 1.8951436 -0.25531656 45
0.93306309 1.8706179 -0.17954111 55
0.93117857 1.8660244 -0.10693169 39
0.93261415 1.8680849 -0.035419982 43
0.93211997 1.86628 0.54833895 45
0.9339087 1.8690454 0.47316399 51
0.93447578 1.869364 0.3984327 41
0.93383574 1.8672688 0.32424381 33
0.93420535 1.8671932 0.2516602 44
0.94013315 1.8782218 0.18041238 61
0.93601042 1.8691702 0.10755039 51
0.9307403 1.8578359 0.035602909 35
0.87747389 1.7477016 -0.51375604 4
0.93997085 1.8713648 -0.47464699 14
0.94059277 1.8717885 -0.3993862 15
0.93771899 1.8652581 -0.3246018 18
0.95149297 1.8918339 -0.25531656 43
0.93734831 1.8629003 -0.17910534 34
0.9376865 1.8627625 -0.10693169 48
0.93912929 1.8648182 -0.035419982 31
0.93862879 1.8630148 0.54833895 26
0.93823433 1.8614233 0.47204006 29
0.94099534 1.8660907 0.3984327 28
0.94034803 1.8639977 0.32424381 26
0.93848139 1.8594905 0.25105083 30
0.94668359 1.8749286 0.18041238 34
0.94252932 1.8658916 0.10755039 32
0.93496472 1.8501136 0.035515644 21
0.881387 1.7403194 -0.5124619 4
0.94649738 1.8680723 -0.47464699 12
0.94712079 1.8684938 -0.3993862 14
0.94422424 1.8619735 -0.3246018 16
0.95584565 1.8840753 -0.25470722 28
0.94384539 1.8596169 -0.17910534 25
0.94192237 1.8550256 -0.10667088 27
0.94336873 1.8570713 -0.035333589 24
0.94512624 1.8597271 0.54833895 16
0.94472617 1.8581369 0.47204006 23
0.94750351 1.8627948 0.3984327 21
0.94684887 1.8607039 0.32424381 14
0.94271505 1.8517807 0.25044149 22
0.95322257 1.8716127 0.18041238 27
0.94903678 1.8625902 0.10755039 23
0.94141716 1.8468388 0.035515644 15
0.88745648 1.7372321 -0.5124619 4
0.95301241 1.8647571 -0.47464699 10
0.95363724 1.8651763 -0.3993862 13
0.95071805 1.8586662 -0.3246018 15
0.96241647 1.8807272 -0.25470722 18
0.95033085 1.8563108 -0.17910534 15
0.94839185 1.8517265 -0.10667088 21
0.94756567 1.8493179 -0.035247199 14
0.95381534 1.8607148 0.54963219 11
0.95120651 1.8548279 0.47204006 13
0.95400012 1.859476 0.3984327 11
0.95333821 1.8573874 0.32424381 11
0.94690615 1.8440638 0.24983214 13
0.95974988 1.8682739 0.18041238 16
0.95553267 1.8592659 0.10755039 14
0.9432863 1.8346496 0.035341118 11
0.89130306 1.7298305 -0.51116782 4
0.95728362 1.8570887 -0.47352228 10
0.9601422 1.8618362 -0.3993862 11
0.95946437 1.859725 -0.32538396 15
0.9689756 1.8773563 -0.25470722 12
0.95909005 1.8574079 -0.17954111 13
0.95484978 1.8484046 -0.10667088 12
0.95171994 1.8415576 -0.03516081 13
0.96252275 1.8616641 0.55092543 17
0.95991367 1.8558236 0.47316399 10
0.9604851 1.8561345 0.3984327 17
0.9620862 1.858434 0.32502508 17
0.95333737 1.8407472 0.24983214 10
0.968557 1.8693349 0.18084818 16
0.96201688 1.8559192 0.10755039 18
0.95198607 1.8357836 0.035428382 11
0.89733583 1.7267088 -0.51116782 4
0.9637602 1.8537358 -0.47352228 10
0.96663535 1.8584733 -0.3993862 12
0.96595019 1.8563645 -0.32538396 15
0.97781438 1.8783644 -0.25531656 17
0.96786851 1.8584666 -0.1799769 17
0.96360332 1.8494889 -0.10693169 19
0.95583171 1.8337913 -0.03507442 14
0.97124863 1.8625758 0.55221874 17
0.96638584 1.8524617 0.47316399 18
0.96695828 1.8527706 0.3984327 14
0.97085321 1.8594421 0.32580641 18
0.95975697 1.8374082 0.24983214 18
0.9773832 1.870357 0.18128394 16
0.96848941 1.8525499 0.10755039 18
0.96070528 1.8368793 0.035515644 10
0.90335768 1.7235659 -0.51116782 4
0.9702251 1.8503604 -0.47352228 9
0.97539669 1.8594341 -0.40033937 12
0.97471911 1.8573544 -0.32616612 13
0.98436511 1.8749398 -0.25531656 17
0.97666591 1.8594865 -0.18041267 17
0.97237599 1.8505341 -0.10719251 14
0.96222705 1.8304436 -0.03507442 12
0.97999227 1.8634487 0.55351192 19
0.97511464 1.8533887 0.47428787 14
0.97570598 1.8537273 0.3993859 15
0.97733796 1.8560419 0.32580641 15
0.97079104 1.8428284 0.25105083 15
0.98622829 1.8713405 0.18171974 18
0.97727883 1.8535749 0.10781206 19
0.97177607 1.8423582 0.035690166 17
0.9116255 1.724672 -0.5124619 4
0.97667819 1.8469623 -0.47352228 8
0.98188138 1.8560181 -0.40033937 13
0.98119658 1.8539407 -0.32616612 14
0.99322611 1.8758782 -0.25592589 18
0.98548234 1.8604674 -0.18084845 15
0.98116755 1.8515404 -0.10745331 15
0.97095215 1.8314905 -0.03516081 13
0.98422807 1.8557498 0.55221874 14
0.9838618 1.8542774 0.4754118 16
0.98217076 1.8503102 0.3993859 16
0.98612702 1.8569807 0.32658771 15
0.97954613 1.8438112 0.2516602 16
0.99275446 1.8678865 0.18171974 18
0.98608726 1.8545609 0.10807375 15
0.98054898 1.8433686 0.035777431 22
0.9199121 1.7257414 -0.51375604 4
0.98311925 1.8435419 -0.47352228 8
0.98835415 1.8525794 -0.40033937 13
0.98998713 1.8548609 -0.32694829 15
0.99976808 1.8723998 -0.25592589 15
0.9919706 1.8570162 -0.18084845 17
0.98762465 1.8481042 -0.10745331 16
0.97969645 1.8324989 -0.035247199 21
0.99069983 1.8523029 0.55221874 15
0.99032843 1.8508317 0.4754118 16
0.99093992 1.8511978 0.40033907 15
0.99260312 1.8535272 0.32658771 15
0.98831981 1.8447551 0.25226954 16
1.0016216 1.8688 0.1821555 20
0.99491429 1.8555079 0.10833542 17
0.98934066 1.8443401 0.035864696 23
0.92623109 1.7223581 -0.51375604 4
0.98986959 1.8399261 -0.47352228 7
0.99746388 1.8532668 -0.40129256 14
0.9991203 1.8555683 -0.32773048 15
1.0089777 1.8730922 -0.25653526 16
1.0011332 1.8577528 -0.18128422 17
0.99676126 1.8488673 -0.10771412 17
0.98877943 1.8332958 -0.035333589 18
0.99748224 1.8486594 0.55221874 14
0.99941975 1.8514769 0.47653568 15
0.99771827 1.8475534 0.40033907 15
1.0017374 1.8542218 0.32736903 14
0.99507451 1.8411204 0.25226954 15
1.0084643 1.8651164 0.1821555 21
1.0017084 1.8518488 0.10833542 17
0.99609387 1.8407016 0.035864696 66
0.93453985 1.7233599 -0.51505011 4
0.99396294 1.8321774 -0.47239748 6
1.006268 1.8540874 -0.40224573 13
1.0055914 1.8520693 -0.32773048 15
1.0155098 1.8695588 -0.25653526 15
1.0076119 1.854247 -0.18128422 16
1.0055938 1.8497634 -0.10797492 17
0.99994987 1.838617 -0.035506371 19
1.0039291 1.8451663 0.55221874 13
1.0058765 1.8479769 0.47653568 13
1.0065087 1.8483701 0.40129229 14
1.0082036 1.8507136 0.32736903 14
1.0038701 1.8419933 0.25287887 15
1.0149686 1.8615848 0.1821555 15
1.0105574 1.8527244 0.10859711 16
1.0049136 1.8415985 0.035951953 60
0.94286686 1.7243248 -0.51634425 4
1.0003524 1.8286967 -0.47239748 6
1.0127339 1.8505636 -0.40224573 13
1.0144216 1.8528796 -0.32851264 13
1.0244135 1.8703549 -0.2571446 15
1.0164719 1.8550867 -0.18172 15
1.0120444 1.846242 -0.10797492 16
1.0087655 1.8394984 -0.035592761 15
1.012687 1.8458849 0.55351192 13
1.0146651 1.8487256 0.47765961 14
1.0153168 1.8491479 0.40224546 13
1.0170355 1.8515117 0.32815033 13
1.0102937 1.8384781 0.25287887 15
1.0214607 1.8580304 0.1821555 14
1.0170184 1.8491857 0.10859711 15
1.0113299 1.8380827 0.035951953 54
0.94654828 1.7167937 -0.51505011 4
1.0302595 1.8678532 -0.48364502 12
1.0215588 1.8513147 -0.40319896 11
1.0232699 1.8536508 -0.32929483 13
1.0333352 1.8711121 -0.25775397 13
1.0229411 1.8515272 -0.18172 14
1.0208983 1.8470683 -0.10823574 14
1.0200186 1.844716 -0.03576554 12
1.019124 1.8423388 0.55351192 13
1.0211122 1.8451726 0.47765961 9
1.0217655 1.8455926 0.40224546 13
1.0234922 1.8479503 0.32815033 14
1.0191102 1.839281 0.25348821 14
1.030355 1.8588102 0.18259129 13
1.0258887 1.8499911 0.10885879 14
1.0177399 1.8345413 0.035951953 53
0.95223618 1.7136453 -0.51505011 3
1.0526872 1.894417 -0.49151835 10
1.0297546 1.8523861 -0.4041521 11
1.0314885 1.8547429 -0.33007699 13
1.0416212 1.8721932 -0.25836328 13
1.0311751 1.8526565 -0.18215577 14
1.0291251 1.8482143 -0.10849655 14
1.0306746 1.8502371 -0.035938323 17
1.027258 1.8433471 0.55480522 13
1.0292764 1.8462107 0.47878349 11
1.0299493 1.8466601 0.40319866 14
1.0316991 1.8490385 0.32893166 14
1.0248834 1.8360703 0.25348821 14
1.0361896 1.855564 0.18259129 13
1.0341307 1.8511182 0.10912047 14
1.0259372 1.835699 0.036039218 53
0.95555377 1.7062645 -0.51375604 4
1.0640559 1.8992314 -0.49376786 9
1.0386142 1.853062 -0.40510532 12
1.0403718 1.8554387 -0.33085918 13
1.050578 1.8728744 -0.25897264 14
1.0400734 1.8533896 -0.18259157 15
1.0380148 1.8489648 -0.10875736 14
1.039575 1.8509872 -0.036024712 18
1.0360521 1.8439608 0.55609846 15
1.0381019 1.846854 0.47990742 10
1.0363891 1.8430537 0.40319866 15
1.0381471 1.845426 0.32893166 14
1.0337204 1.8368067 0.25409758 15
1.0451039 1.8562759 0.18302706 14
1.0430363 1.8518474 0.10938215 15
1.0323387 1.8321066 0.036039218 51
0.96180111 1.7027508 -0.51375604 4
1.0734067 1.8995605 -0.49489263 8
1.0478145 1.8535156 -0.40605849 13
1.0495963 1.8559114 -0.33164132 13
1.0598789 1.8733302 -0.25958198 14
1.0493128 1.8538997 -0.18302734 15
1.0447847 1.845148 -0.10875736 15
1.0488162 1.8515142 -0.036111102 18
1.045185 1.8443531 0.5573917 15
1.0472667 1.8472749 0.4810313 15
1.0455586 1.8435119 0.40415183 15
1.047341 1.8459036 0.32971296 15
1.0428953 1.8373214 0.25470692 15
1.0519005 1.852433 0.18302706 15
1.0498166 1.8480121 0.10938215 15
1.0415169 1.832657 0.03612648 51
0.97012889 1.7035798 -0.51505011 4
1.0752077 1.8873358 -0.49264312 7
1.0542781 1.8498468 -0.40605849 13
1.0585144 1.8565265 -0.33242351 14
1.0688707 1.8739302 -0.26019135 15
1.0582466 1.8545521 -0.18346313 15
1.0536944 1.8458259 -0.10901816 15
1.0577521 1.8521832 -0.036197495 18
1.0540125 1.8448873 0.55868495 17
1.0561261 1.8478379 0.48215523 17
1.0519873 1.8398511 0.40415183 15
1.0562302 1.8465236 0.33049428 15
1.0517673 1.8379771 0.25531626 15
1.060835 1.8530726 0.18346284 14
1.0587425 1.8486692 0.10964382 15
1.050393 1.833348 0.036213744 51
0.97606957 1.700183 -0.51505011 4
1.0793628 1.8793463 -0.49151835 7
1.0631741 1.8504113 -0.40701169 13
1.0649884 1.8528203 -0.33242351 14
1.0754054 1.8701878 -0.26019135 14
1.0647137 1.8508468 -0.18346313 15
1.060131 1.8421366 -0.10901816 15
1.064211 1.8484797 -0.036197495 18
1.0628564 1.8453821 0.55997825 12
1.0650022 1.8483616 0.48327911 12
1.0608546 1.8404204 0.40510502 15
1.0626693 1.8428255 0.33049428 14
1.0581766 1.8342946 0.25531626 15
1.0697867 1.8536723 0.18389861 14
1.0651892 1.8449622 0.10964382 15
1.0567862 1.8296703 0.036213744 50
0.98441756 1.7009456 -0.51634425 4
1.0834754 1.8713511 -0.49039361 6
1.0720867 1.8509359 -0.40796486 12
1.0739254 1.8533645 -0.33320567 14
1.0844158 1.8707159 -0.26080069 15
1.0736666 1.8514278 -0.1838989 15
1.0690606 1.842744 -0.10927898 14
1.0731661 1.8490772 -0.03628388 17
1.0741419 1.8500146 0.56256473 5
1.0763417 1.8530585 0.48552692 6
1.0697383 1.8409498 0.40605819 15
1.0715773 1.8433743 0.33127558 15
1.067068 1.8348796 0.2559256 15
1.0762507 1.8499268 0.18389861 14
1.0741345 1.8455483 0.1099055 15
1.0656818 1.8302903 0.036301002 51
0.98791516 1.6933273 -0.51505011 4
1.090001 1.8675578 -0.49039361 5
1.0785412 1.8471824 -0.40796486 12
1.0803883 1.8496045 -0.33320567 14
1.0909392 1.8669193 -0.26080069 14
1.0801227 1.8476686 -0.1838989 15
1.0754864 1.8390011 -0.10927898 15
1.0796142 1.8453199 -0.03628388 17
1.0854725 1.8545905 0.56515121 5
1.0877271 1.8576988 0.48777473 3
1.0761578 1.8372046 0.40605819 15
1.0805023 1.8438833 0.33205691 14
1.0759761 1.8354251 0.25653496 15
1.0852214 1.8504556 0.1843344 14
1.0805701 1.8417876 0.1099055 15
1.0720643 1.8265592 0.036301002 52
0.99382001 1.6898687 -0.51505011 4
1.0965134 1.8637415 -0.49039361 5
1.0874723 1.8476366 -0.40891808 12
1.0893438 1.8500775 -0.33398786 14
1.0999681 1.8673759 -0.26141003 14
1.0890945 1.8481784 -0.18433468 16
1.0818993 1.8352356 -0.10927898 15
1.0885886 1.8458463 -0.036370274 18
1.096848 1.8591098 0.5677377 4
1.099158 1.8622824 0.49002257 4
1.0850599 1.8376635 0.40701142 14
1.0894438 1.8443527 0.33283818 15
1.0823765 1.8316581 0.25653496 15
1.0942088 1.8509438 0.18477017 14
1.0895343 1.8423023 0.11016718 15
1.0809792 1.8271086 0.036388267 51
0.99971271 1.6863893 -0.51505011 4
1.1030123 1.8599026 -0.49039361 5
1.0939151 1.8438293 -0.40891808 12
1.0983156 1.8505105 -0.33477002 14
1.1064798 1.8635247 -0.26141003 14
1.0980829 1.8486478 -0.18477045 15
1.0882988 1.831448 -0.10927898 15
1.0975796 1.8463324 -0.036456663 17
1.1107371 1.8677236 0.57161748 4
1.113125 1.8709954 0.49339426 4
1.0939782 1.8380824 0.40796459 12
1.0958751 1.8405386 0.33283818 15
1.091303 1.8321322 0.2571443 15
1.1006632 1.847113 0.18477017 15
1.0959585 1.838488 0.11016718 15
1.0873505 1.8233242 0.036388267 50
1.0031159 1.6787436 -0.51375604 4
1.1094979 1.8560411 -0.49039361 5
1.1028637 1.8442121 -0.40987125 13
1.1073037 1.8509033 -0.33555222 14
1.1155264 1.8639094 -0.26201937 14
1.1045291 1.8448035 -0.18477045 15
1.0972506 1.8319213 -0.10953978 15
1.1040179 1.84249 -0.036456663 18
1.1222165 1.8721203 0.57420403 4
1.1271662 1.8796335 0.496766 4
1.1029127 1.8384615 0.40891778 12
1.1048344 1.8409365 0.33361951 15
1.1002463 1.8325665 0.25775367 15
1.1096687 1.8475298 0.18520595 14
1.1049409 1.838931 0.11042886 16
1.0937084 1.8195176 0.036388267 52
1.0089697 1.6752318 -0.51375604 3
1.1159698 1.8521569 -0.49039361 5
1.1092944 1.8403511 -0.40987125 13
1.1137578 1.8470267 -0.33555222 14
1.122026 1.8600042 -0.26201937 14
1.1135356 1.8452014 -0.18520623 15
1.1036386 1.8280801 -0.10953978 15
1.1130272 1.8429043 -0.036543053 17
1.1337399 1.8764594 0.57679051 4
1.1387608 1.8840266 0.49901381 4
1.1093235 1.8346004 0.40891778 13
1.1138099 1.8412944 0.3344008 15
1.1066364 1.8287148 0.25775367 16
1.1161112 1.8436451 0.18520595 15
1.1139398 1.8393338 0.11069055 16
1.1026435 1.8199644 0.036475528 54
1.0148113 1.6716996 -0.51375604 4
1.124957 1.852414 -0.49151835 5
1.1182603 1.8406627 -0.41082445 13
1.1227633 1.8473479 -0.33633435 14
1.13109 1.8603168 -0.26262873 15
1.1199698 1.8413032 -0.18520623 15
1.1126086 1.828482 -0.10980059 15
1.1194533 1.8390081 -0.036543053 18
1.1453072 1.8807408 0.579377 4
1.1427956 1.8758794 0.49788988 4
1.1182749 1.8349082 0.40987095 13
1.1202304 1.8373953 0.3344008 14
1.1155972 1.8290776 0.25836298 16
1.1251341 1.8439897 0.18564172 14
1.1203535 1.8354342 0.11069055 16
1.1089897 1.8161043 0.036475528 52
1.0206404 1.6681471 -0.51375604 4
1.128873 1.8443209 -0.49039361 5
1.1246787 1.836748 -0.41082445 12
1.1292049 1.8434174 -0.33633435 15
1.1401697 1.8605883 -0.26323807 15
1.1263903 1.8373826 -0.18520623 14
1.1215948 1.8288436 -0.1100614 14
1.1284801 1.8393502 -0.036629442 18
1.1518651 1.8767314 0.579377 10
1.1467875 1.867727 0.496766 7
1.1246731 1.8309937 0.40987095 15
1.129223 1.8376814 0.33518213 15
1.1219751 1.8251724 0.25836298 15
1.131564 1.8400511 0.18564172 15
1.12937 1.8357651 0.11095222 16
1.1179427 1.8164798 0.036562789 52
1.0264571 1.6645743 -0.51375604 4
1.1353041 1.8403691 -0.49039361 5
1.1336609 1.8369877 -0.41177762 13
1.1356326 1.8394645 -0.33633435 14
1.1466575 1.8565972 -0.26323807 15
1.1354153 1.837677 -0.185642 16
1.1305972 1.8291649 -0.11032221 15
1.1348938 1.8354 -0.036629442 17
1.1558683 1.8685917 0.57808375 23
1.1481726 1.8554267 0.49451819 18
1.1310577 1.8270566 0.40987095 15
1.1356307 1.8337284 0.33518213 14
1.1309532 1.8254635 0.25897235 15
1.1406041 1.8403237 0.18607752 15
1.1357712 1.8318117 0.11095222 16
1.1269116 1.8168147 0.03665005 52
1.0322611 1.6609811 -0.51375604 4
1.1417212 1.836395 -0.49039361 5
1.1400663 1.8330194 -0.41177762 13
1.1446557 1.8396825 -0.33711654 14
1.1557537 1.8567965 -0.26384741 15
1.1418231 1.8337024 -0.185642 16
1.1396153 1.8294454 -0.11058301 14
1.1439377 1.8356701 -0.036715835 18
1.1572735 1.8563483 0.57549721 21
1.1520641 1.8472735 0.49339426 18
1.1400265 1.8272616 0.41082415 15
1.1420246 1.8297532 0.33518213 13
1.1373183 1.8215048 0.25897235 16
1.1470211 1.8363311 0.18607752 14
1.1448044 1.8320704 0.11121391 16
1.1358964 1.817109 0.036737315 52
1.0354892 1.6532745 -0.5124619 3
1.1481245 1.8323984 -0.49039361 4
1.1490644 1.8331875 -0.41273081 12
1.1510704 1.8356756 -0.33711654 14
1.1622282 1.852751 -0.26384741 15
1.1508645 1.8339247 -0.1860778 15
1.1486492 1.8296851 -0.11084383 15
1.1529971 1.8358994 -0.036802221 17
1.1586075 1.8441179 0.57291073 17
1.1559125 1.8391159 0.49227038 16
1.1463978 1.8232712 0.41082415 15
1.1510341 1.8299359 0.33596343 14
1.1436697 1.8175236 0.25897235 16
1.1560776 1.8365314 0.18651327 14
1.1511925 1.8280632 0.11121391 15
1.1422324 1.813133 0.036737315 52
1.0412539 1.64965 -0.5124619 4
1.1545138 1.8283795 -0.49039361 4
1.1554565 1.8291653 -0.41273081 12
1.1574712 1.8316464 -0.33711654 14
1.1713402 1.8528775 -0.26445675 15
1.1572591 1.8298963 -0.1860778 16
1.1550291 1.8256644 -0.11084383 15
1.1593987 1.8318635 -0.036802221 18
1.162454 1.8359817 0.57161748 17
1.1597183 1.8309538 0.49114645 17
1.1553825 1.8234044 0.41177732 14
1.1574148 1.8259069 0.33596343 14
1.1526645 1.8177114 0.25958169 16
1.1651496 1.8366909 0.18694907 14
1.160242 1.8282493 0.11147558 15
1.1512339 1.8133553 0.036824573 52
1.0444137 1.6419301 -0.51116782 4
1.1582733 1.820228 -0.48926884 4
1.1644702 1.8292614 -0.41368398 13
1.1665103 1.8317604 -0.3378987 15
1.1778009 1.8487775 -0.26445675 14
1.1663165 1.8300458 -0.18651357 15
1.1640791 1.8258318 -0.11110463 14
1.1684742 1.8320203 -0.036888614 19
1.1714535 1.8359843 0.57291073 18
1.1687237 1.8310013 0.49227038 17
1.1617403 1.8193603 0.41177732 15
1.16644 1.8260177 0.33674476 14
1.1590025 1.8136767 0.25958169 16
1.1715536 1.8326125 0.18694907 14
1.1693069 1.8283947 0.11173727 15
1.1575568 1.8093257 0.036824573 54
1.0475324 1.6342083 -0.50987375 4
1.16462 1.8161738 -0.48926884 4
1.1708485 1.8251855 -0.41368398 12
1.1728973 1.8276774 -0.3378987 14
1.1869282 1.8488311 -0.26506612 15
1.1726975 1.8259635 -0.18651357 15
1.1704453 1.8217573 -0.11110463 15
1.1775651 1.8321358 -0.036975004 18
1.1778551 1.831884 0.57291073 26
1.1751081 1.8269105 0.49227038 17
1.1707399 1.8194215 0.41273054 14
1.17548 1.8260874 0.33752605 14
1.1680133 1.8137926 0.26019105 16
1.1806411 1.8326991 0.18738484 15
1.1783869 1.8284991 0.11199894 16
1.1638653 1.805274 0.036824573 52
1.0558511 1.6345989 -0.51116782 3
1.1709526 1.8120974 -0.48926884 4
1.1798772 1.8252095 -0.41463721 12
1.1819518 1.8277191 -0.33868089 14
1.1933745 1.8446767 -0.26506612 15
1.1817704 1.8260405 -0.18694936 15
1.1767973 1.8176606 -0.11110463 14
1.1839533 1.828014 -0.036975004 17
1.1868688 1.831815 0.57420403 22
1.181478 1.8227974 0.49227038 17
1.1770838 1.8153238 0.41273054 15
1.1845345 1.8261164 0.33830738 14
1.177039 1.8138673 0.26080036 16
1.187031 1.8285667 0.18738484 14
1.1847624 1.8243746 0.11199894 16
1.1728835 1.8053927 0.036911838 53
1.0641851 1.634951 -0.5124619 4
1.1772709 1.8079989 -0.48926884 4
1.1889201 1.8251927 -0.41559041 13
1.1910205 1.8277194 -0.33946306 14
1.2025167 1.8446573 -0.26567549 15
1.1881374 1.8219043 -0.18694936 15
1.1858631 1.8177236 -0.11136544 15
1.1930594 1.8280569 -0.037061393 18
1.1932559 1.8276609 0.57420403 23
1.1904976 1.8227413 0.49339426 17
1.1860979 1.8153127 0.41368371 14
1.1936038 1.8261043 0.33908868 14
1.1833634 1.8097478 0.26080036 16
1.1961334 1.8285805 0.18782063 14
1.1938576 1.824406 0.11226062 15
1.1791784 1.8012875 0.036911838 52
1.0725344 1.6352649 -0.51375604 4
1.1835748 1.8038785 -0.48926884 4
1.195284 1.8210315 -0.41559041 12
1.1973931 1.8235508 -0.33946306 14
1.211673 1.8445964 -0.26628482 14
1.197225 1.8219084 -0.18738513 16
1.192201 1.8135731 -0.11136544 14
1.1994332 1.8238811 -0.037061393 17
1.1996284 1.8234845 0.57420403 22
1.1995314 1.8226444 0.49451819 17
1.1924273 1.8111614 0.41368371 15
1.1999708 1.8219267 0.33908868 14
1.1924038 1.8097501 0.26140973 16
1.202509 1.824394 0.18782063 14
1.2002187 1.8202275 0.11226062 16
1.1882114 1.8013335 0.036999099 52
1.0808989 1.6355402 -0.51505011 3
1.1925513 1.8038002 -0.49039361 3
1.2043408 1.8209418 -0.41654357 12
1.2064762 1.8234788 -0.34024525 14
1.2181044 1.8403556 -0.26628482 15
1.2063274 1.8218714 -0.18782091 15
1.2012817 1.8135632 -0.11162625 14
1.2085538 1.8238505 -0.037147783 17
1.2059861 1.819286 0.57420403 23
1.2058864 1.8184462 0.49451819 17
1.2014556 1.8110784 0.41463691 15
1.209054 1.8218418 0.33987001 14
1.2014586 1.8097112 0.26201907 15
1.2116257 1.8243345 0.1882564 13
1.2093282 1.8201857 0.1125223 15
1.1972594 1.8013386 0.037086364 51
1.0892782 1.6357771 -0.51634425 3
1.1988405 1.7996265 -0.49039361 3
1.2134117 1.8208113 -0.4174968 12
1.2128341 1.8192563 -0.34024525 14
1.2272745 1.840221 -0.26689416 15
1.2126796 1.8176495 -0.18782091 14
1.2103767 1.8135122 -0.11188706 14
1.2149129 1.8196207 -0.037147783 17
1.2123293 1.8150651 0.57420403 23
1.2149333 1.8182765 0.49564207 16
1.2077702 1.8068734 0.41463691 14
1.2154061 1.8176104 0.33987001 15
1.2077683 1.8055063 0.26201907 14
1.2179865 1.820094 0.1882564 14
1.2184522 1.8201027 0.11278398 15
1.2063216 1.801302 0.037173621 53
1.0949817 1.6319649 -0.51634425 4
1.2078301 1.7994757 -0.49151835 3
1.2197602 1.8165646 -0.4174968 13
1.2219309 1.8191111 -0.34102744 14
1.2336907 1.8359258 -0.26689416 15
1.2217958 1.817539 -0.18825668 15
1.2194861 1.8134195 -0.11214787 14
1.2240478 1.8195169 -0.037234176 17
1.2213542 1.8148291 0.57549721 21
1.2212728 1.8140246 0.49564207 17
1.2168118 1.8067176 0.41559011 14
1.2245028 1.8174527 0.34065133 14
1.2168372 1.8053949 0.26262844 15
1.2271172 1.8199615 0.18869218 14
1.2247981 1.8158385 0.11278398 15
1.2153983 1.8012244 0.037260886 52
1.1006715 1.6281327 -0.51634425 3
1.2168334 1.7992845 -0.49264312 3
1.2288442 1.8163611 -0.41844994 12
1.2310412 1.8189245 -0.34180957 13
1.242874 1.8357177 -0.2675035 15
1.2309259 1.8173872 -0.18869248 15
1.2286096 1.8132854 -0.11240868 14
1.2331965 1.8193712 -0.037320562 17
1.2276816 1.8105547 0.57549721 20
1.2303326 1.8137827 0.496766 17
1.225867 1.8065207 0.41654328 13
1.2308396 1.8131672 0.34065133 14
1.2231318 1.8011363 0.26262844 15
1.2334626 1.8156669 0.18869218 14
1.2339357 1.8156816 0.11304566 15
1.2216783 1.7969707 0.037260886 53
1.1090668 1.6282724 -0.51763833 3
1.2258497 1.7990518 -0.49376786 3
1.2379415 1.8161162 -0.41940317 13
1.2373829 1.8146163 -0.34180957 14
1.2492744 1.8313682 -0.2675035 14
1.2372622 1.8130794 -0.18869248 16
1.2349316 1.8089857 -0.11240868 15
1.2395397 1.8150555 -0.037320562 18
1.2367189 1.8102466 0.57679051 18
1.2394054 1.8134992 0.49788988 17
1.2349358 1.8062824 0.4174965 13
1.239949 1.8129361 0.3414326 14
1.2322136 1.8009512 0.26323774 16
1.2426062 1.8154606 0.18912795 14
1.240266 1.8113633 0.11304566 16
1.2307686 1.7968198 0.037348147 53
1.1147438 1.6243911 -0.51763833 3
1.2376368 1.8027947 -0.49601737 3
1.2442733 1.8117839 -0.41940317 12
1.2465061 1.8143564 -0.34259176 15
1.2584704 1.8310863 -0.26811287 15
1.2464055 1.8128538 -0.18912823 16
1.244068 1.8087778 -0.11266948 16
1.2487017 1.8148364 -0.037406955 19
1.2457687 1.8098969 0.57808375 19
1.245728 1.8091618 0.49788988 18
1.2412333 1.8019607 0.4174965 13
1.2462698 1.8085967 0.3414326 14
1.2413093 1.8007252 0.26384711 14
1.2517633 1.8152125 0.18956374 14
1.2494167 1.811133 0.11330734 15
1.2370332 1.7925127 0.037348147 52
1.1176606 1.6165174 -0.51634425 3
1.2439222 1.7984636 -0.49601737 3
1.2533829 1.8114659 -0.42035633 12
1.2528318 1.8099942 -0.34259176 14
1.2648544 1.8266822 -0.26811287 14
1.252726 1.8084919 -0.18912823 15
1.2503743 1.8044242 -0.11266948 15
1.2550291 1.8104665 -0.037406955 18
1.2520788 1.8055373 0.57808375 19
1.2548127 1.8088055 0.49901381 14
1.2503141 1.8016492 0.41844967 13
1.2553917 1.8082922 0.34221393 14
1.2475876 1.7963814 0.26384711 14
1.258092 1.810832 0.18956374 14
1.255731 1.8067607 0.11330734 15
1.2432826 1.7881837 0.037348147 53
1.1232965 1.6126062 -0.51634425 3
1.2474073 1.7901136 -0.49489263 3
1.2625054 1.8111063 -0.42130953 12
1.2619669 1.8096604 -0.34337392 14
1.2740623 1.8263259 -0.26872221 14
1.2618818 1.808193 -0.18956403 15
1.2595237 1.804143 -0.1129303 15
1.2642035 1.8101732 -0.037493344 18
1.2611398 1.8051151 0.579377 17
1.2611189 1.8044143 0.49901381 13
1.2565954 1.7972739 0.41844967 13
1.2645268 1.8079461 0.34299523 14
1.2566955 1.7960817 0.26445645 14
1.2672616 1.81051 0.18999954 13
1.264894 1.8064563 0.11356901 14
1.2523853 1.7879277 0.037435409 51
1.1289188 1.6086754 -0.51634425 3
1.2536483 1.7857485 -0.49489263 3
1.2688196 1.8066883 -0.42130953 12
1.2682761 1.8052444 -0.34337392 14
1.2804296 1.8218675 -0.26872221 15
1.2710508 1.807852 -0.18999982 14
1.2658136 1.7997353 -0.1129303 15
1.2705145 1.8057493 -0.037493344 17
1.2702131 1.8046514 0.58067024 18
1.2702148 1.8039849 0.50013769 14
1.2656881 1.7968895 0.41940287 14
1.2736746 1.8075579 0.34377655 14
1.2629573 1.7916842 0.26445645 14
1.2764442 1.810146 0.19043529 13
1.2740704 1.8061104 0.1138307 15
1.2586186 1.7835453 0.037435409 50
1.1345272 1.604725 -0.51634425 4
1.2598742 1.7813615 -0.49489263 3
1.277953 1.806255 -0.4222627 12
1.277423 1.8048375 -0.34415612 14
1.2896491 1.8214372 -0.26933157 14
1.2773536 1.8034042 -0.18999982 15
1.2749749 1.7993798 -0.1131911 13
1.279701 1.8053819 -0.037579738 17
1.2765048 1.8002065 0.58067024 17
1.2765042 1.79954 0.50013769 14
1.274793 1.7964633 0.42035604 14
1.2799765 1.8031011 0.34377655 14
1.2720771 1.7913108 0.26506582 14
1.282755 1.8056794 0.19043529 13
1.2803671 1.8016521 0.1138307 15
1.2677333 1.7832154 0.03752267 50
1.1401217 1.6007549 -0.51634425 3
1.2660846 1.7769529 -0.49489263 3
1.2870994 1.8057802 -0.42321593 12
1.2865822 1.8043883 -0.34493828 14
1.2988811 1.8209646 -0.26994088 14
1.286534 1.8029888 -0.19043559 15
1.281248 1.7949183 -0.1131911 14
1.2889005 1.8049724 -0.037666127 17
1.2855883 1.79967 0.58196354 17
1.2856107 1.7990372 0.50126159 14
1.2839105 1.7959954 0.42130923 14
1.2891353 1.802639 0.34455785 14
1.2783223 1.7868596 0.26506582 13
1.2919492 1.8052416 0.19087109 13
1.289555 1.8012317 0.11409239 14
1.2739502 1.7787793 0.03752267 51
1.1457025 1.5967653 -0.51634425 3
1.2722796 1.7725226 -0.49489263 3
1.2933949 1.8012764 -0.42321593 12
1.2928729 1.7998862 -0.34493828 13
1.3081255 1.8204497 -0.27055025 14
1.2957271 1.8025316 -0.19087137 14
1.290421 1.7944891 -0.11345191 14
1.2951932 1.8004622 -0.037666127 17
1.2918626 1.7951715 0.58196354 17
1.294729 1.7984924 0.5023855 14
1.2901719 1.7915027 0.42130923 15
1.2983067 1.8021353 0.34533918 14
1.2874534 1.7864127 0.26567516 14
1.3011557 1.8047611 0.19130686 14
1.2958347 1.7967193 0.11409239 14
1.2830765 1.7783756 0.037609935 51
1.1484401 1.5888422 -0.51505011 3
1.2813137 1.7720184 -0.49601737 3
1.3025513 1.8007274 -0.42416909 12
1.302043 1.7993634 -0.34572047 14
1.3144721 1.8158724 -0.27055025 15
1.3049326 1.8020319 -0.19130714 14
1.2996063 1.7940174 -0.11371273 14
1.3044035 1.7999783 -0.037752517 17
1.298121 1.790651 0.58196354 16
1.3038595 1.7979064 0.5035094 15
1.2992998 1.7909613 0.4222624 15
1.3045894 1.7975924 0.34533918 14
1.2936814 1.7819077 0.26567516 14
1.3074474 1.8002082 0.19130686 13
1.3050332 1.7962245 0.11435406 14
1.2922155 1.77793 0.037697192 51
1.1539792 1.5848237 -0.51505011 3
1.2874913 1.767535 -0.49601737 3
1.3088289 1.7961698 -0.42416909 12
1.3112249 1.798798 -0.3465026 13
1.3237267 1.8152828 -0.27115959 14
1.3112149 1.7974658 -0.19130714 15
1.3058608 1.7894701 -0.11371273 14
1.3106786 1.795414 -0.037752517 17
1.3072119 1.7900093 0.58325672 17
1.3130013 1.7972779 0.50463331 16
1.3084396 1.7903779 0.42321563 15
1.3137708 1.7970141 0.34612048 14
1.3028231 1.7813869 0.2662845 15
1.3166646 1.7996534 0.19174264 13
1.3142442 1.7956876 0.11461575 14
1.2984139 1.7734084 0.037697192 50
1.1566477 1.5768917 -0.51375604 3
1.2936532 1.7630301 -0.49601737 3
1.3179952 1.7955468 -0.42512229 12
1.3174958 1.79421 -0.3465026 14
1.3329931 1.8146508 -0.27176896 15
1.3204308 1.7968916 -0.19174294 15
1.3150567 1.788924 -0.11397354 14
1.3198997 1.7948557 -0.03783891 18
1.3134524 1.7854353 0.58325672 16
1.3221548 1.7966079 0.50575721 17
1.3146812 1.7857996 0.42321563 15
1.3200356 1.7924173 0.34612048 13
1.3119769 1.7808238 0.26689386 17
1.3258935 1.7990559 0.19217841 13
1.3205043 1.7910889 0.11461575 14
1.3075637 1.7728888 0.037784457 49
1.1621451 1.5728446 -0.51375604 3
1.3026955 1.7624216 -0.49714214 3
1.327173 1.7948818 -0.42607546 11
1.3266877 1.7935704 -0.34728479 13
1.3393195 1.8099867 -0.27176896 14
1.3296585 1.796275 -0.19217871 15
1.3212931 1.7843226 -0.11397354 14
1.3291326 1.7942544 -0.037925296 17
1.3225524 1.7847203 0.58455002 15
1.328418 1.7919818 0.50575721 16
1.3238305 1.7851422 0.4241688 15
1.3292269 1.7917651 0.3469018 13
1.3211427 1.7802184 0.2675032 15
1.3351344 1.7984161 0.1926142 13
1.3297254 1.7904772 0.11487742 14
1.3167256 1.7723266 0.037871718 51
1.1676283 1.5687784 -0.51375604 3
1.3088396 1.7578635 -0.49714214 3
1.3334302 1.7902381 -0.42607546 12
1.3329403 1.7889285 -0.34728479 13
1.3485951 1.8092796 -0.27237827 14
1.3359206 1.7916228 -0.19217871 14
1.3304989 1.783702 -0.11423435 14
1.3383774 1.7936108 -0.038011689 17
1.3316631 1.7839631 0.58584327 14
1.3375801 1.7912375 0.50688112 17
1.3300539 1.7805102 0.4241688 14
1.3354732 1.7871144 0.3469018 14
1.3303202 1.7795709 0.26811254 14
1.341404 1.7937447 0.1926142 13
1.3359673 1.7858247 0.11487742 14
1.3258996 1.7717222 0.037958983 52
1.1759943 1.5685573 -0.51505011 3
1.3149678 1.7532842 -0.49714214 3
1.3426169 1.7894989 -0.42702866 11
1.342141 1.7882144 -0.34806696 14
1.3549024 1.804561 -0.27237827 14
1.3451579 1.7909313 -0.1926145 15
1.3367172 1.7790468 -0.11423435 14
1.3476338 1.7929242 -0.038098078 17
1.3407849 1.7831643 0.58713651 14
1.3467532 1.7904513 0.50800502 17
1.3392119 1.7797786 0.42512199 15
1.3446732 1.7863872 0.3476831 13
1.3365239 1.7749164 0.26811254 15
1.3506539 1.7930298 0.19304997 13
1.3451978 1.7851382 0.1151391 14
1.332076 1.7670832 0.037958983 51
1.1814624 1.5644426 -0.51505011 3
1.3210797 1.7486835 -0.49714214 3
1.3518146 1.7887173 -0.42798182 12
1.3513532 1.7874581 -0.34884915 14
1.3641868 1.8037788 -0.27298763 14
1.3544062 1.7901971 -0.19305027 14
1.3459324 1.7783515 -0.11449515 13
1.3569019 1.792195 -0.038184468 17
1.3470012 1.7784733 0.58713651 14
1.352995 1.7857392 0.50800502 18
1.348381 1.7790046 0.42607516 14
1.3538845 1.7856179 0.34846443 13
1.3457104 1.7741941 0.26872188 15
1.3569045 1.7883042 0.19304997 13
1.3544396 1.7844088 0.11540078 14
1.3412595 1.7664043 0.038046245 50
1.1869161 1.5603091 -0.51505011 3
1.3271757 1.7440614 -0.49714214 3
1.3610231 1.7878932 -0.42893505 11
1.3605763 1.786659 -0.34963131 13
1.3704749 1.7990059 -0.27298763 14
1.3636662 1.7894201 -0.19348605 15
1.3521318 1.7736424 -0.11449515 14
1.3631495 1.7874476 -0.038184468 18
1.3561305 1.7776005 0.58842975 15
1.3621757 1.7848784 0.50912893 18
1.3545828 1.7742871 0.42607516 14
1.3601091 1.7808812 0.34846443 12
1.3518952 1.7694858 0.26872188 14
1.3661635 1.7875146 0.19348575 13
1.3606601 1.77967 0.11540078 14
1.3504541 1.7656823 0.038133506 51
1.1952928 1.5599902 -0.51634425 3
1.3332556 1.7394179 -0.49714214 3
1.3702424 1.7870263 -0.42988822 11
1.3668046 1.7818987 -0.34963131 13
1.3797673 1.7981483 -0.27359697 14
1.369904 1.7846491 -0.19348605 15
1.3613558 1.7728722 -0.11475597 13
1.3724258 1.7866428 -0.038270857 17
1.3652701 1.7766856 0.58972305 15
1.3713673 1.7839755 0.51025283 18
1.3637601 1.7734389 0.42702836 14
1.3693285 1.780037 0.3492457 13
1.3610904 1.7686892 0.26933125 14
1.3723947 1.7827349 0.19348575 13
1.3699107 1.7788657 0.11566246 14
1.3596603 1.7649181 0.038220771 50
1.1889278 1.5405147 -0.51116782 3
1.3422964 1.7386097 -0.49826688 3
1.3764718 1.7822323 -0.42988822 11
1.3760357 1.7810249 -0.3504135 14
1.3890706 1.7972476 -0.27420634 14
1.3791718 1.7837968 -0.19392182 14
1.3705907 1.7720587 -0.11501677 14
1.3817134 1.7857953 -0.03835725 16
1.3744199 1.7757285 0.59101623 17
1.3775862 1.7791777 0.51025283 18
1.3729478 1.772548 0.42798153 15
1.3785585 1.7791501 0.35002702 14
1.3702962 1.7678497 0.26994058 15
1.3816614 1.7818695 0.19392152 13
1.379172 1.7780184 0.11592413 13
1.3658128 1.7601613 0.038220771 50
1.2061543 1.5516074 -0.51634425 3
1.3483571 1.7339135 -0.49826688 3
1.3856984 1.781291 -0.43084142 11
1.3822442 1.7762108 -0.3504135 13
1.3983841 1.7963037 -0.27481568 14
1.3884506 1.7829018 -0.1943576 14
1.3798367 1.7712029 -0.11527758 13
1.3910115 1.7849045 -0.038443636 16
1.3835796 1.7747291 0.59230953 17
1.3867843 1.7781999 0.51137674 22
1.3821461 1.7716148 0.42893475 13
1.3877989 1.7782204 0.35080832 15
1.3795128 1.7669674 0.27054995 15
1.3909386 1.7809614 0.19435731 13
1.3853701 1.7731934 0.11592413 13
1.3750269 1.7593218 0.038308028 50
nan nan nan 0
1.3513973 1.7253611 -0.49714214 3
1.3919079 1.7764431 -0.43084142 10
1.3914822 1.7752616 -0.35119566 14
1.4077082 1.7953171 -0.27542502 13
1.3977398 1.7819635 -0.19479337 15
1.3890933 1.7703037 -0.11553839 15
1.3972335 1.7800381 -0.038443636 19
1.3927488 1.7736874 0.59360272 18
1.3959925 1.7771796 0.51250064 23
1.3913543 1.7706386 0.42988792 14
1.3970497 1.777248 0.35158965 14
1.3887399 1.7660422 0.27115926 15
1.4002265 1.7800101 0.19479308 13
1.3946391 1.7722706 0.11618582 15
1.3842522 1.7584395 0.038395293 54
nan nan nan 0
1.3574117 1.7206334 -0.49714214 3
1.404182 1.7792797 -0.43274778 10
1.4007307 1.7742698 -0.35197783 14
1.4170421 1.794287 -0.27603436 13
1.4039514 1.7770735 -0.19479337 13
1.3983604 1.7693616 -0.1157992 13
1.4065391 1.7790718 -0.038530029 17
1.4019278 1.7726033 0.59489602 16
1.4052105 1.7761167 0.51362455 27
1.4005725 1.7696198 0.43084112 12
1.403245 1.7723604 0.35158965 13
1.3979775 1.7650744 0.27176863 14
1.4064313 1.7751114 0.19479308 12
1.4039184 1.7713046 0.11644749 15
1.3965937 1.7614315 0.038569819 53
