# .PCD v0.7 - Point Cloud Data file format
VERSION 0.7
FIELDS x y z intensity
SIZE 4 4 4 4
TYPE F F F F
COUNT 1 1 1 1
WIDTH 1403
HEIGHT 1
VIEWPOINT 0 0 0 1 0 0 0
POINTS 1403
DATA ascii
1.1787224 1.5422629 -0.50987375 3
1.3281703 1.7371751 -0.49601737 3
1.3531488 1.7692055 -0.42512229 11
1.3556241 1.7718009 -0.34728479 15
1.3685206 1.7880101 -0.27176896 14
1.3556103 1.7705021 -0.19174294 15
1.3500801 1.7626419 -0.11397354 14
1.3459173 1.7565719 -0.037579738 11
1.3572221 1.7706854 0.58713651 18
1.3543639 1.766318 0.50463331 16
1.346656 1.755631 0.4222624 14
1.355127 1.7660364 0.34612048 14
1.3468412 1.754604 0.26689386 15
1.3580812 1.7686077 0.19174264 13
1.3555695 1.764699 0.11461575 14
1.3453184 1.7507216 0.037871718 37
1.1814203 1.5341059 -0.50857961 3
1.3345284 1.7322955 -0.49601737 3
1.3626204 1.768122 -0.42607546 11
1.365124 1.7707314 -0.34806696 15
1.3750647 1.7829821 -0.27176896 14
1.365133 1.7694654 -0.19217871 16
1.3565315 1.7576818 -0.11397354 14
1.3554016 1.7555844 -0.037666127 10
1.3637028 1.7656991 0.58713651 19
1.3638073 1.7651976 0.50575721 16
1.3560832 1.754567 0.42321563 14
1.3646116 1.7649648 0.3469018 13
1.3532633 1.7496557 0.26689386 14
1.3615063 1.7596787 0.19130686 13
1.3650846 1.7636673 0.11487742 14
1.3547869 1.749732 0.037958983 38
nan nan nan 0
1.343554 1.7314758 -0.49714214 3
1.3717935 1.7672319 -0.42702866 12
1.3743256 1.7698562 -0.34884915 15
1.3843246 1.7820907 -0.27237827 14
1.3743576 1.7686225 -0.1926145 15
1.3657231 1.7568781 -0.11423435 12
1.3645904 1.7547888 -0.037752517 10
1.3728235 1.7647405 0.58842975 18
1.3729528 1.7642713 0.50688112 17
1.3652146 1.7536957 0.4241688 13
1.3707643 1.7601907 0.3469018 13
1.3624122 1.7488363 0.2675032 14
1.3676404 1.7549154 0.19130686 13
1.3743026 1.7628295 0.1151391 14
1.3639661 1.7489305 0.038046245 38
1.2069687 1.5448498 -0.51505011 3
1.3525897 1.7306137 -0.49826688 3
1.377954 1.7624328 -0.42702866 11
1.3835377 1.7689381 -0.34963131 15
1.3935949 1.7811561 -0.27298763 13
1.3835928 1.7677366 -0.19305027 14
1.3718475 1.7521001 -0.11423435 13
1.3737901 1.7539506 -0.03783891 9
1.3819541 1.7637395 0.58972305 19
1.3821086 1.7633026 0.50800502 17
1.3743565 1.7527821 0.42512199 13
1.379948 1.7592808 0.3476831 12
1.3715723 1.7479744 0.26811254 15
1.3645314 1.7383766 0.18999954 14
1.3804476 1.7580216 0.1151391 15
1.3700575 1.7441627 0.038046245 38
nan nan nan 0
1.3616362 1.7297099 -0.49939165 3
1.3871343 1.7614683 -0.42798182 11
1.3927602 1.7679772 -0.3504135 15
1.3998038 1.7762806 -0.27298763 14
1.3928386 1.7668079 -0.19348605 16
1.3810471 1.7512215 -0.11449515 14
1.3799043 1.7491444 -0.03783891 10
1.3881024 1.7589048 0.58972305 19
1.3882552 1.7584674 0.50800502 18
1.3835083 1.7518258 0.42607516 14
1.3891422 1.7583283 0.34846443 14
1.3807423 1.7470692 0.26872188 13
1.3922151 1.760954 0.19304997 12
1.3896731 1.7571083 0.11540078 12
1.3792391 1.7432901 0.038133506 39
nan nan nan 0
1.3670634 1.7254237 -0.49939165 3
1.3957101 1.7609484 -0.42893505 11
1.3983076 1.7635931 -0.3504135 15
1.4084611 1.7757623 -0.27359697 14
1.4014783 1.7663252 -0.19392182 13
1.3896462 1.7507851 -0.11475597 12
1.3885012 1.7487159 -0.037925296 9
1.3966253 1.7583172 0.59101623 18
1.3968036 1.7579117 0.50912893 19
1.3890051 1.7474707 0.42607516 13
1.3946592 1.7539556 0.34846443 15
1.3893136 1.7466069 0.26933125 15
1.4039432 1.7643669 0.19392152 11
1.3982961 1.7566406 0.11566246 16
1.3878231 1.7428594 0.038220771 35
1.1954389 1.4985733 -0.50340325 3
1.3761166 1.724449 -0.50051636 3
1.4049104 1.7599014 -0.42988822 10
1.4075364 1.7625599 -0.35119566 15
1.4177487 1.7747127 -0.27420634 13
1.4107451 1.7653137 -0.1943576 13
1.395749 1.7459238 -0.11475597 15
1.3945968 1.7438583 -0.037925296 9
1.4057716 1.757203 0.59230953 19
1.4059756 1.7568293 0.51025283 17
1.398164 1.7464435 0.42702836 13
1.4038602 1.7529314 0.3492457 12
1.3985049 1.7456199 0.26994058 13
1.4194385 1.7711158 0.19522887 11
1.4075427 1.7556447 0.11592413 13
1.3938985 1.7380044 0.038220771 32
1.203949 1.4979461 -0.50469732 4
1.3824277 1.7193937 -0.50051636 3
1.4144279 1.7585653 -0.43084142 11
1.4139872 1.7573892 -0.35119566 15
1.4242439 1.7695044 -0.27420634 14
1.4172059 1.7601312 -0.1943576 13
1.4052708 1.7446848 -0.11501677 12
1.4041157 1.7426282 -0.038011689 10
1.4122026 1.7520387 0.59230953 20
1.4154633 1.7554568 0.51137674 18
1.4076371 1.7451274 0.42798153 13
1.4133769 1.7516177 0.35002702 13
1.4048935 1.7404823 0.26994058 14
1.4259204 1.7659012 0.19522887 12
1.4171056 1.7543583 0.11618582 14
1.4034011 1.7367721 0.038308028 39
1.1939768 1.4749651 -0.49822688 5
1.3884212 1.7145576 -0.50051636 4
1.4205577 1.7536173 -0.43084142 9
1.4232223 1.7562797 -0.35197783 15
1.4335369 1.7683771 -0.27481568 15
1.4264784 1.7590423 -0.19479337 15
1.4144982 1.7436467 -0.11527758 11
1.41019 1.7377162 -0.038011689 10
1.4213538 1.7508482 0.59360272 19
1.4246538 1.7542874 0.51250064 20
1.41991 1.7478225 0.42988792 13
1.4225973 1.7505059 0.35080832 12
1.4140909 1.7394185 0.27054995 12
1.4352187 1.7647775 0.19566463 11
1.4263717 1.753274 0.11644749 14
1.4094552 1.7318628 0.038308028 36
1.2082734 1.4820181 -0.50210917 4
1.3943976 1.7097007 -0.50051636 3
1.4297731 1.7524508 -0.43179458 10
1.4324666 1.7551268 -0.35275999 15
1.4428397 1.7672065 -0.27542502 14
1.4357609 1.7579099 -0.19522917 14
1.423735 1.7425652 -0.11553839 14
1.4194109 1.7366539 -0.038098078 11
1.4305141 1.7496154 0.59489602 18
1.4338534 1.753075 0.51362455 16
1.4291105 1.7466542 0.43084112 12
1.4318269 1.7493513 0.35158965 13
1.4232979 1.7383115 0.27115926 14
1.44137 1.759757 0.19566463 12
1.4356478 1.7521467 0.11670918 13
1.418661 1.7307988 0.038395293 37
1.2287636 1.4964541 -0.50857961 5
1.400357 1.7048229 -0.50051636 3
1.4358816 1.7474494 -0.43179458 11
1.4417205 1.753931 -0.35354218 14
1.4489995 1.7621595 -0.27542502 14
1.4418883 1.7528875 -0.19522917 14
1.432982 1.7414405 -0.1157992 13
1.4286417 1.7355486 -0.038184468 12
1.4396828 1.7483398 0.59618932 19
1.4461592 1.7555801 0.51587236 18
1.4383203 1.745443 0.43179429 13
1.4410658 1.7481531 0.35237095 12
1.4325144 1.7371616 0.27176863 14
1.4506737 1.7585573 0.19610043 14
1.4449333 1.7509758 0.11697085 14
1.4278766 1.7296915 0.038482554 39
1.2462913 1.5070432 -0.51375604 4
1.409405 1.7036784 -0.50164115 3
1.4419725 1.7424266 -0.43179458 10
1.4509833 1.7526919 -0.35432434 15
1.4583073 1.7609129 -0.27603436 14
1.4511758 1.7516792 -0.19566494 15
1.442238 1.7402723 -0.11606 15
1.4378816 1.7343994 -0.038270857 9
1.44886 1.7470212 0.5974825 19
1.4553895 1.7542711 0.51699626 18
1.4444042 1.7404116 0.43179429 13
1.4471593 1.7431122 0.35237095 13
1.4417403 1.7359684 0.27237797 13
1.4568033 1.7534828 0.19610043 12
1.4542279 1.7497616 0.11723254 16
1.4371016 1.7285409 0.038569819 34
1.2700893 1.52495 -0.52152056 3
1.4153434 1.6987484 -0.50164115 3
1.4511887 1.7411531 -0.43274778 10
1.4602549 1.7514092 -0.35510653 15
1.4676237 1.7596228 -0.27664372 14
1.4572814 1.746603 -0.19566494 14
1.4515035 1.7390609 -0.11632082 14
1.4503351 1.7370448 -0.038443636 8
1.4549495 1.7419531 0.5974825 19
1.4646281 1.7529191 0.51812023 17
1.4536184 1.7391253 0.43274748 13
1.456403 1.7418389 0.35315228 12
1.4509752 1.7347318 0.27298734 13
1.4661117 1.7522068 0.1965362 11
1.4603269 1.7446747 0.11723254 13
1.4463359 1.7273469 0.038657077 41
1.2785084 1.5242075 -0.52281469 4
1.4181328 1.6900651 -0.50051636 3
1.4667244 1.7473551 -0.43560734 10
1.4663596 1.7463013 -0.35510653 15
1.4769489 1.7582891 -0.27725306 13
1.4665737 1.7453189 -0.19610073 14
1.4607779 1.7378057 -0.11658162 12
1.4563899 1.7319716 -0.038443636 10
1.4641305 1.7405601 0.5987758 20
1.4707379 1.7477958 0.51812023 19
1.4596802 1.7340405 0.43274748 12
1.4656553 1.740522 0.35393357 13
1.4602188 1.733452 0.27359664 13
1.4754287 1.7508875 0.19697198 13
1.4696262 1.7433841 0.11749421 14
1.4555796 1.7261095 0.038744342 37
1.2588876 1.4902202 -0.5124619 4
1.4240235 1.6851047 -0.50051636 4
1.4791524 1.7497214 -0.43751371 8
1.4756352 1.7449429 -0.35588869 14
1.4862828 1.7569118 -0.27786243 15
1.4758748 1.7439913 -0.1965365 14
1.4700614 1.7365072 -0.11684243 11
1.4688883 1.7345073 -0.038616419 9
1.4733191 1.7391238 0.60006905 20
1.4799798 1.7463681 0.51924407 19
1.4688982 1.7326787 0.43370065 13
1.4717219 1.7353953 0.35393357 14
1.4694715 1.7321289 0.27420601 13
1.4847543 1.7495242 0.19740775 11
1.4757028 1.7382436 0.11749421 13
1.4648322 1.7248286 0.038831603 37
1.2578228 1.4784598 -0.50987375 3
1.429897 1.6801237 -0.50051636 4
1.4916148 1.7520221 -0.43942013 15
1.4849192 1.7435412 -0.35667089 15
1.4956247 1.7554904 -0.27847174 14
1.4851844 1.74262 -0.19697228 14
1.4793533 1.7351646 -0.11710324 12
1.474934 1.7293694 -0.038616419 8
1.4825156 1.7376447 0.60136229 18
1.4892296 1.7448971 0.52036798 18
1.4749374 1.7275407 0.43370065 13
1.480978 1.7340027 0.3547149 13
1.4755088 1.7269889 0.27420601 15
1.4908522 1.7443308 0.19740775 12
1.4850062 1.736877 0.1177559 13
1.4740934 1.7235042 0.038918864 35
1.2441218 1.4520549 -0.50210917 3
1.4325827 1.6714233 -0.49939165 4
1.5041111 1.7542572 -0.4413265 14
1.4909964 1.7383473 -0.35667089 14
1.5049751 1.7540256 -0.27908111 13
1.4912584 1.7374251 -0.19697228 14
1.488654 1.7337785 -0.11736406 13
1.4842191 1.728003 -0.038702808 8
1.4917197 1.7361224 0.60265553 17
1.4984871 1.7433829 0.52149189 17
1.4841588 1.7261034 0.43465388 13
1.4902421 1.7325668 0.3554962 13
1.4847648 1.7255894 0.27481535 14
1.5001816 1.7428914 0.19784354 10
1.4943181 1.7354666 0.11801757 14
1.483363 1.7221357 0.039006125 36
1.2239417 1.418451 -0.49175641 4
1.4384084 1.6664125 -0.49939165 3
1.5166411 1.7564262 -0.44323289 12
1.5002834 1.7368692 -0.35745302 15
1.5143334 1.7525165 -0.27969044 13
1.5005711 1.7359771 -0.19740805 14
1.497963 1.7323484 -0.11762486 11
1.4935124 1.7265924 -0.038789198 11
1.5009311 1.7345572 0.60394883 17
1.5077521 1.7418253 0.52261579 17
1.4933878 1.7246226 0.43560702 13
1.4995145 1.7310871 0.35627753 12
1.4940293 1.7241468 0.27542472 14
1.5062562 1.7376443 0.19784354 12
1.5036381 1.7340122 0.11827926 14
1.4926413 1.7207237 0.03909339 36
1.2510606 1.4396884 -0.50081509 3
1.4474126 1.665058 -0.50051636 4
1.5292045 1.7585291 -0.44513926 11
1.5095783 1.7353479 -0.35823521 15
1.5236994 1.7509636 -0.28029981 14
1.5098922 1.7344856 -0.19784385 14
1.5040008 1.7271092 -0.11762486 13
1.4995302 1.7213687 -0.038789198 9
1.5101498 1.7329484 0.60524201 18
1.5170244 1.740224 0.5237397 18
1.5026249 1.7230988 0.43656024 13
1.5087944 1.7295638 0.35705879 12
1.5033015 1.7226603 0.27603403 14
1.5155882 1.7361281 0.19827931 12
1.5129659 1.7325138 0.11854094 15
1.5019277 1.7192678 0.039180648 37
1.2624397 1.4425815 -0.50340325 3
1.4564251 1.6636614 -0.50164115 4
1.5353336 1.7531804 -0.44513926 10
1.5188808 1.7337825 -0.35901737 14
1.5330731 1.7493666 -0.28090915 14
1.5192208 1.7329499 -0.1982796 14
1.5133127 1.7256027 -0.11788567 13
1.5055298 1.7161237 -0.038789198 10
1.5193757 1.7312969 0.60653532 17
1.5230898 1.734918 0.5237397 18
1.5118692 1.7215308 0.43751341 12
1.518082 1.7279968 0.35784012 12
1.5125816 1.72113 0.2766434 13
1.524928 1.734568 0.19871509 12
1.5190043 1.727222 0.11854094 14
1.5112221 1.7177684 0.039267913 37
1.2738541 1.4454128 -0.50599146 4
1.4622233 1.6585673 -0.50164115 4
1.5414441 1.7478104 -0.44513926 8
1.5281906 1.7321731 -0.35979956 15
1.53917 1.7440046 -0.28090915 13
1.5285574 1.7313702 -0.1987154 14
1.5193269 1.7203099 -0.11788567 13
1.5148211 1.7146046 -0.038875591 9
1.5254097 1.7259827 0.60653532 18
1.5323635 1.7332412 0.5248636 18
1.5211211 1.7199198 0.43846661 13
1.5273768 1.7263858 0.35862142 13
1.5218693 1.7195559 0.27725273 12
1.5342752 1.7329637 0.19915086 12
1.5283347 1.7256472 0.11880261 14
1.5205241 1.7162246 0.039355174 37
1.2820976 1.4445693 -0.50728554 4
1.468004 1.653453 -0.50164115 4
1.5475355 1.7424191 -0.44513926 6
1.5375079 1.7305201 -0.36058176 14
1.5485452 1.7423306 -0.28151849 14
1.5379013 1.7297466 -0.19915117 14
1.528641 1.7187269 -0.11814647 12
1.5207969 1.7093065 -0.038875591 9
1.5346361 1.7242551 0.60782856 18
1.5416441 1.7315203 0.52598751 17
1.5303799 1.7182649 0.43941984 13
1.5366793 1.7247313 0.35940275 13
1.5311645 1.7179379 0.2778621 13
1.5436299 1.7313155 0.19958664 12
1.5376726 1.7240281 0.11906429 14
1.5298338 1.7146368 0.039442439 37
1.2871324 1.4400853 -0.50728554 3
1.4770138 1.6519504 -0.50276589 4
1.5536083 1.7370065 -0.44513926 6
1.5468321 1.7288229 -0.36136392 14
1.5579275 1.7406123 -0.28212786 13
1.5472525 1.7280786 -0.19958696 14
1.5379626 1.7170999 -0.11840729 13
1.5300901 1.7077106 -0.038961977 9
1.5406457 1.7188878 0.60782856 18
1.5509313 1.7297559 0.52711141 17
1.5396457 1.7165662 0.440373 12
1.5459884 1.7230327 0.36018407 12
1.5404667 1.7162758 0.27847141 13
1.5529916 1.7296228 0.20002241 12
1.5470178 1.7223649 0.11932597 14
1.539151 1.7130048 0.039529696 37
1.2889203 1.431994 -0.50599146 3
1.482771 1.6467847 -0.50276589 4
1.5859416 1.7607489 -0.45276478 4
1.5561632 1.7270819 -0.36214611 14
1.5673164 1.7388499 -0.2827372 13
1.5566106 1.7263663 -0.20002273 14
1.5472913 1.7154286 -0.11866809 13
1.5393908 1.706071 -0.03904837 9
1.5498726 1.717085 0.6091218 18
1.560225 1.7279477 0.52823532 17
1.5456283 1.7111813 0.440373 13
1.5553044 1.7212898 0.36096537 13
1.5497761 1.7145699 0.27908078 13
1.5623604 1.727886 0.20045821 12
1.5563699 1.7206571 0.11958765 13
1.5484753 1.7113289 0.039616961 37
1.2939111 1.4274861 -0.50599146 3
1.4885105 1.6415987 -0.50276589 4
1.6184592 1.7842863 -0.46039027 7
1.5621823 1.7216395 -0.36214611 14
1.5767123 1.7370431 -0.28334656 13
1.5659757 1.7246099 -0.20045851 13
1.5566272 1.7137133 -0.11892891 13
1.5486988 1.7043869 -0.039134759 10
1.5558569 1.7116644 0.6091218 17
1.5662471 1.722491 0.52823532 16
1.5548948 1.7094069 0.4413262 12
1.5646272 1.7195033 0.3617467 12
1.5557516 1.7091497 0.27908078 13
1.571736 1.7261049 0.200894 12
1.5657294 1.7189054 0.11984934 14
1.5578066 1.7096083 0.039704222 34
1.2988861 1.4229606 -0.50599146 3
1.4942316 1.6363928 -0.50276589 3
1.6279877 1.7822497 -0.46134344 5
1.5715137 1.7198215 -0.36292824 14
1.5861142 1.7351916 -0.28395587 13
1.5753474 1.722809 -0.20089431 13
1.5659698 1.7119534 -0.11918971 12
1.5613885 1.706347 -0.039307538 9
1.5650833 1.7097857 0.61041504 16
1.5755404 1.7206064 0.52935922 14
1.5641675 1.7075881 0.44227937 12
1.5739561 1.7176722 0.362528 13
1.5650616 1.7073671 0.27969012 13
1.5811177 1.7242789 0.20132977 11
1.5750949 1.7171091 0.12011101 14
1.5637648 1.7041602 0.039704222 36
1.3038452 1.418418 -0.50599146 3
1.4999347 1.6311669 -0.50276589 3
1.6308763 1.772944 -0.46039027 4
1.5808513 1.7179593 -0.36371043 14
1.5955226 1.7332958 -0.28456524 14
1.5847257 1.7209637 -0.20133008 12
1.5753191 1.7101493 -0.11945052 12
1.5707231 1.7045628 -0.039393932 10
1.5710419 1.7043121 0.61041504 17
1.5848395 1.7186779 0.53048313 12
1.5734469 1.7057256 0.44323257 12
1.5832916 1.7157971 0.36330932 12
1.574378 1.7055401 0.28029948 12
1.5905063 1.7224088 0.20176555 11
1.5844673 1.7152683 0.1203727 13
1.5730969 1.702363 0.039791483 35
1.3087884 1.4138582 -0.50599146 3
1.5056193 1.6259214 -0.50276589 4
1.637055 1.7672403 -0.46039027 4
1.5901951 1.7160529 -0.3644926 14
1.604937 1.7313554 -0.28517458 14
1.5941101 1.7190739 -0.20176587 14
1.5846747 1.7083007 -0.11971132 12
1.5800641 1.7027341 -0.039480317 9
1.5802675 1.7023575 0.61170834 16
1.5908291 1.7131354 0.53048313 10
1.5827316 1.7038188 0.44418573 12
1.592633 1.7138776 0.36409062 12
1.5837008 1.7036691 0.28090885 12
1.5999008 1.7204942 0.20220132 11
1.593846 1.713383 0.12063438 13
1.5824351 1.7005211 0.039878745 37
1.3170089 1.4128137 -0.50728554 3
1.5112855 1.6206558 -0.50276589 3
1.643214 1.7615151 -0.46039027 4
1.599545 1.7141024 -0.36527479 14
1.6143574 1.7293705 -0.28578395 13
1.6035006 1.7171392 -0.20220163 13
1.5940368 1.7064075 -0.11997214 13
1.5894113 1.700861 -0.039566711 10
1.5894985 1.7003592 0.61300153 17
1.6001272 1.7111305 0.53160703 11
1.5920225 1.7018681 0.44513896 13
1.6019802 1.7119138 0.36487195 12
1.5930296 1.7017536 0.28151816 13
1.6093016 1.7185346 0.20263711 12
1.6032307 1.7114531 0.12089606 13
1.5917799 1.698635 0.03996601 37
1.325238 1.4117292 -0.50857961 3
1.5169336 1.6153706 -0.50276589 3
1.656074 1.7629235 -0.46229663 4
1.6089003 1.7121072 -0.36605695 13
1.623783 1.7273403 -0.28639328 13
1.6094848 1.7115316 -0.20220163 14
1.6034048 1.7044698 -0.12023295 13
1.6021909 1.7025839 -0.03973949 10
1.5987347 1.6983173 0.61429483 16
1.6094304 1.7090814 0.53273094 12
1.6013191 1.6998732 0.44609213 13
1.6113331 1.7099055 0.36565322 12
1.6023642 1.6997936 0.28212753 14
1.6152905 1.7129067 0.20263711 12
1.6126213 1.7094784 0.12115774 14
1.6011306 1.696704 0.040053267 37
1.3301578 1.4070946 -0.50857961 3
1.522563 1.6100657 -0.50276589 3
1.6689637 1.7642633 -0.46420303 4
1.6182613 1.7100677 -0.36683914 14
1.6332146 1.725266 -0.28700262 13
1.6188742 1.7095197 -0.20263742 13
1.6127785 1.7024875 -0.12049376 14
1.611563 1.7006096 -0.039825883 10
1.607976 1.6962314 0.61558807 17
1.6187389 1.7069882 0.53385484 12
1.6072431 1.6942732 0.44609213 12
1.6206915 1.7078528 0.36643454 12
1.6117046 1.6977891 0.28273687 13
1.6246896 1.7108696 0.20307288 12
1.6220175 1.7074587 0.12141941 14
1.6104872 1.6947287 0.040140532 37
1.3383913 1.4059409 -0.50987375 3
1.528174 1.6047411 -0.50276589 3
1.6818829 1.7655344 -0.4661094 4
1.6276275 1.7079834 -0.36762127 14
1.6426511 1.7231466 -0.28761196 13
1.6317068 1.7110678 -0.20350897 14
1.6221582 1.7004604 -0.12075458 13
1.6209407 1.6985906 -0.039912272 10
1.6205572 1.6975954 0.61817455 17
1.6246876 1.7013276 0.53385484 12
1.6165378 1.6922017 0.44704533 12
1.630055 1.7057555 0.36721584 12
1.6210506 1.6957402 0.28334624 13
1.6340942 1.7087879 0.20350866 12
1.6314193 1.7053947 0.1216811 13
1.6198497 1.6927087 0.040227797 37
1.3432908 1.4012605 -0.50987375 3
1.5337662 1.5993971 -0.50276589 3
1.6914334 1.7631949 -0.46706262 4
1.6335795 1.7022914 -0.36762127 13
1.6486561 1.7174021 -0.28761196 13
1.6411196 1.7089542 -0.20394474 13
1.6315432 1.6983885 -0.12101538 12
1.6303241 1.6965269 -0.039998662 10
1.6298202 1.6954103 0.61946785 17
1.6339935 1.6991576 0.53497875 13
1.6258376 1.6900858 0.44799849 12
1.6394238 1.7036139 0.36799717 13
1.6304015 1.6936464 0.28395554 13
1.6400492 1.7030735 0.20350866 12
1.6408266 1.7032856 0.12194277 13
1.6292174 1.6906438 0.040315058 36
1.3515284 1.4000379 -0.51116782 3
1.5393398 1.5940335 -0.50276589 3
1.7009879 1.7608099 -0.46801579 4
1.6429435 1.7001302 -0.36840346 14
1.6580901 1.7152048 -0.28822133 13
1.6505376 1.7067958 -0.20438054 12
1.6409333 1.6962719 -0.12127619 12
1.6362362 1.6908257 -0.039998662 10
1.6390879 1.6931809 0.62076104 17
1.6433041 1.6969435 0.53610265 14
1.6351424 1.6879258 0.44895169 12
1.6453606 1.6978807 0.36799717 12
1.6363034 1.6879451 0.28395554 13
1.6494515 1.7009138 0.20394443 11
1.6502389 1.7011317 0.12220446 13
1.6385905 1.6885341 0.040402319 35
1.3564072 1.3953116 -0.51116782 3
1.5448947 1.5886505 -0.50276589 3
1.7105465 1.7583799 -0.46896899 4
1.6523122 1.697924 -0.36918563 14
1.6675289 1.7129626 -0.28883067 13
1.6599603 1.7045923 -0.20481631 13
1.6503286 1.6941102 -0.12153699 13
1.6456172 1.688684 -0.040085051 9
1.6483597 1.6909077 0.62205434 16
1.6526189 1.6946849 0.53722656 15
1.6444517 1.6857212 0.44990486 12
1.6547263 1.6956614 0.36877847 12
1.6456523 1.6857743 0.28456491 13
1.6588589 1.6987096 0.20438023 11
1.6596558 1.6989324 0.12246613 13
1.6479684 1.6863796 0.04048958 37
1.3612694 1.3905683 -0.51116782 3
1.5504308 1.583248 -0.50276589 3
1.7201087 1.7559046 -0.46992216 4
1.6616856 1.6956735 -0.36996782 13
1.6769723 1.7106754 -0.28944001 13
1.6693878 1.7023441 -0.2052521 13
1.6597289 1.6919036 -0.12179781 13
1.6550035 1.6864978 -0.040171444 10
1.6576353 1.6885902 0.62334752 16
1.6619382 1.6923822 0.53835046 16
1.6537658 1.6834723 0.45085809 12
1.6606352 1.689875 0.36877847 12
1.6550058 1.6835587 0.28517425 13
1.6682708 1.6964601 0.20481598 12
1.6690779 1.6966883 0.12272782 13
1.6573517 1.6841803 0.040576845 35
1.3661151 1.3858081 -0.51116782 3
1.5559478 1.5778264 -0.50276589 3
1.7296746 1.7533838 -0.47087535 4
1.6710632 1.6933776 -0.37074998 14
1.6864196 1.7083428 -0.29004934 13
1.6788199 1.7000506 -0.20568787 13
1.6691337 1.6896521 -0.12205861 12
1.6643941 1.6842662 -0.04025783 10
1.6669152 1.6862285 0.62464082 16
1.6712612 1.6900347 0.53947437 17
1.6630838 1.6811786 0.45181125 12
1.6699977 1.6875786 0.36955979 12
1.664364 1.6812984 0.28578362 13
1.6776872 1.6941658 0.20525178 12
1.6785042 1.6943991 0.12298949 13
1.6667393 1.6819357 0.040664103 36
1.3709441 1.381031 -0.51116782 3
1.561446 1.5723855 -0.50276589 3
1.7392436 1.7508175 -0.47182852 4
1.680445 1.6910373 -0.37153217 13
1.6958716 1.7059654 -0.29065871 13
1.6882561 1.6977121 -0.20612365 13
1.678543 1.6873553 -0.12231942 13
1.6737896 1.6819898 -0.040344223 9
1.6761984 1.6838224 0.62593406 16
1.684026 1.6910954 0.54172218 16
1.6724061 1.6788405 0.45276445 12
1.6793641 1.6852369 0.37034109 11
1.6737261 1.678993 0.28639293 14
1.6871078 1.691826 0.20568755 11
1.6844085 1.6885298 0.12298949 13
1.6761316 1.6796461 0.040751368 35
1.3757565 1.3762372 -0.51116782 3
1.5669252 1.5669255 -0.50276589 3
1.7488159 1.7482059 -0.47278175 4
1.6898307 1.6886518 -0.3723143 13
1.7053272 1.7035426 -0.29126805 13
1.694172 1.6918086 -0.20612365 13
1.6879565 1.6850134 -0.12258023 12
1.6831893 1.6796682 -0.040430613 9
1.6854854 1.6813724 0.62722731 17
1.6933687 1.6886469 0.54284608 15
1.6817323 1.6764576 0.45371762 12
1.6887348 1.6828506 0.37112242 12
1.6830927 1.6766429 0.2870023 13
1.6965326 1.6894413 0.20612334 11
1.6938311 1.6861625 0.12325118 13
1.6855279 1.6773113 0.040838629 35
1.3805522 1.3714265 -0.51116782 3
1.5689284 1.5580137 -0.50164115 3
1.7583908 1.7455486 -0.47373492 4
1.6992204 1.6862216 -0.3730965 14
1.7147863 1.7010746 -0.29187742 13
1.7036039 1.6893917 -0.20655942 14
1.693828 1.6791111 -0.12258023 12
1.6890422 1.6737825 -0.040430613 9
1.6947752 1.6788777 0.62852055 17
1.7027146 1.6861537 0.54396999 16
1.6910622 1.6740302 0.45467082 12
1.698109 1.6804193 0.37190372 12
1.692463 1.6742477 0.28761163 13
1.7059612 1.6870115 0.20655911 12
1.7032573 1.6837499 0.12351285 13
1.6949286 1.6749315 0.04092589 35
1.3853308 1.3665991 -0.51116782 3
1.5708882 1.5491066 -0.50051636 4
1.7679688 1.742846 -0.47468811 5
1.7086135 1.6837461 -0.37387866 14
1.7242492 1.6985612 -0.29248673 13
1.7130398 1.6869296 -0.20699522 13
1.7032372 1.6766912 -0.12284105 12
1.6984379 1.671383 -0.040517002 10
1.7075119 1.679726 0.63110709 17
1.712064 1.6836162 0.54509389 16
1.7038959 1.674999 0.45657721 12
1.7110091 1.6814045 0.37346631 12
1.7018373 1.6718075 0.288221 14
1.7153935 1.6845363 0.20699489 11
1.7126876 1.6812919 0.12377454 13
1.7043329 1.6725065 0.041013151 35
1.3900927 1.361755 -0.51116782 3
1.5762861 1.5436137 -0.50051636 3
1.7810568 1.7435311 -0.47659451 5
1.7180102 1.6812259 -0.37466085 14
1.7337155 1.6960027 -0.2930961 14
1.7224787 1.6844221 -0.20743097 14
1.7126499 1.6742258 -0.12310185 13
1.7042618 1.6654441 -0.040517002 9
1.7168195 1.6771302 0.63240033 18
1.721416 1.6810334 0.5462178 16
1.7132444 1.6724695 0.45753035 12
1.7204026 1.6788712 0.37424764 12
1.7112149 1.6693223 0.28883031 13
1.7248292 1.6820158 0.20743066 11
1.7221215 1.6787889 0.12403621 13
1.7101607 1.6665469 0.041013151 35
1.3948376 1.3568944 -0.51116782 3
1.5851576 1.5414988 -0.50164115 3
1.7906511 1.7407247 -0.47754765 7
1.7309514 1.682102 -0.3762252 13
1.7431844 1.6933984 -0.29370543 14
1.7319216 1.6818696 -0.20786677 13
1.7220665 1.6717155 -0.12336266 12
1.7136525 1.6629666 -0.040603392 9
1.7261301 1.6744903 0.63369364 14
1.7307709 1.6784061 0.5473417 16
1.7225964 1.6698955 0.45848358 12
1.7297989 1.6762922 0.37502894 12
1.7205962 1.6667919 0.28943968 13
1.7378463 1.6829146 0.20830221 12
1.7315586 1.6762403 0.12429789 13
1.7195603 1.6640439 0.041100416 36
1.3995657 1.3520173 -0.51116782 3
1.5905287 1.5359561 -0.50164115 4
1.8037792 1.7412814 -0.47945404 9
1.740366 1.6794788 -0.37700737 14
1.7526567 1.6907487 -0.2943148 13
1.7413671 1.6792713 -0.20830254 13
1.7314862 1.6691595 -0.12362346 12
1.7230468 1.6604439 -0.040689785 9
1.7319646 1.6684548 0.63369364 14
1.7401289 1.675734 0.54846561 16
1.7319509 1.6672763 0.45943674 11
1.7391983 1.6736685 0.37581027 11
1.7299801 1.6642162 0.29004902 13
1.7473006 1.6802909 0.208738 11
1.7409987 1.673646 0.12455957 14
1.7289629 1.6614952 0.041187678 37
1.4042765 1.3471236 -0.51116782 3
1.6029131 1.5371388 -0.50389069 3
1.8133895 1.738371 -0.48040724 10
1.7497836 1.6768104 -0.37778956 15
1.7621315 1.6880536 -0.29492414 13
1.7508159 1.6766276 -0.20873833 13
1.7409091 1.6665583 -0.12388428 12
1.732444 1.6578754 -0.040776171 9
1.7412682 1.6657375 0.63498682 12
1.7494886 1.6730168 0.54958951 14
1.7413083 1.6646124 0.46038994 11
1.7486004 1.6709992 0.37659156 12
1.7429558 1.6650233 0.29126769 13
1.7567575 1.6776215 0.20917377 12
1.7504419 1.6710063 0.12482125 13
1.7383687 1.6589012 0.041274939 37
1.4054734 1.3388824 -0.50987375 3
1.6117969 1.5348939 -0.50501537 3
1.8265567 1.7387991 -0.48231363 12
1.7627809 1.6775011 -0.37935388 13
1.7716089 1.6853127 -0.29553348 13
1.760267 1.6739383 -0.2091741 13
1.7503346 1.6639113 -0.12414508 12
1.7418447 1.6552619 -0.040862564 9
1.7505739 1.6629757 0.63628012 12
1.7553178 1.6668997 0.54958951 12
1.7506678 1.661903 0.46134311 12
1.7580048 1.6682848 0.37737289 12
1.7523577 1.6623447 0.29187706 13
1.7662171 1.6749065 0.20960957 12
1.7598878 1.6683213 0.12508292 13
1.7514063 1.6597006 0.041449465 36
1.4101384 1.3339682 -0.50987375 3
1.6171448 1.5292581 -0.50501537 3
1.8397487 1.7391562 -0.48422 15
1.772215 1.6747293 -0.38013604 13
1.7846962 1.6859344 -0.29675218 14
1.7697209 1.6712035 -0.20960988 13
1.7597632 1.6612191 -0.1244059 12
1.7512478 1.6526026 -0.040948953 9
1.7598811 1.6601691 0.63757336 10
1.7646703 1.6641051 0.55071342 11
1.7636015 1.6625156 0.46324947 12
1.7674117 1.665525 0.37815419 12
1.7617619 1.6596205 0.2924864 13
1.7756789 1.6721456 0.21004534 12
1.7693363 1.6655904 0.12534462 13
1.7608297 1.6570029 0.041536722 36
1.4147862 1.3290378 -0.50987375 3
1.6260247 1.5269392 -0.50614017 3
1.8279154 1.7159269 -0.47945404 14
1.7816514 1.6719124 -0.38091823 14
1.7941897 1.6830897 -0.29736155 13
1.7791772 1.6684231 -0.21004565 14
1.7691939 1.658481 -0.1246667 12
1.7643014 1.6533164 -0.041121732 9
1.7691905 1.657318 0.6388666 11
1.7740247 1.6612653 0.55183733 11
1.7729774 1.6597037 0.4642027 12
1.7768207 1.6627197 0.37893552 12
1.7711687 1.6568511 0.29309577 13
1.7851431 1.6693393 0.21048112 12
1.778787 1.6628139 0.12560628 13
1.7702558 1.6542598 0.041623987 35
1.4194168 1.3240912 -0.50987375 3
1.6349077 1.5245763 -0.50726491 3
1.8303037 1.7061892 -0.47850087 15
1.7910897 1.6690501 -0.38170043 14
1.8036851 1.6801991 -0.29797086 13
1.7886355 1.6655968 -0.21048145 14
1.7786273 1.6556976 -0.12492751 13
1.7737217 1.6505535 -0.041208126 10
1.7785012 1.6544218 0.64015985 10
1.7833806 1.6583804 0.55296123 10
1.7823552 1.6568466 0.4651559 11
1.7862314 1.6598691 0.37971681 13
1.7805772 1.6540358 0.29370511 13
1.7946093 1.6664873 0.21091689 12
1.7882401 1.6599916 0.12586798 14
1.7796837 1.6514708 0.041711248 40
1.4240301 1.3191284 -0.50987375 3
1.6402194 1.5188602 -0.50726491 3
1.8290445 1.6931213 -0.47659451 16
1.8005294 1.6661417 -0.38248259 14
1.8131824 1.677263 -0.29858023 14
1.7980955 1.6627249 -0.2109172 16
1.7880623 1.6528682 -0.12518832 13
1.783144 1.6477448 -0.041294511 11
1.7878132 1.651481 0.64145315 10
1.7891585 1.6521451 0.55296123 11
1.7881278 1.6506151 0.4651559 13
1.7992735 1.6603223 0.38127947 12
1.78634 1.6478105 0.29370511 15
1.8040773 1.6635895 0.21135268 14
1.7976949 1.6571236 0.12612964 16
1.7891141 1.6486362 0.04179851 44
1.4286261 1.3141495 -0.50987375 3
1.6490976 1.5164233 -0.50838971 3
1.8313296 1.6834046 -0.47564128 12
1.8099706 1.663188 -0.38326478 15
1.8226806 1.6742806 -0.29918957 14
1.8075573 1.6598072 -0.211353 14
1.7974994 1.6499932 -0.12544914 14
1.7925684 1.6448904 -0.041380905 11
1.7935671 1.6452303 0.64145315 11
1.7985054 1.6491823 0.55408514 10
1.7974966 1.6476798 0.46610907 11
1.8086994 1.6573679 0.38206074 11
1.7957407 1.6449171 0.29431444 14
1.8135467 1.6606456 0.21178845 13
1.8071517 1.6542099 0.12639134 15
1.794858 1.642381 0.04179851 40
1.4332047 1.3091546 -0.50987375 3
1.6579783 1.5139426 -0.50951445 3
1.8371948 1.6770018 -0.47564128 13
1.8194132 1.6601887 -0.38404691 14
1.8321805 1.6712527 -0.29979894 13
1.8170207 1.6568435 -0.21178877 12
1.8069382 1.6470723 -0.12570994 12
1.8019944 1.6419903 -0.041467294 8
1.8028694 1.6422119 0.64274633 10
1.8078538 1.6461748 0.55520904 9
1.8068668 1.6446992 0.46706229 11
1.8181263 1.6543682 0.38284209 11
1.8051428 1.6419781 0.29492378 12
1.8230177 1.6576561 0.21222423 10
1.8166096 1.65125 0.126653 12
1.8042799 1.6394677 0.041885771 38
1.4377656 1.3041439 -0.50987375 3
1.6632528 1.5081459 -0.50951445 3
1.8466742 1.6738752 -0.47659451 13
1.8288568 1.6571437 -0.3848291 12
1.8416811 1.6681787 -0.30040827 12
1.8264855 1.6538342 -0.21222456 13
1.8163785 1.6441058 -0.12597075 11
1.8077151 1.6356902 -0.041467294 9
1.8121729 1.6391486 0.64403963 10
1.8172027 1.6431215 0.55633295 10
1.8162382 1.6416734 0.46801546 11
1.8275543 1.6513225 0.38362336 12
1.814546 1.6389935 0.29553315 12
1.83249 1.6546206 0.21266001 12
1.826069 1.6482444 0.12691469 13
1.8137034 1.6365087 0.041973036 36
1.4458977 1.3023496 -0.51116782 3
1.6685071 1.5023309 -0.50951445 3
1.8525058 1.6674188 -0.47659451 12
1.8383013 1.6540527 -0.38561127 13
1.8511829 1.6650589 -0.30101761 13
1.8359513 1.650779 -0.21266034 13
1.82582 1.6410934 -0.12623155 12
1.8171324 1.6327113 -0.041553684 8
1.8214768 1.6360403 0.64533287 9
1.8265523 1.6400234 0.55745685 10
1.8256103 1.6386021 0.46896866 12
1.8369833 1.6482314 0.38440469 13
1.8239506 1.6359631 0.29614249 13
1.8419631 1.6515391 0.21309578 12
1.8355296 1.645193 0.12717636 13
1.8231281 1.6335038 0.042060297 37
1.450435 1.2972944 -0.51116782 3
1.673741 1.4964976 -0.50951445 3
1.8619744 1.6642131 -0.47754765 11
1.8477466 1.6509162 -0.38639346 14
1.8606849 1.6618925 -0.30162695 13
1.8454177 1.6476777 -0.21309611 14
1.8352625 1.6380348 -0.12649237 12
1.8265507 1.6296865 -0.041640073 9
1.830781 1.6328871 0.64662611 10
1.8395391 1.6401222 0.55970466 11
1.8349833 1.6354854 0.46992183 12
1.8464128 1.6450942 0.38518599 13
1.833356 1.6328871 0.29675183 14
1.851437 1.6484118 0.21353158 13
1.8449911 1.6420954 0.12743805 14
1.8362888 1.6337758 0.042234819 43
1.4585656 1.2954308 -0.5124619 3
1.6789547 1.490646 -0.50951445 3
1.8677723 1.6577033 -0.47754765 10
1.8571919 1.6477337 -0.38717562 14
1.8701876 1.6586803 -0.30223632 14
1.8548852 1.6445303 -0.21353191 15
1.8447059 1.6349305 -0.12675317 13
1.839712 1.6299313 -0.041812852 10
1.8437011 1.6328912 0.64921266 11
1.8489006 1.6369205 0.56082857 11
1.8443565 1.6323231 0.47087502 13
1.8558428 1.6419114 0.38596731 13
1.8427622 1.6297654 0.2973612 14
1.864643 1.6485372 0.21440314 13
1.8544533 1.6389518 0.12769973 15
1.8494737 1.6339761 0.042409342 47
1.4630786 1.2903316 -0.5124619 3
1.6841477 1.4847764 -0.50951445 3
1.8772296 1.6544188 -0.47850087 9
1.8666379 1.6445055 -0.38795781 15
1.8796904 1.6554221 -0.30284566 14
1.8680917 1.6446283 -0.21440347 14
1.8578985 1.635079 -0.1272748 13
1.8566509 1.6334062 -0.042072024 9
1.8566433 1.6328245 0.65179914 10
1.8619214 1.6368903 0.56307638 11
1.8574169 1.6323556 0.47278142 12
1.8689831 1.6419423 0.38752994 16
1.8558978 1.6298726 0.2985799 14
1.8741292 1.6453044 0.21483891 13
1.8676687 1.6390556 0.12822309 15
1.8664403 1.6374009 0.042671129 59
1.4675738 1.2852166 -0.5124619 3
1.6856548 1.4756796 -0.50838971 3
1.8829932 1.647856 -0.47850087 7
1.8760839 1.6412313 -0.38873994 12
1.892929 1.6553844 -0.30406433 17
1.877571 1.6413755 -0.21483923 22
1.8711143 1.6351551 -0.12779641 15
1.8698711 1.6334932 -0.042244807 15
1.8696074 1.6326876 0.65438563 14
1.8712943 1.6335852 0.56420028 15
1.8704997 1.6323162 0.47468778 18
1.8784248 1.6386548 0.38831124 21
1.8653159 1.6266459 0.29918921 20
1.8873702 1.6452986 0.21571046 18
1.8809074 1.6390871 0.12874645 22
1.8796836 1.6374434 0.042845655 59
1.4756956 1.2832551 -0.51375604 3
1.6907957 1.4697866 -0.50838971 3
1.885029 1.6380537 -0.47754765 7
1.8892579 1.6411498 -0.3903043 12
1.9024431 1.6520208 -0.3046737 22
1.8908118 1.6413419 -0.21571079 19
1.8843532 1.6351588 -0.12831803 21
1.886891 1.6367838 -0.042503979 17
1.8825933 1.63248 0.65697211 18
1.884348 1.6334256 0.56644809 18
1.883605 1.6322058 0.47659415 24
1.8915989 1.6385548 0.38987383 20
1.878486 1.6266222 0.30040792 18
1.896868 1.6419604 0.21614625 25
1.8941691 1.639046 0.12926981 20
1.8929497 1.6374131 0.043020178 64
1.4801661 1.2780963 -0.51375604 3
1.6996036 1.4670589 -0.50951445 3
1.8907353 1.6314635 -0.47754765 6
1.8987144 1.6377705 -0.39108649 12
1.9157147 1.6518515 -0.30589241 23
1.9040754 1.6412359 -0.21658234 25
1.8976147 1.6350899 -0.12883966 19
1.9001687 1.6367126 -0.042676758 21
1.8956003 1.6322016 0.65955865 22
1.8937306 1.6300163 0.567572 25
1.8967321 1.6320236 0.47850055 21
1.9047952 1.6383827 0.39143646 23
1.8916783 1.6265261 0.30162659 25
1.9063652 1.6385758 0.21658202 24
1.9074532 1.6389321 0.12979317 27
1.9024463 1.634053 0.043107443 66
1.4846184 1.2729217 -0.51375604 3
1.7047142 1.4611171 -0.50951445 3
1.8926916 1.6216604 -0.47659451 6
1.9119214 1.6375579 -0.39265084 12
1.9252388 1.6483819 -0.30650172 24
1.9173611 1.641057 -0.21745391 25
1.9071047 1.6317022 -0.12910046 20
1.9134687 1.6365688 -0.042849541 22
1.9086281 1.6318519 0.66214514 23
1.9068164 1.6297268 0.56981981 27
1.906149 1.6285809 0.47945368 20
1.9142581 1.6349313 0.39221779 23
1.9048932 1.6263579 0.3028453 25
1.9196508 1.6383785 0.21745357 26
1.9207596 1.6387455 0.13031653 26
1.9119422 1.6306463 0.043194704 20
1.4890527 1.2677317 -0.51375604 3
1.7098041 1.4551578 -0.50951445 3
1.9132942 1.6277657 -0.48040724 5
1.9213877 1.6340734 -0.39343297 13
1.9385431 1.6480805 -0.30772042 26
1.9306686 1.6408055 -0.21832547 26
1.9203995 1.6315008 -0.12962207 23
1.92298 1.6331155 -0.042935926 23
1.9179947 1.6283057 0.66343844 25
1.9162081 1.6262134 0.57094371 27
1.9193081 1.6282679 0.48136008 23
1.9274863 1.6346276 0.39378041 22
1.9181296 1.626117 0.30406398 26
1.9291581 1.6348881 0.21788937 25
1.9302778 1.6352582 0.1305782 27
1.9214377 1.6271933 0.043281965 21
1.4934688 1.2625262 -0.51375604 3
1.7148732 1.4491806 -0.50951445 3
1.9339625 1.633747 -0.48422 8
1.9346262 1.6337291 -0.39499733 13
1.9480765 1.644505 -0.30832979 22
1.9401914 1.6372688 -0.21876125 25
1.9298995 1.6280072 -0.12988289 21
1.9324908 1.629616 -0.04302232 23
1.9310526 1.6278265 0.66602492 24
1.9293244 1.6257938 0.57319152 22
1.9287342 1.6247208 0.48231328 21
1.9369581 1.6310706 0.39456171 23
1.9275907 1.6226077 0.30467334 26
1.9424756 1.6345582 0.21876092 27
1.9436164 1.6349388 0.13110156 28
1.9309323 1.6236937 0.043369226 20
1.4978667 1.2573053 -0.51375604 3
1.7199214 1.4431857 -0.50951445 3
1.9546957 1.6396035 -0.48803276 8
1.9441012 1.630139 -0.39577952 12
1.9614116 1.6440707 -0.30954847 24
1.9535302 1.6368842 -0.21963282 25
1.9432261 1.6276731 -0.1304045 23
1.9458336 1.6292794 -0.043195099 24
1.9404267 1.6241759 0.66731817 26
1.9387242 1.6221756 0.57431537 22
1.9381585 1.6211272 0.48326644 21
1.9464285 1.6274674 0.39534304 23
1.9408585 1.6222346 0.30589205 25
1.9519916 1.6309612 0.21919669 25
1.9531438 1.6313453 0.13136324 28
1.9404259 1.6201478 0.043456491 20
1.4985363 1.2489769 -0.5124619 3
1.7212057 1.4340549 -0.50838971 3
1.9754931 1.6453351 -0.49184549 8
1.9573702 1.6296625 -0.39734387 12
1.970953 1.6403888 -0.31015781 23
1.9668902 1.6364264 -0.22050437 27
1.9527347 1.6240727 -0.1306653 23
1.955353 1.6256731 -0.043281488 23
1.953513 1.6235669 0.66990465 25
1.95187 1.6216253 0.57656324 22
1.9513574 1.6206238 0.48517281 20
1.9558971 1.6238174 0.39612433 24
1.9503281 1.6186191 0.30650139 26
1.9653398 1.6304984 0.22006825 27
1.9665132 1.6308924 0.1318866 28
1.9499178 1.6165551 0.043543749 19
1.502887 1.2437384 -0.5124619 3
1.7299547 1.4311434 -0.50951445 3
1.9850068 1.6415573 -0.49279872 8
1.966853 1.6259668 -0.39812601 12
1.9804924 1.6366603 -0.31076717 23
1.9764305 1.6327231 -0.22094014 25
1.9622421 1.6204262 -0.13092612 23
1.9687265 1.6252031 -0.043454267 23
1.962894 1.6198121 0.67119795 25
1.9612767 1.6179024 0.57768714 22
1.9607892 1.6169252 0.48612604 21
1.969175 1.6232629 0.39768693 23
1.963626 1.6181134 0.30772007 26
1.9748639 1.6267952 0.22050403 25
1.9760486 1.627192 0.13214828 25
1.9632683 1.6160933 0.043718275 19
1.5072193 1.2384847 -0.5124619 3
1.7424691 1.4312806 -0.51176393 3
1.9869314 1.6315037 -0.49184549 7
1.9763341 1.6222245 -0.3989082 12
1.9938666 1.6360332 -0.31198588 22
1.98982 1.6321319 -0.2218117 25
1.9717475 1.6167325 -0.13118692 23
1.9782538 1.6214901 -0.04354066 22
1.9722719 1.6160115 0.67249113 24
1.9744506 1.6172208 0.57993495 21
1.9702191 1.6131804 0.4870792 19
1.978651 1.6195074 0.39846826 22
1.9731034 1.6143918 0.30832943 25
1.9882416 1.6261986 0.22137558 25
1.985582 1.623445 0.13240996 26
1.9727684 1.6123941 0.04380554 21
1.5115333 1.233216 -0.5124619 3
1.7550054 1.4313478 -0.51401347 3
1.9926144 1.624558 -0.49184549 7
1.9858124 1.6184356 -0.39969036 12
2.0034125 1.6321979 -0.31259522 22
1.9993672 1.6283215 -0.22224748 24
1.9812514 1.6129926 -0.13144773 22
1.9877793 1.6177304 -0.04362705 23
1.9853941 1.6152133 0.67507768 24
1.9838636 1.6133928 0.58105886 22
1.9834553 1.6124856 0.48898563 21
1.9919572 1.6188201 0.40003088 22
1.9864303 1.613753 0.30954811 25
1.9977726 1.6223885 0.22181135 26
1.9951133 1.6196511 0.13267164 25
1.9822667 1.6086482 0.043892797 18
1.5158287 1.2279323 -0.5124619 3
1.7637773 1.428279 -0.51513821 3
1.994458 1.6145043 -0.49089235 7
1.9952888 1.6146007 -0.40047255 12
2.0168147 1.6314369 -0.31381392 20
2.0127852 1.6275965 -0.22311905 26
1.9946361 1.6123449 -0.13196936 20
1.9973027 1.6139239 -0.043713439 20
1.9947773 1.6113081 0.67637092 24
1.9970646 1.6125797 0.58330667 22
1.9928912 1.6086352 0.4899388 19
2.0052826 1.6180594 0.40159351 21
1.9959141 1.609925 0.31015745 25
2.0073011 1.6185316 0.22224714 25
2.0085299 1.6189442 0.133195 26
1.9917625 1.6048557 0.043980062 19
1.5238693 1.2256606 -0.51375604 3
1.7649552 1.4190607 -0.51401347 3
2.0077331 1.6136824 -0.49279872 6
2.0086124 1.6138121 -0.40203691 12
2.0263665 1.6274948 -0.31442326 21
2.0223386 1.623679 -0.22355483 25
2.0041459 1.6084976 -0.13223016 21
2.0107229 1.6131992 -0.043886222 22
2.0079253 1.6103789 0.67895746 24
2.0064824 1.6086463 0.58443058 22
2.0061543 1.6078081 0.49184516 20
2.0147727 1.6141378 0.40237483 22
2.0092688 1.6091524 0.31137615 24
2.0207152 1.6177409 0.22311871 24
2.0180674 1.615043 0.13345668 27
2.0051599 1.6041393 0.044154584 20
1.5281383 1.2203339 -0.51375604 3
1.7622828 1.4068123 -0.51176393 3
2.0171902 1.6097258 -0.49375188 6
2.0180941 1.6098708 -0.4028191 12
2.0397952 1.6265997 -0.31564194 19
2.0318887 1.6197146 -0.2239906 24
2.0175586 1.6077155 -0.13275178 20
2.020252 1.6092855 -0.043972608 24
2.0173125 1.6063685 0.68025064 24
2.0197091 1.6077011 0.58667839 21
2.0155952 1.6038517 0.49279836 20
2.0281248 1.6132437 0.40393746 21
2.0187578 1.6052178 0.31198549 24
2.0302494 1.6137768 0.22355449 24
2.0315111 1.6142013 0.13398004 25
2.0146618 1.6002395 0.044241846 18
1.5323888 1.2149923 -0.51375604 3
1.763365 1.3976263 -0.51063919 3
2.026644 1.6057228 -0.49470508 6
2.0314438 1.6089487 -0.40438342 12
2.0493517 1.6225501 -0.31625131 17
2.041436 1.6157033 -0.22442639 24
2.0309899 1.6068593 -0.13327339 21
2.0336995 1.6084261 -0.04414539 23
2.0304852 1.6053079 0.68283719 24
2.0291312 1.6036621 0.58780229 20
2.0288842 1.6028917 0.49470475 20
2.0376194 1.6092153 0.40471876 21
2.0321393 1.6043115 0.3132042 24
2.0436902 1.6128516 0.22442605 24
2.0410535 1.6101929 0.13424173 25
2.0241609 1.5962931 0.044329111 18
1.5328256 1.2066483 -0.5124619 3
1.7605759 1.3854369 -0.50838971 3
2.0360942 1.6016732 -0.49565825 5
2.0409296 1.6049004 -0.40516558 12
2.0628061 1.6215205 -0.31747001 16
2.0548964 1.6147227 -0.22529794 24
2.04444 1.605929 -0.13379502 22
2.0432334 1.6044047 -0.04423178 23
2.0436747 1.6041747 0.68542367 24
2.0423825 1.6025845 0.5900501 21
2.0383289 1.5988289 0.49565789 20
2.0509968 1.6081873 0.40628135 21
2.0416329 1.6002698 0.31381357 24
2.0571489 1.6118522 0.2252976 24
2.0545235 1.6092162 0.13476509 26
2.0375929 1.5953815 0.044503633 18
1.5370282 1.2012904 -0.5124619 3
1.7730793 1.3852817 -0.51063919 3
2.0455413 1.5975776 -0.49661148 5
2.0543046 1.6038446 -0.40672994 12
2.072366 1.6173633 -0.31807932 16
2.0644474 1.6106038 -0.22573371 23
2.0539703 1.6018534 -0.13405582 21
2.0567067 1.6034102 -0.044404563 22
2.0568812 1.6029691 0.68801016 24
2.0518074 1.5984396 0.59117401 18
2.0477698 1.5947199 0.49661112 19
2.0604951 1.6040519 0.40706271 20
2.0550394 1.599229 0.31503224 23
2.070626 1.6107782 0.22616915 24
2.0640697 1.6050999 0.13502677 25
2.0470965 1.5913274 0.044590894 19
1.5412121 1.1959178 -0.5124619 3
1.785603 1.3850561 -0.51288873 3
2.0511055 1.5904275 -0.49661148 5
2.0637937 1.5996894 -0.40751213 11
2.0819218 1.6131593 -0.31868869 15
2.0779326 1.6094879 -0.22660528 23
2.0674455 1.6007878 -0.13457744 20
2.0662446 1.5992812 -0.044490952 22
2.0662842 1.5987351 0.68930346 23
2.0650823 1.5972291 0.59342182 20
2.0610902 1.5935667 0.49851748 19
2.0738966 1.6028898 0.4086253 21
2.0645363 1.59508 0.31564158 23
2.080178 1.6065853 0.22660492 22
2.0775647 1.6039879 0.13555013 24
2.0605543 1.5902811 0.04476542 18
1.5453773 1.1905308 -0.5124619 3
1.7981467 1.3847598 -0.51513821 3
2.0566444 1.5832582 -0.49661148 5
2.0771925 1.5984992 -0.40907648 12
2.0914736 1.6089082 -0.31929803 13
2.0874865 1.6052612 -0.22704107 22
2.0809381 1.5996475 -0.13509907 21
2.0797427 1.5981511 -0.044663735 22
2.0795126 1.5973971 0.69188994 22
2.0783734 1.5959454 0.59566957 21
2.0705335 1.5893511 0.49947065 18
2.0833972 1.5986472 0.4094066 20
2.0779672 1.5939045 0.31686029 24
2.0936787 1.6053759 0.22747648 22
2.0871139 1.5997636 0.13581181 23
2.0740292 1.5891598 0.044939946 17
1.5495236 1.185129 -0.5124619 3
1.8145802 1.3873518 -0.51851249 3
2.0621586 1.5760695 -0.49661148 4
2.086684 1.5942369 -0.40985861 12
2.1010213 1.60461 -0.3199074 12
2.1009955 1.6040099 -0.22791262 23
2.0904789 1.5954034 -0.13535988 19
2.0932579 1.5969465 -0.044836514 21
2.0927567 1.5959861 0.69447643 22
2.0878062 1.5916346 0.59679353 19
2.0799727 1.5850888 0.50042385 18
2.0968218 1.5973506 0.41096923 20
2.0874665 1.5896482 0.31746963 25
2.1032331 1.6010748 0.22791228 22
2.1006324 1.5985161 0.13633516 24
2.0875218 1.5879638 0.045114469 18
1.5536511 1.1797131 -0.5124619 3
1.8077703 1.3721727 -0.51513821 3
2.0676475 1.5688616 -0.49661148 4
2.1001053 1.592912 -0.41142297 12
2.1105638 1.6002645 -0.32051674 10
2.1105511 1.5996749 -0.22834839 22
2.1039946 1.5941272 -0.1358815 20
2.1067898 1.5956664 -0.045009293 22
2.1021659 1.5915869 0.69576973 22
2.101119 1.5902175 0.59904134 18
2.0933218 1.5837417 0.50233024 18
2.1063237 1.5930005 0.41175056 20
2.1009202 1.5883375 0.31868833 24
2.1167567 1.5997299 0.22878383 23
2.1141675 1.5971934 0.13685852 24
2.1010308 1.5866928 0.045288995 17
1.5577595 1.1742827 -0.5124619 3
1.8047674 1.3599901 -0.51288873 3
2.0731113 1.5616347 -0.49661148 4
2.1095979 1.5885423 -0.41220516 11
2.1201022 1.5958722 -0.32112607 9
2.1240823 1.5982877 -0.22921994 23
2.117527 1.5927762 -0.13640311 22
2.1163425 1.5913072 -0.045095682 21
2.1154304 1.5900432 0.69835621 23
2.1144474 1.5887268 0.60128915 21
2.1027617 1.5793725 0.50328338 18
2.1197701 1.5915689 0.41331318 19
2.1104209 1.5839733 0.31929767 23
2.126312 1.5953205 0.2292196 22
2.1237245 1.5927995 0.1371202 25
2.1105564 1.5823481 0.045376252 18
1.5618491 1.1688379 -0.5124619 3
1.7978003 1.3449268 -0.50951445 3
2.0785499 1.5543885 -0.49661148 4
2.1230409 1.5870825 -0.41376951 12
2.1296351 1.5914327 -0.32173541 9
2.1376297 1.5968254 -0.23009151 23
2.1270747 1.5883626 -0.13666391 21
2.1298969 1.5898908 -0.045268461 22
2.1248386 1.5855378 0.69964945 24
2.1238852 1.5842493 0.602413 18
2.1161318 1.5778909 0.50518978 18
2.1332319 1.5900625 0.41487581 20
2.1238961 1.5825272 0.32051635 23
2.1398571 1.5938392 0.23009115 22
2.1372812 1.5913405 0.13764356 23
2.1240876 1.5809408 0.045550779 17
1.5659195 1.163379 -0.5124619 3
1.802484 1.3386431 -0.50951445 3
2.0800219 1.5441977 -0.49565825 5
2.1325338 1.582605 -0.41455165 11
2.1431487 1.5899026 -0.32295412 8
2.1511922 1.5952879 -0.23096307 23
2.1406286 1.586875 -0.13718553 20
2.1434669 1.5883995 -0.045441244 19
2.1381223 1.5838608 0.70223594 22
2.1372335 1.5826248 0.60466087 19
2.1295168 1.5763352 0.50709617 19
2.1467092 1.5884817 0.4164384 19
2.1333971 1.578055 0.32112572 23
2.1494129 1.5893214 0.23052694 23
2.1508536 1.5898062 0.13816692 24
2.1336141 1.5764878 0.04563804 17
1.569971 1.1579057 -0.5124619 3
1.8071458 1.3323432 -0.50951445 3
2.0853994 1.5369277 -0.49565825 5
2.1459968 1.5810096 -0.416116 11
2.1526816 1.585355 -0.32356349 8
2.1647701 1.5936751 -0.23183462 22
2.1501765 1.5823528 -0.13744634 19
2.1530252 1.5838701 -0.045527633 22
2.1475291 1.5792493 0.70352924 23
2.1505957 1.5809261 0.60690868 19
2.1429167 1.5747051 0.50900251 18
2.1562212 1.5839024 0.4172197 20
2.1468928 1.5764731 0.32234439 23
2.1629782 1.5877037 0.23139849 22
2.1604156 1.5852427 0.1384286 23
2.147166 1.5749441 0.045812566 16
1.5740033 1.1524184 -0.5124619 3
1.8157171 1.3289045 -0.51063919 3
2.0907514 1.5296388 -0.49565825 4
2.1594748 1.5793397 -0.41768035 11
2.1662149 1.5836889 -0.32478216 9
2.1743417 1.5890479 -0.23227042 23
2.1637506 1.5807285 -0.13796796 20
2.1666155 1.5822418 -0.045700416 21
2.1608307 1.577439 0.70611572 22
2.1600366 1.5762815 0.60803258 19
2.1563311 1.5730006 0.5109089 18
2.1697173 1.5821855 0.41878232 18
2.1604035 1.5748161 0.3235631 22
2.1765583 1.5860106 0.23227006 22
2.1740079 1.5835713 0.13895196 23
2.1607335 1.5733249 0.045987088 16
1.5780163 1.1469172 -0.5124619 3
1.8164033 1.3196945 -0.50951445 3
2.0960782 1.5223315 -0.49565825 4
2.172967 1.5775948 -0.41924468 11
2.1757462 1.5790327 -0.3253915 9
2.1879387 1.5872983 -0.23314197 22
2.1773393 1.5790288 -0.13848959 18
2.1802206 1.5805378 -0.045873195 21
2.1702344 1.5727206 0.70740896 21
2.1734166 1.5744483 0.61028039 18
2.1697598 1.5712217 0.5128153 18
2.1792276 1.5774981 0.41956365 18
2.1739283 1.5730839 0.32478178 22
2.1861169 1.5813224 0.23270582 20
2.1876147 1.5818244 0.13947532 21
2.1743155 1.5716301 0.046161614 17
1.5820103 1.1414019 -0.5124619 3
1.8209988 1.313346 -0.50951445 3
2.1013794 1.5150056 -0.49565825 4
2.1824672 1.5728877 -0.42002687 11
2.1852713 1.5743291 -0.32600087 8
2.2015498 1.5854729 -0.23401353 22
2.1868901 1.5743362 -0.13875039 18
2.1897819 1.5758377 -0.045959584 21
2.1835525 1.5707765 0.70999545 22
2.1868105 1.5725409 0.6125282 18
2.183202 1.569368 0.51472169 18
2.1927419 1.5756452 0.42112628 19
2.1874673 1.5712764 0.32600048 21
2.1997154 1.5794922 0.23357739 22
2.1971793 1.5770901 0.139737 23
2.1838498 1.5669452 0.046248872 17
1.5820583 1.1330605 -0.51116782 3
1.8216109 1.3041458 -0.50838971 3
2.1066549 1.507661 -0.49565825 4
2.1959772 1.5710065 -0.42159122 11
2.198827 1.5724651 -0.32721955 8
2.211123 1.5806754 -0.23444931 23
2.2004972 1.572499 -0.139272 20
2.2034054 1.5739963 -0.046132363 20
2.1968834 1.5687584 0.71258199 21
2.2002172 1.5705593 0.61477602 17
2.192662 1.5645885 0.51567489 17
2.2062697 1.5737172 0.4226889 18
2.1969795 1.5665122 0.32660982 23
2.2092717 1.5746952 0.23401317 22
2.2108042 1.5752058 0.14026035 22
2.1974504 1.5651131 0.046423398 17
1.5860038 1.1275312 -0.51116782 3
1.8261522 1.2977792 -0.50838971 3
2.1159065 1.503141 -0.49661148 5
2.2095008 1.5690503 -0.42315558 11
2.2083495 1.5676531 -0.32782891 8
2.2247512 1.5787123 -0.23532088 22
2.2141182 1.5705861 -0.13979362 19
2.2129643 1.569187 -0.046218757 20
2.2102268 1.5666664 0.71516848 21
2.2096612 1.5656862 0.61589992 18
2.206121 1.5625993 0.51758122 17
2.2157803 1.5688603 0.42347023 18
2.210536 1.5645682 0.32782853 22
2.2228873 1.5727277 0.23488472 22
2.2244425 1.5732455 0.14078373 24
2.2110643 1.5632049 0.04659792 17
1.5780919 1.1136342 -0.50728554 3
1.8306711 1.2913967 -0.50838971 3
2.1211405 1.495746 -0.49661148 5
2.223037 1.5670186 -0.4247199 10
2.2219217 1.565652 -0.32904762 8
2.2383926 1.5766736 -0.23619244 22
2.22367 1.5657227 -0.14005443 19
2.2266045 1.5672076 -0.046391536 19
2.2235823 1.5645002 0.71775496 22
2.2230835 1.5635692 0.61814773 18
2.2195923 1.560535 0.51948762 17
