# .PCD v0.7 - Point Cloud Data file format
VERSION 0.7
FIELDS x y z intensity
SIZE 4 4 4 4
TYPE F F F F
COUNT 1 1 1 1
WIDTH 1427
HEIGHT 1
VIEWPOINT 0 0 0 1 0 0 0
POINTS 1427
DATA ascii
1.5388047 1.7222694 0.19871509 15
1.529495 1.7112484 0.11827926 13
1.5183001 1.6981266 0.03909339 19
1.3111955 1.4639196 -0.51634425 3
1.4722408 1.6431458 -0.50051636 4
1.5292184 1.7061385 -0.43751371 10
1.5387512 1.7161715 -0.35901737 14
1.5498084 1.7278967 -0.28029981 13
1.5390818 1.7153351 -0.1982796 12
1.529754 1.7043406 -0.11762486 14
1.5285379 1.7023877 -0.038875591 10
1.5295352 1.7029008 0.60265553 18
1.539717 1.7136347 0.52261579 12
1.5283182 1.7003514 0.43656024 12
1.5378859 1.7103956 0.35784012 13
1.528988 1.6999028 0.27603403 14
1.5481386 1.7205901 0.19915086 14
1.5387993 1.7096101 0.11854094 13
1.5275633 1.6965315 0.039180648 19
1.3195323 1.4629201 -0.51763833 3
1.4779674 1.6379968 -0.50051636 4
1.5417421 1.7080772 -0.43942013 10
1.5447325 1.7107898 -0.35901737 14
1.5591571 1.7261592 -0.28090915 13
1.5483996 1.713648 -0.1987154 12
1.5390422 1.7026947 -0.11788567 13
1.5378236 1.7007496 -0.038961977 10
1.5387101 1.7011331 0.60394883 19
1.5489579 1.7118622 0.5237397 12
1.5375378 1.6986449 0.43751341 12
1.5471616 1.7086776 0.35862142 13
1.5382441 1.6982334 0.2766434 13
1.5574799 1.7188667 0.19958664 14
1.5447576 1.7042283 0.11854094 13
1.5368344 1.6948925 0.039267913 20
1.327878 1.46188 -0.5189324 3
1.4869525 1.6364336 -0.50164115 4
1.5575993 1.7135813 -0.44227967 9
1.5540172 1.709041 -0.35979956 14
1.5685123 1.7243775 -0.28151849 13
1.5543718 1.7082326 -0.1987154 11
1.5483375 1.7010045 -0.11814647 13
1.547117 1.699068 -0.03904837 10
1.5478911 1.6993222 0.60524201 18
1.5582057 1.7100463 0.5248636 12
1.5434577 1.6932676 0.43751341 12
1.5564443 1.706916 0.35940275 13
1.5475072 1.6965201 0.27725273 13
1.5668278 1.7170991 0.20002241 14
1.5540633 1.7025135 0.11880261 13
1.5461121 1.6932093 0.039355174 19
1.3362327 1.4607997 -0.52022654 3
1.4926558 1.6312331 -0.50164115 4
1.5701995 1.7153748 -0.44418606 8
1.5633085 1.7072483 -0.36058176 14
1.5778739 1.7225513 -0.28212786 14
1.5636903 1.7064689 -0.19915117 12
1.5576396 1.6992702 -0.11840729 13
1.556417 1.6973417 -0.039134759 10
1.5570784 1.6974682 0.60653532 18
1.5674592 1.7081864 0.52598751 14
1.5526782 1.6914856 0.43846661 12
1.5657333 1.7051102 0.36018407 13
1.556777 1.6947629 0.2778621 13
1.5761822 1.715287 0.20045821 14
1.5633758 1.7007545 0.11906429 13
1.5553969 1.6914818 0.039442439 18
1.3413237 1.4561263 -0.52022654 3
1.4983407 1.6260128 -0.50164115 4
1.5828311 1.7171012 -0.44609243 14
1.5726061 1.7054114 -0.36136392 13
1.5872421 1.7206807 -0.2827372 14
1.5730155 1.7046609 -0.19958696 12
1.5669487 1.6974916 -0.11866809 13
1.565724 1.6955714 -0.039221149 10
1.5662713 1.6955702 0.60782856 17
1.5767189 1.7062827 0.52711141 15
1.561905 1.6896598 0.43941984 12
1.5750285 1.7032602 0.36096537 13
1.5660532 1.6929612 0.27847141 14
1.5855432 1.7134306 0.200894 14
1.572695 1.6989512 0.11932597 13
1.5646884 1.6897103 0.039529696 18
1.3496827 1.4549762 -0.52152056 3
1.5073211 1.6243438 -0.50276589 3
1.5988332 1.7223575 -0.44895202 13
1.5819101 1.7035306 -0.36214611 14
1.5966164 1.7187659 -0.28334656 13
1.5823468 1.7028083 -0.20002273 12
1.5762639 1.6956688 -0.11892891 13
1.5750375 1.6937566 -0.039307538 11
1.5754703 1.6936291 0.6091218 17
1.5826654 1.7007686 0.52711141 14
1.5744822 1.6913828 0.4413262 12
1.5843301 1.7013663 0.3617467 13
1.5753359 1.6911159 0.27908078 13
1.5915146 1.7078856 0.200894 14
1.5820205 1.6971034 0.11958765 13
1.5739866 1.6878945 0.039616961 19
1.3547534 1.4502561 -0.52152056 3
1.5129819 1.6190723 -0.50276589 3
1.6081874 1.7203517 -0.44990519 11
1.5912198 1.7016052 -0.36292824 13
1.6059964 1.7168061 -0.28395587 13
1.5916843 1.7009115 -0.20045851 12
1.5855857 1.6938016 -0.11918971 13
1.5843575 1.6918975 -0.039393932 10
1.5846744 1.6916442 0.61041504 17
1.5919241 1.6987888 0.52823532 13
1.5837333 1.6894572 0.44227937 13
1.5936375 1.6994278 0.362528 13
1.5846248 1.6892259 0.27969012 13
1.6008747 1.7059518 0.20132977 14
1.5913523 1.6952114 0.11984934 13
1.5867134 1.6896787 0.039791483 18
1.3598075 1.4455181 -0.52152056 3
1.5186243 1.6137812 -0.50276589 4
1.6175472 1.7183015 -0.45085838 10
1.6005354 1.6996357 -0.36371043 13
1.6153824 1.7148021 -0.28456524 14
1.6010281 1.6989701 -0.20089431 12
1.5949136 1.6918899 -0.11945052 13
1.5936835 1.6899939 -0.039480317 11
1.593884 1.6896156 0.61170834 18
1.6011881 1.6967649 0.52935922 13
1.5929905 1.6874881 0.44323257 12
1.6029507 1.6974455 0.36330932 13
1.5905116 1.6836843 0.27969012 13
1.6102409 1.7039737 0.20176555 14
1.60069 1.6932745 0.12011101 13
1.5960366 1.6877618 0.039878745 19
1.3648449 1.4407628 -0.52152056 3
1.5275995 1.6120067 -0.50389069 4
1.6235353 1.7126447 -0.45085838 7
1.6098566 1.6976217 -0.3644926 15
1.6247739 1.7127533 -0.28517458 14
1.6103776 1.6969843 -0.20133008 12
1.6042475 1.6899337 -0.11971132 14
1.5995728 1.6844206 -0.039480317 10
1.6030985 1.6875433 0.61300153 18
1.6104571 1.6946969 0.53048313 14
1.6022528 1.6854744 0.44418573 12
1.6122693 1.6954185 0.36409062 13
1.5997995 1.6817176 0.28029948 14
1.6196129 1.7019508 0.20220132 13
1.6100338 1.6912934 0.1203727 13
1.605366 1.6858007 0.03996601 18
1.3698659 1.4359899 -0.52152056 3
1.5332171 1.6066647 -0.50389069 4
1.6295036 1.7069671 -0.45085838 6
1.6191833 1.6955637 -0.36527479 14
1.6341708 1.71066 -0.28578395 14
1.6197326 1.6949538 -0.20176587 12
1.6135869 1.6879327 -0.11997214 13
1.6088979 1.6824398 -0.039566711 10
1.612318 1.6854273 0.61429483 18
1.6197315 1.6925852 0.53160703 15
1.6081264 1.6798713 0.44418573 11
1.6215932 1.6933472 0.36487195 13
1.6090932 1.6797069 0.28090885 14
1.6289903 1.6998832 0.20263711 14
1.6228384 1.6928719 0.12089606 13
1.6147008 1.6837949 0.040053267 18
1.3748701 1.4311993 -0.52152056 3
1.5388161 1.601303 -0.50389069 4
1.6320505 1.6977303 -0.44990519 5
1.6250921 1.6899012 -0.36527479 13
1.6435724 1.7085216 -0.28639328 14
1.6290931 1.6928785 -0.20220163 12
1.622932 1.6858872 -0.12023295 13
1.6182287 1.6804144 -0.0396531 10
1.6215422 1.6832672 0.61558807 18
1.6290106 1.6904292 0.53273094 15
1.6173871 1.6777812 0.44513896 12
1.6309224 1.6912313 0.36565322 13
1.6183921 1.6776516 0.28151816 14
1.6383729 1.6977707 0.20307288 14
1.6322057 1.6907893 0.12115774 13
1.6240414 1.6817446 0.040140532 18
1.3764995 1.4229203 -0.52022654 3
1.5410082 1.5924206 -0.50276589 3
1.6550364 1.7096559 -0.45467114 5
1.6344166 1.6877658 -0.36605695 13
1.6529794 1.7063386 -0.28700262 14
1.6384587 1.6907586 -0.20263742 12
1.6322824 1.6837971 -0.12049376 13
1.6275649 1.6783444 -0.03973949 10
1.6307713 1.6810637 0.61688131 16
1.6382942 1.6882288 0.53385484 16
1.6266525 1.6756471 0.44609213 12
1.6402565 1.6890709 0.36643454 13
1.6276964 1.6755518 0.28212753 14
1.6477605 1.6956136 0.20350866 14
1.6415781 1.6886617 0.12141941 13
1.6299019 1.6760653 0.040140532 20
1.3814582 1.4181068 -0.52022654 3
1.5465574 1.5870317 -0.50276589 3
1.678125 1.7214414 -0.45943707 6
1.643746 1.6855861 -0.36683914 14
1.6623909 1.7041106 -0.28761196 13
1.6478293 1.6885937 -0.20307319 12
1.6416379 1.6816621 -0.12075458 13
1.6369064 1.6762297 -0.039825883 10
1.6400042 1.6788157 0.61817455 16
1.6475824 1.6859845 0.53497875 17
1.6359229 1.6734687 0.44704533 12
1.6495953 1.6868658 0.36721584 13
1.6370057 1.6734073 0.28273687 14
1.657153 1.6934114 0.20394443 14
1.6509554 1.6864892 0.1216811 13
1.6392405 1.6739377 0.040227797 19
1.3830177 1.4098282 -0.5189324 3
1.5555003 1.585101 -0.50389069 4
1.701316 1.7330865 -0.46420303 5
1.6530796 1.6833614 -0.36762127 14
1.6683292 1.6982974 -0.28761196 13
1.657205 1.6863843 -0.20350897 12
1.6509985 1.6794822 -0.12101538 13
1.6462528 1.6740701 -0.039912272 9
1.6458545 1.6730807 0.61817455 15
1.6534576 1.6802231 0.53497875 16
1.6451976 1.6712458 0.44799849 12
1.6554735 1.6810974 0.36721584 13
1.6463199 1.6712185 0.28334624 13
1.6665503 1.6911646 0.20438023 15
1.6568323 1.6807162 0.1216811 13
1.6485835 1.6717647 0.040315058 18
1.3879304 1.404992 -0.5189324 3
1.5610238 1.5796617 -0.50389069 4
1.7177073 1.737609 -0.46706262 5
1.6624181 1.6810924 -0.36840346 14
1.6777374 1.6959916 -0.28822133 13
1.6665847 1.6841297 -0.20394474 12
1.6603638 1.6772575 -0.12127619 13
1.655604 1.6718658 -0.039998662 10
1.6550837 1.6707568 0.61946785 12
1.662742 1.6779019 0.53610265 13
1.654477 1.6689788 0.44895169 12
1.6648091 1.6788154 0.36799717 13
1.6556382 1.6689847 0.28395554 13
1.6724435 1.6853369 0.20438023 14
1.6662068 1.6784661 0.12194277 13
1.6579318 1.6695473 0.040402319 18
1.3928262 1.4001386 -0.5189324 3
1.5665283 1.574203 -0.50389069 3
1.7306876 1.7385596 -0.46896899 6
1.6717608 1.6787785 -0.36918563 14
1.6871496 1.6936408 -0.28883067 14
1.6759694 1.6818303 -0.20438054 13
1.6697334 1.6749878 -0.12153699 13
1.6684901 1.6731563 -0.040171444 9
1.6609055 1.6649693 0.61946785 12
1.6720301 1.675536 0.53722656 12
1.6637603 1.666667 0.44990486 11
1.6741487 1.6764883 0.36877847 14
1.6649616 1.6667064 0.28456491 13
1.681837 1.6830119 0.20481598 14
1.6755856 1.6761711 0.12220446 13
1.6672845 1.667285 0.04048958 19
1.3942872 1.3918561 -0.51763833 3
1.5754621 1.5721663 -0.50501537 4
1.7436957 1.7394407 -0.47087535 7
1.6811075 1.6764201 -0.36996782 14
1.6965661 1.691245 -0.28944001 14
1.6853579 1.6794856 -0.20481631 13
1.6791077 1.6726731 -0.12179781 13
1.6778625 1.6708493 -0.04025783 10
1.6701303 1.6625689 0.62076104 11
1.6778687 1.6696894 0.53722656 11
1.6730478 1.6643111 0.45085809 12
1.6834925 1.6741167 0.36955979 13
1.6742889 1.6643831 0.28517425 14
1.6912347 1.680642 0.20525178 15
1.6849687 1.6738307 0.12246613 14
1.6766416 1.6649776 0.040576845 20
1.3991371 1.3869808 -0.51763833 3
1.5809404 1.5666574 -0.50501537 3
1.7497568 1.7333435 -0.47087535 9
1.6904582 1.6740165 -0.37074998 15
1.705986 1.6888037 -0.29004934 14
1.6947507 1.677096 -0.2052521 12
1.6884859 1.6703132 -0.12205861 14
1.6872394 1.6684977 -0.040344223 10
1.6793584 1.6601245 0.62205434 11
1.6871525 1.6672472 0.53835046 11
1.6823388 1.6619101 0.45181125 11
1.6928399 1.6717 0.37034109 14
1.6836203 1.6620152 0.28578362 13
1.7006361 1.6782267 0.20568755 14
1.6943558 1.6714456 0.12272782 13
1.6860027 1.6626251 0.040664103 23
1.4039701 1.3820884 -0.51763833 3
1.5898721 1.5645467 -0.50614017 4
1.7452996 1.7168988 -0.46801579 16
1.6998124 1.6715682 -0.37153217 14
1.7154099 1.6863177 -0.29065871 14
1.7005944 1.67117 -0.2052521 14
1.6978681 1.6679083 -0.12231942 14
1.6966201 1.6661007 -0.040430613 11
1.6885898 1.6576358 0.62334752 12
1.6929619 1.6613477 0.53835046 12
1.6916336 1.6594648 0.45276445 13
1.7021909 1.6692384 0.37112242 15
1.6929553 1.659602 0.28639293 15
1.7064838 1.6722802 0.20568755 16
1.7037468 1.6690152 0.12298949 14
1.6953682 1.6602274 0.040751368 25
1.4087859 1.3771791 -0.51763833 3
1.5953237 1.5589874 -0.50614017 3
1.740749 1.7005066 -0.46515623 17
1.70917 1.6690747 -0.3723143 15
1.7248369 1.683786 -0.29126805 15
1.7099825 1.6687025 -0.20568787 12
1.7072541 1.6654582 -0.12258023 15
1.7024257 1.6601683 -0.040430613 12
1.6943657 1.6517315 0.62334752 11
1.70224 1.6588283 0.53947437 11
1.7009318 1.6569748 0.45371762 11
1.7080073 1.6632866 0.37112242 14
1.7022942 1.6571442 0.2870023 15
1.7158805 1.6697872 0.20612334 14
1.7095624 1.6630578 0.12298949 13
1.7047369 1.6577846 0.040838629 27
1.4135846 1.3722532 -0.51763833 3
1.604252 1.5568018 -0.50726491 3
1.7255362 1.6739142 -0.45943707 15
1.718531 1.6665366 -0.3730965 14
1.7307039 1.677755 -0.29126805 14
1.7193741 1.6661898 -0.20612365 12
1.7130572 1.6594887 -0.12258023 14
1.7118016 1.6576934 -0.040517002 12
1.7035912 1.6491663 0.62464082 10
1.70802 1.6528763 0.53947437 10
1.7067053 1.6510272 0.45371762 12
1.7173531 1.6607475 0.37190372 12
1.7080684 1.6511919 0.2870023 15
1.7216988 1.6637874 0.20612334 14
1.7189484 1.6605494 0.12325118 14
1.7141095 1.6552967 0.04092589 19
1.4183661 1.3673105 -0.51763833 3
1.6096765 1.5511925 -0.50726491 3
1.7384384 1.6746912 -0.46134344 15
1.7278951 1.6639531 -0.37387866 13
1.7401252 1.6751453 -0.29187742 12
1.7251796 1.6601778 -0.20612365 12
1.7224379 1.6569605 -0.12284105 13
1.721181 1.6551732 -0.040603392 10
1.7093375 1.6432096 0.62464082 9
1.7172921 1.6502799 0.54059827 10
1.7159978 1.6484601 0.45467082 11
1.7231396 1.6547427 0.37190372 13
1.7174017 1.6486565 0.28761163 11
1.7310899 1.6612163 0.20655911 14
1.7247343 1.654539 0.12325118 12
1.7198771 1.6493032 0.04092589 19
1.4266189 1.3656908 -0.5189324 3
1.6186012 1.5489327 -0.50838971 3
1.7513672 1.6753985 -0.4632498 16
1.7336929 1.6579114 -0.37387866 13
1.749549 1.6724902 -0.29248673 13
1.7345653 1.6575869 -0.20655942 11
1.7282112 1.650938 -0.12284105 12
1.7269483 1.649155 -0.040603392 10
1.7185564 1.6405678 0.62593406 10
1.7265669 1.6476389 0.54172218 11
1.7252929 1.6458482 0.45562398 11
1.7324792 1.6521261 0.37268505 13
1.7267382 1.6460757 0.288221 13
1.740484 1.6585999 0.20699489 14
1.7341144 1.6519524 0.12351285 13
1.729244 1.6467373 0.041013151 19
1.4313773 1.3607028 -0.5189324 3
1.6275296 1.5466291 -0.50951445 4
1.7607635 1.6726556 -0.46420303 16
1.7430506 1.6552503 -0.37466085 13
1.7589759 1.6697898 -0.2930961 13
1.7439537 1.6549507 -0.20699522 12
1.737586 1.6483316 -0.12310185 12
1.736322 1.6465569 -0.040689785 10
1.727778 1.6378819 0.62722731 11
1.7358441 1.6449533 0.54284608 11
1.7345909 1.6431911 0.45657721 13
1.7418214 1.649464 0.37346631 15
1.7360774 1.64345 0.28883031 14
1.7498807 1.6559377 0.20743066 15
1.7434975 1.6493205 0.12377454 13
1.7386141 1.6441261 0.041100416 20
1.4361185 1.355698 -0.5189324 3
1.6364619 1.5442824 -0.51063919 4
1.7665914 1.6664993 -0.46420303 16
1.7524105 1.6525439 -0.37544301 13
1.7684048 1.6670436 -0.29370543 14
1.75697 1.6556853 -0.20786677 13
1.7469637 1.6456802 -0.12336266 14
1.7456985 1.6439131 -0.040776171 11
1.7370013 1.6351513 0.62852055 11
1.7451234 1.6422228 0.54396999 11
1.743891 1.6404893 0.45753035 12
1.754764 1.6501404 0.37502894 14
1.7454197 1.6407791 0.28943968 15
1.7629099 1.6566414 0.20830221 15
1.7528833 1.6466433 0.12403621 13
1.7479869 1.6414692 0.041187678 62
1.4408419 1.3506768 -0.5189324 3
1.6453972 1.5418919 -0.51176393 3
1.7795619 1.6670336 -0.4661094 16
1.7617731 1.6497924 -0.3762252 15
1.7778362 1.6642522 -0.2943148 15
1.7663757 1.6529454 -0.20830254 14
1.7563438 1.6429831 -0.12362346 15
1.7550777 1.6412243 -0.040862564 14
1.7462268 1.6323764 0.62981385 11
1.7579647 1.6427741 0.5462178 12
1.7567804 1.6410933 0.45943674 12
1.7641231 1.6473758 0.37581027 14
1.754764 1.6380628 0.29004902 15
1.7723237 1.6538761 0.208738 15
1.7622716 1.6439205 0.12429789 15
1.7573621 1.638767 0.041274939 20
1.449083 1.3489298 -0.52022654 4
1.6507694 1.5361389 -0.51176393 3
1.7889642 1.6641548 -0.46706262 16
1.7711376 1.6469955 -0.37700737 15
1.7872696 1.6614151 -0.29492414 14
1.7794322 1.6535509 -0.2091741 15
1.7657268 1.6402408 -0.12388428 15
1.7681226 1.6418915 -0.041035343 12
1.7625337 1.6361288 0.63369364 11
1.7672596 1.6399417 0.5473417 11
1.7660968 1.6382891 0.46038994 12
1.7734838 1.6445657 0.37659156 19
1.7677504 1.6386753 0.29126769 13
1.7817394 1.6510648 0.20917377 16
1.7753253 1.6445453 0.12482125 15
1.7667398 1.6360193 0.0413622 36
1.4537828 1.3438634 -0.52022654 3
1.6596996 1.5336739 -0.51288873 3
1.7983674 1.6612303 -0.46801579 15
1.7805041 1.6441535 -0.37778956 13
1.7967046 1.6585325 -0.29553348 21
1.7888539 1.6507074 -0.20960988 20
1.7751116 1.6374527 -0.12414508 18
1.7811934 1.6424875 -0.041208126 20
1.7753366 1.6365136 0.63628012 16
1.7801391 1.640366 0.54958951 17
1.7790248 1.6387651 0.46229634 19
1.7864795 1.6450558 0.37815419 18
1.7771109 1.6358558 0.29187706 23
1.7948225 1.6515808 0.21004534 25
1.78473 1.6417186 0.12508292 23
1.7761198 1.6332264 0.041449465 19
1.4620228 1.3420464 -0.52152056 3
1.6650431 1.527871 -0.51288873 3
1.8077723 1.6582606 -0.46896899 14
1.793512 1.6446035 -0.37935388 13
1.8061413 1.655604 -0.29614282 19
1.80195 1.6511832 -0.21048145 25
1.7881805 1.6379918 -0.1246667 24
1.7942899 1.6430124 -0.041380905 20
1.7917261 1.6400899 0.64015985 20
1.7930429 1.6407201 0.55183733 22
1.7883559 1.6358581 0.46324947 25
1.7958555 1.6421424 0.37893552 24
1.7901363 1.6363392 0.29309577 21
1.8042537 1.6486657 0.21048112 23
1.797823 1.6422137 0.12560628 28
1.7891935 1.6337585 0.041623987 19
1.4702678 1.3401883 -0.52281469 3
1.6703662 1.5220497 -0.51288873 3
1.8171782 1.6552457 -0.46992216 13
1.8028933 1.6416578 -0.38013604 13
1.8192495 1.6559706 -0.29736155 26
1.8113866 1.6482354 -0.2109172 22
1.8012747 1.6384596 -0.12518832 21
1.803713 1.6401024 -0.041467294 26
1.8045883 1.640323 0.64274633 25
1.8023649 1.6377277 0.55296123 28
1.8013219 1.636206 0.4651559 21
1.8088893 1.6425035 0.38049814 27
1.8031867 1.6367514 0.29431444 25
1.8173752 1.649052 0.21135268 27
1.8109411 1.6426376 0.12612964 26
1.7985888 1.6308612 0.041711248 21
1.4785175 1.338289 -0.52410877 3
1.675669 1.5162098 -0.51288873 3
1.8265852 1.6521848 -0.47087535 13
1.8159392 1.641979 -0.38170043 13
1.8287004 1.6529379 -0.29797086 28
1.8208249 1.6452419 -0.211353 24
1.8106883 1.6355089 -0.12544914 24
1.8131374 1.6371466 -0.041553684 28
1.8210591 1.6437224 0.64662611 27
1.8153052 1.637954 0.55520904 24
1.8106668 1.6331955 0.46610907 22
1.8182793 1.6394866 0.38127947 21
1.8125752 1.6337698 0.29492378 27
1.8268206 1.6460322 0.21178845 31
1.820374 1.639648 0.12639134 26
1.8117009 1.6312633 0.041885771 21
1.4867721 1.3363484 -0.5254029 3
1.6845751 1.5136073 -0.51401347 3
1.8359929 1.6490786 -0.47182852 14
1.8253341 1.6389296 -0.38248259 13
1.8418455 1.6531743 -0.29918957 27
1.830264 1.6422024 -0.21178877 24
1.8238206 1.6358465 -0.12597075 24
1.8225631 1.6341448 -0.041640073 22
1.8303821 1.6405793 0.64791936 28
1.8246402 1.6348585 0.55633295 22
1.8200129 1.6301399 0.46706229 23
1.8276706 1.6364238 0.38206074 21
1.8256629 1.6340522 0.29614249 26
1.8399794 1.646288 0.21266001 30
1.8335297 1.639941 0.12691469 27
1.821111 1.6282616 0.041973036 23
1.4950308 1.3343663 -0.52669698 3
1.6934837 1.5109613 -0.51513821 3
1.849064 1.6491939 -0.47373492 14
1.8347299 1.6358345 -0.38326478 13
1.85131 1.6500371 -0.29979894 29
1.8397044 1.6391172 -0.21222456 25
1.8332481 1.632791 -0.12623155 24
1.8319902 1.6310974 -0.041726466 22
1.8397057 1.6373913 0.64921266 27
1.8376156 1.6349564 0.55858076 23
1.8293597 1.627039 0.46801546 22
1.8370622 1.6333156 0.38284209 21
1.8350651 1.6309665 0.29675183 26
1.8494385 1.6431637 0.21309578 29
1.8429762 1.6368467 0.12717636 26
1.8305221 1.6252139 0.042060297 22
1.4996794 1.3291396 -0.52669698 3
1.6987475 1.5050409 -0.51513821 3
1.858484 1.6459838 -0.47468811 14
1.8441263 1.6326936 -0.38404691 13
1.8607746 1.6468538 -0.30040827 29
1.8491454 1.635986 -0.21266034 26
1.8426769 1.6296899 -0.12649237 24
1.8414179 1.6280037 -0.041812852 23
1.8490289 1.6341578 0.65050584 26
1.8469628 1.6317577 0.55970466 24
1.8423859 1.6271417 0.46992183 24
1.8501569 1.6334301 0.38440469 21
1.8444679 1.6278347 0.2973612 25
1.858898 1.6399932 0.21353158 28
1.8524235 1.6337062 0.12743805 28
1.8436837 1.6254263 0.042234819 22
1.5079355 1.3270875 -0.52799106 3
1.7076485 1.5023198 -0.51626295 3
1.8679039 1.6427277 -0.47564128 15
1.8535234 1.6295072 -0.3848291 12
1.8739673 1.6469005 -0.30162695 29
1.8585865 1.6328087 -0.21309611 25
1.8558578 1.6298375 -0.12701398 26
1.8508465 1.6248645 -0.041899245 22
1.8583521 1.6308794 0.65179914 26
1.8563098 1.6285136 0.56082857 25
1.8517447 1.623937 0.47087502 22
1.8595607 1.6302173 0.38518599 22
1.8538711 1.6246573 0.29797053 26
1.8721046 1.6400589 0.21440314 30
1.8656278 1.6338093 0.12796141 26
1.8531079 1.6222738 0.042322084 24
1.5089221 1.3186376 -0.52669698 3
1.7128822 1.4963498 -0.51626295 3
1.8773239 1.6394262 -0.47659451 14
1.8629204 1.6262749 -0.38561127 12
1.883444 1.6436121 -0.30223632 27
1.8680283 1.6295854 -0.21353191 26
1.8652991 1.6266314 -0.1272748 24
1.8602754 1.6216788 -0.041985635 22
1.8676748 1.6275558 0.65309232 26
1.8693303 1.6284243 0.56307638 23
1.8648051 1.6239101 0.47278142 24
1.8689649 1.626959 0.38596731 22
1.8632747 1.6214341 0.2985799 24
1.8815759 1.636783 0.21483891 30
1.8750874 1.6305636 0.12822309 24
1.8625323 1.6190751 0.042409342 20
1.5135158 1.3133625 -0.52669698 3
1.714415 1.4871694 -0.51513821 3
1.8867432 1.6360786 -0.47754765 14
1.8723174 1.622997 -0.38639346 13
1.8929203 1.6402777 -0.30284566 28
1.8812352 1.6295775 -0.21440347 26
1.8785151 1.6266474 -0.12779641 23
1.8697047 1.6184474 -0.042072024 21
1.8806494 1.6273472 0.65567887 25
1.8786879 1.6250767 0.56420028 23
1.874175 1.6206011 0.47373459 21
1.878369 1.6236547 0.38674861 20
1.8764333 1.6214097 0.29979858 25
1.8910477 1.6334612 0.21527469 29
1.888326 1.6305349 0.12874645 26
1.8757415 1.619097 0.042583872 20
1.5144324 1.3049188 -0.5254029 3
1.7195957 1.4811758 -0.51513821 3
1.8961623 1.6326854 -0.47850087 13
1.881714 1.619673 -0.38717562 13
1.9023961 1.636897 -0.30345502 26
1.8906881 1.6262487 -0.21483923 24
1.8879677 1.6233356 -0.12805721 24
1.8829252 1.6184283 -0.042244807 23
1.8899819 1.6239203 0.65697211 26
1.8880448 1.6216832 0.56532419 24
1.8835444 1.6172465 0.47468778 22
1.8877726 1.6203047 0.38752994 20
1.885848 1.6180813 0.30040792 26
1.9042994 1.6333358 0.21614625 29
1.8977968 1.6271836 0.12900813 26
1.8851774 1.6157929 0.042671129 20
1.5189781 1.2996244 -0.5254029 3
1.7210529 1.4719977 -0.51401347 3
1.9055805 1.6292462 -0.47945404 12
1.8948647 1.6195118 -0.38873994 13
1.9156448 1.636694 -0.3046737 26
1.9039284 1.6261089 -0.21571079 24
1.89742 1.6199777 -0.12831803 23
1.8923657 1.6150914 -0.0423312 22
1.899313 1.6204478 0.65826535 26
1.9011079 1.6214061 0.567572 22
1.8929132 1.6138464 0.47564095 22
1.8971757 1.6169087 0.38831124 21
1.8952625 1.614707 0.30101728 26
1.9137812 1.6299081 0.21658202 28
1.907267 1.623786 0.12926981 25
1.8946134 1.6124427 0.042758394 22
1.5198247 1.2911872 -0.52410877 3
1.7261807 1.4659811 -0.51401347 3
1.911256 1.6225847 -0.47945404 12
1.9042715 1.6160833 -0.38952214 13
1.9251304 1.6332073 -0.30528304 23
1.9133918 1.6226746 -0.21614657 24
1.9106809 1.6198024 -0.12883966 23
1.9056197 1.6149402 -0.042503979 22
1.9123284 1.6200521 0.66085184 26
1.9104741 1.6179087 0.5686959 23
1.9060276 1.6135718 0.47754732 21
1.9103477 1.6166569 0.38987383 20
1.9084649 1.6144919 0.30223596 25
1.9270657 1.6296506 0.21745357 29
1.9167365 1.6203419 0.12953149 25
1.9078672 1.6122732 0.04293292 20
1.5243225 1.2858742 -0.52410877 3
1.7387362 1.466228 -0.51626295 3
1.920661 1.6190667 -0.48040724 10
1.9136775 1.6126086 -0.3903043 12
1.9346153 1.629675 -0.30589241 23
1.9228544 1.6191941 -0.21658234 24
1.9201432 1.6163385 -0.12910046 24
1.9150705 1.6114974 -0.042590369 22
1.9216678 1.6164761 0.66214514 26
1.919839 1.6143656 0.56981981 23
1.9154055 1.610067 0.47850055 21
1.9197605 1.613156 0.39065516 20
1.9178888 1.6110122 0.3028453 25
1.9365572 1.6261171 0.21788937 27
1.9262053 1.6168516 0.12979317 24
1.9173129 1.6088169 0.043020178 21
1.5288018 1.2805456 -0.52410877 3
1.7513145 1.4664053 -0.51851249 3
1.9300649 1.6155028 -0.48136041 9
1.9230824 1.6090878 -0.39108649 12
1.9479054 1.6292799 -0.30711108 24
1.9361371 1.6188624 -0.21745391 24
1.9296048 1.6128284 -0.12936127 24
1.9283568 1.6112136 -0.042763148 22
1.9310057 1.6128547 0.66343844 25
1.932942 1.6138992 0.57206756 23
1.9247822 1.6065162 0.47945368 21
1.9291716 1.6096085 0.39143646 20
1.9273117 1.6074865 0.30345467 26
1.9460471 1.6225369 0.21832512 29
1.9395088 1.6165118 0.13031653 24
1.9267579 1.6053145 0.043107443 20
1.5369756 1.2782896 -0.5254029 3
1.7601687 1.4633975 -0.51963723 3
1.939467 1.6118932 -0.48231363 8
1.9324859 1.6055208 -0.39186865 12
1.9573987 1.6256411 -0.30772042 24
1.9456086 1.6152757 -0.2178897 23
1.9390652 1.6092718 -0.12962207 24
1.9378169 1.6076647 -0.042849541 21
1.9440593 1.6122707 0.66602492 26
1.9423149 1.6102519 0.57319152 23
1.9379365 1.6060514 0.48136008 20
1.9423846 1.609166 0.39299908 18
1.9367334 1.6039144 0.30406398 25
1.9555358 1.6189103 0.21876092 28
1.9489862 1.6129152 0.1305782 24
1.9400538 1.6049526 0.043281965 20
1.5451523 1.2759919 -0.52669698 3
1.7690233 1.4603461 -0.52076203 3
1.9450818 1.6051133 -0.48231363 7
1.9456975 1.6050508 -0.39343297 12
1.9668901 1.6219562 -0.30832979 23
1.9589221 1.6148112 -0.21876125 23
1.9523777 1.6088442 -0.13014369 23
1.9472752 1.604069 -0.042935926 23
1.9534037 1.6085449 0.66731817 25
1.9516852 1.6065584 0.57431537 22
1.9473212 1.602396 0.48231328 20
1.9518037 1.6055135 0.39378041 20
1.9499866 1.603448 0.30528268 24
1.9650227 1.6152372 0.21919669 28
1.9584624 1.609272 0.13083988 24
1.9495074 1.6013439 0.043369226 20
1.5495969 1.2705905 -0.52669698 3
1.7778779 1.4572506 -0.52188677 3
1.958266 1.6045356 -0.48422 7
1.9551089 1.6013786 -0.39421517 12
1.9763794 1.6182243 -0.30893913 23
1.9684013 1.6111182 -0.21919702 23
1.9618461 1.6051812 -0.1304045 23
1.9567325 1.6004272 -0.04302232 20
1.9664848 1.6078309 0.66990465 25
1.9610535 1.6028192 0.57543933 21
1.9567034 1.5986943 0.48326644 19
1.965046 1.6049386 0.39534304 18
1.9594162 1.5997703 0.30589205 23
1.974508 1.6115178 0.21963248 27
1.9718056 1.608739 0.13136324 23
1.9628334 1.6008482 0.043543749 19
1.5540227 1.2651737 -0.52669698 3
1.7867326 1.4541109 -0.52301151 3
1.9524326 1.5883976 -0.48136041 6
1.9683496 1.6007758 -0.39577952 12
1.9858669 1.6144463 -0.30954847 23
1.9817441 1.6105201 -0.22006857 23
1.9751883 1.6046201 -0.13092612 23
1.9700687 1.5998901 -0.043195099 19
1.9758351 1.604001 0.67119795 25
1.9742028 1.6021043 0.57768714 22
1.9698957 1.5980388 0.48517281 19
1.974472 1.6011801 0.39612433 19
1.9726986 1.5991712 0.30711073 24
1.9878608 1.6108875 0.22050403 27
1.9812888 1.6049891 0.13162492 25
1.9722946 1.5971332 0.043631013 18
1.5621855 1.2627777 -0.52799106 3
1.7917974 1.4478651 -0.52301151 3
1.9617835 1.5846568 -0.48231363 5
1.9777675 1.5969977 -0.39656168 12
1.9992136 1.6137385 -0.31076717 23
1.9912301 1.6067206 -0.22050437 21
1.9846638 1.6008505 -0.13118692 22
1.979533 1.5961416 -0.043281488 19
1.988943 1.6031564 0.67378443 25
1.9835769 1.5982602 0.57881105 22
1.9792844 1.5942317 0.48612604 18
1.9877425 1.6004726 0.39768693 19
1.9860009 1.5984989 0.30832943 24
1.9973525 1.6070613 0.2209398 27
1.994661 1.6043222 0.13214828 24
1.9817537 1.5933713 0.043718275 18
1.566584 1.2573168 -0.52799106 3
1.7968405 1.4416018 -0.52301151 3
2.0055928 1.6085081 -0.49184549 9
1.9910361 1.5962626 -0.39812601 12
2.0087068 1.6098537 -0.31137651 24
2.0046012 1.6059889 -0.22137593 23
1.9980345 1.6001554 -0.13170855 22
1.9889952 1.5923465 -0.043367881 19
1.9982977 1.5992217 0.67507768 24
1.9967526 1.5974134 0.58105886 21
1.9925038 1.5934442 0.4880324 19
1.9971747 1.5966083 0.39846826 19
1.9954453 1.5946547 0.30893877 25
2.0107334 1.6062973 0.22181135 27
2.0041506 1.6004657 0.13240996 21
1.9951175 1.5926818 0.043892797 18
1.5671861 1.2488309 -0.52669698 3
1.8018616 1.4353209 -0.52301151 3
2.0419126 1.6259575 -0.49947101 8
2.0043232 1.5954539 -0.39969036 12
2.0220809 1.6090125 -0.31259522 24
2.0140929 1.6020823 -0.2218117 22
2.0075164 1.596279 -0.13196936 23
2.0023685 1.5916152 -0.04354066 19
2.0114307 1.5982459 0.67766416 25
2.0099466 1.5964943 0.58330667 21
2.0057418 1.5925835 0.4899388 18
2.0104721 1.5957675 0.40003088 19
2.008775 1.5938489 0.31015745 22
2.024133 1.6054592 0.22268291 26
2.01755 1.5996643 0.13293332 21
2.0045826 1.5888131 0.043980062 19
1.5677483 1.2403562 -0.5254029 3
1.8068609 1.4290224 -0.52301151 3
2.0514262 1.6218641 -0.50042421 7
2.0137551 1.5915099 -0.40047255 12
2.0354733 1.6080973 -0.31381392 22
2.0274909 1.6012161 -0.22268325 24
2.0169952 1.5923556 -0.13223016 22
2.0118363 1.587713 -0.04362705 19
2.0207894 1.5942065 0.67895746 24
2.0193324 1.5924854 0.58443058 21
2.0151432 1.5886114 0.49089199 19
2.0199091 1.5917969 0.40081221 19
2.0182245 1.5898983 0.31076682 24
2.033638 1.6014656 0.22311871 26
2.0270452 1.5957006 0.133195 22
2.0140452 1.5848976 0.044067323 19
1.5682703 1.2318927 -0.52410877 3
1.811838 1.4227065 -0.52301151 3
2.0532141 1.6116626 -0.49947101 7
2.0270684 1.5905681 -0.40203691 12
2.0449791 1.6040453 -0.31442326 24
2.0369875 1.5972027 -0.22311905 24
2.0304008 1.5914658 -0.13275178 21
2.0252364 1.5868474 -0.043799829 20
2.0339468 1.5930994 0.68154395 24
2.0325513 1.591434 0.58667839 21
2.0284066 1.5876179 0.49279836 19
2.0332322 1.5908226 0.40237483 18
2.0315802 1.5889586 0.31198549 23
2.0470638 1.600493 0.22399026 27
2.0404708 1.5947645 0.13371836 22
2.0274441 1.5840133 0.044241846 17
1.5687525 1.223441 -0.52281469 3
1.8129511 1.413378 -0.52188677 3
2.0626988 1.6075029 -0.50042421 6
2.0365043 1.5865177 -0.4028191 12
2.0583966 1.6029955 -0.31564194 22
2.0504112 1.596202 -0.2239906 21
2.0398846 1.5874354 -0.13301259 21
2.0347095 1.5828379 -0.043886222 19
2.0471206 1.5919195 0.68413043 22
2.0457871 1.5903096 0.5889262 21
2.0378115 1.5835394 0.49375153 19
2.0465732 1.5897748 0.40393746 18
2.0449538 1.5879447 0.3132042 23
2.0605075 1.5994461 0.22486182 26
2.053915 1.5937545 0.13424173 23
2.0369112 1.5799909 0.044329111 18
1.5691948 1.2150007 -0.52152056 3
1.8178736 1.4070411 -0.52188677 3
2.0682976 1.600293 -0.50042421 6
2.0498424 1.5854419 -0.40438342 12
2.0679059 1.5988363 -0.31625131 24
2.0599117 1.5920812 -0.22442639 21
2.0533156 1.5864108 -0.13353421 21
2.0481353 1.5818377 -0.044059001 19
2.056488 1.5877156 0.68542367 23
2.0551829 1.5861356 0.5900501 20
2.0510991 1.5824128 0.49565789 19
2.0560207 1.5856373 0.40471876 18
2.054415 1.583827 0.31381357 22
2.0700233 1.5952845 0.2252976 26
2.0634212 1.5896225 0.13450339 22
2.0503356 1.5789715 0.044503633 19
1.5695975 1.2065724 -0.52022654 3
1.8189111 1.3977184 -0.52076203 3
2.0738711 1.5930635 -0.50042421 6
2.0592809 1.5812845 -0.40516558 11
2.0813475 1.5976517 -0.31747001 23
2.0733597 1.5909454 -0.22529794 21
2.0628028 1.5822726 -0.13379502 22
2.0615788 1.5807624 -0.04423178 18
2.0696843 1.586404 0.68801016 23
2.0684416 1.5848784 0.59229791 20
2.0605071 1.578228 0.49661112 18
2.0693853 1.5844554 0.40628135 17
2.0678127 1.5826787 0.31503224 23
2.0834913 1.5941025 0.22616915 25
2.0768898 1.5884769 0.13502677 21
2.0637779 1.5778776 0.044678159 18
1.566121 1.1952262 -0.51763833 3
1.8160321 1.3854508 -0.51851249 3
2.083322 1.588791 -0.5013774 6
2.0726428 1.5800748 -0.40672994 11
2.094806 1.5963928 -0.31868869 24
2.0868251 1.5897353 -0.22616951 22
2.0762584 1.581113 -0.13431664 22
2.0710621 1.5765848 -0.044318173 19
2.0828962 1.5850194 0.69059664 22
2.0778389 1.5805982 0.59342182 20
2.0699105 1.573997 0.49756429 18
2.0827668 1.5831995 0.40784398 18
2.077276 1.5784535 0.31564158 23
2.0930095 1.5898329 0.22660492 25
2.0863986 1.5842372 0.13528845 21
2.0772371 1.5767093 0.044852681 18
1.5702835 1.189752 -0.51763833 3
1.8092062 1.3702788 -0.51513821 3
2.0888553 1.5815092 -0.5013774 6
2.0820835 1.5758106 -0.40751213 11
2.1082811 1.5950594 -0.3199074 22
2.0963345 1.5854455 -0.22660528 20
2.089731 1.5798782 -0.13483825 21
2.0845294 1.5753742 -0.044490952 20
2.0922704 1.5806506 0.69188994 22
2.0911193 1.5792078 0.59566957 20
2.0832269 1.5726767 0.49947065 19
2.0961645 1.5818692 0.4094066 17
2.0867352 1.5741819 0.31625095 22
2.1064999 1.5885152 0.22747648 26
2.0998902 1.582956 0.13581181 22
2.0907133 1.5754659 0.045027204 18
1.5705674 1.1813602 -0.51634425 3
1.8061906 1.3580995 -0.51288873 3
2.0943632 1.5742081 -0.5013774 6
2.0954678 1.5744662 -0.40907648 11
2.1178041 1.5906706 -0.32051674 22
2.109822 1.5840998 -0.22747684 21
2.10322 1.5785687 -0.13535988 22
2.0940146 1.5710884 -0.044577342 19
2.1055026 1.5791332 0.69447643 23
2.1005173 1.5748216 0.59679353 20
2.0926316 1.568339 0.50042385 18
2.1095784 1.5804648 0.41096923 17
2.1001618 1.5728379 0.31746963 23
2.1160195 1.5841376 0.22791228 27
2.1094007 1.578608 0.13607349 21
2.1002033 1.5711532 0.045114469 18
1.5746815 1.1758708 -0.51634425 3
1.7913996 1.3372148 -0.50726491 3
2.0998454 1.566888 -0.5013774 6
2.1049092 1.5700948 -0.40985861 11
2.1313007 1.5892016 -0.32173541 20
2.1193328 1.5797024 -0.22791262 20
2.1127212 1.5742007 -0.13562068 21
2.1075048 1.569742 -0.04475012 20
2.1187499 1.5775428 0.69706297 22
2.1138182 1.5732975 0.59904134 20
2.1059692 1.5668844 0.50233024 18
2.119045 1.5760387 0.41175056 17
2.1096218 1.5684583 0.31807896 24
2.1295319 1.582684 0.22878383 26
2.1229143 1.5771906 0.13659684 22
2.1137016 1.5697737 0.045288995 16
1.5748967 1.1674907 -0.51505011 3
1.8117135 1.3425561 -0.51176393 3
2.1053021 1.5595485 -0.5013774 6
2.1183147 1.5686153 -0.41142297 11
2.1408236 1.584705 -0.32234478 17
2.1328418 1.5782204 -0.22878417 22
2.1262319 1.5727551 -0.1361423 22
2.1169913 1.5653483 -0.044836514 18
2.1281276 1.5730083 0.69835621 23
2.1232157 1.5688046 0.60016519 20
2.1153738 1.5624397 0.50328338 17
2.1324797 1.5744992 0.41331318 17
2.1230695 1.5669789 0.31929767 21
2.1390517 1.5781981 0.2292196 24
2.1324251 1.5727344 0.13685852 19
2.1231921 1.5653527 0.045376252 17
1.5750726 1.1591237 -0.51375604 3
1.8242373 1.3419977 -0.51401347 3
2.110733 1.5521902 -0.5013774 6
2.1277564 1.5641366 -0.41220516 11
2.1503413 1.580161 -0.32295412 16
2.1423521 1.5737145 -0.22921994 20
2.1397583 1.5712343 -0.13666391 21
2.1305025 1.5638653 -0.045009293 18
2.1413937 1.5712849 0.70094275 23
2.1365356 1.5671468 0.602413 21
2.1287315 1.5608509 0.50518978 17
2.1419456 1.5699652 0.41409445 18
2.1325297 1.5624917 0.31990701 22
2.1525843 1.5766081 0.23009115 23
2.1459596 1.5711806 0.13738188 21
2.1367116 1.5638371 0.045550779 16
1.5752091 1.1507695 -0.5124619 3
1.8407141 1.3442416 -0.51738775 3
2.1201026 1.547707 -0.5023306 6
2.1411817 1.5625222 -0.41376951 11
2.1598535 1.5755702 -0.32356349 14
2.1558816 1.5720962 -0.23009151 21
2.1492648 1.5666968 -0.13692473 20
2.1399887 1.559363 -0.045095682 17
2.1546733 1.5694878 0.70352924 21
2.145932 1.5625473 0.60353696 20
2.1381352 1.5562992 0.50614297 17
2.1514063 1.5653845 0.41487581 17
2.1459975 1.5608764 0.32112572 22
2.1621032 1.5720137 0.23052694 25
2.1595089 1.5695515 0.13790524 22
2.1462021 1.5593075 0.04563804 16
1.5753068 1.1424286 -0.51116782 3
1.8453952 1.3378081 -0.51738775 3
2.1254923 1.5402969 -0.5023306 6
2.1546214 1.5608327 -0.41533384 11
2.1693594 1.5709318 -0.32417279 13
2.1694255 1.5704025 -0.23096307 22
2.162811 1.5650392 -0.13744634 22
2.1535201 1.5577437 -0.045268461 17
2.1640525 1.5647869 0.70482248 23
2.15927 1.5607551 0.60578477 20
2.1515117 1.5545756 0.50804937 17
2.1648643 1.5636485 0.4164384 17
2.1594801 1.559186 0.32234439 21
2.1756551 1.5702872 0.23139849 23
2.1730733 1.5678469 0.1384286 21
2.1597414 1.557655 0.045812566 17
1.559687 1.1228143 -0.50469732 3
1.8460991 1.3285125 -0.51626295 3
2.1308558 1.5328681 -0.5023306 5
2.1680753 1.5590686 -0.41689819 11
2.1788597 1.5662465 -0.32478216 12
2.1789391 1.565727 -0.23139885 18
2.1723163 1.5603932 -0.13770714 20
2.1670661 1.5560486 -0.045441244 18
2.1773489 1.5628563 0.70740896 22
2.1686635 1.5560488 0.60690868 20
2.164902 1.5527773 0.50995576 18
2.1743228 1.55896 0.4172197 17
2.1689432 1.5545297 0.32295373 22
2.1851723 1.5655841 0.23183426 24
2.1825919 1.563159 0.13869028 21
2.1692302 1.5530168 0.045899823 15
1.5753851 1.1257871 -0.50857961 3
1.8507254 1.3220603 -0.51626295 3
2.1361938 1.5254208 -0.5023306 5
2.1815434 1.5572295 -0.41846254 11
2.1923928 1.5643964 -0.32600087 11
2.1925015 1.5638965 -0.23227042 19
2.1858809 1.5585986 -0.13822877 20
2.1765556 1.5513763 -0.045527633 17
2.1867247 1.5580491 0.70870227 23
2.1820188 1.5541221 0.60915649 18
2.1783056 1.5509046 0.5118621 18
2.1877985 1.5570877 0.41878232 17
2.1824436 1.5527029 0.32417244 20
2.1987419 1.5637203 0.23270582 23
2.1961741 1.5613172 0.13921364 19
2.1827881 1.5512271 0.046074349 17
1.5871837 1.1258698 -0.51116782 3
1.8553289 1.3155921 -0.51626295 3
2.1415052 1.5179548 -0.5023306 5
2.1950245 1.5553151 -0.42002687 10
2.20189 1.5596026 -0.32661018 9
2.2060773 1.5619903 -0.23314197 20
2.1994591 1.556728 -0.13875039 20
2.1901197 1.5495442 -0.045700416 17
2.2000365 1.5559843 0.71128875 23
2.1953869 1.552121 0.6114043 20
2.1917229 1.548957 0.51376849 17
2.1972539 1.5522912 0.41956365 16
2.1959581 1.550801 0.32539111 20
2.2123256 1.5617812 0.23357739 23
2.20977 1.5593995 0.139737 19
2.1963596 1.5493617 0.046248872 17
1.599002 1.1258837 -0.51375604 3
1.867878 1.314716 -0.51851249 3
2.146791 1.5104703 -0.5023306 5
2.2085192 1.5533257 -0.42159122 10
2.2113805 1.5547614 -0.32721955 9
2.2196665 1.5600082 -0.23401353 20
2.2089658 1.5519115 -0.1390112 20
2.1996064 1.5447628 -0.045786802 17
2.2094073 1.5510703 0.71258199 22
2.2087674 1.5500456 0.61365211 17
2.2051528 1.5469345 0.51567489 17
2.210746 1.5502827 0.42112628 17
2.2094853 1.5488235 0.32660982 21
2.2259221 1.5597661 0.23444895 22
2.2233794 1.5574057 0.14026035 21
2.209945 1.5474205 0.046423398 16
1.6108395 1.1258286 -0.51634425 3
1.8764495 1.3109782 -0.51963723 3
2.1520505 1.5029674 -0.5023306 5
2.2220263 1.5512609 -0.42315558 11
2.2208641 1.549873 -0.32782891 9
2.233269 1.5579505 -0.23488508 18
2.2225606 1.5499036 -0.13953282 19
2.2131877 1.5427933 -0.045959584 16
2.2227335 1.5488713 0.71516848 22
2.2261577 1.5506802 0.61702383 18
2.218595 1.5448371 0.51758122 18
2.2283041 1.5510205 0.42347023 16
2.2230258 1.5467706 0.32782853 21
2.2395313 1.557675 0.23532051 23
2.2370014 1.555336 0.14078373 20
2.2235432 1.5454032 0.04659792 18
1.6068231 1.1146933 -0.51375604 3
1.8890212 1.3099725 -0.52188677 3
2.1572835 1.4954462 -0.5023306 5
2.2355459 1.5491205 -0.4247199 10
2.2344198 1.5477631 -0.32904762 9
2.2468836 1.5558164 -0.23575665 19
2.2361686 1.5478196 -0.14005443 19
2.2308927 1.543592 -0.046218757 17
2.2360711 1.546598 0.71775496 23
2.239572 1.5484415 0.61927158 18
2.2360873 1.5454556 0.52044082 18
2.2458942 1.5516543 0.42581412 18
2.2406621 1.5474617 0.32965657 22
2.2531531 1.5555077 0.23619208 26
2.2547455 1.5560261 0.14156875 20
2.2494993 1.5518262 0.047034234 18
1.6027485 1.1035994 -0.51116782 3
1.8935822 1.3033707 -0.52188677 3
2.1624906 1.4879068 -0.5023306 5
2.2450089 1.5441062 -0.42550209 12
2.2479875 1.5455773 -0.3302663 9
2.2646158 1.5564278 -0.23706399 26
2.2580197 1.5513142 -0.14109766 20
2.2568724 1.5499463 -0.046650708 19
2.2534018 1.546984 0.72163475 24
2.2529979 1.546128 0.62151939 20
2.2495632 1.5431938 0.52234721 19
2.2675884 1.5549769 0.42893937 22
2.2583301 1.5480489 0.33148462 21
2.2750046 1.5588953 0.23793519 29
2.2725217 1.5566112 0.1423538 26
2.2631524 1.5496132 0.047208756 25
nan nan nan 0
1.8699613 1.2775153 -0.51401347 3
2.1676712 1.4803492 -0.5023306 5
2.2585425 1.5418291 -0.42706645 12
2.2697659 1.5489103 -0.33270368 10
2.286494 1.5597409 -0.23880711 64
2.2757974 1.5518622 -0.1418801 25
2.2870543 1.5589535 -0.047169048 44
2.2667708 1.544548 0.72422123 29
2.2704611 1.5464826 0.62489116 25
2.2671077 1.5436192 0.52520674 26
2.2893331 1.5581672 0.43206459 57
2.2760293 1.5485311 0.33331263 30
2.2927883 1.5593479 0.23924251 79
2.2944584 1.5598983 0.14340052 55
2.301626 1.5641838 0.047906853 87
nan nan nan 0
1.8663446 1.2655118 -0.51176393 3
2.1728253 1.4727736 -0.5023306 5
2.2761757 1.5422462 -0.42941296 19
2.2998123 1.557676 -0.33635977 21
2.3042982 1.5601275 -0.24011444 81
2.3018761 1.5579019 -0.14318414 79
2.3090444 1.5621659 -0.04751461 101
2.2801499 1.5420375 0.72680777 39
2.2919905 1.5494622 0.62938678 71
2.2806158 1.5411925 0.52711314 76
2.3070352 1.5584599 0.43440855 97
2.2855337 1.543354 0.333922 66
2.3023462 1.554122 0.23967829 111
2.3247235 1.5686365 0.1449706 98
2.3070719 1.5561402 0.047906853 101
nan nan nan 0
1.8707507 1.2589892 -0.51176393 3
2.177953 1.46518 -0.5023306 5
nan nan nan 0
2.3052356 1.5496385 -0.33635977 72
2.2973273 1.5437403 -0.23880711 40
2.3073001 1.5498573 -0.14318414 105
2.3186338 1.5568832 -0.047600996 87
2.2815084 1.531377 0.72551447 75
2.2973855 1.5414523 0.62938678 103
2.2900579 1.5359563 0.52806634 94
2.3042574 1.544897 0.43284592 28
2.2909071 1.5353668 0.333922 82
nan nan nan 0
2.3052926 1.5438421 0.14340052 90
2.2875643 1.5313911 0.047383279 20
nan nan nan 0
nan nan nan 0
2.1789722 1.4548432 -0.5013774 5
2.3033173 1.537284 -0.43254164 52
nan nan nan 0
2.302702 1.5357118 -0.23880711 11
2.3002324 1.5334848 -0.14240173 51
2.3032537 1.5349184 -0.047169048 13
2.28684 1.5234038 0.72551447 17
nan nan nan 0
2.2994914 1.5306729 0.52901947 13
nan nan nan 0
2.2921205 1.5246122 0.33331263 15
2.3172874 1.5407687 0.24011406 15
2.285717 1.5192022 0.14183044 12
2.251256 1.4957314 0.046510659 12
nan nan nan 0
1.8226448 1.2082134 -0.49601737 3
2.1840372 1.4472283 -0.5013774 4
nan nan nan 0
nan nan nan 0
2.2997413 1.522166 -0.23793554 9
2.2930784 1.5171804 -0.14161928 12
2.3085976 1.5268693 -0.047169048 11
2.2800572 1.507421 0.72163475 7
nan nan nan 0
2.3048203 1.5226369 0.52901947 5
nan nan nan 0
2.3015699 1.519336 0.333922 6
nan nan nan 0
2.3160145 1.5277107 0.14340052 10
2.2981994 1.5153837 0.047383279 10
nan nan nan 0
nan nan nan 0
2.1890757 1.4395957 -0.5013774 4
2.3263733 1.5293049 -0.43488818 8
2.3503687 1.5444912 -0.3406252 12
2.3050406 1.5141292 -0.23793554 6
2.2900128 1.5036856 -0.14109766 13
2.3264513 1.5270312 -0.047428217 6
2.3135724 1.5180001 0.73068756 7
nan nan nan 0
2.3060164 1.5118911 0.52806634 6
2.3657448 1.5504603 0.44144034 13
2.3151619 1.516732 0.33514068 5
nan nan nan 0
2.3380435 1.530556 0.14444724 8
2.3202078 1.5183018 0.047732327 9
nan nan nan 0
nan nan nan 0
2.1940875 1.4319457 -0.5013774 5
nan nan nan 0
2.3599026 1.5389885 -0.34123453 8
2.3436933 1.5278348 -0.24142179 14
2.3328984 1.5202175 -0.14344496 8
2.2940674 1.4943433 -0.046650708 12
2.3309994 1.5178212 0.73456728 5
2.4044321 1.5650389 0.65298879 11
2.3359649 1.5198935 0.53378546 10
2.3670025 1.5395002 0.44065902 14
2.3329244 1.5167564 0.33696872 16
nan nan nan 0
2.3601203 1.5332661 0.14549395 15
2.3380716 1.518362 0.047994114 8
nan nan nan 0
nan nan nan 0
2.1990726 1.424278 -0.5013774 4
2.3494296 1.5210781 -0.43723467 7
2.352761 1.5226523 -0.33940649 7
2.3741047 1.5358777 -0.24403645 13
2.3465762 1.5174876 -0.14396657 8
2.3286583 1.5053242 -0.047255438 10
2.3646798 1.5280248 0.74362004 5
2.4057877 1.5539929 0.65186483 12
2.3577497 1.5223801 0.53759819 14
2.4055567 1.5526539 0.44690952 14
2.3507149 1.5166754 0.33879676 13
2.3804328 1.5352612 0.24447185 11
2.3822443 1.5358407 0.14654067 15
2.3517618 1.5156075 0.048168641 8
nan nan nan 0
1.855728 1.1931869 -0.50051636 3
2.2040308 1.4165932 -0.5013774 4
2.3713439 1.5235454 -0.44036335 7
2.3747647 1.5251576 -0.34184387 6
2.3920259 1.5356537 -0.24534379 13
2.3728704 1.5227714 -0.14527062 14
2.3465223 1.5052847 -0.04751461 14
2.3903279 1.5327969 0.75008625 10
2.4235024 1.5534732 0.6552366 12
2.3795803 1.5247329 0.54141092 10
2.3901684 1.5309292 0.44300297 12
2.3601739 1.5111364 0.3394061 12
2.3857775 1.5269425 0.24447185 11
2.3960028 1.5328974 0.14706403 12
2.3612497 1.5100826 0.048255898 9
nan nan nan 0
1.8680958 1.1919429 -0.50276589 3
2.2089622 1.4088911 -0.5013774 4
2.3683195 1.5099488 -0.43879902 6
2.3926291 1.5248605 -0.34367192 5
2.4015729 1.529971 -0.24577957 12
2.4034412 1.5305718 -0.14683546 11
2.3686316 1.5078231 -0.047860172 12
2.416038 1.5374085 0.75655258 10
2.4412429 1.5528488 0.65860826 13
2.4014556 1.5269519 0.54522371 11
2.4080014 1.5305239 0.44534689 12
2.3738122 1.5082114 0.34062478 11
2.399502 1.523946 0.2453434 11
2.40977 1.5298769 0.14758739 14
2.3707275 1.5045099 0.048343163 16
nan nan nan 0
nan nan nan 0
2.2138667 1.4011719 -0.5013774 3
2.3568823 1.4911113 -0.43567032 5
2.4105206 1.5244572 -0.34549999 6
2.4153192 1.526902 -0.24665113 11
2.4045486 1.5195055 -0.14657466 12
2.3781071 1.5022156 -0.047946557 12
2.4377251 1.5392804 0.76172554 12
2.4384086 1.5391167 0.65636045 12
2.4192245 1.5264175 0.54808331 13
2.4175067 1.5247437 0.44612822 12
2.3874583 1.5052094 0.34184349 9
2.4132352 1.5208725 0.24621499 12
2.4235449 1.5267788 0.14811075 13
2.3801949 1.4988891 0.048430424 14
nan nan nan 0
nan nan nan 0
2.2145877 1.390825 -0.50042421 4
2.4080808 1.5117583 -0.44427425 7
2.4284377 1.5239472 -0.34732801 5
2.424854 1.5211085 -0.24708691 10
2.409838 1.5111029 -0.14657466 10
2.3833363 1.4939054 -0.047946557 9
2.4553618 1.5384551 0.76560533 13
2.4437664 1.5305958 0.65636045 13
2.4328582 1.5231727 0.54998964 12
2.4311869 1.5215358 0.44769084 10
2.4011126 1.5021307 0.34306216 9
2.4311988 1.5203624 0.24752231 10
2.4330938 1.5209566 0.14837244 11
2.3896523 1.4932209 0.048517689 12
nan nan nan 0
1.8556695 1.1568512 -0.49601737 2
2.2152634 1.3804903 -0.49947101 4
2.4049602 1.4981213 -0.44270989 6
2.4337425 1.5154612 -0.34732801 6
2.4343774 1.5152669 -0.24752268 9
2.415098 1.5026819 -0.14657466 9
2.3927817 1.4882171 -0.048032951 9
2.4730222 1.5375253 0.76948506 13
2.45737 1.5271994 0.65860826 13
2.4506681 1.5224414 0.55284917 13
2.4448743 1.5182506 0.44925344 9
2.4147742 1.4989749 0.3442809 7
2.4449558 1.5171192 0.24839386 9
2.442631 1.5150862 0.14863411 12
2.39485 1.4848703 0.048517689 10
nan nan nan 0
nan nan nan 0
2.2200687 1.3727491 -0.49947101 4
2.3849702 1.4741383 -0.43801686 4
2.4474616 1.5121737 -0.34854671 5
2.4481277 1.5119948 -0.24839425 9
2.4203286 1.4942424 -0.14657466 7
2.3937075 1.4772303 -0.047946557 6
2.4865954 1.5339551 0.7720716 13
2.4709802 1.5237268 0.66085607 13
2.464324 1.5190287 0.55475557 13
2.4627724 1.5174791 0.45159736 8
2.428443 1.4957417 0.34549958 6
2.4629612 1.5164096 0.2497012 10
2.4521573 1.5091676 0.1488958 10
2.4000187 1.4765018 0.048517689 10
nan nan nan 0
nan nan nan 0
2.2201877 1.3631996 -0.49851784 4
2.3727541 1.4563055 -0.43488818 5
2.4522002 1.5044773 -0.34854671 4
2.4571118 1.5069005 -0.24883004 6
2.4207537 1.4840215 -0.14631385 8
2.394074 1.4670908 -0.047860172 7
2.503758 1.5337043 0.77595139 12
2.48822 1.523589 0.66422778 11
2.4774566 1.5164042 0.55666196 12
2.4759526 1.5148896 0.45315999 8
2.4458308 1.4958731 0.34732762 5
2.4804621 1.5164589 0.25100854 8
2.4654074 1.506664 0.14941916 8
2.4046452 1.4689546 0.048517689 8
1.6491296 1.0054485 -0.50728554 2
1.8797656 1.1456136 -0.49939165 2
2.2249327 1.3554415 -0.49851784 4
2.3482976 1.4300342 -0.42941296 5
2.465915 1.5010692 -0.34976539 4
2.4666119 1.5009036 -0.2492658 7
2.4344513 1.4807521 -0.14683546 6
2.3949087 1.4561278 -0.047773778 6
2.5173512 1.5299722 0.77853787 12
2.5060148 1.5224835 0.66759956 11
2.4911253 1.5128424 0.5585683 11
2.4896688 1.5113631 0.45472261 8
2.459523 1.4924757 0.3485463 6
2.4942577 1.5129576 0.25188008 7
2.4706516 1.498049 0.14941916 9
2.3841066 1.4450045 0.047994114 7
nan nan nan 0
nan nan nan 0
2.2298856 1.3472775 -0.49851784 4
2.353523 1.4214176 -0.42941296 5
2.4756486 1.4945861 -0.35037476 4
2.4848905 1.4995737 -0.25057316 8
2.4569645 1.4821361 -0.14787871 5
2.3916674 1.4421772 -0.047600996 6
2.5353513 1.5282153 0.7824176 12
2.5240972 1.5208312 0.67097121 10
2.5050626 1.5087667 0.56047469 12
2.5121152 1.5124168 0.45784783 9
2.4607246 1.4808922 0.34793696 5
2.5168591 1.5140761 0.25362322 8
2.4846838 1.4941297 0.14994252 9
2.3893869 1.4362565 0.047994114 6
1.6562822 0.99362189 -0.50728554 2
1.8962716 1.1371442 -0.50164115 2
2.234575 1.3394856 -0.49851784 4
2.3584704 1.4131936 -0.42941296 5
2.493623 1.4935855 -0.35220277 5
2.4986567 1.496008 -0.2514447 8
2.5049679 1.4991928 -0.1504868 13
2.426718 1.4517859 -0.04820573 7
2.5448155 1.521835 0.78371084 14
2.5335722 1.514511 0.67209518 12
2.5187411 1.5050486 0.56238109 13
2.5173793 1.5036387 0.45784783 9
2.474401 1.4773817 0.34915566 6
2.5221288 1.5052813 0.25362322 9
2.5156121 1.5007967 0.15151259 10
2.3256867 1.3869381 0.04659792 6
1.6597404 0.98783433 -0.50728554 3
1.9086032 1.1354998 -0.50389069 2
2.2392371 1.3316773 -0.49851784 4
2.3676341 1.4074759 -0.43019515 5
2.5329518 1.5051534 -0.35707757 6
2.5038636 1.4872769 -0.2514447 8
2.5187726 1.4955384 -0.15100841 16
2.4145746 1.4331 -0.047860172 7
2.5376506 1.5055494 0.77983105 11
2.5472248 1.5106285 0.67434299 11
2.5366457 1.503756 0.56524068 13
2.4928722 1.4772189 0.45237869 8
2.4752731 1.4662062 0.3485463 6
2.5273678 1.4964684 0.25362322 8
2.5165386 1.4894632 0.1512509 10
2.2659745 1.3406279 0.045288995 11
1.6798137 0.99185711 -0.5124619 2
1.8873818 1.1139728 -0.49714214 2
2.2438717 1.3238529 -0.49851784 4
2.3682787 1.3966939 -0.42941296 6
2.4612377 1.4509377 -0.34610933 8
2.4317963 1.4330095 -0.24360067 8
2.4809549 1.4613947 -0.14840032 11
2.354943 1.3866143 -0.046564315 15
2.5095913 1.477083 0.76948506 8
2.5272872 1.4869044 0.66759956 10
2.516494 1.4799633 0.55952156 11
2.5022709 1.4710108 0.45315999 5
2.3862453 1.4022425 0.33514068 6
2.4767432 1.4548408 0.24795809 7
2.4054668 1.4124082 0.14418554 14
2.2533946 1.3225878 0.044939946 5
