# .PCD v0.7 - Point Cloud Data file format
VERSION 0.7
FIELDS x y z intensity
SIZE 4 4 4 4
TYPE F F F F
COUNT 1 1 1 1
WIDTH 1395
HEIGHT 1
VIEWPOINT 0 0 0 1 0 0 0
POINTS 1395
DATA ascii
-0.38795087 -1.0919043 -0.25869387 11
-0.38766149 -1.0904865 -0.21732709 12
-0.37194988 -1.0457116 -0.16973153 20
nan nan nan 0
nan nan nan 0
-0.37983647 -1.066116 -0.057117175 25
-1.2500095 -3.506561 -0.063669577 2
-0.38279456 -1.0732336 0.29486153 36
-0.38621515 -1.0822269 0.25625032 33
-0.38258162 -1.0714545 0.21351418 28
-0.38505024 -1.077774 0.17501351 20
-0.38371849 -1.0734551 0.13527498 26
-0.39197946 -1.0959616 0.098485991 20
-0.39309773 -1.0984836 0.059139628 14
nan nan nan 0
nan nan nan 0
nan nan nan 0
nan nan nan 0
-0.38562515 -1.0722895 -0.17442457 4
nan nan nan 0
-1.182217 -3.2837346 -0.3019951 12
nan nan nan 0
-0.39436197 -1.094184 -0.019437796 4
-0.38490006 -1.0673473 0.29356825 20
-0.38668337 -1.0717064 0.25400251 18
-0.38631937 -1.0701126 0.21351418 13
nan nan nan 0
nan nan nan 0
-1.5645151 -4.3266444 0.39917329 9
-0.402026 -1.1111907 0.05992467 3
-1.3590155 -3.7542393 0.069024265 7
nan nan nan 0
nan nan nan 0
-0.88810384 -2.4440267 -0.49756464 3
-0.37755376 -1.0384483 -0.16894935 2
-1.103951 -3.0347288 -0.39181039 12
-1.1919687 -3.2749074 -0.30155933 13
-1.1732221 -3.221652 -0.17708932 7
-1.2710363 -3.4883547 -0.063496798 10
-2.6963489 -7.3961077 2.0976551 4
nan nan nan 0
-0.39005244 -1.0687575 0.21351418 3
-1.7629721 -4.8279896 0.80709356 5
-1.6667876 -4.5621119 0.59167564 16
-1.5761881 -4.3118 0.39830172 10
-1.4847159 -4.0593724 0.22452125 11
-1.3721119 -3.7494724 0.069024265 7
nan nan nan 0
nan nan nan 0
-0.9067843 -2.4685557 -0.50328374 4
-1.1018063 -2.9978509 -0.49980852 6
-1.1162503 -3.0355146 -0.39241973 13
-1.2068328 -3.2800758 -0.3024309 13
-1.1844606 -3.2175369 -0.17708932 7
-1.2883887 -3.4979701 -0.063755967 10
-2.7254901 -7.3957143 2.1002417 5
-2.9342051 -7.9577889 1.9477273 2
-1.9805038 -5.368391 1.1037921 12
-1.7798141 -4.8218064 0.80709356 6
-1.6775442 -4.5422997 0.58984756 10
-1.5929559 -4.3109441 0.39873752 12
-1.5023396 -4.0635314 0.22504459 13
-1.3886604 -3.7540374 0.069198787 8
-0.66327679 -1.7882727 -0.50081509 2
-0.75910896 -2.0455527 -0.49489263 3
-0.90514463 -2.437767 -0.49756464 4
-1.1139838 -2.9986157 -0.50059068 6
-1.1285684 -3.0362513 -0.39302906 14
-1.2095939 -3.2525003 -0.30025199 11
-1.1956847 -3.213383 -0.17708932 9
-1.2988468 -3.4887664 -0.063669577 11
-2.7496033 -7.3816295 2.0989482 5
-2.9500549 -7.9155412 1.93986 10
-2.000946 -5.366044 1.1047453 14
-1.7966347 -4.8155642 0.80709356 7
-1.6951251 -4.5410657 0.5904569 10
-1.6097372 -4.3100238 0.39917329 10
-1.5182627 -4.0629401 0.22530627 12
-1.3965037 -3.7351193 0.068936996 7
-0.66951495 -1.7859467 -0.50081509 3
-0.76453364 -2.0383286 -0.49376786 3
-0.92227125 -2.4575696 -0.5023306 4
-1.1261801 -2.9993324 -0.50137287 7
-1.1286883 -3.0044191 -0.38937297 10
-1.2244449 -3.2575831 -0.30112356 10
-1.2086518 -3.2138631 -0.17735012 9
-1.3127775 -3.4888904 -0.063755967 12
-2.7736516 -7.3674664 2.0976551 5
-2.9862542 -7.9279914 1.9454794 2
-2.0179336 -5.3544335 1.1037921 10
-1.8169178 -4.8185048 0.80865616 5
-1.7109661 -4.535121 0.5904569 10
-1.6247721 -4.3043785 0.39917329 10
-1.5324358 -4.0576158 0.22530627 13
-1.4113003 -3.7348986 0.069024265 7
-0.67061174 -1.7700497 -0.49693277 3
-0.77337092 -2.0402031 -0.49489263 3
-0.92910355 -2.4497459 -0.5013774 3
-1.1348907 -2.9907656 -0.50059068 7
-1.1391689 -3.0004609 -0.38937297 10
-1.2358085 -3.2532895 -0.30112356 11
-1.2198629 -3.2096243 -0.17735012 8
-1.3249481 -3.4842865 -0.063755967 11
-2.8027868 -7.3667679 2.1002417 5
nan nan nan 0
-2.0383589 -5.3519444 1.1047453 11
-1.8337265 -4.8121333 0.80865616 6
-1.7285541 -4.5337577 0.5910663 9
-1.6397873 -4.2986808 0.39917329 11
-1.5483706 -4.0569072 0.22556797 12
-1.424329 -3.7299495 0.069024265 7
-0.68023998 -1.7767187 -0.49952096 3
-0.78397334 -2.0465901 -0.49714214 3
-0.93940568 -2.451071 -0.5023306 4
-1.1453235 -2.9867861 -0.50059068 7
-1.1496354 -2.9964662 -0.38937297 10
-1.2471571 -3.2489557 -0.30112356 10
-1.2310591 -3.2053468 -0.17735012 8
-1.3371024 -3.4796405 -0.063755967 9
-2.8302181 -7.3614478 2.1015348 5
nan nan nan 0
-2.0570283 -5.3447967 1.1047453 10
-1.8522875 -4.8103123 0.80943751 7
-1.7461535 -4.5323277 0.59167564 10
-1.6565741 -4.2975788 0.39960909 10
-1.5625224 -4.0514774 0.22556797 11
-1.43914 -3.7296188 0.069111526 7
-0.68643773 -1.7743335 -0.49952096 3
-0.79111254 -2.0438411 -0.49714214 3
-0.94972837 -2.452354 -0.50328374 4
-1.1557424 -2.9827697 -0.50059068 6
-1.1600881 -2.992435 -0.38937297 10
-1.2584904 -3.2445824 -0.30112356 10
-1.2422404 -3.20103 -0.17735012 8
-1.35105 -3.4796121 -0.063842356 10
-2.857646 -7.3560262 2.1028283 5
-2.8996687 -7.460341 1.8375846 8
-2.0756724 -5.3375835 1.1047453 11
-1.8708582 -4.8084197 0.81021881 7
-1.7619637 -4.5262046 0.59167564 10
-1.6715654 -4.29177 0.39960909 11
-1.5766553 -4.0459986 0.22556797 10
-1.45215 -3.7245724 0.069111526 7
-0.69438541 -1.7764246 -0.50081509 3
-0.79824209 -2.0410671 -0.49714214 3
-0.95828289 -2.449024 -0.50328374 4
-1.1661471 -2.9787173 -0.50059068 7
-1.1705265 -2.9883673 -0.38937297 11
-1.271626 -3.2448075 -0.30155933 10
-1.2552291 -3.201323 -0.17761093 7
-1.3631879 -3.474875 -0.063842356 9
-2.893894 -7.3729815 2.1105876 5
-2.9452815 -7.5000567 1.8499475 2
-2.0960863 -5.3348737 1.1056983 10
-1.8876314 -4.8018603 0.81021881 7
-1.7795687 -4.5246449 0.59228498 11
-1.6865363 -4.2859092 0.39960909 10
-1.592598 -4.0451164 0.22582965 12
-1.4669745 -3.7241323 0.069198787 8
-0.7023561 -1.7784821 -0.50210917 3
-0.80536187 -2.0382683 -0.49714214 3
-0.96863025 -2.4502285 -0.504237 4
-1.1783541 -2.9792211 -0.50137287 6
-1.1827769 -2.9888778 -0.38998231 10
-1.2829447 -3.2403488 -0.30155933 10
-1.2663963 -3.1969218 -0.17761093 6
-1.3753091 -3.4700954 -0.063842356 9
-2.926734 -7.3807936 2.1157606 9
nan nan nan 0
-2.1146958 -5.3275247 1.1056983 10
-1.9062043 -4.7998319 0.81100017 7
-1.7971843 -4.5230174 0.59289432 10
-1.7033266 -4.2846241 0.40004483 10
-1.6067084 -4.0395327 0.22582965 11
-1.4818137 -3.723634 0.069286048 7
-0.71003872 -1.7806293 -0.50340325 3
-0.81176126 -2.0357282 -0.49714214 3
-0.97632307 -2.4471734 -0.504237 3
-1.1877078 -2.9755044 -0.50137287 6
-1.1921608 -2.9851472 -0.38998231 12
-1.2931182 -3.2363024 -0.30155933 11
-1.2764335 -3.1929276 -0.17761093 8
-1.3880605 -3.4703994 -0.063928746 9
-2.9570847 -7.3894997 2.1209338 10
nan nan nan 0
-2.1332471 -5.3254108 1.1066515 12
-1.9212741 -4.7938194 0.81100017 8
-1.8132319 -4.5219555 0.59350365 10
-1.7186334 -4.2838745 0.40048063 9
-1.6212509 -4.0390983 0.22609131 10
-1.4953676 -3.7235994 0.06937331 7
-0.71593958 -1.7782649 -0.50340325 3
-0.82068253 -2.037401 -0.49826688 3
-0.98669398 -2.4483027 -0.50519013 3
-1.1999338 -2.9759207 -0.50215507 6
-1.2044305 -2.9855702 -0.39059168 10
-1.3062714 -3.2363877 -0.3019951 11
-1.2875711 -3.1884527 -0.17761093 8
-1.400166 -3.465533 -0.063928746 10
-2.9882913 -7.3925667 2.1248136 9
nan nan nan 0
-2.1536646 -5.3224821 1.1076049 11
-1.9398489 -4.7916613 0.81178141 8
-1.8290056 -4.5155988 0.59350365 9
-1.7335764 -4.2778497 0.40048063 10
-1.63534 -4.0334144 0.22609131 11
-1.5083562 -3.7183571 0.06937331 7
-0.72427261 -1.7801025 -0.50469732 3
-0.82630771 -2.0298672 -0.49714214 4
-0.99380958 -2.4401245 -0.504237 4
-1.2108331 -2.9715028 -0.50215507 5
-1.2153649 -2.9811356 -0.39059168 11
-1.3181245 -3.2315781 -0.3019951 11
-1.3011353 -3.1883349 -0.17787173 8
-1.4128585 -3.4603777 -0.063928746 8
-3.0171928 -7.386035 2.1261067 9
nan nan nan 0
-2.1750157 -5.3190966 1.1085581 11
-1.9573982 -4.7845187 0.81178141 8
-1.8474238 -4.5134578 0.59411305 8
-1.7511315 -4.2760763 0.40091643 9
-1.6520052 -4.0320139 0.22635299 11
-1.5238708 -3.7174292 0.069460578 7
-0.73048192 -1.7775633 -0.50469732 3
-0.83524072 -2.0314763 -0.49826688 3
-1.0004538 -2.4321012 -0.50328374 4
-1.2211982 -2.967258 -0.50215507 6
-1.2276533 -2.9814639 -0.39120105 10
-1.3312942 -3.2315629 -0.3024309 11
-1.3141595 -3.1883903 -0.17813255 8
-1.4268347 -3.4600468 -0.064015135 9
-3.0447984 -7.3799224 2.1273999 10
nan nan nan 0
-2.1935697 -5.3114719 1.1085581 12
-1.9759732 -4.7822218 0.8125627 9
-1.8631674 -4.5069814 0.59411305 9
-1.7679509 -4.2745404 0.4013522 9
-1.6660695 -4.0262227 0.22635299 11
-1.5387501 -3.7167063 0.069547832 7
-0.73668236 -1.7750027 -0.50469732 3
-0.84232682 -2.0285482 -0.49826688 3
-1.0089374 -2.4285941 -0.50328374 4
-1.2315483 -2.9629772 -0.50215507 5
-1.238053 -2.9771605 -0.39120105 10
-1.3425663 -3.2268963 -0.3024309 12
-1.325281 -3.1837835 -0.17813255 8
-1.4389038 -3.4550452 -0.064015135 10
-3.0742557 -7.3781657 2.1299863 9
-3.0872846 -7.4057937 1.8420801 6
-2.2139859 -5.3083119 1.1095111 10
-1.9945561 -4.7798524 0.81334406 10
-1.8808002 -4.5050297 0.59472239 9
-1.7828611 -4.2683434 0.4013522 9
-1.6801134 -4.0203824 0.22635299 11
-1.5517144 -3.7113125 0.069547832 7
-0.74287373 -1.7724204 -0.50469732 3
-0.85128671 -2.0300887 -0.49939165 3
-1.0155097 -2.4205315 -0.5023306 3
-1.2437949 -2.9632139 -0.5029372 5
-1.2503592 -2.9773962 -0.39181039 10
-1.3538221 -3.2221899 -0.3024309 12
-1.3383213 -3.1837411 -0.17839335 7
-1.4528935 -3.4546096 -0.064101525 9
-3.1018651 -7.3718419 2.1312797 9
-3.1112263 -7.390481 1.8409562 3
-2.2344072 -5.3050747 1.1104643 11
-2.0112288 -4.7728615 0.81334406 9
-1.8965142 -4.4984374 0.59472239 10
-1.7996854 -4.2666836 0.401788 10
-1.6960784 -4.019094 0.22661468 11
-1.5666044 -3.7104788 0.069635101 6
-0.74717373 -1.7653688 -0.50340325 3
-0.85836792 -2.0271049 -0.49939165 3
-1.0239527 -2.4169719 -0.5023306 4
-1.254131 -2.958854 -0.5029372 5
-1.2607446 -2.9730134 -0.39181039 11
-1.3670068 -3.2220299 -0.30286667 11
-1.3494266 -3.17905 -0.17839335 7
-1.4668976 -3.4541185 -0.064187914 8
-3.1294675 -7.3654146 2.1325729 9
nan nan nan 0
-2.254833 -5.3017602 1.1114175 10
-2.0298107 -4.7703567 0.81412542 10
-1.9141489 -4.4963555 0.59533167 9
-1.8165196 -4.2649579 0.40222374 9
-1.7100974 -4.0131488 0.22661468 10
-1.5795468 -3.7049878 0.069635101 7
-0.75333142 -1.7627499 -0.50340325 3
-0.86160797 -2.015137 -0.49714214 3
-1.0323833 -2.413383 -0.5023306 4
-1.2644516 -2.9544582 -0.5029372 5
-1.2730682 -2.9731569 -0.39241973 10
-1.3782455 -3.2172384 -0.30286667 10
-1.3624823 -3.1789098 -0.17865416 7
-1.480916 -3.4535718 -0.064274311 10
-3.1570625 -7.3588843 2.1338663 9
nan nan nan 0
-2.2752626 -5.2983675 1.1123707 9
-2.0464501 -4.7632422 0.81412542 10
-1.9317924 -4.4942064 0.59594107 10
-1.8333638 -4.2631664 0.40265954 9
-1.7260691 -4.0117421 0.22687636 11
-1.5944465 -3.7040434 0.069722362 7
-0.75948 -1.7601095 -0.50340325 3
-0.86670578 -2.0076442 -0.49601737 3
-1.0408013 -2.4097645 -0.5023306 4
-1.2747569 -2.9500265 -0.5029372 6
-1.2834387 -2.9686949 -0.39241973 10
-1.3914448 -3.21698 -0.30330247 10
-1.3735706 -3.1741345 -0.17865416 6
-1.4929622 -3.4483814 -0.064274311 8
-3.1846504 -7.3522515 2.1351595 10
nan nan nan 0
-2.2937434 -5.2903924 1.1123707 9
-2.0650296 -4.7605996 0.81490666 10
-1.9474683 -4.4874358 0.59594107 10
-1.8502176 -4.2613101 0.4030953 10
-1.7420512 -4.0102715 0.22713803 10
-1.6073663 -3.6984553 0.069722362 7
-0.76561928 -1.7574478 -0.50340325 3
-0.86981541 -1.9956744 -0.49376786 3
-1.0492066 -2.4061167 -0.5023306 4
-1.2870213 -2.9500852 -0.50371939 5
-1.2957786 -2.9687448 -0.39302906 10
-1.4026656 -3.2121031 -0.30330247 11
-1.3866409 -3.1738961 -0.17891496 9
-1.5069925 -3.4477296 -0.064360693 8
-3.2122302 -7.3455153 2.1364527 9
nan nan nan 0
-2.3141644 -5.2868495 1.1133239 9
-2.0836158 -4.7578864 0.81568795 10
-1.9651122 -4.4851561 0.59655041 9
-1.8650811 -4.2548256 0.4030953 9
-1.7580446 -4.008739 0.22739972 11
-1.6222752 -3.6973999 0.069809623 7
-0.77174926 -1.7547646 -0.50340325 3
-0.86892784 -1.974789 -0.48926884 3
-1.0556215 -2.3979473 -0.5013774 4
-1.2973112 -2.9455745 -0.50371939 5
-1.3061336 -2.9642038 -0.39302906 9
-1.4158785 -3.211745 -0.30373824 10
-1.3977114 -3.1690364 -0.17891496 8
-1.5210364 -3.447022 -0.06444709 8
-3.2398019 -7.338676 2.1377459 10
nan nan nan 0
-2.3345888 -5.2832294 1.1142771 9
-2.1042049 -4.7596178 0.81725061 10
-1.9827638 -4.4828081 0.5971598 9
-1.8819375 -4.2528443 0.4035311 9
-1.772027 -4.0025783 0.22739972 10
-1.6351718 -3.6917145 0.069809623 7
-0.77982962 -1.7564741 -0.50469732 3
-0.88174897 -1.9851012 -0.49264312 3
-1.0639855 -2.394248 -0.5013774 3
-1.3075852 -2.9410284 -0.50371939 5
-1.3164728 -2.9596264 -0.39302906 10
-1.427081 -3.2067833 -0.30373824 10
-1.4107959 -3.1686997 -0.17917578 7
-1.5330596 -3.4416919 -0.06444709 9
-3.269331 -7.3361454 2.1403325 9
-3.2732546 -7.3415036 1.845452 3
-2.355016 -5.2795305 1.1152303 10
-2.1228189 -4.7567539 0.81803191 11
-2.0004227 -4.4803905 0.59776908 10
-1.8988028 -4.2507968 0.40396684 9
-1.7880253 -4.000927 0.2276614 10
-1.6500889 -3.6905484 0.069896884 7
-0.78595608 -1.7537413 -0.50469732 3
-0.89265925 -1.9909021 -0.49489263 3
-1.0723366 -2.3905194 -0.5013774 3
-1.3178433 -2.936446 -0.50371939 5
-1.3267957 -2.955013 -0.39302906 10
-1.4382662 -3.2017822 -0.30373824 10
-1.4218481 -3.1637559 -0.17917578 7
-1.547114 -3.4408789 -0.06453348 10
-3.2969005 -7.3290935 2.1416256 9
-3.3068588 -7.3478036 1.8499475 5
-2.3754458 -5.275753 1.1161835 8
-2.1434667 -4.7583203 0.81959456 11
-2.0160501 -4.4733806 0.59776908 9
-1.9136293 -4.244143 0.40396684 9
-1.8040332 -3.9992127 0.22792308 9
-1.6650175 -3.6893222 0.069984145 7
-0.79207301 -1.7509871 -0.50469732 3
-0.90161198 -1.9922122 -0.49601737 4
-1.0806745 -2.3867617 -0.5013774 4
-1.3280854 -2.931828 -0.50371939 6
-1.3391511 -2.9548841 -0.39363843 10
-1.4514906 -3.2012787 -0.30417401 10
-1.4349457 -3.1633205 -0.17943659 6
-1.5591154 -3.4354575 -0.06453348 8
-3.3244605 -7.321939 2.1429191 9
nan nan nan 0
-2.3958778 -5.2718978 1.1171366 7
-2.1641514 -4.7598009 0.82115722 9
-2.0337076 -4.4708333 0.59837842 9
-1.9304956 -4.241971 0.40440264 8
-1.8200513 -3.9974358 0.22818477 10
-1.6799581 -3.6880374 0.070071407 8
-0.79818028 -1.7482116 -0.50469732 4
-0.91260904 -1.9979157 -0.49826688 4
-1.0889993 -2.3829749 -0.5013774 4
-1.3383113 -2.9271743 -0.50371939 5
-1.3494575 -2.9501915 -0.39363843 10
-1.4626563 -3.1961925 -0.30417401 9
-1.445979 -3.1582925 -0.17943659 5
-1.571098 -3.4299941 -0.06453348 8
-3.354023 -7.3190713 2.1455054 9
nan nan nan 0
-2.416312 -5.2679639 1.1180898 8
-2.1848726 -4.7611947 0.82271975 9
-2.0513721 -4.4682174 0.59898782 10
-1.9473701 -4.2397332 0.40483844 8
-1.8339938 -3.9910581 0.22818477 11
-1.6949096 -3.6866932 0.070158668 8
-0.80427784 -1.7454147 -0.50469732 3
-0.91957748 -1.9947181 -0.49826688 4
-1.0973108 -2.379159 -0.5013774 4
-1.3485209 -2.9224849 -0.50371939 5
-1.3618274 -2.9499688 -0.39424777 9
-1.4758927 -3.1955891 -0.30460978 11
-1.4569947 -3.1532257 -0.17943659 6
-1.5830612 -3.4244893 -0.06453348 8
-3.3815782 -7.3117023 2.1467988 9
nan nan nan 0
-2.4367478 -5.2639513 1.1190431 8
-2.2097807 -4.7714643 0.825845 9
-2.0690429 -4.4655323 0.59959716 10
-1.9642525 -4.2374287 0.40527421 9
-1.8500144 -3.989161 0.22844644 11
-1.7098725 -3.6852894 0.070245937 7
-0.81036556 -1.7425966 -0.50469732 3
-0.92653477 -1.991496 -0.49826688 4
-1.1035376 -2.3708642 -0.50042421 4
-1.3607987 -2.9222364 -0.50450158 5
-1.3721163 -2.9451971 -0.39424777 9
-1.4891425 -3.1949327 -0.30504557 11
-1.4679925 -3.1481206 -0.17943659 5
-1.597119 -3.4234729 -0.064619869 7
-3.4091227 -7.3042302 2.1480918 9
nan nan nan 0
-2.457185 -5.2598605 1.1199963 8
-2.2389691 -4.7905664 0.83053291 9
-2.0846181 -4.4582829 0.59959716 9
-1.9811423 -4.2350578 0.40570998 8
-1.8660446 -3.9872017 0.22870812 10
-1.7248458 -3.6838255 0.07033319 8
-0.81644338 -1.7397573 -0.50469732 3
-0.93348074 -1.9882495 -0.49826688 4
-1.1118068 -2.3669977 -0.50042421 4
-1.370991 -2.9174685 -0.50450158 5
-1.3845001 -2.9448807 -0.39485711 9
-1.502406 -3.1942225 -0.30548134 10
-1.4810987 -3.1474953 -0.17969741 6
-1.6111888 -3.4224 -0.064706258 9
-3.4387143 -7.3010244 2.1506784 9
nan nan nan 0
-2.4776232 -5.2556906 1.1209494 9
-2.274637 -4.8229213 0.83756465 7
-2.1022851 -4.4554672 0.60020649 9
-1.9980397 -4.2326207 0.40614575 8
-1.8820837 -3.9851789 0.2289698 10
-1.7376941 -3.6777823 0.07033319 7
-0.82251132 -1.7368969 -0.50469732 3
-0.94250131 -1.9893819 -0.49939165 4
-1.1200624 -2.3631024 -0.50042421 4
-1.3811666 -2.9126654 -0.50450158 5
-1.3947712 -2.9400301 -0.39485711 9
-1.5135467 -3.1889584 -0.30548134 10
-1.4920764 -3.1423061 -0.17969741 5
-1.6231252 -3.416755 -0.064706258 8
-3.4662521 -7.2933393 2.1519716 9
-3.4809358 -7.3209395 1.8611865 6
-2.4980624 -5.2514424 1.1219026 11
-2.3190475 -4.8729239 0.8477217 7
-2.1199584 -4.4525824 0.60081583 8
-2.0149441 -4.2301173 0.40658155 8
-1.8981309 -3.9830923 0.22923149 11
-1.7526729 -3.6762066 0.070420451 6
-0.82856923 -1.7340151 -0.50469732 3
-0.94943976 -1.9860799 -0.49939165 4
-1.1261865 -2.3547504 -0.49947101 4
-1.3913252 -2.9078264 -0.50450158 5
-1.4071681 -2.9396195 -0.39546645 9
-1.5268204 -3.1881483 -0.30591714 10
-1.5051936 -3.1415815 -0.17995821 5
-1.637203 -3.4155767 -0.064792648 8
-3.4958665 -7.2899055 2.1545582 9
-3.5212212 -7.3394918 1.8690538 2
-2.518502 -5.2471161 1.1228558 11
-2.3616962 -4.918222 0.85709739 8
-2.1376369 -4.4496288 0.60142517 9
-2.0318556 -4.2275476 0.40701732 9
-1.9120229 -3.9764423 0.22923149 10
-1.7654946 -3.6700664 0.070420451 6
-0.83461696 -1.7311124 -0.50469732 3
-0.9584831 -1.9871415 -0.50051636 4
-1.1365324 -2.3552253 -0.50042421 3
-1.401467 -2.902952 -0.50450158 5
-1.4195791 -2.9391587 -0.39607581 8
-1.5401069 -3.187284 -0.30635291 9
-1.5183238 -3.1408038 -0.18021902 5
-1.6512921 -3.4143412 -0.064879037 7
-3.5233953 -7.2820063 2.1558516 9
nan nan nan 0
-2.5368025 -5.2382927 1.1228558 13
-2.4025359 -4.958837 0.86569184 8
-2.1553206 -4.4466062 0.60203457 9
-2.0466001 -4.2204294 0.40701732 8
-1.928071 -3.9742362 0.22949316 11
-1.7804778 -3.6683791 0.07050772 7
-0.84065461 -1.7281885 -0.50469732 3
-0.96328199 -1.9794033 -0.49939165 4
-1.1447468 -2.3512437 -0.50042421 3
-1.4115915 -2.8980422 -0.50450158 5
-1.4298301 -2.9341857 -0.39607581 9
-1.553406 -3.1863661 -0.30678868 9
-1.5314667 -3.1399727 -0.18047984 6
-1.6653928 -3.4130495 -0.064965427 8
-3.5509114 -7.274003 2.1571448 9
nan nan nan 0
-2.559382 -5.2382264 1.1247622 13
-2.4328437 -4.9770408 0.87037969 9
-2.1730089 -4.4435129 0.60264385 9
-2.0635085 -4.2177339 0.40745309 9
-1.9441272 -3.9719665 0.22975484 9
-1.7954705 -3.6666315 0.070594981 8
-0.84668201 -1.7252434 -0.50469732 3
-0.96803832 -1.9716552 -0.49826688 4
-1.1551112 -2.351639 -0.5013774 3
-1.4195211 -2.8886652 -0.50371939 5
-1.4422531 -2.9336302 -0.39668515 8
-1.564519 -3.1809239 -0.30678868 9
-1.5446225 -3.1390879 -0.18074064 7
-1.6795043 -3.4117007 -0.065051816 8
-3.5826824 -7.2745619 2.1610243 9
-3.8282914 -7.7698441 1.9893117 2
-2.5798209 -5.2336626 1.1257154 8
-2.4567549 -4.9818068 0.87272364 9
-2.1907024 -4.4403515 0.60325319 8
-2.0804231 -4.2149715 0.40788886 8
-1.9601909 -3.9696331 0.23001653 9
-1.8104727 -3.6648238 0.070682235 7
-0.8526991 -1.7222775 -0.50469732 3
-0.97275245 -1.9638987 -0.49714214 4
-1.1633129 -2.3475926 -0.5013774 3
-1.4295958 -2.8836925 -0.50371939 5
-1.4524845 -2.9285777 -0.39668515 9
-1.5778269 -3.1799054 -0.30722445 10
-1.5577909 -3.1381495 -0.18100145 10
-1.6936269 -3.4102948 -0.065138213 11
-3.6080537 -7.2620115 2.1610243 9
-3.8575585 -7.7607965 1.9904356 3
-2.598074 -5.2246251 1.1257154 7
-2.4741299 -4.9732008 0.87272364 8
-2.2084 -4.4371204 0.60386258 9
-2.0951235 -4.2076836 0.40788886 7
-1.976262 -3.9672363 0.23027821 9
-1.8254842 -3.662956 0.070769504 7
-0.8587057 -1.7192906 -0.50469732 3
-0.97742409 -1.9561329 -0.49601737 4
-1.1715004 -2.3435175 -0.5013774 3
-1.439653 -2.8786845 -0.50371939 4
-1.464919 -2.9279282 -0.39729452 8
-1.5911468 -3.1788328 -0.30766025 10
-1.5709713 -3.1371574 -0.18126225 8
-1.7077599 -3.4088318 -0.065224595 12
-3.6355448 -7.2536902 2.1623178 9
-3.8933606 -7.7647052 1.9949313 4
-2.6206975 -5.2242994 1.1276218 7
-2.4959044 -4.973362 0.87428623 8
-2.223875 -4.4293847 0.60386258 8
-2.1120343 -4.2047963 0.40832466 8
-1.9900982 -3.9603136 0.23027821 9
-1.8382591 -3.6565616 0.070769504 6
-0.86470193 -1.7162827 -0.50469732 3
-0.98424631 -1.9527092 -0.49601737 4
-1.1774638 -2.3350315 -0.50042421 3
-1.4496926 -2.8736417 -0.50371939 4
-1.4751304 -2.9227967 -0.39729452 9
-1.6044782 -3.1777053 -0.30809602 10
-1.5819123 -3.1316545 -0.18126225 8
-1.7219033 -3.4073119 -0.065310992 9
nan nan nan 0
-3.7203343 -7.3554392 1.892656 10
-2.6411335 -5.2194991 1.128575 8
-2.51548 -4.9690251 0.87506759 9
-2.2415652 -4.4260225 0.60447192 8
-2.1289501 -4.2018418 0.40876046 9
-2.0061674 -3.9577959 0.23053987 9
-1.8532727 -3.6545813 0.070856765 6
-0.8706876 -1.7132537 -0.50469732 3
-0.99105656 -1.9492615 -0.49601737 4
-1.1856073 -2.3309071 -0.50042421 3
-1.4597148 -2.8685639 -0.50371939 4
-1.4875753 -2.9220524 -0.39790383 9
-1.6178213 -3.1765239 -0.30853182 11
-1.5951011 -3.1305625 -0.18152307 7
-1.736057 -3.4057345 -0.065397382 9
nan nan nan 0
-2.8935449 -5.6715589 1.4599525 2
-2.6615682 -5.2146192 1.129528 12
-2.5350561 -4.964613 0.87584889 9
-2.2592587 -4.4225903 0.60508126 8
-2.1458707 -4.1988196 0.4091962 9
-2.0222437 -3.955215 0.23080155 9
-1.8682951 -3.6525412 0.070944034 7
-0.87666267 -1.7102041 -0.50469732 3
-0.99785471 -1.9457903 -0.49601737 4
-1.1914959 -2.3223872 -0.49947101 3
-1.4697191 -2.863451 -0.50371939 4
-1.4977661 -2.916842 -0.39790383 9
-1.6311755 -3.1752877 -0.30896756 11
-1.6060191 -3.1249754 -0.18152307 7
-1.7502204 -3.4040997 -0.065483771 8
nan nan nan 0
-2.9044075 -5.6440954 1.4554569 8
-2.6820011 -5.209661 1.1304814 9
-2.5546315 -4.960124 0.87663019 9
-2.2769558 -4.4190888 0.6056906 8
-2.1627965 -4.1957312 0.40963197 8
-2.0383263 -3.95257 0.23106325 9
-1.8833253 -3.6504393 0.071031287 6
-0.88262707 -1.7071335 -0.50469732 3
-1.0046407 -1.9422953 -0.49601737 3
-1.2018511 -2.3225732 -0.50042421 3
-1.4797055 -2.8583033 -0.50371939 4
-1.510221 -2.916003 -0.3985132 10
-1.6422493 -3.1695745 -0.30896756 10
-1.6192154 -3.1237836 -0.18178387 6
-1.7643937 -3.4024074 -0.065570161 9
-3.9522152 -7.6180873 2.2877634 29
-3.9654834 -7.6403995 1.9769489 31
-2.7024317 -5.2046232 1.1314346 13
-2.5742066 -4.9555588 0.87741148 8
-2.2946558 -4.4155169 0.60629994 8
-2.1797268 -4.192575 0.41006777 8
-2.0544147 -3.9498603 0.23132493 8
-1.8983641 -3.6482785 0.071118549 7
-0.88858074 -1.7040422 -0.50469732 3
-1.0114144 -1.9387766 -0.49601737 3
-1.209951 -2.3183639 -0.50042421 3
-1.4896737 -2.8531208 -0.50371939 4
-1.5203906 -2.9107137 -0.3985132 8
-1.6556102 -3.1682374 -0.30940336 10
-1.6301095 -3.1181123 -0.18178387 6
-1.7762597 -3.3962278 -0.065570161 8
-3.9653478 -7.578567 2.2800035 17
-3.9582376 -7.5617647 1.9600903 13
-2.7228599 -5.1995068 1.1323878 11
-2.5937808 -4.9509177 0.87819284 8
-2.3123589 -4.4118757 0.60690933 9
-2.1966615 -4.1893525 0.41050357 8
-2.0681899 -3.9426651 0.23132493 9
-1.9134104 -3.6460562 0.071205817 7
-0.8945235 -1.7009301 -0.50469732 3
-1.0181758 -1.9352343 -0.49601737 3
-1.2180363 -2.3141263 -0.50042421 3
-1.4996239 -2.8479035 -0.50371939 4
-1.5328546 -2.9097793 -0.39912254 8
-1.6666594 -3.1624389 -0.30940336 9
-1.6433126 -3.1168201 -0.18204468 6
-1.7904363 -3.394429 -0.06565655 10
-2.8241692 -5.351985 1.6100991 3
-2.8177834 -5.3376255 1.3835269 2
-2.7432849 -5.1943107 1.1333408 12
-2.613354 -4.9461999 0.87897414 7
-2.3300641 -4.4081645 0.60751861 9
-2.2135999 -4.1860619 0.41093931 8
-2.0842745 -3.9398351 0.23158659 9
-1.9261259 -3.6393549 0.071205817 7
-0.90045547 -1.6977973 -0.50469732 3
-1.0249249 -1.9316684 -0.49601737 3
-1.228408 -2.3141959 -0.5013774 3
-1.5095558 -2.8426516 -0.50371939 4
-1.5430022 -2.9044108 -0.39912254 8
-1.6800258 -3.1610003 -0.30983913 10
-1.6565264 -3.1154737 -0.18230549 6
-1.8022741 -3.3881583 -0.06565655 9
-2.8723304 -5.3975224 1.6269113 4
-2.8661618 -5.3836646 1.3981377 5
-2.7660146 -5.1933675 1.1352472 10
-2.632926 -4.9414062 0.87975538 7
-2.3477719 -4.4043841 0.60812795 9
-2.2305424 -4.1827044 0.41137511 7
-2.1003649 -3.9369414 0.23184827 9
-1.9411716 -3.6370196 0.071293078 7
-0.90637636 -1.6946437 -0.50469732 3
-1.0316615 -1.928079 -0.49601737 3
-1.2364786 -2.3098938 -0.5013774 3
-1.5194693 -2.8373649 -0.50371939 4
-1.5554749 -2.9033816 -0.3997319 8
-1.6934026 -3.1595068 -0.31027493 11
-1.6697509 -3.1140728 -0.1825663 6
-1.8164531 -3.3862519 -0.06574294 8
-3.912029 -7.2897925 2.2049949 23
-3.9150651 -7.2923956 1.9005233 17
-2.7864485 -5.188005 1.1362004 10
-2.6524961 -4.9365358 0.88053674 7
-2.3654814 -4.4005332 0.60873735 8
-2.2474883 -4.1792803 0.41181087 7
-2.1140945 -3.9295857 0.23184827 9
-1.9562248 -3.6346235 0.071380332 6
-0.91228622 -1.6914697 -0.50469732 3
-1.0383854 -1.924466 -0.49601737 3
-1.244534 -2.3055637 -0.5013774 3
-1.5293642 -2.8320436 -0.50371939 4
-1.567959 -2.9023006 -0.40034124 8
-1.7067893 -3.1579583 -0.3107107 10
-1.6829858 -3.1126173 -0.18282712 6
-1.8282623 -3.3798909 -0.06574294 7
-3.9144645 -7.2336149 2.1920624 31
-3.9103425 -7.2229857 1.8859124 31
-2.8022034 -5.1739306 1.1352472 10
-2.6720643 -4.9315891 0.88131803 8
-2.3831928 -4.3966126 0.60934669 8
-2.262063 -4.1714091 0.41181087 6
-2.1301794 -3.9265707 0.23210996 8
-1.9712846 -3.6321669 0.071467601 5
-0.91818506 -1.6882747 -0.50469732 3
-1.0450968 -1.9208297 -0.49601737 3
-1.2525743 -2.3012054 -0.5013774 3
-1.5368789 -2.8223507 -0.5029372 4
-1.5804542 -2.9011679 -0.40095058 8
-1.7201858 -3.1563549 -0.31114647 10
-1.6962309 -3.1111078 -0.18308793 6
-1.8400493 -3.3734882 -0.06574294 8
nan nan nan 0
nan nan nan 0
nan nan nan 0
-2.6916304 -4.9265656 0.88209939 6
-2.4009054 -4.392621 0.60995609 8
-2.2789998 -4.1678586 0.41224667 7
-2.1462693 -3.923492 0.23237164 8
-1.9863515 -3.6296494 0.071554862 6
-0.92639488 -1.6892942 -0.50599146 3
-1.0517954 -1.9171699 -0.49601737 3
-1.2605995 -2.296819 -0.5013774 3
-1.5467213 -2.8169689 -0.5029372 4
-1.592961 -2.8999829 -0.40155992 8
-1.7335918 -3.1546962 -0.31158224 9
-1.7094858 -3.1095433 -0.18334873 8
-1.8518137 -3.3670447 -0.06574294 7
nan nan nan 0
-2.8188834 -5.1211772 1.3396947 2
-2.8477261 -5.1714401 1.13906 9
-2.7135766 -4.9257913 0.88366199 7
-2.4186189 -4.3885598 0.61056536 9
-2.2959394 -4.1642394 0.41268241 7
-2.1623631 -3.9203482 0.23263331 8
-2.0014243 -3.6270707 0.071642123 6
-0.93228596 -1.6860502 -0.50599146 3
-1.056123 -1.909224 -0.49489263 3
-1.2662326 -2.28811 -0.50042421 3
-1.5565451 -2.8115528 -0.5029372 4
-1.6030741 -2.8944046 -0.40155992 8
-1.7445933 -3.1486259 -0.31158224 9
-1.7227504 -3.1079245 -0.18360955 7
-1.8659801 -3.3649323 -0.065829329 7
-2.7153881 -4.89466 1.4885333 3
-3.9952226 -7.1986814 1.8904082 36
-3.9998722 -7.2040958 1.5927776 33
-2.7331526 -4.9206066 0.88444328 8
-2.4363339 -4.3844285 0.6111747 10
-2.3128815 -4.1605535 0.41311821 9
-2.1784613 -3.9171398 0.23289499 8
-2.0165036 -3.6244309 0.071729392 6
-0.93816572 -1.6827856 -0.50599146 3
-1.062781 -1.9055258 -0.49489263 3
-1.2742119 -2.2836761 -0.50042421 3
-1.5639428 -2.8017902 -0.50215507 4
-1.6155874 -2.8931246 -0.40216929 9
-1.7580028 -3.1468654 -0.31201804 9
-1.7335886 -3.101892 -0.18360955 7
-1.8777145 -3.3583984 -0.065829329 7
-2.7183106 -4.8598604 1.4807738 3
-4.0274644 -7.1974473 1.8937799 32
-4.0297904 -7.1986561 1.594684 31
-2.726181 -4.8679471 0.87663019 7
-2.4540493 -4.3802271 0.6117841 8
-2.3298259 -4.1567998 0.41355398 10
-2.1970055 -3.9182222 0.23341836 8
-2.0291429 -3.6173699 0.071729392 6
-0.94403398 -1.6795005 -0.50599146 4
-1.0718138 -1.9060506 -0.49601737 3
-1.2797691 -2.2749364 -0.49947101 3
-1.5737133 -2.796314 -0.50215507 4
-1.628111 -2.8917916 -0.40277863 8
-1.7689766 -3.1407096 -0.31201804 9
-1.7468568 -3.1001718 -0.18387035 7
-1.8918809 -3.3561783 -0.065915719 7
-2.6996713 -4.7872372 1.4613751 3
-4.0549569 -7.1875877 1.8949037 4
-2.6966627 -4.7780032 1.0580389 2
-2.7407289 -4.8541012 0.87584889 7
-2.471765 -4.3759556 0.61239344 9
-2.3467722 -4.1529784 0.41398978 9
-2.2131264 -3.914876 0.23368002 7
-2.0442185 -3.6146164 0.071816646 5
-0.94989079 -1.676195 -0.50599146 3
-1.0784607 -1.9022977 -0.49601737 3
-1.2877023 -2.2704554 -0.49947101 3
-1.5834647 -2.7908037 -0.50215507 4
-1.6406451 -2.8904068 -0.40338799 8
-1.7823886 -3.1388471 -0.31245384 9
-1.7576678 -3.0940552 -0.18387035 7
-1.9060549 -3.3539004 -0.066002108 7
-2.6853328 -4.7232013 1.4445628 3
-4.0920653 -7.1945653 1.9005233 13
-2.7375987 -4.8112216 1.0675709 3
nan nan nan 0
-2.4919364 -4.375926 0.61361212 9
-2.3637202 -4.1490893 0.41442558 9
-2.2292509 -3.9114652 0.2339417 8
-2.0568235 -3.6074584 0.071816646 5
-0.95573604 -1.672869 -0.50599146 3
-1.0850943 -1.8985215 -0.49601737 3
-1.2956198 -2.2659466 -0.49947101 3
-1.5931967 -2.7852595 -0.50215507 4
-1.6531894 -2.8889697 -0.4039973 8
-1.7958088 -3.1369288 -0.31288961 9
-1.7684574 -3.0879009 -0.18387035 6
-1.9202358 -3.3515644 -0.066088498 7
-2.6777854 -4.671895 1.4316303 3
-4.1171541 -7.1802368 1.9005233 36
-4.1196055 -7.1816068 1.6004031 34
-3.1162231 -5.4302392 0.984451 12
-2.5096669 -4.3715043 0.61422145 8
-2.3806694 -4.1451321 0.41486132 7
-2.2428908 -3.9036598 0.2339417 8
-2.0718944 -3.6045911 0.071903907 5
-0.96156961 -1.6695226 -0.50599146 3
-1.0917149 -1.8947223 -0.49601737 3
-1.3010705 -2.257158 -0.49851784 2
-1.6029094 -2.779681 -0.50215507 4
-1.6657436 -2.88748 -0.40460667 8
-1.8092377 -3.1349554 -0.31332538 9
-1.7767289 -3.0773849 -0.18360955 6
-1.9344234 -3.34917 -0.066174895 8
-2.6674969 -4.6165185 1.4174045 3
-4.1470695 -7.1742573 1.9027711 34
-4.1495638 -7.1756821 1.6023095 29
-3.1425786 -5.4321527 0.98679501 12
-2.5298827 -4.3713078 0.61544013 10
-2.3976197 -4.1411076 0.41529712 8
-2.259006 -3.9001274 0.2342034 7
-2.0869708 -3.6016626 0.071991175 5
-0.96739143 -1.6661561 -0.50599146 3
-1.098322 -1.8909 -0.49601737 3
-1.3089416 -2.2526028 -0.49851784 3
-1.6126025 -2.7740688 -0.50215507 4
-1.6783075 -2.8859379 -0.40521601 9
-1.8226744 -3.132926 -0.31376114 7
-1.7924836 -3.0797951 -0.18413116 5
-1.9486179 -3.3467174 -0.066261277 8
-2.6568546 -4.5612707 1.4031786 3
-4.1794457 -7.1723661 1.9061427 20
-4.1745863 -7.1611533 1.6023095 13
nan nan nan 0
-2.5476267 -4.3667369 0.61604947 12
-2.4145713 -4.1370149 0.41573289 8
-2.2751241 -3.8965304 0.23446508 6
-2.1020517 -3.5986726 0.072078437 5
-0.97320157 -1.6627691 -0.50599146 3
-1.1024543 -1.8828506 -0.49489263 3
-1.3143157 -2.2437844 -0.49756464 3
-1.6222759 -2.7684231 -0.50215507 4
-1.6908809 -2.8843434 -0.40582538 7
-1.8361189 -3.1308413 -0.31419694 8
-1.8158566 -3.095053 -0.18543519 5
-1.962819 -3.3442068 -0.066347674 7
-2.643414 -4.5019889 1.3876597 3
-2.6449206 -4.5027547 1.1958348 3
nan nan nan 0
-3.1829278 -5.4143386 0.98757625 12
-2.5653701 -4.3620954 0.61665887 10
-2.4315231 -4.1328545 0.41616869 7
-2.2912447 -3.8928683 0.23472677 7
-2.117137 -3.5956206 0.07216569 5
-0.97899973 -1.6593618 -0.50599146 3
-1.1090199 -1.8789909 -0.49489263 2
-1.3221399 -2.2391829 -0.49756464 2
-1.6319298 -2.7627432 -0.50215507 4
-1.7034637 -2.8826962 -0.40643471 8
-1.8495713 -3.1287007 -0.31463271 8
-1.8418999 -3.1144829 -0.18700007 11
-1.977026 -3.3416378 -0.066434063 8
-2.6320522 -4.4470139 1.3734338 3
nan nan nan 0
-3.2188842 -5.4341745 1.2191279 7
-3.201808 -5.4031954 0.98757625 11
-2.5856421 -4.3616514 0.61787754 10
-2.4484754 -4.1286254 0.41660443 7
-2.3073666 -3.8891406 0.23498842 8
-2.1322269 -3.5925078 0.072252959 5
-0.98478603 -1.6559343 -0.50599146 3
-1.1155721 -1.8751081 -0.49489263 2
-1.3299481 -2.2345543 -0.49756464 2
-1.639037 -2.7527866 -0.50137287 4
-1.7160553 -2.880996 -0.40704405 7
-1.863031 -3.1265044 -0.31506851 9
-1.8681004 -3.1337681 -0.18856491 10
-1.9912391 -3.33901 -0.066520452 6
-2.6203394 -4.3921742 1.3592081 3
-2.5938935 -4.3461218 1.158746 2
-3.2177036 -5.3891907 1.2115023 11
-3.1826625 -5.3283887 0.9758566 20
-2.6008511 -4.3525991 0.61787754 9
-2.4679835 -4.1286049 0.417476 7
-2.3260536 -3.8896332 0.23551179 8
-2.1498873 -3.5936236 0.072427489 5
-0.99056035 -1.6524867 -0.50599146 3
-1.1221105 -1.8712027 -0.49489263 2
-1.340265 -2.2341075 -0.49851784 2
-1.648636 -2.7470486 -0.50137287 4
-1.7261014 -2.8749883 -0.40704405 7
-1.8739331 -3.1199822 -0.31506851 8
-1.8790278 -3.127228 -0.18856491 10
-2.0054579 -3.3363235 -0.066606842 8
-2.6107647 -4.341609 1.3462756 3
-2.6115603 -4.3412161 1.1598699 3
-3.2086556 -5.3316655 1.2010173 11
-3.2012424 -5.3172464 0.9758566 17
-2.62115 -4.3519969 0.61909622 11
-2.4849505 -4.1242313 0.4179118 11
-2.3421946 -3.8857667 0.23577349 8
-2.1649995 -3.590378 0.072514743 5
-0.99632257 -1.649019 -0.50599146 3
-1.1286355 -1.8672744 -0.49489263 2
-1.3505951 -2.2336154 -0.49947101 2
-1.6607711 -2.7455027 -0.50215507 4
-1.738696 -2.8731914 -0.40765342 8
-1.887392 -3.1176827 -0.31550428 9
-1.8925191 -3.1249208 -0.18882571 13
-2.0196822 -3.3335786 -0.066693231 7
-2.598366 -4.287035 1.3320498 3
-2.5938594 -4.277915 1.1452591 3
-3.1890638 -5.257484 1.1867194 10
nan nan nan 0
-2.6389008 -4.3470631 0.61970562 12
-2.5019169 -4.1197891 0.41834754 7
-2.3583364 -3.8818345 0.23603514 8
-2.1827123 -3.5913434 0.072689272 5
-1.0020727 -1.6455311 -0.50599146 3
-1.1376811 -1.8674837 -0.49601737 3
-1.360938 -2.2330787 -0.50042421 2
-1.6703446 -2.7396886 -0.50215507 4
-1.7512985 -2.8713415 -0.40826276 8
-1.9008577 -3.1153276 -0.31594005 9
-1.8982126 -3.109772 -0.1883041 8
-2.0339117 -3.330775 -0.066779621 7
-2.5881367 -4.2367225 1.3191173 6
-2.5833707 -4.2272625 1.1340201 3
nan nan nan 0
nan nan nan 0
nan nan nan 0
-2.5214832 -4.1195273 0.41921914 6
-2.3744798 -3.8778369 0.23629683 7
-2.2056804 -3.600754 0.073038317 5
-1.0078105 -1.6420232 -0.50599146 3
-1.1441929 -1.8635011 -0.49601737 3
-1.3764315 -2.2408617 -0.50328374 3
-1.6824832 -2.7380488 -0.5029372 3
-1.7613107 -2.8652108 -0.40826276 8
-1.9143298 -3.112916 -0.31637582 9
-1.9064399 -3.0988741 -0.1880433 9
-2.0481458 -3.3279123 -0.06686601 7
-2.5775876 -4.1865339 1.3061846 3
-2.5776706 -4.1850328 1.1250288 3
nan nan nan 0
-3.2852535 -5.3296766 0.984451 27
-2.6717889 -4.3327584 0.6203149 11
-2.5384631 -4.1149397 0.41965491 6
-2.390624 -3.8737743 0.23655851 7
-2.2261145 -3.6057947 0.073300101 56
-1.0109954 -1.634388 -0.50469732 3
-1.1506908 -1.8594958 -0.49601737 2
-1.3764945 -2.2235231 -0.50042421 3
-1.6920304 -2.7321594 -0.5029372 3
-1.7739154 -2.8632641 -0.40887213 7
-1.9278084 -3.1104491 -0.31681162 10
-1.9146142 -3.0879569 -0.18778248 10
-2.0623851 -3.324991 -0.066952407 7
-2.56672 -4.1364713 1.2932522 3
-2.5691376 -4.1387553 1.1149137 3
-3.1403694 -5.0570116 1.148592 17
-3.2960191 -5.3055916 0.9821071 17
-3.3339267 -5.3645225 0.77082354 34
-2.5580709 -4.1145139 0.42052644 7
-2.4067686 -3.8696461 0.23682021 8
-2.2492516 -3.6149805 0.073649146 57
-1.0166943 -1.630849 -0.50469732 3
-1.1571747 -1.8554679 -0.49601737 2
-1.3790516 -2.2103765 -0.49851784 3
-1.7041719 -2.7304258 -0.50371939 3
-1.7865274 -2.861264 -0.40948144 7
-1.9412928 -3.1079252 -0.31724739 10
-1.9253814 -3.081255 -0.18778248 8
-2.0766287 -3.322011 -0.067038789 8
-2.5529735 -4.0824404 1.2790264 3
-2.5603135 -4.0925884 1.1047986 3
-3.1553986 -5.0418577 1.1476387 26
-3.3171399 -5.2982402 0.9828884 13
-3.368438 -5.378088 0.77447969 31
-2.5750623 -4.1097803 0.42096224 8
-2.4229128 -3.8654513 0.23708187 8
-2.2698243 -3.6198137 0.073910944 59
-1.0223808 -1.62729 -0.50469732 3
-1.1636443 -1.8514172 -0.49601737 2
-1.3815335 -2.1972387 -0.49661148 3
-1.7136925 -2.7244604 -0.50371939 3
-1.7991474 -2.8592107 -0.4100908 7
-1.9547832 -3.1053452 -0.31768319 8
-1.9387861 -3.0787404 -0.1880433 8
-2.0908768 -3.3189719 -0.067125186 7
-2.5672085 -4.073504 1.2790264 2
-2.5511982 -4.0465341 1.0946834 3
-3.1703606 -5.0266614 1.1466855 17
nan nan nan 0
-3.3818927 -5.3579035 0.77326095 24
-2.5893927 -4.1007667 0.42096224 9
-2.4417243 -3.8654132 0.23760523 12
-2.2851167 -3.6160944 0.073998198 61
-1.0280548 -1.6237115 -0.50469732 3
-1.1701 -1.847344 -0.49601737 2
-1.3839408 -2.1841106 -0.49470508 2
-1.7231922 -2.7184618 -0.50371939 3
-1.8117745 -2.8571043 -0.41070014 7
-1.9682791 -3.1027086 -0.31811893 10
-1.9521965 -3.0761697 -0.1883041 9
-2.1024497 -3.3116531 -0.067125186 7
nan nan nan 0
-2.5417931 -4.0005937 1.0845683 3
-3.1931531 -5.023849 1.148592 11
nan nan nan 0
-3.4085648 -5.3586278 0.77508897 20
-2.5929949 -4.074894 0.41921914 7
-2.4578838 -3.861079 0.23786692 10
-2.3030961 -3.6165297 0.074172728 62
-1.0337164 -1.6201129 -0.50469732 4
-1.17392 -1.839142 -0.49489263 2
-1.3994809 -2.1916769 -0.49756464 2
-1.7300124 -2.7082684 -0.5029372 3
-1.8244091 -2.8549445 -0.41130951 7
-1.9817804 -3.1000161 -0.31855473 9
-1.9683028 -3.0777497 -0.18882571 10
-2.1166909 -3.3085051 -0.067211576 7
nan nan nan 0
-2.5320985 -3.9547691 1.0744531 3
nan nan nan 0
-3.3937552 -5.2964787 0.9891389 24
nan nan nan 0
nan nan nan 0
-2.4740424 -3.8566782 0.23812859 8
-2.3157063 -3.6084683 0.074172728 61
-1.0419774 -1.6205571 -0.50599146 3
-1.1803328 -1.8350331 -0.49489263 2
-1.4097787 -2.1909063 -0.49851784 2
-1.7394556 -2.7022133 -0.5029372 3
-1.8370504 -2.852731 -0.41191885 8
-1.9952871 -3.0972667 -0.3189905 9
-1.9817392 -3.0750575 -0.18908653 10
-2.1309357 -3.3052981 -0.067297965 8
-3.1018689 -4.8094711 1.5221578 8
-2.5221157 -3.9090612 1.064338 3
-2.5174615 -3.9003537 0.89409065 4
-3.4122226 -5.2845998 0.9891389 27
nan nan nan 0
-2.5916429 -4.0106735 0.41442558 2
-2.4902005 -3.8522117 0.23839027 7
-2.3310027 -3.6045611 0.074259989 62
-1.0476278 -1.6169101 -0.50599146 3
-1.1867311 -1.8309017 -0.49489263 2
-1.425429 -2.1983266 -0.5013774 2
-1.7488773 -2.6961248 -0.5029372 3
-1.8469971 -2.8463011 -0.41191885 7
-2.0087984 -3.094461 -0.3194263 9
-1.9979 -3.0764966 -0.18960814 11
-2.1479073 -3.3062241 -0.067470744 8
-3.1081104 -4.7824154 1.5169848 13
-2.5145004 -3.8675563 1.0553467 3
nan nan nan 0
-3.4306483 -5.2726569 0.9891389 19
-3.4834435 -5.3517551 0.77935445 32
-4.6141801 -7.086246 0.73646605 31
-2.5063572 -3.8476801 0.23865195 8
-2.3435707 -3.5964022 0.074259989 65
-1.0532656 -1.6132433 -0.50599146 3
-1.1931149 -1.8267481 -0.49489263 2
-1.4357786 -2.1974466 -0.5023306 3
-1.7555761 -2.6858699 -0.50215507 3
-1.8596373 -2.8439901 -0.41252819 8
-2.0223143 -3.0915983 -0.31986207 9
-2.0113609 -3.0736818 -0.18986896 9
-2.1621733 -3.3028889 -0.067557134 8
-3.0798023 -4.7028475 1.4949995 10
-2.5066264 -3.826153 1.0463555 3
-2.4988916 -3.8128946 0.87788641 4
-3.4463248 -5.2565198 0.98835754 12
-3.5075469 -5.3478627 0.78057307 25
-4.6416197 -7.0742612 0.73690182 21
-2.5252526 -3.8472559 0.2391753 8
-2.3561101 -3.5881999 0.074259989 55
-1.0588903 -1.6095568 -0.50599146 3
-1.1994841 -1.8225724 -0.49489263 3
-1.4272461 -2.1678243 -0.49661148 3
-1.7649409 -2.6797256 -0.50215507 4
-1.8722838 -2.8416255 -0.41313753 7
-2.035835 -3.0886791 -0.32029784 9
-2.0248265 -3.0708108 -0.19012977 10
-2.1764419 -3.2994947 -0.067643523 8
-3.0749183 -4.6598186 1.4846536 10
-2.4984939 -3.7848516 1.0373642 3
-2.4851379 -3.7631905 0.8683545 4
-3.4673748 -5.2485785 0.9891389 12
-3.5234566 -5.3314462 0.77996373 24
-4.6717801 -7.0663266 0.73777342 22
-2.5386665 -3.8384175 0.2391753 9
-2.3713791 -3.5841224 0.074347243 58
-1.0645024 -1.6058508 -0.50599146 4
-1.2058388 -1.8183742 -0.49489263 3
-1.423951 -2.1464684 -0.49279872 2
-1.7742841 -2.6735485 -0.50215507 3
-1.8849363 -2.8392074 -0.41374689 7
-2.0493598 -3.0857029 -0.32073361 8
-2.0382965 -3.067883 -0.19039057 11
-2.1907134 -3.2960408 -0.067729913 8
-3.0617492 -4.6048155 1.4704278 10
-2.4928024 -3.7477112 1.0294969 6
-2.4819443 -3.7299752 0.86263543 4
nan nan nan 0
-3.5475469 -5.3273764 0.78118247 24
-4.7047019 -7.0624118 0.73908067 16
-2.5575879 -3.8378434 0.23969868 10
-2.3838756 -3.5758228 0.074347243 57
-1.0701013 -1.6021252 -0.50599146 3
-1.2121787 -1.8141539 -0.49489263 3
-1.4150692 -2.1170008 -0.48707953 2
-1.7808605 -2.6632333 -0.50137287 4
-1.8975948 -2.836735 -0.41435623 7
-2.065659 -3.0868099 -0.32160518 10
-2.0517707 -3.0648985 -0.19065139 9
-2.2077689 -3.2966814 -0.067902692 8
-3.0536103 -4.5579867 1.4587885 24
-2.4841702 -3.7066097 1.0205057 3
-2.4703498 -3.6845975 0.85405672 4
nan nan nan 0
-3.5688868 -5.3190818 0.78179181 7
nan nan nan 0
nan nan nan 0
-2.3991308 -3.5716302 0.074434511 58
-1.0756873 -1.5983802 -0.50599146 3
-1.218504 -1.8099116 -0.49489263 3
-1.4361595 -2.1324039 -0.49184549 2
-1.790146 -2.6570008 -0.50137287 4
-1.9102591 -2.8342094 -0.41496557 7
-2.079206 -3.0837107 -0.32204098 9
-2.0652485 -3.0618575 -0.19091219 10
-2.2220595 -3.2930989 -0.067989089 8
-3.0613956 -4.5352902 1.4549088 28
-2.475281 -3.6656141 1.0115144 3
-2.4639633 -3.647481 0.84738433 4
-3.541503 -5.240624 0.99460804 25
nan nan nan 0
-2.527178 -3.73684 0.39132926 3
-2.5507436 -3.7702672 0.23655851 5
-2.4143856 -3.567374 0.074521773 57
-1.0809819 -1.5948043 -0.50599146 3
-1.224184 -1.8060746 -0.49489263 3
-1.4456061 -2.1319442 -0.49279872 2
-1.7984844 -2.6513638 -0.50137287 4
-1.9247267 -2.8364072 -0.41618428 7
-2.091681 -3.0812845 -0.32247674 10
-2.0804677 -3.0636156 -0.1914338 10
-2.2352033 -3.2902372 -0.068075471 8
-3.0729134 -4.5216551 1.4536155 18
-2.4566534 -3.6134994 0.99915147 3
-2.4560881 -3.6113119 0.84071207 4
-3.5635056 -5.2376385 0.9961707 16
nan nan nan 0
-4.798378 -7.0473623 0.74256688 33
-4.8028536 -7.0512905 0.44511729 33
-2.428396 -3.5639029 0.074609034 55
-1.0862644 -1.5912108 -0.50599146 3
-1.2304808 -1.8017905 -0.49489263 3
-1.4585768 -2.1349907 -0.49470508 2
-1.8077285 -2.6450698 -0.50137287 4
-1.9374168 -2.8337681 -0.41679361 6
-2.1052358 -3.0780756 -0.32291251 10
-2.0939689 -3.060456 -0.19169462 11
-2.2494984 -3.2865403 -0.068161868 8
-3.0941358 -4.5188718 1.4562019 18
-2.4554861 -3.5848048 0.993532 3
-2.4464834 -3.5703254 0.83308655 4
-3.5705976 -5.2088737 0.99304545 2
nan nan nan 0
-4.8257666 -7.0346775 0.74300271 28
-4.8302636 -7.0385995 0.44537899 30
-2.4493098 -3.5677688 0.074870817 57
-1.0948267 -1.5911975 -0.50728554 3
-1.2370765 -1.7972684 -0.49489263 3
-1.4691756 -2.133673 -0.49565825 2
-1.8174109 -2.6384263 -0.50137287 4
-1.950606 -2.8307345 -0.41740298 6
-2.1193302 -3.07444 -0.32334828 9
-2.1080065 -3.0568709 -0.19195542 10
-2.2672064 -3.2865033 -0.068334647 8
-3.1134207 -4.5114756 1.4574952 21
-2.4769123 -3.5878091 0.99690366 2
-2.4428172 -3.5371017 0.82736742 4
nan nan nan 0
-3.6729226 -5.3142772 0.78849459 26
-4.8571825 -7.0251374 0.74387425 19
-4.8645492 -7.0331678 0.44616401 21
-2.4652145 -3.5628788 0.074958086 60
-1.1003745 -1.5873661 -0.50728554 3
-1.2433426 -1.7929392 -0.49489263 3
-1.4766146 -2.1285315 -0.49565825 2
-1.8266097 -2.6320662 -0.50137287 3
-1.9633052 -2.827985 -0.41801229 6
-2.1357319 -3.0752058 -0.32421988 9
-2.1215134 -3.0535948 -0.19221623 11
-2.281518 -3.2826743 -0.068421036 8
-3.1346638 -4.5085115 1.4600818 16
-2.4782929 -3.5631423 0.9924081 2
-2.4355257 -3.5003502 0.8206951 4
nan nan nan 0
-3.6914506 -5.301424 0.78849459 25
-4.8873696 -7.0163145 0.74474585 19
-4.8947797 -7.0243378 0.44668737 22
-2.4833539 -3.5624537 0.075132601 62
-1.1059086 -1.5835154 -0.50728554 3
-1.2495935 -1.7885882 -0.49489263 3
-1.4840356 -2.1233642 -0.49565825 2
-1.8357862 -2.6256742 -0.50137287 3
-1.9760094 -2.8251812 -0.41862166 7
-2.1493087 -3.0718129 -0.32465565 9
-2.1350224 -3.0502613 -0.19247703 11
-2.2986977 -3.282881 -0.068593815 9
-3.1531537 -4.5014982 1.4613751 16
nan nan nan 0
-2.4308252 -3.4677126 0.81497604 4
-2.4065959 -3.4318738 0.65708202 3
nan nan nan 0
nan nan nan 0
-4.9250069 -7.0153818 0.44721073 18
-2.4354377 -3.4678502 0.073300101 60
-1.1086503 -1.5756956 -0.50599146 3
-1.2558292 -1.7842155 -0.49489263 3
-1.4942644 -2.1221843 -0.49661148 3
-1.8449403 -2.6192501 -0.50137287 3
-1.9887176 -2.8223233 -0.419231 6
-2.1628883 -3.068363 -0.32509142 10
-2.1485345 -3.0468709 -0.19273785 10
-2.313025 -3.2789221 -0.068680204 9
-3.1716321 -4.4944105 1.4626682 16
-3.3291876 -4.7159286 1.322836 33
-2.4259264 -3.4351504 0.80925685 4
-2.3986135 -3.3952172 0.65161282 4
nan nan nan 0
nan nan nan 0
nan nan nan 0
-2.4388654 -3.4470842 0.073038317 58
-1.1141438 -1.5718161 -0.50599146 3
-1.2620497 -1.7798208 -0.49489263 2
-1.5016632 -2.1169555 -0.49661148 3
-1.854072 -2.6127942 -0.50137287 3
-2.0014298 -2.8194108 -0.41984037 6
-2.1764693 -3.0648556 -0.32552719 10
-2.1620486 -3.0434232 -0.19299866 11
-2.3273525 -3.2749033 -0.068766601 7
-3.1900997 -4.4872484 1.4639615 16
-3.345629 -4.7042789 1.322836 32
-2.4208302 -3.4026649 0.80353767 4
-2.3932688 -3.3626823 0.64692497 4
-2.4083331 -3.3825986 0.50514841 3
-2.4668207 -3.4634676 0.36866879 6
-2.456017 -3.4470255 0.21981101 4
-2.4653916 -3.458905 0.073474631 31
-1.116817 -1.563987 -0.50469732 3
-1.2682546 -1.7754046 -0.49489263 3
-1.5061897 -2.1077073 -0.49565825 3
-1.860309 -2.6022887 -0.50059068 3
-2.0112593 -2.8124073 -0.41984037 6
-2.1900527 -3.0612907 -0.32596299 11
-2.1755648 -3.0399179 -0.19325948 10
-2.3416798 -3.2708242 -0.068852983 7
-3.2085562 -4.4800124 1.4652548 15
-3.3620293 -4.6925721 1.322836 23
-2.412678 -3.3662677 0.7968654 4
-2.3848486 -3.3262131 0.64145583 4
-2.4259107 -3.382237 0.50636709 2
-2.4614725 -3.4305534 0.36605412 2
nan nan nan 0
-5.0288143 -7.0034938 0.14982891 31
-1.1194493 -1.5561584 -0.50340325 3
-1.2744443 -1.7709668 -0.49489263 3
-1.5135378 -2.1024368 -0.49565825 3
-1.8693813 -2.5957792 -0.50059068 3
-2.0239649 -2.8093963 -0.4204497 6
-2.2036374 -3.057668 -0.32639876 12
-2.1861629 -3.0323052 -0.19325948 11
-2.3589315 -3.2707396 -0.06902577 8
-3.2270007 -4.4727015 1.4665481 16
-3.3783891 -4.6808081 1.322836 15
-2.4071743 -3.3339491 0.79114634 8
-2.3819864 -3.2978508 0.63754922 4
-3.8153825 -5.2804399 0.79519743 30
-5.0557632 -6.9945388 0.75171828 35
-5.0575857 -6.9944882 0.45035088 28
-5.0561604 -6.9899473 0.14991617 73
-1.1248745 -1.5522413 -0.50340325 3
-1.2777587 -1.7625629 -0.49376786 3
-1.5208673 -2.0971408 -0.49565825 2
-1.8784308 -2.5892382 -0.50059068 3
-2.0366743 -2.8063309 -0.42105904 6
-2.2172236 -3.0539882 -0.32683456 11
-2.1996684 -3.0286958 -0.19352028 11
-2.3732727 -3.26653 -0.069112159 8
-3.2454331 -4.4653168 1.4678413 16
-3.4004378 -4.6768675 1.325084 15
-2.3985875 -3.2977402 0.78447396 5
-2.3760498 -3.2655554 0.63286132 4
-3.833791 -5.2670894 0.79519743 22
-5.0830798 -6.9808745 0.75215411 30
-5.0878501 -6.9848638 0.45087424 18
-5.0834727 -6.9762959 0.15000343 18
-1.1302857 -1.5483054 -0.50340325 3
-1.2839035 -1.7580918 -0.49376786 2
-1.5310742 -2.0957828 -0.49661148 3
-1.8874576 -2.5826652 -0.50059068 3
-2.0493867 -2.8032105 -0.42166841 6
-2.2308109 -3.0502503 -0.3272703 12
-2.2131755 -3.0250289 -0.19378109 11
-2.3905656 -3.266294 -0.069284938 9
-3.2638535 -4.4578576 1.4691346 16
-3.4196212 -4.6689 1.3262079 15
-2.3868763 -3.257673 0.77684844 4
-2.3699172 -3.2333429 0.62817353 4
-3.8609571 -5.2656817 0.7970255 23
-5.113308 -6.9711208 0.75302559 22
-5.1181083 -6.9751124 0.45139763 19
-5.1166682 -6.9705992 0.1502652 20
-1.1356835 -1.5443505 -0.50340325 3
-1.2900325 -1.7535995 -0.49376786 3
-1.5383804 -2.0904255 -0.49661148 3
-1.8964612 -2.5760612 -0.50059068 3
-2.0650451 -2.8040321 -0.42288712 6
-2.2473536 -3.0504653 -0.32814187 13
-2.229646 -3.0253241 -0.19430271 12
-2.4049191 -3.2619534 -0.069371328 9
-3.2822616 -4.4503255 1.4704278 17
-3.4416828 -4.6647754 1.3284556 14
-2.3807449 -3.2256272 0.77112937 4
-2.3635886 -3.2012126 0.62348568 4
-3.8675206 -5.2362046 0.79458809 4
-5.1464906 -6.9652481 0.75433296 28
-5.1483612 -6.9652357 0.45192099 27
-5.1379967 -6.9486761 0.15017794 16
-1.1381927 -1.536496 -0.50210917 3
-1.2961459 -1.7490857 -0.49376786 3
-1.545668 -2.0850427 -0.49661148 3
-1.9025003 -2.565459 -0.49980852 3
-2.0777771 -2.800792 -0.42349643 6
-2.2609565 -3.046602 -0.32857767 12
-2.2431693 -3.0215321 -0.19456352 10
-2.4222524 -3.2615659 -0.069544114 10
-3.3006563 -4.442718 1.4717211 16
-3.4608514 -4.6566439 1.3295796 14
-2.3744187 -3.1936631 0.76541018 3
-2.357065 -3.1691661 0.61879778 4
-2.333488 -3.1363227 0.47529042 3
nan nan nan 0
nan nan nan 0
nan nan nan 0
-1.143549 -1.5325136 -0.50210917 3
-1.3022435 -1.7445507 -0.49376786 3
-1.5529367 -2.0796347 -0.49661148 3
-1.9114437 -2.5588024 -0.49980852 3
-2.0905118 -2.7974977 -0.42410579 6
-2.2745595 -3.0426805 -0.32901344 10
-2.2566931 -3.0176821 -0.19482432 12
-2.3976867 -3.205054 -0.068507425 7
-3.3190379 -4.4350357 1.4730142 16
-3.4829245 -4.6523352 1.3318273 15
-2.3826101 -3.1814268 0.76445699 2
-2.3503466 -3.1372046 0.61410993 4
nan nan nan 0
nan nan nan 0
nan nan nan 0
-2.3271458 -3.1017218 0.067017235 5
-1.1517935 -1.5323732 -0.50340325 3
-1.3083251 -1.7399944 -0.49376786 3
-1.5601865 -2.0742013 -0.49661148 3
-1.920364 -2.5521145 -0.49980852 3
