# .PCD v0.7 - Point Cloud Data file format
VERSION 0.7
FIELDS x y z intensity
SIZE 4 4 4 4
TYPE F F F F
COUNT 1 1 1 1
WIDTH 1403
HEIGHT 1
VIEWPOINT 0 0 0 1 0 0 0
POINTS 1403
DATA ascii
1.0985354 1.7814616 0.035864696 34
1.0462697 1.6920732 -0.52281469 4
1.1349887 1.8348373 -0.48926884 12
1.1100762 1.7938635 -0.40224573 13
1.117084 1.8044841 -0.33007699 15
1.1227955 1.8130032 -0.2571446 15
1.1166734 1.8024147 -0.18215577 15
1.109157 1.7895849 -0.10797492 15
1.1055228 1.783026 -0.035592761 12
1.1097795 1.7891941 0.55351192 21
1.1170441 1.8002049 0.47990742 15
1.1099912 1.7881418 0.40129229 14
1.1170275 1.7987763 0.32893166 15
1.1122319 1.7903565 0.25409758 14
1.119189 1.800854 0.1821555 15
1.1169174 1.7964995 0.10885879 16
1.1080079 1.7814754 0.035951953 31
1.0470612 1.680213 -0.52022654 4
1.1439639 1.8349987 -0.49039361 12
1.1189286 1.7941425 -0.40319896 13
1.123376 1.8005737 -0.33007699 16
1.131745 1.8132831 -0.25775397 15
1.1255962 1.8027309 -0.18259157 15
1.1180425 1.7899375 -0.10823574 15
1.1117399 1.7791562 -0.035592761 13
1.1185782 1.7894049 0.55480522 19
1.1233212 1.7962947 0.47990742 15
1.1188295 1.7884175 0.40224546 14
1.1232996 1.7948661 0.32893166 14
1.1184746 1.7864631 0.25409758 14
1.1254684 1.7969363 0.1821555 13
1.1231816 1.7925897 0.10885879 16
1.1168804 1.7818295 0.036039218 31
1.0503511 1.6724578 -0.5189324 4
1.1503624 1.8309944 -0.49039361 11
1.1277963 1.7943814 -0.4041521 12
1.132283 1.8008224 -0.33085918 16
1.14071 1.8135223 -0.25836328 15
1.1318821 1.7987908 -0.18259157 14
1.1242837 1.7860239 -0.10823574 14
1.1206076 1.7794951 -0.035679154 12
1.1248176 1.7854894 0.55480522 20
1.1321822 1.7964842 0.4810313 16
1.1250654 1.7845012 0.40224546 14
1.1321925 1.7951111 0.32971296 13
1.1273519 1.7867451 0.25470692 14
1.1343927 1.797209 0.18259129 14
1.132098 1.7928801 0.10912047 16
1.1230878 1.7779235 0.036039218 29
1.0587658 1.6728623 -0.52022654 4
1.1593527 1.8310837 -0.49151835 11
1.134053 1.7904338 -0.4041521 13
1.1412053 1.8010303 -0.33164132 15
1.1470333 1.8095294 -0.25836328 15
1.1408215 1.7990353 -0.18302734 14
1.1331859 1.7863046 -0.10849655 14
1.1268123 1.7755727 -0.035679154 12
1.1336319 1.7856297 0.55609846 20
1.1384461 1.7925212 0.4810313 15
1.1312876 1.780563 0.40224546 13
1.1384516 1.7911481 0.32971296 14
1.1335819 1.7827991 0.25470692 14
1.1433324 1.7974408 0.18302706 14
1.1383494 1.7889174 0.10912047 14
1.1319716 1.7782094 0.03612648 29
1.0645987 1.6691564 -0.52022654 4
1.168358 1.8311329 -0.49264312 12
1.1429367 1.7906016 -0.40510532 13
1.1474851 1.7970357 -0.33164132 16
1.1560144 1.8096969 -0.25897264 15
1.1470944 1.795042 -0.18302734 14
1.1394142 1.7823381 -0.10849655 14
1.1356968 1.77584 -0.03576554 12
1.1398581 1.7816617 0.55609846 19
1.1473227 1.79264 0.48215523 15
1.1401426 1.7807369 0.40319866 13
1.144697 1.7871633 0.32971296 14
1.1424756 1.7830096 0.25531626 14
1.1522877 1.7976323 0.18346284 14
1.1472821 1.7891359 0.10938215 15
1.1408713 1.7784554 0.036213744 31
1.0704186 1.6654301 -0.52022654 4
1.1747427 1.8270433 -0.49264312 12
1.1518354 1.7907292 -0.40605849 13
1.1564232 1.7971724 -0.33242351 16
1.1623245 1.8056506 -0.25897264 15
1.1560502 1.7952151 -0.18346313 15
1.1483332 1.7825478 -0.10875736 14
1.1445969 1.7760673 -0.035851933 13
1.1486875 1.7817315 0.5573917 21
1.1535732 1.7886242 0.48215523 15
1.1463517 1.7767463 0.40319866 14
1.1536067 1.7873061 0.33049428 15
1.1513845 1.78318 0.2559256 14
1.1612582 1.7977831 0.18389861 15
1.1535203 1.7851204 0.10938215 17
1.1497861 1.7786603 0.036301002 35
1.0762255 1.6616834 -0.52022654 4
1.1837621 1.82702 -0.49376786 12
1.160749 1.7908164 -0.40701169 13
1.1626896 1.7931248 -0.33242351 16
1.1713208 1.8057457 -0.25958198 15
1.1623096 1.7911688 -0.18346313 14
1.1545483 1.7785286 -0.10875736 16
1.1507896 1.772061 -0.035851933 13
1.1575311 1.7817612 0.55868495 19
1.1624645 1.7886717 0.48327911 15
1.1552219 1.7768488 0.40415183 14
1.162531 1.7874082 0.33127558 15
1.1576018 1.77915 0.2559256 14
1.1675266 1.7937186 0.18389861 15
1.1624693 1.7852671 0.10964382 16
1.1559877 1.7746359 0.036301002 45
1.0820194 1.6579167 -0.52022654 4
1.1901325 1.8228768 -0.49376786 12
1.1669929 1.7867538 -0.40701169 13
1.1716429 1.7931895 -0.33320567 16
1.177617 1.801646 -0.25958198 15
1.1712807 1.7912694 -0.1838989 16
1.1634827 1.778666 -0.10901816 16
1.1597056 1.7722163 -0.035938323 15
1.166389 1.7817508 0.55997825 18
1.1713704 1.7886789 0.48440304 15
1.1614172 1.7728055 0.40415183 14
1.1687632 1.7833394 0.33127558 15
1.1665263 1.779249 0.25653496 13
1.1765126 1.7937975 0.1843344 16
1.1686938 1.7811986 0.10964382 17
1.1649187 1.7747694 0.036388267 39
1.0851462 1.6500942 -0.5189324 4
1.1991659 1.8227817 -0.49489263 10
1.175921 1.7867692 -0.40796486 13
1.1778951 1.7890887 -0.33320567 16
1.1866286 1.8016691 -0.26019135 15
1.1775262 1.7871699 -0.1838989 15
1.1724324 1.7787631 -0.10927898 16
1.1658847 1.7681574 -0.035938323 14
1.1752607 1.7817 0.56127143 16
1.1776068 1.784579 0.48440304 16
1.1703026 1.772837 0.40510502 14
1.1777025 1.7833698 0.33205691 15
1.17273 1.775166 0.25653496 13
1.1827669 1.7896798 0.1843344 15
1.1776581 1.7812734 0.1099055 16
1.1711067 1.7706923 0.036388267 38
1.0908995 1.6462963 -0.5189324 4
1.2055212 1.8185847 -0.49489263 10
1.1821508 1.7826535 -0.40796486 13
1.1868632 1.7890816 -0.33398786 15
1.1956545 1.801651 -0.26080069 15
1.1865125 1.7871985 -0.18433468 14
1.1813967 1.778819 -0.10953978 16
1.1748163 1.768241 -0.036024712 13
1.1841464 1.7816094 0.56256473 18
1.1865264 1.7845145 0.48552692 16
1.1764839 1.768741 0.40510502 14
1.1839205 1.779248 0.33205691 15
1.1816691 1.7751926 0.2571443 13
1.1890068 1.7855402 0.1843344 15
1.1838688 1.7771517 0.1099055 16
1.1772804 1.7665937 0.036388267 30
1.0993214 1.646495 -0.52022654 4
1.211862 1.8143655 -0.49489263 9
1.1910932 1.7825974 -0.40891808 13
1.1931009 1.7849277 -0.33398786 16
1.2019361 1.7974664 -0.26080069 14
1.1927438 1.7830459 -0.18433468 14
1.1875988 1.7746843 -0.10953978 16
1.1809814 1.7641294 -0.036024712 12
1.1903582 1.7774651 0.56256473 18
1.1927483 1.7803619 0.48552692 15
1.1853833 1.7687007 0.40605819 13
1.1928742 1.7792065 0.33283818 15
1.1906229 1.7751787 0.25775367 14
1.1980076 1.7855151 0.18477017 15
1.1928476 1.7771543 0.11016718 16
1.1862266 1.7666237 0.036475528 30
1.1050621 1.6426476 -0.52022654 4
1.2154677 1.8060822 -0.49376786 9
1.1973084 1.7784289 -0.40891808 14
1.2020829 1.7848482 -0.33477002 15
1.210976 1.7973756 -0.26141003 15
1.2017443 1.7830019 -0.18477045 14
1.1965778 1.774668 -0.10980059 14
1.1899276 1.7641408 -0.036111102 12
1.199257 1.7773029 0.56385797 19
1.2016816 1.780226 0.48665082 15
1.194297 1.7686201 0.40701142 14
1.201842 1.779124 0.33361951 14
1.1968123 1.7710118 0.25775367 13
1.2042328 1.7813222 0.18477017 15
1.1990438 1.7729796 0.11016718 15
1.1923862 1.7624723 0.036475528 30
1.1107892 1.6387802 -0.52022654 3
1.2217647 1.8018285 -0.49376786 8
1.2062643 1.7783005 -0.40987125 12
1.2083058 1.7806413 -0.33477002 15
1.2172427 1.7931376 -0.26141003 15
1.210759 1.7829168 -0.18520623 14
1.2027652 1.7704803 -0.10980059 14
1.1960784 1.7599764 -0.036111102 11
1.2054535 1.7731057 0.56385797 19
1.2106283 1.780049 0.48777473 15
1.2004633 1.7644405 0.40701142 13
1.208045 1.7749181 0.33361951 14
1.2057799 1.7709255 0.25836298 13
1.2132474 1.7812247 0.18520595 15
1.2080368 1.7729096 0.11042886 14
1.2013469 1.7624303 0.036562789 30
1.1192265 1.6388811 -0.52152056 4
1.2280468 1.7975528 -0.49376786 7
1.2124643 1.7740791 -0.40987125 12
1.2173012 1.7804892 -0.33555222 15
1.2262961 1.792974 -0.26201937 15
1.219788 1.7827904 -0.185642 14
1.2117584 1.7703916 -0.1100614 14
1.2022146 1.7557906 -0.036111102 11
1.2143649 1.7728717 0.56515121 19
1.2168344 1.7758123 0.48777473 14
1.20939 1.7642877 0.40796459 14
1.2170262 1.7747633 0.3344008 15
1.2119544 1.7667058 0.25836298 13
1.222276 1.7810856 0.18564172 14
1.214218 1.768682 0.11042886 15
1.2103217 1.762347 0.03665005 30
1.1249404 1.6349643 -0.52152056 3
1.2343141 1.7932552 -0.49376786 6
1.2214333 1.7738788 -0.41082445 13
1.2235088 1.7762293 -0.33555222 15
1.2353632 1.792769 -0.26262873 14
1.2260036 1.7785218 -0.185642 14
1.2179307 1.7661508 -0.1100614 14
1.2083361 1.7515833 -0.036111102 11
1.2232894 1.7725974 0.56644452 18
1.2257938 1.7755632 0.48889863 15
1.2155411 1.7600554 0.40796459 14
1.2260211 1.7745674 0.33518213 14
1.2209356 1.7665472 0.25897235 13
1.2313185 1.7809054 0.18607752 14
1.2232249 1.7685393 0.11069055 15
1.2164661 1.7581114 0.03665005 29
1.1306407 1.6310276 -0.52152056 4
1.2405661 1.7889357 -0.49376786 6
1.2304155 1.7736371 -0.41177762 12
1.2325172 1.7760047 -0.33633435 15
1.2416136 1.7884458 -0.26262873 15
1.2350458 1.7783226 -0.1860778 14
1.2269373 1.7659895 -0.11032221 14
1.2144428 1.7473549 -0.036111102 11
1.2322264 1.7722818 0.5677377 18
1.2347662 1.7752737 0.49002257 14
1.2244809 1.7598305 0.40891778 13
1.2350293 1.7743303 0.33596343 14
1.2270945 1.7622746 0.25897235 13
1.2403746 1.7806835 0.18651327 14
1.2322454 1.7683554 0.11095222 14
1.2254544 1.7579556 0.036737315 28
1.1363271 1.6270709 -0.52152056 4
1.246803 1.7845944 -0.49376786 5
1.2365991 1.7693313 -0.41177762 12
1.2387091 1.7716917 -0.33633435 15
1.2506932 1.7881675 -0.26323807 14
1.2412456 1.7740006 -0.1860778 14
1.2330942 1.7616959 -0.11032221 14
1.2234025 1.7472003 -0.036197495 10
1.2411765 1.7719257 0.569031 18
1.2409556 1.7709527 0.49002257 15
1.2334338 1.7595648 0.40987095 13
1.2412152 1.7700083 0.33596343 15
1.2360885 1.762043 0.25958169 14
1.2465827 1.776343 0.18651327 14
1.2412797 1.7681301 0.11121391 15
1.2315834 1.7536671 0.036737315 30
1.1419997 1.6230946 -0.52152056 4
1.2558291 1.7842155 -0.49489263 5
1.2455935 1.7690173 -0.41273081 12
1.2477299 1.7713945 -0.33711654 15
1.259786 1.7878476 -0.26384741 15
1.2474306 1.7696571 -0.1860778 13
1.2421137 1.7614615 -0.11058301 14
1.2323754 1.747004 -0.03628388 11
1.2473539 1.7675825 0.569031 19
1.2499396 1.7705902 0.49114645 14
1.2423997 1.7592579 0.41082415 14
1.2502359 1.7696987 0.33674476 14
1.2422316 1.7577175 0.25958169 13
1.2556512 1.7760481 0.18694907 13
1.2503272 1.7678628 0.11147558 14
1.2405846 1.7534385 0.036824573 29
1.1473759 1.6192986 -0.52152056 4
1.2673736 1.7879905 -0.49714214 5
1.254292 1.768881 -0.41368398 13
1.2564543 1.7712749 -0.3378987 15
1.2657079 1.7836603 -0.26384741 14
1.2561753 1.7695721 -0.18651357 14
1.2479481 1.7573328 -0.11058301 14
1.2410573 1.7469833 -0.036370274 11
1.2560066 1.7673732 0.57032424 18
1.2586271 1.7704064 0.49227038 14
1.2482268 1.7551284 0.41082415 13
1.2560977 1.765543 0.33674476 14
1.2509314 1.7576318 0.26019105 14
1.2615339 1.7718744 0.18694907 14
1.2590793 1.7677739 0.11173727 15
1.2463924 1.7493149 0.036824573 29
1.1530212 1.6152836 -0.52152056 4
1.2764381 1.7875202 -0.49826688 6
1.263312 1.7684858 -0.41463721 12
1.265501 1.7708964 -0.33868089 15
1.2748123 1.7832685 -0.26445675 14
1.2623445 1.7651765 -0.18651357 13
1.2569801 1.757027 -0.11084383 14
1.2500572 1.7467059 -0.036456663 11
1.2649797 1.7669054 0.57161748 18
1.2676362 1.769963 0.49339426 14
1.2572043 1.7547505 0.41177732 13
1.2651298 1.7651615 0.33752605 14
1.2570589 1.7532545 0.26019105 13
1.2706141 1.7715074 0.18738484 14
1.2652425 1.7633681 0.11173727 14
1.2554063 1.749015 0.036911838 29
1.1558331 1.6073281 -0.52022654 3
1.28836 1.7909634 -0.50051636 6
1.2694776 1.7640653 -0.41463721 12
1.2716748 1.7664682 -0.33868089 15
1.2810293 1.7788076 -0.26445675 14
1.27141 1.7648009 -0.18694936 13
1.2660248 1.7566794 -0.11110463 14
1.2590705 1.7463871 -0.036543053 10
1.2711397 1.7624791 0.57161748 18
1.2766573 1.7694786 0.49451819 16
1.2661945 1.7543314 0.41273054 13
1.2741745 1.7647387 0.33830738 13
1.266077 1.7528789 0.26080036 13
1.2767901 1.7670614 0.18738484 13
1.2743151 1.7629876 0.11199894 14
1.2644331 1.7486732 0.036999099 28
1.1614366 1.6032836 -0.52022654 4
1.2974627 1.7904004 -0.50164115 6
1.2785085 1.7635972 -0.41559041 12
1.2807323 1.7660161 -0.33946306 15
1.2901449 1.7783421 -0.26506612 15
1.2804881 1.7643832 -0.18738513 14
1.2721491 1.7522494 -0.11110463 13
1.2680964 1.7460264 -0.036629442 10
1.280123 1.7619385 0.57291073 18
1.2828262 1.7650114 0.49451819 17
1.2751968 1.7538705 0.41368371 13
1.2832317 1.7642741 0.33908868 14
1.2751079 1.7524617 0.26140973 12
1.2858818 1.7666209 0.18782063 14
1.2834005 1.7625653 0.11226062 13
1.273473 1.7482899 0.037086364 29
1.164179 1.5953183 -0.5189324 4
1.3037044 1.7858604 -0.50164115 5
1.2846569 1.7591238 -0.41559041 11
1.2868891 1.7615346 -0.33946306 15
1.299273 1.7778348 -0.26567549 15
1.289579 1.7639239 -0.18782091 13
1.2812055 1.7518286 -0.11136544 14
1.2741836 1.7415893 -0.036629442 10
1.2862654 1.7574593 0.57291073 17
1.2918575 1.7644536 0.49564207 17
1.2813112 1.7494085 0.41368371 13
1.2923013 1.7637678 0.33987001 13
1.2812173 1.748 0.26140973 13
1.2920407 1.7621217 0.18782063 13
1.2895451 1.7580746 0.11226062 14
1.2825252 1.7478644 0.037173621 27
1.1697407 1.5912448 -0.5189324 4
1.3099303 1.7812989 -0.50164115 5
1.2936981 1.7585824 -0.41654357 12
1.2959572 1.7610095 -0.34024525 15
1.3054708 1.7732887 -0.26567549 14
1.2957284 1.7594117 -0.18782091 14
1.2902744 1.7513657 -0.11162625 14
1.2832211 1.7411555 -0.036715835 11
1.2952585 1.7568464 0.57420403 16
1.2980087 1.7599334 0.49564207 17
1.2903241 1.748875 0.41463691 13
1.29845 1.7592461 0.33987001 14
1.2902589 1.7475095 0.26201907 13
1.3011429 1.7616072 0.1882564 14
1.2986412 1.7575783 0.1125223 15
1.2886186 1.7433769 0.037173621 27
1.175565 1.5869467 -0.5189324 4
1.3164502 1.7764857 -0.50164115 5
1.3001348 1.7538289 -0.41654357 12
1.3053447 1.7602147 -0.34102744 15
1.3149183 1.7724776 -0.26628482 15
1.3051366 1.7586504 -0.18825668 14
1.2996612 1.750634 -0.11188706 15
1.2895942 1.7364404 -0.036715835 11
1.301689 1.7520872 0.57420403 16
1.3073568 1.7590748 0.496766 17
1.2967254 1.7441341 0.41463691 13
1.3078368 1.7584381 0.34065133 13
1.2966552 1.7427688 0.26201907 13
1.3075908 1.7568265 0.1882564 14
1.3080565 1.7568117 0.11278398 15
1.297986 1.7426515 0.037260886 31
1.1810973 1.5828336 -0.5189324 4
1.3226433 1.7718796 -0.50164115 4
1.3091856 1.7532126 -0.4174968 12
1.3114811 1.7556473 -0.34102744 15
1.3210974 1.767877 -0.26628482 15
1.3112675 1.754084 -0.18825668 14
1.3057641 1.7460866 -0.11188706 15
1.2986423 1.7359313 -0.036802221 10
1.3106908 1.7513995 0.57549721 16
1.3134891 1.7545005 0.496766 17
1.3057479 1.7435257 0.41559011 13
1.3139669 1.7538621 0.34065133 14
1.305707 1.7422034 0.26262844 13
1.3167033 1.756237 0.18869218 14
1.3171767 1.7562295 0.11304566 15
1.3070667 1.7421049 0.037348147 29
1.1866152 1.5787011 -0.5189324 4
1.3288202 1.767252 -0.50164115 4
1.3182479 1.7525547 -0.41844994 12
1.3205706 1.7550048 -0.34180957 15
1.330245 1.7672195 -0.26689416 15
1.3203785 1.7534752 -0.18869248 14
1.3148553 1.7455063 -0.11214787 15
1.3046938 1.7313877 -0.036802221 10
1.3197038 1.7506707 0.57679051 16
1.3225389 1.7537947 0.49788988 16
1.311826 1.7389572 0.41559011 13
1.3230557 1.7532068 0.3414326 13
1.3147705 1.7415954 0.26323774 12
1.3258275 1.7556049 0.18912795 14
1.3232991 1.751621 0.11304566 15
1.3131346 1.7375358 0.037348147 28
1.1921186 1.5745494 -0.5189324 4
1.3349811 1.7626028 -0.50164115 4
1.3273218 1.7518545 -0.41940317 12
1.3296719 1.7543203 -0.34259176 15
1.339404 1.7665199 -0.2675035 14
1.3295014 1.7528241 -0.18912823 13
1.3209404 1.7409059 -0.11214787 15
1.3137521 1.7308049 -0.036888614 11
1.3287275 1.7498999 0.57808375 18
1.3315996 1.7530472 0.49901381 17
1.3208578 1.7382756 0.41654328 13
1.3291675 1.7485777 0.3414326 13
1.3238457 1.7409461 0.26384711 13
1.3349633 1.7549305 0.18956374 14
1.3324291 1.7509646 0.11330734 14
1.3222197 1.7369195 0.037435409 28
1.2093223 1.5857397 -0.52410877 4
1.3411255 1.7579321 -0.50164115 4
1.3364065 1.7511125 -0.42035633 12
1.3387841 1.7535932 -0.34337392 14
1.3455621 1.7618338 -0.2675035 15
1.3356117 1.7481724 -0.18912823 14
1.3300413 1.7402515 -0.11240868 14
1.3197857 1.7262084 -0.036888614 10
1.3348277 1.7452511 0.57808375 16
1.3406714 1.7522578 0.50013769 19
1.3269174 1.7336544 0.41654328 13
1.3382654 1.7478487 0.34221393 14
1.3299147 1.7363143 0.26384711 12
1.341081 1.75026 0.18956374 14
1.3415704 1.7502657 0.11356901 14
1.3313167 1.7362607 0.03752267 29
1.1971978 1.5585285 -0.51634425 4
1.3472537 1.7532399 -0.50164115 4
1.3455023 1.7503284 -0.42130953 12
1.3479075 1.7528242 -0.34415612 15
1.3547299 1.7610598 -0.26811287 14
1.3447436 1.7474471 -0.18956403 13
1.3391534 1.7395546 -0.11266948 14
1.3258033 1.7215911 -0.036888614 11
1.3438591 1.7444072 0.579377 17
1.3467797 1.7475674 0.50013769 19
1.3359578 1.7328992 0.4174965 13
1.3473744 1.7470772 0.34299523 13
1.3389989 1.7355907 0.26445645 12
1.3502257 1.7495112 0.18999954 13
1.3476719 1.7455722 0.11356901 13
1.3404249 1.7355595 0.037609935 26
1.1878536 1.5352412 -0.50987375 4
1.3503834 1.7446736 -0.50051636 4
1.3516039 1.7456211 -0.42130953 12
1.3540179 1.7481084 -0.34415612 15
1.3639084 1.7602428 -0.26872221 14
1.3538868 1.7466795 -0.18999982 13
1.3452176 1.7348695 -0.11266948 14
1.3348687 1.7209028 -0.036975004 9
1.3499401 1.7397057 0.579377 16
1.3558592 1.7467041 0.50126159 21
1.3450087 1.7321019 0.41844967 13
1.3534646 1.7423635 0.34299523 13
1.3480941 1.7348248 0.26506582 11
1.3593813 1.7487198 0.19043529 13
1.3568221 1.7447991 0.1138307 14
1.3495445 1.7348157 0.037697192 26
nan nan nan 0
1.3564652 1.7399492 -0.50051636 4
1.3607074 1.7447627 -0.4222627 12
1.3631494 1.747265 -0.34493828 14
1.3730979 1.7593836 -0.26933157 16
1.3599756 1.741943 -0.18999982 13
1.3543386 1.7340987 -0.1129303 11
1.3408676 1.7162328 -0.036975004 15
1.3589787 1.7387884 0.58067024 16
1.3649487 1.7457988 0.5023855 22
1.3540708 1.7312628 0.41940287 13
1.3625815 1.7415179 0.34377655 13
1.3541416 1.7301085 0.26506582 12
1.368548 1.7478862 0.19087109 13
1.3629043 1.7400523 0.1138307 14
1.3586754 1.7340297 0.037784457 30
1.2074887 1.5383084 -0.51375604 5
1.3625305 1.7352037 -0.50051636 4
1.3667893 1.7400023 -0.4222627 13
1.3692402 1.742496 -0.34493828 14
1.3822979 1.7584815 -0.26994088 14
1.3691268 1.7411004 -0.19043559 13
1.3634706 1.733285 -0.1131911 14
1.3530334 1.7193992 -0.037147783 13
1.3650401 1.7340341 0.58067024 17
1.3740488 1.7448515 0.5035094 21
1.3631431 1.7303811 0.42035604 13
1.371709 1.7406298 0.34455785 13
1.363245 1.7292686 0.26567516 13
1.3777252 1.7470094 0.19130686 13
1.3720626 1.7392045 0.11409239 15
1.367817 1.7332007 0.037871718 25
1.1978745 1.5151409 -0.50728554 4
1.368579 1.7304369 -0.50051636 4
1.3759004 1.7390702 -0.42321593 13
1.3783791 1.7415783 -0.34572047 14
1.3915081 1.7575364 -0.27055025 14
1.3782886 1.7402154 -0.19087137 14
1.3726135 1.7324288 -0.11345191 15
1.3621324 1.7185838 -0.037234176 8
1.3740854 1.7330433 0.58196354 17
1.3831587 1.7438614 0.50463331 24
1.3722256 1.7294573 0.42130923 12
1.380847 1.7396994 0.34533918 13
1.372359 1.728386 0.2662845 11
1.3838151 1.7421895 0.19130686 13
1.3781252 1.7344044 0.11409239 14
1.3738587 1.7284155 0.037871718 27
1.1911221 1.4958377 -0.50210917 3
1.3746111 1.7256492 -0.50051636 4
1.3819625 1.7342567 -0.42321593 11
1.3875282 1.7406179 -0.3465026 14
1.4007287 1.7565485 -0.27115959 12
1.3843547 1.7353936 -0.19087137 14
1.381767 1.7315298 -0.11371273 15
1.3743609 1.7216326 -0.037406955 12
1.3801264 1.7282362 0.58196354 17
1.3922783 1.7428293 0.50575721 24
1.3813184 1.7284912 0.4222624 12
1.3899949 1.738726 0.34612048 13
1.3814833 1.7274607 0.26689386 11
1.3929996 1.741238 0.19174264 13
1.3872907 1.7334815 0.11435406 15
1.383008 1.7275122 0.037958983 27
nan nan nan 0
1.3806264 1.7208405 -0.50051636 4
1.3910799 1.73325 -0.42416909 13
1.3966873 1.7396147 -0.34728479 13
1.4068516 1.7516483 -0.27115959 14
1.3935235 1.7344335 -0.19130714 13
1.3878027 1.7266959 -0.11371273 12
1.3834947 1.7207208 -0.037493344 11
1.3891777 1.7271715 0.58325672 17
1.3983535 1.7379587 0.50575721 25
1.3904212 1.7274826 0.42321563 13
1.3960557 1.7338634 0.34612048 13
1.3875048 1.722628 0.26689386 12
1.4021943 1.7402434 0.19217841 14
1.3933332 1.7286285 0.11435406 14
1.3921679 1.7265658 0.038046245 26
1.2379534 1.5325704 -0.51763833 4
1.3866248 1.7160107 -0.50051636 4
1.400207 1.7322009 -0.42512229 13
1.4058564 1.7385688 -0.34806696 13
1.4129574 1.7467269 -0.27115959 14
1.4027027 1.7334309 -0.19174294 13
1.3969632 1.7257221 -0.11397354 14
1.3957851 1.7236513 -0.037666127 8
1.3982384 1.726065 0.58455002 18
1.4074789 1.7368523 0.50688112 18
1.3995336 1.7264315 0.4241688 13
1.4052103 1.7328157 0.3469018 12
1.396636 1.7216281 0.2675032 13
1.411399 1.739206 0.1926142 13
1.4025059 1.727631 0.11461575 15
1.3981862 1.7216958 0.038046245 32
1.2097687 1.487029 -0.50340325 4
1.3926064 1.7111599 -0.50051636 4
1.4093441 1.731109 -0.42607546 10
1.4119165 1.7336508 -0.34806696 14
1.4221809 1.7456318 -0.27176896 15
1.4118917 1.732385 -0.19217871 14
1.4061338 1.7247053 -0.11423435 13
1.4049528 1.7226427 -0.037752517 24
1.404255 1.7211738 0.58455002 19
1.4166137 1.7357031 0.50800502 18
1.4086558 1.7253376 0.42512199 13
1.4143742 1.7317247 0.3476831 13
1.4057771 1.7205857 0.26811254 12
1.4174614 1.7342687 0.1926142 12
1.4116884 1.7265904 0.11487742 14
1.4073524 1.7206742 0.038133506 32
1.2391757 1.5128995 -0.51375604 4
1.3979752 1.7067766 -0.50051636 4
1.4178864 1.7304696 -0.42702866 12
1.4204866 1.7330261 -0.34884915 14
1.4276578 1.7411551 -0.27176896 14
1.4236449 1.7356431 -0.19305027 14
1.4147125 1.7241393 -0.11449515 11
1.4135295 1.7220848 -0.03783891 14
1.4127201 1.7204863 0.58584327 17
1.4220595 1.7312441 0.50800502 18
1.4171849 1.7246959 0.42607516 13
1.4198077 1.7272729 0.3476831 13
1.4143274 1.7199938 0.26872188 12
1.426067 1.7336537 0.19304997 11
1.4171058 1.7221469 0.11487742 14
1.4159285 1.7201043 0.038220771 24
1.2165318 1.4752467 -0.50210917 5
1.4070249 1.7056447 -0.50164115 3
1.4270421 1.7292954 -0.42798182 10
1.4296712 1.7318655 -0.34963131 13
1.4368869 1.7399877 -0.27237827 15
1.4328671 1.7345033 -0.19348605 13
1.4207221 1.7191906 -0.11449515 13
1.4227173 1.7209932 -0.037925296 14
1.4217952 1.7192665 0.58713651 17
1.4311996 1.7300235 0.50912893 16
1.426326 1.72352 0.42702836 13
1.4289776 1.7261106 0.34846443 14
1.4234883 1.7188687 0.26933125 14
1.4352877 1.732501 0.19348575 13
1.4262946 1.7210343 0.1151391 14
1.4251148 1.7189997 0.038308028 24
nan nan nan 0
1.4135636 1.7002295 -0.50164115 4
1.4368103 1.727577 -0.42893505 11
1.4394692 1.7301596 -0.3504135 14
1.446732 1.7382721 -0.27298763 13
1.4427034 1.7328165 -0.19392182 12
1.4273129 1.7137227 -0.11449515 14
1.4325151 1.7193586 -0.038011689 14
1.4283863 1.7137945 0.58713651 17
1.4409519 1.7282575 0.51025283 17
1.4360772 1.7217997 0.42798153 13
1.4387587 1.7244029 0.3492457 13
1.4332576 1.7172003 0.26994058 13
1.4451216 1.7308006 0.19392152 14
1.4360932 1.7193772 0.11540078 14
1.4317046 1.7135152 0.038308028 26
nan nan nan 0
1.41949 1.695285 -0.50164115 3
1.4459834 1.7263136 -0.42988822 10
1.4486713 1.7289095 -0.35119566 15
1.4559789 1.7370148 -0.27359697 14
1.4519439 1.7315869 -0.1943576 13
1.4364952 1.7125555 -0.11475597 14
1.4417216 1.7181772 -0.038098078 13
1.4374651 1.7124975 0.58842975 18
1.4501089 1.7269481 0.51137674 16
1.4452357 1.7205349 0.42893475 11
1.4479464 1.7231511 0.35002702 12
1.4424362 1.7159858 0.27054995 12
1.4575658 1.7333701 0.19479308 13
1.4453003 1.7181748 0.11566246 12
1.4409012 1.7123281 0.038395293 22
1.2695148 1.50653 -0.51763833 3
1.425104 1.6905684 -0.50164115 3
1.4548644 1.7252614 -0.43084142 11
1.457581 1.7278708 -0.35197783 14
1.4649317 1.7359699 -0.27420634 13
1.4608909 1.7305686 -0.19479337 14
1.4453877 1.7115974 -0.11501677 13
1.4506376 1.717206 -0.038184468 16
1.4462534 1.7114103 0.58972305 17
1.4589729 1.7258507 0.51250064 17
1.4509333 1.7157328 0.42893475 14
1.4536526 1.71834 0.35002702 12
1.4513247 1.7149812 0.27115926 10
1.4665242 1.7323288 0.19522887 14
1.4542171 1.717183 0.11592413 14
1.4497979 1.7113593 0.038482554 29
1.1966398 1.4100314 -0.48528594 5
1.4309964 1.6855835 -0.50164115 3
1.4640551 1.7239137 -0.43179458 11
1.4636035 1.7227724 -0.35197783 14
1.4741962 1.7346271 -0.27481568 13
1.4701493 1.7292535 -0.19522917 12
1.4545885 1.7103454 -0.11527758 13
1.4598621 1.7159394 -0.038270857 14
1.455349 1.7100296 0.59101623 18
1.4649885 1.7207474 0.51250064 16
1.4600958 1.7143945 0.42988792 12
1.4628446 1.7170148 0.35080832 14
1.4573022 1.7099048 0.27115926 12
1.4951832 1.7537318 0.19827931 10
1.4634424 1.7158955 0.11618582 15
1.4590126 1.7100868 0.038569819 27
nan nan nan 0
1.4403312 1.6840296 -0.50276589 4
1.4703637 1.718536 -0.43179458 11
1.473119 1.7211483 -0.35275999 13
1.4837717 1.7329822 -0.27542502 13
1.4764774 1.7238535 -0.19522917 12
1.4640962 1.7087941 -0.11553839 14
1.469395 1.714373 -0.03835725 15
1.4647505 1.7083507 0.59230953 17
1.4744574 1.7190645 0.51362455 16
1.4695656 1.7127565 0.43084112 12
1.4723445 1.7153891 0.35158965 13
1.4667925 1.7083173 0.27176863 12
1.4853739 1.7293475 0.19610043 14
1.4729756 1.7143072 0.11644749 13
1.4652656 1.7047321 0.038569819 28
nan nan nan 0
1.4462007 1.6789916 -0.50276589 3
1.4795576 1.7171116 -0.43274778 11
1.4823424 1.7197365 -0.35354218 14
1.4930527 1.7315507 -0.27603436 14
1.485739 1.7224607 -0.19566494 12
1.473314 1.7074536 -0.1157992 14
1.4786369 1.7130178 -0.038443636 14
1.4738613 1.7068827 0.59360272 17
1.4836339 1.7175941 0.51474845 16
1.4755354 1.7076162 0.43084112 13
1.4815528 1.7139752 0.35237095 13
1.4759928 1.7069407 0.27237797 12
1.4946599 1.727919 0.1965362 13
1.4822179 1.712931 0.11670918 15
1.4744841 1.7033824 0.038657077 26
nan nan nan 0
1.4520528 1.6739331 -0.50276589 3
1.4855424 1.7119364 -0.43274778 11
1.4915736 1.7182809 -0.35432434 14
1.5023416 1.7300755 -0.27664372 13
1.4917424 1.7172641 -0.19566494 13
1.4825402 1.7060692 -0.11606 13
1.4846075 1.7078459 -0.038443636 13
1.4798104 1.7017277 0.59360272 17
1.4928179 1.7160807 0.51587236 15
1.4847093 1.7061579 0.43179429 12
1.4875268 1.7087933 0.35237095 13
1.4819421 1.7017782 0.27237797 12
1.4974107 1.7189356 0.19610043 13
1.4914685 1.7115111 0.11697085 13
1.4837012 1.701998 0.038744342 27
1.2990497 1.487556 -0.5189324 3
1.4578872 1.6688544 -0.50276589 3
1.4947389 1.7104363 -0.43370095 12
1.5008126 1.7167819 -0.35510653 14
1.5116385 1.7285564 -0.27725306 14
1.5010074 1.7157955 -0.19610073 13
1.4884865 1.7008837 -0.11606 13
1.493853 1.7064149 -0.038530029 14
1.4889238 1.7001855 0.59489602 18
1.5020096 1.7145243 0.51699626 14
1.4906558 1.7009649 0.43179429 12
1.4967382 1.7073042 0.35315228 13
1.4911456 1.700326 0.27298734 12
1.5034018 1.713698 0.19610043 12
1.4974338 1.7062945 0.11697085 13
1.4896333 1.6968085 0.038744342 27
1.3042344 1.4830123 -0.5189324 3
1.4637036 1.6637553 -0.50276589 3
1.503943 1.7088928 -0.43465418 11
1.5067962 1.7115325 -0.35510653 14
1.5209432 1.7269938 -0.27786243 14
1.5102801 1.714283 -0.1965365 13
1.4977163 1.6994239 -0.11632082 13
1.5031062 1.70494 -0.038616419 13
1.4980441 1.6986002 0.59618932 18
1.5079852 1.7092707 0.51699626 15
1.4998319 1.6994313 0.43274748 12
1.5059571 1.7057712 0.35393357 13
1.5003569 1.6988302 0.27359664 13
1.5126723 1.7121725 0.1965362 13
1.5066873 1.7047985 0.11723254 13
1.4988583 1.6953437 0.038831603 28
1.2997968 1.4676043 -0.51505011 3
1.4695023 1.6586359 -0.50276589 3
1.5131545 1.7073059 -0.43560734 11
1.5160375 1.7099576 -0.35588869 14
1.530255 1.7253869 -0.27847174 13
1.5162549 1.7090007 -0.1965365 13
1.5069535 1.6979197 -0.11658162 13
1.5090486 1.6996826 -0.038616419 13
1.5071713 1.6969718 0.5974825 17
1.5171785 1.7076386 0.51812023 15
1.5090156 1.6978542 0.43370065 13
1.5151836 1.7041949 0.3547149 12
1.509576 1.697291 0.27420601 12
1.5219506 1.7106032 0.19697198 12
1.5159484 1.7032584 0.11749421 14
1.5047672 1.6901013 0.038831603 29
1.3242 1.484684 -0.52281469 3
1.475283 1.6534963 -0.50276589 4
1.519105 1.7020136 -0.43560734 11
1.5252863 1.7083391 -0.35667089 14
1.5395745 1.7237363 -0.27908111 14
1.5255299 1.7074119 -0.19697228 12
1.5161989 1.6963724 -0.11684243 13
1.5183046 1.6981317 -0.038702808 13
1.5163057 1.6953006 0.5987758 16
1.5263785 1.705963 0.51924407 15
1.5182066 1.6962337 0.43465388 12
1.5277117 1.7062541 0.35627753 13
1.5188023 1.6957078 0.27481535 12
1.5312362 1.7089899 0.19740775 12
1.5252175 1.7016747 0.1177559 13
1.5139949 1.6885607 0.038918864 27
1.3293744 1.4800527 -0.52281469 3
1.4810458 1.6483364 -0.50276589 3
1.5283179 1.7003511 -0.43656054 11
1.5345421 1.7066767 -0.35745302 13
1.5489006 1.7220414 -0.27969044 13
1.5348121 1.7057791 -0.19740805 13
1.5254513 1.6947806 -0.11710324 13
1.527568 1.6965367 -0.038789198 14
1.5254465 1.6935859 0.60006905 16
1.5355855 1.7042441 0.52036798 13
1.5274044 1.6945696 0.43560702 12
1.5369655 1.7045788 0.35705879 14
1.5280361 1.6940812 0.27542472 13
1.5371923 1.7036344 0.19740775 13
1.5344937 1.7000469 0.11801757 13
1.5232301 1.686976 0.039006125 27
1.3377724 1.478985 -0.52410877 3
1.4867905 1.6431566 -0.50276589 4
1.5375378 1.6986449 -0.43751371 11
1.543805 1.7049707 -0.35823521 14
1.558234 1.7203022 -0.28029981 13
1.5441017 1.7041023 -0.19784385 13
1.5347114 1.693145 -0.11736406 13
1.536839 1.6948977 -0.038875591 14
1.5345939 1.6918283 0.60136229 16
1.544799 1.7024817 0.52149189 11
1.5366093 1.6928623 0.43656024 12
1.5462261 1.7028596 0.35784012 12
1.5372771 1.6924105 0.27603403 12
1.5464797 1.7019448 0.19784354 12
1.5437772 1.698375 0.11827926 14
1.5324728 1.6853474 0.03909339 27
1.3461792 1.4778768 -0.5254029 3
1.4957986 1.6415579 -0.50389069 4
1.5467643 1.696895 -0.43846694 10
1.5530745 1.7032205 -0.35901737 13
1.567574 1.7185192 -0.28090915 14
1.553398 1.7023813 -0.1982796 13
1.5439785 1.6914653 -0.11762486 13
1.5461166 1.6932142 -0.038961977 13
1.5437475 1.6900272 0.60265553 16
1.5507323 1.6970789 0.52149189 12
1.5458206 1.6911108 0.43751341 12
1.5554932 1.7010963 0.35862142 13
1.5465249 1.6906959 0.2766434 12
1.5557736 1.7002108 0.19827931 13
1.5530674 1.696659 0.11854094 13
1.5417224 1.6836747 0.039180648 28
1.3480649 1.4696095 -0.52410877 3
1.5015197 1.6363267 -0.50389069 4
1.5559973 1.6951014 -0.43942013 10
1.5623504 1.7014263 -0.35979956 14
1.5735632 1.7130369 -0.28090915 13
1.5627011 1.7006161 -0.1987154 13
1.5532525 1.6897416 -0.11788567 13
1.5554017 1.691487 -0.03904837 13
1.5529073 1.688183 0.60394883 17
1.5599458 1.6952406 0.52261579 11
1.5550387 1.6893159 0.43846661 12
1.5647672 1.6992894 0.35940275 13
1.5557795 1.6889372 0.27725273 13
1.5650743 1.6984328 0.19871509 12
1.5623647 1.6948987 0.11880261 13
1.5509793 1.6819582 0.039267913 26
1.3531867 1.464895 -0.52410877 3
1.5072224 1.6310754 -0.50389069 4
1.5652366 1.6932639 -0.4403733 10
1.56828 1.6959623 -0.35979956 14
1.5829031 1.7111768 -0.28151849 15
1.5720109 1.6988069 -0.19915117 13
1.5625333 1.6879737 -0.11814647 12
1.5646932 1.6897154 -0.039134759 13
1.5653552 1.6898385 0.60653532 17
1.5691651 1.6933587 0.5237397 12
1.5642627 1.6874774 0.43941984 11
1.5706893 1.6938171 0.35940275 13
1.5650406 1.6871349 0.2778621 12
1.5743815 1.6966103 0.19915086 13
1.5682715 1.6894346 0.11880261 13
1.5602428 1.6801974 0.039355174 26
1.3582919 1.4601625 -0.52410877 3
1.5129067 1.6258043 -0.50389069 4
1.574482 1.6913825 -0.4413265 9
1.577556 1.6940918 -0.36058176 14
1.5922493 1.7092723 -0.28212786 14
1.5779314 1.6933093 -0.19915117 13
1.5718206 1.6861615 -0.11840729 12
1.5739914 1.6878995 -0.039221149 13
1.5745388 1.6878958 0.60782856 16
1.5783907 1.6914332 0.5248636 13
1.5734928 1.6855946 0.440373 13
1.579963 1.6919335 0.36018407 13
1.5743078 1.6852878 0.27847141 12
1.5836949 1.6947438 0.19958664 12
1.577569 1.6875978 0.11906429 13
1.5695127 1.6783922 0.039442439 26
1.3633806 1.4554124 -0.52410877 3
1.5185727 1.6205133 -0.50389069 4
1.5837333 1.6894572 -0.44227967 9
1.586838 1.6921771 -0.36136392 14
1.6016014 1.7073232 -0.2827372 14
1.5872409 1.6914232 -0.19958696 13
1.5811142 1.6843051 -0.11866809 13
1.5832958 1.6860393 -0.039307538 13
1.5804211 1.6823894 0.60782856 14
1.5876216 1.6894635 0.52598751 13
1.5793669 1.6800916 0.440373 12
1.5892423 1.6900057 0.36096537 13
1.580181 1.6797822 0.27847141 13
1.5964282 1.6964602 0.20045821 13
1.5868727 1.6857164 0.11932597 13
1.578789 1.6765429 0.039529696 28
1.3684525 1.4506444 -0.52410877 3
1.5208762 1.6116592 -0.50276589 4
1.5997289 1.6946263 -0.44513926 8
1.5995164 1.6938088 -0.36292824 14
1.6109594 1.7053299 -0.28334656 14
1.5965564 1.6894925 -0.20002273 13
1.590414 1.6824042 -0.11892891 12
1.5926067 1.6841347 -0.039393932 14
1.5896033 1.6803713 0.6091218 14
1.5968579 1.6874501 0.52711141 14
1.5885965 1.6781331 0.4413262 12
1.5985277 1.6880339 0.3617467 13
1.5894479 1.6778591 0.27908078 12
1.6057664 1.6944927 0.200894 13
1.5996177 1.6874144 0.11984934 13
1.5880718 1.6746492 0.039616961 27
1.3735079 1.4458587 -0.52410877 3
1.5264926 1.6063405 -0.50276589 4
1.6157798 1.6997039 -0.44799879 13
1.6088223 1.6917938 -0.36371043 14
1.6203225 1.7032915 -0.28395587 13
1.6058779 1.6875174 -0.20045851 13
1.5997199 1.6804589 -0.11918971 13
1.6019232 1.6821854 -0.039480317 14
1.5954592 1.6748123 0.6091218 13
1.6060997 1.6853929 0.52823532 14
1.5978311 1.6761303 0.44227937 12
1.6078185 1.6860176 0.362528 13
1.5987207 1.6758915 0.27969012 12
1.6151102 1.6924807 0.20132977 13
1.6089457 1.685432 0.12011101 13
1.5973603 1.6727111 0.039704222 27
1.3785465 1.4410555 -0.52410877 3
1.5354589 1.6045222 -0.50389069 4
1.6284913 1.7011447 -0.44990519 12
1.6181334 1.6897343 -0.3644926 13
1.6296915 1.7012091 -0.28456524 13
1.6152049 1.6854979 -0.20089431 13
1.6090313 1.6784691 -0.11945052 12
1.6112455 1.6801918 -0.039566711 13
1.6012957 1.6692328 0.6091218 11
1.6119729 1.6797762 0.52823532 12
1.6036723 1.6705425 0.44227937 12
1.6171148 1.6839573 0.36330932 13
1.6079988 1.6738795 0.28029948 12
1.6210082 1.6868325 0.20132977 12
1.6182796 1.6834052 0.1203727 13
1.6101197 1.6743318 0.039878745 26
1.3835684 1.4362347 -0.52410877 3
1.544431 1.6026608 -0.50501537 4
1.6412324 1.702517 -0.45181155 11
1.6274501 1.6876305 -0.36527479 13
1.6390653 1.6990817 -0.28517458 13
1.6245376 1.6834338 -0.20133008 13
1.6183486 1.6764349 -0.11971132 13
1.6205733 1.6781533 -0.0396531 13
1.6104681 1.6671066 0.61041504 10
1.6212124 1.6776427 0.52935922 11
1.6129054 1.6684637 0.44323257 12
1.6264161 1.6818521 0.36409062 13
1.6172825 1.6718235 0.28090885 13
1.6303504 1.6847434 0.20176555 13
1.627619 1.6813335 0.12063438 13
1.6194324 1.6722926 0.03996601 29
1.3852106 1.42793 -0.52281469 3
1.5500158 1.5972598 -0.50501537 4
1.6540029 1.7038213 -0.45371795 11
1.6333311 1.6819394 -0.36527479 14
1.6484444 1.6969098 -0.28578395 13
1.6338753 1.6813251 -0.20176587 13
1.627671 1.6743557 -0.11997214 12
1.6299067 1.6760703 -0.03973949 14
1.6162777 1.6614749 0.61041504 10
1.6270586 1.6719733 0.52935922 11
1.6221431 1.6663402 0.44418573 13
1.6322769 1.6761647 0.36409062 13
1.6265714 1.6697227 0.28151816 12
1.6396976 1.6826093 0.20220132 13
1.6369635 1.6792173 0.12089606 13
1.6287502 1.6702086 0.040053267 29
1.3868116 1.4196311 -0.52152056 3
1.5589869 1.595324 -0.50614017 4
1.6633717 1.7015474 -0.45467114 10
1.6426449 1.6797585 -0.36605695 14
1.6578279 1.6946926 -0.28639328 14
1.6432179 1.6791714 -0.20220163 13
1.6369985 1.6722319 -0.12023295 13
1.6392453 1.6739426 -0.039825883 13
1.6254473 1.6592731 0.61170834 10
1.6362947 1.6697633 0.53048313 10
1.6313858 1.6641728 0.44513896 12
1.6415757 1.6739829 0.36487195 13
1.6358653 1.6675774 0.28212753 13
1.6490498 1.6804308 0.20263711 13
1.6463128 1.6770562 0.12115774 14
1.6345704 1.664513 0.040053267 30
1.3883718 1.4113387 -0.52022654 3
1.5679632 1.5933448 -0.50726491 4
1.669301 1.6957308 -0.45467114 10
1.6519636 1.6775331 -0.36683914 13
1.6637334 1.6888955 -0.28639328 13
1.6525655 1.6769732 -0.20263742 14
1.6463312 1.6700635 -0.12049376 12
1.6485885 1.6717699 -0.039912272 15
1.6346214 1.6570276 0.61300153 10
1.6421133 1.6640413 0.53048313 9
1.6406331 1.6619611 0.44609213 13
1.650879 1.6717565 0.36565322 15
1.6451638 1.6653875 0.28273687 12
1.6549056 1.6746643 0.20263711 14
1.6556672 1.6748501 0.12141941 14
1.6438859 1.662352 0.040140532 33
1.3898908 1.4030526 -0.5189324 3
1.5735155 1.5878618 -0.50726491 4
1.6786654 1.6933792 -0.45562431 15
1.6612864 1.6752629 -0.36762127 13
1.6731137 1.6866009 -0.28700262 15
1.6619176 1.6747298 -0.20307319 15
1.6556685 1.6678503 -0.12075458 14
1.6579369 1.6695524 -0.039998662 17
1.6437993 1.6547381 0.61429483 10
1.6513464 1.6617553 0.53160703 11
1.6498849 1.659705 0.44704533 13
1.6601869 1.6694856 0.36643454 13
1.6509671 1.6596346 0.28273687 13
1.6642544 1.672408 0.20307288 14
1.6615033 1.6690606 0.12141941 15
1.6496786 1.6566037 0.040140532 33
1.3879582 1.3913541 -0.51634425 3
1.5787723 1.5826352 -0.50726491 4
1.6842716 1.6878031 -0.45562431 17
1.6668327 1.6697447 -0.36762127 13
1.6786976 1.6810435 -0.28700262 13
1.6674621 1.6692096 -0.20307319 14
1.6611902 1.6623507 -0.12075458 13
1.6669985 1.667581 -0.040085051 17
1.6526928 1.6526932 0.61558807 10
1.6568478 1.65627 0.53160703 9
1.6588514 1.6576941 0.44799849 12
1.665714 1.6639709 0.36643454 13
1.6599733 1.6576576 0.28334624 13
1.6733165 1.6703988 0.20350866 13
1.6705633 1.6670687 0.1216811 14
1.6587025 1.6546547 0.040227797 30
1.38572 1.379928 -0.51375604 3
1.5842872 1.5771146 -0.50726491 4
1.6901529 1.6819137 -0.45562431 15
1.6761522 1.6673992 -0.36840346 14
1.6880741 1.6786728 -0.28761196 13
1.6768112 1.6668906 -0.20350897 12
1.6705246 1.6600616 -0.12101538 13
1.6763562 1.6652751 -0.040171444 14
1.6618789 1.6503175 0.61688131 9
1.6660768 1.6539087 0.53273094 9
1.6646277 1.6518936 0.44799849 11
1.6750181 1.6616243 0.36721584 12
1.6657494 1.6518531 0.28334624 11
1.6826743 1.6680543 0.20394443 12
1.6799191 1.6647419 0.12194277 12
1.6680195 1.6523728 0.040315058 30
1.4008306 1.3852704 -0.51763833 3
1.5895083 1.5718522 -0.50726491 4
1.6957209 1.6762998 -0.45562431 14
1.685185 1.6653029 -0.36918563 12
1.6936316 1.6730657 -0.28761196 12
1.6858736 1.6648208 -0.20394474 12
1.6795738 1.6580206 -0.12127619 12
1.6818691 1.6597071 -0.040171444 14
1.6707807 1.6481893 0.61817455 8
1.6715521 1.6483747 0.53273094 10
1.673592 1.6498103 0.44895169 12
1.6840369 1.6595272 0.36799717 12
1.6747533 1.6498027 0.28395554 12
1.6881965 1.6624651 0.20394443 13
1.6854304 1.6591619 0.12194277 13
1.6770532 1.650339 0.040402319 26
1.4157526 1.3907709 -0.52152056 3
1.5984616 1.5697079 -0.50838971 4
1.701562 1.6703703 -0.45562431 15
1.6945125 1.6628695 -0.36996782 12
1.703004 1.670619 -0.28822133 13
1.695231 1.6624134 -0.20438054 12
1.6889167 1.6556431 -0.12153699 13
1.6912228 1.6573249 -0.04025783 14
1.679974 1.6457269 0.61946785 17
1.6807768 1.6459386 0.53385484 9
1.6828481 1.6473917 0.44990486 11
1.6898195 1.6536387 0.36799717 13
1.6840497 1.6474173 0.28456491 12
1.6975508 1.6600448 0.20438023 13
1.6947821 1.6567589 0.12220446 13
1.6863792 1.6479689 0.04048958 28
1.4314573 1.3954384 -0.5254029 3
1.6044772 1.5635587 -0.50838971 4
1.7114791 1.6672496 -0.45657751 15
1.7044228 1.659796 -0.37074998 13
1.7129622 1.6675292 -0.28883067 13
1.7051713 1.6593655 -0.20481631 13
1.6988406 1.6526277 -0.12179781 13
1.701158 1.6543043 -0.040344223 14
1.6932071 1.6459975 0.62205434 14
1.6905785 1.6428683 0.53497875 11
1.6926819 1.6443381 0.45085809 12
1.6996992 1.6505784 0.36877847 13
1.6939237 1.6443955 0.28517425 12
1.7074867 1.6569833 0.20481598 13
1.704715 1.6537158 0.12246613 14
1.6998723 1.6484423 0.040664103 32
1.4501996 1.40387 -0.53057927 3
1.613426 1.5613363 -0.50951445 4
1.7208163 1.6646779 -0.45753068 16
1.7137563 1.6572694 -0.37153217 13
1.7223407 1.6649891 -0.28944001 14
1.7145351 1.6568646 -0.2052521 14
1.7081902 1.6501567 -0.12205861 13
1.7105184 1.6518288 -0.040430613 18
1.7024174 1.6434315 0.62334752 14
1.6998086 1.6403403 0.53610265 11
1.7019438 1.6418271 0.45181125 12
1.7090055 1.6480637 0.36955979 14
1.7032264 1.641917 0.28578362 13
1.7168471 1.6544694 0.20525178 14
1.7140731 1.6512194 0.12272782 14
1.7092218 1.6459615 0.040751368 68
1.4481279 1.3921051 -0.52799106 3
1.6223792 1.5590706 -0.51063919 4
1.7301563 1.6620613 -0.4584839 16
1.7230927 1.6546977 -0.3723143 15
1.731722 1.6624036 -0.29004934 15
1.727496 1.6577674 -0.20612365 15
1.7175432 1.6476406 -0.12231942 15
1.7198822 1.6493082 -0.040517002 16
1.7151165 1.6441635 0.62593406 15
1.7125596 1.6411387 0.53835046 10
1.7112088 1.6392716 0.45276445 13
1.7218815 1.6489193 0.37112242 14
1.7161171 1.6428251 0.2870023 14
1.7262101 1.6519099 0.20568755 13
1.7234347 1.6486776 0.12298949 15
1.7185651 1.643445 0.040838629 22
1.4494848 1.3837068 -0.52669698 3
1.6313359 1.5567613 -0.51176393 4
1.7394989 1.6593999 -0.45943707 15
1.7324321 1.6520811 -0.3730965 13
1.7446986 1.6631972 -0.29126805 14
1.7368779 1.6551634 -0.20655942 19
1.7268994 1.6450793 -0.12258023 13
1.7292491 1.6467422 -0.040603392 25
1.7243437 1.641497 0.62722731 15
1.7218069 1.6385093 0.53947437 12
1.7240331 1.6400545 0.45467082 17
1.7312057 1.6463021 0.37190372 21
1.725438 1.640244 0.28761163 15
1.7391875 1.6527368 0.20655911 18
1.7327993 1.6460906 0.12325118 21
1.7279165 1.6408787 0.04092589 24
1.450561 1.3755693 -0.5254029 3
1.6397538 1.5549811 -0.51288873 4
1.7482655 1.6573036 -0.46039027 15
1.7411983 1.6500272 -0.37387866 13
1.7535179 1.6611208 -0.29187742 22
1.7456858 1.6531235 -0.20699522 24
1.7356851 1.6430786 -0.12284105 21
1.7416763 1.6481738 -0.040776171 18
1.7365094 1.6427099 0.62981385 26
1.7340258 1.6397871 0.54172218 17
1.7363106 1.6413738 0.45657721 24
1.7435478 1.647639 0.37346631 19
1.73419 1.6382232 0.288221 23
1.7479925 1.6506847 0.20699489 23
1.7452238 1.6474938 0.12377454 26
1.7366989 1.6388733 0.041013151 21
1.451599 1.3674399 -0.52410877 3
1.6451716 1.5492477 -0.51288873 4
1.7576137 1.6545551 -0.46134344 14
1.7505438 1.6473236 -0.37466085 12
1.7629203 1.6583902 -0.29248673 22
1.758703 1.6538446 -0.20786677 24
1.7450479 1.6404297 -0.12310185 19
1.7510622 1.6455079 -0.040862564 23
1.7457534 1.6399455 0.63110709 23
1.7468423 1.6403943 0.54396999 22
1.745608 1.6386621 0.45753035 21
1.7564911 1.6483018 0.37502894 25
1.7471368 1.6389506 0.28943968 28
1.7610105 1.6513872 0.20786645 31
1.7546067 1.6448067 0.12403621 25
1.746057 1.6362196 0.041100416 23
1.4568388 1.3618561 -0.52410877 3
1.6546676 1.5462456 -0.51401347 3
1.7711273 1.6544955 -0.4632498 14
1.764075 1.647331 -0.3762252 12
1.7765304 1.6583816 -0.29370543 28
1.7686819 1.6504776 -0.20830254 25
1.7586362 1.6405293 -0.12362346 23
1.7610235 1.6421814 -0.040948953 24
1.7591031 1.6398168 0.63369364 26
1.7602568 1.640318 0.5462178 27
1.75907 1.6386386 0.45943674 23
1.7664216 1.6449109 0.37581027 27
1.7570494 1.6356111 0.29004902 24
1.7709846 1.6480064 0.20830221 28
1.7682213 1.6448591 0.12455957 27
1.7559876 1.6329075 0.041187678 23
1.4651235 1.3600483 -0.5254029 3
1.6600549 1.5404603 -0.51401347 4
1.7804905 1.6516411 -0.46420303 16
1.7734356 1.6445209 -0.37700737 13
1.785948 1.6555443 -0.2943148 27
1.7780858 1.6476792 -0.20873833 27
1.7680153 1.6377738 -0.12388428 25
1.7740813 1.6428177 -0.041121732 25
1.7683607 1.6369473 0.63498682 25
1.7695477 1.6374725 0.5473417 27
1.7683825 1.6358216 0.46038994 24
1.7794042 1.6454407 0.37737289 25
1.7663925 1.6328367 0.29065838 26
1.784043 1.6485754 0.20917377 28
1.7776197 1.6420649 0.12482125 29
1.7653542 1.6301546 0.041274939 23
1.4696256 1.3551823 -0.5254029 3
1.6648861 1.5352374 -0.51401347 4
1.7892795 1.6493661 -0.46515623 16
1.7858566 1.6456345 -0.37857169 12
1.7947904 1.6532878 -0.29492414 28
1.7869173 1.6454591 -0.2091741 27
1.7768253 1.6355929 -0.12414508 24
1.7829125 1.6406214 -0.041208126 25
1.7770493 1.6346536 0.63628012 25
1.7818558 1.6385009 0.54958951 27
1.7807399 1.6369011 0.46229634 22
1.7882012 1.6431841 0.37815419 27
1.7751682 1.6306367 0.29126769 25
1.7928822 1.6463315 0.20960957 29
1.7864482 1.6398487 0.12508292 29
1.7741456 1.6279854 0.0413622 24
1.4812342 1.3568258 -0.52799106 3
1.6702349 1.5294166 -0.51401347 4
1.802267 1.6497386 -0.46706262 16
1.7952334 1.6427244 -0.37935388 12
1.807874 1.6537118 -0.29614282 29
1.7963262 1.6425729 -0.20960988 27
1.7862093 1.6327497 -0.1244059 23
1.7923189 1.63776 -0.041294511 27
1.7898768 1.6349554 0.6388666 24
1.7911623 1.6355562 0.55071342 27
1.7900681 1.6339843 0.46324947 22
1.7975743 1.6402609 0.37893552 26
1.7881823 1.6311191 0.2924864 24
1.8022985 1.6434191 0.21004534 29
1.7995416 1.6403302 0.12560628 30
1.7835128 1.6251497 0.041449465 21
1.4900068 1.3543767 -0.52928513 3
1.6760952 1.522992 -0.51401347 3
1.8122213 1.6461064 -0.46801579 16
1.8051838 1.6391389 -0.38013604 12
1.8178853 1.6500934 -0.29675218 29
1.8099977 1.6423577 -0.21048145 27
1.7961638 1.6292336 -0.1246667 25
1.8022977 1.6342243 -0.041380905 26
1.7997197 1.6313144 0.64015985 26
1.8046498 1.6352096 0.55296123 27
1.7999667 1.6303941 0.4642027 23
1.8075198 1.6366613 0.37971681 26
1.7981116 1.6275715 0.29309577 25
1.812289 1.6398289 0.21048112 28
1.8095298 1.6367579 0.12586798 29
1.7971562 1.6249955 0.041623987 23
1.5018958 1.3556396 -0.5318734 3
1.6814013 1.517132 -0.51401347 3
1.8216008 1.6430578 -0.46896899 16
1.8145621 1.6361349 -0.38091823 12
1.8310066 1.650383 -0.29797086 28
1.8194197 1.6393636 -0.2109172 27
1.8055501 1.6262958 -0.12492751 25
1.8117064 1.6312681 -0.041467294 25
1.8125829 1.6314845 0.64274633 25
1.8139685 1.6321588 0.55408514 26
1.8092964 1.6273837 0.4651559 22
1.8205668 1.6369461 0.38127947 26
1.8074727 1.6246023 0.29370511 25
1.8254123 1.6401509 0.21135268 28
1.818947 1.633768 0.12612964 27
1.8065416 1.6220472 0.041711248 21
1.517408 1.3600593 -0.53575563 3
1.6866868 1.5112537 -0.51401347 3
1.8309814 1.6399641 -0.46992216 15
1.8239417 1.6330853 -0.38170043 13
1.8404545 1.6472914 -0.29858023 28
1.8288431 1.636324 -0.211353 24
1.8186593 1.6266407 -0.12544914 25
1.8211163 1.6282663 -0.041553684 26
1.8218678 1.6283662 0.64403963 24
1.8269211 1.6323092 0.55633295 24
1.8186265 1.6243277 0.46610907 23
1.8299536 1.6338704 0.38206074 27
1.8168352 1.6215878 0.29431444 24
1.8348429 1.637085 0.21178845 28
1.8283651 1.6307323 0.12639134 28
1.8196511 1.6223902 0.041885771 22
1.5077156 1.3419105 -0.53057927 3
1.6919518 1.5053569 -0.51401347 3
1.8403622 1.6368247 -0.47087535 15
1.8333216 1.6299897 -0.38248259 12
1.8499025 1.6441537 -0.29918957 28
1.8382674 1.6332384 -0.21178877 27
1.8280596 1.6235983 -0.12570994 25
1.8305273 1.6252186 -0.041640073 26
1.8347656 1.6284088 0.64662611 24
1.8362522 1.6291555 0.55745685 27
1.8279575 1.6212262 0.46706229 23
1.839341 1.630749 0.38284209 26
1.8299124 1.6218191 0.29553315 24
1.8442744 1.6339735 0.21222423 27
1.841522 1.6309612 0.12691469 28
1.8290464 1.6193426 0.041973036 23
1.5051529 1.3302428 -0.52799106 3
1.6971962 1.4994416 -0.51401347 3
1.8497436 1.6336399 -0.47182852 15
1.8427022 1.6268487 -0.38326478 12
1.8593514 1.6409702 -0.29979894 27
1.8476925 1.6301072 -0.21222456 26
1.8374606 1.62051 -0.12597075 26
1.8436892 1.6254312 -0.041812852 25
1.8440617 1.6251876 0.64791936 25
1.8455836 1.6259567 0.55858076 24
1.8372891 1.6180797 0.46801546 23
1.8524358 1.6308452 0.38440469 25
1.8392879 1.6187004 0.29614249 24
1.8574464 1.6341059 0.21309578 27
1.8509535 1.6278206 0.12717636 28
1.8384423 1.6162488 0.042060297 21
1.5061569 1.321795 -0.52669698 3
1.7024199 1.4935082 -0.51401347 3
1.8628151 1.6336455 -0.47373492 14
1.8520832 1.623662 -0.38404691 12
1.8725328 1.6410117 -0.30101761 26
1.8571181 1.6269299 -0.21266034 27
1.8468626 1.6173759 -0.12623155 24
1.8531134 1.6222787 -0.041899245 25
1.8533584 1.6219218 0.64921266 24
1.854915 1.6227124 0.55970466 27
1.8503157 1.6181188 0.46992183 24
1.8618351 1.6276193 0.38518599 25
1.8524009 1.6188016 0.2973612 22
1.8668904 1.6308894 0.21353158 26
1.8603853 1.624634 0.12743805 26
1.847839 1.6131094 0.042147558 22
1.5068915 1.3136195 -0.5254029 3
1.7071034 1.4881525 -0.51401347 3
1.8716388 1.6310101 -0.47468811 14
1.8608987 1.6210794 -0.3848291 12
1.8814213 1.6383798 -0.30162695 26
1.8697338 1.6276284 -0.21353191 27
1.8594679 1.6181214 -0.12675317 25
1.8657445 1.6230112 -0.042072024 26
1.8657336 1.6224297 0.65179914 25
1.8636805 1.6200732 0.56082857 27
1.8590949 1.6155174 0.47087502 21
1.8706677 1.6250008 0.38596731 26
1.8612245 1.6162279 0.29797053 22
1.875766 1.6282814 0.21396735 26
1.8730226 1.6253266 0.12796141 27
1.8604505 1.613848 0.042322084 22
1.5075883 1.3054537 -0.52410877 3
1.7086042 1.4789962 -0.51288873 3
1.8847439 1.6308904 -0.47659451 15
1.870281 1.6178045 -0.38561127 12
1.8908831 1.6350485 -0.30223632 26
1.8791722 1.624349 -0.21396768 25
1.868883 1.6148854 -0.12701398 25
1.875182 1.6197567 -0.042158417 26
1.8750414 1.6190639 0.65309232 24
1.8730124 1.6167413 0.56195247 25
