# .PCD v0.7 - Point Cloud Data file format
VERSION 0.7
FIELDS x y z intensity
SIZE 4 4 4 4
TYPE F F F F
COUNT 1 1 1 1
WIDTH 1399
HEIGHT 1
VIEWPOINT 0 0 0 1 0 0 0
POINTS 1399
DATA ascii
nan nan nan 0
-2.9309423 1.0975835 -0.48964027 2
-3.8744364 1.4516758 -0.50332099 4
-5.3854413 2.0188918 -0.49983895 3
-6.164937 2.3123362 -0.34192061 17
-6.1392088 2.3039083 -0.11265282 11
-6.2349567 2.3410821 1.7730489 14
-6.2111635 2.3333852 1.5217673 15
-6.1831965 2.3241103 1.2753659 14
-6.0820317 2.2872965 1.0219539 12
-6.1948066 2.3309424 0.80799371 10
-6.1471148 2.3142221 0.57130587 11
-6.1523018 2.3174009 0.34253883 9
-6.0517621 2.2807367 0.11221897 42
nan nan nan 0
nan nan nan 0
nan nan nan 0
-2.9686615 1.12354 -0.49667984 2
-3.8693457 1.4651912 -0.50332099 3
-5.3597298 2.0306194 -0.49809581 4
-6.0354338 2.2878256 -0.33513957 13
-5.9722009 2.265048 -0.10971555 13
-6.0867605 2.3097119 1.732958 15
-6.0572262 2.2997143 1.4858023 15
-6.0144515 2.2846754 1.2420044 13
-5.9216695 2.2506132 0.9961707 10
-6.0521102 2.3013983 0.7903226 9
-5.9807153 2.275444 0.55648941 12
-5.9948473 2.2820187 0.33416507 11
-5.9036083 2.2484672 0.1096011 44
nan nan nan 0
nan nan nan 0
nan nan nan 0
nan nan nan 0
-3.8595729 1.4769155 -0.50271159 4
-5.3665643 2.0546589 -0.49940318 4
-5.896853 2.258867 -0.3278369 12
-5.8428864 2.2393639 -0.1074694 14
-5.9208231 2.2704194 1.6876941 12
-5.9172482 2.2702334 1.453209 13
-5.8735533 2.2546456 1.2143619 13
-5.7846894 2.2216923 0.97429395 12
-5.8819036 2.2602069 0.76899552 10
-5.8425584 2.246258 0.54428762 12
-5.8610182 2.2545295 0.32709971 12
-5.7744179 2.2223744 0.1073323 45
nan nan nan 0
nan nan nan 0
nan nan nan 0
nan nan nan 0
-3.8497651 1.488589 -0.50210226 3
-5.396523 2.0877569 -0.50288939 3
-5.7538924 2.2271674 -0.32027346 14
-5.7138252 2.212805 -0.10522325 12
-5.7912645 2.2439578 1.6527764 13
-5.7775512 2.2398038 1.4206158 14
-5.7466679 2.2289853 1.189579 14
-5.6617985 2.1972032 0.95476121 11
-5.753696 2.2340219 0.75315249 10
-5.7093225 2.2179396 0.53252155 11
-5.7088394 2.2188988 0.31898764 12
-5.6082077 2.1809123 0.10436539 8
nan nan nan 0
nan nan nan 0
nan nan nan 0
nan nan nan 0
-3.8491681 1.5038241 -0.50271159 4
-5.3660069 2.0975144 -0.50071049 5
-5.6344786 2.2035909 -0.31401405 13
-5.5151892 2.1580479 -0.10168126 11
-5.6574674 2.2148588 1.6165653 13
-5.6562862 2.2155352 1.3925182 14
-5.6383147 2.209631 1.1686088 12
-5.516161 2.1628699 0.93132192 11
-5.6396041 2.2124074 0.73913753 9
-5.5160813 2.1650605 0.51509047 9
-5.5383925 2.1749334 0.30982885 11
-5.4981952 2.1602554 0.10244562 20
nan nan nan 0
nan nan nan 0
nan nan nan 0
nan nan nan 0
-3.848511 1.519073 -0.50332099 4
-5.3540196 2.114403 -0.50027472 13
-5.501368 2.1737037 -0.30697218 20
-5.4657803 2.1607451 -0.10090375 19
-5.5284357 2.1866302 1.5816474 11
-5.5171418 2.1832767 1.3599249 12
-5.5073495 2.1805134 1.1428728 15
-5.4902115 2.1748366 0.92819673 12
-5.4888253 2.1753957 0.72024781 14
-5.4760785 2.1714497 0.51204002 4
-5.4982781 2.1813633 0.30799708 18
-5.4069829 2.1462355 0.1008749 17
nan nan nan 0
nan nan nan 0
nan nan nan 0
-2.976126 1.1861495 -0.50137287 2
-3.8477948 1.5343356 -0.50393027 4
-5.281837 2.1072388 -0.49417382 12
-5.48911 2.1910429 -0.30671138 7
-5.3699932 2.1445827 -0.099262334 3
-5.3862171 2.1521521 1.5428499 11
-5.4325795 2.1717765 1.3408185 10
-5.4222307 2.1687369 1.1266686 7
nan nan nan 0
-5.4028759 2.1631837 0.70988888 6
-5.3852367 2.157212 0.50419599 14
-5.430378 2.1763947 0.30459523 4
-5.3066564 2.1278841 0.099129662 7
nan nan nan 0
nan nan nan 0
nan nan nan 0
-2.9765487 1.1983753 -0.50215507 2
-3.8424153 1.5477576 -0.50393027 4
-5.1635714 2.0809779 -0.48371509 5
nan nan nan 0
-5.3068404 2.1408706 -0.098225653 9
-5.2667017 2.125747 1.5105186 11
-5.3346138 2.1542404 1.3183404 3
-5.3145075 2.1471999 1.1056983 3
-5.1681256 2.0891073 0.87584889 4
-5.2940764 2.1410952 0.69648325 4
-5.3176489 2.1517088 0.49853083 4
-5.3209267 2.1541159 0.29883832 3
-5.2065248 2.1088591 0.097384423 58
nan nan nan 0
nan nan nan 0
nan nan nan 0
-2.9220262 1.1882943 -0.49355114 3
-3.8415861 1.5630311 -0.50453967 4
-5.0547819 2.0576739 -0.47412798 3
-5.2285881 2.1294899 -0.29288849 7
-5.1882229 2.1141059 -0.096152291 16
-5.1295485 2.0912409 1.4730142 3
-5.2368374 2.1360471 1.2958624 2
-5.2160907 2.1286469 1.0866346 6
-5.1516571 2.1034009 0.87428623 7
-5.1946869 2.1220274 0.68429631 9
-5.2132802 2.1306846 0.4893795 10
-5.1839671 2.1197603 0.29151127 4
-5.101964 2.0872684 0.095551923 49
nan nan nan 0
-2.045434 0.83972758 -0.50164115 2
-2.419004 0.99358559 -0.50042421 2
-2.9678972 1.2196443 -0.50215507 2
-3.8312414 1.5752134 -0.50393027 4
-4.9596834 2.040184 -0.46584815 4
-5.1191649 2.106832 -0.28715071 7
-5.0602493 2.0836177 -0.093906142 10
-5.0816579 2.0934701 1.4613751 7
-5.1253719 2.1125255 1.2700126 2
-5.1084256 2.1065838 1.0656645 5
-5.0480418 2.0827141 0.85787874 14
-5.081367 2.097501 0.67028135 7
-5.0811329 2.0984426 0.47761348 10
-5.0700245 2.0948908 0.28549263 4
-4.9972591 2.065846 0.093719415 57
nan nan nan 0
-2.0469904 0.84872824 -0.50276589 2
-2.4200547 1.0039041 -0.5013774 2
-2.9453766 1.2224245 -0.49902633 2
-3.8257196 1.5885775 -0.50393027 4
-4.8605351 2.0192649 -0.45713258 6
-5.0011206 2.0786936 -0.2808913 7
-4.9467764 2.0571182 -0.091919169 5
-5.0431042 2.0982084 1.4523222 9
-5.014514 2.0873401 1.2441628 2
-5.0058889 2.0847752 1.0456475 6
-4.8994222 2.0414391 0.83365816 6
-4.9686589 2.0713058 0.65626639 13
-4.9864311 2.079736 0.46933365 7
-4.9566956 2.0683496 0.27947399 4
-4.8700686 2.0332067 0.091450602 62
-1.7950851 0.75126833 -0.51116782 3
-2.0215466 0.84646028 -0.49714214 2
-2.4210627 1.0142421 -0.5023306 2
-2.9456463 1.2346072 -0.49980852 2
-3.8201511 1.6019219 -0.50393027 5
-4.7570014 1.9957521 -0.44798121 13
-4.9017534 2.0574875 -0.27567512 7
-4.8473792 2.0356596 -0.090191364 12
-4.9555993 2.082124 1.4290438 7
-4.9038963 2.0614076 1.218313 8
-4.8945193 2.0584714 1.0237242 8
-4.7921219 2.0163908 0.81646931 6
-4.8607721 2.0462754 0.64286077 12
-4.8551998 2.0449274 0.45756766 6
-4.852818 2.0449216 0.27397871 4
-4.7662058 2.0094037 0.089618102 48
-1.7835543 0.75376958 -0.50857961 3
-2.0365283 0.86110091 -0.50164115 2
-2.4129872 1.0207747 -0.5013774 2
-2.9367709 1.2429571 -0.49902633 2
-3.8145361 1.6152471 -0.50393027 4
-4.6628652 1.9754276 -0.43970141 14
-4.7520261 2.014179 -0.26759005 9
-4.7021685 1.9940149 -0.087599657 5
-4.8415914 2.054136 1.3980056 6
-4.7935214 2.0347288 1.1924632 8
-4.7698417 2.0256598 0.9989413 7
-4.6214232 1.9635813 0.78834218 10
-4.7394195 2.014693 0.62762713 8
-4.7471919 2.0189755 0.44798052 6
-4.7261939 2.011019 0.26717505 4
-4.5981708 1.9574926 0.08656393 77
-1.7631441 0.75240827 -0.50340325 2
-2.024549 0.86437851 -0.49939165 2
-2.4094093 1.0291914 -0.5013774 2
-2.9324141 1.2532008 -0.49902633 2
-3.8088746 1.6285524 -0.50393027 5
-4.550611 1.9466345 -0.42967847 11
-4.6026621 1.969851 -0.25950494 29
-4.5802875 1.961221 -0.085439898 32
-4.7234006 2.0234759 1.3656744 8
-4.6520476 1.9938697 1.158746 13
-4.5868111 1.9668568 0.96176702 30
-4.5736942 1.9621774 0.78131032 32
-4.5818644 1.9666296 0.60751861 26
-4.5753498 1.9647791 0.43229249 36
-4.5769272 1.9664026 0.25906298 32
-4.5591593 1.9597117 0.085953094 70
-1.7693778 0.76238048 -0.50599146 2
-2.0215194 0.87144029 -0.49939165 2
-2.4012952 1.0356517 -0.50042421 2
-2.9280219 1.2634292 -0.49902633 2
-3.8031669 1.641838 -0.50393027 5
-4.4843431 1.9368322 -0.42401332 11
-4.5545063 1.9680797 -0.25715768 26
-4.532115 1.9593428 -0.0846624 16
-4.5788875 1.9805125 1.3255836 33
-4.5779891 1.9810723 1.1418874 30
-4.5528913 1.971155 0.95604783 23
-4.5169678 1.9565383 0.77271587 13
-4.5567579 1.9747182 0.60508126 27
-4.5501842 1.9728128 0.43054938 21
-4.542551 1.9704452 0.2574929 17
-4.4559851 1.9338192 0.084120594 11
-1.7622772 0.76662546 -0.50469732 3
-2.0184653 0.87849146 -0.49939165 2
-2.3976655 1.0440274 -0.50042421 2
-2.9235938 1.2736422 -0.49902633 2
-3.7974126 1.6551034 -0.50393027 4
-4.4045029 1.9206188 -0.41704085 11
-4.4743824 1.9520198 -0.25298473 11
-4.4336114 1.935154 -0.082934588 9
-4.5321097 1.9790878 1.3139442 18
-4.5040774 1.9677827 1.1250288 14
-4.4605317 1.9496851 0.93793732 10
-4.433188 1.9386549 0.75943363 13
-4.4770908 1.9587848 0.59533167 10
-4.4656992 1.9547294 0.42314115 9
-4.4533172 1.9502357 0.25278267 9
-4.3759432 1.9172618 0.0827244 11
-1.7595904 0.77277231 -0.50469732 3
-2.010926 0.88357192 -0.49826688 2
-2.3895133 1.0504153 -0.49947101 2
-2.9236507 1.2858278 -0.49980852 2
-3.7916119 1.6683488 -0.50393027 5
-4.3293896 1.9058787 -0.41050419 12
-4.3898578 1.9334126 -0.24855098 11
-4.3536325 1.9183651 -0.081552342 9
-4.4191074 1.9481368 1.2829063 11
-4.4214001 1.9500694 1.1059225 12
-4.3773594 1.9315578 0.92173308 9
-4.3541074 1.9222057 0.74693263 12
-4.3930521 1.9403148 0.5849728 9
-4.3813968 1.9360807 0.41573289 9
-4.373414 1.9334656 0.24859579 8
-4.2960725 1.9001698 0.081328206 11
-1.7568822 0.77890974 -0.50469732 2
-2.0078294 0.89058602 -0.49826688 2
-2.3858321 1.0587498 -0.49947101 2
-2.9191446 1.2960254 -0.49980852 2
-3.7903008 1.6835885 -0.50453967 5
-4.2544341 1.890638 -0.40396747 11
-4.310081 1.9162679 -0.24437803 11
-4.2738252 1.901042 -0.080170102 9
-4.3460903 1.9340947 1.2635074 11
-4.338902 1.9318032 1.0868161 13
-4.3078198 1.9188654 0.90838844 11
-4.2797079 1.9072387 0.73521304 12
-4.3182631 1.9253241 0.57583261 9
-4.2972803 1.9168679 0.40832466 8
-4.2936831 1.916162 0.24440892 9
-4.2255049 1.88662 0.080106534 12
-1.7541527 0.7850377 -0.50469732 3
-2.0047085 0.89758921 -0.49826688 2
-2.3821218 1.0670714 -0.49947101 2
-2.9236159 1.3102466 -0.50137287 2
-3.7844012 1.6968088 -0.50453967 5
-4.1796389 1.8748975 -0.39743081 11
-4.2259231 1.8965456 -0.23994428 11
-4.1987538 1.885233 -0.078874253 9
-4.2688203 1.917588 1.2428154 11
-4.2610302 1.9149823 1.0688336 13
-4.2339463 1.9036989 0.89409065 11
-4.2054663 1.891776 0.7234934 13
-4.2436337 1.9098355 0.56669247 10
-4.2224355 1.9011818 0.401788 9
-4.2232323 1.902427 0.2407454 9
-4.1550846 1.8726013 0.078884877 12
-1.7514017 0.79115599 -0.50469732 2
-2.0060029 0.9065879 -0.49939165 2
-2.3783824 1.0753802 -0.49947101 2
-2.9190247 1.320444 -0.50137287 2
-3.7784548 1.7100085 -0.50453967 6
-4.0959311 1.8545495 -0.39002255 15
-4.1646972 1.8865613 -0.23681457 12
-4.1329527 1.8730509 -0.077751182 10
-4.1961184 1.9025604 1.2234167 12
-4.1788921 1.8956293 1.0497272 14
-4.1691709 1.892097 0.8816992 10
-4.144876 1.8819436 0.71411759 13
-4.1782017 1.8979545 0.55877095 10
-4.1568232 1.8891184 0.39612287 10
-4.1574759 1.8902907 0.23734355 9
-4.0984669 1.8643241 0.077924989 12
-1.7486293 0.79726475 -0.50469732 2
-2.0072584 0.91560644 -0.50051636 2
-2.3790793 1.0857135 -0.50042421 2
-2.9323668 1.3388295 -0.50450158 2
-3.7769771 1.7252495 -0.50514901 7
-4.0577202 1.8543433 -0.3869721 19
-4.1035938 1.8761733 -0.23368487 13
-4.0672884 1.8604326 -0.076628104 12
-4.1279664 1.8890586 1.2053111 11
-4.119092 1.8858671 1.0362405 13
-4.0911422 1.8739345 0.86644816 11
-4.0574684 1.8593671 0.70005405 15
-4.1038828 1.8815037 0.5496307 10
-4.0868192 1.8745438 0.39002195 9
-4.091857 1.8777189 0.2339417 9
-4.0465012 1.8577607 0.07705237 28
-1.7458358 0.80336374 -0.50469732 2
-2.0084755 0.92464495 -0.50164115 2
-2.3708169 1.091958 -0.49947101 2
-2.8962793 1.33459 -0.49902633 2
-3.770932 1.738423 -0.50514901 8
-4.0421762 1.8643239 -0.38610053 14
-4.0516815 1.8695654 -0.23107678 30
-4.0562301 1.8725232 -0.076541714 32
-4.0511904 1.8710543 1.1846191 16
-4.0417194 1.8675362 1.0182579 25
-4.0311127 1.863489 0.85500997 23
-4.0419884 1.869373 0.69849139 33
-4.0297313 1.8645579 0.54049051 17
-4.0440898 1.8720587 0.38653573 31
-4.0444994 1.8731055 0.23158659 30
-4.0309196 1.8676708 0.07687784 58
-1.7430208 0.80945295 -0.50469732 2
-2.0052357 0.93165016 -0.50164115 2
-2.36254 1.0981582 -0.49851784 2
-2.9229488 1.3592684 -0.50450158 2
-3.7693405 1.753669 -0.50575835 8
-4.0401597 1.8805243 -0.38653633 15
-4.0406041 1.8815893 -0.23081596 24
-4.0360746 1.8803371 -0.076282546 29
-4.0358791 1.8811034 1.1820325 36
-4.0263453 1.8775152 1.01601 30
-4.0290308 1.8796237 0.85596305 26
-4.0264883 1.8792933 0.69692886 25
-4.0366874 1.8849117 0.54231852 33
-4.0330172 1.8840553 0.38609993 24
-4.0334134 1.885098 0.23132493 24
-4.0243754 1.88173 0.07687784 22
-1.7401847 0.81553227 -0.50469732 2
-2.0019715 0.93864411 -0.50164115 2
-2.3542483 1.1043139 -0.49756464 2
-4.0179625 1.8855724 -0.6969161 2
-3.767688 1.7689247 -0.50636768 7
-4.0380793 1.8967333 -0.3869721 15
-4.0340118 1.8956822 -0.23081596 25
-4.0340109 1.8965415 -0.076368935 27
-4.0205469 1.8910685 1.1794461 31
-4.0241756 1.8936329 1.017134 28
-4.0180049 1.8915858 0.85500997 25
-4.0199037 1.8933369 0.69692886 22
-4.0211048 1.8947603 0.54109991 31
-4.0264163 1.8981217 0.38609993 25
-4.0268083 1.8991657 0.23132493 25
-4.0223041 1.8978996 0.076965109 20
-1.7373273 0.82160169 -0.50469732 2
-1.9986829 0.94562656 -0.50164115 2
-2.3281975 1.1020254 -0.49279872 2
-4.0113564 1.8995863 -0.6969161 2
-3.7614903 1.7820656 -0.50636768 7
-4.0359344 1.9129505 -0.38740784 15
-4.0318813 1.9118913 -0.23107678 27
-4.0318823 1.9127537 -0.076455325 28
-4.0139217 1.9050913 1.1794461 29
-4.0131397 1.9055784 1.01601 27
-4.0158105 1.9077055 0.85596305 25
-4.0177307 1.9094774 0.6977101 22
-4.0189481 1.9109159 0.54170918 30
-4.0242643 1.9143049 0.38653573 27
-4.024663 1.9153559 0.23158659 23
-4.0201688 1.9140776 0.07705237 21
-1.7343043 0.82796383 -0.50469732 2
-1.9952035 0.95294571 -0.50164115 2
-2.3462858 1.1211321 -0.49756464 2
-2.8949456 1.3839203 -0.50215507 2
-3.7594104 1.7979813 -0.50697702 6
-4.0333891 1.9298799 -0.38784364 15
-4.0293508 1.928812 -0.23133759 25
-4.0293536 1.9296777 -0.076541714 29
-4.0112677 1.921877 1.1807393 29
-4.014915 1.9244862 1.0182579 28
-4.013217 1.9245338 0.85691625 25
-4.0151577 1.9263265 0.69849139 21
-4.0163913 1.9277807 0.54231852 31
-4.0217113 1.9311978 0.3869715 25
-4.0221167 1.9322565 0.23184827 24
-4.017632 1.9309651 0.077139638 20
-1.7314037 0.83401263 -0.50469732 2
-1.991865 0.95990449 -0.50164115 2
-2.3467796 1.131447 -0.49851784 2
nan nan nan 0
-3.7531114 1.8110931 -0.50697702 6
-4.0311136 1.9461129 -0.38827944 15
-4.0270901 1.9450371 -0.23159841 26
-4.022593 1.9437311 -0.076541714 28
-4.008883 1.9379694 1.1820325 31
-4.0125589 1.9406104 1.0193818 28
-4.006475 1.9385309 0.85691625 24
-4.008409 1.9403303 0.69849139 22
-4.0141044 1.943952 0.54292792 30
-4.0194278 1.947396 0.38740724 26
-4.0198402 1.9484624 0.23210996 24
-4.0108643 1.9449834 0.077139638 20
-1.7328256 0.84216237 -0.50599146 2
-1.9885021 0.96685159 -0.50164115 2
-2.3472295 1.1417788 -0.49947101 2
-2.8763323 1.3997748 -0.50059068 3
-3.7512286 1.8263553 -0.50758636 6
-4.0242958 1.9601722 -0.38827944 15
-4.0202761 1.9590824 -0.23159841 24
-4.020278 1.9599516 -0.076628104 29
-4.0064349 1.9540685 1.1833258 30
-4.0101395 1.9567418 1.0205057 28
-4.0040946 1.9546577 0.85786951 24
-4.0060492 1.9564775 0.69927275 22
-4.0117536 1.9601306 0.54353726 30
-4.0170808 1.9636021 0.38784304 26
-4.0175004 1.964676 0.23237164 24
-4.008544 1.961163 0.077226892 21
-1.7385482 0.85245842 -0.50857961 2
-1.9851151 0.97378683 -0.50164115 2
-2.347636 1.1521277 -0.50042421 2
-2.8581297 1.4032772 -0.49824417 3
-3.7448308 1.8394384 -0.50758636 6
-4.0219002 1.9764048 -0.38871521 15
-4.0178938 1.9753066 -0.23185919 25
-4.013412 1.973973 -0.076628104 28
-4.0039234 1.9701742 1.1846191 32
-4.0032845 1.9707278 1.0205057 28
-4.0016508 1.9707911 0.8588227 27
-4.0036259 1.9726322 0.70005405 21
-4.0093379 1.9763165 0.54414654 30
-4.0146694 1.9798154 0.38827884 27
-4.0150957 1.9808969 0.23263331 25
-4.0061564 1.9773561 0.077314153 20
-1.7398908 0.86066324 -0.50987375 2
-1.9817039 0.98071027 -0.50164115 2
-2.3436 1.1603155 -0.50042421 2
-2.853214 1.4132454 -0.49824417 3
-3.7383869 1.8524991 -0.50758636 6
-4.0194392 1.992644 -0.38915098 15
-4.0154471 1.9915382 -0.23212001 25
-4.0109754 1.9901925 -0.076714501 29
-4.001348 1.9862859 1.1859124 30
-4.0007443 1.9868568 1.0216296 29
-3.9947467 1.9847475 0.8588227 25
-4.0011377 1.9887936 0.70083541 23
-4.0024147 1.9902995 0.54414654 30
-4.0077343 1.9938172 0.38827884 27
-4.0126262 1.9971248 0.23289499 25
-4.0037055 1.9935567 0.077401422 21
-1.736876 0.86673135 -0.50987375 2
-1.9695507 0.98326951 -0.49939165 2
-2.3351443 1.1662959 -0.49947101 2
-2.8747694 1.4364406 -0.5029372 2
-3.7318978 1.8655373 -0.50758636 7
-4.0169139 2.0088902 -0.38958675 14
-4.008471 2.0055428 -0.23212001 24
-4.0084739 2.0064189 -0.076800883 27
-3.9987082 2.0024035 1.1872054 28
-3.9981406 2.0029922 1.0227535 29
-3.992182 2.0008788 0.85977584 24
-3.9941714 2.002748 0.70083541 23
-3.9998791 2.0064838 0.54475594 30
-4.0052018 2.0100288 0.38871461 27
-4.0100932 2.0133598 0.23315668 24
-4.0011892 2.009764 0.077488683 21
-1.7252121 0.86844581 -0.50728554 2
-1.9661065 0.99013853 -0.49939165 2
-2.331059 1.17444 -0.49947101 2
-2.8609178 1.442021 -0.50137287 2
-3.725363 1.8785527 -0.50758636 7
-4.0143242 2.0251431 -0.39002255 15
-4.0059037 2.0217724 -0.23238082 25
-4.0059085 2.0226521 -0.076887272 29
-3.9960055 2.018527 1.1884987 30
-3.9954729 2.0191336 1.0238774 27
-3.9895539 2.0170166 0.86072904 26
-3.9915631 2.0189071 0.70161664 22
-3.9972787 2.0226743 0.54536527 30
-4.0026045 2.0262468 0.38915038 25
-4.0030408 2.0273454 0.23315668 25
-3.9986088 2.0259776 0.077575937 19
-1.7221702 0.87446266 -0.50728554 2
-1.9409204 0.98596305 -0.49376786 2
-2.3269453 1.1825697 -0.49947101 2
-2.8602693 1.454237 -0.50215507 2
-3.7187829 1.8915452 -0.50758636 7
-4.0072308 2.0391436 -0.39002255 15
-4.0032721 2.0380087 -0.23264164 24
-4.0032787 2.038892 -0.076973669 28
-3.9932392 2.0346565 1.189792 30
-3.9927411 2.0352807 1.0250013 28
-3.9868615 2.0331602 0.86168224 26
-3.9888904 2.0350723 0.702398 23
-3.9946141 2.0388713 0.54597467 30
-3.9999435 2.0424714 0.38958615 26
-4.0003862 2.0435777 0.23341836 23
-3.9915123 2.0399232 0.077575937 21
-1.71051 0.87606561 -0.50469732 2
-1.9504745 0.9993971 -0.49714214 2
-2.322803 1.1906852 -0.49947101 2
-2.8507812 1.4619588 -0.50137287 2
-3.7121575 1.9045146 -0.50758636 7
-4.0045199 2.0553935 -0.39045835 15
-3.9961338 2.0519702 -0.23264164 25
-4.0005841 2.0551379 -0.077060059 27
-3.9861124 2.048583 1.189792 30
-3.9899454 2.0514333 1.0261252 27
-3.9841049 2.0493097 0.86263543 25
-3.9861538 2.0512435 0.7031793 23
-3.9918854 2.0550742 0.54658401 30
-3.9972177 2.058702 0.39002195 26
-3.9976666 2.0598161 0.23368002 24
-3.9888113 2.0561345 0.077663206 19
-1.7074416 0.88203108 -0.50469732 2
-1.9556302 1.0106729 -0.49939165 2
-2.3186326 1.1987859 -0.49947101 2
-2.8456604 1.4719009 -0.50137287 2
-3.7098949 1.9197417 -0.50819576 8
-3.9973209 2.0693593 -0.39045835 15
-3.9933798 2.068203 -0.23290242 24
-3.9933858 2.0690901 -0.077060059 28
-3.9832251 2.0647075 1.1910853 29
-3.9870851 2.0675912 1.0272491 28
-3.9812839 2.0654647 0.86358857 24
-3.9833527 2.0674202 0.70396066 23
-3.9890916 2.0712829 0.54719329 30
-3.9944274 2.0749385 0.39045775 26
-3.9948833 2.0760608 0.2339417 24
-3.9860451 2.0723515 0.077750467 20
-1.7041974 0.88828325 -0.50469732 2
-1.9562323 1.0200863 -0.50051636 2
-2.3142233 1.2072761 -0.49947101 2
-2.8402467 1.4823209 -0.50137287 2
-3.7028337 1.9333262 -0.50819576 8
-3.9941244 2.0863023 -0.39089411 15
-3.9901984 2.0851383 -0.23316324 24
-3.9902053 2.0860286 -0.077146441 28
-3.9799109 2.0815313 1.1923786 29
-3.9837968 2.0844493 1.028373 28
-3.9736869 2.0800431 0.86358857 24
-3.980123 2.0842972 0.7047419 22
-3.9858694 2.0881929 0.54780269 29
-3.9867957 2.0895648 0.39045775 25
-3.9916692 2.0930073 0.2342034 25
-3.9828503 2.0892696 0.077837728 20
-1.7053611 0.89647382 -0.50599146 2
-1.9612836 1.031444 -0.50276589 2
-2.3099949 1.2153469 -0.49947101 2
-2.8350551 1.4922262 -0.50137287 2
-3.7004535 1.9485519 -0.50880504 8
-3.9912238 2.1025531 -0.39132988 15
-3.987313 2.101382 -0.23342405 23
-3.9873221 2.1022761 -0.077232838 27
-3.9768922 2.0976641 1.1936718 28
-3.9808056 2.1006165 1.0294969 28
-3.9707429 2.0961926 0.86454177 26
-3.9771903 2.1004839 0.70552325 24
-3.9829443 2.1044118 0.54841202 30
-3.9838817 2.1057966 0.39089352 26
-3.9887531 2.1092625 0.23446508 24
-3.9799485 2.1055031 0.077924989 22
-1.7022215 0.90242124 -0.50599146 2
-1.9533674 1.0360012 -0.50164115 2
-2.3100743 1.2257035 -0.50042421 2
-2.829829 1.5021132 -0.50137287 2
-3.6936293 1.9614571 -0.50880504 10
-3.9882593 2.1188092 -0.39176565 15
-3.9843631 2.117631 -0.23368487 24
-3.9843733 2.1185286 -0.077319227 27
-3.97381 2.1138015 1.194965 28
-3.9777503 2.1167881 1.0306208 27
-3.9677339 2.1123469 0.86549497 24
-3.9698341 2.1143541 0.70552325 21
-3.9799535 2.1206355 0.54902142 31
-3.9809017 2.1220329 0.39132926 25
-3.9813662 2.1231728 0.23446508 24
-3.9725778 2.1193769 0.077924989 21
-1.7033201 0.91063458 -0.50728554 2
-1.9497391 1.0428134 -0.50164115 2
-2.3057818 1.2337596 -0.50042421 2
-2.8202143 1.5096513 -0.50059068 2
-3.6867599 1.9743383 -0.50880504 10
-3.9852297 2.1350703 -0.39220145 15
-3.9813476 2.1338849 -0.23394568 23
-3.9813604 2.1347864 -0.077405617 28
-3.9706638 2.1299431 1.1962583 28
-3.9703372 2.1306603 1.0306208 28
-3.9646611 2.1285057 0.86644816 24
-3.9667807 2.1305356 0.70630455 22
-3.9768984 2.1368642 0.5496307 31
-3.9778576 2.1382744 0.39176506 27
-3.9783285 2.1394227 0.23472677 24
-3.9695582 2.1355994 0.07801225 21
-1.6958801 0.91428286 -0.50599146 2
-1.9460872 1.049613 -0.50164115 3
-2.3014612 1.2418008 -0.50042421 2
-2.8192735 1.5218325 -0.50137287 2
-3.6842127 1.9895537 -0.50941443 9
-3.9821348 2.1513357 -0.39263725 15
-3.9738746 2.1477692 -0.23394568 24
-3.9782817 2.1510487 -0.077492014 27
-3.967453 2.1460884 1.1975516 29
-3.9671595 2.1468248 1.0317447 27
-3.9615233 2.1446686 0.8674013 24
-3.9636619 2.1467211 0.70708591 21
-3.9737787 2.1530974 0.55024004 30
-3.9703693 2.1521466 0.39176506 26
-3.975225 2.1556764 0.23498842 23
-3.9664741 2.1518269 0.078099512 19
-1.6926783 0.92019701 -0.50599146 2
-1.9424115 1.0563997 -0.50164115 2
-2.2971125 1.2498268 -0.50042421 2
-2.8182817 1.5340253 -0.50215507 2
-3.6772454 2.0024018 -0.50941443 9
-3.9789751 2.1676056 -0.39307299 15
-3.9707375 2.164017 -0.23420648 24
-3.9707491 2.1649222 -0.077492014 28
-3.9641774 2.1622369 1.1988448 28
-3.9639187 2.1629937 1.0328686 26
-3.9540129 2.1584837 0.8674013 23
-3.9604783 2.1629107 0.70786715 23
-3.9662387 2.1669555 0.55024004 30
-3.9672034 2.1683817 0.39220086 25
-3.9720573 2.1719351 0.23525012 25
-3.9633243 2.1680586 0.07818678 20
-1.6852208 0.92377841 -0.50469732 2
-1.9387121 1.0631735 -0.50164115 2
-2.2927358 1.2578377 -0.50042421 2
-2.8172388 1.5462297 -0.5029372 2
-3.6702332 2.0152256 -0.50941443 7
-3.9757504 2.1838799 -0.39350879 14
-3.9675357 2.180269 -0.2344673 24
-3.9675486 2.1811779 -0.077578396 28
-3.9608374 2.1783888 1.2001381 28
-3.9606133 2.1791656 1.0339925 25
-3.9507539 2.1746395 0.8683545 25
-3.9572303 2.1791043 0.70864844 22
-3.9629974 2.1831815 0.55084944 30
-3.9639728 2.1846206 0.39263663 25
-3.9688241 2.1881976 0.23551179 23
-3.9557323 2.1818798 0.07818678 20
-1.6777589 0.92731899 -0.50340325 2
-1.9349892 1.0699345 -0.50164115 2
-2.288331 1.2658331 -0.50042421 2
-2.8161452 1.5584455 -0.50371939 3
-3.6631763 2.0280249 -0.50941443 6
-3.9681029 2.1977446 -0.39350879 15
-3.9599009 2.1941051 -0.2344673 24
-3.964283 2.1974375 -0.077664785 28
-3.9574335 2.1945436 1.2014314 28
-3.9572425 2.1953409 1.0351164 27
-3.9474308 2.190799 0.86930776 23
-3.9539173 2.1953015 0.7094298 21
-3.959691 2.1994116 0.55145878 30
-3.9606764 2.2008636 0.3930724 25
-3.9611616 2.202038 0.23551179 23
-3.9524612 2.1981046 0.078274041 20
-1.6745118 0.93316984 -0.50340325 2
-1.9312426 1.0766823 -0.50164115 2
-2.2838986 1.2738131 -0.50042421 2
-2.8063755 1.5658599 -0.5029372 2
-3.6517415 2.0383804 -0.50880504 5
-3.964756 2.214011 -0.39394456 15
-3.9565766 2.2103493 -0.23472811 23
-3.9609528 2.2137012 -0.077751182 28
-3.9539645 2.2107015 1.2027246 28
-3.9538076 2.2115195 1.0362405 27
-3.9440429 2.2069616 0.87026095 23
-3.9505401 2.2115028 0.7102111 22
-3.9563193 2.2156448 0.55206805 30
-3.9573154 2.2171099 0.39350817 24
-3.9578068 2.218293 0.23577349 24
-3.9491246 2.2143328 0.078361295 19
-1.6670337 0.93664354 -0.50210917 2
-1.9274726 1.0834169 -0.50164115 2
-2.2794383 1.2817777 -0.50042421 2
-2.8008926 1.5756464 -0.5029372 3
-3.6489289 2.0535491 -0.50941443 4
-3.961344 2.2302806 -0.39438036 15
-3.9531879 2.2265975 -0.23498893 22
-3.9575567 2.2299681 -0.077837572 29
-3.9504311 2.2268615 1.2040178 28
-3.9503069 2.2277002 1.0373642 24
-3.9405897 2.2231269 0.87121403 24
-3.9470971 2.2277064 0.7109924 20
-3.9528823 2.2318814 0.55267745 29
-3.9538889 2.2333598 0.39394397 26
-3.9543865 2.2345512 0.23603514 23
-3.9457228 2.2305644 0.078448564 20
-1.663754 0.9424569 -0.50210917 2
-1.923679 1.0901386 -0.50164115 2
-2.27495 1.2897266 -0.50042421 2
-2.7953756 1.5854137 -0.5029372 2
-3.6503711 2.0711718 -0.51063311 4
-3.9578662 2.2465534 -0.3948161 15
-3.9497333 2.2428486 -0.23524971 24
-3.9540949 2.246238 -0.077923954 28
-3.9468329 2.2430239 1.2053111 27
-3.9467423 2.2438841 1.0384881 26
-3.937072 2.2392952 0.87216729 25
-3.9435892 2.2439132 0.71177369 22
-3.9493809 2.248121 0.55328679 29
-3.9503975 2.2496128 0.39437976 23
-3.9509006 2.2508125 0.23629683 24
-3.9422565 2.2467995 0.078535825 19
-1.660454 0.94825876 -0.50210917 2
-1.919862 1.0968468 -0.50164115 2
-2.2704344 1.2976599 -0.50042421 2
-2.7898242 1.5951618 -0.5029372 2
-3.6474268 2.086365 -0.51124245 3
-3.9543233 2.2628293 -0.3952519 15
-3.9462137 2.2591028 -0.23551053 22
-3.9505684 2.2625115 -0.07801035 26
-3.9431701 2.2591884 1.2066044 28
-3.9431129 2.2600698 1.0396121 25
-3.9334896 2.2554662 0.87312049 21
-3.9400163 2.2601223 0.71255505 21
-3.9458137 2.2643635 0.55389619 30
-3.9511604 2.2683485 0.39525127 24
-3.9473498 2.267077 0.23655851 23
-3.9387243 2.2630374 0.078623094 20
-1.6571339 0.95404899 -0.50210917 2
-1.9160216 1.1035417 -0.50164115 2
-2.2658908 1.3055772 -0.50042421 2
-2.7842393 1.6048903 -0.5029372 2
-3.6487203 2.1040428 -0.51246119 4
-3.9507151 2.2791076 -0.3956877 15
-3.9426286 2.2753599 -0.23577134 23
-3.9469762 2.2787874 -0.07809674 28
-3.9394424 2.2753546 1.2078977 28
-3.9394181 2.2762575 1.040736 27
-3.929842 2.2716391 0.87407368 22
-3.936378 2.276334 0.71333635 21
-3.9421811 2.2806082 0.55450547 30
-3.9475293 2.2846217 0.39568707 25
-3.9437335 2.283344 0.23682021 24
-3.9351268 2.279278 0.078710347 20
-1.6537936 0.95982772 -0.50210917 2
-1.9121578 1.1102232 -0.50164115 2
-2.265564 1.315944 -0.5013774 2
-2.7786202 1.6145993 -0.5029372 2
-3.6456444 2.1192605 -0.51307052 3
-3.9470413 2.2953882 -0.39612347 15
-3.938978 2.2916193 -0.23603216 23
-3.947639 2.2975802 -0.078269519 27
-3.9356496 2.291522 1.2091908 27
-3.9356582 2.2924469 1.0418599 25
-3.9261291 2.2878141 0.87502682 22
-3.9326746 2.2925479 0.71411759 19
-3.9384835 2.2968552 0.55511481 29
-3.9438329 2.3008974 0.39612287 24
-3.9443636 2.30213 0.23734355 23
-3.9357808 2.2980416 0.078884877 18
-1.6546017 0.96803349 -0.50340325 2
-1.9082707 1.116891 -0.50164115 2
-2.2609565 1.3238442 -0.5013774 3
-2.7729671 1.6242887 -0.5029372 2
-3.6425059 2.1344824 -0.5136798 3
-3.9433014 2.311671 -0.39655921 15
-3.9352617 2.3078809 -0.23629294 22
-3.943907 2.3138762 -0.078355908 27
-3.931792 2.3076909 1.210484 27
-3.9318335 2.3086379 1.0429838 27
-3.9223518 2.3039911 0.87598002 23
-3.9289062 2.3087637 0.71489894 21
-3.9347203 2.3131042 0.5557242 29
-3.9400704 2.3171747 0.39655861 24
-3.9406071 2.3184161 0.23760523 23
-3.932044 2.314302 0.078972138 19
-1.6512126 0.97380322 -0.50340325 2
-1.9043604 1.1235453 -0.50164115 3
-2.2563217 1.3317283 -0.5013774 3
-2.7630281 1.6314474 -0.50215507 2
-3.6393056 2.1497078 -0.5142892 4
-3.9394965 2.3279555 -0.39699501 15
-3.9314804 2.3241444 -0.23655376 23
-3.9401093 2.3301737 -0.078442298 28
-3.92787 2.3238609 1.2117773 26
-3.9279437 2.3248301 1.0441077 25
-3.918509 2.3201697 0.87693322 22
-3.9250724 2.324981 0.71568024 20
-3.930891 2.3293545 0.55633354 29
-3.9362426 2.3334541 0.39699441 24
-3.9367852 2.3347044 0.23786692 24
-3.9282405 2.330564 0.079059392 20
-1.6478033 0.97956115 -0.50340325 2
-1.8962394 1.1276957 -0.50051636 2
-2.2516594 1.3395963 -0.5013774 2
-2.7530725 1.6385565 -0.50137287 2
-3.6317799 2.1623983 -0.5142892 4
-3.9399056 2.3467913 -0.39786658 15
-3.927633 2.3404095 -0.23681457 23
-3.9362452 2.3464727 -0.078528695 28
-3.9238825 2.3400314 1.2130706 28
-3.9239888 2.341023 1.0452316 26
-3.9188156 2.3388646 0.87883967 23
-3.9211731 2.3411996 0.7164616 19
-3.9269965 2.3456066 0.55694282 29
-3.9323492 2.349735 0.39743018 25
-3.9328971 2.3509939 0.23812859 24
-3.9243724 2.346828 0.079146661 18
-1.644374 0.9853071 -0.50340325 2
-1.8922915 1.1343077 -0.50051636 2
-2.2427602 1.3449236 -0.50042421 3
-2.7515714 1.6506971 -0.50215507 2
-3.6284647 2.1776164 -0.51489854 3
-3.9359598 2.3630931 -0.39830235 15
-3.9237201 2.3566766 -0.23707539 23
-3.9323158 2.3627732 -0.078615077 27
-3.9198294 2.3562021 1.2143638 28
-3.9199684 2.3572168 1.0463555 26
-3.9148333 2.3550594 0.87979275 23
-3.9214394 2.3599656 0.71802419 20
-3.9187851 2.3592999 0.55694282 28
-3.9241233 2.3634472 0.39743018 25
-3.9289434 2.3672848 0.23839027 23
-3.9204381 2.3630929 0.079233922 18
-1.6409246 0.991041 -0.50340325 2
-1.8883204 1.1409062 -0.50051636 3
-2.2380519 1.3527441 -0.50042421 2
-2.7457926 1.6602918 -0.50215507 2
-3.6250877 2.1928375 -0.51550794 3
-3.9319489 2.3793969 -0.39873812 14
-3.9240122 2.3755298 -0.237597 22
-3.9283204 2.3790751 -0.078701466 27
-3.9157119 2.3723731 1.2156571 26
-3.9158823 2.3734109 1.0474794 26
-3.9107857 2.3712554 0.88074601 22
-3.9174006 2.3762012 0.71880549 19
-3.9147685 2.3755393 0.55755222 29
-3.9201074 2.3797152 0.39786598 24
-3.9249241 2.3835769 0.23865195 23
-3.9164379 2.3793592 0.079321183 19
-1.6374551 0.99676287 -0.50340325 2
-1.8801657 1.1449569 -0.49939165 2
-2.2333162 1.3605481 -0.50042421 2
-2.7441971 1.6724362 -0.5029372 3
-3.5962248 2.1925609 -0.51246119 3
-3.9321239 2.3982949 -0.39960971 14
-3.9199588 2.3918135 -0.23785782 20
-3.9242594 2.3953776 -0.078787863 27
-3.9115291 2.3885441 1.2169503 27
-3.9117317 2.3896053 1.0486033 26
-3.9108613 2.3900111 0.8826524 22
-3.9132957 2.392437 0.71958685 20
-3.9106863 2.3917794 0.55816156 28
-3.9202738 2.3985834 0.39873752 26
-3.9208391 2.3998699 0.23891364 23
-3.9123719 2.3956261 0.079408444 19
-1.6339658 1.0024725 -0.50340325 2
-1.8803095 1.1540613 -0.50051636 2
-2.2285535 1.3683355 -0.50042421 2
-2.7383425 1.682005 -0.5029372 3
-3.630832 2.2310824 -0.51855469 3
-3.9279714 2.414614 -0.40004545 15
-3.9158397 2.408098 -0.23811863 22
-3.9158738 2.4090614 -0.078787863 25
-3.9072814 2.4047151 1.2182436 26
-3.9116638 2.4083538 1.0508511 24
-3.9066737 2.4062216 0.88360554 22
-3.9091253 2.4086728 0.72036815 20
-3.9065382 2.4080198 0.55877095 28
-3.9161172 2.4148676 0.39917329 25
-3.9166873 2.4161627 0.2391753 22
-3.9124947 2.4145193 0.079582967 18
-1.6345644 1.0107101 -0.50469732 3
-1.8762696 1.1606177 -0.50051636 2
-2.2279372 1.3786891 -0.5013774 2
-2.7324548 1.6915535 -0.5029372 3
-3.6483366 2.2594204 -0.52221072 3
-3.9279873 2.433557 -0.40091702 14
-3.9116538 2.4243824 -0.23837942 23
-3.9116898 2.42535 -0.078874253 27
-3.9070721 2.4234312 1.2208301 26
-3.9073732 2.4245625 1.051975 25
-3.9024208 2.4224327 0.88455874 23
-3.9048884 2.4249086 0.72114944 19
-3.9023242 2.4242604 0.55938023 28
-3.9118948 2.4311521 0.39960909 25
-3.9124699 2.4324563 0.23943698 23
-3.9082878 2.4308019 0.079670236 19
-1.630849 1.0166943 -0.50469732 3
-1.8720031 1.1674868 -0.50051636 2
-2.2228692 1.3868457 -0.5013774 3
-2.7262363 1.7015572 -0.5029372 3
-3.6610789 2.2859192 -0.52525747 3
-3.9232662 2.4505763 -0.40135282 15
-3.9027417 2.4387033 -0.23837942 20
-3.9070132 2.4423206 -0.078960635 26
-3.9022586 2.4402957 1.2221234 26
-3.9025912 2.4414513 1.0530989 27
-3.8976769 2.4393237 0.88551193 23
-3.9001606 2.4418256 0.72193074 19
-3.8976188 2.4411809 0.55998957 28
-3.9071784 2.4481182 0.40004483 24
-3.907759 2.4494319 0.23969868 23
-3.9035871 2.4477658 0.079757489 20
-1.6272901 1.0223807 -0.50469732 2
-1.8720415 1.1766069 -0.50164115 2
-2.2180145 1.3945966 -0.5013774 3
-2.7202802 1.7110631 -0.5029372 3
-3.6320753 2.2854693 -0.52221072 3
-3.9189036 2.4669096 -0.40178862 14
-3.8984301 2.454972 -0.23864023 22
-3.902694 2.4586084 -0.079047032 27
-3.8978026 2.4564774 1.2234167 25
-3.9022875 2.4602554 1.0553467 27
-3.8932898 2.4555326 0.88646513 22
-3.8957903 2.4580603 0.7227121 19
-3.8974669 2.4600692 0.56120831 27
-3.9028208 2.4644012 0.40048063 25
-3.9076278 2.4683907 0.24022202 24
-3.8992419 2.4640534 0.07984475 20
-1.6238909 1.0277715 -0.50469732 2
-1.8683357 1.1824824 -0.50164115 2
-2.2136223 1.4015578 -0.5013774 3
-2.7107193 1.7169583 -0.50215507 2
-3.6248772 2.2968683 -0.52221072 3
-3.9153414 2.4818759 -0.40222436 15
-3.8949156 2.4698813 -0.23890105 23
-3.903394 2.476213 -0.079219811 27
-3.8941438 2.4712985 1.2247097 27
-3.8986528 2.4751143 1.0564706 25
-3.8938427 2.4730144 0.88837147 21
-3.8922174 2.4729352 0.7234934 18
-3.8939075 2.4749634 0.56181771 28
-3.8992627 2.4793227 0.40091643 24
-3.9040668 2.4833343 0.2404837 22
-3.8957028 2.4789691 0.079932019 20
-1.6204737 1.0331508 -0.50469732 2
-1.8641967 1.1889968 -0.50164115 2
-2.2087166 1.4092762 -0.5013774 3
-2.7047095 1.7264099 -0.50215507 2
-3.60429 2.3014953 -0.5203827 3
-3.9108517 2.4982095 -0.40266016 15
-3.8904779 2.4861507 -0.23916186 20
-3.8989382 2.4925158 -0.0793062 28
-3.8936319 2.4900811 1.2272964 27
-3.8981972 2.4939592 1.0587184 26
-3.8893206 2.4892373 0.88932467 22
-3.8918793 2.4918325 0.72505599 19
-3.8894236 2.4912171 0.56242698 29
-3.8947785 2.4956057 0.4013522 23
-3.8995783 2.4996417 0.2407454 23
-3.8912346 2.4952517 0.08001928 20
-1.6164948 1.0393654 -0.50469732 2
-1.85552 1.1935103 -0.50051636 3
-2.1991615 1.4150906 -0.50042421 3
-2.7022133 1.7394553 -0.5029372 2
-3.5787365 2.3045702 -0.51794529 3
-3.9054179 2.5159051 -0.40309593 14
-3.8850999 2.5037756 -0.23942265 21
-3.8935409 2.5101774 -0.07939259 26
-3.8881009 2.5076311 1.2285897 26
-3.8926861 2.5115502 1.0598423 24
-3.883858 2.5068147 0.89027792 21
-3.8864317 2.5094366 0.72583729 21
-3.8881669 2.5115187 0.56364572 28
-3.8935339 2.5159488 0.40222374 24
-3.8941455 2.5173073 0.24100707 22
-3.8858223 2.5128887 0.080106534 19
-1.6128569 1.0450016 -0.50469732 2
-1.8513426 1.19998 -0.50051636 3
-2.1942086 1.4227585 -0.50042421 3
-2.6961248 1.7488773 -0.5029372 3
-3.558181 2.3089437 -0.51611727 3
-3.90079 2.5322344 -0.40353173 14
-3.884712 2.5227611 -0.23994428 20
-3.888947 2.5264764 -0.079478979 27
-3.8833737 2.5238197 1.229883 27
-3.8920648 2.5304344 1.0620902 27
-3.8791981 2.5230322 0.891231 21
-3.8817883 2.5256813 0.72661865 19
-3.8835356 2.5277827 0.56425506 28
-3.8889022 2.5322423 0.40265954 23
-3.8895183 2.5336103 0.24126875 22
-3.8812115 2.5291724 0.080193803 19
-1.6091993 1.0506252 -0.50469732 2
-1.8471426 1.2064351 -0.50051636 3
-2.1892288 1.430409 -0.50042421 3
-2.6900039 1.7582778 -0.5029372 2
-3.5293317 2.3077705 -0.51307052 3
-3.8960953 2.5485616 -0.40396747 15
-3.8800604 2.5390399 -0.24020509 25
-3.8842876 2.5427742 -0.079565376 26
-3.8826213 2.5426519 1.2324693 27
-3.8872836 2.5466747 1.0632141 26
-3.8744731 2.5392487 0.89218426 22
-3.8812079 2.5446312 0.72818124 20
-3.8788378 2.544045 0.56486434 29
-3.8842039 2.5485344 0.4030953 23
-3.8848248 2.5499117 0.24153042 22
-3.8765426 2.5454438 0.080281064 18
-1.605522 1.056236 -0.50469732 2
-1.8429201 1.2128755 -0.50051636 2
-2.1842225 1.4380423 -0.50042421 3
-2.687974 1.7703733 -0.50371939 3
-3.5171106 2.3173454 -0.51246119 3
-3.8913341 2.564887 -0.40440327 15
-3.8753424 2.5553169 -0.24046591 22
-3.883734 2.5618231 -0.079738148 26
-3.8777535 2.5588493 1.2337626 26
-3.882436 2.5629122 1.064338 24
-3.8696816 2.5554621 0.89313745 22
-3.8764226 2.5608859 0.72896254 19
-3.8782146 2.5630419 0.56608307 28
-3.8794394 2.5648241 0.4035311 22
-3.8842297 2.5689657 0.24205379 22
-3.8718028 2.5617182 0.080368333 19
-1.6018254 1.0618339 -0.50469732 2
-1.838675 1.2193011 -0.50051636 2
-2.1791894 1.4456577 -0.50042421 2
-2.681778 1.7797453 -0.50371939 3
-3.5089998 2.3296084 -0.51246119 3
-3.890656 2.5839663 -0.40527484 14
-3.8705575 2.5715919 -0.24072671 22
-3.8789313 2.5781312 -0.079824544 27
-3.8728199 2.5750439 1.2350559 27
-3.8815796 2.5818455 1.0665858 25
-3.8689103 2.5743926 0.89504379 21
-3.8756816 2.5798743 0.73052514 19
-3.8733749 2.5793145 0.56669247 28
-3.8787537 2.5838735 0.40440264 25
-3.8793938 2.5852776 0.24231547 22
-3.866997 2.577991 0.080455594 18
-1.5981091 1.0674188 -0.50469732 3
-1.8384587 1.2284187 -0.50164115 2
-2.1782105 1.4559834 -0.5013774 3
-2.6755493 1.7890955 -0.50371939 2
-3.504972 2.3446021 -0.51307052 3
-3.8857515 2.6003015 -0.40571058 14
-3.8657072 2.5878649 -0.24098752 23
-3.8740621 2.5944374 -0.079910934 26
-3.8718324 2.5939233 1.2376424 26
-3.8765907 2.5980914 1.0677097 24
-3.8639772 2.590615 0.89599699 22
-3.8707545 2.5961382 0.73130643 20
-3.8725893 2.5983491 0.56791109 27
-3.8738465 2.600173 0.40483844 24
-3.8744907 2.6015866 0.24257714 22
-3.8621242 2.5942609 0.080542848 18
-1.5943733 1.0729907 -0.50469732 2
-1.8301181 1.2321076 -0.50051636 2
-2.1731148 1.4635779 -0.5013774 3
-2.6692877 1.7984241 -0.50371939 2
-3.5008812 2.3595963 -0.5136798 3
-3.8807812 2.6166341 -0.40614638 15
-3.8649292 2.6069272 -0.24150915 21
-3.8691266 2.6107409 -0.079997323 27
-3.8667576 2.6101248 1.2389357 24
-3.871536 2.6143339 1.0688336 24
-3.8630455 2.6095824 0.89790338 21
-3.8657606 2.6123991 0.73208779 20
-3.8676076 2.6146307 0.56852049 28
-3.8729982 2.6192601 0.40570998 24
-3.8736575 2.6206913 0.24310051 22
-3.8613255 2.6133306 0.080717377 18
-1.5906183 1.0785496 -0.50469732 3
-1.8258059 1.2384884 -0.50051636 2
-2.1720543 1.4739106 -0.5023306 2
-2.6589079 1.804957 -0.5029372 3
-3.488518 2.3690143 -0.51307052 3
-3.8757443 2.6329639 -0.40658218 14
-3.8599353 2.623209 -0.24176994 22
-3.8641236 2.6270413 -0.080083713 25
-3.8656106 2.6290386 1.2415221 27
-3.8664148 2.6305726 1.0699575 24
-3.8579702 2.6258125 0.89885652 21
-3.8647821 2.6314361 0.73365039 21
-3.8625591 2.6309092 0.56912982 28
-3.8720644 2.6383729 0.40658155 23
-3.8686118 2.6370094 0.2433622 22
-3.8563101 2.6296098 0.080804639 18
-1.5866545 1.0843722 -0.50469732 3
-1.8212545 1.245172 -0.50051636 2
-2.1706889 1.4846326 -0.50328374 3
-2.6522746 1.8146905 -0.5029372 4
-3.4716208 2.376178 -0.51185179 3
-3.8742876 2.6527796 -0.40745372 15
-3.8544147 2.6401606 -0.24203075 23
-3.8627174 2.6468382 -0.080256492 26
-3.8599322 2.64592 1.2428154 27
-3.8607652 2.6474814 1.0710814 23
-3.8523676 2.6427116 0.89980972 22
-3.8591835 2.6483779 0.73443168 20
-3.8569818 2.6478572 0.5697391 29
-3.8664742 2.6553669 0.40701732 24
-3.8630359 2.6539979 0.24362385 23
-3.8548861 2.6493895 0.080979161 18
-1.5828596 1.0899041 -0.50469732 3
-1.8168969 1.2515218 -0.50051636 2
-2.1654932 1.4922007 -0.50328374 3
-2.6499898 1.8267404 -0.50371939 4
-3.4592197 2.3854644 -0.51124245 3
-3.8691039 2.6691155 -0.40788949 15
-3.8533943 2.659271 -0.24255238 22
-3.857569 2.663146 -0.080342889 27
-3.8546469 2.6621225 1.2441087 24
-3.8595173 2.666481 1.0733292 24
-3.8511951 2.6617246 0.90171617 22
-3.8580401 2.6674504 0.73599434 20
-3.8558788 2.6669507 0.57095784 29
-3.8653736 2.6745152 0.40788886 24
-3.8619595 2.6731501 0.24414723 23
-3.8497212 2.6656809 0.081066422 18
-1.5790455 1.0954227 -0.50469732 3
-1.8125173 1.2578562 -0.50051636 3
-2.1602714 1.4997506 -0.50328374 3
-2.6435971 1.8359793 -0.50371939 3
-3.4427209 2.3918619 -0.51002377 4
-3.8638537 2.6854479 -0.40832528 15
-3.8481879 2.6755559 -0.24281317 21
-3.856457 2.6823039 -0.08051566 27
-3.8532603 2.6810784 1.246695 26
-3.8541842 2.6827197 1.0744531 25
-3.8459079 2.6779556 0.90266925 21
-3.8527575 2.6837234 0.73677564 22
-3.8506176 2.6832314 0.57156724 28
-3.8601007 2.6908405 0.40832466 24
-3.8567007 2.6894705 0.24440892 23
-3.8485963 2.6848176 0.081240945 19
-1.5712535 1.0981612 -0.50340325 3
-1.8081154 1.2641755 -0.50051636 3
-2.1550231 1.5072821 -0.50328374 3
-2.6371725 1.8451961 -0.50371939 3
-3.430285 2.4010189 -0.50941443 4
-3.8626165 2.7046328 -0.40919682 14
-3.8429148 2.6918371 -0.24307398 22
-3.8511651 2.6986182 -0.080602057 29
-3.8478329 2.6972847 1.2479883 27
-3.8527749 2.7017522 1.0767009 26
-3.8405554 2.6941831 0.90362251 22
-3.8514512 2.7028296 0.73833829 19
-3.8493512 2.7023587 0.57278585 30
-3.8547606 2.7071609 0.40876046 25
-3.8513744 2.7057865 0.24467057 23
-3.8473816 2.7039845 0.081415474 19
-1.5674107 1.1036392 -0.50340325 3
-1.8036916 1.2704793 -0.50051636 3
-2.1457362 1.5119683 -0.5023306 3
-2.6307154 1.8543903 -0.50371939 3
-3.4218829 2.4129779 -0.50941443 4
-3.8572221 2.7209704 -0.40963262 14
-3.8416545 2.7109931 -0.24359562 23
-3.8498898 2.7178109 -0.080774829 28
-3.8423398 2.713486 1.2492816 25
-3.8512785 2.7208064 1.0789487 25
-3.8391442 2.7132382 0.9055289 21
-3.8460257 2.7191083 0.73911959 19
-3.8439465 2.7186446 0.57339525 30
-3.8493533 2.7234769 0.4091962 26
-3.8459816 2.7220988 0.24493226 22
-3.8419998 2.7202871 0.081502736 19
-1.5596095 1.1063094 -0.50210917 2
-1.7992458 1.2767676 -0.50051636 2
-2.1404455 1.519449 -0.5023306 3
-2.6282527 1.8664212 -0.50450158 3
-3.4174852 2.4277823 -0.51002377 4
-3.8517609 2.7373035 -0.41006839 16
-3.8362372 2.7272794 -0.2438564 22
-3.8444533 2.7341304 -0.080861226 28
-3.8407149 2.7324812 1.2518681 26
-3.8457274 2.7370584 1.0800726 26
-3.8336484 2.72947 0.9064821 23
-3.8445559 2.7382469 0.74068218 24
-3.8425167 2.7378056 0.57461393 30
-3.8479354 2.7426789 0.41006777 27
-3.8445876 2.7413049 0.24545564 24
-3.8365505 2.7365844 0.081589989 23
-1.5557383 1.1117467 -0.50210917 2
-1.7947781 1.2830404 -0.50051636 2
-2.1351285 1.5269114 -0.5023306 3
-2.6217215 1.875584 -0.50450158 3
-3.4089897 2.4396968 -0.51002377 4
-3.8462324 2.7536316 -0.41050419 14
-3.8388727 2.7493758 -0.24463885 26
-3.8470774 2.756268 -0.081120394 27
-3.8390052 2.7514989 1.2544546 30
-3.8401091 2.7533047 1.0811965 28
-3.8400514 2.7542779 0.91029483 28
-3.8470118 2.7602875 0.74302614 24
-3.8369684 2.7540958 0.57522327 30
-3.8464298 2.7619042 0.41093931 29
-3.843106 2.7605345 0.24597898 28
-3.8269746 2.7499597 0.081589989 13
-1.5518481 1.1171706 -0.50210917 2
-1.7902886 1.2892976 -0.50051636 2
-2.1297855 1.534355 -0.5023306 3
-2.6151588 1.8847243 -0.50450158 3
-3.4004529 2.4515815 -0.51002377 5
-3.8083179 2.746645 -0.40745372 8
-3.8333013 2.7656808 -0.24489965 13
-3.8131111 2.7521257 -0.080602057 8
-3.8372085 2.7705371 1.2570411 24
-3.8383741 2.7723978 1.0834444 15
-3.8264349 2.7647908 0.90934163 11
-3.8053331 2.7505546 0.73677564 6
-3.8353746 2.773288 0.576442 24
-3.8246586 2.7665563 0.40963197 10
-3.8172655 2.7622237 0.24493226 7
-3.7890048 2.7427819 0.080979161 4
-1.5518486 1.1254162 -0.50340325 3
-1.7857771 1.295539 -0.50051636 3
-2.1244168 1.54178 -0.5023306 3
-2.6085637 1.8938414 -0.50450158 3
-3.3958898 2.4663525 -0.51063311 8
-3.7704992 2.7394276 -0.40440327 6
-3.7791941 2.7467527 -0.24203075 5
-3.7630465 2.7360201 -0.079738148 4
-3.7884548 2.7555048 1.2441087 5
-3.7892778 2.7571146 1.0722053 5
-3.7691405 2.743469 0.89790338 4
-3.7917166 2.7609143 0.73599434 10
-3.7815454 2.754518 0.5697391 5
-3.782773 2.7564232 0.40614575 3
-3.783391 2.7578843 0.2433622 8
-3.7713294 2.7500999 0.080804639 52
-1.5479108 1.1308261 -0.50340325 2
-1.781244 1.3017646 -0.50051636 2
-2.1190221 1.5491862 -0.5023306 3
-2.5979509 1.9000201 -0.50371939 3
-3.3832548 2.4752612 -0.51002377 10
-3.7327776 2.7319798 -0.40135282 6
-3.7615259 2.7540283 -0.24150915 11
-3.7333069 2.7343688 -0.0793062 4
-3.7749174 2.7658577 1.2428154 9
-3.7796304 2.7703249 1.0722053 12
-3.763499 2.7595112 0.89885652 12
-3.7422342 2.7449238 0.72818124 8
-3.7438991 2.7471499 0.56547374 4
-3.7811592 2.7755053 0.40701732 15
-3.7455685 2.750387 0.24153042 6
-3.7375326 2.7454901 0.080281064 50
-1.5478439 1.1390852 -0.50469732 2
-1.7766891 1.3079743 -0.50051636 2
-2.1136014 1.5565735 -0.5023306 3
-2.5913029 1.909077 -0.50371939 3
-3.374594 2.487056 -0.51002377 11
-3.6951544 2.7243025 -0.39830235 6
-3.7277784 2.7493591 -0.23994428 11
-3.6955798 2.7266076 -0.078701466 7
-3.7341518 2.7560728 1.2324693 9
-3.7385817 2.7603505 1.0632141 11
-3.726207 2.7522185 0.89218426 11
-3.7048266 2.7374263 0.7227121 8
-3.706351 2.739553 0.56120831 5
-3.7313976 2.7590733 0.40265954 11
-3.7078454 2.7426593 0.23969868 6
-3.6997955 2.737704 0.079670236 50
-1.5283389 1.1329765 -0.49952096 3
-1.7721126 1.3141682 -0.50051636 2
-2.1081553 1.563942 -0.5023306 3
-2.5806577 1.9151678 -0.5029372 3
-3.3619072 2.4958618 -0.50941443 11
-3.6616297 2.7193656 -0.3956877 6
-3.6901021 2.7415106 -0.23811863 11
-3.6619654 2.7215986 -0.078183129 7
-3.6973765 2.7489183 1.2234167 8
-3.7015576 2.7530303 1.0553467 11
-3.6850739 2.7417696 0.88455874 11
-3.6635549 2.7267528 0.7164616 8
-3.6728823 2.7346909 0.55755222 15
-3.6897864 2.7482786 0.39917329 10
-3.6662176 2.7317185 0.23760523 6
-3.6621585 2.7296882 0.079059392 50
-1.5205052 1.1354148 -0.49822688 3
-1.7714177 1.3232617 -0.50164115 2
-2.0987513 1.5683531 -0.5013774 3
-2.5739567 1.9241643 -0.5029372 3
-3.3531744 2.5075819 -0.50941443 10
-3.6241961 2.7112446 -0.39263725 6
-3.6525261 2.7334325 -0.23629294 11
-3.6244285 2.7133923 -0.077578396 8
-3.660697 2.7415414 1.2143638 9
-3.6646311 2.745486 1.0474794 11
-3.6479871 2.7340109 0.87788641 11
-3.6263545 2.718787 0.7109924 8
-3.6355228 2.7266517 0.55328679 11
-3.6443129 2.7342381 0.39525127 10
-3.6287057 2.7235186 0.23577349 6
-3.6246231 2.7214437 0.078448564 50
nan nan nan 0
-1.7745737 1.3352956 -0.50389069 2
-2.0893424 1.5727175 -0.50042421 3
-2.5672245 1.9331374 -0.5029372 3
-3.3404367 2.5162854 -0.50880504 5
-3.586864 2.7028956 -0.38958675 6
-3.6190391 2.7281315 -0.23472811 10
-3.5909858 2.7079673 -0.077060059 7
-3.6241148 2.7339423 1.2053111 9
-3.6278028 2.7377181 1.0396121 11
-3.6109996 2.7260265 0.87121403 11
-3.5892551 2.7105947 0.70552325 8
-3.6022241 2.7213764 0.5496307 11
-3.6029556 2.7229171 0.39176506 10
-3.591296 2.71509 0.2339417 6
-3.5871906 2.7129705 0.077837728 50
-1.5240899 1.154752 -0.50210917 3
nan nan nan 0
-2.0838399 1.5800012 -0.50042421 3
-2.5604608 1.9420868 -0.5029372 3
-3.3316331 2.5279303 -0.50880504 4
-3.5496347 2.694319 -0.38653633 6
-3.5816569 2.7196105 -0.23290242 10
-3.5576251 2.7023418 -0.076541714 8
-3.5876303 2.7261214 1.1962583 8
-3.5910735 2.7297261 1.0317447 12
-3.5780199 2.7207892 0.86549497 11
-3.5522575 2.7021775 0.70005405 9
-3.565058 2.7128971 0.54536527 10
-3.569649 2.7173748 0.38915038 10
-3.5539894 2.7064338 0.23210996 5
-3.549861 2.7042689 0.077226892 49
nan nan nan 0
-1.7690805 1.350608 -0.50501537 2
-2.0744112 1.5842865 -0.49947101 3
-2.5575902 1.954011 -0.50371939 3
-3.3227887 2.5395443 -0.50880504 4
-3.5164664 2.6885412 -0.38392162 6
-3.5483453 2.713896 -0.23133759 9
-3.5203776 2.6934791 -0.075936988 7
-3.5512445 2.7180786 1.1872054 9
-3.5583129 2.7244737 1.0250013 11
-3.5412247 2.7123704 0.8588227 11
-3.5153623 2.6935349 0.69458485 9
-3.5319335 2.7072103 0.54170918 12
-3.5364261 2.7116339 0.38653573 10
-3.5167878 2.6975505 0.23027821 6
-3.5126367 2.6953404 0.076616056 51
nan nan nan 0
nan nan nan 0
-2.08026 1.6008593 -0.5023306 3
-2.5504112 1.9633718 -0.50371939 4
-3.3095267 2.5486782 -0.50819576 3
-3.4908056 2.6892524 -0.38217852 5
-3.5106897 2.7055473 -0.22951193 11
-3.4867265 2.68805 -0.075418636 8
-3.5144866 2.7104292 1.1781528 9
-3.5213015 2.7166653 1.017134 11
-3.5079453 2.7073381 0.85310352 12
-3.482012 2.6882932 0.68989706 8
-3.4984214 2.7019367 0.53805315 11
-3.5028136 2.706305 0.38392103 10
-3.4831727 2.6921012 0.22870812 6
-3.4790046 2.6898501 0.076092489 49
nan nan nan 0
-1.7555196 1.3602487 -0.50389069 2
-2.0669007 1.6020969 -0.50042421 3
-2.5435424 1.9722624 -0.50371939 3
-3.2966886 2.5571733 -0.50758636 4
-3.4617212 2.6861537 -0.37999964 13
-3.4775584 2.6994152 -0.22794707 9
-3.449682 2.6787417 -0.07481391 8
-3.4821186 2.7049034 1.1703933 9
-3.4887147 2.7110035 1.0103905 12
-3.4713476 2.6984799 0.84643126 12
-3.445317 2.6792095 0.68442786 8
-3.4615493 2.6928022 0.53378773 11
-3.4697602 2.7001617 0.38130638 10
-3.4461744 2.6827729 0.22687636 6
-3.4459238 2.6835527 0.075568914 51
nan nan nan 0
-1.7200358 1.3423892 -0.49489263 2
-2.0574267 1.6062815 -0.49947101 3
-2.5405343 1.9841686 -0.50450158 3
-3.2838316 2.5656097 -0.50697702 4
-3.4327011 2.6828845 -0.37782073 13
-3.4405792 2.6900094 -0.22612141 10
-3.416683 2.672287 -0.074295565 6
-3.446028 2.6962082 1.1613405 9
