# .PCD v0.7 - Point Cloud Data file format
VERSION 0.7
FIELDS x y z intensity
SIZE 4 4 4 4
TYPE F F F F
COUNT 1 1 1 1
WIDTH 1342
HEIGHT 1
VIEWPOINT 0 0 0 1 0 0 0
POINTS 1342
DATA ascii
-0.27290136 2.0813105 0.4754118 24
-0.2719802 2.0770974 0.3993859 28
-0.27134144 2.0750325 0.32502508 28
-0.27035248 2.0702801 0.2516602 29
-0.27160957 2.0827374 0.18041238 28
-0.27060729 2.0778799 0.10781206 26
-0.26798928 2.0605857 0.035602909 22
-0.25670743 1.9873984 -0.52669698 4
-0.26728454 2.0721316 -0.47352228 20
-0.26888347 2.0873988 -0.40129256 21
-0.26698768 2.0755401 -0.32538396 12
-0.27107435 2.1102202 -0.25653526 10
-0.2653456 2.0684803 -0.17910534 15
-0.26435378 2.0636024 -0.10667088 18
-0.26367378 2.0611486 -0.035247199 22
-0.26557249 2.0788734 0.55092543 22
-0.26501802 2.0774176 0.47428787 23
-0.26410782 2.0731652 0.3984327 28
-0.26347336 2.0710683 0.32424381 30
-0.2624988 2.066288 0.25105083 29
-0.26371098 2.0787315 0.17997661 29
-0.26272494 2.0738583 0.10755039 26
-0.26016742 2.0565488 0.035515644 24
-0.24976857 1.9882823 -0.52669698 4
-0.26004985 2.0730519 -0.47352228 21
-0.26159546 2.0883245 -0.40129256 19
-0.25912812 2.0715592 -0.3246018 11
-0.26370668 2.1111534 -0.25653526 16
-0.25750709 2.064451 -0.17866954 15
-0.25653172 2.0595579 -0.10641007 17
-0.25586039 2.0570953 -0.03516081 23
-0.25771898 2.074995 0.54963219 25
-0.25716522 2.0734951 0.47316399 25
-0.25686952 2.0740745 0.3984327 27
-0.25624239 2.0719752 0.32424381 28
-0.25528449 2.0671916 0.25105083 28
-0.25584358 2.0746956 0.17954083 29
-0.25487399 2.0698071 0.1072887 27
-0.25237703 2.0524826 0.035428382 23
-0.24282664 1.9891421 -0.52669698 3
-0.25222245 2.0691111 -0.47239748 22
-0.25371116 2.0843525 -0.40033937 20
-0.25189546 2.0724511 -0.3246018 10
-0.25573784 2.1071343 -0.25592589 16
-0.25029925 2.0653372 -0.17866954 16
-0.24874106 2.0554836 -0.10614926 21
-0.2480785 2.0530128 -0.03507442 25
-0.24989577 2.0710869 0.54833895 27
-0.24934304 2.0695431 0.47204006 26
-0.24904186 2.0700855 0.39747953 28
-0.24841923 2.0679536 0.32346249 29
-0.24747606 2.063143 0.25044149 27
-0.24859998 2.0755761 0.17954083 30
-0.24705452 2.0657263 0.10702702 29
-0.24461819 2.0483873 0.035341118 26
-0.23588176 1.9899775 -0.52669698 4
-0.24499835 2.069979 -0.47239748 21
-0.24643387 2.0852253 -0.40033937 19
-0.24408095 2.0684133 -0.32381961 9
-0.248381 2.1080141 -0.25592589 17
-0.24250634 2.0612514 -0.17823376 17
-0.24156457 2.0563393 -0.10614926 22
-0.24091063 2.0538664 -0.03507442 26
-0.24210297 2.0671494 0.54704571 27
-0.24211746 2.0704007 0.47204006 27
-0.24124511 2.0660667 0.39652634 29
-0.24119921 2.0688081 0.32346249 27
-0.24027283 2.0639942 0.25044149 28
-0.24077827 2.0714836 0.17910506 31
-0.23926666 2.0616164 0.10676534 30
-0.2374665 2.0492284 0.035341118 28
-0.22838226 1.9859909 -0.5254029 4
-0.23721555 2.0659814 -0.47127277 20
-0.23859455 2.0811965 -0.3993862 18
-0.23629774 2.0643463 -0.32303745 10
-0.24045764 2.1039376 -0.25531656 13
-0.23530973 2.0620854 -0.17823376 18
-0.23381992 2.0522091 -0.10588846 25
-0.23317477 2.0497274 -0.034988027 28
-0.23488578 2.067982 0.54704571 29
-0.23433994 2.0663924 0.47091618 27
-0.23403172 2.0668962 0.39652634 28
-0.23397626 2.0696373 0.32346249 29
-0.23251005 2.0598886 0.24983214 29
-0.23354599 2.0723116 0.17910506 33
-0.23206882 2.062439 0.10676534 29
-0.22975379 2.0450771 0.03525386 28
-0.22144847 1.986776 -0.5254029 4
-0.23000249 2.0667968 -0.47127277 18
-0.23132837 2.0820169 -0.3993862 17
-0.22909039 2.0651586 -0.32303745 10
-0.23256576 2.0998318 -0.25470722 14
-0.22756286 2.0579436 -0.17779799 18
-0.22665495 2.0530128 -0.10588846 24
-0.22601844 2.0505288 -0.034988027 29
-0.22713743 2.0639882 0.54575241 29
-0.22712547 2.0671978 0.47091618 27
-0.2262803 2.0628219 0.39557317 28
-0.22621281 2.0655327 0.32268119 28
-0.22531827 2.0606878 0.24983214 28
-0.22577029 2.0681624 0.17866927 32
-0.22432713 2.0582724 0.10650366 31
-0.22261374 2.0458667 0.03525386 27
-0.21451198 1.9875369 -0.5254029 4
-0.22226468 2.0627432 -0.47014797 18
-0.22405937 2.0828118 -0.3993862 17
-0.22135291 2.0610356 -0.32225525 10
-0.22470549 2.0956964 -0.25409788 13
-0.22037792 2.0587254 -0.17779799 18
-0.21948722 2.0537915 -0.10588846 23
-0.2188594 2.0513053 -0.034988027 28
-0.21993139 2.0647686 0.54575241 27
-0.21939301 2.063133 0.46979225 30
-0.21907833 2.0635991 0.39557317 29
-0.2190014 2.0663097 0.32268119 29
-0.21760157 2.0565267 0.24922279 29
-0.21854968 2.068938 0.17866927 31
-0.21714106 2.0590429 0.10650366 30
-0.21547097 2.0466311 0.03525386 27
-0.20707138 1.98347 -0.52410877 3
-0.21506302 2.0635066 -0.47014797 18
-0.21627967 2.0786991 -0.39843297 17
-0.21364701 2.0568838 -0.32147309 10
-0.21687688 2.0915315 -0.25348851 14
-0.21319029 2.0594821 -0.17779799 20
-0.21180351 2.0495782 -0.10562764 26
-0.21169767 2.0520568 -0.034988027 29
-0.21222788 2.0607195 0.54445922 28
-0.21219 2.0638864 0.46979225 29
-0.21137257 2.0594687 0.39461994 28
-0.21128392 2.0621486 0.32189986 29
-0.21042162 2.0572736 0.24922279 28
-0.21082045 2.064733 0.17823349 31
-0.20944603 2.0548213 0.10624199 31
-0.20781951 2.042397 0.035166595 28
-0.20014651 1.9841807 -0.52410877 3
-0.20785873 2.0642447 -0.47014797 17
-0.20902236 2.0794415 -0.39843297 16
-0.20597276 2.0527029 -0.3206909 11
-0.20957476 2.0922759 -0.25348851 14
-0.20550446 2.0552573 -0.1773622 21
-0.20464787 2.0503051 -0.10562764 24
-0.20453337 2.0527833 -0.034988027 29
-0.20503333 2.0614479 0.54445922 29
-0.20450306 2.0597665 0.46866837 29
-0.20418239 2.0601938 0.39461994 27
-0.2040844 2.0628736 0.32189986 27
-0.20275138 2.053057 0.24861345 28
-0.20361191 2.0654564 0.17823349 32
-0.20227209 2.0555396 0.10624199 30
-0.20068893 2.0431101 0.035166595 29
-0.19368716 1.9896743 -0.5254029 3
-0.2006519 2.0649576 -0.47014797 17
-0.20176247 2.0801582 -0.39843297 16
-0.19880624 2.0534096 -0.3206909 11
-0.20179272 2.0880554 -0.25287917 14
-0.19832902 2.0559623 -0.1773622 22
-0.19748972 2.051007 -0.10562764 26
-0.1968883 2.0485084 -0.034901641 29
-0.19737501 2.0573428 0.54316592 29
-0.19731189 2.060468 0.46866837 29
-0.1965227 2.0560079 0.39366677 30
-0.19641332 2.0586572 0.32111856 29
-0.19558366 2.0537522 0.24861345 27
-0.19592954 2.0611961 0.17779772 33
-0.19509569 2.0562332 0.10624199 30
-0.19355592 2.0437982 0.035166595 26
-0.18684365 1.9951792 -0.52669698 4
-0.1926287 2.0608284 -0.46902326 17
-0.193681 2.0759966 -0.3974798 16
-0.19082089 2.049207 -0.31990871 11
-0.19367896 2.0838392 -0.25226983 14
-0.19079222 2.0566752 -0.1773622 23
-0.18951075 2.0467453 -0.10536684 27
-0.18937881 2.0492163 -0.034901641 29
-0.18983316 2.0580523 0.54316592 30
-0.18931191 2.0563254 0.46754444 29
-0.18898572 2.0567145 0.39366677 28
-0.18886665 2.0593631 0.32111856 29
-0.18760256 2.0495129 0.24800409 28
-0.18837357 2.0619004 0.17779772 33
-0.18710449 2.0519619 0.1059803 30
-0.18561065 2.0395155 0.035079334 27
-0.18031156 2.0006297 -0.52799106 3
-0.18543389 2.0614884 -0.46902326 16
-0.18643326 2.0766602 -0.3974798 15
-0.18366666 2.0498605 -0.31990871 12
-0.18640384 2.0845025 -0.25226983 15
-0.18316914 2.0523677 -0.17692643 23
-0.18236512 2.0473943 -0.10536684 26
-0.1817819 2.0448854 -0.034815248 29
-0.18222125 2.0538919 0.54187268 28
-0.18213284 2.0569737 0.46754444 30
-0.18137324 2.0524724 0.39271358 28
-0.18167698 2.06001 0.32111856 29
-0.1804473 2.0501554 0.24800409 29
-0.18073916 2.0575831 0.17736192 33
-0.17994067 2.0526025 0.1059803 30
-0.17848364 2.0401514 0.035079334 28
-0.17451139 2.0108395 -0.53057927 4
-0.17895664 2.0620608 -0.46902326 16
-0.17990832 2.0772357 -0.3974798 15
-0.17680068 2.0455074 -0.31912658 12
-0.17942777 2.0801334 -0.2516605 15
-0.17672056 2.052933 -0.17692643 24
-0.17593214 2.0479572 -0.10536684 27
-0.17535682 2.0454462 -0.034815248 29
-0.17576785 2.0544541 0.54187268 28
-0.17525533 2.0526814 0.46642056 30
-0.17492433 2.0530319 0.39271358 29
-0.17478597 2.0556495 0.32033724 29
-0.17400566 2.0507121 0.24800409 29
-0.17427419 2.0581408 0.17736192 33
-0.17307094 2.0481825 0.10571863 29
-0.17166001 2.0357199 0.034992073 29
-0.16784224 2.0114071 -0.53057927 3
-0.17135333 2.0578179 -0.46789846 14
-0.17224987 2.0729597 -0.3965266 14
-0.16965945 2.0461121 -0.31912658 12
-0.17216568 2.0807471 -0.2516605 16
-0.16914351 2.048573 -0.17649063 25
-0.16837235 2.0435822 -0.10510603 27
-0.16780618 2.0410635 -0.034728859 28
-0.16820046 2.0502412 0.54057944 28
-0.16808906 2.0532806 0.46642056 30
-0.16735722 2.048738 0.39176041 28
-0.16760935 2.0562472 0.32033724 28
-0.16644397 2.046361 0.24739476 28
-0.16708888 2.0587366 0.17736192 33
-0.16592039 2.0487742 0.10571863 32
-0.16455299 2.0363066 0.034992073 27
-0.16008496 2.0071943 -0.52928513 4
-0.1638099 2.0584321 -0.46789846 14
-0.16465095 2.0735769 -0.3965266 15
-0.1617689 2.0417974 -0.31834438 14
-0.16414709 2.076417 -0.25105113 17
-0.16163397 2.0491791 -0.17649063 25
-0.1608811 2.0441856 -0.10510603 28
-0.16032419 2.0416648 -0.034728859 30
-0.16068484 2.050844 0.54057944 29
-0.16056228 2.0538831 0.46642056 29
-0.1598471 2.0493376 0.39176041 28
-0.1596885 2.0519238 0.31955591 28
-0.15894257 2.0469573 0.24739476 30
-0.1591574 2.0543692 0.17692617 33
-0.15802532 2.04439 0.10545694 33
-0.15670404 2.0319116 0.034904812 27
-0.15307757 2.007741 -0.52928513 3
-0.15662365 2.0589912 -0.46789846 13
-0.1574118 2.0741391 -0.3965266 14
-0.15426785 2.0374253 -0.31756222 14
-0.15652423 2.0720286 -0.25044179 17
-0.15410571 2.044764 -0.17605488 25
-0.15337022 2.0397558 -0.10484522 28
-0.15319647 2.0422122 -0.034728859 30
-0.15352508 2.0513923 0.54057944 27
-0.15339191 2.054431 0.46642056 29
-0.152328 2.0449884 0.39080721 30
-0.15252498 2.0524688 0.31955591 29
-0.15179639 2.0474994 0.24739476 29
-0.15198533 2.0549123 0.17692617 33
-0.1508881 2.044929 0.10545694 30
-0.1496104 2.0324464 0.034904812 28
-0.14571798 2.0034463 -0.52799106 4
-0.1490829 2.0546665 -0.46677375 12
-0.14981639 2.0697803 -0.39557344 14
-0.14715497 2.0379512 -0.31756222 14
-0.14929055 2.0725625 -0.25044179 18
-0.14696722 2.0452898 -0.17605488 25
-0.1462492 2.0402787 -0.10484522 26
-0.14606689 2.0427344 -0.034728859 31
-0.14601982 2.0470984 0.5392862 29
-0.14587389 2.0500941 0.46529663 30
-0.14518873 2.0455077 0.39080721 29
-0.14535959 2.0529885 0.31955591 28
-0.1442987 2.0430663 0.2467854 30
-0.14481142 2.0554302 0.17692617 33
-0.14339902 2.0404627 0.10519527 31
-0.14251493 2.0329561 0.034904812 33
-0.13872376 2.0039427 -0.52799106 3
-0.14190987 2.0551744 -0.46677375 13
-0.1425906 2.0702908 -0.39557344 13
-0.13970181 2.0335257 -0.31678003 15
-0.14171575 2.0681198 -0.24983244 19
-0.13982692 2.0457902 -0.17605488 28
-0.13912642 2.040777 -0.10484522 30
-0.13893552 2.0432317 -0.034728859 33
-0.13887323 2.0475955 0.5392862 28
-0.13871683 2.0505908 0.46529663 31
-0.13771728 2.0411048 0.38985398 29
-0.13786085 2.0485563 0.31877461 29
-0.1371662 2.0435576 0.2467854 32
-0.13763575 2.0559232 0.17692617 34
-0.1362756 2.0409508 0.10519527 31
-0.1354177 2.0334413 0.034904812 34
-0.13172783 2.0044148 -0.52799106 3
-0.13441646 2.0507958 -0.46564895 12
-0.13504291 2.0658779 -0.39462024 13
-0.13260263 2.0340009 -0.31678003 16
-0.13449579 2.0686018 -0.24983244 17
-0.13268493 2.0462658 -0.17605488 31
-0.13200194 2.04125 -0.10484522 30
-0.13180247 2.0437043 -0.034728859 34
-0.13172494 2.0480678 0.5392862 29
-0.13155809 2.0510626 0.46529663 32
-0.13059165 2.0415733 0.38985398 30
-0.13070923 2.0490251 0.31877461 30
-0.12971693 2.0390713 0.24617606 30
-0.1304584 2.0563912 0.17692617 35
-0.12915052 2.041414 0.10519527 36
-0.12831885 2.0339017 0.034904812 38
-0.12473033 2.0048623 -0.52799106 4
-0.12725703 2.0512524 -0.46564895 12
-0.12752777 2.0614381 -0.39366707 14
-0.12550184 2.0344512 -0.31678003 17
-0.12696952 2.0641053 -0.24922307 20
-0.12554131 2.0467165 -0.17605488 34
-0.12487583 2.0416985 -0.10484522 34
-0.12466781 2.044152 -0.034728859 40
-0.12457505 2.0485153 0.5392862 32
-0.12439775 2.0515094 0.46529663 32
-0.12346444 2.0420165 0.38985398 29
-0.123556 2.0494688 0.31877461 30
-0.12259847 2.0395117 0.24617606 29
-0.12327946 2.056834 0.17692617 40
-0.12232172 2.0468364 0.10545694 40
-0.12121842 2.034337 0.034904812 38
-0.11709907 2.0004847 -0.52669698 3
-0.11981136 2.0468206 -0.46452424 11
-0.12033123 2.0618706 -0.39366707 14
-0.11839952 2.0348771 -0.31678003 17
-0.11976368 2.0645359 -0.24922307 22
-0.11839619 2.0471423 -0.17605488 35
-0.11774822 2.0421219 -0.10484522 35
-0.11753162 2.0445747 -0.034728859 38
-0.11742363 2.0489376 0.5392862 32
-0.11695797 2.0470669 0.46417275 34
-0.1163357 2.0424352 0.38985398 29
-0.11612128 2.0449569 0.31799328 30
-0.115198 2.0349722 0.24556671 30
-0.11609902 2.0572519 0.17692617 39
-0.11517619 2.047251 0.10545694 43
-0.11383659 2.0297565 0.03481755 42
-0.11046458 2.0008619 -0.52669698 3
-0.1126659 2.0472264 -0.46452424 11
-0.11286435 2.0573769 -0.39271384 15
-0.11102611 2.0303469 -0.31599787 18
-0.11255637 2.0649414 -0.24922307 24
-0.11097936 2.0425694 -0.17561908 36
-0.11061917 2.0425203 -0.10484522 36
-0.11012451 2.0399804 -0.034642469 44
-0.11027079 2.049335 0.5392862 33
-0.10981166 2.0474627 0.46417275 34
-0.10894356 2.0379274 0.38890082 29
-0.10898235 2.0453498 0.31799328 30
-0.10809392 2.035362 0.24556671 30
-0.10865387 2.0526705 0.17649037 40
-0.1077662 2.0426545 0.10519527 41
-0.10675072 2.0301414 0.03481755 39
-0.1032302 1.9964123 -0.5254029 3
-0.10587643 2.0475888 -0.46452424 10
-0.10604123 2.05774 -0.39271384 14
-0.10429262 2.030704 -0.31599787 18
-0.10570816 2.0653033 -0.24922307 24
-0.10420535 2.0429261 -0.17561908 31
-0.10359181 2.037889 -0.1045844 39
-0.1033591 2.0403342 -0.034642469 36
-0.10323083 2.0448656 0.53799289 32
-0.10277663 2.0429497 0.46304882 30
-0.10218495 2.0382774 0.38890082 29
-0.1019527 2.0407674 0.31721199 30
-0.10134383 2.0357094 0.24556671 29
-0.10184638 2.0530195 0.17649037 38
-0.10099191 2.0430007 0.10519527 36
-0.099771991 2.0254912 0.034730289 31
-0.09637589 1.9919195 -0.52410877 4
-0.09849377 2.0430796 -0.46339944 10
-0.098622248 2.053195 -0.39176068 15
-0.097203508 2.0310557 -0.31599787 20
-0.098261893 2.0607028 -0.24861374 20
-0.0968372 2.0383022 -0.17518331 26
-0.09647762 2.0382383 -0.1045844 32
-0.09600088 2.0356891 -0.03455608 32
-0.096092291 2.0452135 0.53799289 27
-0.09564478 2.0432959 0.46304882 28
-0.095069408 2.0386219 0.38890082 30
-0.094828472 2.041111 0.31721199 29
-0.094007812 2.0310934 0.24495737 28
-0.094449967 2.0483871 0.1760546 32
-0.093630776 2.0383527 0.10493358 28
-0.092472576 2.020833 0.034643024 26
-0.089074492 1.9922593 -0.52410877 3
-0.091004856 2.043427 -0.46339944 9
-0.091096245 2.0535429 -0.39176068 15
-0.089758664 2.0313983 -0.31599787 19
-0.090708382 2.061049 -0.24861374 18
-0.089147657 2.0336671 -0.17474753 24
-0.088788666 2.0335898 -0.1043236 27
-0.088104673 2.0260382 -0.034383301 27
-0.088386565 2.0407267 0.53669971 26
-0.087945126 2.0387654 0.46192494 26
-0.087386169 2.0340528 0.38794762 29
-0.08713568 2.0365107 0.31643066 29
-0.08656285 2.0314243 0.24495737 27
-0.086941615 2.0487194 0.1760546 28
-0.085948385 2.0336936 0.10467191 29
-0.085065231 2.0211585 0.034643024 24
-0.081920795 1.9877328 -0.52281469 3
-0.083671644 2.0388644 -0.46227473 10
-0.083727077 2.0489438 -0.39080748 16
-0.082466438 2.0267646 -0.31521568 21
-0.083312526 2.0563941 -0.24800438 20
-0.081847534 2.0289891 -0.17431176 26
-0.081489183 2.0288982 -0.1040628 26
-0.080832183 2.0213382 -0.034296907 28
-0.081070416 2.0361967 0.53540641 26
-0.080827974 2.0390599 0.46192494 28
-0.080285467 2.0343454 0.38794762 30
-0.080026403 2.0368025 0.31643066 30
-0.079277351 2.0267549 0.24434802 30
-0.079595909 2.0440331 0.17561881 30
-0.078655519 2.0289919 0.10441023 27
-0.077816762 2.0164475 0.034555763 27
-0.074634843 1.9880196 -0.52281469 3
-0.076198272 2.0391574 -0.46227473 9
-0.076216757 2.0492368 -0.39080748 16
-0.075037427 2.0270534 -0.31521568 21
-0.075592197 2.0517268 -0.24739504 23
-0.074227847 2.024298 -0.17387597 29
-0.074052349 2.0291831 -0.1040628 28
-0.073423065 2.021621 -0.034296907 30
-0.073606834 2.0364802 0.53540641 29
-0.073178768 2.0344734 0.46080104 31
-0.072653107 2.0297208 0.38699445 29
-0.072560608 2.0370822 0.31643066 29
-0.071848392 2.0270319 0.24434802 30
-0.072103605 2.044311 0.17561881 32
-0.071218371 2.0292664 0.10441023 31
-0.070425592 2.0167191 0.034555763 29
-0.067694902 1.988268 -0.52281469 3
-0.069079824 2.0394111 -0.46227473 9
-0.068897814 2.044585 -0.38985425 16
-0.067795776 2.0223675 -0.31443354 23
-0.068429865 2.0519781 -0.24739504 23
-0.067161277 2.0245447 -0.17387597 29
-0.066804051 2.0244389 -0.10380199 31
-0.066201836 2.0168681 -0.034210518 30
-0.066340141 2.0318973 0.53411317 30
-0.066076681 2.0347166 0.46080104 31
-0.06556762 2.0299621 0.38699445 29
-0.065290853 2.032387 0.31564939 29
-0.064613812 2.0223103 0.24373868 30
-0.064808995 2.0395718 0.17518304 31
-0.063976765 2.0245121 0.10414855 32
-0.063221805 2.011956 0.034468498 28
-0.060754143 1.9884923 -0.52281469 3
-0.061812591 2.03477 -0.46114993 8
-0.061760467 2.0448129 -0.38985425 16
-0.060735982 2.0225918 -0.31443354 23
-0.061118618 2.0472438 -0.24678569 25
-0.05994612 2.019788 -0.1734402 29
-0.059737034 2.0246599 -0.10380199 30
-0.059161246 2.017087 -0.034210518 31
-0.059247091 2.0321167 0.53411317 29
-0.058973793 2.0349348 0.46080104 29
-0.058339994 2.0252724 0.38604125 29
-0.058196105 2.0326025 0.31564939 32
-0.057554241 2.0225236 0.24373868 30
-0.057689168 2.0397856 0.17518304 34
-0.056909509 2.0247231 0.10414855 32
-0.056205049 2.0121644 0.034468498 27
-0.053551365 1.9790365 -0.52022654 3
-0.05457861 2.030103 -0.46002516 9
-0.054491311 2.0401099 -0.38890108 17
-0.05367545 2.0227914 -0.31443354 24
-0.053972032 2.0474446 -0.24678569 26
-0.052895378 2.019985 -0.1734402 28
-0.052539453 2.0198643 -0.10354118 32
-0.051990815 2.0122836 -0.034124129 31
-0.052029416 2.0274827 0.53281993 28
-0.051746048 2.0302577 0.4596771 30
-0.05127012 2.0254636 0.38604125 30
-0.051100638 2.0327933 0.31564939 29
-0.05037012 2.017751 0.24312933 30
-0.050445203 2.0349951 0.17474726 34
-0.049841557 2.0249095 0.10414855 30
-0.049058799 2.0073504 0.034381237 29
-0.046756692 1.9840395 -0.52152056 3
-0.047491897 2.0302813 -0.46002516 9
-0.04725574 2.0353804 -0.38794789 17
-0.046614259 2.0229664 -0.31443354 26
-0.046824787 2.0476205 -0.24678569 26
-0.045730989 2.0151777 -0.17300442 28
-0.045488488 2.0200355 -0.10354118 31
-0.044966318 2.0124528 -0.034124129 31
-0.04495186 2.027652 0.53281993 31
-0.04465881 2.0304258 0.4596771 31
-0.044092547 2.0207231 0.38508809 29
-0.043897681 2.0280218 0.31486806 30
-0.043326549 2.0179145 0.24312933 31
-0.043341435 2.0351589 0.17474726 34
-0.04266756 2.0200789 0.10388687 30
-0.042051539 2.0075095 0.034381237 28
-0.039152302 1.9503901 -0.5124619 3
-0.040404603 2.0304346 -0.46002516 9
-0.040150646 2.035533 -0.38794789 18
-0.039552506 2.0231168 -0.31443354 26
-0.039676972 2.0477715 -0.24678569 29
-0.038696427 2.0153248 -0.17300442 27
-0.038436972 2.0201821 -0.10354118 31
-0.037847046 2.0075994 -0.034037735 30
-0.037783571 2.0229676 0.53152668 30
-0.037480902 2.0256982 0.45855322 30
-0.037038639 2.0208647 0.38508809 30
-0.036818296 2.0281625 0.31486806 30
-0.03628245 2.0180535 0.24312933 31
-0.036237139 2.0352976 0.17474726 34
-0.03561591 2.0202155 0.10388687 30
-0.034956522 2.0026457 0.034293976 29
-0.032904454 1.9843177 -0.52152056 3
-0.033236891 2.0256922 -0.45890042 9
-0.032965403 2.0307531 -0.38699472 20
-0.032490272 2.0232425 -0.31443354 27
-0.032528672 2.0478976 -0.24678569 27
-0.031661395 2.0154476 -0.17300442 28
-0.031307425 2.0153112 -0.10328037 32
-0.030838989 2.007719 -0.034037735 30
-0.030721866 2.0230873 0.53152668 30
-0.030409664 2.0258167 0.45855322 31
-0.029984279 2.0209818 0.38508809 31
-0.029738463 2.0282788 0.31486806 30
-0.029166017 2.0132055 0.24251999 31
-0.029061124 2.0304315 0.17431149 34
-0.028563825 2.0203276 0.10388687 31
-0.027965769 2.0027554 0.034293976 28
-0.026040914 1.9892497 -0.52281469 3
-0.026165707 2.0257959 -0.45890042 10
-0.025876552 2.0308559 -0.38699472 20
-0.025427638 2.0233436 -0.31443354 27
-0.02537998 2.0479987 -0.24678569 28
-0.024625978 2.0155461 -0.17300442 29
-0.024272487 2.015408 -0.10328037 30
-0.023830552 2.0078144 -0.034037735 31
-0.023659788 2.0231822 0.53152668 30
-0.023338059 2.0259106 0.45855322 30
-0.022929555 2.0210741 0.38508809 30
-0.02265827 2.0283701 0.31486806 30
-0.022138439 2.0132952 0.24251999 31
-0.021973418 2.0305207 0.17431149 34
-0.021458231 2.0154221 0.10362519 31
-0.020974677 2.0028408 0.034293976 29
nan nan nan 0
-0.019094199 2.0258749 -0.45890042 11
-0.01874198 2.0260255 -0.38604152 18
-0.018364696 2.0234201 -0.31443354 29
-0.018186802 2.043112 -0.24617635 30
-0.01754679 2.0106387 -0.17256863 30
-0.01719455 2.0104878 -0.10301955 31
-0.016779944 2.0028863 -0.033951346 30
-0.0165578 2.0184226 0.53023344 29
-0.016266169 2.0259798 0.45855322 31
-0.01587455 2.0211418 0.38508809 30
-0.015539872 2.0234988 0.31408677 29
-0.015110593 2.0133603 0.24251999 31
-0.014885444 2.0305848 0.17431149 34
-0.014422964 2.0154846 0.10362519 32
-0.013948428 1.9979028 0.034206714 29
nan nan nan 0
-0.012022461 2.0259292 -0.45890042 13
-0.011669717 2.0260787 -0.38604152 21
-0.01130153 2.0234718 -0.31443354 30
-0.0110549 2.0431631 -0.24617635 27
-0.010528244 2.0106878 -0.17256863 29
-0.010176533 2.0105355 -0.10301955 31
-0.0097884648 2.0029328 -0.033951346 31
-0.0095120892 2.0184681 0.53023344 30
-0.009171973 2.021152 0.45742929 30
-0.0087979333 2.0162764 0.38413486 29
-0.0084764501 2.0235407 0.31408677 29
-0.0080825631 2.0134006 0.24251999 31
-0.0077781645 2.0256436 0.1738757 34
-0.0073692207 2.0105295 0.10336351 30
-0.0069743623 1.9979392 0.034206714 28
nan nan nan 0
-0.0049505746 2.0259588 -0.45890042 13
-0.0045973118 2.0261071 -0.38604152 19
-0.0042278818 2.0185604 -0.31365135 31
-0.0039133336 2.0382266 -0.24556699 27
-0.0035008762 2.0057313 -0.17213285 30
-0.003150549 2.0055656 -0.10275874 31
-0.0027968651 2.0029547 -0.033951346 30
-0.0024662632 2.0184889 0.53023344 31
-0.0021167798 2.0211718 0.45742929 29
-0.0017597619 2.016295 0.38413486 30
-0.0014129233 2.0235579 0.31408677 31
-0.0010544346 2.0134165 0.24251999 32
-0.00070730154 2.0256584 0.1738757 35
-0.00035024574 2.0055501 0.10310183 32
-2.0991786e-07 1.9929521 0.034119453 28
nan nan nan 0
0.0021162704 2.0210919 -0.45777565 14
0.002475149 2.0261106 -0.38604152 21
0.0028182347 2.018563 -0.31365135 30
0.0032014286 2.0382278 -0.24556699 27
0.0035004537 2.0057313 -0.17213285 33
0.0038502004 2.0055645 -0.10275874 31
0.0041947681 2.0029523 -0.033951346 30
0.004568635 2.0136554 0.52894014 29
0.0049265353 2.016295 0.45630541 30
0.0052655828 2.0113807 0.38318169 30
0.0056368294 2.0186119 0.31330544 29
0.0059589827 2.0084453 0.24191064 32
0.0063479221 2.0206676 0.17343993 34
0.006650432 2.0055392 0.10310183 32
0.0069564912 1.9929401 0.034119453 29
nan nan nan 0
0.0091711842 2.0210721 -0.45777565 15
0.00954758 2.0260897 -0.38604152 22
0.0098643173 2.0185409 -0.31365135 31
0.010316152 2.0382042 -0.24556699 27
0.010501741 2.0057068 -0.17213285 31
0.010823889 2.0005455 -0.10249794 29
0.01118635 2.0029254 -0.033951346 32
0.011597576 2.0136273 0.52894014 29
0.011964687 2.0162654 0.45630541 31
0.012286579 2.0113502 0.38318169 29
0.012683065 2.01858 0.31330544 31
0.012969729 2.0084121 0.24191064 30
0.01340133 2.020633 0.17343993 33
0.013617042 2.0005105 0.10284015 32
0.013913108 1.9929036 0.034119453 29
nan nan nan 0
0.016186874 2.0161562 -0.45665091 15
0.016619895 2.0260441 -0.38604152 23
0.016910279 2.0184941 -0.31365135 32
0.01738831 2.0331933 -0.24495766 27
0.0175029 2.0056579 -0.17213285 31
0.017807029 2.0004957 -0.10249794 29
0.018177798 2.0028741 -0.033951346 31
0.0185817 2.008745 0.5276469 30
0.019002695 2.0162115 0.45630541 29
0.019307427 2.0112948 0.38318169 30
0.019729145 2.0185232 0.31330544 29
0.019980317 2.0083547 0.24191064 31
0.020404154 2.0155933 0.17300415 32
0.020600043 2.0004508 0.10284015 31
0.020869553 1.9928428 0.034119453 31
nan nan nan 0
0.023168355 2.0112157 -0.45552614 15
0.023634614 2.021066 -0.38508835 23
0.023956036 2.0184228 -0.31365135 31
0.024485374 2.0331204 -0.24495766 30
0.024503846 2.0055847 -0.17213285 31
0.024789952 2.0004213 -0.10249794 31
0.025106201 1.9977996 -0.033864956 31
0.025593415 2.0086677 0.5276469 29
0.026040468 2.0161328 0.45630541 31
0.02626379 2.0063074 0.38222849 30
0.026709484 2.013504 0.31252414 30
0.02699066 2.0082726 0.24191064 31
0.027439762 2.0155098 0.17300415 33
0.027582794 2.0003667 0.10284015 31
0.02775595 1.9877592 0.034032188 29
nan nan nan 0
0.030188667 2.0111227 -0.45552614 16
0.030689305 2.0209711 -0.38508835 24
0.030925656 2.0133891 -0.31286919 33
0.031582139 2.0330224 -0.24495766 29
0.031426258 2.0005066 -0.17169708 32
0.031772576 2.0003226 -0.10249794 31
0.032079671 1.9976997 -0.033864956 32
0.032526422 2.0037367 0.52635366 29
0.032997996 2.011158 0.45518148 31
0.033266947 2.0062034 0.38222849 29
0.03373776 2.0133986 0.31252414 29
0.033916663 2.0032043 0.24130128 31
0.034389842 2.0104213 0.17256837 34
0.03456521 2.0002582 0.10284015 32
0.034694355 1.9876503 0.034032188 28
nan nan nan 0
0.037559599 2.0109985 -0.45552614 16
0.038096327 2.0208449 -0.38508835 25
0.038304888 2.0132623 -0.31286919 33
0.039033327 2.0328929 -0.24495766 30
0.03875827 2.0003781 -0.17169708 31
0.03910391 2.0001926 -0.10249794 31
0.0393028 1.9925705 -0.033778567 30
0.03987027 2.0036042 0.52635366 29
0.040369041 2.0110235 0.45518148 31
0.040520463 2.0011609 0.38127533 30
0.041117009 2.0132613 0.31252414 31
0.041258544 2.0030665 0.24130128 32
0.041758172 2.0102818 0.17256837 33
0.041791722 1.9951261 0.10257847 30
0.041873652 1.9825115 0.033944927 29
nan nan nan 0
0.044471085 2.0059845 -0.4544014 17
0.045040514 2.0157926 -0.38413513 25
0.045221072 2.0081789 -0.31208703 33
0.046129212 2.0327444 -0.24495766 30
0.045740657 2.0002306 -0.17169708 32
0.046085648 2.0000439 -0.10249794 31
0.046257932 1.9924212 -0.033778567 31
0.04686391 2.0034528 0.52635366 29
0.047273796 2.0059998 0.4540576 30
0.047505572 2.0010071 0.38127533 30
0.048144352 2.0131056 0.31252414 30
0.04813078 1.9979489 0.24069193 30
0.048654288 2.0051444 0.17213258 34
0.048755758 1.9949681 0.10257847 33
0.048800327 1.9823531 0.033944927 32
nan nan nan 0
0.05147301 2.0058172 -0.4544014 17
0.052076668 2.0156229 -0.38413513 26
0.052230652 2.008009 -0.31208703 34
0.053094614 2.0276098 -0.2443483 31
0.052591227 1.9950794 -0.1712613 31
0.052934371 1.9948795 -0.10223713 32
0.053079017 1.9872502 -0.033692177 34
0.053856976 2.0032771 0.52635366 30
0.054275755 2.0058227 0.4540576 32
0.054490101 2.0008292 0.38127533 29
0.0550358 2.0079885 0.31174284 29
0.055104632 1.9977686 0.24069193 31
0.055653248 2.0049622 0.17213258 40
0.055719201 1.9947858 0.10257847 28
0.055713061 1.9821709 0.033944927 33
nan nan nan 0
0.058474302 2.0056252 -0.4544014 16
0.059112191 2.0154288 -0.38413513 24
0.059239589 2.0078144 -0.31208703 32
0.060171973 2.0274122 -0.2443483 28
0.059555035 1.9948837 -0.1712613 31
0.059897479 1.9946826 -0.10223713 27
0.060015492 1.9870528 -0.033692177 31
0.060702737 1.9982492 0.52506042 26
0.061128262 2.000751 0.45293367 28
0.061473966 2.0006268 0.38127533 28
0.06204465 2.0077841 0.31174284 27
0.061923657 1.9926038 0.24008259 29
0.062495947 1.9997772 0.17169681 33
0.062525123 1.9895884 0.10231679 31
0.062631793 1.9819643 0.033944927 24
nan nan nan 0
0.06547489 2.005409 -0.4544014 17
0.066146985 2.0152102 -0.38413513 23
0.066084944 2.0026598 -0.31130484 34
0.067084059 2.0222299 -0.24373896 29
0.066518113 1.9946636 -0.1712613 32
0.066692568 1.989471 -0.10197632 26
0.066951238 1.9868313 -0.033692177 32
0.067677565 1.9980252 0.52506042 26
0.068111815 2.0005255 0.45293367 28
0.068457074 2.0004001 0.38127533 26
0.069052748 2.0075552 0.31174284 24
0.06887877 1.9923755 0.24008259 33
0.06947609 1.9995469 0.17169681 37
0.069295444 1.984368 0.10205511 34
0.069549754 1.9817336 0.033944927 28
0.067171417 1.8674717 -0.4904623 4
0.072298698 2.0002995 -0.45327663 18
0.073180981 2.0149672 -0.38413513 28
0.073075123 2.0024168 -0.31130484 29
0.074142553 2.0219834 -0.24373896 27
0.073296994 1.9894418 -0.17082551 34
0.073451996 1.9842362 -0.10171551 33
0.073886164 1.9865854 -0.033692177 34
0.074471205 1.9929502 0.52376711 26
0.074911758 1.9954071 0.45180979 27
0.075439364 2.0001488 0.38127533 27
0.075873002 2.002367 0.31096151 28
0.07583303 1.992123 0.24008259 31
0.076455392 1.9992923 0.17169681 29
0.076221764 1.9841139 0.10205511 27
0.076274097 1.9764833 0.033857666 29
nan nan nan 0
0.0792806 2.0000348 -0.45327663 20
0.080018826 2.0097952 -0.38318196 28
0.079867087 1.997215 -0.31052268 35
0.081000984 2.0167537 -0.24312961 35
0.080240995 1.9891737 -0.17082551 29
0.080377825 1.9839677 -0.10171551 34
0.080820188 1.9863154 -0.033692177 36
0.081427447 1.9926782 0.52376711 28
0.081876576 1.9951334 0.45180979 27
0.08221861 1.9949691 0.38032213 29
0.082657889 1.9971557 0.31018022 29
0.082786381 1.9918462 0.24008259 32
0.083433762 1.9990132 0.17169681 30
0.083147146 1.9838358 0.10205511 34
0.083172843 1.9762051 0.033857666 28
nan nan nan 0
0.086051591 1.9948788 -0.45215189 18
0.087033831 2.0095036 -0.38318196 23
0.086838178 1.996924 -0.31052268 34
0.08804027 2.0164585 -0.24312961 29
0.086965881 1.9839052 -0.17038974 33
0.08730267 1.983675 -0.10171551 30
0.08753255 1.9810268 -0.033605788 33
0.088168658 1.9875568 0.52247393 26
0.088623628 1.9899682 0.45068586 25
0.089181855 1.9946699 0.38032213 28
0.08940731 1.9919213 0.30939889 26
0.089515321 1.9865873 0.23947324 27
0.090411104 1.9987098 0.17169681 29
0.090071522 1.9835335 0.10205511 31
0.089842923 1.9709086 0.033770405 33
nan nan nan 0
0.093014494 1.9945662 -0.45215189 22
0.093818277 2.0042844 -0.38222876 27
0.093576446 1.9916757 -0.30974048 34
0.094844706 2.0111816 -0.24252027 32
0.093654975 1.9786142 -0.16995396 34
0.094226465 1.9833581 -0.10171551 32
0.094447091 1.9807091 -0.033605788 34
0.095105983 1.9872369 0.52247393 27
0.095569372 1.9896467 0.45068586 24
0.095907658 1.9894438 0.37936896 29
0.096121199 1.9866642 0.30861756 24
0.096449256 1.9862627 0.23947324 32
0.097144902 1.9934068 0.17126103 34
0.096994795 1.983207 0.10205511 33
0.096722133 1.970583 0.033770405 30
nan nan nan 0
0.099732317 1.9893636 -0.45102713 18
0.10056735 1.9990429 -0.38127559 23
0.10052812 1.9913369 -0.30974048 30
0.10161338 2.005882 -0.24191092 26
0.10056105 1.9782753 -0.16995396 30
0.10089473 1.9780306 -0.1014547 27
0.10136048 1.9803674 -0.033605788 24
0.10179442 1.9820691 0.52118063 23
0.10226322 1.9844354 0.44956198 22
0.10285153 1.989097 0.37936896 25
0.10254361 1.9764528 0.30705497 29
0.10338202 1.985914 0.23947324 26
0.1041026 1.9930556 0.17126103 29
0.10391689 1.9828564 0.10205511 27
0.10333765 1.965241 0.033683144 26
nan nan nan 0
0.10667589 1.9890032 -0.45102713 13
0.10728098 1.9937783 -0.3803224 25
0.10747857 1.9909739 -0.30974048 31
0.10834622 2.0005596 -0.24130157 26
0.10719568 1.9729387 -0.16951817 25
0.10725521 1.9676948 -0.10093308 29
0.10799967 1.9750097 -0.033519395 24
0.10871252 1.9817017 0.52118063 23
0.10892185 1.9792017 0.44843808 25
0.10952359 1.9838251 0.37841576 24
0.1086228 1.9612898 0.30471101 21
0.11003823 1.9805859 0.2388639 24
0.11105903 1.9926801 0.17126103 27
0.11083771 1.9824815 0.10205511 29
0.11019699 1.9648683 0.033683144 26
nan nan nan 0
0.11334027 1.983755 -0.44990239 10
0.11395907 1.9884914 -0.37936923 19
0.1141443 1.9856563 -0.30895832 28
0.11504313 1.9952146 -0.24069221 27
0.11408187 1.9725524 -0.16951817 26
0.11354476 1.9573388 -0.10041147 27
0.11489308 1.9746206 -0.033519395 25
0.11562929 1.9813102 0.52118063 24
0.11582989 1.9788094 0.44843808 24
0.11644776 1.9834307 0.37841576 24
0.11604893 1.9707587 0.30627364 26
0.11695109 1.9801898 0.2388639 24
0.11830864 1.9972526 0.17169681 29
0.11775719 1.9820825 0.10205511 19
0.11705499 1.9644716 0.033683144 24
nan nan nan 0
0.12026417 1.9833472 -0.44990239 9
0.12089951 1.9880816 -0.37936923 20
0.12107483 1.9852457 -0.30895832 29
0.12200703 1.9948008 -0.24069221 28
0.12127161 1.9771137 -0.16995396 36
0.11976332 1.946963 -0.099889845 29
0.12178509 1.9742076 -0.033519395 36
0.12254465 1.9808944 0.52118063 28
0.12273651 1.9783931 0.44843808 30
0.12306573 1.9781132 0.37746257 33
0.12354248 1.9801995 0.30783626 40
0.12386253 1.9797695 0.2388639 30
0.12527962 1.9968275 0.17169681 37
0.12436171 1.9766761 0.10179343 42
0.12391157 1.9640511 0.033683144 50
nan nan nan 0
0.12687477 1.9780536 -0.44877762 10
0.12752345 1.9827493 -0.37841603 16
0.1280039 1.9848111 -0.30895832 39
0.1292897 1.9993153 -0.24130157 39
0.12817229 1.9766784 -0.16995396 41
0.12753063 1.961481 -0.10067227 38
0.12867562 1.9737705 -0.033519395 53
0.12945852 1.9804547 0.52118063 40
0.1299603 1.9828142 0.44956198 37
0.12996988 1.9776715 0.37746257 38
0.13077863 1.9846841 0.30861756 38
0.1304453 1.9743731 0.23825455 46
0.1322491 1.9963779 0.17169681 38
0.13159175 1.9812121 0.10205511 36
0.13109882 1.9685949 0.033770405 43
nan nan nan 0
0.13377869 1.9775985 -0.44877762 12
0.13444376 1.9822921 -0.37841603 13
0.1349314 1.9843521 -0.30895832 38
0.13660537 2.0038033 -0.24191092 44
0.13507141 1.9762189 -0.16995396 45
0.1350594 1.9709868 -0.10119389 38
0.13556458 1.9733093 -0.033519395 43
0.13637079 1.9799907 0.52118063 40
0.13688082 1.9823486 0.44956198 40
0.13687246 1.9772059 0.37746257 37
0.13804761 1.9891422 0.30939889 37
0.13733636 1.9739058 0.23825455 48
0.13921696 1.9959042 0.17169681 44
0.13850667 1.9807408 0.10205511 40
0.13796969 1.9681252 0.033770405 39
nan nan nan 0
0.14068098 1.9771196 -0.44877762 14
0.14101321 1.9769146 -0.3774628 15
0.14185727 1.9838691 -0.30895832 42
0.14395393 2.0082641 -0.24252027 45
0.14196888 1.9757354 -0.16995396 44
0.1426561 1.9804641 -0.10171551 43
0.14245188 1.972824 -0.033519395 37
0.14328143 1.9795027 0.52118063 42
0.14415225 1.9867178 0.45068586 43
0.14377336 1.9767159 0.37746257 36
0.14499015 1.9886483 0.30939889 37
0.14422572 1.9734143 0.23825455 46
0.1461831 1.995406 0.17169681 52
0.1454199 1.9802452 0.10205511 41
0.14483888 1.9676316 0.033770405 36
nan nan nan 0
0.14758156 1.9766165 -0.44877762 14
0.14791305 1.9764105 -0.3774628 15
0.14841196 1.9784371 -0.30817613 46
0.15096322 2.0077493 -0.24252027 39
0.1488646 1.9752278 -0.16995396 52
0.14956833 1.979954 -0.10171551 40
0.14933746 1.9723148 -0.033519395 39
0.15019029 1.9789904 0.52118063 39
0.15108632 1.9862025 0.45068586 42
0.15067251 1.9762021 0.37746257 39
0.15155464 1.9832058 0.30861756 40
0.15111336 1.972899 0.23825455 49
0.15276621 1.9899172 0.17126103 47
0.15233135 1.9797256 0.10205511 40
0.15170634 1.9671141 0.033770405 40
nan nan nan 0
0.15448034 1.9760894 -0.44877762 14
0.15481111 1.9758821 -0.3774628 15
0.1553171 1.9779069 -0.30817613 50
0.15797064 2.0072103 -0.24252027 36
0.15575853 1.9746962 -0.16995396 50
0.15647875 1.9794198 -0.10171551 43
0.15622121 1.9717815 -0.033519395 40
0.15671505 1.9736396 0.51988739 43
0.15763204 1.9808065 0.44956198 42
0.15756983 1.9756641 0.37746257 40
0.15847641 1.9826647 0.30861756 40
0.15799914 1.9723593 0.23825455 39
0.15971139 1.9893718 0.17126103 49
0.15924096 1.9791818 0.10205511 41
0.15857191 1.9665725 0.033770405 38
0.15809432 1.9395208 -0.51116782 3
0.16137724 1.9755379 -0.44877762 15
0.16130681 1.9704378 -0.37650964 16
0.16222033 1.9773529 -0.30817613 47
0.16497615 2.0066464 -0.24252027 43
0.16265057 1.9741404 -0.16995396 46
0.1629764 1.9738853 -0.1014547 46
0.16310307 1.9712242 -0.033519395 42
0.1636034 1.9730804 0.51988739 40
0.16454539 1.9802442 0.44956198 43
0.16446522 1.9751021 0.37746257 38
0.16498555 1.977178 0.30783626 38
0.16488299 1.9717958 0.23825455 44
0.16623868 1.9838387 0.17082526 49
0.16614863 1.9786139 0.10205511 45
0.16543557 1.966007 0.033770405 38
nan nan nan 0
0.16827217 1.9749626 -0.44877762 15
0.16818395 1.9698627 -0.37650964 16
0.16912159 1.9767745 -0.30817613 47
0.17197965 2.0060582 -0.24252027 47
0.16954061 1.9735606 -0.16995396 43
0.16986555 1.9733044 -0.1014547 46
0.16998293 1.9706428 -0.033519395 43
0.17048973 1.9724973 0.51988739 40
0.17145672 1.9796576 0.44956198 42
0.17135862 1.974516 0.37746257 39
0.17188619 1.9765899 0.30783626 40
0.17176484 1.9712082 0.23825455 43
0.17316256 1.9832463 0.17082526 49
0.17305426 1.9780219 0.10205511 44
0.17229721 1.9654175 0.033770405 41
0.17205673 1.9431806 -0.5124619 3
0.17516506 1.9743632 -0.44877762 15
0.17505902 1.9692636 -0.37650964 15
0.17602079 1.9761721 -0.30817613 47
0.1785399 2.0005028 -0.24191092 47
0.17687222 1.9779179 -0.17038974 43
0.17675263 1.9726995 -0.1014547 44
0.17641371 1.9650582 -0.033433005 47
0.17737399 1.9718902 0.51988739 43
0.17836598 1.9790471 0.44956198 46
0.17824991 1.9739057 0.37746257 39
0.17878473 1.975978 0.30783626 40
0.1786446 1.9705968 0.23825455 42
0.18008433 1.9826298 0.17082526 49
0.17995781 1.9774057 0.10205511 45
0.17915674 1.9648042 0.033770405 39
0.17972416 1.9521868 -0.51505011 3
0.18160833 1.9688885 -0.44765288 15
0.18148029 1.963753 -0.37555644 16
0.18291786 1.9755456 -0.30817613 47
0.18552187 1.9998674 -0.24191092 45
0.18377537 1.9772885 -0.17038974 43
0.1831746 1.9670988 -0.10119389 40
0.18327196 1.9644305 -0.033433005 44
0.18425609 1.9712591 0.51988739 40
0.18481879 1.9735616 0.44843808 40
0.18513905 1.9732715 0.37746257 41
0.18568109 1.9753419 0.30783626 40
0.18552217 1.969961 0.23825455 42
0.18700391 1.9819891 0.17082526 51
0.18685915 1.9767654 0.10205511 45
0.1860141 1.9641668 0.033770405 38
0.18607794 1.94674 -0.51375604 3
0.18847992 1.9682425 -0.44765288 15
0.18833396 1.9631075 -0.37555644 16
0.18981268 1.9748951 -0.30817613 48
0.19202591 1.9942676 -0.24130157 48
0.19067627 1.9766349 -0.17038974 43
0.19003993 1.9664474 -0.10119389 45
0.190128 1.9637787 -0.033433005 46
0.19066967 1.9657966 0.51859415 39
0.19170667 1.9729044 0.44843808 43
0.19202591 1.9726132 0.37746257 38
0.19209585 1.9697665 0.30705497 39
0.19239749 1.9693016 0.23825455 43
0.19392119 1.9813243 0.17082526 49
0.1937582 1.9761012 0.10205511 49
0.19238047 1.9585302 0.033683144 39
0.19430114 1.9604968 -0.51763833 3
0.19534922 1.9675727 -0.44765288 15
0.19518533 1.9624382 -0.37555644 16
0.19670519 1.9742205 -0.30817613 49
0.19898604 1.9935851 -0.24130157 46
0.19757485 1.9759573 -0.17038974 43
0.19690296 1.965772 -0.10119389 41
0.1969817 1.9631032 -0.033433005 45
0.19753042 1.965119 0.51859415 39
0.19859223 1.9722233 0.44843808 43
0.19891044 1.9719309 0.37746257 42
0.19897045 1.9690839 0.30705497 41
0.19927046 1.968618 0.23825455 40
0.20083614 1.9806352 0.17082526 49
0.2001503 1.9704452 0.10179343 48
0.19921586 1.9578468 0.033683144 40
0.2001572 1.9501977 -0.51505011 4
0.2017179 1.9620324 -0.44652811 15
0.20153151 1.9568624 -0.37460324 16
0.20308854 1.9686096 -0.30739397 47
0.20543359 1.987942 -0.24069221 46
0.20395815 1.9703012 -0.16995396 45
0.20376359 1.9650726 -0.10119389 44
0.203833 1.9624035 -0.033433005 44
0.20438875 1.9644175 0.51859415 38
0.20547536 1.971518 0.44843808 40
0.20579256 1.9712245 0.37746257 40
0.20584261 1.9683775 0.30705497 40
0.206141 1.9679104 0.23825455 47
0.20722881 1.9749683 0.17038947 50
0.20702721 1.9697344 0.10179343 45
0.20604879 1.9571395 0.033683144 38
0.20696342 1.9494872 -0.51505011 4
0.20856543 1.9613163 -0.44652811 15
0.208361 1.9561471 -0.37460324 16
0.20995903 1.9678887 -0.30739397 47
0.21237156 1.9872128 -0.24069221 49
0.21083455 1.9695772 -0.16995396 43
0.21062173 1.9643494 -0.10119389 45
0.21068183 1.9616801 -0.033433005 45
0.2112446 1.9636921 0.51859415 38
0.21235599 1.9707888 0.44843808 42
0.21267217 1.9704943 0.37746257 43
0.21271229 1.9676468 0.30705497 40
0.21300903 1.9671788 0.23825455 45
0.21412148 1.9742329 0.17038947 49
0.21390162 1.9689999 0.10179343 49
0.21287923 1.9564083 0.033683144 39
0.21376714 1.9487529 -0.51505011 4
0.21541044 1.9605764 -0.44652811 15
0.21518797 1.9554079 -0.37460324 16
0.21682696 1.9671438 -0.30739397 45
0.21930695 1.9864594 -0.24069221 45
0.21770838 1.9688292 -0.16995396 49
0.21747731 1.9636023 -0.10119389 44
0.21752807 1.9609327 -0.033433005 45
0.2180979 1.9629427 0.51859415 38
0.21869519 1.9651934 0.44731417 42
0.21900547 1.9648618 0.37650937 40
0.21957935 1.9668924 0.30705497 39
0.21987449 1.9664233 0.23825455 41
0.22101153 1.9734734 0.17038947 46
0.2207734 1.9682411 0.10179343 47
0.21970707 1.9556533 0.033683144 39
0.22056827 1.9479948 -0.51505011 4
0.2222528 1.9598125 -0.44652811 16
0.2220123 1.9546448 -0.37460324 15
0.22369227 1.9663749 -0.30739397 47
0.22623964 1.9856818 -0.24069221 43
0.22457954 1.9680573 -0.16995396 43
0.22433023 1.9628313 -0.10119389 46
0.22380318 1.9551947 -0.033346616 46
0.2249485 1.9621695 0.51859415 38
0.22555365 1.9644181 0.44731417 42
0.22586277 1.9640853 0.37650937 39
0.22644375 1.9661139 0.30705497 41
0.22673725 1.9656438 0.23825455 47
0.2278989 1.97269 0.17038947 51
0.22764251 1.9674586 0.10179343 47
0.22653224 1.9548744 0.033683144 40
0.22736669 1.9472129 -0.51505011 5
0.22909246 1.9590248 -0.44652811 15
0.22883393 1.9538579 -0.37460324 15
0.2299795 1.9606773 -0.30661181 47
0.23316959 1.98488 -0.24069221 43
0.23144798 1.9672614 -0.16995396 45
0.23118043 1.9620361 -0.10119389 43
0.23062672 1.9544016 -0.033346616 43
0.23179638 1.9613723 0.51859415 39
0.23240937 1.9636188 0.44731417 44
0.23271734 1.963285 0.37650937 39
0.23330539 1.9653115 0.30705497 39
0.23359723 1.9648403 0.23825455 48
0.23478347 1.9718823 0.17038947 49
0.23450883 1.9666519 0.10179343 45
0.23335464 1.9540718 0.033683144 45
0.23473921 1.9512026 -0.51634425 5
0.23651211 1.9630501 -0.44765288 15
0.23565279 1.9530473 -0.37460324 16
0.23682214 1.9598625 -0.30661181 47
0.24009667 1.984054 -0.24069221 43
0.23771435 1.9614968 -0.16951817 47
0.23802781 1.9612173 -0.10119389 44
0.23744744 1.9535847 -0.033346616 43
0.23864144 1.9605511 0.51859415 39
0.23926228 1.9627955 0.44731417 40
0.23897429 1.9575886 0.37555617 39
0.24016419 1.9644852 0.30705497 39
0.23985128 1.9590869 0.23764521 41
0.2416652 1.9710509 0.17038947 47
0.2413723 1.9658213 0.10179343 42
0.2401742 1.9532453 0.033683144 38
0.24154875 1.9503713 -0.51634425 5
0.24336298 1.9622126 -0.44765288 16
0.24246874 1.9522127 -0.37460324 15
0.2436619 1.9590238 -0.30661181 47
0.24702086 1.9832036 -0.24069221 44
0.24455979 1.960655 -0.16951817 41
0.24487229 1.9603745 -0.10119389 39
0.24426527 1.9527439 -0.033346616 45
0.24488327 1.954914 0.5173009 41
0.24611226 1.9619484 0.44731417 45
0.2458061 1.9567424 0.37555617 39
0.24702005 1.9636348 0.30705497 40
0.24668832 1.9582378 0.23764521 44
0.24854398 1.9701953 0.17038947 45
0.24823283 1.9649669 0.10179343 50
0.24699084 1.9523951 0.033683144 39
0.24835534 1.9495163 -0.51634425 5
0.25021091 1.961351 -0.44765288 17
0.24928176 1.9513545 -0.37460324 16
0.25049868 1.9581614 -0.30661181 47
0.25331143 1.977407 -0.24008287 43
0.25140226 1.9597894 -0.16951817 43
0.25171375 1.9595077 -0.10119389 40
0.25108013 1.9518794 -0.033346616 45
0.25170571 1.9540472 0.5173009 38
0.25295922 1.9610773 0.44731417 42
0.25263488 1.9558724 0.37555617 40
0.25323939 1.9578629 0.30627364 40
0.25352234 1.9573648 0.23764521 48
0.25541973 1.9693156 0.17038947 51
0.25509033 1.9640884 0.10179343 44
0.25380448 1.9515209 0.033683144 39
0.2551589 1.9486375 -0.51634425 4
0.2564224 1.9556352 -0.44652811 16
0.25609174 1.9504725 -0.37460324 16
0.25733241 1.9572752 -0.30661181 47
0.26021233 1.9765106 -0.24008287 44
0.25759068 1.9539616 -0.1690824 47
0.25855219 1.9586171 -0.10119389 40
0.25789195 1.950991 -0.033346616 42
0.25852507 1.9531567 0.5173009 38
0.25980312 1.9601823 0.44731417 43
0.25946063 1.9549786 0.37555617 38
0.26007208 1.9569669 0.30627364 39
0.26035327 1.9564679 0.23764521 42
0.26229239 1.968412 0.17038947 47
0.26194471 1.9631859 0.10179343 46
0.26061502 1.9506232 0.033683144 40
0.26195937 1.947735 -0.51634425 4
0.26324728 1.9547282 -0.44652811 16
0.26289862 1.9495666 -0.37460324 17
0.26416302 1.956365 -0.30661181 46
0.26711005 1.9755902 -0.24008287 44
0.26440966 1.9530506 -0.1690824 46
0.26538748 1.9577028 -0.10119389 41
0.26470062 1.9500788 -0.033346616 42
0.26534128 1.9522424 0.5173009 39
0.26664388 1.9592636 0.44731417 46
0.26628318 1.954061 0.37555617 40
0.26690158 1.9560472 0.30627364 39
0.26718101 1.9555472 0.23764521 42
0.26848668 1.9625496 0.16995369 49
0.26811829 1.9573128 0.10153175 47
0.26742235 1.9497015 0.033683144 39
0.2690964 1.9467617 -0.51634425 4
0.27040994 1.9537501 -0.44652811 16
0.27004233 1.94859 -0.37460324 16
0.27133167 1.9553835 -0.30661181 47
0.27434918 1.9745981 -0.24008287 48
0.27156621 1.9520683 -0.1690824 43
0.27256104 1.9567169 -0.10119389 43
0.2718462 1.9490957 -0.033346616 42
0.27249482 1.9512568 0.5173009 39
0.27314842 1.9534481 0.44619027 42
0.2734434 1.953072 0.37555617 38
0.27406904 1.9550558 0.30627364 39
0.27434668 1.9545548 0.23764521 43
0.27567798 1.9615524 0.16995369 47
0.2752904 1.9563169 0.10153175 46
0.27456656 1.9487082 0.033683144 39
0.27589026 1.9458104 -0.51634425 5
0.27722815 1.9527944 -0.44652811 16
0.27615181 1.942776 -0.37365007 16
0.27815557 1.9544245 -0.30661181 47
0.28124014 1.9736283 -0.24008287 49
0.27837855 1.9511085 -0.1690824 45
0.27938959 1.9557536 -0.10119389 41
0.2786482 1.9481349 -0.033346616 42
0.27930433 1.9502938 0.5173009 40
0.27996555 1.9524826 0.44619027 41
0.28025922 1.9521056 0.37555617 39
0.28089181 1.9540873 0.30627364 39
0.28116766 1.9535851 0.23764521 44
0.28252342 1.9605781 0.16995369 48
0.28211752 1.9553441 0.10153175 46
0.28065902 1.9427893 0.033595879 40
0.28337538 1.949615 -0.51763833 5
0.28404301 1.9518149 -0.44652811 17
0.28293169 1.9418002 -0.37365007 16
0.28497609 1.9534416 -0.30661181 49
0.28812766 1.9726346 -0.24008287 43
0.28518748 1.9501249 -0.1690824 42
0.28621471 1.9547664 -0.10119389 44
0.28544673 1.9471502 -0.033346616 45
0.28611043 1.9493068 0.5173009 39
0.28677928 1.9514935 0.44619027 39
0.28707162 1.9511154 0.37555617 39
0.28771114 1.9530947 0.30627364 39
0.28798527 1.9525918 0.23764521 43
0.28936538 1.9595799 0.16995369 47
0.28821096 1.9494078 0.10127007 46
0.28743228 1.9417987 0.033595879 39
0.2901791 1.948614 -0.51763833 5
0.29085436 1.9508115 -0.44652811 16
0.28970811 1.9408008 -0.37365007 16
0.29106319 1.9475509 -0.30582961 47
0.29501167 1.9716169 -0.24008287 49
0.29199296 1.9491174 -0.1690824 43
0.29229575 1.9488174 -0.10093308 41
0.29224181 1.9461421 -0.033346616 44
0.29219496 1.9435201 0.51600766 39
0.29358953 1.9504805 0.44619027 44
0.29388055 1.9501014 0.37555617 39
0.29452696 1.9520786 0.30627364 39
0.29479933 1.9515747 0.23764521 43
0.29620382 1.958558 0.16995369 47
0.2950139 1.94839 0.10127007 44
0.29420868 1.9407835 0.033595879 39
0.29697925 1.9475892 -0.51763833 5
0.2976622 1.9497843 -0.44652811 16
0.29648101 1.9397776 -0.37365007 16
0.29785967 1.9465231 -0.30582961 46
0.3018921 1.9705751 -0.24008287 42
0.29879487 1.9480864 -0.1690824 43
0.29909661 1.9477853 -0.10093308 44
0.29827371 1.9401689 -0.033260226 41
0.29897732 1.9424883 0.51600766 40
0.3003962 1.9494438 0.44619027 40
0.30068591 1.9490638 0.37555617 40
0.30133918 1.9510386 0.30627364 39
0.3008514 1.9456294 0.23703586 43
0.30303866 1.957512 0.16995369 47
0.30181324 1.9473482 0.10127007 47
0.30098149 1.9397447 0.033595879 39
0.30377582 1.9465407 -0.51763833 5
0.30371433 1.9439198 -0.44540334 17
0.30325028 1.938731 -0.37365007 16
0.30465248 1.9454714 -0.30582961 47
0.3087689 1.9695092 -0.24008287 44
0.30559313 1.9470315 -0.1690824 45
0.30589387 1.9467293 -0.10093308 40
0.30504432 1.9391159 -0.033260226 41
0.30575606 1.9414328 0.51600766 39
0.30719918 1.9483833 0.44619027 42
0.30748755 1.9480022 0.37555617 39
0.30814776 1.9499749 0.30627364 40
0.30764109 1.9445673 0.23703586 43
0.3098698 1.9564424 0.16995369 47
0.30860892 1.946283 0.10127007 44
0.30775061 1.9386823 0.033595879 41
0.31056866 1.9454684 -0.51763833 5
0.31049806 1.9428477 -0.44540334 16
0.31001589 1.9376606 -0.37365007 15
0.3114416 1.9443961 -0.30582961 47
0.31564185 1.9684194 -0.24008287 44
0.31238768 1.945953 -0.1690824 46
0.31268731 1.9456496 -0.10093308 44
0.31181127 1.9380393 -0.033260226 42
0.31253105 1.9403538 0.51600766 39
0.31399846 1.9472991 0.44619027 43
0.3135033 1.9420716 0.374603 39
0.31495255 1.9488873 0.30627364 39
0.31442702 1.9434817 0.23703586 42
0.31669718 1.9553488 0.16995369 49
0.31540087 1.9451938 0.10127007 42
0.31451601 1.9375962 0.033595879 39
0.31735772 1.9443725 -0.51763833 5
0.31727794 1.9417521 -0.44540334 16
0.31677771 1.9365667 -0.37365007 16
0.3182269 1.9432971 -0.30582961 47
0.32251099 1.9673055 -0.24008287 47
0.3191784 1.9448506 -0.1690824 45
0.31947699 1.9445463 -0.10093308 41
