# .PCD v0.7 - Point Cloud Data file format
VERSION 0.7
FIELDS x y z intensity
SIZE 4 4 4 4
TYPE F F F F
COUNT 1 1 1 1
WIDTH 1414
HEIGHT 1
VIEWPOINT 0 0 0 1 0 0 0
POINTS 1414
DATA ascii
-9.7874727 3.0484574 1.6157498 11
-10.066786 3.1373813 1.289987 11
-9.9033918 3.0883548 0.90424085 10
-9.9364996 3.1005826 0.54350889 7
-9.7094336 3.0315886 0.17688014 58
-1.8662267 0.58448213 -0.51375604 2
-2.1331606 0.66849184 -0.50726491 2
-2.5280895 0.79273963 -0.50709653 2
-3.1133952 0.97687238 -0.51075894 2
-4.0705943 1.2779876 -0.51916397 3
-5.7198892 1.7968904 -0.52119213 2
-9.6823778 3.0435543 -0.52813822 14
-9.5552549 3.0054269 -0.17243484 12
-8.4996815 2.6750464 2.3757043 15
-9.7209663 3.0612781 2.3422179 9
-9.6801424 3.0502789 1.963568 10
-9.399971 2.9637988 1.5532449 12
-9.6203575 3.0351324 1.2339271 10
-9.5173082 3.0044477 0.86981428 9
-9.5637608 3.0209475 0.52362126 7
-9.3174467 2.9449317 0.16989917 58
-1.8641751 0.59099293 -0.51375604 2
-2.1308143 0.6759339 -0.50726491 2
-2.5159502 0.79858965 -0.50519013 2
-3.1099663 0.98773414 -0.51075894 2
-4.0661087 1.2921889 -0.51916397 3
-5.7040887 1.8138268 -0.52032059 3
-9.2434616 2.9410787 -0.50466543 7
-9.1731405 2.9204671 -0.1656964 13
-8.4948931 2.7061653 2.3769975 15
-9.3992128 2.9960558 2.2669163 7
-9.3187208 2.9721906 1.8920789 11
-9.0837564 2.8989956 1.5024598 13
-9.2929583 2.9675479 1.1931008 11
-9.1793814 2.9330444 0.83974564 9
-9.177434 2.9341877 0.50294852 7
-8.997611 2.8784261 0.16422714 62
-1.857502 0.59602088 -0.5124619 2
-2.1284418 0.68336773 -0.50726491 2
-2.5224936 0.81036961 -0.50709653 2
-3.1064997 0.99858391 -0.51075894 2
-4.061573 1.3063743 -0.51916397 3
-5.6834979 1.8291489 -0.51901323 2
-8.9051933 2.8677187 -0.4866696 9
-8.8345652 2.8466763 -0.15973547 15
-8.4899921 2.7372837 2.3782909 15
-9.0548515 2.9211466 2.1859951 9
-8.9766493 2.8976476 1.8244023 15
-8.7775126 2.8350585 1.4532373 15
-8.9755983 2.9007685 1.1534933 12
-8.8657694 2.8669827 0.81185573 11
-8.877346 2.8724377 0.48698604 8
-8.6831131 2.8112643 0.15864237 64
-1.8554102 0.60250115 -0.5124619 2
-2.1260436 0.69079322 -0.50726491 2
-2.5289853 0.82220495 -0.50900286 2
-3.107691 1.0109493 -0.51154113 2
-4.0617075 1.32208 -0.5197733 3
-5.6628704 1.8443495 -0.51770592 2
-8.5912924 2.7997704 -0.46997786 10
-8.529892 2.7814081 -0.15437928 13
-8.4712029 2.7639067 2.3757043 15
-8.7528162 2.8574793 2.1151891 11
-8.6818733 2.8359957 1.7662579 13
-8.4765224 2.7705538 1.404796 11
-8.6824045 2.8395238 1.1169325 14
-8.5764046 2.8065143 0.78614479 12
-8.56357 2.8039689 0.47023854 9
-8.3834505 2.7466128 0.15331939 63
-1.8532957 0.6089741 -0.5124619 3
-2.1189914 0.69668871 -0.50614017 2
-2.5354247 0.83409548 -0.51090926 2
-3.1041434 1.0217909 -0.51154113 2
-4.0570679 1.3362499 -0.5197733 3
-5.6658592 1.8672233 -0.51857746 2
-8.3206549 2.7437396 -0.45563331 9
-8.2447748 2.7203138 -0.14936864 12
-8.4385719 2.7858891 2.3692381 7
-8.4513397 2.7917402 2.0443833 10
-8.3923016 2.7738628 1.7090666 12
-8.213604 2.7163892 1.3626053 10
-8.4038858 2.780946 1.0821998 13
-8.3064871 2.7503245 0.76217699 11
-8.3025208 2.7506189 0.45636955 8
-8.1033306 2.6861968 0.14834546 65
-1.8557419 0.61696333 -0.51375604 3
-2.1165464 0.70408118 -0.50614017 2
-2.5371549 0.84449071 -0.51186246 2
-3.1005578 1.0326202 -0.51154113 2
-4.0570869 1.3519727 -0.5203827 3
-5.664032 1.8885651 -0.51901323 2
-8.055253 2.6874349 -0.44154966 10
-7.9886451 2.6667626 -0.14487636 13
-8.2363901 2.7510624 2.3149214 9
-8.1920185 2.7378311 1.9836922 11
-8.1451654 2.7237527 1.660454 12
-7.9605365 2.6635575 1.3219771 11
-8.149416 2.7283375 1.0505137 13
-8.0323477 2.6907034 0.73777342 10
-8.0324821 2.6923077 0.44197711 9
-7.8663945 2.638166 0.14415687 67
-1.8535769 0.62343723 -0.51375604 3
-2.1094584 0.70991099 -0.50501537 2
-2.5341916 0.85334188 -0.51186246 2
-3.1062944 1.0465904 -0.51310545 2
-4.0523434 1.3661263 -0.5203827 4
-5.6621246 1.9099166 -0.51944906 2
-7.7998109 2.6325054 -0.42798758 12
-7.7424641 2.6146557 -0.14055686 12
-7.9796491 2.6963055 2.2450857 9
-7.9562569 2.6899486 1.9286209 10
-7.861289 2.6593697 1.604216 11
-7.6939068 2.604243 1.2790049 14
-7.8813167 2.6692109 1.0169997 13
-7.79175 2.640393 0.71642023 12
-7.791328 2.6417661 0.42915481 9
-7.6298947 2.5885143 0.13996829 68
-1.8468171 0.62834799 -0.5124619 3
-2.1161914 0.72041011 -0.50726491 2
-2.5172589 0.85743493 -0.50900286 2
-3.0839245 1.0510546 -0.5099768 2
-4.052247 1.3818651 -0.52099204 4
-5.6601372 1.9312779 -0.51988477 2
-7.563755 2.5822794 -0.41546872 12
-7.5204015 2.5689437 -0.13666929 12
-7.7005429 2.6319807 2.1687841 11
-7.6610041 2.6199601 1.8589387 12
-7.6058288 2.6025736 1.5536969 15
-7.4604983 2.5542989 1.241502 15
-7.646596 2.6195054 0.98775095 15
-7.5563169 2.5900519 0.69550282 12
-7.5506272 2.5895748 0.41633251 9
-7.3985701 2.538868 0.13586697 12
-1.8400457 0.63321918 -0.51116782 3
-2.095238 0.72144812 -0.50276589 2
-2.5142505 0.86621654 -0.50900286 2
-3.126925 1.0779074 -0.51779848 2
-4.047399 1.3960017 -0.52099204 5
-5.6533613 1.9510238 -0.51988477 2
-7.3564658 2.5402167 -0.40451476 11
-7.3129306 2.5266125 -0.1330409 13
-7.4128566 2.5625851 2.0898957 12
-7.412384 2.5638702 1.8004957 14
-7.3740559 2.5520539 1.5079439 15
-7.2508688 2.5108378 1.2079058 14
-7.3982544 2.5633209 0.95667434 16
-7.3260384 2.539732 0.67502123 14
-7.3386931 2.5455539 0.40508029 12
-7.1865783 2.4941952 0.13211471 12
nan nan nan 0
-2.0879793 0.72751981 -0.50164115 2
-2.497155 0.87057865 -0.50614333 2
-3.1182904 1.0877343 -0.51701629 2
-4.0422549 1.4108268 -0.52099204 5
-5.6461725 1.9717312 -0.51988477 3
-7.1397028 2.4946935 -0.39303917 13
-7.1054163 2.4841049 -0.12941252 12
-7.2164965 2.5243528 2.0368724 11
-7.2097988 2.5234225 1.7532917 12
-7.1654572 2.5093067 1.4669567 13
-7.0551872 2.4720731 1.1766534 13
-7.1967959 2.523102 0.93169111 11
-7.1333728 2.5022647 0.65802586 16
-7.1314363 2.5029833 0.39408973 13
-6.9887152 2.4542613 0.12862423 13
nan nan nan 0
nan nan nan 0
nan nan nan 0
nan nan nan 0
-4.0326257 1.4232765 -0.5203827 4
-5.6392555 1.9914281 -0.51988477 4
-6.9473405 2.4547248 -0.3828676 12
-6.9081669 2.4422395 -0.12595691 13
-7.0346122 2.4883232 1.9877287 12
-7.0172319 2.4835532 1.7083355 12
-6.9762101 2.4704051 1.4297825 13
-6.8463497 2.4257636 1.1430571 11
-7.000845 2.4818792 0.90731722 11
-6.9133472 2.4522185 0.63841581 10
-6.9391379 2.4627302 0.38388422 11
-6.8057971 2.4167447 0.12539554 12
nan nan nan 0
-2.1057956 0.75025403 -0.50726491 2
-2.5187562 0.8978793 -0.51186246 2
-3.1106205 1.1094774 -0.51701629 2
-4.0276327 1.4373444 -0.5203827 5
-5.6416516 2.0144506 -0.52075636 4
-6.7647514 2.4168041 -0.37321767 15
-6.7395434 2.4091249 -0.12301964 13
-6.8439736 2.4478018 1.9359986 10
-6.8112712 2.4374466 1.6600076 11
-6.7827039 2.4285588 1.3916548 12
-6.6472211 2.3813581 1.1110233 11
-6.795928 2.4359708 0.88172466 10
-6.7265797 2.4124382 0.62185621 9
-6.74721 2.4211659 0.37367871 11
-6.6185236 2.3762922 0.12207957 13
nan nan nan 0
nan nan nan 0
nan nan nan 0
nan nan nan 0
-4.0179229 1.4497102 -0.5197733 4
-5.6439552 2.0375137 -0.5216279 3
-6.615387 2.389514 -0.3653934 16
-6.5571322 2.3697658 -0.1198232 14
-6.6627908 2.4092658 1.8868549 10
-6.6423717 2.4031932 1.6206709 11
-6.5803456 2.3820512 1.3516209 13
-6.4624195 2.3406384 1.0813335 14
-6.6100831 2.3954263 0.8585695 10
-6.56359 2.3798735 0.60747552 9
-6.5650463 2.3816981 0.36399657 11
-6.4410157 2.3379741 0.11893815 11
nan nan nan 0
nan nan nan 0
nan nan nan 0
nan nan nan 0
-4.0128379 1.4637266 -0.5197733 4
-5.6414881 2.0589104 -0.52206367 4
-6.4334655 2.3492219 -0.35574347 9
-6.3703852 2.3274479 -0.11654038 12
-6.4819622 2.3694954 1.8377115 12
-6.4554939 2.3610973 1.5768386 13
-6.4244914 2.3510294 1.321119 15
-6.3197222 2.3139403 1.0586754 13
-6.4292655 2.3553216 0.83602363 10
-6.3868814 2.341059 0.59178752 9
-6.3973064 2.3461466 0.35509944 9
-6.2826314 2.3053348 0.11614575 13
nan nan nan 0
nan nan nan 0
nan nan nan 0
-3.0571277 1.1266215 -0.5099768 2
-4.0077038 1.477725 -0.5197733 4
-5.6576324 2.0872104 -0.52424258 4
-6.2612772 2.3111482 -0.34661517 9
-6.202774 2.2907839 -0.11360311 13
-6.3150854 2.3335147 1.7924476 14
-6.291842 2.326174 1.5386258 14
-6.2689357 2.3189492 1.290617 10
-6.1448712 2.2742758 1.0305483 13
-6.2581191 2.3174319 0.81469655 10
-6.1871724 2.2923877 0.57392061 10
-6.2298961 2.3094537 0.34620234 10
-6.1104932 2.2664037 0.11309159 13
nan nan nan 0
nan nan nan 0
nan nan nan 0
nan nan nan 0
-4.0025215 1.4917055 -0.5197733 4
-5.6363111 2.1017256 -0.52293527 5
-6.0987906 2.2753923 -0.33800846 11
-6.0635996 2.2634685 -0.11118419 14
-6.1575909 2.2997787 1.7497703 11
-6.1376419 2.2935491 1.5026609 12
-6.0998907 2.2806551 1.2572553 9
-6.0027547 2.2455318 1.0078903 13
-6.0966129 2.2818556 0.79458809 10
-6.0531874 2.2668066 0.56215453 10
-6.0628219 2.2716212 0.33730522 12
-5.9761553 2.2403383 0.11073551 13
nan nan nan 0
nan nan nan 0
nan nan nan 0
-3.0538099 1.1496766 -0.51075894 3
-4.0019345 1.5074173 -0.5203827 3
-5.6382618 2.1249001 -0.52380681 6
-5.9553204 2.2455776 -0.33044502 9
-5.9013057 2.2263868 -0.10833331 14
-6.0094466 2.2683833 1.7096794 11
-5.9928637 2.2633188 1.4689437 13
-5.9449668 2.2464151 1.2267534 10
-5.8609157 2.2158239 0.98523235 13
-5.949358 2.2504482 0.7763077 10
-5.9054828 2.2350297 0.54908115 10
-5.910099 2.237956 0.32919315 12
-5.8140244 2.2027361 0.10785586 10
nan nan nan 0
nan nan nan 0
nan nan nan 0
-3.0405467 1.1568171 -0.50919461 2
-4.0012865 1.5231432 -0.52099204 4
-5.6168466 2.13925 -0.5224995 13
-5.8261323 2.2201238 -0.32366398 8
-5.6973057 2.1721716 -0.10470492 13
-5.8615994 2.2359824 1.6695887 12
-5.8574767 2.2355809 1.4374745 12
-5.8270407 2.2251298 1.2038769 9
-5.6962919 2.1763411 0.95866776 13
-5.820941 2.2251291 0.76046467 9
-5.7255096 2.1897948 0.53295738 8
-5.7297063 2.1925461 0.319511 8
-5.680244 2.1747553 0.1054998 26
nan nan nan 0
nan nan nan 0
nan nan nan 0
nan nan nan 0
-3.9959452 1.5371009 -0.52099204 5
-5.572156 2.1445308 -0.51901323 14
-5.6785564 2.1866186 -0.31583971 16
-5.675694 2.1866539 -0.10444576 23
-5.7230663 2.2060521 1.6320844 11
-5.6905375 2.1946542 1.3981377 12
-5.6772823 2.1906805 1.174328 12
-5.628767 2.1730886 0.94851071 14
-5.6649985 2.1882129 0.7409656 13
-5.6527858 2.1846292 0.52685648 4
-5.6894178 2.1999278 0.31767923 21
-5.6306558 2.1783359 0.10471444 6
nan nan nan 0
nan nan nan 0
nan nan nan 0
-3.0508094 1.1851689 -0.51232326 2
-3.9951808 1.5528378 -0.52160138 4
-5.4578633 2.1224463 -0.50899029 4
-5.6476221 2.1973746 -0.31453565 7
-5.5515585 2.1611137 -0.102286 4
-5.5803146 2.1734295 1.5932868 10
-5.6238284 2.1915078 1.3835269 10
-5.6010051 2.1837401 1.1600302 4
-5.510726 2.1496496 0.92975926 6
-5.5741096 2.1754959 0.72999734 6
-5.5616097 2.171736 0.51901245 13
nan nan nan 0
nan nan nan 0
nan nan nan 0
nan nan nan 0
nan nan nan 0
nan nan nan 0
-3.9897361 1.566774 -0.52160138 5
-5.3206139 2.0904832 -0.4967885 4
nan nan nan 0
-5.4276719 2.1347342 -0.10012624 7
-5.4378614 2.1398377 1.5544891 10
-5.5481443 2.1843531 1.3666685 2
-5.5294142 2.1780937 1.1466855 14
-5.397512 2.1272244 0.91178918 4
-5.4602966 2.1530695 0.71598238 3
-5.4891267 2.1655447 0.51291156 5
nan nan nan 0
-5.3688722 2.1202686 0.10008954 63
nan nan nan 0
nan nan nan 0
nan nan nan 0
-3.0514314 1.2106118 -0.51388764 2
-3.988579 1.5832175 -0.52221072 4
-5.2249599 2.0750396 -0.4885087 4
-5.3718972 2.1344795 -0.29993036 6
-5.3129621 2.1121361 -0.098139264 10
-5.3222728 2.1169131 1.5234511 10
-5.4133511 2.1542335 1.3351991 4
-5.3617878 2.1347983 1.1133239 7
-5.2979198 2.1104405 0.89616293 7
-5.3417263 2.1289711 0.70135802 13
-5.3562326 2.1358359 0.50114554 6
-5.2992969 2.1142046 0.29700652 5
-5.2171321 2.0824795 0.097384423 52
nan nan nan 0
nan nan nan 0
nan nan nan 0
-3.0471871 1.2212559 -0.51388764 2
-3.9830284 1.5971305 -0.52221072 4
-5.115983 2.0524638 -0.47892153 4
-5.2485676 2.1067185 -0.29341012 7
-5.1895785 2.0840926 -0.095979512 13
-5.1983285 2.0886605 1.4898266 8
-5.3063478 2.1331377 1.3104732 2
-5.2359056 2.1058817 1.088541 12
-5.1851449 2.0865171 0.87819284 8
-5.2283788 2.104975 0.68734306 10
-5.2332382 2.1079929 0.49025106 10
-5.2270489 2.1065602 0.29334304 4
-5.0985518 2.0558159 0.095290139 44
nan nan nan 0
nan nan nan 0
nan nan nan 0
nan nan nan 0
-3.9774289 1.6110243 -0.52221072 5
-5.044158 2.0441189 -0.47282061 9
-5.1347532 2.0818753 -0.28741151 6
-5.0571923 2.0514562 -0.093646981 9
-5.0522718 2.0504873 1.4497358 3
-5.1544185 2.0929918 1.2745082 5
-5.1148391 2.0779603 1.0647113 4
-5.0360022 2.0469561 0.85397214 13
-5.1290565 2.0858226 0.67515612 9
-5.0874367 2.069932 0.47717768 9
-5.099422 2.075846 0.28653935 3
-5.0218973 2.0453093 0.093981199 52
nan nan nan 0
nan nan nan 0
nan nan nan 0
nan nan nan 0
-3.971781 1.6248982 -0.52221072 6
-4.8940897 2.0032218 -0.45931149 9
-5.0257988 2.0581565 -0.28167373 5
-4.9574795 2.0311887 -0.091919169 5
-5.0048628 2.0516229 1.4380965 7
-5.03439 2.0647533 1.2464106 6
-4.9894915 2.0473566 1.0399284 6
-4.9146128 2.0176334 0.8344394 7
-4.9794359 2.0452616 0.65626639 15
-4.9880381 2.0498123 0.46846214 6
-4.9766936 2.0461657 0.27999735 5
-4.8020535 1.9753423 0.089967147 50
nan nan nan 0
nan nan nan 0
-2.4626358 1.0165339 -0.50995612 3
nan nan nan 0
-3.9660852 1.6387525 -0.52221072 7
-4.7581797 1.9670115 -0.44710967 15
-4.8201771 1.993626 -0.27045894 25
-4.7609649 1.970109 -0.08837717 29
-4.9039574 2.0302825 1.4109381 8
-4.8561072 2.0114651 1.2037022 13
-4.819078 1.9971124 1.0056137 15
-4.7433081 1.9666822 0.80631226 35
-4.7980757 1.9903715 0.63311118 11
-4.7646298 1.9774721 0.44798052 32
-4.7712307 1.9811879 0.26874512 25
-4.7489619 1.9729129 0.089094535 83
-1.8008519 0.74999094 -0.5124619 2
-2.0500033 0.85417354 -0.50389069 2
-2.4454813 1.0194581 -0.50709653 2
-3.0389545 1.2674843 -0.51545197 2
-3.9603405 1.6525867 -0.52221072 7
-4.6501622 1.9413912 -0.4375225 10
-4.73947 1.9796476 -0.26628599 31
-4.7125444 1.9693671 -0.087599657 17
-4.8077197 2.0101266 1.3850732 34
-4.7501736 1.9870403 1.1789763 33
-4.7441602 1.9854977 0.99131578 30
-4.7090826 1.9717832 0.80162442 17
-4.7315941 1.9821799 0.62518972 34
-4.7439165 1.9883153 0.44667318 22
-4.7320533 1.9843142 0.26691335 18
-4.6590667 1.9546646 0.087523811 13
-1.8026751 0.75814497 -0.51375604 2
nan nan nan 0
-2.4690504 1.0394146 -0.51281571 2
-3.0299604 1.2761676 -0.51466984 2
-3.9545479 1.6664008 -0.52221072 8
-4.5745101 1.9285859 -0.43098578 9
-4.6727219 1.9709522 -0.26289546 11
-4.613523 1.9469305 -0.085871853 9
-4.7116833 1.9893236 1.3592081 21
-4.702816 1.9865469 1.1688612 16
-4.669384 1.9733851 0.977018 12
-4.6066489 1.9478194 0.78521693 10
-4.6697989 1.9754817 0.61787754 15
-4.6452065 1.9660343 0.43795761 9
-4.6331396 1.9618808 0.26167977 8
-4.564755 1.9338632 0.08586584 12
-1.7866815 0.75876915 -0.50987375 2
-2.0305383 0.86274874 -0.50051636 2
-2.4383047 1.0365057 -0.50709653 2
-3.0300317 1.2886692 -0.51545197 2
-3.9487071 1.6801946 -0.52221072 7
-4.4852571 1.9094239 -0.42314178 12
-4.5647483 1.9442054 -0.25715768 10
-4.5285144 1.9297066 -0.084403217 8
-4.6158519 1.9678752 1.333343 10
-4.606225 1.9647211 1.146383 8
-4.5676641 1.9492158 0.95700109 11
-4.5180664 1.9289824 0.77115333 10
-4.5761623 1.9547309 0.60629994 14
-4.54671 1.9430887 0.42924201 9
-4.539032 1.9407444 0.25670785 8
-4.4706459 1.9124274 0.084207855 13
-1.7928996 0.76880801 -0.5124619 2
-2.0543778 0.88135612 -0.50726491 2
-2.4436924 1.0488826 -0.50900286 2
-2.9982886 1.2875463 -0.51075894 2
-3.9428179 1.6939678 -0.52221072 8
-4.4099226 1.8955637 -0.41660509 10
-4.4753675 1.92462 -0.2524631 9
-4.4436827 1.9119133 -0.082934588 9
-4.5246649 1.947692 1.3087713 11
-4.5187936 1.9460995 1.1261528 9
-4.4796944 1.9301877 0.93984365 13
-4.4432778 1.9154164 0.75943363 10
-4.500957 1.9412124 0.5971598 14
-4.4712992 1.9293469 0.42270535 8
-4.4497147 1.9209546 0.25199762 8
-4.3951011 1.8982878 0.08289893 13
-1.7813408 0.77122396 -0.50987375 2
-2.0468183 0.88658559 -0.50614017 2
-2.4355128 1.0554547 -0.50804973 2
-3.0073688 1.3038979 -0.51310545 2
-3.9368808 1.7077206 -0.52221072 8
-4.3347402 1.881201 -0.41006839 9
-4.3907604 1.9064236 -0.24802937 10
-4.3636174 1.8955435 -0.081552342 9
-4.4425354 1.930747 1.286786 10
-4.43155 1.9268924 1.1059225 9
-4.4009156 1.9144853 0.92459267 13
-4.3641124 1.8993814 0.74693263 11
-4.4213519 1.9252113 0.58741021 14
-4.3914738 1.9131132 0.41573289 8
-4.3789001 1.908545 0.24833409 9
-4.3380404 1.8916373 0.081939042 14
-1.7786378 0.77743733 -0.50987375 2
-2.0481746 0.89567679 -0.50726491 2
-2.4363103 1.0659171 -0.50900286 2
-3.0073228 1.3163677 -0.51388764 2
-3.935442 1.7234434 -0.52282006 12
-4.2460265 1.8603405 -0.40222436 20
-4.3246284 1.8956788 -0.24463885 12
-4.2837205 1.8786383 -0.080170102 9
-4.36058 1.9132528 1.2648007 10
-4.3489575 1.9090585 1.0868161 9
-4.3267961 1.900231 0.91029483 13
-4.294157 1.8867908 0.73599434 10
-4.3419147 1.9086789 0.57766062 14
-4.3163767 1.8983516 0.4091962 9
-4.3219385 1.901698 0.24545564 9
-4.2582026 1.8745407 0.080542848 15
-1.7714947 0.78169143 -0.50857961 2
-2.0450356 0.90282089 -0.50726491 2
-2.4325747 1.0744148 -0.50900286 2
-2.9981925 1.3248613 -0.51310545 2
-3.9294019 1.7371701 -0.52282006 11
-4.2212853 1.8670911 -0.40048125 17
-4.2494936 1.8804544 -0.24072671 13
-4.2268524 1.871318 -0.079219811 20
-4.2788024 1.8952104 1.2428154 10
-4.2709985 1.8926455 1.0688336 9
-4.248343 1.8834932 0.89504379 14
-4.2153144 1.8697304 0.7234934 24
-4.2671833 1.8936286 0.56852049 14
-4.2277799 1.877026 0.4013522 15
-4.224009 1.8762344 0.24022202 15
-4.215086 1.8731518 0.07984475 33
-1.773167 0.78983545 -0.50987375 2
-2.0418718 0.90995383 -0.50726491 2
-2.4332924 1.0848984 -0.50995612 2
-3.0115898 1.3433659 -0.51623416 2
-3.9278462 1.7528982 -0.52342945 11
-4.2192907 1.8838454 -0.40091702 13
-4.2155499 1.8830578 -0.23916186 33
-4.2157302 1.8840212 -0.079133421 26
-4.2192502 1.8864778 1.2272964 31
-4.2198915 1.8876483 1.0575945 30
-4.2103815 1.8842763 0.88837147 34
-4.2087617 1.8844332 0.7234934 25
-4.2061982 1.8841667 0.56120831 33
-4.2166562 1.8897351 0.40091643 32
-4.2128782 1.8889247 0.23996036 30
-4.2130828 1.8898998 0.079932019 78
-1.774804 0.79800075 -0.51116782 2
-2.0386829 0.91707575 -0.50726491 2
-2.4294906 1.0933855 -0.50995612 2
-3.0023794 1.3518428 -0.51545197 2
-3.9217036 1.7665982 -0.52342945 11
-4.2081475 1.8965156 -0.40048125 14
-4.1998467 1.8936564 -0.23864023 24
-4.2136855 1.900781 -0.079219811 28
-4.2038345 1.8972204 1.2247097 29
-4.2043958 1.8983572 1.0553467 28
-4.2037787 1.8989618 0.88837147 28
-4.1976581 1.8970791 0.7227121 23
-4.2041178 1.9008824 0.56181771 31
-4.2100344 1.9044425 0.40091643 24
-4.2108073 1.9056776 0.24022202 23
-4.1973515 1.9004706 0.079757489 23
-1.7808037 0.80818301 -0.51375604 2
-2.0399055 0.92620075 -0.50838971 2
-2.4256592 1.1018593 -0.50995612 2
-3.0021381 1.3643579 -0.51623416 2
-3.9200306 1.7823308 -0.52403873 9
-4.2060361 1.9132556 -0.40091702 14
-4.2023005 1.9124417 -0.23916186 25
-4.2070251 1.9154781 -0.079219811 28
-4.2059774 1.9158876 1.2272964 31
-4.1977439 1.9130217 1.0553467 29
-4.1926584 1.9115878 0.88741827 25
-4.1955037 1.9137697 0.7234934 24
-4.1974568 1.9155458 0.56181771 29
-4.203361 1.9191267 0.40091643 27
-4.2041297 1.9203645 0.24022202 23
-4.1952395 1.9171885 0.07984475 21
-1.7735807 0.81238294 -0.5124619 2
-2.03666 0.93331569 -0.50838971 2
-2.4217982 1.1103199 -0.50995612 2
nan nan nan 0
-3.9137852 1.7960033 -0.52403873 6
-4.2038589 1.930004 -0.40135282 14
-4.1955996 1.9270988 -0.23916186 24
-4.204855 1.9322388 -0.0793062 29
-4.199264 1.9305574 1.2272964 28
-4.195467 1.9296989 1.0564706 28
-4.1904192 1.9282632 0.88837147 25
-4.1932831 1.9304681 0.72427464 24
-4.19976 1.9343382 0.56303632 32
-4.20116 1.9358721 0.4013522 27
-4.2019353 1.9371182 0.2404837 23
-4.1930614 1.9339147 0.079932019 20
-1.7707342 0.81856894 -0.5124619 2
-2.0333898 0.94041932 -0.50838971 2
-2.4179077 1.1187667 -0.50995612 2
nan nan nan 0
-3.9074919 1.8096541 -0.52403873 7
-4.2016158 1.9467605 -0.40178862 14
-4.193377 1.9438323 -0.23942265 25
-4.1980848 1.9469047 -0.0793062 29
-4.1924996 1.9452039 1.2272964 28
-4.1931248 1.9463832 1.0575945 28
-4.1836629 1.9428787 0.88837147 25
-4.1909981 1.9471745 0.72505599 21
-4.1974826 1.9510782 0.56364572 31
-4.198894 1.9526254 0.401788 25
-4.1996751 1.9538804 0.2407454 22
-4.1908178 1.9506493 0.08001928 21
-1.767866 0.824745 -0.5124619 2
-2.0300946 0.94751143 -0.50838971 2
-2.4095402 1.1251233 -0.50900286 2
-4.1867962 1.9558944 -0.72585648 2
-3.9056475 1.825384 -0.52464807 7
-4.1947947 1.9614149 -0.40178862 14
-4.1910887 1.9605737 -0.23968346 25
-4.1957912 1.9636662 -0.07939259 29
-4.1856842 1.9598266 1.2272964 30
-4.186305 1.9610081 1.0575945 29
-4.1813002 1.9595535 0.88932467 25
-4.1886473 1.9638885 0.72583729 24
-4.1951394 1.9678257 0.56425506 30
-4.1920524 1.9672703 0.401788 28
-4.1973491 1.9706501 0.24100707 23
-4.1839833 1.965266 0.08001928 21
-1.7648313 0.83121896 -0.5124619 3
-2.0310152 0.95702225 -0.50951445 2
-2.4054005 1.133947 -0.50900286 2
-4.1795993 1.9712266 -0.72585648 2
-3.898931 1.8396868 -0.52464807 7
-4.1920819 1.9789028 -0.40222436 14
-4.1883903 1.9780542 -0.23994428 24
-4.1930861 1.981167 -0.079478979 28
-4.1828394 1.9772187 1.2285897 28
-4.1834941 1.9784214 1.0587184 30
-4.1785264 1.9769647 0.89027792 25
-4.1814213 1.9792275 0.72583729 23
-4.1878991 1.9831885 0.56425506 31
-4.1893148 1.9847542 0.40222374 25
-4.1900983 1.986021 0.24100707 24
-4.1812687 1.9827297 0.080106534 21
-1.761919 0.83737433 -0.5124619 2
-2.0276623 0.96410596 -0.50951445 2
-2.4014275 1.1423366 -0.50900286 2
-4.1994481 1.9985371 -0.73054957 2
-3.8924856 1.8532853 -0.52464807 7
-4.1896458 1.9956659 -0.40266016 13
-4.1814599 1.9926622 -0.23994428 26
-4.1906576 1.9979432 -0.079565376 29
-4.1802716 1.9938869 1.229883 32
-4.1809592 1.9951109 1.0598423 28
-4.1760292 1.9936531 0.891231 26
-4.1789436 1.9959399 0.72661865 23
-4.1854281 1.9999344 0.56486434 30
-4.1868548 2.001514 0.40265954 27
-4.187645 2.0027893 0.24126875 23
-4.1788287 1.9994767 0.080193803 22
-1.7633402 0.84560782 -0.51375604 2
-2.0286772 0.97328544 -0.51063919 2
-2.3974254 1.1507123 -0.50900286 2
-4.1701875 2.0024951 -0.72663867 2
-3.890466 1.8690104 -0.52525747 8
-4.1871433 2.0124362 -0.40309593 14
-4.1789789 2.0094099 -0.24020509 24
-4.1836581 2.0125592 -0.079565376 29
-4.1776376 2.010561 1.2311761 30
-4.178359 2.0118065 1.0609663 28
-4.1734667 2.0103481 0.89218426 26
-4.1763997 2.0126588 0.72739989 24
-4.1828918 2.0166874 0.56547374 31
-4.1798429 2.0161164 0.40265954 26
-4.1851249 2.0195646 0.24153042 23
-4.1718268 2.0140452 0.080193803 20
-1.7603778 0.85175788 -0.51375604 2
-2.0252674 0.98036093 -0.51063919 2
-2.3933942 1.1590737 -0.50900286 2
-4.1765046 2.0234993 -0.72898519 2
-3.8839183 1.8825793 -0.52525747 8
-4.1800933 2.0270398 -0.40309593 14
-4.1764317 2.0261645 -0.24046591 23
-4.1811051 2.0293334 -0.079651766 28
-4.1705942 2.0251312 1.2311761 29
-4.1756935 2.0285082 1.0620902 28
-4.1708384 2.0270493 0.89313745 27
-4.1693487 2.027225 0.72739989 23
-4.175827 2.031276 0.56547374 30
-4.177259 2.0328743 0.4030953 27
-4.1825395 2.0363469 0.24179211 24
-4.1692657 2.0307846 0.080281064 19
-1.7530537 0.85577887 -0.5124619 2
-2.0262103 0.98956227 -0.51176393 2
-2.3893335 1.1674211 -0.50900286 2
nan nan nan 0
-3.8773232 1.8961252 -0.52525747 7
-4.1774664 2.0438075 -0.40353173 15
-4.1693335 2.0407305 -0.24046591 26
-4.1784854 2.0461142 -0.079738148 28
-4.1678376 2.0418022 1.2324693 30
-4.1685877 2.0430717 1.0620902 29
-4.1681447 2.043757 0.89409065 25
-4.1666803 2.0439413 0.72818124 23
-4.1731668 2.0480266 0.56608307 29
-4.1701369 2.0474432 0.4030953 25
-4.1798873 2.0531356 0.24205379 24
-4.1666384 2.0475307 0.080368333 20
-1.7500558 0.86189294 -0.5124619 2
-2.0271144 0.9987824 -0.51288873 2
-2.3852439 1.1757544 -0.50900286 2
nan nan nan 0
-3.8751311 1.9118438 -0.52586681 7
-4.1747727 2.0605817 -0.40396747 14
-4.1666613 2.0574827 -0.24072671 25
-4.1713181 2.0606875 -0.079738148 29
-4.1650147 2.0584781 1.2337626 30
-4.1657982 2.0597701 1.0632141 29
-4.160985 2.0582941 0.89409065 26
-4.1639466 2.0606637 0.72896254 22
-4.1704397 2.0647833 0.56669247 30
-4.1674285 2.064198 0.4035311 26
-4.1726947 2.0677137 0.24205379 25
-4.1639452 2.0642831 0.080455594 22
-1.7427112 0.86584759 -0.51116782 2
-2.0192525 1.0036837 -0.51176393 2
-2.3855202 1.1862588 -0.50995612 2
-2.9568591 1.4710149 -0.51701629 2
-3.868434 1.9253588 -0.52586681 8
-4.1675544 2.0751417 -0.40396747 13
-4.1639237 2.0742409 -0.24098752 24
-4.1685739 2.0774653 -0.079824544 29
-4.1621265 2.0751593 1.2350559 28
-4.1629419 2.0764732 1.064338 30
-4.1581664 2.0749977 0.89504379 25
-4.1611471 2.0773921 0.7297439 22
-4.1676464 2.0815456 0.56730175 30
-4.1646533 2.0809588 0.40396684 26
-4.1699185 2.0844994 0.24231547 24
-4.1611848 2.0810413 0.080542848 21
-1.7439959 0.87408948 -0.5124619 2
-2.0113821 1.0085425 -0.51063919 2
-2.3813648 1.1945786 -0.50995612 2
-2.9517062 1.4813273 -0.51701629 2
-3.8661244 1.941077 -0.52647614 8
-4.1647363 2.0919123 -0.40440327 14
-4.1611195 2.0910051 -0.24124834 23
-4.1657629 2.0942492 -0.079910934 28
-4.1591721 2.091845 1.2363491 28
-4.1600208 2.0931818 1.0654619 28
-4.155282 2.0917065 0.89599699 25
-4.1582804 2.0941255 0.73052514 24
-4.1647868 2.0983133 0.56791109 31
-4.1618118 2.0977256 0.40440264 26
-4.1670747 2.1012902 0.24257714 24
-4.1583586 2.0978055 0.080630116 21
-1.7407806 0.8804757 -0.5124619 3
-2.0076721 1.0159078 -0.51063919 2
-2.3769705 1.2032987 -0.50995612 2
-2.9330404 1.4854423 -0.51466984 2
-3.8589842 1.9552341 -0.52647614 8
-4.1614842 2.1094148 -0.40483907 14
-4.1578808 2.1085005 -0.24150915 26
-4.162518 2.1117654 -0.079997323 28
-4.1557837 2.1092613 1.2376424 28
-4.1566653 2.110621 1.0665858 28
-4.1475878 2.1069221 0.89599699 24
-4.1549807 2.1115899 0.73130643 25
-4.1614923 2.1158133 0.56852049 31
-4.1629748 2.1174817 0.40527421 27
-4.1593451 2.1165493 0.24257714 25
-4.1506419 2.1130326 0.080630116 21
-1.7419987 0.88874173 -0.51375604 3
-1.999774 1.0206947 -0.50951445 2
-2.3727558 1.2115885 -0.50995612 2
-2.9234393 1.4934248 -0.51388764 3
-3.8521357 1.9686925 -0.52647614 9
-4.1585307 2.1261957 -0.40527484 13
-4.1549406 2.1252751 -0.24176994 25
-4.1595712 2.1285596 -0.080083713 27
-4.1526952 2.1259556 1.2389357 28
-4.1536088 2.1273384 1.0677097 29
-4.1445761 2.1236255 0.89695019 24
-4.151979 2.1283336 0.73208779 24
-4.1540813 2.1303267 0.56852049 31
-4.1599894 2.1342738 0.40570998 26
-4.156374 2.1333354 0.24283883 23
-4.1476851 2.1297979 0.080717377 20
-1.7388859 0.89481699 -0.51375604 3
-1.996199 1.0276691 -0.50951445 2
-2.3685119 1.2198637 -0.50995612 2
-2.9225986 1.5058824 -0.51466984 3
-3.8452401 1.9821271 -0.52647614 7
-4.1555099 2.1429815 -0.40571058 13
-4.1474967 2.1397657 -0.24176994 24
-4.1565585 2.1453593 -0.080170102 29
-4.1495409 2.1426547 1.2402289 30
-4.1461577 2.1418242 1.0677097 27
-4.141499 2.1403334 0.89790338 25
-4.1489115 2.1450818 0.73286909 22
-4.1510277 2.1470942 0.56912982 30
-4.1569381 2.1510711 0.40614575 26
-4.1533365 2.1501265 0.24310051 23
-4.1446676 2.1465561 0.080804639 20
-1.7357517 0.90088141 -0.51375604 2
-1.9925996 1.0346309 -0.50951445 2
-2.3642395 1.2281238 -0.50995612 2
-2.9217064 1.5183522 -0.51545197 2
-3.8338947 1.9932482 -0.52586681 6
-4.1524234 2.1597724 -0.40614638 14
-4.1444321 2.1565349 -0.24203075 25
-4.1534786 2.1621637 -0.080256492 29
-4.1463199 2.1593568 1.2415221 30
-4.1429772 2.1585352 1.0688336 28
-4.1383548 2.1570456 0.89885652 25
-4.1457772 2.1618345 0.73365039 23
-4.1479077 2.1638663 0.5697391 31
-4.15382 2.1678729 0.40658155 26
-4.1502314 2.1669221 0.2433622 23
-4.1415811 2.1633253 0.0808919 20
-1.7325965 0.90693486 -0.51375604 3
-1.993292 1.0438403 -0.51063919 2
-2.3599381 1.2363691 -0.50995612 2
-2.9163885 1.5285416 -0.51545197 2
-3.8269136 2.006619 -0.52586681 5
-4.1492705 2.176568 -0.40658218 14
-4.1413007 2.1733091 -0.24229157 26
-4.1503329 2.178973 -0.080342889 29
-4.1430326 2.1760628 1.2428154 30
-4.13973 2.1752501 1.0699575 27
-4.1351447 2.1737618 0.89980972 25
-4.1425767 2.1785915 0.73443168 23
-4.144721 2.1806428 0.5703485 29
-4.1462274 2.1823595 0.40658155 25
-4.1470604 2.1837223 0.24362385 24
-4.1384273 2.180099 0.080979161 19
-1.725149 0.91072243 -0.5124619 3
-1.9896362 1.0507917 -0.51063919 2
-2.355608 1.2445993 -0.50995612 2
-2.9110351 1.5387124 -0.51545197 2
-3.8154991 2.0176454 -0.52525747 5
-4.1460505 2.1933675 -0.40701795 14
-4.1381021 2.1900873 -0.24255238 25
-4.147119 2.195786 -0.080429271 28
-4.1396799 2.1927724 1.2441087 30
-4.1364164 2.1919682 1.0710814 29
-4.1318684 2.1904821 0.90076292 25
-4.1349463 2.1930385 0.73443168 22
-4.141468 2.1974235 0.57095784 30
-4.1429839 2.1991546 0.40701732 26
-4.1438227 2.200527 0.24388555 24
-4.1352072 2.196877 0.081066422 21
-1.7219595 0.91673881 -0.5124619 3
-1.9859562 1.0577306 -0.51063919 2
-2.3425858 1.2481982 -0.50804973 2
-2.9056463 1.5488644 -0.51545197 2
-3.8084331 2.0309515 -0.52525747 4
-4.1427631 2.2101712 -0.40745372 14
-4.1348372 2.2068694 -0.24281317 24
-4.1438389 2.2126036 -0.08051566 29
-4.1362605 2.2094848 1.245402 29
-4.1330371 2.2086902 1.0722053 29
-4.1285257 2.2072058 0.90171617 25
-4.1316214 2.2097881 0.73521304 23
-4.1337724 2.2118664 0.57095784 30
-4.1396732 2.2159534 0.40745309 24
-4.1405177 2.2173352 0.24414723 24
-4.1319203 2.213659 0.081153691 21
-1.718749 0.92274398 -0.5124619 3
-1.9822519 1.0646564 -0.51063919 2
-2.3382146 1.2563677 -0.50804973 2
-2.8958724 1.5566593 -0.51466984 2
-3.8231745 2.0559855 -0.52830422 4
-4.1394095 2.2269785 -0.40788949 14
-4.131505 2.2236559 -0.24307398 24
-4.140492 2.229425 -0.080602057 28
-4.1285229 2.2239096 1.245402 30
-4.129591 2.225415 1.0733292 30
-4.1251159 2.2239325 0.90266925 25
-4.1282296 2.2265413 0.73599434 22
-4.130394 2.2286391 0.57156724 31
-4.1362963 2.2327561 0.40788886 25
-4.137146 2.2341475 0.24440892 23
-4.1285658 2.2304447 0.081240945 20
-1.7155176 0.92873788 -0.5124619 3
-1.9742393 1.0692489 -0.50951445 2
-2.3165526 1.2551688 -0.504237 2
-2.8904207 1.5667584 -0.51466984 2
-3.8246996 2.0740497 -0.5295229 4
-4.1359892 2.2437892 -0.40832528 14
-4.1281066 2.2404456 -0.2433348 24
-4.1370783 2.2462499 -0.080688447 28
-4.124979 2.2406127 1.246695 30
-4.1260781 2.2421424 1.0744531 29
-4.1173277 2.2383184 0.90266925 26
-4.1247702 2.2432971 0.73677564 23
-4.1269479 2.245415 0.57217652 30
-4.1328526 2.2495623 0.40832466 26
-4.133707 2.2509627 0.24467057 23
-4.1251454 2.2472341 0.081328206 21
-1.7122653 0.93472046 -0.5124619 3
-1.9704949 1.0761337 -0.50951445 2
-2.3380013 1.2773674 -0.50995612 2
-2.8806007 1.5744697 -0.51388764 2
-3.8304994 2.0945306 -0.53135097 3
-4.1281314 2.258213 -0.40832528 13
-4.1246409 2.2572391 -0.24359562 23
-4.1335969 2.263078 -0.080774829 27
-4.1213689 2.257318 1.2479883 26
-4.1224995 2.2588727 1.075577 26
-4.1137938 2.2550364 0.90362251 25
-4.1212449 2.2600563 0.73755693 22
-4.123436 2.2621942 0.57278585 31
-4.1293416 2.2663717 0.40876046 26
-4.1302013 2.2677815 0.24493226 23
-4.1216578 2.2640269 0.081415474 20
-1.708992 0.94069171 -0.5124619 3
-1.9667265 1.0830055 -0.50951445 2
-2.337827 1.2878891 -0.51090926 3
-2.8837373 1.5892825 -0.51545197 2
-3.8275106 2.1102848 -0.53196025 3
-4.1245856 2.2750149 -0.40876108 13
-4.1211085 2.2740352 -0.2438564 23
-4.1300488 2.2799089 -0.080861226 27
-4.117692 2.2740254 1.2492816 27
-4.118854 2.2756054 1.0767009 27
-4.1101933 2.2717569 0.90457571 25
-4.1176524 2.276818 0.73833829 21
-4.1198573 2.278976 0.57339525 31
-4.1257629 2.2831836 0.4091962 24
-4.1266289 2.2846036 0.24519394 20
-4.118103 2.2808225 0.081502736 20
-1.7014751 0.9443078 -0.51116782 3
-1.9629341 1.0898641 -0.50951445 2
-2.3418989 1.3008084 -0.51281571 3
-2.8781724 1.599339 -0.51545197 2
-3.8201208 2.1236324 -0.53196025 3
-4.1209717 2.2918191 -0.40919682 15
-4.1175089 2.2908344 -0.24411722 23
-4.1264338 2.2967432 -0.080947615 27
-4.1139493 2.2907348 1.2505749 29
-4.1151419 2.2923398 1.0778248 29
-4.1065254 2.2884793 0.9055289 23
-4.1139936 2.2935827 0.73911959 20
-4.1162114 2.2957604 0.57400459 29
-4.1221175 2.2999983 0.40963197 26
-4.1229887 2.3014278 0.24545564 21
-4.1144805 2.2976205 0.081589989 18
-1.6981684 0.95024133 -0.51116782 2
-1.9591179 1.0967094 -0.50951445 2
-2.3416266 1.3113736 -0.51376885 3
-2.8768804 1.6117897 -0.51623416 2
-3.817014 2.1393807 -0.53256965 3
-4.117291 2.3086262 -0.40963262 14
-4.113842 2.307636 -0.24437803 25
-4.1227512 2.3135798 -0.081034005 27
-4.1101389 2.3074453 1.2518681 28
-4.1113625 2.3090761 1.0789487 27
-4.1027913 2.3052044 0.9064821 25
-4.1102676 2.3103487 0.73990083 24
-4.1124983 2.312547 0.57461393 30
-4.1184053 2.3168151 0.41006777 24
-4.1192813 2.3182545 0.24571729 22
-4.1107917 2.3144214 0.081677258 19
-1.6948411 0.95616323 -0.51116782 2
-1.9552778 1.1035413 -0.50951445 2
-2.3370347 1.3195394 -0.51376885 3
-2.8755364 1.6242509 -0.51701629 2
-3.8095229 2.1526916 -0.53256965 3
-4.1135435 2.3254354 -0.41006839 14
-4.1101084 2.32444 -0.24463885 23
-4.1190009 2.3304181 -0.081120394 26
-4.1062627 2.3241572 1.2531614 30
-4.1075172 2.325814 1.0800726 26
-4.103261 2.3243501 0.90838844 24
-4.1064744 2.327117 0.74068218 21
-4.1087179 2.3293359 0.57522327 30
-4.1146259 2.3336344 0.41050357 25
-4.1155071 2.3350835 0.24597898 22
-4.1070361 2.3312247 0.081764519 20
-1.6913252 0.96236873 -0.51116782 2
-1.9512199 1.1107002 -0.50951445 2
-2.3321826 1.3280963 -0.51376885 4
-2.8695641 1.6347792 -0.51701629 2
-3.8059192 2.1690972 -0.53317899 3
-4.1093202 2.3429639 -0.41050419 14
-4.1058979 2.3419626 -0.24489965 23
-4.1147742 2.3479774 -0.081206784 28
-4.1019115 2.3415868 1.2544546 28
-4.1031957 2.3432693 1.0811965 27
-4.0989761 2.3418086 0.90934163 23
-4.1022053 2.3446031 0.74146348 20
-4.1044607 2.3468428 0.57583261 30
-4.1103683 2.3511724 0.41093931 25
-4.1112547 2.3526318 0.24624066 23
-4.1028023 2.3487458 0.08185178 19
-1.6879557 0.96826667 -0.51116782 2
-1.9473308 1.1175046 -0.50951445 2
-2.3275325 1.336229 -0.51376885 4
-2.8638401 1.644786 -0.51701629 2
-3.8026271 2.1848414 -0.53378832 3
-4.1054349 2.359776 -0.41093993 13
-4.1020269 2.3587697 -0.24516046 23
-4.1108866 2.364819 -0.081293173 27
-4.097899 2.3582997 1.2557479 27
-4.0992136 2.360009 1.0823205 27
-4.0950303 2.3585522 0.91029483 24
-4.0982752 2.3613737 0.74224484 21
-4.1005435 2.3636341 0.576442 30
-4.106451 2.3679943 0.41137511 23
-4.1073427 2.3694637 0.24650235 22
-4.0989051 2.3655577 0.081939042 18
-1.6845654 0.9741528 -0.51116782 3
-1.9434183 1.1242952 -0.50951445 2
-2.3186059 1.3418868 -0.51281571 4
-2.8580811 1.6547726 -0.51701629 3
-3.7992716 2.2005889 -0.53439766 3
-4.1014824 2.3765895 -0.41137573 14
-4.0980878 2.3755782 -0.24542128 23
-4.1069317 2.3816624 -0.08137957 27
-4.0938196 2.3750134 1.2570411 28
-4.0951643 2.376749 1.0834444 28
-4.0910168 2.3752966 0.91124797 25
-4.0942779 2.3781452 0.74302614 20
-4.0965586 2.3804264 0.57705128 28
-4.1024666 2.3848174 0.41181087 25
-4.103363 2.3862965 0.24676402 22
-4.0949473 2.382359 0.082026303 22
-1.6811547 0.98002714 -0.51116782 2
-1.939482 1.1310723 -0.50951445 2
-2.3139076 1.3499721 -0.51281571 3
-2.8522873 1.6647391 -0.51701629 3
-3.7958529 2.2163398 -0.535007 3
-4.0974627 2.3934042 -0.41181153 13
-4.0940819 2.3923881 -0.24568209 25
-4.0985932 2.3959837 -0.08137957 27
-4.0896735 2.3917272 1.2583344 27
-4.0910478 2.3934894 1.0845683 25
-4.0869365 2.3920414 0.91220117 23
-4.0902133 2.394918 0.74380744 20
-4.0925069 2.3972199 0.57766062 30
-4.0984144 2.4016414 0.41224667 25
-4.0993152 2.4031305 0.2470257 21
-4.0909185 2.3991678 0.082113571 20
-1.6777235 0.98588949 -0.51116782 2
-1.935522 1.1378353 -0.50951445 2
-2.3091812 1.3580408 -0.51281571 3
-2.8422029 1.672181 -0.51623416 3
-3.8009241 2.2371283 -0.53683501 3
-4.0976672 2.4127467 -0.41268307 14
-4.0900083 2.4091985 -0.24594288 23
-4.0945115 2.4128137 -0.081465952 27
-4.0854607 2.4084411 1.2596277 26
-4.0868649 2.4102302 1.0856922 23
-4.0870171 2.4112813 0.91410762 23
-4.0903349 2.4142013 0.74537009 21
-4.0883875 2.4140143 0.57827002 28
-4.094295 2.4184661 0.41268241 23
-4.095201 2.4199655 0.24728738 20
-4.086823 2.4159772 0.082200833 19
-1.6784273 0.99420124 -0.5124619 2
-1.9315382 1.1445847 -0.50951445 2
-2.3044267 1.3660932 -0.51281571 3
-2.8363485 1.6820921 -0.51623416 3
-3.8058963 2.2579792 -0.53866315 3
-4.0977874 2.4321203 -0.41355464 14
-4.0858669 2.4260099 -0.24620369 22
-4.0903625 2.4296446 -0.081552342 28
-4.0853333 2.4276223 1.2622142 26
-4.0868025 2.4294605 1.08794 28
-4.0827937 2.4280417 0.9150607 24
-4.0861273 2.4309895 0.74615139 21
-4.0842009 2.430809 0.57887936 30
-4.0901079 2.4352915 0.41311821 26
-4.0910182 2.436801 0.24754907 20
-4.0826588 2.4327869 0.082288086 18
-1.6749468 1.000054 -0.5124619 2
-1.9275311 1.15132 -0.50951445 2
-2.2996442 1.3741288 -0.51281571 3
-2.8262208 1.6894486 -0.51545197 3
-3.8022504 2.2737973 -0.53927243 3
-4.0935469 2.4489667 -0.41399044 14
-4.0816584 2.4428215 -0.24646451 23
-4.0861459 2.446476 -0.081638739 27
-4.0809774 2.4443493 1.2635074 27
-4.0824766 2.4462156 1.0890639 26
-4.0785031 2.444802 0.91601396 21
-4.0818515 2.4477777 0.74693263 21
-4.0799465 2.4476035 0.57948875 29
-4.0858531 2.452117 0.41355398 25
-4.0867682 2.4536362 0.24781074 22
-4.0784283 2.4495976 0.082375355 19
-1.6714457 1.0058945 -0.5124619 2
-1.9276747 1.1605543 -0.51063919 2
-2.2990382 1.3846802 -0.51376885 3
-2.8203063 1.6993037 -0.51545197 3
-3.8112912 2.2973032 -0.54170984 3
-4.0935044 2.468385 -0.41486195 14
-4.0773821 2.4596336 -0.24672532 24
-4.0861416 2.4658904 -0.08181151 28
-4.0765553 2.461076 1.2648007 27
-4.0780835 2.46297 1.0901878 27
-4.0741458 2.4615622 0.91696715 23
-4.0775094 2.464566 0.74771398 21
-4.0756245 2.4643979 0.58009803 29
-4.0815306 2.4689424 0.41398978 24
-4.0824504 2.4704721 0.24807242 22
-4.0741291 2.466408 0.082462616 20
-1.6679243 1.0117228 -0.5124619 2
-1.9236118 1.167276 -0.51063919 2
-2.2857993 1.3876027 -0.51186246 3
-2.8143575 1.7091382 -0.51545197 3
-3.7905252 2.3028631 -0.53988177 3
-4.0891199 2.4852462 -0.41529775 14
-4.0730376 2.4764452 -0.24698611 24
-4.08178 2.4827366 -0.081897907 28
-4.0761919 2.4803123 1.2673873 25
-4.0777841 2.4822567 1.0924356 25
-4.0739126 2.4808743 0.91887349 23
-4.0730987 2.4813535 0.74849528 21
-4.0754728 2.4837751 0.58131677 28
-4.0771408 2.4857676 0.41442558 24
-4.0780644 2.4873075 0.24833409 22
-4.0697622 2.483218 0.082549877 19
-1.6643826 1.0175388 -0.5124619 2
-1.9195254 1.1739836 -0.51063919 2
-2.2767549 1.3930115 -0.51090926 2
-2.8083744 1.7189517 -0.51545197 3
-3.773999 2.3108974 -0.53866315 3
-4.0846677 2.5021064 -0.41573355 14
-4.0686259 2.4932566 -0.24724692 22
-4.0773511 2.4995828 -0.081984296 28
-4.0716262 2.4970508 1.2686805 25
-4.0732474 2.4990234 1.0935595 27
-4.0694113 2.4976475 0.91982669 22
-4.0686212 2.4981403 0.74927664 20
-4.0710068 2.5005836 0.58192611 29
-4.0726819 2.5025916 0.41486132 23
-4.0736113 2.5041423 0.24859579 21
-4.0653281 2.5000279 0.082637139 20
-1.6608206 1.0233424 -0.5124619 2
-1.9154158 1.1806768 -0.51063919 2
-2.2677007 1.3983742 -0.50995612 2
-2.802357 1.7287443 -0.51545197 3
-3.7574625 2.3188443 -0.53744441 3
-4.0801473 2.5189662 -0.41616932 14
-4.064146 2.5100675 -0.24750774 23
-4.072854 2.5164275 -0.082070686 28
-4.0711017 2.5163267 1.2712669 27
-4.0686436 2.5157888 1.0946834 27
-4.0648422 2.5144191 0.92077988 21
-4.068275 2.5175242 0.75083923 21
-4.066473 2.5173907 0.58253539 28
-4.0681562 2.5194154 0.41529712 23
-4.0690904 2.5209763 0.24885747 21
-4.0650754 2.5194707 0.082811661 18
-1.6613412 1.0316814 -0.51375604 2
-1.9071442 1.1847848 -0.50951445 2
-2.2628057 1.4062814 -0.50995612 2
-2.8004992 1.7411232 -0.51623416 3
-3.7409177 2.3267043 -0.53622574 3
-4.0755582 2.5358243 -0.41660509 14
-4.0595989 2.5268774 -0.24776855 24
-4.0682898 2.533272 -0.082157083 28
-4.0663929 2.533076 1.2725602 25
-4.0681071 2.5351295 1.0969312 27
-4.0602055 2.5311897 0.92173308 22
-4.0636535 2.5343237 0.75162053 21
-4.0660815 2.536824 0.58375412 28
-4.0635629 2.536238 0.41573289 24
-4.0687361 2.5404537 0.24938083 22
-4.0604959 2.5362935 0.08289893 19
-1.65773 1.0374744 -0.51375604 2
-1.902997 1.1914347 -0.50951445 2
-2.2537231 1.411566 -0.50900286 2
-2.7944045 1.7508881 -0.51623416 3
-3.7201576 2.331841 -0.53439766 3
-4.0709019 2.5526814 -0.41704085 14
-4.0549836 2.5436862 -0.24802937 23
-4.0636559 2.5501144 -0.082243465 27
-4.0657067 2.5523908 1.2751467 26
-4.0633583 2.5519052 1.0980551 27
-4.0555015 2.5479577 0.92268622 23
-4.0589633 2.5511212 0.75240189 22
-4.0614028 2.5536435 0.58436352 29
-4.063117 2.555711 0.41660443 24
-4.0640693 2.5572999 0.24964251 24
-4.0558481 2.5531151 0.082986191 19
-1.6540983 1.0432545 -0.51375604 2
-1.8947065 1.1954706 -0.50838971 2
-2.2487822 1.4194244 -0.50900286 2
-2.7882757 1.7606317 -0.51623416 3
-3.6994088 2.3368616 -0.53256965 3
-4.0661774 2.5695367 -0.41747665 14
-4.0503001 2.560493 -0.24829017 24
-4.0589552 2.5669563 -0.082329854 27
-4.0608549 2.5691497 1.27644 25
-4.0585427 2.5686791 1.099179 27
-4.0548768 2.5673501 0.92459267 21
-4.0583773 2.570559 0.75396448 20
-4.0566564 2.5704608 0.5849728 29
-4.0583787 2.5725451 0.41704023 23
-4.0635519 2.5768185 0.25016585 24
-4.0511332 2.5699351 0.083073445 18
-1.6463705 1.0464313 -0.5124619 2
-1.8905219 1.202077 -0.50838971 2
-2.2479553 1.4298999 -0.50995612 2
-2.7821131 1.7703538 -0.51623416 3
-3.6744828 2.3391006 -0.53013223 3
-4.0613842 2.5863905 -0.41791245 14
-4.0455489 2.5772984 -0.24855098 23
-4.0541859 2.5837955 -0.082416251 27
-4.0559344 2.5859056 1.2777332 26
-4.0536594 2.5854504 1.1003029 26
-4.0500283 2.5841289 0.92554587 22
-4.0535426 2.5873668 0.75474578 21
-4.056025 2.5899475 0.58619153 30
-4.0535717 2.5893774 0.417476 23
-4.0587397 2.5936759 0.25042754 21
-4.0463495 2.5867534 0.083160713 18
-1.6427078 1.0521718 -0.5124619 2
-1.8822122 1.2060403 -0.50726491 2
-2.2429502 1.4377379 -0.50995612 3
-2.7759166 1.7800546 -0.51623416 3
-3.6704729 2.3545923 -0.53074157 3
-4.0565233 2.6032414 -0.41834819 14
-4.04073 2.5941019 -0.2488118 24
-4.0493484 2.6006329 -0.082502641 27
-4.0509462 2.6026583 1.2790264 26
-4.048708 2.6022186 1.1014268 25
-4.0451117 2.6009049 0.92649895 22
-4.0486403 2.6041722 0.75552714 21
-4.0511332 2.6067755 0.58680087 29
-4.048697 2.6062071 0.4179118 23
-4.0538592 2.6105313 0.25068924 21
-4.0414987 2.6035695 0.083247975 18
-1.6349672 1.0552806 -0.51116782 2
-1.877991 1.2126032 -0.50726491 2
-2.2420409 1.4482217 -0.51090926 3
-2.769686 1.7897334 -0.51623416 3
-3.6663992 2.3700845 -0.53135097 3
-4.0515943 2.6200902 -0.41878399 15
-4.0358424 2.610903 -0.24907261 22
-4.0444427 2.6174681 -0.082589023 25
-4.0499454 2.6220324 1.281613 26
-4.0436893 2.6189837 1.1025507 26
-4.0401273 2.6176777 0.92745221 23
-4.0478134 2.623661 0.75708967 19
-4.0461721 2.6236002 0.58741021 28
-4.0479321 2.6257451 0.41878334 23
-4.0489111 2.6273839 0.2509509 21
-4.040772 2.6231048 0.083422497 17
-1.6272249 1.0583478 -0.50987375 2
-1.8737468 1.2191511 -0.50726491 2
-2.2410858 1.4587166 -0.51186246 3
-2.7634218 1.7993906 -0.51623416 3
-3.674737 2.393703 -0.53378832 3
-4.0507698 2.6396558 -0.41965556 14
-4.0350699 2.6304283 -0.24959421 22
-4.0436563 2.6370318 -0.082761809 28
-4.0448136 2.6387928 1.2829063 24
-4.0426826 2.6384084 1.1047986 25
-4.0350752 2.6344478 0.9284054 22
-4.0427651 2.640475 0.75787103 20
-4.0411444 2.6404226 0.58801955 28
-4.0429115 2.6425841 0.41921914 23
-4.0438933 2.6442337 0.25121257 22
-4.0357747 2.6399307 0.083509758 19
-1.6235209 1.0640216 -0.50987375 3
-1.8735541 1.2283556 -0.50838971 2
-2.2400846 1.4692225 -0.51281571 3
-2.7571237 1.8090258 -0.51623416 3
-3.6497638 2.395623 -0.53135097 3
-4.0456948 2.6565137 -0.4200913 14
-4.0300369 2.647239 -0.24985503 22
-4.0386052 2.6538761 -0.082848199 27
-4.0396132 2.6555486 1.2841994 25
-4.0375195 2.6551812 1.1059225 25
-4.0340562 2.6539125 0.9303118 23
-4.0376492 2.6572859 0.75865233 21
-4.0401931 2.6599712 0.58923829 30
-4.0419817 2.6621599 0.42009068 23
-4.0388088 2.6610806 0.25147426 21
-4.0307088 2.6567531 0.083597019 18
-1.6197968 1.0696821 -0.50987375 3
-1.8692549 1.2348882 -0.50838971 2
-2.2349424 1.477033 -0.51281571 4
-2.7507925 1.8186388 -0.51623416 3
-3.6289613 2.4001353 -0.5295229 3
-4.0405512 2.673368 -0.4205271 13
-4.0249352 2.6640463 -0.25011584 22
-4.0334849 2.6707172 -0.082934588 28
-4.0383725 2.6749678 1.286786 26
-4.0363488 2.6746409 1.1081703 26
-4.0288582 2.6706893 0.93126494 22
-4.032464 2.6740928 0.75943363 21
-4.0350189 2.676801 0.58984756 28
-4.0368147 2.6790071 0.42052644 24
-4.0378146 2.6806862 0.25199762 22
-4.0255756 2.6735728 0.083684288 19
-1.6198857 1.0782881 -0.51116782 2
-1.8647163 1.2417309 -0.50838971 2
-2.2295136 1.4852145 -0.51281571 3
-2.7441082 1.8287088 -0.51623416 3
-3.6077521 2.4051614 -0.52769482 4
-4.0348697 2.6909232 -0.4209629 13
-4.0234513 2.6843228 -0.25063744 23
-4.0278273 2.6882579 -0.083020978 27
-4.032558 2.6924331 1.2880793 26
-4.0305705 2.6921229 1.1092942 25
-4.027205 2.690892 0.93317133 23
-4.030848 2.6943438 0.76099628 22
-4.0293064 2.6943307 0.5904569 27
-4.0352488 2.6993237 0.42139801 23
-4.0321121 2.6982443 0.25225928 22
-4.0199032 2.6910903 0.083771542 20
-1.6201229 1.0866262 -0.5124619 2
-1.8603704 1.2482325 -0.50838971 2
-2.2283912 1.4957234 -0.51376885 3
-2.7377083 1.8382765 -0.51623416 3
-3.591095 2.4122055 -0.52647614 3
-4.0295863 2.7077692 -0.42139867 13
-4.0182009 2.7011364 -0.25089827 24
-4.0267158 2.707881 -0.083193764 28
-4.027142 2.7091885 1.2893724 26
-4.029232 2.711616 1.111542 25
-4.0218592 2.7076743 0.93412459 22
-4.0255146 2.7111564 0.76177758 21
-4.0239925 2.7111521 0.5910663 28
-4.029932 2.7161767 0.42183378 23
-4.0268087 2.7150939 0.25252098 22
-4.0146294 2.7079012 0.08385881 19
-1.6203216 1.094979 -0.51375604 2
-1.856002 1.2547188 -0.50838971 2
-2.2231565 1.5034928 -0.51376885 3
-2.7312746 1.8478215 -0.51623416 3
-3.5867629 2.4275076 -0.52708548 4
-4.0283589 2.7274034 -0.42227021 14
-4.0128818 2.7179463 -0.25115907 24
-4.0213776 2.7247243 -0.083280146 29
-4.0256572 2.7286494 1.2919589 25
-4.0237746 2.7283986 1.1126659 26
-4.0205069 2.7272072 0.93603092 22
-4.020113 2.7279644 0.76255894 21
-4.0186105 2.7279694 0.59167564 28
-4.0245471 2.7330258 0.42226955 23
-4.0214372 2.7319396 0.25278267 22
-4.0092878 2.7247086 0.083946072 19
-1.6164896 1.1006284 -0.51375604 2
-1.8556372 1.2639322 -0.50951445 2
-2.2138386 1.5084801 -0.51281571 3
-2.724808 1.8573443 -0.51623416 3
-3.5782676 2.4400132 -0.52708548 4
-4.0229287 2.7442553 -0.42270601 14
-4.0116186 2.7375665 -0.25168067 24
-4.024229 2.7472012 -0.083539322 29
-4.0200963 2.745409 1.2932522 27
-4.0222721 2.7479243 1.1149137 26
-4.0150151 2.7439942 0.93698412 23
-4.0146427 2.7447679 0.76334018 23
-4.0131593 2.744782 0.59228498 28
-4.0190935 2.7498701 0.42270535 26
-4.0201168 2.7516005 0.253306 23
-4.0038772 2.7415113 0.084033333 21
-1.6086551 1.1035322 -0.5124619 2
-1.8512141 1.270402 -0.50951445 2
-2.2085595 1.5161986 -0.51281571 3
-2.718308 1.8668443 -0.51623416 3
-3.5697286 2.4524887 -0.52708548 4
-4.0174298 2.7611027 -0.42314178 15
-4.0020385 2.7515528 -0.25168067 26
-4.0187335 2.7640643 -0.083625704 28
-4.0144677 2.7621627 1.2945455 29
-4.0206819 2.7674727 1.1171615 29
-4.0134974 2.7635598 0.93889046 26
-4.0253725 2.7727726 0.76724672 26
-4.0158138 2.7672217 0.59411305 31
-4.0217729 2.7723634 0.42401269 28
-4.0187087 2.771286 0.25382939 28
-4.006628 2.7639871 0.084295116 14
-1.6008202 1.1063948 -0.51116782 3
-1.8467681 1.2768562 -0.50951445 3
-2.2032535 1.5238987 -0.51281571 3
-2.7117751 1.8763216 -0.51623416 3
-3.561146 2.4649346 -0.52708548 6
-3.983197 2.7580957 -0.4205271 7
-4.0088277 2.7768788 -0.25272393 15
-4.0008426 2.7723811 -0.083452933 8
-4.020679 2.7871654 1.2997185 29
-4.0190048 2.7870436 1.1194093 17
-4.0159254 2.7859461 0.94175005 12
-3.9791541 2.7614655 0.76021492 6
-4.0102062 2.7840526 0.59472239 26
-4.0038891 2.7807026 0.42314115 10
-3.9926083 2.7739012 0.25278267 8
-3.9517994 2.7465718 0.083335236 4
-1.5969484 1.1119759 -0.51116782 2
-1.8462976 1.2860795 -0.51063919 3
-2.1979208 1.5315802 -0.51281571 3
-2.7052088 1.885776 -0.51623416 3
-3.55252 2.4773502 -0.52708548 9
-3.9490342 2.754884 -0.41791245 6
-3.9417846 2.7508495 -0.24907261 5
-3.941951 2.7519889 -0.082416251 4
-3.9713278 2.7735286 1.286786 5
-3.9733067 2.7759426 1.1092942 5
-3.9498525 2.7605822 0.9284054 4
-3.9613955 2.7696791 0.75865233 10
-3.9597964 2.7695901 0.58862889 6
-3.9655898 2.774673 0.42009068 4
-3.9501762 2.7649155 0.25068924 3
-3.9421883 2.7603495 0.083335236 28
-1.5930572 1.1175435 -0.51116782 3
