# .PCD v0.7 - Point Cloud Data file format
VERSION 0.7
FIELDS x y z intensity
SIZE 4 4 4 4
TYPE F F F F
COUNT 1 1 1 1
WIDTH 1430
HEIGHT 1
VIEWPOINT 0 0 0 1 0 0 0
POINTS 1430
DATA ascii
-14.555277 2.3287711 2.3259609 8
-18.707792 2.9965012 2.3216109 5
-22.50877 3.6093483 1.9910729 4
-22.099638 3.5476992 1.1710171 7
-23.42407 3.7645073 0.41344747 34
-1.9210297 0.31045064 -0.51116782 2
-2.2067604 0.35702178 -0.50726491 2
-2.6153846 0.42359966 -0.50709653 2
-3.2063618 0.51989138 -0.50841242 2
-4.1770844 0.67803615 -0.51489854 5
-5.9670315 0.96965432 -0.52554995 2
-10.209978 1.6609707 -0.53830975 2
-24.092199 3.9236619 -0.42115223 5
-8.7564363 1.4276444 2.3653584 12
-10.116196 1.6511513 2.3557048 12
-11.949301 1.9524895 2.3438902 10
-14.54706 2.3795643 2.3259609 9
-18.721706 3.0657957 2.3246574 8
-23.86742 3.9127159 2.1126552 3
nan nan nan 0
-25.137375 4.1299171 0.44398919 32
-1.9246994 0.31794155 -0.5124619 2
-2.2055006 0.36472264 -0.50726491 2
-2.6138899 0.43272647 -0.50709653 2
-3.2142715 0.53269535 -0.5099768 2
-4.1746926 0.69261277 -0.51489854 4
-5.968524 0.99129337 -0.52598572 2
-10.228746 1.7006948 -0.53961378 2
-25.725447 4.2818866 -0.45000654 4
-8.7514 1.4582013 2.3653584 9
-10.115176 1.6872551 2.3568287 12
-11.947253 1.9949968 2.3448434 9
-14.548408 2.431957 2.3275235 8
-18.701101 3.1294894 2.3234389 9
-25.631948 4.2939143 2.270407 3
nan nan nan 0
nan nan nan 0
-1.9188155 0.3238543 -0.51116782 2
-2.2042143 0.37241903 -0.50726491 2
-2.6123636 0.44184801 -0.50709653 2
-3.2269998 0.54638529 -0.51232326 2
-4.1722493 0.70718098 -0.51489854 4
-5.9650273 1.0121213 -0.52598572 2
-10.237515 1.7388977 -0.54039627 2
-27.942961 4.7512817 -0.48914129 4
-8.7462559 1.4887406 2.3653584 13
-10.109225 1.7225534 2.3568287 7
-11.945054 2.0375135 2.3457963 9
-14.544697 2.483557 2.3283048 8
-18.690063 3.1947496 2.3234389 9
nan nan nan 0
-27.64222 4.734901 1.4677619 3
-30.606823 5.2482133 0.54137361 27
-1.9176733 0.33055025 -0.51116782 2
-2.2077019 0.38093936 -0.50838971 2
-2.6108053 0.45096418 -0.50709653 2
-3.2250729 0.55764627 -0.51232326 2
-4.1697555 0.72174054 -0.51489854 3
-5.9614582 1.0329369 -0.52598572 2
-10.241223 1.7763295 -0.54091787 2
-28.211885 4.8983946 -0.49415192 3
-8.7410059 1.5192617 2.3653584 14
-10.10315 1.7578306 2.3568287 10
-11.94754 2.0808814 2.3477027 9
-14.540805 2.5351605 2.3290861 9
-18.678797 3.2599707 2.3234389 9
-25.753452 4.4993272 2.2839162 3
-30.606133 5.3526325 1.6263398 5
-31.681524 5.5464039 0.56074584 83
-1.9117514 0.33640516 -0.50987375 2
-2.2159548 0.39033365 -0.51063919 2
-2.6092153 0.46007484 -0.50709653 2
-3.1987906 0.56460851 -0.50841242 2
-4.1720977 0.73715478 -0.51550794 3
-5.9578161 1.0537401 -0.52598572 2
-10.24971 1.8146787 -0.5417003 2
-28.120779 4.9837565 -0.49285609 108
-8.7356501 1.5497642 2.3653584 14
-10.092155 1.7922347 2.3557048 12
-11.94987 2.1242917 2.3496091 4
-14.536729 2.586767 2.3298674 9
-18.667305 3.3251519 2.3234389 8
-25.693459 4.581327 2.2799942 4
-31.722734 5.6621027 1.6867878 31
-31.652128 5.655201 0.56057125 33
-1.9058118 0.34222278 -0.50857961 2
-2.2337587 0.40151396 -0.51513821 2
-2.6124244 0.47004914 -0.50804973 2
-3.1870799 0.57402021 -0.5068481 2
-4.1694989 0.75171363 -0.51550794 5
-5.9541016 1.0745304 -0.52598572 2
-10.248226 1.8513333 -0.54196107 2
nan nan nan 0
-8.7301865 1.5802479 2.3653584 15
-10.085838 1.8274518 2.3557048 12
-11.966529 2.1703711 2.3543751 19
-14.532471 2.6383762 2.3306487 4
-18.66535 3.3920677 2.3246574 8
-25.677309 4.6709857 2.2799942 4
-31.629091 5.7593837 1.6828625 96
-37.725849 6.8763537 0.66868889 43
-1.9046055 0.34887323 -0.50857961 2
-2.2035918 0.40403703 -0.50838971 2
-2.6059396 0.47827923 -0.50709653 2
-3.1607707 0.58068001 -0.5029372 2
-4.171731 0.76716095 -0.51611727 6
-5.9503145 1.0953075 -0.52598572 2
-10.246613 1.8879998 -0.5422219 2
-37.829472 6.9771347 -0.66408139 2
-8.724618 1.6107123 2.3653584 15
-10.074607 1.8617615 2.3545806 11
-11.939574 2.2085576 2.3505623 13
-14.528029 2.6899872 2.3314302 3
-18.663153 3.4590094 2.3258762 8
-25.641258 4.7569537 2.2782512 4
-31.594065 5.8670197 1.6820775 116
-45.029957 8.3701954 0.79879659 4
-1.9081237 0.35640615 -0.50987375 2
-2.1973789 0.41083115 -0.50726491 2
-2.6042545 0.48737276 -0.50709653 2
-3.1587245 0.59170961 -0.5029372 2
-4.1690278 0.78171831 -0.51611727 6
-5.9366646 1.1142337 -0.52511418 2
-10.239959 1.9237558 -0.5422219 2
-37.721367 7.0934358 -0.6626128 2
-8.7141962 1.6402637 2.3640649 15
-10.068047 1.8969171 2.3545806 12
-11.917322 2.2474923 2.3477027 13
-14.513698 2.7397668 2.3306487 3
-18.670471 3.5278208 2.3283136 8
-25.644073 4.850132 2.2799942 4
-31.568487 5.9763389 1.6818159 119
-45.064316 8.5394278 0.79993099 9
-1.906868 0.36306459 -0.50987375 2
-2.1863599 0.41667485 -0.50501537 2
-2.6025374 0.49646032 -0.50709653 2
-3.1711924 0.60551065 -0.50528377 2
-4.1662736 0.7962662 -0.51611727 6
-5.9229541 1.1330779 -0.52424258 2
-10.238086 1.9604272 -0.54248273 2
nan nan nan 0
-8.7084169 1.6706719 2.3640649 15
-10.05658 1.931131 2.3534567 12
-11.899764 2.287225 2.3457963 13
-14.504045 2.7904127 2.3306487 3
-18.653173 3.5920331 2.3277044 6
nan nan nan 0
-31.552336 6.0874424 1.6820775 122
-45.044052 8.698576 0.80010551 16
-1.9055891 0.36971858 -0.50987375 2
-2.1848922 0.4243041 -0.50501537 2
-2.6056068 0.50647843 -0.50804973 2
-3.173907 0.61751962 -0.50606591 2
-4.1634688 0.81080431 -0.51611727 5
-5.9091849 1.15184 -0.52337104 2
-10.236082 1.9971091 -0.5427435 2
nan nan nan 0
-8.7025328 1.7010598 2.3640649 14
-10.049777 1.9662231 2.3534567 12
-11.882075 2.3268626 2.3438902 13
-14.48937 2.8400741 2.3298674 3
-18.659998 3.6609449 2.3301415 8
-25.629139 5.0328808 2.2817373 3
-31.525995 6.1965809 1.6818159 122
-45.062469 8.865407 0.80097818 3
-1.9090248 0.37730452 -0.51116782 2
-2.1881771 0.43287373 -0.50614017 2
-2.6038229 0.51557064 -0.50804973 2
-3.1765764 0.62955499 -0.5068481 2
-4.1606131 0.82533258 -0.51611727 4
-5.8807001 1.1676097 -0.52119213 2
-10.229048 2.0328274 -0.5427435 2
nan nan nan 0
-8.7012777 1.7323699 2.3653584 14
-10.038075 2.0003393 2.3523331 12
-11.87388 2.3683245 2.3438902 14
-14.479368 2.8906341 2.3298674 3
-18.617907 3.7202234 2.3264856 9
nan nan nan 0
-31.504173 6.3065896 1.6818159 116
-45.021442 9.0206852 0.8008036 3
-1.9076962 0.38396597 -0.51116782 2
-2.1866529 0.44050926 -0.50614017 2
-2.6068187 0.52562666 -0.50900286 2
-3.1791999 0.64161634 -0.50763023 2
-4.1577067 0.83985084 -0.51611727 3
-5.9058819 1.1940526 -0.52380681 2
-10.221889 2.068521 -0.5427435 3
nan nan nan 0
-8.695178 1.7627325 2.3653584 15
-10.031032 2.0353665 2.3523331 12
-11.865541 2.4097579 2.3438902 14
-14.46435 2.9401753 2.3290861 3
-18.595081 3.7832108 2.3252671 9
nan nan nan 0
-31.477077 6.4155245 1.6815543 49
-45.161121 9.2127581 0.80385774 7
-1.9110756 0.39159217 -0.5124619 2
-2.1898742 0.44911814 -0.50726491 2
-2.609776 0.53570992 -0.50995612 2
-3.1769409 0.6527099 -0.50763023 2
-4.1596103 0.85535836 -0.51672655 3
-5.9114351 1.216669 -0.52467841 2
-10.214607 2.1041896 -0.5427435 2
nan nan nan 0
-8.6889715 1.7930735 2.3653584 15
-10.023866 2.070369 2.3523331 12
-11.857057 2.4511616 2.3438902 14
-14.463671 2.9926488 2.3306487 3
-18.572042 3.8460836 2.3240483 9
nan nan nan 0
-31.454491 6.5253611 1.6815543 24
-45.187428 9.3825397 0.80490494 15
-1.9096971 0.39826071 -0.5124619 2
-2.1930623 0.45775497 -0.50838971 2
-2.6174994 0.54682392 -0.51186246 2
-3.1794772 0.66480631 -0.50841242 2
-4.1565995 0.86987287 -0.51672655 3
-5.9217772 1.2403595 -0.52598572 2
-10.2072 2.1398323 -0.5427435 2
-37.848316 7.9413991 -0.66762346 3
-8.6826601 1.8233927 2.3653584 15
-10.021345 2.1063483 2.3534567 12
-11.853231 2.4935458 2.3448434 14
-14.45797 3.0441358 2.3314302 3
-18.548792 3.9088421 2.3228295 7
nan nan nan 0
-31.426636 6.6340866 1.6812925 102
-45.183746 9.5464172 0.8054285 12
-1.9082952 0.40492436 -0.5124619 2
-2.1914511 0.4654074 -0.50838971 2
-2.6299779 0.55901885 -0.51472205 2
-3.1771374 0.6759007 -0.50841242 2
-4.1535378 0.88437682 -0.51672655 3
-5.9174118 1.2610229 -0.52598572 2
-10.199669 2.1754491 -0.5427435 2
-37.859482 8.0818157 -0.66831458 3
-8.6762419 1.8536898 2.3653584 14
-10.013931 2.1413164 2.3534567 12
-11.844455 2.5349061 2.3448434 14
-14.452084 3.095619 2.3322113 3
-18.544739 3.9756463 2.3240483 8
nan nan nan 0
-31.403288 6.7437458 1.6812925 117
-47.40823 10.189406 0.8457436 8
-1.9068701 0.4115831 -0.5124619 2
-2.1898131 0.4730542 -0.50838971 2
-2.6472003 0.57234478 -0.51853484 2
-3.1795852 0.68803132 -0.50919461 2
-4.1504254 0.89887005 -0.51672655 3
-5.9129739 1.2816709 -0.52598572 2
-10.192013 2.2110393 -0.5427435 2
-37.855465 8.219224 -0.66874647 3
-8.6697187 1.8839643 2.3653584 14
-10.011156 2.1772938 2.3545806 12
-11.840329 2.5772793 2.3457963 13
-14.446015 3.1470985 2.3329926 3
-18.545294 4.0435266 2.3258762 8
nan nan nan 0
-31.374674 6.8522563 1.6810309 140
-47.382141 10.356965 0.84591806 10
-1.9054219 0.41823679 -0.5124619 2
-2.1929069 0.48174044 -0.50951445 2
-2.6212173 0.57631183 -0.51376885 2
-3.1771643 0.69912595 -0.50919461 2
-4.1521091 0.91441965 -0.51733595 3
-5.908464 1.3023032 -0.52598572 3
-10.184233 2.2466025 -0.5427435 2
-37.841187 8.3545465 -0.66900563 3
-8.6630898 1.9142158 2.3653584 14
-10.003494 2.2122262 2.3545806 12
-11.831262 2.6185942 2.3457963 13
-14.439764 3.1985734 2.3337739 3
-18.540756 4.1103854 2.327095 8
nan nan nan 0
-31.350565 6.9617324 1.6810309 135
-47.340824 10.521213 0.84583086 6
-1.8992367 0.42383352 -0.51116782 3
-2.1912119 0.48939216 -0.50951445 2
-2.6143997 0.5843873 -0.51281571 2
-3.1795239 0.71129024 -0.5099768 2
-4.1537352 0.92999196 -0.51794529 3
-5.903882 1.3229196 -0.52598572 2
-10.176329 2.2821386 -0.5427435 2
-37.841064 8.4931564 -0.66952401 3
-8.6563549 1.9444439 2.3653584 14
-9.9957113 2.2471313 2.3545806 12
-11.826838 2.6609542 2.3467495 13
-14.423694 3.2478733 2.3329926 5
-18.535978 4.1772618 2.3283136 6
-25.415455 5.7322793 2.2760723 3
-31.330948 7.0722246 1.6812925 128
-47.289181 10.683095 0.84556907 5
-1.8977456 0.43046051 -0.51116782 3
-2.1894903 0.49703795 -0.50951445 2
-2.602771 0.59133488 -0.51090926 2
-3.1770217 0.72238445 -0.5099768 2
-4.1504636 0.94448549 -0.51794529 3
-5.8992281 1.34352 -0.52598572 2
-10.178038 2.3198659 -0.54326516 2
-37.840431 8.6318655 -0.67004234 3
-8.6542244 1.9757236 2.3666515 14
-9.9925566 2.2830944 2.3557048 11
-11.817477 2.7022216 2.3467495 9
-14.407454 3.2970996 2.3322113 10
-18.526121 4.2430472 2.328923 9
-25.39529 5.8209615 2.2760723 3
-31.3158 7.1837788 1.6818159 104
nan nan nan 0
-1.8915253 0.43599746 -0.50987375 3
-2.1829951 0.50358266 -0.50838971 2
-2.5959084 0.59931248 -0.50995612 2
-3.1744807 0.73346996 -0.5099768 2
-4.1519761 0.96008557 -0.51855469 3
-5.8945026 1.3641039 -0.52598572 2
-10.179605 2.3576331 -0.54378676 2
-33.168823 7.688118 -0.58771253 13
-8.647275 2.0059204 2.3666515 13
-9.9845266 2.317961 2.3557048 7
-11.807973 2.7434556 2.3467495 12
-14.391047 3.3462529 2.3314302 11
-18.491865 4.3031902 2.3264856 8
-25.355413 5.9050527 2.2743292 3
-31.290533 7.2930474 1.6818159 34
-43.883358 10.236198 0.78588182 6
-1.8899918 0.44259745 -0.50987375 2
-2.1812239 0.51119965 -0.50838971 2
-2.5985794 0.60949111 -0.51090926 2
-3.1719012 0.74454653 -0.5099768 2
-4.1485996 0.97457284 -0.51855469 3
-5.8897052 1.3846713 -0.52598572 2
-10.176173 2.3942957 -0.54404753 2
-33.049328 7.7820811 -0.58607107 16
-8.6402206 2.0360928 2.3666515 8
-9.9763746 2.3527994 2.3557048 10
-11.793547 2.783529 2.3457963 13
-14.369666 3.3941958 2.3298674 11
-18.467072 4.3654294 2.3252671 8
-25.363729 6.0004039 2.2769439 3
-31.303757 7.4114308 1.6839093 23
-31.282225 7.4120989 0.56048399 4
-1.8837368 0.44807443 -0.50857961 2
-2.1699474 0.516554 -0.50614017 2
-2.596436 0.61855811 -0.51090926 2
-3.1740866 0.75675929 -0.51075894 2
-4.1451721 0.98904818 -0.51855469 3
-5.8848357 1.4052218 -0.52598572 2
-10.182324 2.4332843 -0.54483002 2
-31.295902 7.4846001 -0.55540258 26
-8.6330605 2.0662403 2.3666515 12
-9.9681005 2.387609 2.3557048 11
-11.774214 2.8223913 2.3438902 14
-14.352928 3.4431827 2.3290861 10
-18.44207 4.4275479 2.3240483 9
-25.323257 6.0842485 2.2752006 3
-31.229149 7.5089831 1.6812925 111
-31.275604 7.5259275 0.56083304 72
-1.8821613 0.45464718 -0.50857961 2
-2.1728661 0.5252701 -0.50726491 2
-2.5894904 0.62646341 -0.50995612 2
-3.1714256 0.76783431 -0.51075894 2
-4.1416945 1.0035115 -0.51855469 3
-5.8847361 1.426929 -0.52642149 2
-10.183473 2.4711671 -0.54535162 2
-31.255014 7.5902591 -0.55514342 39
-8.6257954 2.0963628 2.3666515 15
-9.9549713 2.4212382 2.3545806 11
-11.759521 2.8623128 2.3429368 14
-14.331225 3.4909251 2.3275235 11
-18.436146 4.4942465 2.3252671 9
-25.311543 6.1749673 2.2760723 3
-31.212446 7.6203151 1.6818159 115
-31.239435 7.6326818 0.56065851 54
-1.8852534 0.46236476 -0.50987375 2
-2.1710193 0.53285158 -0.50726491 2
-2.5872877 0.63549858 -0.50995612 2
-3.1735218 0.78007877 -0.51154113 2
-4.1429853 1.019148 -0.51916397 3
-5.8797193 1.4474618 -0.52642149 2
-10.179633 2.5078936 -0.54561245 3
-31.204056 7.6933289 -0.55471146 28
-8.6184244 2.1264596 2.3666515 15
-9.9464588 2.4559729 2.3545806 11
-11.744693 2.9021664 2.3419836 14
-14.314158 3.5397434 2.3267422 10
-18.425161 4.5597649 2.3258762 9
-25.289835 6.2632837 2.2760723 3
-31.180813 7.7280207 1.6815543 52
-31.207747 7.7404776 0.56057125 10
-1.8836279 0.4689427 -0.50987375 2
-2.1691461 0.54042661 -0.50726491 2
-2.580291 0.64333862 -0.50900286 2
-3.1707795 0.79115164 -0.51154113 2
-4.1394029 1.0336035 -0.51916397 3
-5.8794632 1.4691846 -0.52685732 2
-10.175661 2.5446234 -0.54587328 3
-25.808397 6.4586811 -0.45907751 3
-8.6109495 2.1565306 2.3666515 15
-9.9378252 2.4906774 2.3545806 11
-11.72973 2.941951 2.3410304 14
-14.296925 3.5884855 2.3259609 10
-18.413948 4.6252627 2.3264856 8
nan nan nan 0
nan nan nan 0
-24.432144 6.1505299 0.43910253 27
-1.886662 0.47669804 -0.51116782 2
-2.1719699 0.54918939 -0.50838971 2
-2.5732715 0.65113765 -0.50804973 2
-3.1679986 0.80221492 -0.51154113 2
-4.1357694 1.0480465 -0.51916397 3
-5.874299 1.4896989 -0.52685732 2
-10.161877 2.5788991 -0.54561245 3
nan nan nan 0
-8.6033697 2.1865754 2.3666515 15
-9.9243498 2.5241511 2.3534567 11
-11.714632 2.9816668 2.3400772 15
-14.284311 3.6383691 2.3259609 11
-18.421736 4.6956396 2.3295324 8
nan nan nan 0
-23.680407 6.0448618 1.278829 3
-22.453674 5.7358899 0.40384865 30
-1.8849866 0.48328081 -0.51116782 2
-2.1700397 0.55676764 -0.50838971 2
-2.575737 0.66133666 -0.50900286 2
-3.1603959 0.81203943 -0.51075894 2
-4.1368923 1.0637125 -0.5197733 2
-5.8738866 1.5114361 -0.52729303 2
-10.147977 2.6131098 -0.54535162 3
-21.894634 5.6419559 -0.39005172 4
-8.5956841 2.2165933 2.3666515 16
-9.9154787 2.5587783 2.3534567 11
-11.6994 3.021313 2.339124 15
-14.285868 3.6919155 2.3283048 11
-18.429253 4.7661276 2.3325791 8
-21.567705 5.5818024 1.9457519 4
-21.94804 5.6843219 1.1861944 3
-20.013844 5.1871119 0.36021763 25
-1.883288 0.48985773 -0.51116782 3
-2.1727974 0.56556624 -0.50951445 2
-2.5781627 0.67156088 -0.50995612 2
-3.157542 0.82306635 -0.51075894 2
-4.1331544 1.0781465 -0.5197733 2
-5.8685751 1.5319306 -0.52729303 2
-10.138794 2.6485171 -0.54535162 3
-19.969139 5.2201829 -0.35601401 13
-8.5878954 2.2465844 2.3666515 16
-9.9017735 2.5921402 2.3523331 12
-11.69353 3.0633769 2.3400772 15
-14.282449 3.7442646 2.3298674 11
-18.436506 4.8367252 2.3356259 9
-19.919704 5.2295513 1.7984588 4
-19.952896 5.2419872 1.0791674 6
-19.164003 5.0383139 0.34520856 43
-1.8814801 0.49675706 -0.51116782 3
-2.1707101 0.57352614 -0.50951445 2
-2.5804291 0.68226045 -0.51090926 2
-3.1545041 0.83463377 -0.51075894 2
-4.1291747 1.0932879 -0.5197733 2
-5.8629208 1.5534297 -0.52729303 2
-10.129019 2.6856599 -0.54535162 3
-18.534079 4.9176826 -0.33070168 7
-8.5796032 2.2780454 2.3666515 16
-9.8922062 2.6284146 2.3523331 12
-11.682224 3.1062155 2.3400772 14
-14.282947 3.8003969 2.3322113 11
-18.442633 4.9106507 2.3386724 9
-18.480555 4.9242024 1.669904 5
-18.606789 4.9613152 1.0072054 5
-17.749468 4.7360382 0.31998983 45
-1.8797345 0.50332159 -0.51116782 2
-2.168695 0.58109987 -0.50951445 2
-2.5827727 0.6925348 -0.51186246 2
-3.1515715 0.84564 -0.51075894 2
-4.1253333 1.1076949 -0.5197733 2
-5.8526525 1.5725932 -0.52685732 2
-10.124404 2.7222967 -0.54561245 4
-17.13612 4.610847 -0.30599406 31
-8.571599 2.3079801 2.3666515 16
-9.8829718 2.6629291 2.3523331 11
-11.676049 3.148253 2.3410304 14
-14.283898 3.8540902 2.3345551 8
-17.917517 4.8378706 2.2740819 8
-17.390949 4.6989498 1.5727254 6
-17.167439 4.6417737 0.93000996 11
-16.251331 4.3971252 0.2932004 86
-1.8826271 0.51114547 -0.5124619 2
-2.161952 0.58738923 -0.50838971 2
-2.5850761 0.70283389 -0.51281571 2
-3.1486006 0.85663587 -0.51075894 2
-4.1214418 1.1220882 -0.5197733 3
-5.8471279 1.5930132 -0.52685732 2
-10.114841 2.7576213 -0.54561245 4
-16.131208 4.4008961 -0.28828409 18
-8.5634899 2.3378863 2.3666515 15
-9.878315 2.6986947 2.3534567 12
-11.669724 3.1902852 2.3419836 14
-14.275122 3.9052303 2.3353367 12
-16.866615 4.6173463 2.142463 10
-16.159033 4.4266734 1.4624733 14
-16.1784 4.4350147 0.8771506 14
-15.748952 4.3202443 0.28438696 25
-1.8808315 0.51771396 -0.5124619 2
-2.1598885 0.5949322 -0.50838971 2
-2.5826068 0.71185321 -0.51281571 2
-3.145591 0.86762136 -0.51075894 2
-4.1174998 1.1364678 -0.5197733 3
-5.83673 1.6120876 -0.52642149 2
-10.109965 2.7942419 -0.54587328 4
-15.441177 4.2706094 -0.27618945 7
-8.5552778 2.3677642 2.3666515 16
-9.8688345 2.7331598 2.3534567 12
-11.663247 3.2323115 2.3429368 13
nan nan nan 0
-15.779223 4.3789306 2.0059693 10
-14.83806 4.1205354 1.3439416 2
-15.551845 4.3216772 0.84391725 7
-14.597085 4.0591054 0.26379311 33
-1.8790128 0.52427614 -0.5124619 2
-2.153106 0.60115778 -0.50726491 2
-2.5801063 0.72086388 -0.51281571 3
-3.1377873 0.87726653 -0.5099768 2
-4.1135077 1.1508337 -0.5197733 3
-5.8262701 1.6311089 -0.52598572 2
-10.104958 2.830862 -0.54613405 5
-14.448998 4.0505466 -0.25865224 7
-8.5469608 2.3976135 2.3666515 15
-9.8592339 2.767592 2.3534567 11
-11.661344 3.2756588 2.3448434 13
nan nan nan 0
-14.899142 4.1907649 1.8956776 11
-14.39686 4.0521965 1.3051572 10
-14.402411 4.0564723 0.78216082 9
-13.909178 3.9201722 0.25157642 21
-1.8818189 0.53214616 -0.51375604 2
-2.1556823 0.6099965 -0.50838971 2
-2.5775743 0.72986579 -0.51281571 3
-3.1299546 0.8868677 -0.50919461 2
-4.1094651 1.1651856 -0.5197733 3
-5.8205409 1.6514364 -0.52598572 2
-10.095015 2.8661177 -0.54613405 5
-13.62687 3.8714316 -0.2441387 5
-8.5385389 2.4274333 2.3666515 15
-9.8495131 2.80199 2.3534567 11
-11.654558 3.3176882 2.3457963 8
-13.340513 3.8001442 2.1884503 11
-13.944217 3.9747448 1.7756362 14
-13.60666 3.8810935 1.2345611 8
-13.65835 3.8984153 0.74238551 8
-13.222427 3.7764883 0.23935975 23
-1.8799497 0.53871173 -0.51375604 2
-2.1582229 0.61886024 -0.50951445 2
-2.575011 0.7388587 -0.51281571 2
-3.1315866 0.89915085 -0.5099768 2
-4.1053729 1.1795231 -0.5197733 3
-5.8099542 1.6703675 -0.52554995 2
-10.084949 2.9013383 -0.54613405 6
-12.940692 3.7253525 -0.23204407 14
-8.530014 2.4572237 2.3666515 14
-9.8443537 2.8377035 2.3545806 11
-11.666487 3.3651516 2.3505623 14
-12.757781 3.6823432 2.0946929 13
-13.234151 3.8223429 1.6866717 16
-12.956606 3.7446311 1.1766026 10
-12.977934 3.7532496 0.70601201 8
-12.52245 3.6238911 0.22688128 22
-1.878058 0.54527068 -0.51375604 2
-2.1560495 0.62639016 -0.50951445 2
-2.567703 0.74647242 -0.51186246 2
-3.1379123 0.91283548 -0.51154113 2
-4.1012306 1.1938463 -0.5197733 3
-5.7993059 1.6892451 -0.52511418 2
-10.074759 2.9365237 -0.54613405 7
-12.303702 3.5885308 -0.22081335 16
-8.5213842 2.4869838 2.3666515 14
-9.8390646 2.8734152 2.3557048 12
-11.664092 3.4086084 2.3524687 14
-12.195001 3.566067 2.004061 13
-12.634877 3.6970892 1.611722 12
-12.35548 3.6176765 1.1230017 10
-12.351415 3.6188266 0.672517 8
-11.938844 3.5002105 0.21649709 22
-1.8761431 0.55182302 -0.51375604 2
-2.163197 0.63666338 -0.51176393 2
-2.5650816 0.75543088 -0.51186246 2
-3.144181 0.92657524 -0.51310545 2
-4.0970387 1.208155 -0.5197733 2
-5.7885966 1.7080684 -0.52467841 2
-10.064447 2.9716735 -0.54613405 7
-11.72057 3.4628913 -0.2105329 16
-8.5126514 2.5167139 2.3666515 14
-9.8383188 2.910507 2.3579526 9
-11.64271 3.4465165 2.3505623 14
-11.642665 3.4487135 1.9149917 13
-12.046163 3.5705221 1.537991 12
-11.755408 3.4865735 1.0694009 13
-11.745146 3.48576 0.64006871 12
-11.562332 3.4337001 0.20986517 17
-1.8742054 0.55836856 -0.51375604 2
-2.1562929 0.64281869 -0.51063919 2
-2.5577254 0.762977 -0.51090926 2
-3.1503918 0.94036984 -0.51466984 2
-4.0975513 1.2238693 -0.5203827 2
-5.7825994 1.7282639 -0.52467841 3
-10.058797 3.0082173 -0.54639482 6
-11.320469 3.3876898 -0.2035353 4
-8.5038137 2.5464132 2.3666515 13
-9.8374338 2.9476283 2.3602004 9
-11.433144 3.4279318 2.3105285 11
-11.067652 3.3204541 1.8220158 13
-11.510778 3.4555881 1.4709629 8
-11.437861 3.4358745 1.0415112 3
-11.331235 3.4060006 0.61808759 4
-10.779508 3.2422109 0.19581598 70
-1.8722448 0.56490737 -0.51375604 2
-2.1493719 0.64893341 -0.50951445 2
-2.550348 0.77048105 -0.50995612 2
-3.1565444 0.9542191 -0.51623416 2
-4.0980048 1.239602 -0.52099204 2
-5.7765312 1.7484385 -0.52467841 2
-10.038678 3.0404162 -0.54587328 6
-10.705745 3.2444909 -0.19265014 31
-8.4994955 2.5774832 2.3679447 12
-9.8364086 2.9847786 2.3624482 11
-10.895092 3.308104 2.2037714 10
-10.58819 3.2169373 1.744666 16
-10.734192 3.2633424 1.372858 17
-10.715761 3.2597826 0.97658008 20
-10.736514 3.2681429 0.58616269 20
-10.519444 3.2040741 0.19127837 58
-1.8748804 0.57285047 -0.51505011 2
-2.1470935 0.65643221 -0.50951445 2
-2.5429494 0.77794278 -0.50900286 2
-3.1531944 0.9652316 -0.51623416 2
-4.0983977 1.2553525 -0.52160138 2
-5.7656302 1.7671319 -0.52424258 2
-10.02323 3.0739753 -0.54561245 7
-10.321571 3.1674428 -0.18591172 10
-8.5042982 2.6113896 2.3718247 12
-9.8399019 3.0233886 2.3658199 11
-10.465927 3.2177393 2.1189375 13
-10.161513 3.1260889 1.6759106 14
-10.490324 3.2292485 1.3430001 12
-10.22829 3.1505406 0.93300223 9
-10.305136 3.1761804 0.56313491 6
-10.068692 3.1052294 0.18325026 58
-1.8728693 0.5793916 -0.51505011 2
-2.1401355 0.66248238 -0.50838971 2
-2.5402186 0.78681457 -0.50900286 2
-3.1450887 0.97477049 -0.51545197 2
-4.0987306 1.2711208 -0.52221072 3
-5.7594266 1.7872471 -0.52424258 2
-9.9504461 3.089695 -0.5422219 15
-9.8903284 3.0729203 -0.17830937 12
-8.4997435 2.6424932 2.3731179 5
-9.8246355 3.0562706 2.364696 11
-10.032846 3.122962 2.0331507 11
-9.7450361 3.0352399 1.608718 10
-10.052572 3.1329515 1.2881589 12
-9.8605957 3.0750091 0.90031886 9
-9.9079008 3.0916584 0.54193878 7
-9.6808004 3.0226483 0.17635655 58
-1.8708355 0.58592558 -0.51505011 2
-2.1378098 0.66994882 -0.50838971 2
-2.5280895 0.79273963 -0.50709653 2
-3.1322429 0.98278612 -0.51388764 2
-4.0942683 1.2854203 -0.52221072 3
-5.7531533 1.8073403 -0.52424258 2
-9.6014004 3.0180995 -0.52370447 7
-9.5027971 2.9889276 -0.17148454 11
-8.5227175 2.6822965 2.3821707 23
-9.7070255 3.0568879 2.3388462 10
-9.6473722 3.0399528 1.9568955 10
-9.376421 2.9563735 1.5493385 12
-9.5824947 3.0231869 1.2290523 11
-9.4840584 2.9939513 0.86676383 9
-9.5304308 3.0104194 0.52178943 7
-9.288846 2.9358921 0.1693756 58
-1.8686754 0.59277856 -0.51505011 2
-2.13534 0.67777979 -0.50838971 2
-2.525167 0.80200016 -0.50709653 2
-3.1192069 0.99126834 -0.51232326 2
-4.0942593 1.3019218 -0.52282006 3
-5.7417436 1.8269043 -0.52380681 2
-9.2096424 2.9320881 -0.50283974 7
-9.1345234 2.9099283 -0.16500528 13
-8.4898195 2.7061813 2.3757043 16
-9.3661985 2.9873333 2.2590489 7
-9.2901449 2.9648626 1.8863596 11
-9.0644321 2.8945718 1.4993345 14
-9.273531 2.9631276 1.1906633 12
-9.1314259 2.9194779 0.83538783 9
-9.1436319 2.9251394 0.50111675 8
-8.9733028 2.872376 0.16379084 63
-1.8665948 0.59929788 -0.51505011 2
-2.1329613 0.68522942 -0.50838971 2
-2.5270252 0.81231195 -0.50804973 2
-3.1110265 1.0006381 -0.51154113 2
-4.0896897 1.3162055 -0.52282006 3
-5.7353315 1.8469355 -0.52380681 2
-8.8856821 2.8631473 -0.48562634 9
-8.8007622 2.8374801 -0.15913075 15
-8.4665318 2.7313514 2.3718247 11
-9.0265226 2.9137471 2.1792517 10
-8.9621305 2.8946886 1.8215427 16
-8.7441216 2.825959 1.447768 15
-8.9562025 2.8962266 1.1510559 15
-8.8320961 2.8577962 0.80880529 11
-8.8435917 2.8632212 0.48515427 9
-8.6540852 2.8035419 0.15811878 64
-1.8644915 0.60580987 -0.51505011 2
-2.1305563 0.69267064 -0.50838971 2
-2.5288417 0.82264626 -0.50900286 2
-3.1169066 1.0145487 -0.51310545 2
-4.0897894 1.3320101 -0.52342945 3
-5.7241139 1.865401 -0.52337104 2
-8.5670671 2.79353 -0.46867377 10
-8.5008898 2.7735927 -0.15386094 12
-8.4615383 2.7623875 2.3731179 10
-8.7199001 2.8484173 2.1073217 11
-8.6533852 2.8283615 1.7605387 12
-8.452569 2.7643576 1.4008895 11
-8.6583252 2.8333216 1.1138856 15
-8.5333118 2.7940617 0.78222275 11
-8.5488462 2.8008001 0.46945354 9
-8.3497181 2.737175 0.15270855 63
-1.8623655 0.61231446 -0.51505011 3
-2.1281254 0.70010346 -0.50838971 2
-2.5352793 0.83453786 -0.51090926 2
-3.1180367 1.0269674 -0.51388764 2
-4.085115 1.3462781 -0.52342945 4
-5.7175674 1.8853705 -0.52337104 2
-8.2727575 2.7295465 -0.45302522 9
-8.2158165 2.7123494 -0.14885031 11
-8.4151554 2.7797873 2.362772 7
-8.4230967 2.7840412 2.0376396 10
-8.3545361 2.7629979 1.7014412 11
-8.194375 2.7116163 1.35948 10
-8.3751326 2.7730534 1.0785435 15
-8.2776384 2.7423754 0.75956231 11
-8.264123 2.7394986 0.45427606 8
-8.0838804 2.6813157 0.1479964 67
-1.8556341 0.61728716 -0.51375604 3
-2.130291 0.70906621 -0.50951445 2
-2.5370076 0.84493357 -0.51186246 2
-3.1191182 1.0394064 -0.51466984 2
-4.0756826 1.3589598 -0.52282006 4
-5.7109513 1.9053169 -0.52337104 2
-8.0168934 2.6761925 -0.4394632 10
-7.9549856 2.6570694 -0.14427163 12
-8.213006 2.7448454 2.3084552 8
-8.1822996 2.7361705 1.9814444 11
-8.1121073 2.7142725 1.6537818 10
-7.9366555 2.6571076 1.3180705 11
-8.1207047 2.7203016 1.0468576 10
-8.003541 2.6826072 0.73515868 10
-8.0036087 2.6841836 0.44040707 9
-7.842236 2.6315868 0.14372055 68
-1.8534681 0.62376076 -0.51375604 3
-2.1231859 0.71494335 -0.50838971 2
-2.52474 0.85064983 -0.50995612 2
-3.1107912 1.0487102 -0.51388764 2
-4.0709143 1.3731782 -0.52282006 4
-5.7042661 1.9252404 -0.52337104 2
-7.7851591 2.6290741 -0.42720515 10
-7.7135901 2.6064048 -0.14003851 12
-7.9425755 2.685323 2.2347398 8
-7.9142518 2.6772864 1.9185058 11
-7.8236322 2.6481526 1.5965904 11
-7.6700644 2.5976651 1.2750984 14
-7.8573484 2.6626225 1.0139529 11
-7.7629857 2.6321561 0.7138055 11
-7.7577677 2.6318965 0.42732307 8
-7.6010394 2.5802045 0.13944472 15
-1.8512795 0.63022679 -0.51375604 2
-2.1299007 0.725492 -0.51063919 2
-2.5171092 0.85787421 -0.50900286 2
-3.0930891 1.0547807 -0.51154113 2
-4.0660958 1.38738 -0.52282006 4
-5.6927972 1.943531 -0.52293527 2
-7.5396791 2.5755291 -0.41416472 11
-7.5057611 2.5654058 -0.13641012 12
-7.6772332 2.6255102 2.1623178 10
-7.6282792 2.6102557 1.8510714 13
-7.5728693 2.592772 1.5470246 14
-7.4366922 2.5475984 1.2375956 15
-7.6226659 2.6127942 0.98470426 12
-7.5228829 2.5800595 0.69245237 11
-7.5312843 2.5844097 0.4152858 10
-7.3650289 2.528795 0.13525614 15
-1.8536347 0.63825744 -0.51505011 2
-2.1089306 0.7265746 -0.50614017 2
-2.5001786 0.86185658 -0.50614333 2
-3.1080627 1.0720122 -0.51466984 2
-4.0612283 1.401565 -0.52282006 4
-5.6859784 1.9633907 -0.52293527 3
-7.3229866 2.5300868 -0.4026891 11
-7.2888651 2.519722 -0.13260895 12
-7.407845 2.5623002 2.0886023 12
-7.3935199 2.55879 1.7960001 14
-7.3550582 2.5469167 1.5041311 14
-7.2364306 2.5072527 1.2055619 14
-7.3790507 2.55811 0.95423692 15
-7.3067713 2.5344813 0.67327809 14
-7.3193808 2.5402861 0.40403357 12
-7.1578078 2.48561 0.13159114 13
-1.8468347 0.64313567 -0.51375604 2
-2.1385856 0.74515265 -0.51401347 2
-2.5110588 0.87542593 -0.50900286 2
-3.0949759 1.0796018 -0.51310545 2
-4.0563111 1.4157327 -0.52282006 4
-5.6790905 1.9832267 -0.52293527 3
-7.1114197 2.4848111 -0.39147431 12
-7.072382 2.4725559 -0.12880778 12
-7.1937017 2.5163791 2.030406 11
-7.1914048 2.5169847 1.7487961 12
-7.1330299 2.497951 1.4602845 13
-7.0318832 2.4639077 1.1727468 13
-7.1686964 2.5132508 0.92803502 13
-7.1098719 2.4940212 0.65584695 15
-7.1125903 2.4963689 0.39304301 13
-6.9698482 2.4476357 0.12827519 15
-1.8263565 0.64316154 -0.50857961 2
-2.1129968 0.74451798 -0.50838971 2
-2.5218749 0.88908178 -0.51186246 2
-3.0958457 1.0920415 -0.51388764 2
-4.0513444 1.4298832 -0.52282006 4
-5.6815262 2.0063553 -0.52380681 3
-6.9238014 2.4464076 -0.38156357 14
-6.8846002 2.433908 -0.12552495 13
-7.0072918 2.4786592 1.9799691 10
-7.0034533 2.4786766 1.7049638 11
-6.9577036 2.4638515 1.4259697 11
-6.8277287 2.4191661 1.1399317 11
-6.9727802 2.4719298 0.90366113 14
-6.8898749 2.4438927 0.63623691 10
-6.906199 2.45104 0.38205245 10
-6.7728195 2.4050343 0.12478469 15
-1.8286501 0.65115285 -0.50987375 2
nan nan nan 0
nan nan nan 0
nan nan nan 0
-4.0416546 1.4423484 -0.52221072 3
-5.6838698 2.0295253 -0.52467841 3
-6.741241 2.4084046 -0.37191361 15
-6.7065907 2.3973455 -0.12241491 12
-6.8121395 2.4364161 1.9269458 8
-6.7883348 2.4292386 1.6543881 10
-6.7549772 2.4186313 1.3859358 10
-6.6332736 2.3763616 1.1086793 12
-6.763227 2.4242492 0.87745923 11
-6.7078257 2.4057121 0.62011307 9
-6.7190113 2.4110472 0.37210864 11
-6.6091132 2.3729134 0.12190505 14
nan nan nan 0
nan nan nan 0
nan nan nan 0
nan nan nan 0
-4.0365953 1.4564475 -0.52221072 4
-5.6861205 2.0527358 -0.52554995 4
-6.5919061 2.3810325 -0.36408937 10
-6.547729 2.3663673 -0.11965042 12
-6.6355391 2.3994114 1.8790956 9
-6.6194649 2.3949056 1.6150514 11
-6.5664997 2.3770392 1.3487614 12
-6.4531331 2.3372748 1.0797709 13
-6.5867543 2.3869722 0.85552275 12
-6.5214458 2.3645926 0.60355353 10
-6.5603523 2.3799953 0.36373487 9
-6.4316177 2.3345625 0.11876362 14
nan nan nan 0
nan nan nan 0
nan nan nan 0
-3.0376499 1.108016 -0.50606591 2
-4.03123 1.4712327 -0.52221072 4
-5.6972742 2.0803969 -0.52729303 4
-6.4189858 2.3452044 -0.35496104 10
-6.3465023 2.3199778 -0.11610842 13
-6.458869 2.3623316 1.8312452 11
-6.4413567 2.3572011 1.5734669 13
-6.3964267 2.342025 1.3153998 14
-6.2961326 2.3065493 1.0547689 14
-6.4241953 2.3547359 0.83541435 11
-6.3584146 2.3318834 0.58917284 8
-6.3734589 2.3386629 0.35379106 11
-6.2540712 2.2960937 0.11562219 14
nan nan nan 0
nan nan nan 0
nan nan nan 0
nan nan nan 0
-4.030726 1.487013 -0.52282006 3
-5.6946502 2.1019962 -0.52772886 5
-6.2421379 2.3053215 -0.34557194 9
-6.1789274 2.2832024 -0.11317115 13
-6.2965574 2.3279176 1.7872746 13
-6.2640195 2.3171306 1.5318825 14
-6.2363086 2.3081176 1.2839446 12
-6.1074243 2.2616282 1.0242978 12
-6.2484074 2.3150756 0.81347781 11
-6.1680903 2.2865422 0.57217747 10
-6.1920409 2.2966499 0.34410891 12
-6.0866609 2.2587798 0.11265527 15
nan nan nan 0
nan nan nan 0
nan nan nan 0
-3.0853703 1.1498913 -0.51545197 2
-4.0255108 1.5010737 -0.52282006 4
-5.6779451 2.1183794 -0.52685732 6
-6.0937152 2.2747104 -0.33774766 10
-6.0397882 2.2557812 -0.11075223 13
-6.1300426 2.2907093 1.7420107 10
-6.1098604 2.2843826 1.4959174 12
-6.0719099 2.2714016 1.2515363 14
-5.9792366 2.2379239 1.0039837 13
-6.0822721 2.2776983 0.79276001 12
-6.0201416 2.2556298 0.55910408 9
-6.0390487 2.263916 0.33599684 12
-5.9429984 2.2290919 0.11012468 17
nan nan nan 0
nan nan nan 0
nan nan nan 0
nan nan nan 0
-4.0202465 1.5151162 -0.52282006 4
-5.6798372 2.1417007 -0.52772886 9
-5.9409127 2.2413292 -0.32966256 11
-5.8728542 2.2168238 -0.10781497 11
-5.9909773 2.2626064 1.7045064 11
-5.960566 2.2523096 1.4610765 13
-5.9399834 2.245717 1.2258002 14
-5.8466711 2.2116051 0.9828884 10
-5.9211168 2.2409465 0.77265155 14
-5.891118 2.2307687 0.54777384 10
-5.8863621 2.2301426 0.32788476 11
-5.7388453 2.1753991 0.10645968 12
nan nan nan 0
nan nan nan 0
-2.4900589 0.94737667 -0.50995612 3
-3.0680368 1.1678892 -0.51388764 2
-4.0195713 1.5309068 -0.52342945 5
-5.6443996 2.1508722 -0.52511418 18
-5.7744231 2.2015736 -0.32079509 8
-5.7062683 2.1767294 -0.1048777 19
-5.847672 2.2318389 1.6657089 11
-5.8252258 2.2244368 1.429607 11
-5.785387 2.2103808 1.1952982 10
-5.7189775 2.1861522 0.9625743 15
-5.788106 2.2137353 0.75619924 10
-5.7158237 2.1872339 0.53208584 11
-5.7106714 2.1864049 0.31846428 17
-5.6938696 2.1811116 0.10576158 33
nan nan nan 0
nan nan nan 0
-2.5004811 0.96134698 -0.51281571 2
-3.0639415 1.1785915 -0.51388764 3
-4.0142031 1.5449283 -0.52342945 5
-5.5485401 2.1365538 -0.51683432 5
-5.6968126 2.1947901 -0.31688294 20
-5.6379938 2.1732595 -0.10375462 11
-5.7046556 2.200099 1.6269113 10
-5.7083359 2.2026632 1.4026333 14
-5.6906366 2.1969745 1.1771876 13
-5.6283879 2.1740711 0.94851071 5
-5.6923904 2.1999352 0.74462163 15
-5.6152382 2.1712449 0.52337021 7
-5.6890335 2.2009206 0.31767923 16
-5.5743294 2.1576636 0.10366729 4
nan nan nan 0
nan nan nan 0
nan nan nan 0
nan nan nan 0
-4.0087857 1.5589311 -0.52342945 5
-5.4017882 2.1017256 -0.50376093 3
nan nan nan 0
-5.5092559 2.1457534 -0.10150848 4
-5.5664344 2.1691425 1.589407 9
-5.6052885 2.18541 1.3790313 5
-5.5914788 2.1811502 1.1581237 4
-5.5425544 2.1631804 0.93522841 6
-5.5829759 2.1800792 0.73121607 5
-5.5241151 2.158206 0.51552624 6
nan nan nan 0
-5.464335 2.1370494 0.10174753 49
nan nan nan 0
nan nan nan 0
nan nan nan 0
-3.0648322 1.2035632 -0.51545197 2
-4.0033197 1.5729148 -0.52342945 4
-5.3017058 2.0841227 -0.49504536 4
-5.4908357 2.1595769 -0.30618978 6
-5.4040394 2.1265285 -0.099694289 10
-5.4195118 2.1337094 1.5493162 9
-5.4344368 2.140681 1.3385708 3
-5.538167 2.1826582 1.148592 9
-5.397141 2.1281664 0.91178918 8
-5.4876189 2.1649499 0.71963841 8
-5.3497553 2.1116397 0.49983817 5
nan nan nan 0
-5.363853 2.1193686 0.10000229 54
nan nan nan 0
nan nan nan 0
nan nan nan 0
-3.0789738 1.2215388 -0.51858068 2
-3.9978046 1.5868796 -0.52342945 5
-5.2018137 2.0658472 -0.48632979 5
-5.3626161 2.1307917 -0.29940873 5
-5.2757978 2.0973616 -0.09744814 9
-5.3088093 2.111558 1.5195714 10
-5.3816628 2.1416233 1.3273317 8
-5.3617878 2.1347983 1.1133239 23
-5.2658043 2.097647 0.89069378 8
-5.3693867 2.1399953 0.70501411 10
-5.2914581 2.1100068 0.49504462 7
-5.2436452 2.0920019 0.29386637 5
-5.2449894 2.0935993 0.09790799 62
-1.8245999 0.73015714 -0.51634425 3
nan nan nan 0
nan nan nan 0
nan nan nan 0
-3.9968472 1.6026716 -0.52403873 5
-5.1021147 2.0469 -0.47761422 7
-5.2114968 2.0918388 -0.29132366 6
-5.1431875 2.0654624 -0.095115609 7
-5.1804023 2.0814579 1.4846536 8
-5.2837458 2.1240516 1.3048536 6
-5.2450132 2.1095448 1.0904474 11
-5.1301665 2.0643938 0.86881709 5
-5.2283788 2.104975 0.68734306 14
-5.2378583 2.109854 0.4906868 5
-5.1714745 2.084163 0.29020289 4
-5.0892811 2.0520706 0.095115609 56
-1.7638305 0.71299177 -0.49952096 3
nan nan nan 0
nan nan nan 0
nan nan nan 0
-3.9912283 1.6166135 -0.52403873 5
-5.0395422 2.0422482 -0.47238487 9
-5.1023622 2.0687425 -0.28558585 5
-5.0247631 2.0383015 -0.09304224 13
-5.0075183 2.0323238 1.4368032 3
-5.1679606 2.098491 1.27788 7
-5.1148391 2.0779603 1.0647113 4
-5.0451531 2.0506754 0.85553479 6
-5.1014733 2.0746055 0.67150003 8
-5.096664 2.0736861 0.47804922 11
-5.0762987 2.066433 0.28523093 4
-4.9802279 2.0283382 0.093195841 49
nan nan nan 0
nan nan nan 0
nan nan nan 0
nan nan nan 0
-3.9901543 1.6324149 -0.52464807 7
-4.8387728 1.9805797 -0.45408213 15
-4.9195213 2.0146339 -0.27567512 10
-4.8557072 1.9894905 -0.090018585 6
-4.9780488 2.0406313 1.430337 6
-5.0073438 2.0536609 1.2396672 6
-5.0031137 2.0529463 1.042788 7
-4.8141041 1.9763709 0.81725061 16
-4.9840269 2.0471473 0.65687573 6
-4.9143248 2.01952 0.46148968 7
-4.921277 2.0233812 0.2768572 4
-4.774313 1.9639312 0.089443579 83
nan nan nan 0
nan nan nan 0
-2.4488485 1.0113429 -0.50709653 2
-3.0340126 1.253628 -0.51388764 2
-3.9841442 1.6470284 -0.52464807 7
-4.7302194 1.9564193 -0.44449496 10
-4.7875328 1.9811029 -0.26863328 29
-4.7790971 1.9785893 -0.088722728 32
-4.8589811 2.0126555 1.3980056 14
-4.8107471 1.99366 1.1924632 25
-4.7915244 1.9866738 0.9998945 30
-4.7703352 1.978864 0.81100017 24
-4.7610593 1.9759902 0.62823641 30
-4.7780848 1.9840339 0.44928783 35
-4.775496 1.9839363 0.26900679 32
-4.7440009 1.9718229 0.089007266 59
nan nan nan 0
-2.0768347 0.8657788 -0.51063919 2
nan nan nan 0
-3.0478482 1.2718182 -0.51701629 2
-3.9783711 1.6609259 -0.52464807 7
-4.6360345 1.9364433 -0.43621519 10
-4.7391243 1.9804747 -0.26628599 22
-4.6983643 1.9644045 -0.087340489 13
-4.78509 2.0016463 1.3786069 33
-4.7722983 1.9972739 1.1845958 29
-4.7483411 1.9882215 0.99226904 23
-4.6722975 1.957339 0.79537386 8
-4.7449789 1.9887606 0.62701774 19
-4.7389755 1.9872171 0.44623742 17
-4.7224984 1.9812768 0.26639 16
-4.6356745 1.9458095 0.087087497 10
-1.7847362 0.75096709 -0.50857961 2
nan nan nan 0
-2.4598222 1.0360352 -0.51090926 2
-3.04339 1.2824495 -0.51701629 2
-3.972549 1.6748027 -0.52464807 8
-4.5604057 1.9235771 -0.42967847 10
-4.6447754 1.9601191 -0.2613306 11
-4.5993667 1.9419023 -0.085612684 11
-4.6935387 1.9826281 1.354035 13
-4.6890059 1.9816778 1.1654894 10
-4.6509566 1.9665539 0.97320527 10
-4.5835671 1.9390029 0.78131032 9
-4.6374626 1.962757 0.61361212 8
-4.6219296 1.957134 0.43577874 10
-4.6281996 1.9607416 0.2614181 9
-4.5414033 1.9249051 0.085429527 10
-1.786549 0.75908101 -0.50987375 2
-2.0617728 0.87644476 -0.50838971 2
-2.4787748 1.0542202 -0.51567525 2
-3.0479834 1.2969322 -0.51858068 2
-3.9666786 1.6886593 -0.52464807 8
-4.480341 1.9082549 -0.42270601 11
-4.5506287 1.9391299 -0.25637525 10
-4.5143814 1.9246153 -0.084144048 11
-4.6066232 1.964891 1.3307565 12
-4.5924387 1.9597881 1.1430113 9
-4.5402393 1.9384491 0.95128191 9
-4.5041051 1.9239513 0.76880938 9
-4.5575676 1.9477286 0.60386258 8
-4.5280514 1.9360493 0.42749891 9
-4.5341034 1.9395729 0.25644618 9
-4.4519277 1.9053396 0.08385881 11
-1.8105191 0.77673745 -0.51763833 2
-2.0542238 0.8817147 -0.50726491 2
-2.4750798 1.0628662 -0.51567525 2
-3.0298254 1.3017155 -0.51623416 2
-3.9607599 1.7024953 -0.52464807 9
-4.4004402 1.8923978 -0.41573355 10
-4.4566851 1.9175074 -0.25141987 10
-4.4295735 1.9067588 -0.08267542 12
-4.5198889 1.9465712 1.307478 13
-4.500556 1.9391767 1.1216571 9
-4.4568205 1.9212543 0.93507767 11
-4.4248047 1.9083688 0.75630838 9
-4.4778352 1.9321671 0.59411305 8
-4.4526701 1.9222305 0.42096224 10
-4.4585466 1.9256905 0.25252098 10
-4.3810024 1.8931057 0.082637139 12
-1.7900696 0.77537411 -0.5124619 2
-2.0466635 0.88694286 -0.50614017 2
-2.4398317 1.0578321 -0.50900286 2
-3.0252633 1.3122836 -0.51623416 3
-3.954793 1.7163106 -0.52464807 11
-4.3069987 1.870055 -0.40745372 12
-4.3858485 1.9052006 -0.24776855 11
-4.363286 1.896305 -0.081552342 12
-4.4377689 1.9295965 1.2854927 12
-4.4178104 1.9218351 1.1025507 9
-4.3825793 1.9074187 0.92077988 11
-4.3547254 1.8961999 0.74537009 9
-4.3937173 1.9140906 0.58375412 9
-4.3865738 1.9118896 0.41529712 10
-4.3877211 1.913301 0.24885747 10
-4.3147998 1.8823993 0.081502736 12
-1.7917773 0.78355306 -0.51375604 2
-2.0569448 0.89993984 -0.50951445 2
-2.4541099 1.0742149 -0.51281571 2
-3.0025694 1.3149116 -0.51310545 2
-3.9442322 1.7281133 -0.52403873 13
-4.2593875 1.8670807 -0.40353173 24
-4.3105793 1.8904172 -0.2438564 12
-4.2742367 1.8753687 -0.079997323 14
-4.3469787 1.9081898 1.260921 13
-4.3397017 1.905899 1.0845683 9
-4.3039956 1.8911138 0.9055289 10
-4.2712226 1.8776031 0.73208779 10
-4.3188672 1.899447 0.57461393 8
-4.3023677 1.8930867 0.40788886 10
-4.3033266 1.8944052 0.24440892 10
-4.2441502 1.869239 0.080281064 24
-1.7846129 0.78785223 -0.5124619 2
-2.0582478 0.90908289 -0.51063919 2
-2.4458559 1.080791 -0.51186246 2
-3.0250616 1.3373655 -0.51779848 2
-3.9336374 1.7398633 -0.52342945 9
-4.2482896 1.8799217 -0.40309593 17
-4.2445993 1.8791748 -0.24046591 26
-4.2493806 1.8821787 -0.079651766 34
-4.2652245 1.8900868 1.2389357 17
-4.2439442 1.8815429 1.0620902 14
-4.2345538 1.8782643 0.89218426 24
-4.2420721 1.882485 0.72818124 31
-4.2396379 1.8822906 0.56486434 14
-4.2456603 1.8858516 0.4030953 33
-4.2464957 1.8871101 0.24153042 31
-4.2375994 1.8840425 0.080281064 69
-1.781852 0.79407686 -0.5124619 2
-2.0595114 0.91824573 -0.51176393 2
-2.4465508 1.0913216 -0.51281571 2
-3.0068457 1.3418791 -0.51545197 2
-3.9230087 1.7515603 -0.52282006 9
-4.2417016 1.8947396 -0.40309593 13
-4.2334557 1.8919426 -0.24020509 24
-4.2382212 1.8949598 -0.079565376 26
-4.2453742 1.8990473 1.2350559 34
-4.2417979 1.8983359 1.0632141 34
-4.2324514 1.8950399 0.89313745 24
-4.2219539 1.8912244 0.72583729 20
-4.2375703 1.8991079 0.56547374 34
-4.2390518 1.9006602 0.4030953 27
-4.2353272 1.8998781 0.24126875 24
-4.2264357 1.8967758 0.080193803 21
-1.7834738 0.80227321 -0.51375604 2
-2.0607364 0.92742866 -0.51288873 2
-2.4427266 1.0998551 -0.51281571 2
-3.0021434 1.3523667 -0.51545197 2
-3.9078217 1.7611655 -0.52160138 9
-4.2396026 1.9115818 -0.40353173 13
-4.2268257 1.9067086 -0.24020509 25
-4.2315807 1.9097424 -0.079565376 30
-4.225513 1.907892 1.2311761 30
-4.226265 1.9091194 1.0609663 29
-4.2213383 1.907781 0.89218426 25
-4.2243261 1.9100195 0.72739989 22
-4.2263937 1.9118428 0.56486434 30
-4.2323909 1.9154457 0.4030953 28
-4.2286696 1.9146507 0.24126875 24
-4.2243433 1.9135802 0.080281064 20
-1.7806627 0.80849379 -0.51375604 2
-2.0574865 0.93461639 -0.51288873 2
-2.4388723 1.108375 -0.51281571 2
nan nan nan 0
-3.9016504 1.7747955 -0.52160138 5
-4.232904 1.9263691 -0.40353173 13
-4.2246885 1.9235203 -0.24046591 25
-4.2294378 1.9265741 -0.079651766 29
-4.2232232 1.9246333 1.2324693 30
-4.2151423 1.9218391 1.0598423 29
-4.214653 1.9225047 0.89218426 25
-4.222126 1.9268038 0.72818124 24
-4.2242088 1.9286453 0.56547374 31
-4.2302098 1.9322774 0.4035311 29
-4.2265015 1.931475 0.24153042 18
-4.2221842 1.930393 0.080368333 20
-1.7778295 0.81470454 -0.51375604 3
-2.05864 0.94382292 -0.51401347 2
-2.43945 1.1189278 -0.51376885 2
-4.2089891 1.93147 -0.72742087 2
-3.8999412 1.7904745 -0.52221072 5
-4.2261539 1.9411328 -0.40353173 14
-4.2224851 1.9403404 -0.24072671 26
-4.2272296 1.943414 -0.079738148 29
-4.2208672 1.9413816 1.2337626 31
-4.2172599 1.9406142 1.0620902 29
-4.2123747 1.9392573 0.89313745 27
-4.2198606 1.9435962 0.72896254 25
-4.2219582 1.9454558 0.56608307 30
-4.2234392 1.9470317 0.4035311 29
-4.2197337 1.9462165 0.24153042 17
-4.2154202 1.9451194 0.080368333 21
-1.7749749 0.82090539 -0.51375604 2
-2.0553329 0.95100319 -0.51401347 2
-2.4355292 1.1274363 -0.51376885 2
nan nan nan 0
-3.8936677 1.804077 -0.52221072 5
-4.2238708 1.9579676 -0.40396747 13
-4.2156863 1.9550678 -0.24072671 25
-4.2249546 1.9602621 -0.079824544 29
-4.2140646 1.9561033 1.2337626 31
-4.2148795 1.9573756 1.0632141 29
-4.2100315 1.9560176 0.89409065 23
-4.2130504 1.9583143 0.72896254 24
-4.2196422 1.962274 0.56669247 30
-4.2211337 1.9638637 0.40396684 29
-4.2174416 1.9630414 0.24179211 19
-4.2131371 1.9619327 0.080455594 21
-1.767722 0.82505351 -0.5124619 3
-2.0520005 0.95817178 -0.51401347 2
-2.4360259 1.1380085 -0.51472205 2
-4.2043505 1.9649888 -0.72898519 2
-3.8918421 1.8197595 -0.52282006 5
-4.2170105 1.9726998 -0.40396747 13
-4.2133589 1.9718879 -0.24098752 24
-4.2180862 1.974998 -0.079824544 29
-4.211585 1.9728501 1.2350559 29
-4.2124324 1.9741435 1.064338 29
-4.2076221 1.9727851 0.89504379 24
-4.21066 1.975106 0.7297439 23
-4.2127666 1.9769913 0.56669247 31
-4.2187614 1.980703 0.40440264 29
-4.2105637 1.9777511 0.24179211 20
-4.2107873 1.9787533 0.080542848 21
-1.7648313 0.83121896 -0.5124619 2
-2.0442367 0.96325225 -0.51288873 2
-2.4320388 1.1465049 -0.51472205 2
-4.206399 1.9838661 -0.73054957 2
-3.8854663 1.8333335 -0.52282006 5
-4.2146034 1.9895343 -0.40440327 13
-4.2109656 1.9887158 -0.24124834 25
-4.2156868 1.9918454 -0.079910934 28
-4.2090387 1.9896032 1.2363491 29
-4.2099199 1.9909186 1.0654619 31
-4.2007098 1.9874604 0.89504379 26
-4.2037401 1.989792 0.7297439 25
-4.2103252 1.9938084 0.56730175 31
-4.2163229 1.9975499 0.40483844 26
-4.2081461 1.9945753 0.24205379 18
-4.2083716 1.9955816 0.080630116 21
-1.761919 0.83737433 -0.5124619 2
-2.0364618 0.96828997 -0.51176393 2
-2.419157 1.1507704 -0.51281571 2
-4.1949887 1.9964149 -0.72976738 2
-3.8790431 1.8468852 -0.52282006 6
-4.2121301 2.0063758 -0.40483907 13
-4.2039976 2.0034025 -0.24124834 25
-4.2132211 2.0087004 -0.079997323 29
-4.2064276 2.0063627 1.2376424 30
-4.2073421 2.0077004 1.0665858 31
-4.1981764 2.004226 0.89599699 25
-4.2012248 2.0065818 0.73052514 24
-4.2078171 2.0106325 0.56791109 30
-4.2138186 2.0144038 0.40527421 28
-4.2056627 2.0114067 0.24231547 18
-4.2013798 2.0102594 0.080630116 20
-1.7589853 0.84351945 -0.5124619 2
-2.0286772 0.97328544 -0.51063919 2
-2.4062755 1.15496 -0.51090926 2
-4.1924467 2.0131838 -0.73054957 2
-3.8725727 1.8604143 -0.52282006 6
-4.20959 2.0232246 -0.40527484 13
-4.2014785 2.0202289 -0.24150915 25
-4.2106881 2.025562 -0.080083713 29
-4.2037501 2.023128 1.2389357 28
-4.2003083 2.0223744 1.0665858 29
-4.1955767 2.0209985 0.89695019 24
-4.1986442 2.0233788 0.73130643 24
-4.2052436 2.0274637 0.56852049 30
-4.2067614 2.0291004 0.40527421 26
-4.198616 2.0260749 0.24231547 18
-4.1988397 2.0270863 0.080717377 23
-1.7603778 0.85175788 -0.51375604 2
-2.0252674 0.98036093 -0.51063919 2
-2.3933942 1.1590737 -0.50900286 2
-4.1898375 2.029959 -0.73133171 2
-3.8705208 1.8760854 -0.52342945 5
-4.2025023 2.0379064 -0.40527484 13
-4.1988935 2.0370617 -0.24176994 24
-4.2035923 2.0402477 -0.080083713 29
-4.1966629 2.0377896 1.2389357 29
-4.1976051 2.0391526 1.0677097 29
-4.1929116 2.0377769 0.89790338 25
-4.1959972 2.0401821 0.73208779 23
-4.2026038 2.0443013 0.56912982 30
-4.2041311 2.0459518 0.40570998 28
-4.1960068 2.0429039 0.24257714 18
-4.1917381 2.0417306 0.080717377 21
-1.757244 0.85820425 -0.51375604 2
-2.0216606 0.98777723 -0.51063919 2
-2.3847203 1.1656828 -0.50804973 2
-2.9756761 1.4551933 -0.51858068 2
-3.8636189 1.890259 -0.52342945 5
-4.1994781 2.0554852 -0.40571058 13
-4.1913991 2.0524378 -0.24176994 24
-4.2005758 2.0578406 -0.080170102 30
-4.1935034 2.0552831 1.2402289 31
-4.194478 2.056669 1.0688336 29
-4.1898208 2.0552926 0.89885652 26
-4.192925 2.0577233 0.73286909 24
-4.1950827 2.059691 0.56912982 30
-4.2010751 2.0635428 0.40614575 30
-4.1929727 2.0604718 0.24283883 18
-4.1887131 2.0592859 0.080804639 22
-1.7542378 0.86433303 -0.51375604 3
-2.0138302 0.99267411 -0.50951445 2
-2.3806367 1.1739999 -0.50804973 2
-2.9572921 1.4590166 -0.51623416 2
-3.8569968 1.903734 -0.52342945 6
-4.1922774 2.0701315 -0.40571058 13
-4.1886859 2.0692675 -0.24203075 26
-4.1978488 2.0747056 -0.080256492 29
-4.1906323 2.0720494 1.2415221 28
-4.1872735 2.0712979 1.0688336 29
-4.1870198 2.0720823 0.89980972 26
-4.1901417 2.0745378 0.73365039 23
-4.1923141 2.0765245 0.5697391 30
-4.1983094 2.0804064 0.40658155 29
-4.1857548 2.0750954 0.24283883 17
-4.1859746 2.076122 0.0808919 21
-1.7512099 0.87045115 -0.51375604 3
-2.0147154 1.0018669 -0.51063919 2
-2.3765242 1.1823027 -0.50804973 2
-2.9698658 1.4781324 -0.51936287 2
-3.850328 1.9171859 -0.52342945 6
-4.1894841 2.0869737 -0.40614638 13
-4.1859069 2.0861034 -0.24229157 24
-4.1950555 2.0915771 -0.080342889 29
-4.1876965 2.0888207 1.2428154 31
-4.1843772 2.0880771 1.0699575 29
-4.1841531 2.0888777 0.90076292 25
-4.1872931 2.0913579 0.73443168 23
-4.1894798 2.093364 0.5703485 30
-4.1954775 2.097276 0.40701732 30
-4.1829519 2.0919273 0.24310051 18
-4.183176 2.092952 0.080979161 23
-1.752478 0.87872344 -0.51505011 3
-2.0112059 1.0088935 -0.51063919 2
-2.3723826 1.1905911 -0.50804973 2
-2.9382076 1.4751949 -0.51466984 2
-3.8436124 1.9306145 -0.52342945 7
-4.186625 2.1038218 -0.40658218 13
-4.1830602 2.1029451 -0.24255238 26
-4.1877289 2.1062076 -0.080342889 29
-4.1803794 2.1034255 1.2428154 30
-4.1814141 2.104861 1.0710814 27
-4.1812201 2.1056781 0.90171617 23
-4.1799674 2.1059618 0.73443168 24
-4.1865788 2.1102092 0.57095784 30
-4.1881309 2.111908 0.40701732 31
-4.1800818 2.1087644 0.2433622 16
-4.1803083 2.1097939 0.081066422 22
-1.7537098 0.88701522 -0.51634425 2
-2.0120189 1.0181073 -0.51176393 2
-2.3725913 1.2010818 -0.50900286 2
-2.9418516 1.4899046 -0.51623416 2
-3.8368499 1.9440193 -0.52342945 6
-4.1836987 2.1206751 -0.40701795 13
-4.1801472 2.119792 -0.24281317 25
-4.1848092 2.1230743 -0.080429271 28
-4.1773186 2.1201911 1.2441087 31
-4.1783857 2.12165 1.0722053 29
-4.1738443 2.1202605 0.90171617 26
-4.1769938 2.1227775 0.73521304 23
-4.1791878 2.1248102 0.57095784 31
-4.1851726 2.1287725 0.40745309 26
-4.1771455 2.1256073 0.24362385 17
-4.1773729 2.1266413 0.081153691 21
-1.7506027 0.89313138 -0.51634425 2
