# .PCD v0.7 - Point Cloud Data file format
VERSION 0.7
FIELDS x y z intensity
SIZE 4 4 4 4
TYPE F F F F
COUNT 1 1 1 1
WIDTH 1400
HEIGHT 1
VIEWPOINT 0 0 0 1 0 0 0
POINTS 1400
DATA ascii
-8.797493 0.8967188 2.3575988 12
-10.172809 1.0386972 2.3500853 13
-10.921874 1.1171069 2.1246567 8
-11.160763 1.143509 1.7688866 11
-10.879256 1.1165853 1.3381253 13
-11.082423 1.1393918 0.97135073 33
-11.074449 1.1405253 0.58145243 23
-11.072793 1.1423079 0.19363444 29
-1.9403089 0.20188044 -0.5124619 2
-2.2137203 0.2307182 -0.50501537 2
-2.6400273 0.27561453 -0.50804973 2
-3.2207971 0.33681422 -0.5068481 2
-4.2087293 0.44086966 -0.51489854 3
-6.0469737 0.63449508 -0.52860039 2
-10.53086 1.1068372 -0.55108941 5
-11.140016 1.1728278 -0.19290932 14
-8.7943096 0.92742229 2.3575988 12
-10.164275 1.0736887 2.3489614 13
-11.235177 1.1887947 2.1866138 8
-11.574144 1.2267035 1.8352979 9
-11.067758 1.1749868 1.36189 34
-11.167533 1.1875504 0.97919476 30
-11.139911 1.1865793 0.58511597 18
-11.998321 1.2801318 0.20995244 48
-1.9347905 0.20813558 -0.51116782 2
-2.2177453 0.23896608 -0.50614017 2
-2.6341689 0.28430155 -0.50709653 2
-3.2196016 0.34805486 -0.5068481 2
-4.2022309 0.45502394 -0.5142892 3
-6.0447221 0.65559912 -0.52860039 2
-10.521969 1.1430508 -0.55082858 6
-12.005589 1.3063437 -0.2080276 23
-8.7910185 0.9581145 2.3575988 12
-10.160466 1.1091622 2.3489614 6
-11.640814 1.2728196 2.2666817 7
-11.991985 1.3133351 1.9024907 9
-11.995953 1.3158884 1.4770564 26
-12.029776 1.3217236 1.055456 32
-12.019148 1.3226789 0.63169497 23
-11.988811 1.3214581 0.20986517 52
-1.9340521 0.21488799 -0.51116782 2
-2.2168977 0.24670599 -0.50614017 2
-2.6331604 0.29349479 -0.50709653 2
-3.2183671 0.35929123 -0.5068481 2
-4.2006168 0.46968967 -0.5142892 3
-6.0423965 0.67669511 -0.52860039 2
-10.503028 1.1781026 -0.55004621 6
-12.020829 1.3504755 -0.20837314 23
-8.7876205 0.9887951 2.3575988 12
-10.15169 1.1440763 2.3478374 12
nan nan nan 0
-12.448615 1.4073362 1.9759338 9
-12.015942 1.3605458 1.4801031 22
-12.039937 1.3653911 1.0567634 15
-12.014459 1.3646256 0.63169497 13
-12.346729 1.4045483 0.21623529 20
-1.9332904 0.22163779 -0.51116782 2
-2.216023 0.25444293 -0.50614017 2
-2.6321199 0.30268446 -0.50709653 2
-3.2170932 0.37052324 -0.5068481 2
-4.1989517 0.4843497 -0.5142892 3
-6.054842 0.69949776 -0.52990776 2
-10.498852 1.2147578 -0.55004621 7
-12.721215 1.4741439 -0.22064056 4
-8.7793169 1.0189067 2.3563056 11
-10.142797 1.178943 2.3467135 13
-12.016799 1.3988925 2.3419836 10
-12.865486 1.4999653 2.0431266 8
-12.173784 1.4214746 1.5002115 5
-12.673293 1.4820421 1.1129788 4
-12.659283 1.4826432 0.66597497 3
-13.066671 1.5326681 0.22897556 56
-1.932465 0.22872216 -0.51116782 2
-2.2150757 0.26256335 -0.50614017 2
-2.6358671 0.31290826 -0.50804973 2
-3.2206173 0.38289499 -0.50763023 2
-4.2070045 0.50090992 -0.51550794 3
-6.0769672 0.72463405 -0.53208661 2
-10.489371 1.2526377 -0.54978538 6
-13.271683 1.5872501 -0.23031627 14
-8.7755241 1.0510777 2.3563056 12
-10.138407 1.2161103 2.3467135 12
-12.011592 1.442927 2.3419836 9
-13.355129 1.6066878 2.1220388 9
-12.951901 1.5604708 1.5970976 12
-13.29086 1.6036626 1.167887 10
-13.248614 1.6009114 0.69737661 11
-13.552306 1.6400082 0.2376145 54
-1.9316548 0.23546632 -0.51116782 2
-2.2141457 0.27029377 -0.50614017 2
-2.6347589 0.32210726 -0.50804973 2
-3.2192612 0.3941347 -0.50763023 2
-4.2101564 0.51619601 -0.51611727 5
-6.0645127 0.74462813 -0.53121507 2
-10.484935 1.2892449 -0.54978538 4
-13.796971 1.6989428 -0.23956002 10
-8.771801 1.0817035 2.3563056 12
-10.129265 1.2508954 2.3455896 13
-12.011353 1.4854488 2.3429368 6
-13.878762 1.7188514 2.2064204 8
-13.448725 1.6679758 1.6592511 12
-13.809138 1.7151233 1.2140795 11
-13.758262 1.7112427 0.72459126 9
-14.097157 1.7558995 0.2473006 53
-1.9356132 0.24280876 -0.5124619 2
-2.2131886 0.27802095 -0.50614017 2
-2.6336186 0.33130231 -0.50804973 2
-3.2227657 0.40598688 -0.50841242 2
-4.2132525 0.53151017 -0.51672655 5
-6.0668187 0.76641697 -0.53165084 2
-10.475416 1.3252095 -0.54952455 4
-14.336514 1.8162063 -0.24906294 10
-8.767972 1.1123163 2.3563056 12
-10.124837 1.2862455 2.3455896 13
-11.986617 1.5248896 2.339124 9
-14.460555 1.8421787 2.3001776 8
-13.979409 1.7833633 1.7256699 10
-14.356441 1.834008 1.2628868 10
-14.316823 1.8314866 0.75442278 8
-14.690948 1.8819529 0.25785929 53
-1.9347539 0.24956383 -0.5124619 2
-2.2122047 0.28574476 -0.50614017 2
-2.6324461 0.34049335 -0.50804973 2
-3.2213287 0.41723391 -0.50841242 2
-4.2212148 0.5474906 -0.51794529 4
-6.0492873 0.7856648 -0.53034353 2
-10.470727 1.3617675 -0.54952455 4
-14.924973 1.9437124 -0.25942975 12
-8.7640362 1.1429155 2.3563056 12
-10.115454 1.3209491 2.3444655 13
-11.976355 1.5660849 2.3381708 9
nan nan nan 0
-14.563573 1.9095726 1.7987914 10
-15.021599 1.9722958 1.3221526 15
-14.934111 1.9634603 0.78739446 10
-15.095676 1.9873824 0.26510203 68
-1.9290831 0.25568131 -0.51116782 2
-2.2208526 0.29474697 -0.50838971 2
-2.6312413 0.34968022 -0.50804973 2
-3.2198527 0.42847595 -0.50841242 2
-4.2192779 0.56222206 -0.51794529 6
-6.0366335 0.80545843 -0.52947193 2
-10.46591 1.3983089 -0.54952455 4
-15.111348 2.0216522 -0.26279899 3
-8.7599926 1.1735007 2.3563056 12
-10.110781 1.3562504 2.3444655 14
-11.961087 1.6065739 2.3362646 10
-14.584388 1.9615184 2.3220544 9
-15.225711 2.0504785 1.8816626 8
-15.162711 2.0446885 1.3352259 2
-15.125095 2.042304 0.79786164 2
-16.049755 2.1700108 0.28203088 25
-1.9281788 0.2624135 -0.51116782 2
-2.2294648 0.30381298 -0.51063919 2
-2.6300046 0.35886285 -0.50804973 2
-3.2183373 0.43971273 -0.50841242 2
-4.2172899 0.57694668 -0.51794529 4
-6.0288506 0.82584935 -0.52903616 2
-10.456017 1.4341546 -0.54926378 3
-16.490971 2.2648454 -0.28698823 11
-8.7558432 1.2040716 2.3563056 12
-10.105986 1.3915354 2.3444655 14
-11.950543 1.6476457 2.3353114 10
-14.552992 2.0090389 2.3181479 6
-15.936195 2.2028246 1.9706272 8
-16.48271 2.2812998 1.4524504 5
nan nan nan 0
-16.581827 2.3009174 0.29154244 56
-1.9272512 0.26914251 -0.51116782 2
-2.2428653 0.31361741 -0.51401347 2
-2.6335967 0.36872157 -0.50900286 2
-3.2167828 0.45094413 -0.50841242 2
-4.21525 0.59166425 -0.51794529 6
-6.0259309 0.84688896 -0.52903616 2
-10.450948 1.4706442 -0.54926378 3
-16.85424 2.3747077 -0.29346749 3
-8.7563705 1.2353027 2.3575988 12
-10.101067 1.4268034 2.3444655 14
-11.939859 1.6886635 2.3343582 10
-14.541 2.0591335 2.3173666 7
-16.675274 2.3643343 2.0632479 7
-17.179855 2.438936 1.5147668 3
nan nan nan 0
-17.578415 2.5017776 0.30925661 22
-1.9262999 0.27586821 -0.51116782 3
-2.2272894 0.31937009 -0.51063919 2
-2.6322935 0.37791234 -0.50900286 2
-3.2151892 0.46217003 -0.50841242 2
-4.2131591 0.60637462 -0.51794529 5
-6.0278683 0.86862862 -0.52947193 2
-10.44575 1.507116 -0.54926378 4
-18.067978 2.6100724 -0.31480587 5
-8.7520046 1.2658604 2.3575988 13
-10.096025 1.462054 2.3444655 14
-11.933891 1.7303311 2.3343582 10
-14.519062 2.1077499 2.3150225 7
-17.388855 2.5274603 2.1528218 6
-17.999317 2.6193988 1.5879776 6
-18.037819 2.6282167 0.9532994 3
-18.460012 2.6930232 0.32496378 43
-1.9301037 0.28329194 -0.5124619 2
-2.2117007 0.32501781 -0.50726491 2
-2.6309583 0.38709846 -0.50900286 2
-3.2135563 0.47339037 -0.50841242 2
-4.2061067 0.6203534 -0.51733595 4
-6.029727 0.89039212 -0.52990776 2
-10.440426 1.5435692 -0.54926378 5
-18.953871 2.8056235 -0.33044252 7
-8.7475328 1.2964031 2.3575988 12
-10.095679 1.4980019 2.3455896 14
-11.927779 1.7719777 2.3343582 10
-14.511616 2.1584182 2.3150225 8
nan nan nan 0
-18.96059 2.8269117 1.6738261 7
-18.892761 2.8201697 0.99909341 5
-19.513531 2.9163151 0.34372512 40
-1.9291031 0.2900275 -0.5124619 2
-2.1961002 0.33056068 -0.50389069 2
-2.6344447 0.39701128 -0.50995612 2
-3.2118843 0.4846049 -0.50841242 2
-4.2088232 0.635773 -0.51794529 3
-6.0265822 0.91143441 -0.52990776 2
-10.434974 1.5800036 -0.54926378 2
-20.090689 3.0456033 -0.35048503 8
-8.7477293 1.3276544 2.3588922 13
-10.090388 1.5332334 2.3455896 14
-11.921521 1.8136024 2.3343582 10
-14.499111 2.2083166 2.3142412 8
nan nan nan 0
-20.206205 3.0847645 1.7849497 8
-20.180922 3.0845089 1.0679151 7
-20.521227 3.1401873 0.36170113 51
-1.9280789 0.29675958 -0.5124619 2
-2.1804876 0.33599856 -0.50051636 2
-2.6330428 0.40620476 -0.50995612 2
-3.2101731 0.49581349 -0.50841242 2
-4.2065783 0.65046066 -0.51794529 5
-6.0282865 0.9332276 -0.53034353 2
-10.429396 1.6164188 -0.54926378 2
nan nan nan 0
-8.743041 1.3581816 2.3588922 13
-10.089789 1.5691948 2.3467135 14
-11.915118 1.8552053 2.3343582 10
-14.486434 2.2581537 2.3134599 8
-18.626505 2.9068403 2.3100333 6
-21.263229 3.3221273 1.8795135 4
nan nan nan 0
-22.130146 3.4654865 0.39032304 28
-1.9270313 0.30348802 -0.5124619 2
-2.2033637 0.34740171 -0.50614017 2
-2.6364572 0.41615862 -0.51090926 2
-3.2084229 0.50701606 -0.50841242 2
-4.2042823 0.66514039 -0.51794529 4
-6.024992 0.95426452 -0.53034353 2
-10.42369 1.6528145 -0.54926378 3
-22.730211 3.6082439 -0.39704934 5
-8.7382469 1.3886921 2.3588922 13
-10.089062 1.6051706 2.3478374 14
-11.913417 1.8975577 2.3353114 10
-14.46871 2.3071518 2.3118973 8
-18.601543 2.9694943 2.3082051 7
-22.495901 3.5952044 1.9897656 4
-22.136005 3.5416493 1.1728487 7
-23.445784 3.7554042 0.41379651 32
-1.9259602 0.31021279 -0.5124619 2
-2.2069471 0.35586628 -0.50726491 2
-2.6349883 0.42535901 -0.51090926 2
-3.2115088 0.51900029 -0.50919461 2
-4.2068334 0.68060458 -0.51855469 5
-6.0216246 0.97528988 -0.53034353 2
-10.422786 1.6899891 -0.54952455 2
-24.118923 3.9150517 -0.42158416 5
-8.733346 1.419186 2.3588922 9
-10.088206 1.6411606 2.3489614 14
-11.90672 1.9391317 2.3353114 10
-14.455693 2.356848 2.311116 8
-18.586168 3.0336084 2.307596 7
-23.928453 3.9098568 2.1178846 3
-23.720068 3.8800573 1.257633 5
-25.100065 4.1102915 0.4432911 30
-1.9248655 0.31693375 -0.5124619 2
-2.2153053 0.36515251 -0.50951445 2
-2.6383305 0.4353534 -0.51186246 2
-3.2096775 0.5302074 -0.50919461 2
-4.204432 0.69528496 -0.51855469 4
-6.0230975 0.99711686 -0.53077924 2
-10.416823 1.726361 -0.54952455 2
-25.944687 4.3044181 -0.45380771 4
-8.7283392 1.4496623 2.3588922 5
-10.087222 1.6771641 2.3500853 13
-11.904721 1.981488 2.3362646 10
-14.457121 2.4089167 2.3126786 8
-18.565674 3.0968349 2.3063772 7
nan nan nan 0
nan nan nan 0
-26.929638 4.5064735 0.47592708 26
-1.923691 0.32398659 -0.5124619 3
-2.2092133 0.37207404 -0.50838971 2
-2.6367946 0.44456026 -0.51186246 2
-3.2078071 0.541408 -0.50919461 2
-4.2019796 0.70995694 -0.51855469 4
-6.0244918 1.018966 -0.53121507 2
-10.415657 1.7635458 -0.54978538 2
nan nan nan 0
-8.7184639 1.4793133 2.3575988 8
-10.081306 1.7123648 2.3500853 7
-11.897732 2.023031 2.3362646 10
-14.458363 2.4610245 2.3142412 8
-18.544968 3.159955 2.3051584 7
nan nan nan 0
-27.7136 4.7321925 1.4714254 3
-30.634207 5.2363987 0.54180992 31
-1.9226061 0.33036399 -0.5124619 3
-2.207901 0.37978336 -0.50838971 2
-2.6352267 0.45376164 -0.51186246 2
-3.2058978 0.55260205 -0.50919461 2
-4.1994758 0.72462028 -0.51855469 3
-6.0208979 1.0399892 -0.53121507 2
-10.414358 1.8007431 -0.55004621 2
-28.219376 4.8844752 -0.49423832 3
-8.7132473 1.5097373 2.3575988 7
-10.075268 1.7475448 2.3500853 13
-11.890597 2.0645497 2.3362646 10
-14.459415 2.51317 2.3158038 8
-18.524044 3.2229681 2.3039398 8
-25.59387 4.4576378 2.2695355 4
-30.64336 5.3426094 1.6281714 5
-31.709045 5.534112 0.56118208 75
-1.9214412 0.33707315 -0.5124619 2
-2.2018309 0.38626111 -0.50726491 2
-2.6337075 0.46249789 -0.51186246 2
-3.2089117 0.56408519 -0.5099768 2
-4.1970496 0.73854226 -0.51855469 4
-6.0076051 1.0582213 -0.53034353 2
-10.40833 1.8352685 -0.55004621 2
-28.16856 4.9719443 -0.4936336 101
-8.7081938 1.5386232 2.3575988 8
-10.069417 1.7809459 2.3500853 13
-11.883686 2.1039689 2.3362646 5
-14.46559 2.5636909 2.3181479 7
-18.513256 3.2843783 2.3039398 8
-25.539713 4.5355186 2.2660494 4
-31.751263 5.6443243 1.6880963 30
-31.680679 5.6374812 0.56100762 39
-1.9203129 0.34344301 -0.5124619 2
-2.1956737 0.39308605 -0.50614017 2
-2.6369085 0.47255427 -0.51281571 2
-3.206923 0.57528293 -0.5099768 2
-4.1944461 0.75318819 -0.51855469 5
-5.9989724 1.0783041 -0.52990776 2
-10.406775 1.8724735 -0.55030704 2
nan nan nan 0
-8.7027693 1.569011 2.3575988 9
-10.063139 1.8160839 2.3500853 13
-11.871439 2.1445653 2.3353114 10
-14.471131 2.6168056 2.3204916 3
-18.516329 3.3516338 2.305768 7
-25.533527 4.6264172 2.266921 4
-31.657669 5.7417564 1.6841711 97
-37.765076 6.8562655 0.66929972 38
-1.9190412 0.35047901 -0.5124619 2
-2.1894255 0.40025482 -0.50501537 2
-2.6351588 0.48221579 -0.51281571 2
-3.204793 0.58703309 -0.5099768 2
-4.1916575 0.76855654 -0.51855469 5
-5.9851813 1.0984858 -0.52903616 2
-10.409662 1.912408 -0.55082858 2
-39.681843 7.2972975 -0.69656414 2
-8.6969604 1.6008978 2.3575988 8
-10.051623 1.852072 2.3489614 13
-11.858672 2.1871717 2.3343582 10
-14.471156 2.6716206 2.3220544 3
-18.513681 3.4212806 2.3069866 7
-25.511501 4.7190647 2.266485 4
-31.626591 5.8559299 1.6836476 110
-45.029419 8.345706 0.79870933 6
-1.917806 0.35717556 -0.5124619 2
-2.1832259 0.40700209 -0.50389069 2
-2.6334596 0.4914113 -0.51281571 2
-3.2027245 0.5982163 -0.5099768 2
-4.1889491 0.78318346 -0.51855469 5
-5.9813104 1.1193713 -0.52903616 2
-10.407831 1.9496521 -0.55108941 2
nan nan nan 0
-8.6913195 1.6312461 2.3575988 8
-10.040309 1.8862479 2.3478374 14
-11.850965 2.2285528 2.3343582 10
-14.486009 2.7266858 2.3259609 3
-18.516256 3.4886413 2.3088145 6
-25.48019 4.8053188 2.2651777 4
-31.605955 5.9662914 1.6836476 113
-45.068783 8.5158319 0.79993099 3
-1.916484 0.36420226 -0.5124619 2
-2.1721475 0.41318053 -0.50164115 2
-2.6316407 0.50106013 -0.51281571 2
-3.2053614 0.61087537 -0.51075894 2
-4.1909251 0.79946136 -0.51916397 4
-5.9820604 1.1422206 -0.52947193 2
-10.405519 1.9887229 -0.55135024 2
nan nan nan 0
-8.6852818 1.6630903 2.3575988 9
-10.028543 1.9221178 2.3467135 14
-11.837896 2.271049 2.333405 10
-14.456519 2.7760363 2.3228357 3
-18.517965 3.5592933 2.3106425 5
-25.457514 4.8977351 2.2647419 4
-31.574074 6.0802054 1.6831243 110
-45.086357 8.6904211 0.8008036 3
-1.9152011 0.37088984 -0.5124619 2
-2.1802576 0.4226144 -0.50389069 2
-2.625057 0.50930834 -0.51186246 2
-3.2032094 0.62206042 -0.51075894 2
-4.1881089 0.81408554 -0.51916397 4
-5.9780369 1.1630949 -0.52947193 2
-10.403416 2.0259874 -0.55161107 2
-44.857197 8.7437296 -0.78908807 3
-8.6794233 1.6933975 2.3575988 8
-10.016992 1.9561784 2.3455896 14
-11.829897 2.3123572 2.333405 10
-14.432199 2.8236372 2.3204916 3
-18.52491 3.6277266 2.3130801 8
-25.4256 4.9836941 2.2634346 3
-31.552656 6.190383 1.6831243 108
-45.080273 8.8525724 0.80123997 3
-1.9138948 0.37757286 -0.5124619 2
-2.1931076 0.43305361 -0.50726491 2
-2.618448 0.51751673 -0.51090926 2
-3.205863 0.63419628 -0.51154113 2
-4.1901102 0.82966381 -0.5197733 3
-5.978826 1.1849234 -0.52990776 2
-10.39628 2.0622897 -0.55161107 2
nan nan nan 0
-8.6781969 1.7246253 2.3588922 8
-10.010102 1.9911323 2.3455896 15
-11.816939 2.3526785 2.3324518 11
-14.402883 2.8701372 2.3173666 3
-18.502399 3.6904268 2.3118613 9
-25.383627 5.0675402 2.2612557 3
-31.530855 6.3004842 1.6831243 111
-45.063808 9.0128136 0.80150175 3
-1.9125652 0.38425133 -0.5124619 2
-2.2011352 0.44262725 -0.50951445 2
-2.6118138 0.52568519 -0.50995612 2
-3.2036297 0.645383 -0.51154113 2
-4.1920533 0.84526592 -0.5203827 3
-5.9746532 1.2057862 -0.52990776 2
-10.389018 2.098567 -0.55161107 2
-45.275272 9.1537657 -0.79755431 2
-8.672123 1.7549075 2.3588922 8
-10.00309 2.026062 2.3455896 15
-11.808656 2.393913 2.3324518 11
-14.402455 2.9223592 2.318929 3
-18.484541 3.7540021 2.3112521 9
-25.346258 5.1521459 2.2595127 3
-31.508671 6.4105091 1.6831243 40
-47.476524 9.6678333 0.84504545 3
-1.915944 0.39189294 -0.51375604 2
-2.2091222 0.45226222 -0.51176393 2
-2.6099629 0.53479886 -0.50995612 2
-3.2013574 0.65656179 -0.51154113 2
-4.1890774 0.85989374 -0.5203827 3
-5.9752874 1.2276367 -0.53034353 2
-10.38163 2.1348186 -0.55161107 2
-45.277321 9.3188047 -0.79815906 2
-8.6659451 1.7851682 2.3588922 9
-9.9959574 2.0609667 2.3455896 14
-11.800227 2.4351184 2.3324518 11
-14.397004 2.9736142 2.3197103 3
-18.466463 3.8174975 2.3106425 10
-25.298853 5.2345343 2.2568979 3
-31.486103 6.5204558 1.6831243 24
-45.239651 9.3769121 0.80577755 3
-1.9145644 0.39857844 -0.51375604 2
-2.2122998 0.46096453 -0.51288873 2
-2.6128852 0.54490817 -0.51090926 2
-3.1990459 0.6677326 -0.51154113 2
-4.1860504 0.87451112 -0.5203827 3
-5.9709659 1.2484869 -0.53034353 2
-10.374114 2.1710441 -0.55161107 2
nan nan nan 0
-8.6596613 1.815407 2.3588922 9
-9.9934711 2.0968473 2.3467135 14
-11.791655 2.476294 2.3324518 11
-14.396202 3.0258827 2.3212731 3
-18.44817 3.8809125 2.3100333 10
-25.260931 5.318707 2.2551548 3
-31.458263 6.6292934 1.6828625 105
-45.216427 9.5368347 0.80595213 9
-1.9131614 0.40525907 -0.51375604 2
-2.2059112 0.46767363 -0.51176393 2
-2.6157684 0.55504429 -0.51186246 2
-3.2015264 0.67992115 -0.51232326 3
-4.182972 0.88911778 -0.5203827 3
-5.9665713 1.2693219 -0.53034353 2
-10.366473 2.2072434 -0.55161107 2
-37.901409 8.0769348 -0.66900563 5
-8.6532707 1.8456239 2.3588922 9
-9.9860907 2.1317182 2.3467135 14
-11.78774 2.518465 2.333405 10
-14.395211 3.0781817 2.3228357 3
-18.444216 3.9473622 2.3112521 9
-25.237341 5.405808 2.254719 3
-31.434931 6.7390628 1.6828625 131
-47.441113 10.179151 0.8462671 8
-1.9117352 0.41193479 -0.51375604 3
-2.2042651 0.47537085 -0.51176393 2
-2.6138151 0.56417167 -0.51186246 2
-3.1991334 0.69109249 -0.51232326 2
-4.1798429 0.9037137 -0.5203827 2
-5.9621043 1.2901413 -0.53034353 3
-10.363585 2.2444727 -0.55187184 2
-37.892529 8.2134218 -0.66935122 5
-8.6467762 1.8758181 2.3588922 10
-9.9833488 2.1675968 2.3478374 14
-11.778876 2.5595965 2.333405 10
-14.389205 3.1294615 2.323617 3
-18.440023 4.0138316 2.3124707 9
-25.247519 5.5002313 2.2573338 4
-31.406338 6.8476863 1.6826009 141
-47.410175 10.345755 0.84635442 11
-1.9150032 0.41963926 -0.51505011 2
-2.1978338 0.48201868 -0.51063919 2
-2.6166241 0.57434446 -0.51281571 2
-3.1967018 0.70225531 -0.51232326 2
-4.1766629 0.9182986 -0.5203827 3
-5.9575644 1.3109452 -0.53034353 3
-10.355687 2.2806346 -0.55187184 2
-37.863628 8.3456411 -0.66935122 5
-8.6401758 1.9059895 2.3588922 10
-9.9804792 2.2034824 2.3489614 13
-11.774663 2.6017561 2.3343582 10
-14.378193 3.1796701 2.323617 3
-18.435591 4.0803194 2.3136892 9
-25.257345 5.5947914 2.2599485 3
-31.377367 6.9561925 1.6823393 139
-47.368893 10.510101 0.8462671 10
-1.9135267 0.4263213 -0.51505011 3
-2.1961379 0.48968759 -0.51063919 2
-2.6146033 0.5834747 -0.51281571 2
-3.1990507 0.71448606 -0.51310545 2
-4.1734324 0.93287224 -0.5203827 3
-5.9529524 1.331733 -0.53034353 2
-10.342791 2.3156779 -0.55161107 2
-37.844025 8.4799461 -0.66952401 5
-8.6334696 1.9361378 2.3588922 9
-9.9727278 2.2383072 2.3489614 13
-11.76551 2.6428416 2.3343582 10
-14.362187 3.2287567 2.3228357 6
-18.435762 4.1479154 2.3155174 6
-25.271677 5.6905818 2.2629988 4
-31.362637 7.067873 1.6828625 132
-47.327042 10.674286 0.8461799 9
-1.9120269 0.43299818 -0.51505011 3
-2.1944153 0.49735057 -0.51063919 2
-2.607764 0.59151202 -0.51186246 2
-3.1965373 0.72564852 -0.51310545 2
-4.1749902 0.94853407 -0.52099204 3
-5.9482675 1.3525045 -0.53034353 2
-10.324906 2.3495507 -0.55108941 2
-37.814194 8.6119947 -0.66952401 6
-8.6313686 1.9673359 2.3601854 9
-9.9696035 2.2741888 2.3500853 13
-11.756212 2.6838946 2.3343582 6
-14.341201 3.2766702 2.3212731 11
-18.426008 4.2133489 2.3161268 9
-25.241947 5.7765388 2.2621274 4
-31.352373 7.1806498 1.6836476 113
nan nan nan 0
-1.9105037 0.43966976 -0.51505011 3
-2.197413 0.50610083 -0.51176393 2
-2.6056833 0.60061127 -0.51186246 2
-3.1939847 0.7368021 -0.51310545 2
-4.1716533 0.96310174 -0.52099204 3
-5.9483628 1.3743809 -0.53077924 2
-10.345832 2.3923268 -0.55265427 2
-33.181248 7.6787934 -0.58788526 14
-8.6291533 1.9985427 2.3614786 9
-9.9616051 2.3089752 2.3500853 8
-11.746772 2.7249153 2.3343582 9
-14.315243 3.32336 2.318929 12
-18.387018 4.2720265 2.3130801 9
-25.216776 5.8634868 2.2616916 4
-31.341707 7.2934413 1.6844326 28
-44.544235 10.37396 0.7976622 10
-1.9089574 0.44633597 -0.51505011 2
-2.1956332 0.5137682 -0.51176393 2
-2.6035709 0.60970312 -0.51186246 2
-3.1913934 0.74794668 -0.51310545 2
-4.1730976 0.97879088 -0.52160138 3
-5.9435291 1.3951362 -0.53077924 2
-10.347139 2.4307096 -0.55317587 2
-33.090973 7.7796969 -0.58676219 16
-8.6268263 2.0297582 2.362772 5
-9.9534836 2.3437335 2.3500853 12
-11.732411 2.7647767 2.333405 10
-14.293942 3.3710423 2.3173666 11
-18.357504 4.3327632 2.3112521 9
-25.162224 5.9434586 2.258641 3
-31.350071 7.4108405 1.6862644 23
-31.299408 7.4046326 0.56074584 6
-1.9120867 0.45411274 -0.51634425 2
-2.1985664 0.52255583 -0.51288873 2
-2.6014268 0.61878759 -0.51186246 2
-3.1887631 0.7590822 -0.51310545 2
-4.1696553 0.99335176 -0.52160138 3
-5.9434681 1.4170296 -0.53121507 2
-10.353163 2.4702897 -0.55395836 2
-31.327688 7.4806418 -0.5559209 27
-8.6431761 2.0654719 2.3692381 22
-9.9452419 2.3784635 2.3500853 12
-11.717916 2.8045709 2.3324518 11
-14.272483 3.4186161 2.3158038 12
-18.332615 4.3945026 2.3100333 10
-25.155855 6.0347409 2.2599485 3
-31.260897 7.505075 1.6828625 108
-31.307398 7.522018 0.56135666 68
-1.9104899 0.46078441 -0.51634425 2
-2.1967287 0.53022707 -0.51288873 2
-2.604022 0.62901694 -0.51281571 2
-3.186094 0.77020842 -0.51310545 2
-4.1661625 1.0079005 -0.52160138 3
-5.9384856 1.4377676 -0.53121507 2
-10.34933 2.5075901 -0.55421913 3
-31.281952 7.585238 -0.55557537 44
-8.6218319 2.0922124 2.3653584 17
-9.9321442 2.4120145 2.3489614 12
-11.703285 2.8442979 2.3314986 11
-14.250865 3.4660811 2.3142412 12
-18.317163 4.4584684 2.3100333 10
-25.110437 6.1166201 2.2577693 4
-31.239361 7.6153326 1.6831243 110
-31.266378 7.6277003 0.56109482 59
-1.9088699 0.46745044 -0.51634425 2
-2.1901326 0.5367322 -0.51176393 2
-2.6018107 0.63810283 -0.51281571 2
-3.1881821 0.78250241 -0.51388764 2
-4.1626191 1.022437 -0.52160138 3
-5.9382677 1.4596771 -0.53165084 2
-10.335665 2.5425079 -0.55395836 3
-31.250427 7.6931906 -0.55548894 31
-8.6050978 2.1199851 2.362772 11
-9.9236641 2.4466693 2.3489614 14
-11.688519 2.8839569 2.3305454 11
-14.233884 3.514621 2.3134599 12
-18.315943 4.5259519 2.3118613 10
-25.079264 6.2018433 2.2568979 3
-31.207741 7.7231326 1.6828625 67
-26.323843 6.5193667 0.47269839 23
-1.9072266 0.47411081 -0.51634425 2
-2.1835182 0.54319787 -0.51063919 2
-2.5995674 0.64718097 -0.51281571 2
-3.185431 0.79362649 -0.51388764 2
-4.1590247 1.036961 -0.52160138 3
-5.9379697 1.4816024 -0.53208661 2
-10.326727 2.5785704 -0.55395836 3
-26.242311 6.5575376 -0.46676624 5
-8.5929594 2.1488378 2.3614786 12
-9.9103365 2.4801116 2.3478374 14
-11.67362 2.9235473 2.3295922 12
-14.22632 3.5654857 2.3142412 11
-18.300034 4.589859 2.3118613 9
nan nan nan 0
nan nan nan 0
-24.463379 6.1493134 0.43962607 26
-1.90556 0.48076537 -0.51634425 2
-2.1768849 0.54962373 -0.50951445 2
-2.5972924 0.65625119 -0.51281571 2
-3.1826415 0.80474085 -0.51388764 2
-4.1553798 1.0514723 -0.52160138 3
-5.9375896 1.5035434 -0.53252238 2
-10.317663 2.6146019 -0.55395836 3
-23.369894 5.9265118 -0.41596878 4
-8.5760431 2.1764436 2.3588922 12
-9.9016199 2.5146902 2.3478374 14
-11.663344 2.9642782 2.3295922 12
-14.22336 3.617558 2.3158038 12
-18.298326 4.657382 2.3136892 8
nan nan nan 0
nan nan nan 0
-22.40239 5.7144599 0.40288877 30
-1.8991914 0.48621628 -0.51505011 2
-2.1891117 0.56084651 -0.51288873 2
-2.594986 0.66531342 -0.51281571 2
-3.1845968 0.81707281 -0.51466984 2
-4.1564903 1.0672051 -0.52221072 2
-5.9323053 1.5242603 -0.53252238 2
-10.31331 2.6518447 -0.55421913 3
-21.838503 5.6193628 -0.38901505 4
-8.5683937 2.2063663 2.3588922 12
-9.8927813 2.549238 2.3478374 14
-11.648173 3.0037472 2.328639 12
-14.22021 3.6696527 2.3173666 12
-18.30118 4.7261901 2.3161268 8
-21.482847 5.5518403 1.9379078 4
-21.901684 5.6641583 1.1835777 2
-20.03017 5.1838827 0.36047941 26
-1.8974826 0.49284273 -0.51505011 2
-2.1871405 0.56848454 -0.51288873 2
-2.5878973 0.67313206 -0.51186246 2
-3.1769459 0.82694006 -0.51388764 2
-4.15274 1.0817075 -0.52221072 2
-5.9317684 1.5462151 -0.53295815 2
-10.308822 2.6890893 -0.55447996 3
-19.980635 5.2157369 -0.35618678 12
-8.5606403 2.2362623 2.3588922 12
-9.8791094 2.5825226 2.3467135 14
-11.637618 3.0443888 2.328639 12
-14.221646 3.7230201 2.3197103 11
-18.318174 4.7988477 2.3203921 9
-19.878166 5.2112293 1.7945368 4
-19.974043 5.2400908 1.0802141 6
-19.112574 5.0176539 0.34424871 43
-1.8910805 0.49823278 -0.51375604 2
-2.2228298 0.58605182 -0.52188677 2
-2.580786 0.68090922 -0.51090926 2
-3.1740401 0.83802468 -0.51388764 2
-4.1537371 1.0974643 -0.52282006 2
-5.9215193 1.5656382 -0.53252238 2
-10.309025 2.7276111 -0.55500156 4
-18.526985 4.9054184 -0.33052889 7
-8.5527821 2.2661307 2.3588922 12
-9.8700342 2.6169915 2.3467135 14
-11.631663 3.0862515 2.3295922 12
-14.222883 3.7764423 2.3220544 12
-18.330091 4.8704081 2.3240483 9
-18.434992 4.9017253 1.6655462 5
-18.52253 4.928462 1.0024952 5
-17.442768 4.6444206 0.31440508 49
-1.8846638 0.50358403 -0.5124619 2
-2.1878247 0.58499807 -0.51401347 2
-2.5783935 0.68991363 -0.51090926 2
-3.1663251 0.84782171 -0.51310545 2
-4.1498809 1.111957 -0.52282006 3
-5.916018 1.5862985 -0.53252238 2
-10.304264 2.764874 -0.55526233 4
-17.143362 4.6031709 -0.30608049 32
-8.5448198 2.2959719 2.3588922 11
-9.8608389 2.6514282 2.3467135 14
-11.620819 3.1268351 2.3295922 12
-14.223921 3.8299186 2.3243983 8
-17.862549 4.8129954 2.2667699 9
-17.302031 4.6652055 1.5644455 6
-17.189146 4.6379862 0.93105662 12
-16.243979 4.3860021 0.29302588 93
-1.878144 0.50922447 -0.51116782 2
-2.1856661 0.59301293 -0.51401347 2
-2.5805843 0.70064545 -0.51186246 2
-3.1631966 0.85942119 -0.51310545 2
-4.1505666 1.1284616 -0.52342945 3
-5.9053583 1.6066637 -0.53208661 2
-10.294061 2.8026223 -0.55526233 4
-16.147215 4.3992066 -0.28854325 19
-8.5363474 2.3272748 2.3588922 12
-9.8510551 2.6875525 2.3467135 14
-11.614016 3.1706989 2.3305454 11
-14.209788 3.8820262 2.3243983 12
-16.805992 4.5944452 2.1345415 10
-16.165382 4.4223471 1.4629091 15
-16.175133 4.4280481 0.87688887 15
-15.750459 4.3147469 0.28438696 10
-1.8763552 0.51577729 -0.51116782 2
-2.1835825 0.60063875 -0.51401347 2
-2.5828552 0.71095169 -0.51281571 2
-3.160177 0.87045753 -0.51310545 2
-4.1466022 1.1429429 -0.52342945 2
-5.899714 1.6272675 -0.53208661 3
-10.284215 2.8385382 -0.55526233 5
nan nan nan 0
-8.5281715 2.3570578 2.3588922 12
-9.8416138 2.7219226 2.3467135 13
-11.607609 3.2125294 2.3314986 10
nan nan nan 0
-15.723361 4.3575177 1.9986571 10
-14.7675 4.0953889 1.3374048 3
-15.524483 4.3082371 0.84234715 6
-14.641852 4.0660553 0.26457846 70
-1.8745433 0.52232385 -0.51116782 3
-2.1814728 0.60825723 -0.51401347 2
-2.5850856 0.72128236 -0.51376885 2
-3.1571195 0.88148326 -0.51310545 2
-4.1425872 1.1574103 -0.52342945 3
-5.8892012 1.6465101 -0.53165084 2
-10.274244 2.8744195 -0.55526233 5
-14.421527 4.0374169 -0.25813392 16
-8.5198917 2.3868124 2.3588922 12
-9.8367434 2.7575746 2.3478374 14
-11.605776 3.2556794 2.333405 10
nan nan nan 0
-14.781159 4.1520119 1.8804438 10
-14.331141 4.0283012 1.2990563 9
-14.346146 4.0352206 0.77902067 9
-13.886483 3.9085441 0.25114012 47
-1.8773564 0.53017664 -0.5124619 2
-2.1980894 0.62116778 -0.51851249 2
-2.5825522 0.7303015 -0.51376885 2
-3.1587749 0.893843 -0.51388764 2
-4.1385221 1.1718636 -0.52342945 3
-5.8834176 1.6670573 -0.53165084 2
-10.264148 2.9102659 -0.55526233 5
-13.618601 3.8639455 -0.24396592 9
-8.511508 2.416538 2.3588922 12
-9.8270578 2.7918944 2.3478374 14
-11.599061 3.2975135 2.3343582 7
-13.299087 3.783325 2.1814184 12
-13.897872 3.9562895 1.7695428 15
-13.540946 3.8572392 1.2284602 8
-13.611692 3.8799601 0.73976868 8
-13.170862 3.756789 0.23839986 50
-1.8801378 0.53805548 -0.51375604 2
-2.1771731 0.6234718 -0.51401347 2
-2.579987 0.73931193 -0.51376885 2
-3.1556356 0.90486366 -0.51388764 2
-4.1391764 1.1876712 -0.52403873 3
-5.8727751 1.6862094 -0.53121507 2
-10.253927 2.9460769 -0.55526233 6
-12.874726 3.7014966 -0.2308346 10
-8.5030212 2.4462337 2.3588922 12
-9.8219347 2.827528 2.3489614 13
-11.611063 3.344775 2.339124 10
-12.721103 3.6669464 2.0884426 12
-13.183033 3.8025932 1.6799688 17
-12.910056 3.726295 1.1722448 10
-12.93607 3.7362499 0.70365691 8
-12.485292 3.6084151 0.22618318 50
-1.8828866 0.54596001 -0.51505011 2
-2.1656258 0.62835258 -0.51176393 2
-2.5773907 0.74831325 -0.51376885 2
-3.1572003 0.91725129 -0.51466984 2
-4.1350055 1.2021123 -0.52403873 2
-5.8620706 1.7053077 -0.53077924 2
-10.243581 2.9818516 -0.55526233 6
-12.256956 3.570255 -0.21994944 12
-8.4990673 2.4772515 2.3601854 12
-9.8166819 2.8631599 2.3500853 13
-11.599316 3.3852847 2.339124 11
-12.163061 3.5521185 1.9985919 12
-12.593296 3.6801503 1.6062379 11
-12.304155 3.597986 1.1182082 10
-12.314339 3.6032968 0.67042357 9
-11.88249 3.4791853 0.21544994 51
-1.8809693 0.55252922 -0.51505011 2
-2.1540711 0.63316047 -0.50951445 2
-2.5747631 0.7573055 -0.51376885 2
-3.1587167 0.92966068 -0.51545197 2
-4.130784 1.2165389 -0.52403873 2
-5.8513045 1.7243516 -0.53034353 2
-10.242689 3.0204151 -0.55578399 5
-11.716983 3.4573851 -0.21044651 16
-8.4903688 2.5069039 2.3601854 13
-9.8159733 2.9001703 2.3523331 10
nan nan nan 0
-11.58704 3.4278376 1.9056159 14
-11.995065 3.5508218 1.5312883 12
-11.756624 3.4824698 1.0694009 13
-11.736787 3.478822 0.63954532 12
-11.525187 3.4182913 0.20916708 41
-1.8836583 0.56046897 -0.51634425 2
-2.1471786 0.63928556 -0.50838971 2
-2.5768077 0.76768988 -0.51472205 2
-3.1554525 0.94068092 -0.51545197 2
-4.1265121 1.2309507 -0.52403873 2
-5.8404765 1.7433412 -0.52990776 2
-10.227299 3.0547211 -0.55552316 5
-11.211483 3.350812 -0.20154834 4
-8.4815664 2.5365255 2.3601854 12
-9.8104563 2.9358134 2.3534567 12
-11.392021 3.4112685 2.3019497 8
-11.021502 3.3024151 1.8142025 14
-11.435925 3.4287655 1.4612134 8
-11.086015 3.325963 1.0092635 2
-11.26069 3.3805103 0.61416245 4
-10.761487 3.2326953 0.19546694 78
-1.8816904 0.5670408 -0.51634425 2
-2.1402695 0.64537019 -0.50726491 2
-2.5741122 0.77667993 -0.51472205 2
-3.1521494 0.95168978 -0.51545197 2
-4.1269412 1.2467827 -0.52464807 2
-5.8391237 1.7651592 -0.53034353 2
-10.216574 3.0904024 -0.55552316 6
-10.702092 3.2393055 -0.19256374 30
-8.4772825 2.5675161 2.3614786 12
-9.8048115 2.9714532 2.3545806 13
-10.825789 3.2829349 2.1894734 8
-10.542054 3.1989007 1.7368529 15
-10.744828 3.2624791 1.3740767 24
-10.7026 3.2516978 0.97527272 19
-10.751986 3.2687521 0.58694774 19
-10.467951 3.1843975 0.19031848 41
-1.8843189 0.57501525 -0.51763833 2
-2.1286848 0.64999169 -0.50501537 2
-2.5713856 0.78566051 -0.51472205 2
-3.1488085 0.96268708 -0.51545197 2
-4.1225638 1.2611806 -0.52464807 3
-5.8329268 1.7855307 -0.53034353 2
-10.215272 3.1289709 -0.55604482 10
-10.270099 3.1477249 -0.18496141 10
-8.4775038 2.5999241 2.3640649 13
-9.8083525 3.0099485 2.3579526 13
-10.401362 3.1939154 2.105593 9
-10.124837 3.1109374 1.6696601 12
-10.415553 3.2022519 1.3332505 10
-10.191302 3.1352532 0.92951602 10
-10.268066 3.1608307 0.56104141 7
-10.026775 3.0884697 0.1824649 41
-1.8869145 0.58301497 -0.5189324 2
-2.1217487 0.65597928 -0.50389069 2
-2.5733163 0.7960822 -0.51567525 2
-3.1454289 0.97367257 -0.51545197 2
-4.1181364 1.2755635 -0.52464807 3
-5.8314161 1.807355 -0.53077924 2
-9.9896774 3.0980535 -0.54430836 15
-9.867527 3.0620599 -0.17787743 12
-8.4729891 2.6309323 2.3653584 5
-9.7977867 3.0441675 2.3579526 12
-9.9636307 3.0976024 2.0188529 7
-9.6942215 3.0157013 1.6001235 10
-10.006279 3.1146924 1.2820654 10
-9.8188686 3.0582361 0.89639682 9
-9.8613091 3.073343 0.53932196 7
-9.6293573 3.0028977 0.17539668 41
-1.8802587 0.58815616 -0.51763833 2
-2.1054974 0.65901566 -0.50051636 2
-2.5658379 0.80359286 -0.51472205 2
-3.1420107 0.9846462 -0.51545197 2
-4.1183944 1.2914157 -0.52525747 3
-5.8250713 1.8276997 -0.53077924 2
-9.5643415 3.0027826 -0.52161801 7
-9.4609146 2.9721253 -0.17070703 11
-8.4913998 2.6691828 2.3731179 24
-9.6569681 3.0374191 2.3264832 10
-9.601615 3.0218506 1.9473637 6
-9.3397684 2.9412329 1.543088 10
-9.5504169 3.0094016 1.2247869 10
-9.4518499 2.9801562 0.86371344 9
-9.4933872 2.9950743 0.519696 7
-9.242197 2.9175999 0.16850297 43
-1.8735899 0.59325796 -0.51634425 2
-2.1171174 0.67077571 -0.50389069 2
-2.5583384 0.81106108 -0.51376885 2
-3.1385546 0.99560791 -0.51545197 2
-4.1138611 1.3057837 -0.52525747 3
-5.8139091 1.8465139 -0.53034353 2
-9.1683483 2.913655 -0.50049245 8
-9.0979338 2.8930259 -0.16431417 13
-8.4636202 2.6929493 2.3679447 16
-9.3399057 2.9735603 2.2523055 8
-9.226223 2.9391406 1.873015 8
-9.0283031 2.8778262 1.493084 14
-9.2419853 2.9477158 1.186398 11
-9.0997362 2.9040954 0.83233738 10
-9.1261358 2.9142759 0.50007004 9
-8.9319477 2.8539832 0.16300547 46
-1.8669083 0.59832042 -0.51505011 2
-2.1286802 0.6826247 -0.50726491 2
-2.5508182 0.81848681 -0.51281571 2
-3.1350603 1.0065575 -0.51545197 2
-4.1140032 1.3216536 -0.52586681 3
-5.8026862 1.8652726 -0.52990776 2
-8.8491535 2.8462632 -0.48353988 10
-8.7784519 2.8252134 -0.15869878 16
-8.4403763 2.718035 2.3640649 13
-8.9955864 2.8985608 2.1713843 12
-8.9169312 2.8749342 1.812011 13
-8.7080002 2.8092504 1.4415175 14
-8.9152136 2.8778164 1.1455717 13
-8.8051519 2.8439856 0.80619061 11
-8.8023291 2.8447709 0.48279914 9
-8.6079874 2.783622 0.15724619 47
-1.8602145 0.60334355 -0.51375604 2
-2.1401865 0.69456273 -0.51063919 2
-2.5432773 0.82586986 -0.51186246 2
-3.1315277 1.0174947 -0.51545197 2
-4.1140838 1.3375404 -0.52647614 3
-5.7866659 1.8824347 -0.52903616 2
-8.5352926 2.7782257 -0.46684811 12
-8.4738207 2.7598524 -0.1533426 11
-8.4354296 2.7489772 2.3653584 12
-8.7213898 2.8438513 2.1073217 13
-8.6268673 2.8146956 1.7548196 13
-8.4258461 2.7507353 1.3962015 13
-8.6173515 2.8149192 1.1084017 13
-8.5111008 2.7818558 0.7800439 11
-8.5218353 2.7870109 0.46788341 9
-8.3131399 2.7203643 0.15201046 49
-1.8535081 0.60832715 -0.5124619 2
-2.1470063 0.70506918 -0.51288873 2
-2.5403788 0.83474255 -0.51186246 2
-3.1279569 1.0284196 -0.51545197 2
-4.1093898 1.3518931 -0.52647614 3
-5.7753291 1.9010651 -0.52860039 2
-8.2552166 2.7189667 -0.45198202 10
-8.1839991 2.6970937 -0.14824557 11
-8.398262 2.7693305 2.3575988 7
-8.4014196 2.7719979 2.0320201 12
-8.3373384 2.7524681 1.6976284 12
-8.1676579 2.6980314 1.3547921 12
-8.3483114 2.7593231 1.0748875 13
-8.2412415 2.7255292 0.7560761 10
-8.2276344 2.7226224 0.45218262 8
-8.052062 2.6660829 0.14738557 51
-1.8558495 0.61663938 -0.51375604 2
-2.1444075 0.71293366 -0.51288873 2
-2.5373023 0.8440479 -0.51186246 2
-3.1241665 1.0398772 -0.51545197 2
-4.1091161 1.3685138 -0.52708548 4
-5.7683225 1.9222201 -0.52860039 2
-7.9988799 2.6670763 -0.43841994 12
-7.9274597 2.6447999 -0.14375329 12
-8.1773138 2.7297437 2.2981093 8
-8.1555281 2.7240534 1.9747009 13
-8.0758133 2.6989944 1.6461563 10
-7.9047971 2.6433735 1.3126013 14
-8.0840044 2.7048693 1.0419829 11
-7.9761372 2.6703255 0.732544 11
-7.9808717 2.6734598 0.43909863 9
-7.8099742 2.617728 0.14310972 52
-1.8582636 0.62465256 -0.51505011 3
-2.1372881 0.71886146 -0.51176393 2
-2.5343406 0.85289961 -0.51186246 2
-3.1205177 1.0507762 -0.51545197 2
-4.1043139 1.382849 -0.52708548 4
-5.7568579 1.9407524 -0.52816463 2
-7.7482262 2.6135888 -0.42511865 12
-7.686079 2.5941198 -0.13952017 11
-7.9069042 2.6701877 2.2243938 9
-7.8782601 2.6620464 1.9095145 13
-7.7873578 2.6328452 1.5889649 13
-7.6429014 2.5854921 1.2704107 17
-7.820672 2.6471508 1.0090781 13
-7.7355981 2.6198597 0.71119088 11
-7.7303119 2.6195736 0.425753 9
-7.5829997 2.5711362 0.13909566 54
-1.8560718 0.63113528 -0.51505011 2
-2.1347659 0.72631764 -0.51176393 2
-2.531348 0.86174089 -0.51186246 2
-3.1168308 1.0616626 -0.51545197 2
-4.0994616 1.3971673 -0.52708548 4
-5.7500477 1.9608357 -0.52816463 2
-7.5216742 2.5664473 -0.41312146 11
-7.4735379 2.5514791 -0.13580538 12
-7.6507263 2.6134624 2.1545582 11
-7.5830879 2.5918355 1.8398323 15
-7.5319757 2.575834 1.5384458 16
-7.4095459 2.5354092 1.2329077 11
-7.5719304 2.5924506 0.97800142 15
-7.4955106 2.5677478 0.68983769 13
-7.4896755 2.5672095 0.41293067 10
-7.365911 2.5262241 0.13525614 56
-1.8584244 0.63918114 -0.51634425 3
-2.1276109 0.7321797 -0.51063919 2
-2.5329654 0.87216967 -0.51281571 2
-3.1131058 1.0725358 -0.51545197 2
-4.0945597 1.4114685 -0.52708548 5
-5.7431684 1.9808952 -0.52816463 2
-7.2908297 2.5161281 -0.40086344 13
-7.2519403 2.5041234 -0.13191783 11
-7.3813486 2.5502508 2.080843 11
-7.3759937 2.5498419 1.7915045 15
-7.314199 2.5299089 1.4955524 10
-7.1999698 2.4918053 1.1993114 11
-7.3564959 2.5474143 0.95119017 16
-7.2747102 2.5205157 0.67022771 15
-7.2919607 2.5279183 0.4024635 11
-7.1445055 2.4781964 0.13132934 53
-1.856182 0.64566433 -0.51634425 3
-2.1250422 0.73960197 -0.51063919 2
-2.5345409 0.88262028 -0.51376885 2
-3.1140065 1.085021 -0.51623416 2
-4.0849218 1.4241189 -0.52647614 4
-5.7362189 2.0009305 -0.52816463 3
-7.0840015 2.4724565 -0.38990948 13
-7.0449262 2.4601977 -0.12828945 12
-7.1717815 2.5059023 2.0239398 11
-7.1692877 2.5064347 1.7431765 14
-7.1107364 2.4873576 1.4555185 9
-6.9954524 2.4484015 1.1664963 10
-7.1461544 2.5025468 0.92498827 11
-7.0825381 2.4816566 0.65323228 14
-7.0851898 2.4839745 0.39147294 12
-6.9518318 2.4385834 0.12792613 54
-1.8539169 0.65213972 -0.51634425 3
-2.1270428 0.74863261 -0.51176393 2
-2.5360742 0.89309245 -0.51472205 2
-3.1101999 1.0958842 -0.51623416 2
-4.0799255 1.4383693 -0.52647614 4
-5.7385936 2.0242553 -0.52903616 3
-6.9152369 2.4406667 -0.38104194 19
-6.8618793 2.4231813 -0.125093 11
-6.9853868 2.4681678 1.9735029 10
-6.9721637 2.4648643 1.6970965 12
-6.9169168 2.4466913 1.4173911 9
-6.7913284 2.4036009 1.1336813 9
-6.940896 2.4578996 0.8993957 11
-6.8813381 2.4381607 0.63536537 13
-6.8788166 2.4386189 0.38048241 11
-6.7595243 2.3976564 0.12452291 55
-1.8516291 0.65860713 -0.51634425 3
-2.1290069 0.75768632 -0.51288873 2
-2.5329411 0.90193951 -0.51472205 2
-3.1063557 1.1067342 -0.51623416 2
-4.0748796 1.452602 -0.52647614 4
-5.7408757 2.047621 -0.52990776 4
-6.7467842 2.4077299 -0.37217444 14
-6.6791782 2.3849177 -0.12189656 13
-6.7856998 2.4242883 1.9191862 9
-6.7708316 2.4203093 1.6498924 12
-6.7096052 2.399744 1.3764039 9
-6.587605 2.3574064 1.1008663 11
-6.7313671 2.4101777 0.8731938 9
-6.6992869 2.4000106 0.6192416 13
-6.6963515 2.4002779 0.37080026 11
-6.5864129 2.3621681 0.12146875 56
-1.8493189 0.66506648 -0.51634425 3
-2.1309328 0.76676279 -0.51401347 2
-2.5251591 0.90911305 -0.51376885 2
-3.1071196 1.1192442 -0.51701629 2
-4.0697846 1.4668173 -0.52647614 3
-5.7430649 2.0710275 -0.53077924 5
-6.5739498 2.3719525 -0.36304614 12
-6.5062351 2.3488038 -0.11887291 12
-6.6000347 2.3839686 1.8687495 10
-6.5882258 2.3810029 1.6071841 13
-6.5257874 2.3597252 1.3401827 10
-6.4214406 2.323261 1.0743017 11
-6.5549216 2.372848 0.85125732 10
-6.5129051 2.3589237 0.60268199 12
-6.5142388 2.3606932 0.36111808 11
-6.3995333 2.3203888 0.11815279 55
-1.8469862 0.67151779 -0.51634425 3
-2.132822 0.77586198 -0.51513821 2
-2.5219705 0.91792196 -0.51376885 2
-3.1031938 1.1300833 -0.51701629 2
-4.0646396 1.4810145 -0.52647614 3
-5.754519 2.0978858 -0.53252238 5
-6.3920674 2.3315766 -0.35339618 13
-6.3195386 2.3063707 -0.11559009 12
-6.4374204 2.350666 1.8247789 11
-6.415132 2.3437965 1.5667235 16
-6.3653822 2.3268793 1.3087275 11
-6.2602348 2.2896812 1.0485185 11
-6.3788228 2.334317 0.82932085 9
-6.3409247 2.3217034 0.5874297 13
-6.3418636 2.3233025 0.35195929 11
-6.2364979 2.2859371 0.11527314 54
-1.8446308 0.67796087 -0.51634425 2
-2.1346729 0.78498352 -0.51626295 2
-2.5187509 0.92671967 -0.51376885 2
-3.0992301 1.1409086 -0.51701629 2
-4.0594449 1.4951937 -0.52647614 3
-5.7378139 2.1145155 -0.53165084 5
-6.2105494 2.2899606 -0.34374624 13
-6.1519804 2.2695849 -0.11265282 12
-6.2705894 2.3145854 1.779515 12
-6.2515206 2.3087866 1.5285107 10
-6.1914763 2.2878392 1.2744128 9
-6.0854468 2.2498672 1.0203912 11
-6.2077284 2.2963078 0.80799371 10
-6.1692872 2.2833123 0.57217747 13
-6.1651483 2.283004 0.34253883 12
-6.0644059 2.246902 0.11221897 58
-1.8376065 0.68303454 -0.51505011 2
-2.1272154 0.79110414 -0.51513821 2
-2.5153375 0.93594509 -0.51376885 2
-3.0996561 1.1539832 -0.51779848 3
-4.0585885 1.5117946 -0.52708548 4
-5.7486944 2.1424894 -0.53339398 7
-6.0570807 2.2586265 -0.3356612 13
-6.0077882 2.2414403 -0.11014751 12
-6.1127429 2.2818131 1.7368377 10
-6.0832729 2.2720222 1.4891741 10
-6.0451159 2.2589734 1.2458171 10
-5.9568882 2.2271888 1.0000771 11
-6.0598254 2.266881 0.78971332 10
-6.0115986 2.2500362 0.55823255 14
-6.0211344 2.2548034 0.33495009 13
-5.9297318 2.221755 0.10986289 56
-1.83069 0.68774641 -0.51375604 2
-2.1198804 0.79681045 -0.51401347 2
-2.5120549 0.94471961 -0.51376885 3
-3.0956089 1.164796 -0.51779848 2
-4.0532866 1.5259525 -0.52708548 4
-5.7271972 2.1572759 -0.53208661 15
-5.9230056 2.2322118 -0.32861933 13
-5.8362055 2.2006629 -0.10712384 10
-5.9646535 2.2502859 1.6967469 12
-5.938561 2.2416263 1.4554569 10
-5.9040332 2.2297702 1.2181747 12
-5.7873859 2.1868703 0.97273135 8
-5.9079723 2.2336144 0.77082354 11
-5.8639436 2.2181387 0.54515916 10
-5.8684607 2.2210181 0.32683805 8
-5.7396021 2.1734018 0.10645968 71
-1.8192478 0.69070393 -0.51116782 2
-2.1170862 0.80420542 -0.51401347 2
-2.5133302 0.9552263 -0.51472205 3
-3.0915241 1.1755947 -0.51779848 2
-4.0479355 1.5400918 -0.52708548 5
-5.6591158 2.154218 -0.52642149 11
-5.728529 2.1817858 -0.318187 16
-5.7257137 2.1818581 -0.10522325 24
-5.8258858 2.2211945 1.6592426 11
-5.7850337 2.2067754 1.419492 6
-5.7403011 2.1908593 1.1857662 9
-5.7289677 2.1876793 0.96413696 13
-5.7378836 2.1922317 0.74949646 9
-5.7445021 2.1959095 0.53470045 13
-5.7254252 2.1897624 0.31924933 22
-5.6712856 2.1701906 0.10532527 17
-1.8032982 0.69186008 -0.50728554 2
-2.1097181 0.80984473 -0.51288873 2
-2.5099804 0.96399367 -0.51472205 3
-3.0874016 1.186379 -0.51779848 2
-4.0425348 1.5542123 -0.52708548 5
-5.5306902 2.1274638 -0.51509124 4
-5.6602983 2.1784537 -0.31479648 18
-5.6760755 2.1856632 -0.10444576 4
-5.682889 2.1894259 1.620445 9
-5.7045584 2.1989181 1.4015094 5
-5.6456079 2.1773262 1.1676557 8
-5.5922866 2.1578834 0.94226027 4
-5.6607504 2.1854365 0.74035621 10
-5.6392279 2.1782584 0.52554911 13
-5.6292548 2.1755352 0.31427738 6
-5.5424423 2.1430967 0.10305645 13
-1.7783569 0.68942195 -0.50081509 2
-2.1068783 0.81720406 -0.51288873 2
-2.5066001 0.97274923 -0.51472205 2
-3.0832419 1.1971487 -0.51779848 2
-4.0370846 1.568314 -0.52708548 4
-5.4025216 2.0998399 -0.50376093 4
-5.5502782 2.1583846 -0.30905867 2
-5.5239811 2.1492684 -0.10176765 7
-5.5401855 2.1566865 1.5816474 9
-5.5878916 2.1763806 1.3745357 2
-5.5327864 2.1560304 1.1457323 4
-5.4834933 2.1379242 0.92507148 6
-5.5328789 2.1582913 0.72451317 4
-5.5341477 2.1598992 0.51639777 4
-5.5099998 2.151583 0.30799708 2
-5.4324856 2.1224074 0.10113669 56
-1.8029212 0.70619398 -0.50857961 2
-2.104013 0.82455343 -0.51288873 2
-2.5031893 0.981493 -0.51472205 2
-3.0790441 1.207904 -0.51779848 2
-4.0315862 1.5823965 -0.52708548 4
-5.3024335 2.0822718 -0.49504536 4
-5.473 2.1503563 -0.30514655 6
-5.3908234 2.1191549 -0.099435113 11
-5.402277 2.1247463 1.5441432 10
-5.4986548 2.1637604 1.3543055 4
-5.4201841 2.1339741 1.123809 9
-5.3657184 2.1136122 0.90631998 6
-5.4145007 2.13392 0.70988888 9
-5.4385338 2.1444881 0.50811797 9
-5.3956265 2.1286576 0.30197847 4
-5.3087912 2.0954704 0.09895514 50
-1.8049359 0.71426016 -0.50987375 2
-2.1011217 0.83189279 -0.51288873 2
-2.499748 0.99022484 -0.51472205 2
-3.0794001 1.220464 -0.51858068 2
-4.0260377 1.5964596 -0.52708548 4
-5.1932745 2.0603573 -0.48545823 5
-5.3355141 2.117867 -0.2978439 6
-5.2579441 2.0881388 -0.097102582 11
-5.2915921 2.102571 1.5143985 9
-5.3688283 2.1343453 1.3239601 5
-5.3078041 2.1111581 1.1018857 29
-5.2665358 2.0958087 0.89069378 10
-5.2917509 2.1069129 0.69465524 7
-5.3014493 2.1118464 0.49591619 11
-5.2722054 2.101263 0.29543647 4
-5.1760654 2.063993 0.096599065 48
-1.8158855 0.72593468 -0.51375604 2
-2.0982051 0.83922195 -0.51288873 2
-2.5008333 1.0007681 -0.51567525 2
-3.0751209 1.2312057 -0.51858068 2
-4.0204406 1.6105034 -0.52708548 5
-5.1213226 2.0525308 -0.47935733 8
-5.1983232 2.0844443 -0.29054123 6
-5.1067896 2.0487754 -0.094424479 7
-5.1631994 2.0724528 1.4794805 6
-5.2573605 2.1113133 1.2981102 6
-5.177433 2.0802646 1.0761496 6
-5.1125584 2.0552349 0.86569184 11
-5.1692572 2.0790758 0.67942154 10
-5.1461768 2.0708363 0.48197123 7
-5.1490421 2.0730336 0.28889447 4
-5.0528994 2.035351 0.094417512 61
-1.8267753 0.73769408 -0.51763833 3
-2.095263 0.84654099 -0.51288873 2
-2.5018754 1.0113311 -0.51662844 2
-3.0753829 1.243784 -0.51936287 2
-4.0193949 1.6263891 -0.52769482 6
-4.9802341 2.0161905 -0.46671972 7
-5.0568042 2.0482161 -0.28297776 6
-5.0208416 2.0346701 -0.092955858 6
-4.9992757 2.0269463 1.4342167 3
-5.1009717 2.0692155 1.2610213 6
-5.0473437 2.0484872 1.0504135 4
-4.9818077 2.022902 0.84459645 7
-5.0470243 2.0504096 0.66418791 14
-5.0189443 2.0400224 0.47064102 6
-5.0261416 2.0439703 0.28235248 4
-4.9068456 1.9964544 0.091799647 48
-1.8241891 0.74406624 -0.51763833 2
-2.0877843 0.85200882 -0.51176393 2
-2.5028739 1.0219133 -0.51758158 2
-3.0664508 1.2526438 -0.51858068 2
-4.0136933 1.6404095 -0.52769482 6
-4.8440738 1.9807756 -0.45451787 16
-4.8832531 1.9977913 -0.27358866 20
-4.8101344 1.9688578 -0.089154683 26
-4.9608822 2.0315719 1.425164 7
-4.9359274 2.0223584 1.2216847 9
-4.9039164 2.0102422 1.0218178 11
-4.8056555 1.9709424 0.81568795 32
-4.8699603 1.9983089 0.64164203 7
-4.8228731 1.9799708 0.45277408 30
-4.8388462 1.9875156 0.27214697 18
-4.7888703 1.9679651 0.089705363 85
-1.8171152 0.74858963 -0.51634425 3
-2.0847974 0.85929137 -0.51176393 2
-2.5129046 1.0362575 -0.52044117 2
-3.0620594 1.2633402 -0.51858068 2
-4.0079427 1.65441 -0.52769482 7
-4.7128277 1.9463372 -0.44275185 10
-4.7885695 1.978596 -0.26863328 32
-4.7801323 1.9760866 -0.088722728 18
-4.8198657 1.9934971 1.3863664 30
-4.798285 1.9855522 1.1890914 36
-4.806169 1.9897972 1.0027541 33
-4.766808 1.9744761 0.81021881 17
-4.7850165 1.9829968 0.63128316 35
-4.7975273 1.9891627 0.45103094 23
-4.7903705 1.9871752 0.26979184 19
-4.7265635 1.9616734 0.088658221 22
-1.805573 0.7512176 -0.51375604 2
-2.0772879 0.86469126 -0.51063919 2
-2.4911478 1.0374746 -0.51662844 2
-3.0530725 1.2721217 -0.51779848 2
-4.0067244 1.6702999 -0.52830422 8
-4.6232562 1.9282633 -0.43490782 10
-4.726336 1.9722242 -0.26550356 12
-4.6763253 1.952314 -0.086908534 8
-4.750484 1.984248 1.3682609 22
-4.7598577 1.9891391 1.1812241 21
-4.7403245 1.9819483 0.99036258 18
-4.6459856 1.9434576 0.79068607 9
-4.7277079 1.9786122 0.62458038 14
-4.7032599 1.9693451 0.44275117 9
-4.7005086 1.9691575 0.26508161 9
-4.6136422 1.9337134 0.086651191 11
-1.7984869 0.7556448 -0.5124619 2
-2.0697653 0.87004906 -0.50951445 2
-2.4739377 1.0404556 -0.51376885 2
-3.0440612 1.2808558 -0.51701629 2
-4.0008693 1.6842757 -0.52830422 8
-4.5384598 1.9115218 -0.42749956 11
-4.6273961 1.9499314 -0.26028737 11
-4.5727429 1.9278409 -0.08509434 8
-4.6634254 1.9670308 1.3449823 10
-4.6631107 1.9678566 1.158746 9
-4.6203327 1.9507543 0.96653289 10
-4.5663843 1.9289157 0.77818513 10
-4.6247759 1.9545326 0.6117841 12
-4.6137781 1.9508339 0.43490714 9
-4.5970354 1.9447005 0.25958633 8
-4.5239949 1.9147328 0.085080475 10
-1.7913922 0.76003182 -0.51116782 2
-2.0622313 0.87536514 -0.50838971 2
-2.4567373 1.043329 -0.51090926 2
-3.044117 1.2934049 -0.51779848 2
-3.9949658 1.6982311 -0.52830422 8
-4.4538379 1.8942122 -0.4200913 10
-4.5240755 1.9250168 -0.25481039 10
-4.4923897 1.9124603 -0.083712101 8
-4.5809898 1.9511228 1.322997 11
-4.5710535 1.9478335 1.1373918 10
-4.5277085 1.930297 0.94842237 11
-4.4869413 1.9138423 0.76568419 10
-4.5448933 1.9394985 0.60203457 12
-4.5244842 1.9317224 0.42706317 8
-4.5213428 1.9313142 0.25566113 9
-4.4437313 1.8990794 0.083684288 12
-1.7931678 0.7681821 -0.5124619 2
-2.0591633 0.88255835 -0.50838971 2
-2.4440584 1.0480294 -0.50900286 2
-3.044122 1.30597 -0.51858068 3
-3.9890134 1.7121658 -0.52830422 9
-4.3739696 1.8783008 -0.41311884 10
-4.4531007 1.9132026 -0.25115907 11
-4.4122 1.8965424 -0.082329854 9
-4.4942861 1.9327559 1.2997185 10
-4.4836698 1.9291178 1.1171615 10
-4.4443011 1.9130985 0.93221813 12
-4.40766 1.8982378 0.75318313 10
-4.4606152 1.921967 0.59167564 13
-4.4399538 1.9139835 0.41965491 9
-4.441215 1.9154464 0.25147426 9
-4.3728127 1.8868504 0.082462616 13
