# .PCD v0.7 - Point Cloud Data file format
VERSION 0.7
FIELDS x y z intensity
SIZE 4 4 4 4
TYPE F F F F
COUNT 1 1 1 1
WIDTH 1381
HEIGHT 1
VIEWPOINT 0 0 0 1 0 0 0
POINTS 1381
DATA ascii
-4.1990695 -4.7245417 1.220081 15
-2.7293124 -3.0697796 0.64379972 6
-2.7265835 -3.0656326 0.49905494 6
-2.7933354 -3.1395814 0.36431101 2
-2.7774122 -3.1205878 0.21693254 2
-5.4673824 -6.1407704 0.14284793 56
-1.2856237 -1.4414322 -0.50728554 3
-1.4687963 -1.6462256 -0.50051636 3
-1.7348162 -1.9436975 -0.49851784 2
-2.150208 -2.4082584 -0.50528377 2
-2.5015864 -2.8008225 -0.4564012 8
-2.5078604 -2.8068609 -0.32596299 10
-2.6708329 -2.9882138 -0.20734316 10
-5.4635878 -6.1106906 -0.1409888 17
-3.8217421 -4.2728853 1.5247444 15
-4.0148406 -4.4872022 1.3801552 14
-4.2220831 -4.7171707 1.2219874 14
-2.7169511 -3.0344784 0.63833058 4
-2.7306464 -3.0487034 0.49783626 7
-5.4799905 -6.1161342 0.71511286 23
-5.4777279 -6.1114631 0.42810807 20
-5.4520741 -6.0807052 0.14188807 16
-1.2906473 -1.4369358 -0.50728554 3
-1.4712778 -1.6374648 -0.49939165 3
-1.7383091 -1.9339794 -0.49756464 2
-2.1619031 -2.4044106 -0.50606591 2
-2.5179856 -2.799453 -0.45761988 7
-2.517643 -2.7980897 -0.32596299 10
-2.6879284 -2.9862952 -0.20786478 11
-5.4447422 -6.0469995 -0.13995211 12
-3.8398666 -4.2631078 1.5260377 16
-4.033741 -4.4767795 1.3812792 14
-4.2450962 -4.7096958 1.2238938 14
-2.7109914 -3.0066371 0.63442397 4
-2.7279756 -3.0244122 0.49539888 7
-5.464601 -6.0562887 0.71031928 15
-5.4655724 -6.0552402 0.42549133 14
-5.4431138 -6.0282426 0.1411027 16
-1.2924156 -1.42884 -0.50599146 3
-1.4769845 -1.6323191 -0.49939165 3
-1.7450492 -1.9278997 -0.49756464 2
-2.180227 -2.4078317 -0.50841242 2
-2.5344055 -2.7980027 -0.45883858 8
-2.5307393 -2.7929754 -0.32639876 12
-2.7016892 -2.9805939 -0.20812559 11
-5.4355941 -5.9946256 -0.1391746 13
-3.8579693 -4.2532554 1.5273309 15
-4.055891 -4.4698882 1.3835269 13
-4.2681074 -4.7021174 1.2258002 14
-2.694911 -2.9679065 0.62817353 4
-2.7218325 -2.9965041 0.49235213 7
-5.4555616 -6.0039992 0.70639729 4
-5.4530907 -5.9991765 0.42287451 14
-5.43049 -5.972218 0.14023007 16
-1.2973952 -1.42432 -0.50599146 3
-1.4793919 -1.6235522 -0.49826688 3
-1.7517682 -1.9217967 -0.49756464 2
-2.1952736 -2.4075048 -0.5099768 2
-2.5475016 -2.7928057 -0.45944795 9
-2.5471878 -2.7914832 -0.3272703 10
-2.7188098 -2.9785209 -0.20864721 10
-5.4261475 -5.9423904 -0.1383971 13
-3.8760495 -4.243329 1.5286242 16
-4.0747552 -4.4593 1.3846508 14
-4.2911186 -4.6944361 1.2277066 13
-2.6885912 -2.9402583 0.62426692 4
-2.7188771 -2.9723375 0.48991475 6
-2.6923096 -2.9422619 0.34557253 3
-5.4436555 -5.9469566 0.42051938 15
-5.4209185 -5.920042 0.13944472 17
-1.3023592 -1.4197826 -0.50599146 3
-1.4850502 -1.6183784 -0.49826688 3
-1.7551469 -1.9120544 -0.49661148 2
-2.2170246 -2.4143772 -0.51310545 2
-2.5639491 -2.7912056 -0.46066663 9
-2.5602868 -2.7862427 -0.3277061 8
-2.7359481 -2.9763639 -0.20916881 11
-5.4130192 -5.8866143 -0.1375332 13
-3.8973777 -4.2368822 1.5312107 16
-4.0968947 -4.45222 1.3868988 15
-4.314127 -4.6866512 1.2296129 14
-2.7021835 -2.9344883 0.62504828 2
-2.712424 -2.9445782 0.48686799 6
-2.7093143 -2.940172 0.34644407 4
-5.4339232 -5.894877 0.41816428 15
-5.4076605 -5.8643317 0.1385721 17
-1.3073072 -1.4152279 -0.50599146 3
-1.493997 -1.6167629 -0.49939165 3
-1.7618105 -1.9059162 -0.49661148 2
-2.2120275 -2.3921204 -0.5099768 2
-2.5770464 -2.785882 -0.46127596 8
-2.5767629 -2.7846003 -0.32857767 8
-2.7463207 -2.9667954 -0.20916881 13
-5.3961701 -5.8273344 -0.1365829 12
-3.9154253 -4.2267952 1.5325038 15
-4.1190333 -4.4450388 1.3891464 14
-4.3371344 -4.6787629 1.2315193 14
nan nan nan 0
-2.705811 -2.9169004 0.48382127 6
-2.6992323 -2.9087899 0.34382939 4
-5.4204969 -5.8392782 0.41554749 14
-5.3940797 -5.8087864 0.13769948 17
-1.3122393 -1.410656 -0.50599146 3
-1.5029501 -1.6151044 -0.50051636 3
-1.7651082 -1.8961619 -0.49565825 2
-2.2136331 -2.3771563 -0.50841242 2
-2.5935206 -2.7841318 -0.46249467 8
-2.5898628 -2.7792327 -0.32901344 9
-2.7634699 -2.9644961 -0.20969044 14
-5.392612 -5.7828693 -0.13597818 13
-3.9367454 -4.2201657 1.5350904 15
-4.1411729 -4.4377575 1.3913944 14
-4.3601379 -4.6707706 1.2334256 13
-2.7259748 -2.9191618 0.62582964 2
-2.6990378 -2.8893049 0.48077455 7
-2.6991668 -2.8884323 0.34252205 4
-5.4067488 -5.7838454 0.41293067 15
-5.380177 -5.753408 0.13682686 54
-1.3174008 -1.4058368 -0.50599146 3
-1.5121917 -1.6131394 -0.50164115 3
-1.7720462 -1.8896798 -0.49565825 2
-2.2155738 -2.3618233 -0.5068481 2
-2.6104994 -2.7818451 -0.46371335 9
-2.603441 -2.7733533 -0.32944921 8
-2.7708986 -2.9507077 -0.20942962 9
-5.3932338 -5.7412028 -0.13545983 5
-3.9554939 -4.2092285 1.5363837 16
-4.1607471 -4.4260993 1.3925182 14
-4.3839526 -4.6619101 1.235332 14
nan nan nan 0
-2.6960053 -2.8649364 0.47833717 6
-2.6926646 -2.8603859 0.34034318 4
-5.4039497 -5.7385449 0.41109893 13
-2.6554532 -2.8188841 0.066929974 19
-1.3256147 -1.4047422 -0.50728554 3
-1.5211575 -1.6113937 -0.50276589 3
-1.7786316 -1.8834825 -0.49565825 2
-2.2204132 -2.3504853 -0.50606591 2
-2.6236026 -2.7763228 -0.46432272 8
-2.6165278 -2.7678685 -0.32988498 9
-2.6885512 -2.8430634 -0.20238778 7
-2.6751015 -2.8278522 -0.066606842 9
-3.9768021 -4.2024112 1.5389701 15
-4.1828704 -4.4186249 1.3947661 14
-4.406949 -4.6537061 1.2372384 13
nan nan nan 0
-2.6923351 -2.8410993 0.47589979 7
-2.6889257 -2.8365097 0.33860007 4
nan nan nan 0
-2.7031283 -2.8494895 0.067889854 59
-1.3302656 -1.4003386 -0.50728554 3
-1.5262123 -1.6066068 -0.50276589 3
-1.7879212 -1.8814437 -0.49661148 2
-2.2277863 -2.343498 -0.50606591 2
-2.6391516 -2.7752595 -0.46554142 8
-2.6286435 -2.7632437 -0.33032078 9
-2.680259 -2.8165174 -0.20108375 3
-2.6770785 -2.8121922 -0.066434063 2
-3.9966464 -4.1968927 1.5415567 16
-4.2034521 -4.4125175 1.3970138 13
-4.4283199 -4.646945 1.2391448 13
-4.68119 -4.9105835 1.0672699 17
-2.6875477 -2.8182609 0.47346237 6
-2.6840713 -2.813632 0.33685696 4
-2.7117419 -2.8416455 0.20384854 5
-2.718966 -2.8482201 0.068064377 28
-1.334902 -1.3959196 -0.50728554 3
-1.5318111 -1.6012696 -0.50276589 3
-1.7944778 -1.8751913 -0.49661148 2
-2.2359531 -2.3357074 -0.50606591 2
-2.6556876 -2.7731988 -0.4667601 7
-2.6417186 -2.7576478 -0.33075655 8
-2.7177122 -2.8359854 -0.20317021 2
-5.3576655 -5.5888748 -0.1331273 23
-4.0146151 -4.1864023 1.5428499 16
-4.2255745 -4.40485 1.3992616 13
-4.4513106 -4.6385422 1.2410512 14
-4.6983032 -4.8942132 1.0672699 12
-2.6836193 -2.7945447 0.47102499 7
-2.6835241 -2.7934697 0.33554959 4
-2.7251043 -2.8357625 0.20411022 2
-5.348125 -5.5633521 0.13403447 67
-1.3433602 -1.3944957 -0.50857961 3
-1.5342894 -1.5921366 -0.50164115 3
-1.8047451 -1.8721352 -0.49756464 2
-2.244499 -2.3274965 -0.50606591 2
-2.6727252 -2.7705898 -0.46797881 8
-2.655267 -2.7515311 -0.33119234 8
-5.3637195 -5.5562353 -0.40138504 28
-5.3433867 -5.5332394 -0.13226339 14
-4.036643 -4.1786075 1.5454364 14
-4.2484617 -4.3963394 1.4015094 14
-4.4751043 -4.6292539 1.2429576 13
-4.7265081 -4.8876104 1.0696138 12
-2.6834922 -2.7739892 0.46919695 9
-2.6798894 -2.7692976 0.33380648 4
-5.3644781 -5.5415149 0.4022018 20
-5.3337016 -5.5077996 0.13316184 17
-1.3482196 -1.389798 -0.50857961 3
-1.5364447 -1.5832748 -0.50051636 3
-1.8112689 -1.865824 -0.49756464 2
-2.2491693 -2.3161047 -0.50528377 2
-2.6858382 -2.7648032 -0.46858817 8
-2.6683269 -2.7458179 -0.33162811 8
-5.3413162 -5.4945149 -0.39825535 18
-5.3347864 -5.4858818 -0.13157228 15
-4.0545726 -4.167953 1.5467297 14
-4.2705779 -4.3884659 1.4037572 14
-4.4980836 -4.6206384 1.2448639 13
-4.7538772 -4.8816962 1.0719577 12
-2.6723812 -2.7432761 0.46554089 9
-2.6756344 -2.745657 0.33206338 4
-5.345449 -5.4834266 0.39932331 13
-5.3214827 -5.4569364 0.13237649 17
-1.3530627 -1.3850834 -0.50857961 3
-1.5385571 -1.5744177 -0.49939165 3
-1.8177708 -1.85949 -0.49756464 2
-2.2572403 -2.3082395 -0.50528377 2
-2.7024133 -2.7625062 -0.46980685 9
-2.6848626 -2.743607 -0.33249965 8
-5.3325195 -5.4472923 -0.39616886 13
-5.3259201 -5.4386516 -0.13088115 15
-4.0758562 -4.160675 1.5493162 15
-4.2892804 -4.3770123 1.4048812 14
-4.5210576 -4.6119194 1.2467703 13
-4.7778044 -4.8721242 1.0735204 12
-2.6645639 -2.7162178 0.46249413 7
-2.6712477 -2.7220802 0.33032027 4
-5.3540635 -5.4540448 0.39853829 2
-5.3054709 -5.4026585 0.13150388 58
-1.3578893 -1.3803519 -0.50857961 3
-1.5474604 -1.5725099 -0.50051636 3
-1.8242507 -1.8531336 -0.49756464 2
-2.2652838 -2.3003464 -0.50528377 2
-2.7190056 -2.7601271 -0.47102556 9
-2.6979196 -2.7377663 -0.33293545 10
-5.3269644 -5.4037538 -0.39434323 13
-5.3167906 -5.3915505 -0.13019003 15
-4.0937471 -4.1498609 1.5506095 14
-4.311377 -4.3689485 1.4071289 14
-4.5440249 -4.603096 1.2486767 13
-4.8051925 -4.8659592 1.0758643 12
-2.6565909 -2.6892474 0.45944741 6
-2.6667285 -2.6985676 0.32857716 4
nan nan nan 0
-5.2996912 -5.3592234 0.13089304 59
-1.3626994 -1.3756036 -0.50857961 3
-1.5529401 -1.5670986 -0.50051636 3
-1.8307081 -1.8467544 -0.49756464 2
-2.2732997 -2.2924249 -0.50528377 2
-2.7321186 -2.754142 -0.47163489 11
-2.710968 -2.7318676 -0.33337122 10
-5.310617 -5.3496895 -0.39173511 13
-5.3073974 -5.3445802 -0.12949891 15
-4.115015 -4.1423984 1.5531958 14
-4.3300357 -4.3573284 1.4082528 13
-4.5669856 -4.5941682 1.2505831 13
-4.829113 -4.8561602 1.0774269 12
-2.6484618 -2.6623659 0.45640066 6
-2.6620784 -2.6751199 0.32683405 4
-2.6408052 -2.6528163 0.19416638 4
-5.2901449 -5.3123512 0.13019495 59
-1.364082 -1.3674192 -0.50728554 3
-1.5618423 -1.5651171 -0.50164115 3
-1.8371434 -1.8403529 -0.49756464 2
-2.2777984 -2.2809811 -0.50450158 2
-2.7522376 -2.7551217 -0.47346294 12
-2.7275295 -2.7294345 -0.33424279 13
-5.3010178 -5.3028688 -0.38964865 13
-5.2977409 -5.2977414 -0.12880778 16
-4.1328659 -4.131424 1.5544891 14
-4.3521118 -4.3490748 1.4105008 14
-4.5899396 -4.5851364 1.2524893 13
-4.853024 -4.8462529 1.0789895 13
-2.6507146 -2.6460927 0.45518199 6
-2.6572967 -2.6517375 0.32509091 4
-2.650049 -2.6435819 0.19416638 4
-5.2803369 -5.2656126 0.12949684 59
-1.3688468 -1.3626493 -0.50728554 3
-1.5638427 -1.556219 -0.50051636 3
-1.8435563 -1.8339288 -0.49756464 3
-2.2857466 -2.2730162 -0.50450158 2
-2.7688773 -2.7524955 -0.47468162 13
-2.7405736 -2.7234082 -0.33467856 12
-5.2982416 -5.2632194 -0.38808382 13
-5.2878227 -5.2510352 -0.12811667 16
-4.1541176 -4.1237779 1.5570757 14
-4.3741832 -4.3407207 1.4127485 13
-4.612886 -4.5759997 1.2543958 14
-4.8804312 -4.8397155 1.0813335 13
-2.6423128 -2.6193545 0.45213524 3
-2.6559229 -2.6319275 0.32378358 4
-2.6379771 -2.6132314 0.1925963 4
-5.2702675 -5.219007 0.12879875 59
-1.373595 -1.3578629 -0.50728554 3
-1.5658001 -1.5473264 -0.49939165 3
-1.8499466 -1.8274823 -0.49756464 3
-2.2866392 -2.2580838 -0.5029372 2
-2.8208497 -2.7846506 -0.48199379 6
nan nan nan 0
nan nan nan 0
-5.2776432 -5.2044635 -0.12742554 16
-4.1753659 -4.1160336 1.5596621 14
-4.3962483 -4.3322644 1.4149964 13
-4.6393213 -4.5702038 1.2572553 13
-4.9043326 -4.8295803 1.0828961 13
-2.6691232 -2.6275227 0.45518199 3
-2.650893 -2.6086657 0.32204047 4
-2.6328447 -2.5900009 0.19154958 4
-5.2599373 -5.1725368 0.12810065 59
-1.3783265 -1.35306 -0.50728554 3
-1.5677145 -1.5384389 -0.49826688 3
-1.8528109 -1.8175768 -0.49661148 3
-2.2945075 -2.2500882 -0.5029372 2
-2.6852522 -2.632349 -0.45701057 7
-2.6527929 -2.5996215 -0.32160518 10
-5.2849202 -5.1771841 -0.38443246 12
-5.2707748 -5.1615248 -0.1268208 13
-4.1931596 -4.1048121 1.5609554 15
-4.4183083 -4.3237076 1.4172441 14
-4.6622634 -4.5608463 1.2591617 13
-4.9317536 -4.8227901 1.08524 11
-2.6818275 -2.621659 0.45579132 3
-2.6492953 -2.5889528 0.32073313 4
-2.6311545 -2.5703273 0.19076456 4
-5.2493472 -5.1262021 0.12740256 44
-1.3830411 -1.3482404 -0.50728554 3
-1.569586 -1.5295571 -0.49714214 3
-1.8591441 -1.8110981 -0.49661148 2
-2.2952716 -2.2351742 -0.50137287 2
-2.6837564 -2.6125746 -0.45518249 5
-2.6511419 -2.5799243 -0.32029784 7
-2.5792906 -2.5091269 -0.18595681 2
nan nan nan 0
-4.2143893 -4.0968843 1.563542 14
-4.4438562 -4.3184443 1.4206158 14
-4.6851959 -4.551384 1.2610681 14
-4.9591875 -4.8158679 1.087584 13
-2.6909626 -2.6122816 0.45579132 2
-2.6475928 -2.5692828 0.31942579 4
-2.6293588 -2.5506973 0.18997951 4
nan nan nan 0
-1.391209 -1.3467637 -0.50857961 3
-1.5784163 -1.5274568 -0.49826688 3
-1.8654547 -1.8045974 -0.49661148 2
-2.2995098 -2.2237155 -0.50059068 2
-3.0639403 -2.961915 -0.51855469 5
nan nan nan 0
-2.6490839 -2.5590844 -0.19039057 12
-2.6599054 -2.5686409 -0.063237622 10
-4.2356138 -4.0888567 1.5661285 14
-4.4659152 -4.3096728 1.4228636 14
-4.7081203 -4.5418181 1.2629745 13
-4.983077 -4.8053837 1.0891466 13
-5.2225294 -5.0345383 0.88599008 34
-2.6421986 -2.5462 0.31768268 4
-2.6274583 -2.531111 0.18919449 4
-2.6346731 -2.5371749 0.063177705 44
-1.3924199 -1.3385522 -0.50728554 3
-1.5837387 -1.5219377 -0.49826688 3
-1.8752819 -1.801475 -0.49756464 3
-2.3001342 -2.2088342 -0.49902633 2
-3.1959839 -3.0680528 -0.53927243 5
-3.1003523 -2.9752095 -0.37259138 5
nan nan nan 0
-2.6544223 -2.5454996 -0.062892064 2
-4.256834 -4.0807314 1.568715 14
-4.4879661 -4.3007994 1.4251114 13
-4.7345786 -4.5355415 1.2658341 14
-5.0105214 -4.7982078 1.0914905 13
-5.2544112 -5.0300055 0.8884275 36
-2.640274 -2.5266299 0.31637534 4
-2.6218455 -2.5081179 0.18814775 4
-2.6615791 -2.5452385 0.063614018 23
-1.3970838 -1.3336836 -0.50728554 3
-1.5925661 -1.5197637 -0.49939165 3
-1.8815589 -1.7949181 -0.49756464 3
-2.2971087 -2.1905673 -0.49667984 2
-3.2210419 -3.070575 -0.54170984 2
-3.110719 -2.9643693 -0.37259138 4
-3.107955 -2.9607003 -0.22220926 6
-5.2373381 -4.9874501 -0.12431549 30
-4.278049 -4.0725079 1.5713015 14
-4.5135398 -4.2951832 1.4284832 13
-4.7574935 -4.525753 1.2677404 13
-5.0379758 -4.7908978 1.0938345 13
-5.2467589 -4.9876981 0.88416201 16
-2.634635 -2.5036736 0.31463224 4
-2.6161036 -2.4851949 0.18710104 4
-5.2225304 -4.9594626 0.12504649 67
-1.4017307 -1.3287987 -0.50728554 3
-1.6013975 -1.5175463 -0.50051636 2
-1.8878127 -1.7883394 -0.49756464 3
-2.2939839 -2.1723487 -0.4943333 2
-5.2463813 -4.9664631 -0.88233501 23
-3.124665 -2.9569161 -0.37302715 4
-3.1291528 -2.9601281 -0.2229917 6
-5.2329216 -4.9485283 -0.12379716 22
-4.2992582 -4.0641861 1.5738881 14
-4.5355873 -4.2860942 1.4307309 13
-4.7803988 -4.5158601 1.2696468 14
-5.0618501 -4.7800646 1.0953971 12
-5.242485 -4.9489131 0.88050598 15
-2.6324906 -2.4842062 0.3133249 4
-2.6102345 -2.4623425 0.18605432 4
-5.2107134 -4.9137635 0.12434839 18
-1.4063605 -1.3238977 -0.50728554 3
-1.606685 -1.5119472 -0.50051636 2
-1.897619 -1.785102 -0.49851784 3
-2.29076 -2.1541786 -0.49198681 2
-5.2275271 -4.9141283 -0.87624156 16
-3.113189 -2.9255252 -0.37041247 5
-3.1249096 -2.9355123 -0.22194847 6
-5.2137203 -4.8960094 -0.12293325 14
-4.3204613 -4.0557647 1.5764744 14
-4.5576272 -4.2769041 1.4329789 14
-4.8032928 -4.5058622 1.2715533 14
-5.0893116 -4.7725005 1.097741 13
-5.2307625 -4.9034305 0.87563121 15
-2.6266079 -2.4613781 0.31158176 4
-2.6078818 -2.4429753 0.18526928 4
-5.1986413 -4.8682079 0.1236503 62
-1.4074452 -1.3156825 -0.50599146 3
-1.611953 -1.5063295 -0.50051636 3
-1.9002517 -1.7751164 -0.49756464 3
-2.3054843 -2.1529102 -0.49355114 2
-5.2192545 -4.8721457 -0.87197614 13
-3.1088157 -2.9010472 -0.36866936 5
-3.1241834 -2.9143684 -0.22116603 6
-5.201529 -4.8505049 -0.12224213 15
-4.3416581 -4.047246 1.579061 15
-4.5796566 -4.267612 1.4352266 13
-4.8297663 -4.4991045 1.2744128 13
-5.1167827 -4.7648039 1.100085 14
-5.2224197 -4.8614717 0.87136573 15
-2.6205981 -2.4386218 0.30983865 4
-2.6017697 -2.4202538 0.18422256 4
-5.1826544 -4.8193922 0.12286494 61
-1.4120291 -1.3107616 -0.50599146 3
-1.6136302 -1.49738 -0.49939165 3
-1.9028382 -1.7651345 -0.49661148 3
-2.3202279 -2.1515653 -0.49511549 2
-5.2034736 -4.8235331 -0.86649197 13
-3.1043093 -2.8766356 -0.36692625 5
-3.1196854 -2.8898721 -0.2201228 6
-5.1964207 -4.8119383 -0.12172379 14
-4.3628478 -4.0386276 1.5816474 15
-4.6016774 -4.2582178 1.4374745 12
-4.8526478 -4.488884 1.2763191 13
-5.1442614 -4.7569718 1.1024289 14
-5.2138481 -4.8196316 0.86710036 15
-2.6181197 -2.4193182 0.30853134 4
-2.5991988 -2.4009929 0.18343751 4
-5.1774082 -4.7809224 0.12234136 61
-1.4165961 -1.3058246 -0.50599146 3
-1.6188471 -1.4917382 -0.49939165 3
-1.9089879 -1.7584817 -0.49661148 2
-2.3313565 -2.1467981 -0.49589765 2
-5.1947198 -4.7818131 -0.86222655 13
-3.0996702 -2.8522906 -0.36518314 5
-3.1113791 -2.8620625 -0.21881874 6
-5.1874256 -4.770083 -0.12111905 14
-4.3840308 -4.0299115 1.584234 14
-4.6236882 -4.2487221 1.4397222 13
-4.8791318 -4.4818792 1.2791787 13
-5.1717477 -4.7490072 1.1047728 19
-5.2050481 -4.7779112 0.86283493 15
-2.6118689 -2.3966937 0.30678821 4
-2.5928457 -2.3784046 0.18239079 4
-5.1682725 -4.7391701 0.12173053 62
-1.4211456 -1.3008718 -0.50599146 3
-1.6240444 -1.4860783 -0.49939165 3
-1.9114927 -1.7484944 -0.49565825 3
-2.3424807 -2.1419799 -0.49667984 2
-5.1930652 -4.7469091 -0.85917979 13
-3.0985763 -2.8313735 -0.36387578 5
-3.1029179 -2.834347 -0.21751472 6
-5.1782026 -4.7283492 -0.12051433 14
-4.4052048 -4.0210958 1.5868205 14
-4.6456885 -4.2391243 1.4419701 13
-4.901999 -4.471436 1.281085 13
-5.1809955 -4.7242703 1.1032102 17
-5.1960206 -4.736311 0.8585695 15
-2.6091735 -2.3774974 0.30548087 4
-2.5900583 -2.3592522 0.18160577 4
-5.1626058 -4.7009053 0.12120695 61
-1.4256778 -1.2959032 -0.50599146 3
-1.6256162 -1.4771237 -0.49826688 3
-1.9175845 -1.7418113 -0.49565825 3
-2.3499432 -2.13379 -0.49667984 2
nan nan nan 0
-3.0973749 -2.810499 -0.36256844 5
-3.0943005 -2.806725 -0.21621066 6
nan nan nan 0
-4.4227934 -4.0089383 1.5881138 15
-4.6676784 -4.2294245 1.4442178 12
-4.9284906 -4.4641829 1.2839446 13
-5.1681676 -4.6796384 1.0969597 15
-5.1867666 -4.6948318 0.85430408 12
-2.6063766 -2.3583496 0.30417356 4
-2.5871687 -2.3401482 0.18082072 4
-5.1456099 -4.652679 0.1204216 61
-1.4337777 -1.2941546 -0.50728554 3
-1.6307623 -1.4714404 -0.49826688 3
-1.9236528 -1.7351071 -0.49565825 2
-2.3610449 -2.1288812 -0.49746197 3
-5.1781564 -4.667345 -0.85125828 3
-3.0849638 -2.7796648 -0.35995379 5
-3.0929489 -2.7858815 -0.21542825 6
nan nan nan 0
-4.4439397 -3.9999375 1.5907003 14
-4.6896572 -4.2196236 1.4464656 13
-4.9513421 -4.453517 1.285851 13
-5.1587644 -4.6384554 1.0914905 15
-5.166214 -4.6435232 0.84821063 7
-2.5997727 -2.335921 0.30243042 4
-2.5841775 -2.3210936 0.18003568 4
-5.1432204 -4.61799 0.11998529 62
-1.4382864 -1.289142 -0.50728554 3
-1.6322604 -1.4624881 -0.49714214 3
-1.9296979 -1.7283816 -0.49565825 2
-2.3684616 -2.1206267 -0.49746197 3
-2.7353375 -2.4482527 -0.4460423 4
-2.6009469 -2.3271494 -0.3019951 5
-3.0914891 -2.7650819 -0.2146458 6
nan nan nan 0
-4.4650774 -3.9908383 1.5932868 14
-4.7116241 -4.2097197 1.4487134 13
-4.9778399 -4.4460154 1.2887106 14
-5.1528211 -4.6006851 1.0868027 15
-5.1601763 -4.6056337 0.84455448 4
-2.5967605 -2.3168833 0.30112308 4
-2.5810847 -2.3020883 0.17925064 4
-5.1406517 -4.583374 0.11954898 48
-1.4427775 -1.2841136 -0.50728554 3
-1.6373556 -1.4567815 -0.49714214 3
-1.9357191 -1.7216352 -0.49565825 2
-2.3758497 -2.1123462 -0.49746197 3
-2.6103284 -2.3200037 -0.42410579 6
-2.5904365 -2.3015146 -0.29981622 8
-2.630724 -2.3364875 -0.18178387 6
-2.6043828 -2.3122797 -0.059522845 12
-4.4862051 -3.9816399 1.5958734 14
-4.7372236 -4.2029481 1.4520853 12
-5.0006738 -4.4351263 1.290617 13
-5.1429815 -4.5597367 1.0813335 15
-5.1910772 -4.6007595 0.8469919 6
-2.5899193 -2.2945926 0.29937997 4
-2.5778911 -2.283133 0.1784656 4
-2.5327401 -2.2423561 0.058378298 28
-1.4472512 -1.2790695 -0.50728554 3
-1.6424307 -1.4510572 -0.49714214 3
-1.941717 -1.7148679 -0.49565825 2
-2.3869109 -2.1073086 -0.49824417 3
-2.6258531 -2.3174458 -0.4253245 3
nan nan nan 0
-2.5939252 -2.2876577 -0.17865416 12
-2.6049387 -2.2965627 -0.059350066 13
-4.5073233 -3.9723425 1.5984597 14
-4.7591767 -4.1928277 1.4543329 13
-5.0234909 -4.4241314 1.2925233 14
-5.1366262 -4.5221758 1.0766456 14
-5.2220073 -4.5957265 0.84942925 1
-2.5829544 -2.272378 0.29763687 4
-2.5745969 -2.2642283 0.17768057 4
-2.5780978 -2.2665095 0.059250917 46
-1.4517071 -1.2740099 -0.50728554 3
-1.6511478 -1.4485279 -0.49826688 3
-1.9476912 -1.7080796 -0.49565825 3
-2.3942523 -2.098964 -0.49824417 3
-5.1495099 -4.5128202 -0.83602458 21
nan nan nan 0
nan nan nan 0
nan nan nan 0
-4.5284314 -3.9629467 1.6010463 14
-4.7811179 -4.1826057 1.4565809 12
-5.0499883 -4.4162626 1.295383 13
-5.1263533 -4.4814658 1.0711765 15
-2.5773566 -2.2523353 0.41557443 7
-2.5796168 -2.2535169 0.29632953 4
-2.5712018 -2.2453744 0.17689553 4
-2.5822279 -2.254209 0.059163652 28
-1.4561454 -1.2689347 -0.50728554 3
-1.6561942 -1.4427555 -0.49826688 3
-1.9573435 -1.704494 -0.49661148 3
-2.3978395 -2.0873511 -0.49746197 3
-5.1315379 -4.465498 -0.83054054 15
-5.1172547 -4.4514995 -0.59004527 26
-3.0318308 -2.6364596 -0.20786478 7
-3.0170712 -2.6227005 -0.068421036 5
-4.5495281 -3.9534512 1.6036328 15
-4.8067226 -4.1754761 1.4599525 13
-5.0727849 -4.4050441 1.2972893 15
-5.1195884 -4.4441195 1.0664886 14
-2.57021 -2.2303147 0.41313705 7
-2.5761797 -2.2347071 0.29502219 4
-2.5677068 -2.226572 0.17611049 4
-5.1172605 -4.4358382 0.11754195 67
-1.4605659 -1.263844 -0.50728554 3
-1.6649051 -1.4401529 -0.49939165 3
-1.9669938 -1.7008615 -0.49756464 2
-2.4051111 -2.0789683 -0.49746197 3
-5.1283188 -4.431335 -0.82749379 16
-5.1063762 -4.4108176 -0.58699483 16
-3.0712492 -2.6519673 -0.20995125 7
-3.0413456 -2.6252193 -0.068766601 5
-4.5706143 -3.9438572 1.6062193 13
-4.8286467 -4.1650357 1.4622003 13
-5.0955653 -4.3937206 1.2991956 15
-5.1126261 -4.4068761 1.0618007 14
-2.5742199 -2.2180898 0.41252771 7
-2.5726426 -2.2159488 0.29371485 4
-2.5641122 -2.2078214 0.17532544 4
-5.1099801 -4.3983812 0.11701838 18
-1.4649688 -1.258738 -0.50728554 3
-1.669922 -1.4343325 -0.49939165 3
-1.9766431 -1.6971827 -0.49851784 3
-2.4086061 -2.067344 -0.49667984 3
-5.113625 -4.3875537 -0.82261902 15
-5.102838 -4.3767524 -0.58481592 16
-3.072906 -2.6347299 -0.20942962 7
-3.0504909 -2.6145871 -0.068766601 9
-4.5953565 -3.9373059 1.6100991 14
-4.8542576 -4.1576638 1.4655721 13
-5.122056 -4.3854837 1.3020552 24
-5.1054654 -4.3697348 1.0571129 15
-2.5668631 -2.1961854 0.41009033 7
-2.5690064 -2.1972425 0.29240751 4
-2.5604181 -2.1891234 0.17454042 4
-5.0948992 -4.3545322 0.11632028 59
-1.4693537 -1.2536168 -0.50728554 3
-1.6786251 -1.431656 -0.50051636 3
-1.9900254 -1.6966413 -0.50042421 3
-2.4158077 -2.0589235 -0.49667984 3
-5.1024656 -4.3471479 -0.81835353 16
-5.0877481 -4.3330765 -0.5813297 16
-3.0630748 -2.6078033 -0.20812559 7
-3.0443702 -2.5909624 -0.068421036 5
-4.6164289 -3.9275002 1.6126854 13
-4.876163 -4.1470065 1.4678198 13
-5.1036777 -4.3389649 1.2934765 13
-5.0981083 -4.3326974 1.052425 14
-2.5593853 -2.1743596 0.40765294 7
-2.5652707 -2.1785886 0.29110017 4
-2.5566244 -2.1704781 0.17375536 4
-5.0795755 -4.310843 0.11562219 58
-1.4737207 -1.2484801 -0.50728554 3
-1.6836123 -1.4257877 -0.50051636 3
-1.984697 -1.6801702 -0.49756464 2
-2.4192102 -2.0472879 -0.49589765 3
-5.0986652 -4.3132849 -0.81530684 16
-5.0876288 -4.3024249 -0.57958657 16
-3.0645328 -2.5906482 -0.20760398 7
-3.0381222 -2.5674126 -0.068075471 5
-4.6411796 -3.9207127 1.6165653 13
-4.8980541 -4.1362472 1.4700676 13
-5.100039 -4.3052926 1.2887106 12
-5.0905557 -4.2957654 1.0477371 15
-2.5555797 -2.1558125 0.4058249 7
-2.5614359 -2.1599877 0.28979284 4
-2.5527322 -2.1518857 0.17297032 4
-5.0716548 -4.273757 0.11509861 52
-1.4780697 -1.2433282 -0.50728554 2
-1.688579 -1.4199021 -0.50051636 3
-1.9830354 -1.6669157 -0.49565825 2
-2.4225612 -2.0356541 -0.49511549 3
-5.0908899 -4.276309 -0.81165075 16
-5.0759139 -4.2622185 -0.57653612 16
-3.0620837 -2.5703044 -0.20682155 7
-3.0317469 -2.5439379 -0.067729913 6
-4.6622372 -3.9106958 1.6191517 13
-4.9236622 -4.1285157 1.4734393 13
-5.0924668 -4.2685456 1.2829915 12
-5.0790224 -4.2557673 1.042268 14
-2.551676 -2.1373188 0.40399686 7
-2.5613225 -2.1446381 0.28892127 4
-2.5449126 -2.1301425 0.17192361 4
nan nan nan 0
-1.4824007 -1.2381612 -0.50728554 3
-1.6935251 -1.4139993 -0.50051636 3
-1.9813056 -1.6536932 -0.49375188 2
-2.429652 -2.0271854 -0.49511549 3
-5.0867305 -4.242619 -0.808604 16
-5.0678072 -4.2253361 -0.57392144 17
-3.0633657 -2.5532064 -0.20629992 7
-3.0290859 -2.5237396 -0.067470744 5
-4.6832829 -3.9005802 1.6217383 14
-4.9455318 -4.1175385 1.4756873 13
-5.0846996 -4.2319045 1.2772723 12
-5.0710683 -4.2190609 1.0375801 15
-2.5476744 -2.1188786 0.40216881 7
-2.5573025 -2.1261313 0.28761396 4
-2.5408125 -2.1116717 0.17113857 4
-3.0172164 -2.5067215 0.067802593 45
-1.4829961 -1.2298962 -0.50599146 3
-1.6984504 -1.4080791 -0.50051636 3
-1.9795076 -1.6405032 -0.49184549 2
-2.4291074 -2.0123909 -0.49355114 3
nan nan nan 0
-5.0633416 -4.1917386 -0.57174253 13
-3.0607193 -2.5329473 -0.20551749 7
-3.0263212 -2.5035908 -0.067211576 5
-4.7043138 -3.8903642 1.6243248 14
-4.9673848 -4.1064587 1.477935 14
-5.0767398 -4.1953697 1.2715533 12
-5.0629196 -4.1824617 1.0328922 15
-2.5435753 -2.1004927 0.40034077 7
-2.5531847 -2.1076789 0.28630662 4
-2.5366144 -2.0932555 0.17035353 4
nan nan nan 0
-1.4872804 -1.2247121 -0.50599146 3
-1.7033553 -1.4021418 -0.50051636 3
-1.9965924 -1.6429397 -0.49470508 2
-2.4361174 -2.0038996 -0.49355114 3
-3.0462873 -2.5049212 -0.47955641 2
-3.0077929 -2.4723883 -0.33729324 3
-3.0541108 -2.509568 -0.20447426 7
-3.0234525 -2.4834924 -0.066952407 5
-4.7253304 -3.8800497 1.6269113 13
-4.9929862 -4.0983677 1.4813067 13
-5.0723815 -4.1620555 1.2667873 12
-5.0545783 -4.1459713 1.0282044 15
-2.5393791 -2.0821612 0.39851275 7
-2.5489697 -2.0892811 0.28499928 4
-2.5323193 -2.0748949 0.16956849 4
-3.0114384 -2.4665899 0.067279026 44
-1.4878073 -1.2164559 -0.50469732 3
-1.7082393 -1.3961874 -0.50051636 3
-2.009917 -1.6421713 -0.49661148 2
-2.4469223 -1.9985075 -0.4943333 3
-3.0972989 -2.5287971 -0.48625922 5
-3.0588527 -2.4965184 -0.34208682 4
-3.0667212 -2.5020485 -0.20473507 16
-3.0204806 -2.4634442 -0.066693231 5
-4.7463322 -3.8696356 1.6294978 14
-5.0110383 -4.083992 1.4824306 14
-5.0640469 -4.1257229 1.2610681 12
-5.0498729 -4.112709 1.0242978 15
-2.5389345 -2.0670178 0.39729404 7
-2.5446575 -2.0709386 0.28369194 4
-2.5318003 -2.0597405 0.16904514 4
-3.0006371 -2.4402916 0.066842712 45
-1.4920444 -1.2112551 -0.50469732 3
-1.7131025 -1.3902161 -0.50051636 3
-2.0232606 -1.6413298 -0.49851784 2
-2.4577193 -1.9930646 -0.49511549 3
-3.0868313 -2.5023441 -0.4832125 2
-5.0411716 -4.085175 -0.56433433 25
-3.0676763 -2.4850421 -0.20421346 9
-3.0096354 -2.437155 -0.066261277 6
-4.7673192 -3.8591218 1.6320844 13
-5.0404129 -4.0787339 1.4869262 15
-5.0555215 -4.0895 1.255349 11
-5.0411572 -4.0764251 1.0196099 15
-2.5345557 -2.0487833 0.395466 7
-2.544122 -2.0557821 0.28282037 4
-2.5273218 -2.0414777 0.1682601 4
-2.9935787 -2.4172397 0.066493668 44
-1.4962634 -1.2060395 -0.50469732 3
-1.7179449 -1.3842279 -0.50051636 3
-2.0328 -1.637336 -0.49947101 2
-2.4685075 -1.9875704 -0.49589765 4
-5.0672154 -4.0785165 -0.79397964 16
-5.0321155 -4.0488181 -0.5617196 6
-3.0724413 -2.4711895 -0.20395264 6
-3.0025401 -2.4141045 -0.065915719 5
-4.78829 -3.8485088 1.6346707 14
-5.0584178 -4.0641661 1.4880501 24
-5.0506306 -4.0564599 1.2505831 12
-5.0361013 -4.043344 1.0157034 15
-2.5339513 -2.033711 0.39424729 7
-2.5396273 -2.0375381 0.28151307 4
-2.5266421 -2.0263953 0.16773674 4
nan nan nan 0
-1.5004642 -1.2008092 -0.50469732 3
-1.7227663 -1.3782226 -0.50051636 3
-2.0461695 -1.6363615 -0.5013774 2
-2.4792881 -1.9820254 -0.49667984 4
-2.4800522 -1.9819268 -0.38510755 2
-2.4816227 -1.9824723 -0.27454099 3
-5.0592303 -4.0401769 -0.3361828 7
-2.5381994 -2.0262182 -0.055462509 6
-4.8092451 -3.8377962 1.6372573 13
-5.0573392 -4.0343318 1.4835545 16
-5.0417347 -4.0204439 1.2448639 12
-5.0270138 -4.0072699 1.0110155 15
-2.5293913 -2.0155752 0.39241928 7
-2.5389323 -2.0224538 0.2806415 4
-2.521982 -2.0082321 0.16695169 4
-2.5331955 -2.016439 0.055847697 57
-1.5046467 -1.1955644 -0.50469732 3
-1.7275667 -1.3722006 -0.50051636 3
-2.063401 -1.6383654 -0.504237 2
-2.4900594 -1.9764291 -0.49746197 4
-2.5608206 -2.0318656 -0.39668515 5
-2.5353575 -2.010941 -0.27977037 5
-2.5066423 -1.987453 -0.1650921 8
-2.5374207 -2.0111351 -0.055289723 14
-4.8339686 -3.8299832 1.641137 14
-5.0484753 -3.9985042 1.4768111 15
-5.032649 -3.98454 1.2391448 11
-5.0216088 -3.9743733 1.007109 15
-2.5247357 -1.9974961 0.39059123 7
-2.5342562 -2.0043094 0.27933416 4
-2.517226 -1.9901265 0.16616665 4
-2.5637522 -2.0261831 0.056371272 49
-1.5126026 -1.1932962 -0.50599146 3
-1.7285208 -1.3631454 -0.49939165 3
-2.0575435 -1.6220367 -0.5013774 2
-2.4969435 -1.9677252 -0.49746197 4
-2.5795927 -2.0321276 -0.3985132 3
-2.5501881 -2.0082421 -0.28064194 3
-2.5135646 -1.978691 -0.1650921 4
nan nan nan 0
-4.8549013 -3.8190591 1.6437236 13
-5.0394235 -3.9627879 1.4700676 15
-5.0233741 -3.9487486 1.2334256 12
-5.0121522 -3.9385128 1.0024211 15
-2.516082 -1.9764086 0.38815385 10
-2.5294843 -1.9862225 0.27802682 5
-2.5202298 -1.9782445 0.16590497 16
nan nan nan 0
-1.5167587 -1.188009 -0.50599146 3
-1.7294323 -1.3540998 -0.49826688 3
-2.0593278 -1.6118195 -0.50042421 2
-2.5037968 -1.9589972 -0.49746197 5
-5.0220299 -3.9278765 -0.77813661 21
-5.009676 -3.9168055 -0.55300403 26
-2.5165219 -1.9668301 -0.16483128 2
-2.9414065 -2.2980788 -0.063842356 9
-4.8758154 -3.8080347 1.6463101 13
-5.0340238 -3.9301817 1.4644481 15
-5.0139112 -3.9130712 1.2277066 12
-5.0064011 -3.9058042 0.99851459 15
-2.5268791 -1.9706658 0.38876316 13
-2.548187 -1.9865683 0.27933416 4
-2.4916744 -1.941812 0.16354986 6
-2.9682658 -2.3123968 0.065010212 47
-1.5208964 -1.1827072 -0.50599146 3
-1.7341485 -1.3480546 -0.49826688 3
-2.0571902 -1.5985978 -0.49851784 2
-2.5106196 -1.9502453 -0.49746197 4
-5.0082726 -3.8890164 -0.77387118 15
-4.9918404 -3.8748605 -0.54951781 17
-5.0046906 -3.8834352 -0.32888016 24
-3.0165637 -2.3398869 -0.065310992 8
-4.9005284 -3.7998705 1.6501898 13
-5.0246072 -3.8946772 1.4577047 15
-5.0081396 -3.8805134 1.2229406 12
-4.9965777 -3.8701594 0.99382669 15
-2.5376666 -1.9648715 0.38937253 10
-2.5511668 -1.9746125 0.27889836 5
-2.5023863 -1.9361578 0.16381153 5
-2.980274 -2.3050799 0.065097474 46
-1.5288384 -1.1803424 -0.50728554 3
-1.7388436 -1.3419931 -0.49826688 3
-2.0588715 -1.5884089 -0.49756464 2
-2.5135014 -1.9384538 -0.49667984 4
-5.0021648 -3.85636 -0.77082443 15
-4.9895544 -3.8452497 -0.54777467 18
-4.9984384 -3.8507061 -0.3275761 14
-3.0167911 -2.3232422 -0.065138213 8
-4.9252443 -3.79158 1.6540697 13
-5.0188665 -3.8622577 1.4520853 15
-4.9983125 -3.845052 1.2172214 12
-4.9904828 -3.8376424 0.9899202 15
-2.5523789 -1.9620507 0.39059123 9
-2.5738423 -1.9778353 0.2806415 5
-2.5170488 -1.9334946 0.16433489 3
-2.980372 -2.2885735 0.064922951 46
-1.5329492 -1.1749986 -0.50728554 3
-1.7435174 -1.3359153 -0.49826688 3
-2.0605071 -1.5782279 -0.49661148 2
-2.5202527 -1.9296684 -0.49667984 4
-4.991951 -3.8207784 -0.7671684 15
-4.9712992 -3.8035963 -0.54428846 13
-4.9920182 -3.8180673 -0.32627204 15
-3.0169394 -2.3066244 -0.064965427 8
-4.9461241 -3.7802303 1.656656 14
-5.009089 -3.8269682 1.4453417 15
-4.9921999 -3.8126853 1.2124555 12
-4.9842215 -3.8052146 0.98601365 15
-2.5631573 -1.9561402 0.3912006 8
-2.5767703 -1.9658177 0.2802057 5
-2.6111302 -1.9913098 0.17009185 4
-2.9724395 -2.2660325 0.064573899 45
-1.5370413 -1.1696405 -0.50728554 3
-1.74817 -1.3298211 -0.49826688 3
-2.0620964 -1.5680547 -0.49565825 2
-2.526973 -1.9208593 -0.49667984 4
-4.9855003 -3.788317 -0.76412165 15
-4.9647136 -3.7711554 -0.54210955 13
-4.9854321 -3.785521 -0.32496801 15
-3.0130265 -2.2870119 -0.064706258 8
-4.9708328 -3.7717004 1.6605359 15
-5.0030084 -3.7947385 1.4397222 14
-4.9859228 -3.7804086 1.2076896 12
-4.9777946 -3.7728777 0.9821071 15
-2.5897479 -1.9621661 0.39424729 8
-2.6114111 -1.9778624 0.28325617 5
-2.8529367 -2.1600084 0.18553095 4
-2.9723587 -2.249609 0.064399377 46
-1.5411147 -1.1642681 -0.50728554 3
-1.7566892 -1.3266469 -0.49939165 3
-2.071475 -1.5638045 -0.49661148 2
-2.5336628 -1.9120268 -0.49667984 3
-4.9828463 -3.7589369 -0.76168424 16
-4.957963 -3.7388074 -0.53993064 13
-4.9786797 -3.7530673 -0.32366398 15
-3.0209913 -2.2764804 -0.064706258 7
-4.9916835 -3.760138 1.6631224 24
-4.9967637 -3.762598 1.4341027 14
-4.9794812 -3.7482224 1.2029237 12
-4.9712029 -3.7406323 0.9782005 15
-2.6203773 -1.9710133 0.39790338 8
-2.6382048 -1.9837021 0.28543505 5
-2.9682262 -2.2310388 0.1925963 4
-2.9682033 -2.2302108 0.064137593 46
-1.5490332 -1.1617793 -0.50857961 3
-1.7613094 -1.3205069 -0.49939165 3
-2.076921 -1.5565643 -0.49661148 2
-2.5403216 -1.9031709 -0.49667984 4
-4.9879923 -3.7355704 -0.76046556 6
-4.9550338 -3.7095375 -0.5381875 3
nan nan nan 0
-3.0489347 -2.2808948 -0.065138213 15
-4.9931746 -3.7340133 1.6592426 19
-4.9903564 -3.7305477 1.4284832 15
-4.9728751 -3.7161272 1.1981577 12
-4.964447 -3.7084787 0.97429395 15
-2.6471236 -1.9767011 0.40095013 8
-2.665071 -1.9893786 0.28761396 4
-2.9880016 -2.2296226 0.19338135 4
-2.9679554 -2.2138581 0.063963063 47
-1.5530791 -1.156365 -0.50857961 3
-1.7659081 -1.3143507 -0.49939165 3
-2.0862794 -1.5522346 -0.49756464 2
-2.5509119 -1.8972392 -0.49746197 4
-2.9738495 -2.2109928 -0.45030773 2
-3.0130401 -2.2393136 -0.32509142 7
-4.9606705 -3.685463 -0.32079509 8
-3.02477 -2.2463925 -0.06444709 10
-4.9829102 -3.6992869 1.6514831 16
-4.9837861 -3.6985881 1.4228636 15
-4.9661069 -3.6841242 1.1933917 12
-4.9575281 -3.6764185 0.97038746 15
-2.6739411 -1.9822261 0.40399686 8
-2.6880064 -1.9919261 0.28935707 5
-2.9837294 -2.2102625 0.1925963 4
-2.9636121 -2.1945593 0.063701279 46
-1.5532222 -1.148066 -0.50728554 3
-1.7704853 -1.3081784 -0.49939165 3
-2.0956333 -1.547859 -0.49851784 3
-2.557519 -1.8883233 -0.49746197 4
-3.0534222 -2.2536459 -0.46127596 2
-3.0088141 -2.2199111 -0.32378408 2
nan nan nan 0
nan nan nan 0
-4.9763527 -3.6675439 1.6450168 16
-4.9770536 -3.6667197 1.4172441 15
-4.9591756 -3.6522136 1.1886258 12
-4.9504457 -3.6444519 0.96648091 15
-2.6888382 -1.978763 0.40521553 8
-2.7069802 -1.9913859 0.2906644 4
-2.9833815 -2.1939178 0.19207294 4
-2.9631984 -2.1782789 0.063526757 45
-1.5572202 -1.1426374 -0.50728554 3
-1.7711123 -1.2991089 -0.49826688 3
-2.1049819 -1.5434366 -0.49947101 3
-2.5640948 -1.8793844 -0.49746197 4
nan nan nan 0
-4.9413676 -3.6191845 -0.53252238 25
-3.020227 -2.2112818 -0.19352028 4
-2.9919684 -2.1897902 -0.063410401 3
-4.9696345 -3.6358917 1.6385506 15
-4.9701595 -3.6349437 1.4116246 15
-4.9520826 -3.6203966 1.1838599 13
-4.9432006 -3.6125796 0.9625743 15
-2.7037437 -1.9752203 0.40643427 9
-2.7259824 -1.9907373 0.29197174 5
-2.9789231 -2.1746583 0.19128792 4
-2.9586694 -2.1590815 0.063264973 46
-1.5611993 -1.1371946 -0.50728554 3
-1.7756363 -1.2929186 -0.49826688 3
-2.1063883 -1.5331912 -0.49851784 3
-2.5706394 -1.8704225 -0.49746197 4
-4.9433413 -3.595504 -0.74584121 15
-4.9338279 -3.5872681 -0.53034353 17
-4.9464836 -3.5951505 -0.31740457 30
nan nan nan 0
-4.9627562 -3.6043308 1.6320844 15
-4.9631047 -3.6032608 1.406005 14
-4.9448276 -3.5886738 1.179094 12
-4.9357939 -3.5808024 0.95866776 15
-2.718657 -1.9715976 0.40765294 8
-2.7369478 -1.9841335 0.29240751 4
-2.9784095 -2.1583867 0.19076456 4
-2.9580908 -2.142875 0.063090444 47
-1.5651593 -1.1317381 -0.50728554 3
-1.7840872 -1.2895666 -0.49939165 3
-2.1077487 -1.5229543 -0.49756464 3
-2.577153 -1.8614379 -0.49746197 4
-4.9397678 -3.5666063 -0.74340385 16
-4.9261255 -3.5554488 -0.52816463 18
-4.9387565 -3.5632548 -0.31610051 23
-4.9331722 -3.5579164 -0.10444576 17
-4.9596362 -3.5756872 1.6269113 15
-4.9558897 -3.571672 1.4003856 15
-4.9374123 -3.5570459 1.174328 12
-4.928225 -3.5491209 0.95476121 15
-2.7335777 -1.9678947 0.40887165 7
-2.7519426 -1.9803864 0.29327908 5
-2.9737654 -2.1392295 0.18997951 4
-2.9533765 -2.12378 0.06282866 46
-1.5730238 -1.1290841 -0.50857961 3
-1.7885778 -1.2833313 -0.49939165 3
-2.1090639 -1.512727 -0.49661148 3
-2.5836349 -1.8524307 -0.49746197 3
-4.9400864 -3.5406687 -0.74157578 16
-4.9101634 -3.5179253 -0.52511418 13
-4.9268079 -3.528549 -0.31453565 14
-4.9211721 -3.5232136 -0.1039274 18
-4.9524498 -3.5442989 1.620445 15
-4.9485149 -3.5401769 1.3947661 15
-4.9338284 -3.5283689 1.1705152 12
-4.9245133 -3.5204084 0.95163596 16
-4.9571385 -3.5424237 0.74340296 17
-2.7669449 -1.9765588 0.29415065 5
-2.9730875 -2.1230326 0.18945615 4
-2.948565 -2.1047444 0.062566876 47
-1.5769556 -1.1235863 -0.50857961 3
-1.7930466 -1.2770801 -0.49939165 3
-2.1103325 -1.502509 -0.49565825 2
-2.5900853 -1.8434008 -0.49746197 4
-4.9321966 -3.5090182 -0.73852903 16
-4.9061761 -3.4892166 -0.52337104 13
-4.9146771 -3.4939711 -0.31297082 14
-4.913065 -3.491534 -0.10349546 17
-4.9451041 -3.5130041 1.6139787 16
-4.944953 -3.5115986 1.3902705 14
-4.9261031 -3.4969192 1.1657493 13
-4.9166346 -3.4889071 0.94772947 16
-4.9330435 -3.4992568 0.73791885 19
-2.7819538 -1.9726506 0.29502219 5
-2.9682598 -2.1039796 0.18867111 4
-2.9436567 -2.0857685 0.062305089 47
-1.5848111 -1.1208636 -0.50987375 3
-1.7974935 -1.2708133 -0.49939165 3
-2.1155646 -1.4951333 -0.49565825 2
-2.5965042 -1.8343486 -0.49746197 3
-4.9241462 -3.4774663 -0.73548234 16
-4.8979802 -3.4577067 -0.52119213 13
-4.9105248 -3.4652784 -0.31192759 15
-4.9088821 -3.4628358 -0.10314989 18
-4.9376006 -3.4818039 1.6075125 16
-4.9372697 -3.4802806 1.3846508 15
-4.9222307 -3.4683938 1.1619365 13
-4.9126329 -3.4603479 0.94460422 16
-4.928997 -3.4705877 0.73548144 18
-2.7969692 -1.9686615 0.29589376 5
-2.963335 -2.0849857 0.18788607 4
-2.938652 -2.0668523 0.062043298 47
-1.5808083 -1.1097748 -0.50728554 3
-1.8019185 -1.2645313 -0.49939165 3
-2.1207705 -1.4877396 -0.49565825 2
-2.6028914 -1.8252739 -0.49746197 3
-4.9200001 -3.4488621 -0.73304492 16
-4.8937035 -3.4291549 -0.51944906 14
-4.9062324 -3.4366577 -0.31088433 14
-4.9045596 -3.4342101 -0.10280433 17
-4.933897 -3.453469 1.6023395 16
-4.9294281 -3.4490597 1.3790313 15
-4.9141965 -3.4371245 1.1571705 12
-4.9044447 -3.4290295 0.94069767 16
-4.920743 -3.439146 0.73243469 16
-2.8160734 -1.9674445 0.29720107 4
-2.9624076 -2.0689111 0.18736272 4
-2.9417496 -2.0537202 0.061956041 48
-1.5807102 -1.1014888 -0.50599146 4
-1.8063215 -1.2582337 -0.49939165 3
-2.1299791 -1.4831325 -0.49661148 2
-2.6133003 -1.8189982 -0.49824417 3
-4.9116406 -3.417495 -0.72999817 17
-4.8851981 -3.397831 -0.51727015 14
-4.9018002 -3.4081092 -0.3098411 15
-4.9000969 -3.4056566 -0.10245878 17
-4.9260893 -3.4224467 1.5958734 16
-4.9214296 -3.4179361 1.3734118 15
-4.9060054 -3.4059548 1.1524047 13
-4.9001551 -3.4006259 0.93757242 16
-4.9164076 -3.4106338 0.72999734 17
-2.83111 -1.9632794 0.29807264 5
-2.9573004 -2.0500238 0.18657768 4
-2.9365733 -2.0348969 0.061694253 49
-1.5885174 -1.0987117 -0.50728554 4
-1.8107026 -1.2519207 -0.49939165 3
-2.1351433 -1.4756885 -0.49661148 2
-2.6196339 -1.8098651 -0.49824417 3
-4.9072061 -3.3890486 -0.72756076 16
-4.8806329 -3.3694386 -0.51552701 14
-4.8972282 -3.3796334 -0.30879787 15
-4.8913794 -3.3743372 -0.10202682 18
-4.9181252 -3.391521 1.589407 16
-4.917285 -3.3896756 1.3689162 15
-4.9016976 -3.3776686 1.148592 13
-4.8916607 -3.369493 0.93366587 16
-4.9078455 -3.3793788 0.72695059 18
-2.850255 -1.9618574 0.29937997 5
-2.9562113 -2.0340278 0.18605432 4
-2.9683726 -2.0416319 0.062217824 45
nan nan nan 0
-1.8150615 -1.2455926 -0.49939165 3
-2.1443286 -1.4710028 -0.49756464 3
-2.6259356 -1.8007097 -0.49824417 3
-4.8985391 -3.3578689 -0.72451401 16
-4.8759294 -3.3411195 -0.51378393 14
-4.8925176 -3.3512316 -0.30775464 16
-4.8866286 -3.3459446 -0.10168126 20
-4.9139915 -3.363421 1.584234 16
-4.9089832 -3.3587351 1.3632967 15
-4.8932014 -3.3466835 1.143826 13
-4.887085 -3.3412485 0.93054062 16
-4.903223 -3.3510258 0.72451317 17
-2.8653114 -1.9575158 0.30025154 4
-2.9550467 -2.0180645 0.18553095 4
nan nan nan 0
nan nan nan 0
-1.8193984 -1.2392492 -0.49939165 3
-2.141336 -1.457984 -0.49565825 2
-2.6322052 -1.7915326 -0.49824417 3
-4.8979211 -3.3323743 -0.72268599 16
-4.8669686 -3.3100729 -0.51160502 14
-4.8876686 -3.3229039 -0.30671138 15
-4.8776045 -3.3148167 -0.10124931 19
-4.9057264 -3.3326769 1.5777677 16
-4.9045553 -3.3306305 1.3588011 14
-4.8886099 -3.3185556 1.1400132 13
-4.8782859 -3.3103034 0.92663407 17
-4.8984618 -3.3227463 0.72207582 17
-2.880372 -1.9530928 0.30112308 5
-2.9496739 -1.9993327 0.18474592 5
-2.9825532 -2.0208595 0.062217824 46
nan nan nan 0
-1.8237132 -1.2328907 -0.49939165 3
-2.1423457 -1.4477522 -0.49470508 3
-2.6343503 -1.7795691 -0.49746197 3
-4.8930721 -3.3041482 -0.72024864 17
-4.857851 -3.27913 -0.50942612 15
-4.8744035 -3.2890651 -0.30514655 15
-4.8725672 -3.2865884 -0.10090375 21
-4.9013109 -3.3047318 1.5725948 16
-4.899991 -3.302598 1.3543055 16
-4.8798103 -3.2877579 1.1352472 13
-4.873426 -3.2822199 0.92350882 17
-4.8935642 -3.2945416 0.71963841 17
-2.8954368 -1.9485885 0.30199465 5
-2.9483488 -1.9834501 0.18422256 5
-4.8729882 -3.2769821 0.10183479 84
nan nan nan 0
-1.8280056 -1.2265173 -0.49939165 3
-2.1229281 -1.4238611 -0.48898596 3
-2.6364443 -1.7676126 -0.49667984 3
-4.8880858 -3.2759962 -0.71781123 17
-4.860992 -3.2566085 -0.50855458 14
-4.8651114 -3.2581384 -0.30384248 15
-4.8590837 -3.2528734 -0.10038541 16
-4.8967605 -3.2768583 1.5674217 17
-4.8912416 -3.2719293 1.348686 15
-4.8749366 -3.2597907 1.1314346 14
-4.8684306 -3.2542107 0.92038357 17
nan nan nan 0
-2.9105048 -1.9440027 0.30286619 5
-2.9469495 -1.9676013 0.18369921 5
-4.8636065 -3.2460759 0.10139848 27
nan nan nan 0
-1.8322759 -1.220129 -0.49939165 3
-2.1483147 -1.430041 -0.49375188 3
-2.6384869 -1.7556632 -0.49589765 3
nan nan nan 0
nan nan nan 0
-4.8639789 -3.2328441 -0.30306005 16
-4.8537531 -3.2248263 -0.10003985 15
-4.888052 -3.2463849 1.5609554 17
-4.8863969 -3.2440567 1.3441904 15
-4.8699274 -3.2318981 1.1276218 13
-4.8591828 -3.2235463 0.91647702 16
-4.8874931 -3.2410986 0.71537304 7
-2.9255764 -1.9393357 0.30373776 5
-2.9454751 -1.9517863 0.18317585 5
-4.8499007 -3.2125149 0.1008749 56
nan nan nan 0
-1.8365237 -1.2137257 -0.49939165 3
-2.161484 -1.4279441 -0.49565825 3
-2.6487203 -1.7491637 -0.49667984 3
nan nan nan 0
nan nan nan 0
nan nan nan 0
-4.8566327 -3.2023599 -0.099867068 4
-4.883224 -3.2186706 1.5557824 17
-4.8814178 -3.216258 1.3396947 15
-4.8647828 -3.2040801 1.123809 14
-4.8539066 -3.1957026 0.91335177 17
nan nan nan 0
-2.9364893 -1.9318494 0.30417356 9
-2.9606137 -1.9469798 0.18369921 5
nan nan nan 0
-1.6148871 -1.0595728 -0.50728554 3
-1.8448228 -1.2099793 -0.50051636 3
-2.1787696 -1.4284642 -0.49851784 3
-2.65481 -1.7399075 -0.49667984 3
-2.9669023 -1.9437063 -0.4308086 7
-2.9571967 -1.9366101 -0.30591714 6
nan nan nan 0
nan nan nan 0
-4.878262 -3.1910298 1.5506095 16
-4.8763041 -3.1885338 1.3351991 15
-4.8595033 -3.1763372 1.1199963 13
-4.848495 -3.1679342 0.91022652 16
nan nan nan 0
-2.9390442 -1.9188641 0.30373776 5
-2.9381218 -1.9175307 0.18186744 4
-2.9545631 -1.9275258 0.060908895 51
-1.6185759 -1.0539292 -0.50728554 3
-1.8490351 -1.2035323 -0.50051636 3
-2.1960847 -1.4288806 -0.5013774 3
-2.6608672 -1.7306297 -0.49667984 2
-2.9903116 -1.9441582 -0.43324599 3
-2.9430563 -1.9127043 -0.30373824 2
-2.9547198 -1.9195509 -0.18204468 8
-4.8495221 -3.149317 -0.099262334 25
-4.8731661 -3.1634626 1.5454364 17
-4.8669696 -3.1582325 1.3295796 16
-4.8499718 -3.1459999 1.1152303 14
-4.8429489 -3.1402431 0.90710127 18
-2.9138987 -1.888695 0.42166793 12
-2.9415441 -1.9058847 0.30330199 6
-2.9280338 -1.8964057 0.18082072 5
-2.9151115 -1.8873142 0.059949014 32
-1.6019629 -1.035167 -0.50081509 3
-1.8573176 -1.1997142 -0.50164115 3
-2.1928122 -1.4158812 -0.49947101 3
-2.6668921 -1.7213311 -0.49667984 2
nan nan nan 0
-4.8375549 -3.1199822 -0.50027472 28
-4.8498898 -3.126739 -0.29940873 32
nan nan nan 0
-4.8638778 -3.1333544 1.5389701 17
-4.8615794 -3.1306732 1.325084 16
-4.8444157 -3.1184242 1.1114175 14
-4.8372679 -3.1126297 0.90397602 17
-2.9329953 -1.8865662 0.42349595 11
-2.9356101 -1.8875238 0.30199465 6
-2.9430363 -1.8915727 0.18134408 4
-4.8269863 -3.1012504 0.099478707 73
-1.6136976 -1.0347829 -0.50340325 4
-1.8573923 -1.1905944 -0.50051636 3
-2.1894758 -1.4029219 -0.49756464 3
-2.6728842 -1.7120115 -0.49667984 3
-4.8469548 -3.1033344 -0.70196819 17
-4.8316345 -3.0923367 -0.49853161 23
-4.8439498 -3.0990269 -0.2983655 32
-4.8419089 -3.0965304 -0.098657608 16
-4.8585081 -3.1059513 1.5337971 16
-4.8560562 -3.1031899 1.3205884 16
-4.8387256 -3.0909259 1.1076049 14
-4.8314543 -3.0850942 0.90085083 17
-2.960479 -1.8896674 0.4265427 9
-2.963176 -1.8906612 0.30417356 5
nan nan nan 0
-4.8335667 -3.0816944 0.099391446 21
-1.6213745 -1.0317365 -0.50469732 3
-1.8574264 -1.1814891 -0.49939165 3
-2.1902177 -1.3926373 -0.49661148 3
-2.678844 -1.7026709 -0.49667984 3
-4.849381 -3.0810738 -0.70074952 17
-4.8129673 -3.0567596 -0.49548116 14
-4.842092 -3.0740709 -0.29758307 25
-4.8189201 -3.0581801 -0.097966485 18
-4.8530068 -3.078624 1.5286242 17
-4.8504009 -3.0757837 1.3160927 16
-4.8329034 -3.0635052 1.1037921 14
-4.829679 -3.0602803 0.89850688 17
-2.9586723 -1.874011 0.42532399 9
nan nan nan 0
-2.9561701 -1.8709806 0.18134408 4
-4.8273959 -3.0541122 0.099042401 40
-1.6290498 -1.0286492 -0.50599146 4
-1.8532996 -1.1697974 -0.49714214 3
-2.1950657 -1.3849835 -0.49661148 3
-2.680594 -1.690675 -0.49589765 3
-4.834918 -3.0482471 -0.69709343 17
-4.810966 -3.0319731 -0.49417382 15
-4.8274446 -3.0411813 -0.29601821 14
-4.8168745 -3.0333481 -0.097707309 18
-4.8473735 -3.051373 1.5234511 17
-4.8446136 -3.048455 1.3115971 16
-4.8269482 -3.0361636 1.0999793 12
-4.8236089 -3.0328882 0.89538169 18
-2.9778006 -1.8715943 0.42715204 8
nan nan nan 0
nan nan nan 0
-4.8041544 -3.0159781 0.098344304 44
-1.636723 -1.0255208 -0.50728554 3
-1.8491141 -1.158149 -0.49489263 2
-2.1998868 -1.3773129 -0.49661148 3
-2.6864791 -1.6813078 -0.49589765 2
-4.8329072 -3.0234554 -0.69526541 18
-4.8046279 -3.0045977 -0.49243072 16
-4.821095 -3.0137248 -0.29497498 16
-4.8147154 -3.0085683 -0.09744814 20
-4.84161 -3.024199 1.5182781 18
-4.8386941 -3.0212042 1.3071015 16
-4.8208618 -3.0089006 1.0961666 14
-4.8174067 -3.0055759 0.89225644 17
nan nan nan 0
nan nan nan 0
nan nan nan 0
-4.8061666 -2.9939039 0.098169781 43
-1.6402928 -1.0198013 -0.50728554 4
-1.8407316 -1.1439725 -0.49151835 2
-2.2046812 -1.3696254 -0.49661148 3
-2.6881366 -1.6693147 -0.49511549 2
-4.8223491 -2.9934804 -0.69221866 13
-4.8023891 -2.9799292 -0.49112335 15
-4.8146124 -2.9863501 -0.29393175 17
-4.8081923 -2.9812059 -0.097102582 18
-4.8357158 -2.9971027 1.5131052 19
-4.8326445 -2.9940321 1.3026059 16
-4.8146439 -2.9817171 1.0923538 15
-4.8110719 -2.9783435 0.88913119 17
-4.8138638 -2.9789095 0.69038981 32
-4.8150177 -2.9784615 0.49199417 24
-4.8102403 -2.9743457 0.29438975 23
-4.7953258 -2.9639666 0.097733468 43
-1.6479529 -1.016605 -0.50857961 4
-1.8530072 -1.1426544 -0.49376786 3
-2.2136266 -1.3644967 -0.49756464 3
-2.6939471 -1.6599212 -0.49511549 2
-4.8158669 -2.9662185 -0.68978125 14
-4.7957959 -2.9527016 -0.48938024 15
-4.8079977 -2.9590571 -0.29288849 16
-4.801537 -2.9539258 -0.096757025 18
-4.8296914 -2.9700844 1.5079321 18
-4.8264642 -2.966939 1.2981102 17
-4.8082952 -2.9546139 1.088541 14
-4.8088145 -2.9537768 0.88678718 18
-4.8242326 -2.9620881 0.69038981 28
-4.8041592 -2.9486084 0.48981526 16
-4.8078251 -2.9497032 0.2936047 14
-4.7928576 -2.9393692 0.097471684 45
-1.6514916 -1.0108464 -0.50857961 4
-1.865296 -1.1412646 -0.49601737 3
-2.2183762 -1.3567613 -0.49756464 3
-2.6997252 -1.6505075 -0.49511549 2
-4.8092532 -2.9390385 -0.68734384 13
-4.7890706 -2.9255569 -0.48763713 15
-4.8055134 -2.9344494 -0.29210609 17
-4.7947507 -2.9267285 -0.096411459 18
-4.8235378 -2.9431448 1.5027591 20
-4.8201532 -2.9399257 1.2936145 17
-4.8060064 -2.9301465 1.0856814 15
-4.8022275 -2.9266925 0.88366199 18
-4.8133521 -2.9323206 0.68734306 18
-4.8059139 -2.9266393 0.4889437 15
-4.8095622 -2.9277103 0.29308134 15
-4.786006 -2.9122264 0.097122639 48
-1.6550101 -1.0050755 -0.50857961 4
-1.8775975 -1.1398027 -0.49826688 3
-2.2230988 -1.3490096 -0.49756464 3
-2.709692 -1.6436347 -0.49589765 2
-4.8025088 -2.9119413 -0.68490648 14
-4.7822151 -2.898495 -0.48589399 16
-4.798645 -2.9073076 -0.29106286 17
-4.7878327 -2.8996153 -0.096065901 18
-4.8213868 -2.918786 1.4988794 20
-4.8178816 -2.9155152 1.2902428 17
-4.7994065 -2.9031909 1.0818686 15
-4.7955098 -2.8996906 0.88053674 19
-4.8023224 -2.9026654 0.68429631 18
-4.8075743 -2.9046943 0.48807216 16
-4.8069305 -2.9031601 0.29229632 16
