# .PCD v0.7 - Point Cloud Data file format
VERSION 0.7
FIELDS x y z intensity
SIZE 4 4 4 4
TYPE F F F F
COUNT 1 1 1 1
WIDTH 1438
HEIGHT 1
VIEWPOINT 0 0 0 1 0 0 0
POINTS 1438
DATA ascii
-7.8434267 0.46461108 1.5184289 18
-8.1429138 0.48377764 1.2844743 10
-7.974401 0.47516286 0.97617346 11
-8.1079044 0.48453793 0.70726883 13
-8.1724014 0.48982379 0.42706138 7
-8.2870321 0.49814594 0.14424412 12
nan nan nan 0
nan nan nan 0
nan nan nan 0
-3.2716837 0.20125084 -0.51310545 2
nan nan nan 0
-6.1630273 0.38126531 -0.5368802 2
-8.2711039 0.51312709 -0.4308565 10
-8.3708181 0.52077985 -0.14427163 8
-8.1703291 0.50973815 2.1817164 10
-8.2121038 0.51378334 1.8892841 11
nan nan nan 0
-8.3531151 0.52553284 1.3180705 9
-8.1509962 0.51424485 0.99810988 11
-8.3050051 0.52541655 0.72469997 13
-8.3400669 0.52909625 0.4359585 7
-8.4997768 0.54071772 0.1479964 11
nan nan nan 0
nan nan nan 0
nan nan nan 0
-3.2216809 0.20946585 -0.50528377 2
nan nan nan 0
-6.1616588 0.40277597 -0.5368802 3
-8.4585972 0.55440515 -0.4407672 12
-8.5784664 0.56376547 -0.14790002 9
-8.3564577 0.55064011 2.2321534 9
-8.4144411 0.55593586 1.9364882 9
-8.3493385 0.55309826 1.6175605 3
-8.5237007 0.56614298 1.3454164 11
-8.3521748 0.55621439 1.0230931 11
-8.4720974 0.56568593 0.73951644 11
-8.5374498 0.5715462 0.44642568 7
-8.7222986 0.58545023 0.15192319 10
nan nan nan 0
nan nan nan 0
nan nan nan 0
nan nan nan 0
nan nan nan 0
-6.1651845 0.424624 -0.53731596 2
-8.6558638 0.59768617 -0.45119956 10
-8.8008766 0.60924268 -0.15178758 9
-8.5761242 0.59518808 2.2916429 9
-8.6311636 0.60052162 1.987064 10
-8.7341738 0.60922045 1.6928625 10
-8.6694689 0.6062277 1.3688557 13
-8.5531559 0.59959441 1.0480763 15
-8.5893202 0.60363615 0.74997514 13
-8.7744808 0.61818779 0.45898631 7
-8.9246607 0.63033378 0.15550093 10
nan nan nan 0
nan nan nan 0
nan nan nan 0
-3.2447684 0.23372613 -0.50919461 2
nan nan nan 0
-6.1636648 0.4461419 -0.53731596 3
-8.8877897 0.64488047 -0.46345761 9
-9.0031252 0.65482861 -0.15532957 8
-8.7522259 0.63811547 2.3394933 9
-8.8428125 0.64627165 2.0365157 9
-8.9375925 0.6547668 1.7328963 22
-9.0613251 0.66542149 1.4313605 17
-8.7489853 0.6440199 1.0724502 7
-9.0143633 0.66513646 0.78745216 11
-8.9863901 0.66464943 0.47023854 6
-9.1268139 0.67663699 0.15907867 9
nan nan nan 0
nan nan nan 0
nan nan nan 0
-3.2833281 0.24802704 -0.51545197 2
nan nan nan 0
-6.1670365 0.46803132 -0.53775179 2
-9.1045513 0.69256467 -0.47493318 10
-9.2350693 0.70411408 -0.15938991 8
-8.774024 0.6705026 2.3459594 12
-9.0396738 0.69239032 2.0825958 8
-9.1359024 0.70136476 1.7719771 13
-9.0687952 0.69780511 1.4329232 6
-8.9693451 0.69172752 1.0998708 14
-9.0964117 0.70312417 0.79486036 13
-9.2080364 0.71336919 0.48201415 5
-9.3686237 0.72745526 0.16335452 9
nan nan nan 0
nan nan nan 0
nan nan nan 0
-3.2529037 0.2571514 -0.51075894 2
nan nan nan 0
-6.1653652 0.48955545 -0.53775179 3
-9.3360186 0.74295825 -0.48719123 10
-9.4667778 0.75502664 -0.16345026 7
-8.7812595 0.70189524 2.348546 13
-9.2897396 0.74417043 2.1410389 8
-9.3731327 0.75249726 1.8186833 13
nan nan nan 0
-9.0905428 0.73300391 1.1151044 8
-9.3222809 0.75332749 0.81490618 4
-9.4593096 0.76606238 0.49535984 5
-9.6151695 0.78037399 0.16771762 9
nan nan nan 0
nan nan nan 0
nan nan nan 0
nan nan nan 0
nan nan nan 0
-6.163619 0.51107365 -0.53775179 3
-9.557291 0.79414892 -0.49892762 10
-9.7181673 0.80922461 -0.16785616 7
-8.7739429 0.73214173 2.3472528 13
-9.5298405 0.79689246 2.1972342 9
-9.6003342 0.80447447 1.8634831 12
-9.659174 0.81110281 1.5274616 5
-9.4340973 0.79386073 1.1577587 6
-9.6521406 0.8139053 0.84410334 8
-9.6854467 0.8184163 0.50739706 7
-9.8564768 0.83460081 0.17199345 9
-1.9340584 0.16546713 -0.50987375 2
-2.2078683 0.18928093 -0.50276589 2
nan nan nan 0
-3.2707102 0.28154868 -0.51388764 2
-4.260601 0.36750942 -0.5203827 2
-6.1617975 0.53258556 -0.53775179 3
-9.7882652 0.8477549 -0.51118565 10
-9.9742699 0.86561859 -0.17234844 7
-8.7713337 0.76276404 2.3472528 12
-9.7502689 0.84960788 2.2489338 8
-9.8615112 0.86103547 1.9149554 13
-9.7989588 0.85729706 1.5501198 29
-9.688343 0.84932339 1.1894448 6
-9.9022951 0.86982101 0.86632806 8
-9.9660435 0.87717348 0.52231282 9
-10.127398 0.89315665 0.17679287 9
-1.9238478 0.17136027 -0.50728554 2
-2.2217519 0.19828592 -0.50614017 2
-2.6780469 0.23948026 -0.51472205 2
-3.2549512 0.29164171 -0.51154113 2
-4.2741203 0.38371062 -0.52221072 2
-6.1648612 0.55453724 -0.5381875 2
-10.058764 0.90656853 -0.52553016 7
-10.245032 0.9251591 -0.17709991 7
-8.7638073 0.79294181 2.3459594 5
-10.00926 0.90739059 2.3096247 9
-10.137072 0.92076117 1.969287 14
-10.017227 0.91163832 1.5852786 3
-9.9423151 0.90657049 1.2211307 6
-10.191858 0.93111825 0.892039 12
-10.161816 0.93016201 0.53277999 5
-10.412964 0.95498341 0.18185407 8
-1.9713287 0.18252747 -0.52022654 2
-2.2598543 0.2096402 -0.51513821 2
-2.6674201 0.24791846 -0.51281571 2
-3.2637477 0.30391759 -0.51310545 2
-4.2381668 0.39540085 -0.51794529 2
-6.1628876 0.5760532 -0.5381875 2
-10.358796 0.970074 -0.54143953 7
-10.545361 0.98940194 -0.18236969 6
-8.7561779 0.82307637 2.3446662 24
-10.093342 0.95054644 2.329855 8
-10.407446 0.98195988 2.0226655 14
-10.692483 1.0107365 1.6930995 14
-10.25035 0.97074765 1.2595197 6
-10.471191 0.99350619 0.9168784 9
-10.332482 0.9821651 0.54193878 2
-10.713146 1.0202361 0.18717705 8
-1.9418347 0.18663523 -0.5124619 2
-2.2251627 0.21425864 -0.50726491 2
-2.6714242 0.25769928 -0.51376885 2
-3.2823293 0.31720853 -0.51623416 2
-4.2812171 0.41449654 -0.52342945 2
-6.1657972 0.59804308 -0.53862333 2
-10.668443 1.0366504 -0.55787045 10
-10.865267 1.0576901 -0.18798508 7
-8.7484436 0.8531673 2.3433731 16
-10.099661 0.98672044 2.3321028 11
-10.701937 1.0474476 2.0808101 11
-10.978875 1.0764873 1.7391969 12
-10.518541 1.0332048 1.2930337 8
-10.680813 1.0510263 0.93561691 15
-10.850744 1.0696602 0.56941521 3
-11.107523 1.096931 0.19415802 10
-1.9459773 0.1938912 -0.51375604 2
-2.2389448 0.22347623 -0.51063919 2
-2.6802762 0.26799941 -0.51567525 2
-3.2664604 0.32718745 -0.51388764 2
-4.2501168 0.42646533 -0.5197733 2
-6.1686282 0.62006027 -0.5390591 2
-10.823737 1.0898921 -0.56621635 8
-11.204714 1.1302301 -0.19394599 20
-8.7406073 0.88321435 2.3420796 12
-10.101003 1.0224595 2.3332267 10
-11.059576 1.1214398 2.151346 11
-11.294415 1.1472441 1.789982 12
-10.988847 1.1181432 1.351531 8
-11.217206 1.1433575 0.98311675 25
-11.239362 1.1475979 0.59008789 27
-11.22796 1.1484138 0.19633956 31
-1.9404844 0.20018713 -0.5124619 2
-2.2429969 0.23179102 -0.51176393 2
-2.66956 0.2763429 -0.51376885 2
-3.2652984 0.33858755 -0.51388764 2
-4.2535386 0.44181117 -0.5203827 2
-6.1763349 0.64261991 -0.53993064 2
-10.899327 1.1359489 -0.57038927 6
-11.270312 1.1766022 -0.19515546 13
-8.7326679 0.91321707 2.3407867 11
-10.082835 1.0561895 2.329855 7
-11.368011 1.1928194 2.2123499 11
-11.70291 1.2300246 1.855612 10
-11.216843 1.1809162 1.3801702 31
-11.297357 1.1913863 0.99052501 17
-11.279976 1.1915442 0.59244299 32
-12.148577 1.2854416 0.21257029 35
-1.9397377 0.20729801 -0.5124619 2
-2.2421322 0.24001046 -0.51176393 2
-2.668529 0.28612545 -0.51376885 2
-3.2640355 0.35055318 -0.51388764 2
nan nan nan 0
-6.1887951 0.6668539 -0.54123801 2
-10.840484 1.1699958 -0.56752038 4
-12.155607 1.3140812 -0.2106193 22
-8.7292624 0.94521779 2.3407867 12
-10.078897 1.093138 2.329855 7
-11.783208 1.2800651 2.2943242 11
-12.120548 1.3188524 1.9228047 9
-12.135006 1.3225687 1.494118 16
-12.16934 1.3284599 1.0676578 27
-12.164012 1.3300267 0.63928372 21
-12.153724 1.3310483 0.21274482 36
-1.9438028 0.21459769 -0.51375604 2
-2.2800198 0.25211915 -0.52076203 2
-2.6675141 0.29543862 -0.51376885 2
-3.2578838 0.36140019 -0.51310545 2
nan nan nan 0
-6.1814795 0.68790185 -0.54080224 2
-10.856182 1.2100414 -0.56856364 5
-12.17082 1.3587229 -0.21096487 22
-8.7211094 0.97514606 2.3394933 12
-10.070176 1.1277709 2.3287311 9
-11.934755 1.3386964 2.3248262 11
-12.577196 1.4129803 1.9962479 9
-12.1747 1.3699139 1.4996022 23
-12.189376 1.3737197 1.0698367 13
-12.169219 1.3735989 0.63980705 15
-12.44706 1.4071671 0.21798055 8
-1.9478403 0.22192822 -0.51505011 2
-2.2452428 0.25620988 -0.51288873 2
-2.6664667 0.30474818 -0.51376885 2
-3.2566023 0.3727701 -0.51310545 2
nan nan nan 0
-6.1691432 0.70833868 -0.53993064 2
-10.841972 1.2467883 -0.56804198 5
-12.821571 1.4767026 -0.22236837 4
-8.7176523 1.0055825 2.3394933 12
-10.066178 1.1629155 2.3287311 9
-11.939761 1.3814765 2.3267326 12
-12.994081 1.5057638 2.0634406 9
-12.278296 1.4249899 1.5130079 6
-12.81286 1.4892966 1.1251806 4
-12.814065 1.4917034 0.67408711 4
-13.191877 1.5380187 0.23115711 53
-1.9470538 0.22872612 -0.51505011 2
-2.2443347 0.26404569 -0.51288873 2
-2.6653864 0.31405404 -0.51376885 2
-3.2601855 0.38471425 -0.51388764 2
-4.2715096 0.50481021 -0.52342945 2
-6.1616869 0.72928321 -0.53949487 2
-10.832596 1.2840387 -0.56778121 5
-13.417029 1.5927583 -0.23282158 14
-8.7140884 1.0360067 2.3394933 12
-10.062057 1.198046 2.3287311 9
-11.939739 1.4237269 2.3276858 11
-13.474216 1.6090871 2.1407902 10
-13.056738 1.5615435 1.609894 10
-13.371385 1.6015414 1.1748594 11
-13.359074 1.6024319 0.70313352 11
-13.682784 1.6436838 0.23988332 53
-1.9462436 0.23552121 -0.51505011 2
-2.2385626 0.27129212 -0.51176393 2
-2.6642742 0.32335606 -0.51376885 2
-3.2588229 0.39609206 -0.51388764 2
-4.2598681 0.51851815 -0.52221072 2
-6.1541591 0.75018436 -0.5390591 2
-10.823092 1.3212384 -0.56752038 5
-13.942355 1.7044951 -0.24206533 9
-8.7104197 1.0664182 2.3394933 12
-10.052979 1.232569 2.3276072 9
-11.910337 1.4624047 2.3229198 6
-14.012602 1.7230127 2.2275159 9
-13.553611 1.6689757 1.6720473 11
-13.929275 1.7177026 1.2245381 11
-13.883637 1.7145349 0.73113328 8
-14.247529 1.7619976 0.24991845 52
-1.9454095 0.24231343 -0.51505011 2
-2.2327678 0.27850151 -0.51063919 2
-2.6631293 0.33265415 -0.51376885 2
-3.2623208 0.40807804 -0.51466984 2
-4.2629571 0.53400159 -0.52282006 2
-6.156445 0.77228177 -0.53949487 2
-10.818414 1.3590101 -0.56752038 4
-14.481938 1.8217899 -0.25156826 9
-8.7066441 1.0968167 2.3394933 12
-10.048616 1.267653 2.3276072 9
-11.905161 1.5039706 2.3229198 11
-14.452359 1.8283191 2.298615 10
-14.084352 1.7842613 1.738466 8
-14.496393 1.8390312 1.2750885 10
-14.457109 1.8366114 0.7617498 8
-14.826485 1.8861662 0.26021537 52
-1.9445518 0.24910271 -0.51505011 2
-2.2317822 0.28629363 -0.51063919 2
-2.6570833 0.34132281 -0.51281571 2
-3.2608764 0.41946319 -0.51466984 2
nan nan nan 0
-6.1537123 0.79376709 -0.53949487 2
-10.808651 1.3961256 -0.56725961 4
-15.090277 1.9518497 -0.26228064 12
-8.7027626 1.1272018 2.3394933 12
-10.044129 1.3027214 2.3276072 9
-11.894971 1.544886 2.3219666 11
-14.480169 1.8832145 2.3040843 11
-14.683342 1.9122442 1.8134158 8
-15.171488 1.9785095 1.3352259 15
-15.064548 1.9672375 0.7941981 9
-15.236202 1.992358 0.26754537 68
-1.9436705 0.25588894 -0.51505011 2
-2.2307692 0.29408228 -0.51063919 2
-2.6558757 0.35059565 -0.51281571 2
-3.2593923 0.4308432 -0.51466984 2
-4.2591252 0.56374937 -0.52282006 2
-6.1558414 0.81589723 -0.53993064 2
-10.798761 1.4331893 -0.56699878 3
-15.236999 2.024929 -0.26495874 3
-8.6987743 1.1575733 2.3394933 12
-10.039521 1.3377739 2.3276072 9
-11.884641 1.5857488 2.3210137 10
-14.483298 1.9350563 2.3056469 10
-15.350468 2.0536425 1.8968962 7
-15.263227 2.0446827 1.3439416 2
-15.255542 2.0463636 0.80466533 2
nan nan nan 0
-1.9427654 0.26267207 -0.51505011 2
-2.2297292 0.30186734 -0.51063919 2
-2.6497719 0.35920492 -0.51186246 2
-3.2578685 0.44221801 -0.51466984 2
-4.2620492 0.57928145 -0.52342945 2
-6.152956 0.83738011 -0.53993064 2
-10.788746 1.4702009 -0.56673795 2
-16.656403 2.2727578 -0.28983912 11
-8.6946802 1.1879307 2.3394933 12
-10.03479 1.3728104 2.3276072 9
-11.879034 1.6272243 2.3210137 10
-14.437312 1.9802318 2.2993963 8
-16.051193 2.204447 1.9846421 7
-16.612993 2.2845583 1.4637808 5
nan nan nan 0
-16.722496 2.3055644 0.29398575 52
-1.9418367 0.26945195 -0.51505011 2
-2.2238362 0.3089782 -0.50951445 2
-2.6485019 0.36845216 -0.51186246 2
-3.2514138 0.45290604 -0.51388764 2
-4.2550855 0.59346968 -0.52282006 2
-6.1549287 0.85954177 -0.54036641 2
-10.778603 1.5071603 -0.56647712 3
-16.777092 2.3489077 -0.29208523 2
-8.6904812 1.2182735 2.3394933 12
-10.034761 1.408507 2.3287311 8
-11.86842 1.6679969 2.3200605 10
-14.435203 2.0313034 2.3001776 9
-16.790358 2.3657069 2.0772629 6
-17.25596 2.4343801 1.5213035 6
nan nan nan 0
-17.763741 2.5123394 0.31248531 23
-1.9408844 0.27622861 -0.51505011 2
-2.222744 0.31673893 -0.50951445 2
-2.656918 0.37908149 -0.51376885 2
-3.2400353 0.46285602 -0.51232326 2
-4.2382503 0.60621113 -0.52099204 2
-6.1518912 0.8810212 -0.54036641 2
-10.778218 1.5454842 -0.56673795 3
-18.218706 2.6156178 -0.31739756 5
-8.6909571 1.2492888 2.3407867 12
-10.029783 1.4435264 2.3287311 9
-11.862526 1.7094152 2.3200605 10
-14.423136 2.0809743 2.2993963 9
-17.499111 2.5278947 2.1662276 5
-18.119911 2.6208029 1.5984364 6
-18.183411 2.6332273 0.96088809 3
-18.610781 2.6984336 0.32758167 42
-1.9399083 0.28300187 -0.51505011 2
-2.2216249 0.32449585 -0.50951445 2
-2.6604352 0.38906378 -0.51472205 2
-3.2237411 0.47201675 -0.5099768 2
-4.2508388 0.62316114 -0.52282006 2
-6.148778 0.90248996 -0.54036641 2
-10.777699 1.5838238 -0.56699878 3
-19.089855 2.8087306 -0.33277506 7
-8.6913204 1.2803222 2.3420796 12
-10.029504 1.4792389 2.329855 9
-11.856486 1.7508126 2.3200605 10
-14.4109 2.1305854 2.298615 10
nan nan nan 0
-19.081299 2.8278894 1.6842847 7
-19.028568 2.8234687 1.0061587 5
-19.639692 2.9176507 0.34590667 40
-1.9436852 0.29048556 -0.51634425 3
-2.2204785 0.33224881 -0.50951445 2
-2.6687691 0.39980245 -0.51662844 2
-3.2464926 0.48692933 -0.51388764 2
-4.2535458 0.63873249 -0.52342945 2
-6.1455903 0.92394769 -0.54036641 2
-10.777042 1.6221786 -0.56725961 2
-20.256472 3.0526538 -0.35333589 8
-8.6915741 1.3113732 2.3433731 12
-10.024279 1.5142394 2.329855 9
-11.850303 1.7921889 2.3200605 10
-14.403375 2.180876 2.298615 10
nan nan nan 0
-20.332006 3.0858154 1.7958441 7
-20.297148 3.0841491 1.0739338 6
-20.607977 3.1350596 0.36318454 40
-1.9426594 0.29726851 -0.51634425 2
-2.2193053 0.33999768 -0.50951445 2
-2.6722088 0.40985984 -0.51758158 3
-3.2496548 0.49900827 -0.51466984 2
-4.2611003 0.65508437 -0.52464807 2
-6.1472507 0.94615197 -0.54080224 2
-10.771315 1.6597875 -0.56725961 2
-20.700247 3.1934686 -0.36128381 2
-8.6917171 1.3424418 2.3446662 12
-10.023747 1.549966 2.3309789 9
-11.848825 1.8342942 2.3210137 11
-14.395675 2.2311397 2.298615 11
-18.432873 2.860147 2.2856593 6
-21.349796 3.3165691 1.8869219 4
nan nan nan 0
-22.306051 3.4730926 0.39337721 27
-1.9415568 0.30438671 -0.51634425 2
-2.2180443 0.34812954 -0.50951445 2
-2.6609912 0.41812748 -0.51567525 2
-3.2575605 0.5124504 -0.51623416 2
-4.2635732 0.67146981 -0.52525747 2
-6.1486621 0.96945214 -0.54123801 2
-10.770091 1.7000338 -0.56752038 2
-22.806795 3.6040795 -0.3983452 5
-8.6915092 1.3750442 2.3459594 12
-10.018 1.5866944 2.3309789 9
-11.842023 1.87771 2.3210137 10
-14.387401 2.2838876 2.298615 10
-18.417366 2.926909 2.2850502 8
-22.591867 3.5943682 1.9980453 4
-22.271608 3.5474007 1.1799141 7
-23.601444 3.7634394 0.41650167 39
-1.9404825 0.31116214 -0.51634425 2
-2.221626 0.3566421 -0.51063919 2
-2.649823 0.42585588 -0.51376885 3
-3.2557518 0.52381825 -0.51623416 2
-4.2612033 0.68634838 -0.52525747 2
-6.1452403 0.99090904 -0.54123801 2
-10.759162 1.7368222 -0.56725961 2
-24.264772 3.9213417 -0.42408949 5
-8.662817 1.401518 2.3394933 4
-10.01721 1.6224331 2.3321028 10
-11.84024 1.9198204 2.3219666 10
-14.374465 2.3333037 2.2978337 10
-18.397242 2.9895878 2.2838314 8
-23.941011 3.8947504 2.1187561 3
-23.831192 3.8811543 1.2633899 7
-24.274 3.9576259 0.42863107 25
-1.9393845 0.31793383 -0.51634425 3
-2.2251749 0.3651838 -0.51176393 2
-2.6386337 0.43351141 -0.51186246 2
-3.2490308 0.53437829 -0.51545197 2
-4.2636776 0.70202482 -0.52586681 2
-6.1466584 1.013164 -0.54167378 2
-10.75796 1.7751812 -0.56752038 2
-26.00194 4.2952666 -0.45475799 4
-8.7579403 1.4482965 2.3666515 10
-10.011484 1.6573899 2.3321028 9
-11.838309 1.9619414 2.3229198 10
-14.366233 2.3834658 2.2978337 10
-18.372005 3.0513484 2.2820034 7
nan nan nan 0
-25.718699 4.2807631 1.3643984 2
nan nan nan 0
-1.9382628 0.32470158 -0.51634425 3
-2.2238865 0.37294888 -0.51176393 2
-2.6322639 0.44190666 -0.51090926 2
-3.2471457 0.54571629 -0.51545197 2
-4.2612014 0.71690357 -0.52586681 2
-6.1430845 1.0346136 -0.54167378 2
-10.751698 1.8127227 -0.56752038 2
nan nan nan 0
-8.7575932 1.4796631 2.3679447 11
-10.005639 1.6923263 2.3321028 5
-11.831388 2.003253 2.3229198 12
-14.357825 2.4335988 2.2978337 10
-18.361242 3.1154602 2.2820034 8
nan nan nan 0
-27.657831 4.7027998 1.4682852 2
-30.741352 5.2326269 0.54364246 23
-1.9371177 0.33146539 -0.51634425 2
-2.2226377 0.3803215 -0.51176393 2
-2.6404595 0.45229051 -0.51281571 2
-3.2404509 0.55564654 -0.51466984 2
-4.2636914 0.73186976 -0.52647614 2
-6.1396194 1.0549791 -0.54167378 2
-10.750549 1.8492131 -0.56778121 2
-28.415768 4.8929324 -0.49760753 3
-8.747879 1.5078759 2.3666515 10
-9.9999714 1.7254969 2.3321028 10
-11.82468 2.0424762 2.3229198 9
-14.354543 2.4820392 2.298615 10
-18.350811 3.176331 2.2820034 8
-25.185492 4.3638697 2.2329302 3
-30.775927 5.3380527 1.6349752 5
-31.861629 5.532095 0.56379998 65
-1.93125 0.33705696 -0.51505011 3
-2.2212963 0.38807765 -0.51176393 2
-2.6485345 0.46319583 -0.51472205 2
-3.2384915 0.56695449 -0.51466984 2
-4.2611108 0.74674839 -0.52647614 2
-6.1309943 1.0755434 -0.54123801 2
-10.748945 1.8875917 -0.56804198 2
-28.324659 4.9791088 -0.49631166 101
-8.7378054 1.5375655 2.3653584 10
-9.9938879 1.7603928 2.3321028 10
-11.817479 2.0837395 2.3229198 10
-14.345792 2.5321307 2.298615 9
-18.349384 3.2420948 2.283222 8
-25.116152 4.442214 2.2281365 4
-31.912527 5.6500115 1.69647 27
-31.832281 5.6415343 0.5636254 37
-1.9300618 0.34379622 -0.51505011 2
-2.2152014 0.39458728 -0.51063919 2
-2.6566482 0.47369933 -0.51662844 2
-3.2365937 0.5776906 -0.51466984 2
-4.2634969 0.76174754 -0.52708548 2
-6.1224904 1.0949917 -0.54080224 2
-10.762287 1.9267459 -0.56908524 2
nan nan nan 0
-8.7231512 1.5648271 2.362772 10
-9.9879951 1.793524 2.3321028 9
-11.810504 2.1229162 2.3229198 12
-14.342175 2.5805635 2.2993963 3
-18.343418 3.3038056 2.2838314 8
-25.086576 4.5228267 2.2268293 4
-31.839563 5.7460518 1.6935916 77
-37.908791 6.8481903 0.67174304 40
-1.928911 0.35019463 -0.51505011 2
-2.2090168 0.40144622 -0.50951445 2
-2.6694655 0.48560518 -0.51948798 2
-3.2345574 0.58898491 -0.51466984 2
-4.2656941 0.77751517 -0.52769482 2
-6.1088305 1.1145685 -0.53993064 2
-10.770233 1.966993 -0.56986767 2
nan nan nan 0
-8.7176361 1.5952671 2.362772 9
-9.9816732 1.8283778 2.3321028 10
-11.798194 2.1632442 2.3219666 12
-14.333079 2.6306114 2.2993963 4
-18.341536 3.3696096 2.2850502 8
-25.070637 4.6103678 2.2268293 4
-31.775114 5.8490214 1.6912364 107
nan nan nan 0
-1.9275521 0.35759854 -0.51505011 2
-2.2026694 0.4090358 -0.50838971 2
-2.6627557 0.49495465 -0.51853484 2
-3.2371271 0.60230368 -0.51545197 2
-4.2724347 0.79570574 -0.5289135 2
-6.1045055 1.1380163 -0.53993064 2
-10.777325 2.0110805 -0.5706501 3
-45.263573 8.4544916 -0.79504901 3
-8.7066975 1.6278408 2.3614786 9
-9.9697905 1.8657948 2.3309789 10
-11.789801 2.2085302 2.3219666 12
-14.327728 2.686537 2.3001776 4
-18.333338 3.4409261 2.2856593 8
-25.042957 4.7047586 2.2259576 4
-31.75242 5.9709859 1.6912364 125
-45.2565 8.5185814 0.80315971 2
-1.9262922 0.36432478 -0.51505011 2
-2.1964412 0.4158158 -0.50726491 2
-2.6513669 0.5024187 -0.51662844 2
-3.2350049 0.61359966 -0.51545197 2
-4.274507 0.81154019 -0.5295229 2
-6.1102829 1.161178 -0.54080224 2
-10.755525 2.0458894 -0.56986767 2
-45.140472 8.5946722 -0.79340756 4
-8.700963 1.6582229 2.3614786 9
-9.9632168 1.9005845 2.3309789 10
-11.777199 2.2487502 2.3210137 11
-14.318262 2.7365339 2.3001776 4
-18.316343 3.5039682 2.2850502 7
-25.021492 4.7912092 2.2255218 4
-31.72648 6.0808463 1.6909746 112
-45.275581 8.6859303 0.80403233 2
-1.9250088 0.37104657 -0.51505011 2
-2.19976 0.42440322 -0.50838971 2
-2.6447775 0.51073998 -0.51567525 2
-3.2328434 0.62488818 -0.51545197 2
-4.2716484 0.82645613 -0.5295229 2
-6.1159725 1.1843938 -0.54167378 2
-10.748318 2.0834208 -0.56986767 2
-45.012043 8.7331467 -0.7916798 11
-8.6951218 1.6885848 2.3614786 9
-9.9517393 1.9344213 2.329855 10
-11.769278 2.2898467 2.3210137 12
-14.308623 2.7864971 2.3001776 4
-18.294258 3.565984 2.2838314 8
-24.999725 4.8775673 2.225086 3
-31.700165 6.190599 1.690713 105
-45.215546 8.8381577 0.8035087 2
-1.9237018 0.37776384 -0.51505011 2
-2.2030454 0.4330188 -0.50951445 2
-2.6429787 0.51996893 -0.51567525 2
-3.2354875 0.63712323 -0.51623416 2
-4.2638683 0.84040219 -0.5289135 2
-6.1118011 1.2057352 -0.54167378 2
-10.74098 2.1209266 -0.56986767 2
-45.025425 8.8989391 -0.79245728 6
-8.6939125 1.7198637 2.362772 9
-9.9449263 1.9691476 2.329855 9
-11.761213 2.3309152 2.3210137 12
-14.298809 2.8364265 2.3001776 4
-18.267096 3.6269214 2.2820034 8
-24.972776 4.9628611 2.2242146 4
-31.678362 6.3012156 1.690713 103
-45.233452 9.0056973 0.80438137 3
-1.9223714 0.38447651 -0.51505011 2
-2.2062979 0.44166258 -0.51063919 2
-2.6411476 0.52919143 -0.51567525 2
-3.2380857 0.64938438 -0.51701629 2
-4.2609086 0.8552807 -0.5289135 2
-6.0977888 1.2250999 -0.54080224 2
-10.733511 2.1584067 -0.56986767 2
-45.435173 9.1448307 -0.80023241 15
-8.6878567 1.7502006 2.362772 9
-9.9379911 2.00385 2.329855 9
-11.753004 2.3719554 2.3210137 11
-14.288821 2.8863215 2.3001776 4
-18.230001 3.685746 2.2789564 8
-24.950418 5.0490146 2.2237787 3
-31.656172 6.4117551 1.690713 52
-47.60743 9.6512308 0.84722698 2
-1.9210176 0.39118448 -0.51505011 3
-2.209516 0.45033419 -0.51176393 2
-2.6392844 0.53840756 -0.51567525 2
-3.2357996 0.66068345 -0.51701629 2
-4.2578974 0.87014884 -0.5289135 2
-6.0690751 1.2413869 -0.53862333 2
-10.730802 2.1968615 -0.57012844 2
-45.402973 9.3033733 -0.80023241 18
-8.681694 1.7805161 2.362772 9
-9.9309368 2.0385277 2.329855 9
-11.744654 2.4129665 2.3210137 11
-14.273821 2.9351864 2.2993963 5
-18.221886 3.7503586 2.279566 8
-24.927765 5.1350722 2.2233431 4
-31.6336 6.5222168 1.690713 25
-46.555069 9.6071968 0.82907647 5
-1.9196405 0.39788771 -0.51505011 3
-2.2079306 0.45804411 -0.51176393 2
-2.6373887 0.54761708 -0.51567525 2
-3.2383089 0.6729793 -0.51779848 2
-4.2596927 0.88601708 -0.5295229 2
-6.0842109 1.266625 -0.54036641 2
-10.723067 2.2343056 -0.57012844 2
-45.365326 9.4607821 -0.80014598 13
-8.6754255 1.81081 2.362772 9
-9.9237604 2.0731807 2.329855 9
-11.736159 2.4539483 2.3210137 12
-14.263489 2.9849935 2.2993963 5
-18.208683 3.8139417 2.279566 7
-24.899939 5.2200108 2.2224715 3
-31.61064 6.6325994 1.690713 98
-46.932224 9.8559513 0.83640653 48
-1.91824 0.40458605 -0.51505011 3
-2.2110853 0.46675473 -0.51288873 2
-2.6354611 0.55681998 -0.51567525 2
-3.23594 0.68427902 -0.51779848 2
-4.2565742 0.90088069 -0.5295229 2
-6.089498 1.2899196 -0.54123801 2
-10.715203 2.2717226 -0.57012844 2
-38.162746 8.0978174 -0.67349797 4
-8.6690521 1.8410819 2.362772 9
-9.9164629 2.1078084 2.329855 10
-11.727522 2.4949002 2.3210137 12
-14.252982 3.0347641 2.2993963 5
-18.20982 3.8805821 2.281394 8
-24.876694 5.3058567 2.2220356 3
-31.587296 6.7429004 1.690713 110
-47.577087 10.164904 0.84853595 7
-1.916816 0.41127953 -0.51505011 3
-2.2094426 0.47447005 -0.51288873 2
-2.6383002 0.56704742 -0.51662844 2
-3.2287035 0.6945318 -0.51701629 2
-4.258255 0.91677797 -0.53013223 2
-6.099566 1.3143157 -0.54254532 3
-10.702329 2.3080595 -0.56986767 2
-38.148903 8.2341442 -0.67375714 5
-8.6672935 1.8723512 2.3640649 9
-9.9138069 2.1434402 2.3309789 10
-11.718741 2.5358217 2.3210137 12
-14.242302 3.0844979 2.2993963 5
-18.205864 3.9462252 2.2826128 8
-24.853155 5.3916044 2.2215998 4
-31.563566 6.8531194 1.690713 127
-47.560856 10.335163 0.848885 8
-1.9106501 0.41693828 -0.51375604 3
-2.207773 0.48217952 -0.51288873 2
-2.6363049 0.57625335 -0.51662844 2
-3.2262595 0.70579785 -0.51701629 2
-4.2550287 0.93163639 -0.53013223 2
-6.0998063 1.3366654 -0.54298115 2
-10.689329 2.3443339 -0.5696069 2
-38.110168 8.3651161 -0.6735844 5
-8.6607056 1.9025942 2.3640649 10
-9.9062643 2.1780329 2.3309789 10
-11.709819 2.5767121 2.3210137 13
-14.226626 3.133132 2.298615 4
-18.206516 4.0129557 2.2844408 8
-24.824453 5.4761796 2.2207284 3
-31.534576 6.9621787 1.6904513 115
-47.529373 10.502198 0.84897226 6
-1.909183 0.42360517 -0.51375604 3
-2.2060764 0.48988315 -0.51288873 2
-2.6390684 0.5865171 -0.51758158 2
-3.2237761 0.71705526 -0.51701629 2
-4.2565951 0.94756192 -0.53074157 3
-6.0902419 1.3568662 -0.54254532 2
-10.710321 2.3881521 -0.5711717 2
-38.080734 8.4980946 -0.6735844 5
-8.6587238 1.9338667 2.3653584 10
-9.9033566 2.2136617 2.3321028 11
-11.700753 2.6175716 2.3210137 13
-14.210783 3.1816943 2.2978337 9
-18.192398 4.0764837 2.2844408 7
-24.771166 5.5551701 2.2176778 3
-31.514954 7.0733061 1.690713 104
-47.492424 10.668042 0.84897226 5
-1.9076928 0.43026686 -0.51375604 2
-2.1996005 0.49650806 -0.51176393 2
-2.6370051 0.5957256 -0.51758158 2
-3.2212534 0.72830397 -0.51701629 2
-4.2581019 0.9635098 -0.53135097 3
-6.0806103 1.3770168 -0.54210955 2
-10.71166 2.427731 -0.57169336 2
-38.050838 8.630969 -0.6735844 7
-8.6566315 1.9651489 2.3666515 9
-9.9050722 2.2503762 2.3343506 11
-11.691545 2.6583986 2.3210137 6
-14.18996 3.2290878 2.2962711 14
-18.17322 4.1388607 2.2838314 8
-24.732199 5.637176 2.2159348 4
-31.504677 7.1866021 1.691498 86
nan nan nan 0
-1.9014715 0.43584427 -0.5124619 2
-2.1978538 0.50418305 -0.51176393 2
-2.6349094 0.60492682 -0.51758158 2
-3.2186916 0.7395438 -0.51701629 2
-4.2547131 0.97836745 -0.53135097 3
-6.0660586 1.3959996 -0.54123801 2
-10.717716 2.4684687 -0.57247573 2
-33.338955 7.6846447 -0.59056342 13
-8.6403065 1.9931829 2.3640649 11
-9.9066486 2.2871294 2.3365984 4
-11.682194 2.6991937 2.3210137 12
-14.168979 3.2763753 2.2947085 11
-18.139322 4.1977959 2.281394 8
-24.663845 5.7122345 2.2115769 4
-31.493988 7.299912 1.692283 26
-44.952606 10.427719 0.80481768 60
-1.8999387 0.44247901 -0.5124619 2
-2.1913362 0.51074612 -0.51063919 2
-2.6327817 0.61412066 -0.51758158 2
-3.2208998 0.75189739 -0.51779848 2
-4.256104 0.99434221 -0.53196025 3
-6.0562983 1.4160315 -0.54080224 2
-10.713897 2.5070033 -0.57273656 2
-33.258381 7.7884336 -0.58961308 17
-8.6285944 2.0222292 2.362772 16
-9.9175787 2.3261464 2.341094 22
-11.667922 2.7388341 2.3200605 12
-14.14784 3.3235555 2.2931457 14
-18.110065 4.2576809 2.279566 9
-24.643753 5.7982926 2.2115769 4
-31.507198 7.4189577 1.6943766 27
-31.437239 7.4082761 0.56310189 5
-1.9030826 0.45022023 -0.51375604 2
-2.184799 0.51726973 -0.50951445 2
-2.6306221 0.62330705 -0.51758158 2
-3.2182555 0.76313579 -0.51779848 2
-4.2574363 1.0103387 -0.53256965 3
-6.0561647 1.4383142 -0.54123801 2
-10.709938 2.545541 -0.57299739 2
-31.480112 7.4880066 -0.55851263 27
-8.5932903 2.045625 2.3550122 22
-9.89044 2.3562346 2.3365984 14
-11.65829 2.779546 2.3200605 12
-14.126545 3.3706279 2.2915833 16
-18.08544 4.3185663 2.2783473 9
-24.65243 5.8912258 2.2141917 4
-31.393696 7.507988 1.6896663 114
-31.459806 7.5296035 0.56397444 69
-1.9014994 0.45686048 -0.51375604 3
-2.187717 0.52603197 -0.51063919 2
-2.6284304 0.63248581 -0.51758158 2
-3.2203732 0.77552116 -0.51858068 2
-4.258708 1.0263565 -0.53317899 4
-6.060791 1.4617811 -0.54210955 2
-10.700988 2.5829103 -0.57299739 2
-31.429483 7.5919776 -0.55808067 42
-8.5626249 2.0699344 2.348546 14
-9.8726864 2.3884532 2.3343506 15
-11.643746 2.8190689 2.3191071 12
-14.105094 3.4175925 2.2900207 12
-18.060608 4.3793311 2.2771285 10
-24.684963 5.9901638 2.2189851 4
-31.401264 7.6257758 1.691498 104
-31.41876 7.6358314 0.56371272 57
-1.899893 0.46349517 -0.51375604 3
-2.1906002 0.53482074 -0.51176393 2
-2.6214387 0.64049196 -0.51662844 2
-3.2224438 0.78793061 -0.51936287 2
-4.2599196 1.0423954 -0.53378832 5
-6.0604901 1.4841131 -0.54254532 2
-10.696756 2.6214364 -0.57325816 3
-31.383369 7.6968775 -0.55773509 34
-8.541275 2.0963573 2.3446662 14
-9.854825 2.4205763 2.3321028 14
-11.629069 2.8585246 2.3181539 11
-14.093079 3.4668076 2.2900207 9
-18.064486 4.4470925 2.279566 10
-24.678413 6.0798688 2.2202926 4
-31.350212 7.729363 1.6901896 46
-26.446012 6.5251341 0.47479269 27
-1.9029515 0.47128522 -0.51505011 3
-2.18872 0.54246414 -0.51176393 2
-2.6191871 0.64963859 -0.51662844 2
-3.2196739 0.79917425 -0.51936287 2
-4.2610712 1.0584553 -0.53439766 4
-6.0601063 1.5064608 -0.54298115 2
-10.68754 2.6587591 -0.57325816 3
-26.374153 6.5660348 -0.46901238 5
-8.5245323 2.1238239 2.3420796 14
-9.841588 2.4537828 2.3309789 14
-11.614258 2.8979118 2.3172007 11
-14.080892 3.5159805 2.2900207 9
-18.048853 4.5101223 2.279566 9
-24.637711 6.1611423 2.2185495 4
nan nan nan 0
-24.294157 6.0842409 0.43648466 26
-1.9012948 0.47792488 -0.51505011 3
-2.1868131 0.55010086 -0.51176393 2
-2.6169033 0.65877736 -0.51662844 2
-3.221653 0.81161451 -0.520145 2
-4.2621632 1.074536 -0.535007 6
-6.054811 1.5276053 -0.54298115 2
-10.683036 2.6972718 -0.57351899 2
-23.394445 5.9110146 -0.41631436 4
-8.5123854 2.1523831 2.3407867 14
-9.8282394 2.4869261 2.329855 14
-11.604072 2.9384356 2.3172007 11
-14.068532 3.5651104 2.2900207 8
-18.052242 4.5779767 2.2820034 9
nan nan nan 0
nan nan nan 0
-22.412212 5.6961393 0.40297607 28
-1.8996149 0.48455873 -0.51505011 3
-2.1848795 0.55773091 -0.51176393 2
-2.614588 0.66790801 -0.51662844 2
-3.2188003 0.82285517 -0.520145 2
-4.2631941 1.0906372 -0.5356164 6
-6.0494418 1.5487312 -0.54298115 2
-10.678393 2.7357855 -0.57377982 2
-21.107321 5.4115839 -0.37588373 2
-8.5048199 2.1820838 2.3407867 13
-9.8194981 2.5212181 2.329855 14
-11.588989 2.9777019 2.3162475 11
-14.060785 3.615427 2.290802 8
-18.045763 4.643436 2.283222 8
-21.439449 5.5206704 1.9335501 4
nan nan nan 0
-20.121822 5.1888709 0.36205015 36
-1.8979119 0.49118668 -0.51505011 2
-2.1829193 0.56535417 -0.51176393 2
-2.6169918 0.678262 -0.51758158 2
-3.2159083 0.83408594 -0.520145 2
-4.2593613 1.1055118 -0.5356164 6
-6.0439987 1.5698383 -0.54298115 2
-10.67361 2.7742994 -0.57404065 4
-20.072268 5.2209511 -0.3577418 12
-8.4971514 2.2117579 2.3407867 14
-9.8059235 2.554251 2.3287311 14
-11.578525 3.018137 2.3162475 10
-14.048079 3.6644864 2.290802 8
-18.087069 4.7214413 2.2905343 9
-19.7815 5.1674433 1.7853854 4
-19.997931 5.2277093 1.0812608 6
-18.947668 4.9566903 0.34119451 42
-1.8961859 0.49780864 -0.51505011 2
-2.1809325 0.57297051 -0.51176393 2
-2.6193554 0.68864089 -0.51853484 2
-3.2177534 0.84656298 -0.52092719 2
-4.2506771 1.1191095 -0.535007 8
-6.0384822 1.5909263 -0.54298115 2
-10.663861 2.8115401 -0.57404065 4
-18.328239 4.8356843 -0.32690051 7
-8.4847088 2.2401719 2.3394933 14
-9.7969475 2.5884645 2.3287311 13
-11.572664 3.0597899 2.3172007 12
-14.039976 3.7147639 2.2915833 8
-18.065678 4.7832775 2.2899249 10
-18.314077 4.8524675 1.6542159 5
-18.435122 4.8879824 0.99752331 5
-16.499733 4.3779058 0.29730174 63
-1.8944366 0.50442451 -0.51505011 2
-2.1789193 0.58057994 -0.51176393 2
-2.6169357 0.69777989 -0.51853484 2
-3.2147787 0.85778987 -0.52092719 2
-4.2467446 1.1339403 -0.535007 7
-6.0280795 1.6107088 -0.54254532 2
-10.653982 2.848747 -0.57404065 4
-17.224642 4.6088839 -0.30746272 33
-8.4768372 2.2697754 2.3394933 14
-9.7878523 2.6226463 2.3287311 14
-11.561913 3.1001673 2.3172007 11
-14.026924 3.7637503 2.2915833 5
nan nan nan 0
-17.152164 4.6087441 1.5505006 7
-17.251053 4.6385431 0.93419683 12
-16.358833 4.4017015 0.29503289 78
-1.8973269 0.51229322 -0.51634425 2
-2.1815829 0.58945304 -0.51288873 2
-2.6192219 0.70819157 -0.51948798 2
-3.2117648 0.86900634 -0.52092719 2
-4.2427607 1.1487573 -0.535007 5
-6.0224209 1.6317409 -0.54254532 2
-10.648792 2.8872256 -0.57430142 4
-16.137337 4.3783679 -0.28828409 17
-8.4688625 2.2993512 2.3394933 14
-9.7786379 2.6567965 2.3287311 14
-11.555758 3.1417949 2.3181539 12
-14.027996 3.8165798 2.2939272 8
-16.647987 4.5325184 2.1138237 10
-16.069084 4.3779206 1.4537579 7
-16.170126 4.4084811 0.87636554 13
-15.619924 4.2614079 0.28194359 64
-1.8954365 0.51924384 -0.51634425 2
-2.1747088 0.59615695 -0.51176393 2
-2.6118755 0.7164883 -0.51853484 2
-3.2037957 0.87946486 -0.520145 2
-4.2385221 1.1643001 -0.535007 5
-6.0163999 1.6538033 -0.54254532 2
-10.638139 2.9262362 -0.57430142 4
-14.814966 4.0779386 -0.26487234 13
-8.4603786 2.3303757 2.3394933 14
-9.7735319 2.6939137 2.329855 14
-11.544165 3.1841278 2.3181539 12
-14.023435 3.8705971 2.2954898 8
-15.602784 4.309443 1.9828142 12
-14.862287 4.1077113 1.3456846 10
-14.868928 4.1123409 0.80649704 8
-14.524943 4.0199332 0.26239693 49
-1.8936126 0.52585697 -0.51634425 2
-2.1726148 0.60374445 -0.51176393 2
-2.5999007 0.72297114 -0.51662844 2
-3.2007065 0.89064288 -0.520145 2
-4.2344317 1.1790882 -0.535007 6
-6.0057917 1.6734574 -0.54210955 2
-10.632668 2.9646933 -0.57456219 4
-14.169831 3.9536214 -0.25355521 6
-8.4521923 2.3598938 2.3394933 13
-9.7640686 2.7280133 2.329855 14
-11.537706 3.2257264 2.3191071 12
-13.824356 3.8676324 2.2650187 6
-14.574503 4.0802436 1.8536327 11
-14.176373 3.9714525 1.2846756 8
-14.157351 3.9687881 0.7685535 8
-13.721418 3.8491714 0.24808595 46
-1.8917654 0.53246373 -0.51634425 2
-2.1704941 0.61132461 -0.51176393 2
-2.5926368 0.73071057 -0.51567525 2
-3.197578 0.90180999 -0.520145 2
-4.2350664 1.19521 -0.5356164 4
-5.9999137 1.6944114 -0.54210955 2
-10.622255 3.00179 -0.57456219 5
-13.419923 3.7949243 -0.24033754 7
-8.443903 2.3893831 2.3394933 14
-9.7591743 2.7634072 2.3309789 15
-11.531098 3.267319 2.3200605 10
-13.17885 3.736692 2.1611044 7
-13.75809 3.9035223 1.7512624 15
-13.405352 3.8059695 1.2158226 9
-13.470982 3.8271432 0.73191833 8
-12.943318 3.6796741 0.23421128 48
-1.8898953 0.53906399 -0.51634425 2
-2.1683469 0.61889732 -0.51176393 2
-2.5806313 0.73706013 -0.51376885 2
-3.1944106 0.91296607 -0.520145 2
-4.2308688 1.2099857 -0.5356164 4
-5.9891739 1.7139742 -0.54167378 2
-10.616513 3.040225 -0.57482302 6
-12.661689 3.6282885 -0.22694704 8
-8.4401541 2.4201746 2.3407867 14
-9.7541523 2.7988 2.3321028 14
-11.529058 3.3102591 2.3219666 12
-12.534435 3.6012943 2.0571902 6
-13.076648 3.7595489 1.6659539 20
-12.760124 3.6709595 1.1582998 10
-12.756991 3.6724691 0.69371307 9
-12.334712 3.5532353 0.22339079 49
-1.888002 0.54565763 -0.51634425 2
-2.1661732 0.62646252 -0.51176393 2
-2.5780427 0.74606377 -0.51376885 2
-3.1912041 0.92411113 -0.520145 2
-4.2266192 1.2247469 -0.5356164 6
-5.9831548 1.7348698 -0.54167378 2
-10.60104 3.0758734 -0.57456219 5
-12.058425 3.5010133 -0.21632105 9
-8.4362926 2.450969 2.3420796 14
-9.7536812 2.8355515 2.3343506 15
-11.522146 3.3518541 2.3229198 13
-11.971744 3.4849107 1.9665581 7
-12.453561 3.6275229 1.5879575 11
-12.135139 3.5370693 1.1025201 10
-12.111362 3.5324323 0.65917134 9
-11.818336 3.4492059 0.21422827 57
-1.8860857 0.55224466 -0.51634425 3
-2.168649 0.63538992 -0.51288873 2
-2.5848429 0.75782001 -0.51567525 2
-3.192698 0.93663514 -0.52092719 2
-4.2223182 1.2394931 -0.5356164 4
-5.9770622 1.7557443 -0.54167378 2
-10.585449 3.1114514 -0.57430142 5
-11.696016 3.4401057 -0.21001457 6
-8.4323187 2.4817657 2.3433731 14
-9.748395 2.8709569 2.3354743 8
nan nan nan 0
-11.381602 3.3562636 1.8712382 7
-11.783965 3.47715 1.5038676 10
-11.769214 3.4750302 1.0702726 8
-11.720665 3.4629195 0.63849866 6
-10.96246 3.2409849 0.19887015 43
-1.8841467 0.55882496 -0.51634425 2
-2.1664178 0.64295602 -0.51288873 2
-2.5821819 0.76683825 -0.51567525 2
-3.189409 0.94777399 -0.52092719 2
-4.2132087 1.2528096 -0.535007 4
-5.9661236 1.7751771 -0.54123801 2
-10.579308 3.1498072 -0.57456219 6
-10.90777 3.2496738 -0.19601935 21
-8.4282331 2.5125647 2.3446662 14
-9.7569904 2.9105389 2.3399701 15
-11.244491 3.3564014 2.2714477 9
-10.835099 3.2362611 1.7829502 9
-11.115579 3.3221483 1.4197778 9
-10.931433 3.2691905 0.99488282 16
-10.938354 3.2733407 0.59636819 21
-10.812196 3.2376435 0.19633956 76
-1.8775589 0.56400901 -0.51505011 2
-2.1688256 0.65191668 -0.51401347 2
-2.5841899 0.77726078 -0.51662844 2
-3.1860812 0.95890141 -0.52092719 2
-4.2088103 1.2675089 -0.535007 5
-5.9598904 1.795992 -0.54123801 2
nan nan nan 0
-10.546972 3.1823094 -0.18971287 6
-8.4194117 2.5419695 2.3446662 14
-9.7467718 2.9445794 2.3399701 15
-10.725287 3.24224 2.1685035 12
-10.384122 3.141084 1.7102883 11
-10.742921 3.2516634 1.3734674 17
-10.476612 3.1730533 0.95435536 10
-10.563694 3.2014406 0.57648051 6
-10.284146 3.1186807 0.18691526 48
-1.8755789 0.5705595 -0.51505011 2
-2.1665368 0.65948331 -0.51401347 2
-2.5861561 0.78770661 -0.51758158 2
-3.1827145 0.97001702 -0.52092719 2
-4.20436 1.2821927 -0.535007 4
-5.9488206 1.8153311 -0.54080224 2
-10.237101 3.1258879 -0.55708802 12
-10.09116 3.0832505 -0.18167858 7
-8.4151058 2.5727553 2.3459594 13
-9.736433 2.9785838 2.3399701 16
-10.253959 3.1388628 2.0750911 10
-9.9717216 3.0543706 1.6438769 10
-10.271253 3.1480787 1.3143609 12
-10.074984 3.0898473 0.91862154 9
-10.113297 3.1035285 0.55240595 7
-9.8622017 3.028357 0.17941073 49
-1.8735758 0.57710302 -0.51505011 2
-2.1688776 0.668477 -0.51513821 2
-2.5787005 0.79528272 -0.51662844 2
-3.1840281 0.98257709 -0.52170938 2
-4.1998587 1.2968608 -0.535007 4
-5.9376888 1.8346148 -0.54036641 2
-9.8206434 3.0362401 -0.53491926 10
-9.6791573 2.9943478 -0.1744218 7
-8.4106884 2.6035421 2.3472528 9
-9.7120142 3.0082273 2.3365984 17
-9.849123 3.0525796 1.9950231 10
-9.5553417 2.9633548 1.5766844 9
-9.7767448 3.0338886 1.2522074 11
-9.6597967 2.9994462 0.88158035 10
-9.7114019 3.017328 0.53094822 7
-9.4457932 2.9366114 0.17199345 50
-1.87155 0.5836395 -0.51505011 2
-2.16188 0.67459238 -0.51401347 2
-2.5759089 0.80427927 -0.51662844 2
-3.1805792 0.99368548 -0.52170938 2
-4.1953063 1.3115132 -0.535007 4
-5.9312487 1.8553301 -0.54036641 2
-9.3954096 2.9407408 -0.51222885 11
-9.2774448 2.905596 -0.16733781 7
-8.4015484 2.632885 2.3472528 14
-9.594532 3.0085824 2.3107486 8
-9.4684353 2.9708571 1.9197212 10
-9.2056885 2.8901813 1.5204298 12
-9.4488773 2.9683437 1.2113812 11
-9.3118944 2.9270966 0.85064006 11
-9.3149996 2.9298592 0.50975221 8
-9.1064482 2.8660102 0.16597238 54
-1.8741069 0.59162277 -0.51634425 2
-2.159512 0.68213469 -0.51401347 2
-2.5730855 0.81326598 -0.51662844 2
-3.1770911 1.0047817 -0.52170938 2
-4.1954346 1.3276469 -0.5356164 4
-5.9199877 1.874519 -0.53993064 2
-9.0518885 2.86795 -0.49397221 15
-8.9336605 2.8322074 -0.1612905 9
-8.3969107 2.663656 2.348546 14
-9.1892529 2.9167676 2.2152166 6
-9.1352234 2.9013727 1.8539512 15
-8.8896132 2.8250744 1.4696448 13
-9.1168604 2.8990445 1.1699456 13
-8.978858 2.8568873 0.82100713 11
-8.98594 2.8608677 0.49221966 9
-8.7772427 2.7961118 0.16012582 55
-1.8720303 0.59816104 -0.51634425 2
-2.1524775 0.68818504 -0.51288873 2
-2.5702312 0.82224268 -0.51662844 2
-3.1782675 1.0173712 -0.52249151 2
-4.1955009 1.3437973 -0.53622574 5
-5.9134083 1.8951722 -0.53993064 2
-8.6899738 2.7866991 -0.47467238 12
-8.6143074 2.7640924 -0.15567514 10
-8.39676 2.695904 2.3511326 16
-8.8589563 2.8460047 2.1376672 7
-8.7885981 2.8250937 1.7853217 12
-8.588213 2.7623336 1.4212036 13
-8.7901697 2.8289847 1.1291194 14
-8.6701355 2.7920237 0.79355299 12
-8.6669855 2.7926788 0.47521046 8
-8.4581556 2.7270191 0.15445378 56
-1.8699309 0.60469192 -0.51634425 2
-2.1500623 0.69569439 -0.51288873 2
-2.5626755 0.82969761 -0.51567525 2
-3.1746969 1.0284593 -0.52249151 2
-4.1907845 1.3584342 -0.53622574 6
-5.9067564 1.9158025 -0.53993064 2
-8.3952332 2.7245364 -0.45902386 10
-8.3145609 2.6999595 -0.15040533 9
-8.3781099 2.7222123 2.348546 13
-8.5570679 2.7820106 2.0668612 7
-8.4939623 2.7631333 1.7271771 11
-8.3155375 2.7066958 1.3774501 12
-8.5018358 2.7689767 1.093168 14
-8.3951292 2.7358441 0.76914942 13
-8.3865976 2.734683 0.46029472 8
-8.1871881 2.671241 0.14965437 58
-1.867702 0.61154157 -0.51634425 2
-2.1474979 0.70357013 -0.51288873 2
-2.5549531 0.83755571 -0.51472205 2
-3.1709061 1.0400882 -0.52249151 2
-4.1904922 1.3753326 -0.53683501 6
-5.9044275 1.938993 -0.54036641 2
-8.1195459 2.6679997 -0.44441852 11
-8.0576525 2.6492207 -0.14591303 10
-8.3176088 2.7362988 2.3343203 9
-8.3061686 2.7341416 2.0084181 7
-8.2227087 2.7082598 1.6737987 10
-8.0288258 2.6459553 1.3313527 14
-8.2276955 2.7130864 1.0590445 13
-8.115427 2.6776364 0.74431008 12
-8.1015148 2.674614 0.44511729 8
-7.9257541 2.6181228 0.14502949 59
-1.8701406 0.61957616 -0.51763833 2
-2.1450291 0.71106201 -0.51288873 2
-2.5473554 0.84492385 -0.51376885 2
-3.1672561 1.0511503 -0.52249151 2
-4.1903758 1.3915156 -0.53744441 6
-5.8976235 1.9595914 -0.54036641 2
-7.8685346 2.6159873 -0.43111727 11
-7.7969413 2.5936966 -0.14133435 11
-8.0467949 2.6783714 2.2606049 10
-7.9914947 2.6615143 1.9342403 8
-7.9151855 2.6376348 1.6127946 13
-7.7571807 2.5864861 1.2875994 17
-7.9639626 2.6569781 1.0261399 13
-7.8603477 2.6239345 0.72164953 12
-7.850595 2.6222017 0.43177164 8
-7.6842332 2.5681326 0.14075364 61
-1.8633872 0.6245656 -0.51634425 2
-2.1425338 0.7185452 -0.51288873 2
-2.5397372 0.85224915 -0.51281571 2
-3.1682496 1.0637717 -0.52327371 2
-4.1901975 1.4077148 -0.53805375 5
-5.8907471 1.980166 -0.54036641 3
-7.6132569 2.5606642 -0.41755521 11
-7.5651484 2.545953 -0.13727403 10
-7.7169843 2.5985508 2.1700771 12
-7.6912823 2.5913908 1.8634344 9
-7.6408172 2.5758731 1.558463 15
-7.5188079 2.5362027 1.2493153 11
-7.6866174 2.5943015 0.9914071 16
-7.5963068 2.5652981 0.69811755 14
-7.5954137 2.5664732 0.41816428 10
-7.4573736 2.5212801 0.1367396 60
-1.8657695 0.632617 -0.51763833 2
-2.1400127 0.72601968 -0.51288873 2
-2.5413947 0.86268699 -0.51376885 2
-3.1645169 1.0748246 -0.52327371 2
-4.1852579 1.4223328 -0.53805375 6
-5.888515 2.0023201 -0.54080224 3
-7.3820996 2.5116334 -0.40529719 13
-7.3527164 2.5030682 -0.13355924 10
-7.4884152 2.5507224 2.108001 13
-7.4838924 2.5506396 1.8151065 8
-7.4180799 2.5296547 1.5146161 13
-7.2855577 2.4858825 1.2118123 10
-7.4473829 2.5425496 0.9615491 12
-7.3657689 2.5161219 0.67763591 12
-7.3785181 2.5219152 0.40665036 12
-7.2356653 2.4744999 0.1328128 59
-1.8589815 0.63755912 -0.51634425 2
-2.1328571 0.73190391 -0.51176393 2
-2.5662212 0.88111645 -0.51948798 2
-3.1607459 1.0858642 -0.52327371 2
-4.1849613 1.4385468 -0.53866315 8
-5.8814898 2.0228627 -0.54080224 3
-7.1938725 2.4756439 -0.39538646 22
-7.1264973 2.4538491 -0.1295853 11
-7.2785425 2.5076234 2.0510981 12
-7.2538528 2.5005338 1.7611591 8
-7.2004027 2.4835145 1.4717227 13
-7.0807633 2.4436326 1.1789973 9
-7.2320609 2.4972591 0.9347378 12
-7.1545014 2.4718752 0.6588974 11
-7.1667476 2.4775066 0.39539814 11
-7.0332751 2.4327402 0.12923506 60
-1.8658705 0.64720976 -0.5189324 2
-2.134892 0.74094194 -0.51288873 2
-2.5538568 0.88684863 -0.51758158 2
-3.1522713 1.0952697 -0.52249151 2
-4.179914 1.4531462 -0.53866315 9
-5.8838015 2.0466533 -0.54167378 4
-7.01542 2.4416542 -0.38599733 13
-6.9384837 2.416235 -0.12630247 11
-7.0827475 2.4678593 1.9980748 10
-7.0334578 2.4520619 1.7094594 7
-6.9924088 2.4391196 1.4307356 12
-6.8437161 2.388592 1.1407131 9
-7.0265188 2.4537697 0.9091453 12
-6.9530392 2.429471 0.64103049 11
-6.950666 2.4300032 0.38388422 11
-6.8265481 2.3879476 0.12557006 64
-1.8453705 0.64732432 -0.51375604 2
-2.1093078 0.74032241 -0.50726491 2
-2.5414836 0.89250529 -0.51567525 2
-3.1530881 1.1079037 -0.52327371 2
-4.1794977 1.4693738 -0.53927243 10
-5.8860192 2.0704849 -0.54254532 4
-6.8137445 2.3981612 -0.37530413 12
-6.7508211 2.3773389 -0.12301964 11
-6.8645439 2.4187336 1.9385852 11
-6.8456559 2.4134219 1.6656271 8
-6.7940726 2.3965695 1.3916548 12
-6.6630263 2.3516512 1.1118046 11
-6.807332 2.4039187 0.88172466 11
-6.7519622 2.3856912 0.62316352 11
-6.7632523 2.3910079 0.37394041 11
-6.6249352 2.34341 0.12199231 11
-1.8476515 0.65537649 -0.51505011 3
-2.1342583 0.75745755 -0.51401347 2
nan nan nan 0
-3.1305873 1.1122898 -0.520145 2
-4.1743431 1.4839541 -0.53927243 9
-5.8881412 2.0943568 -0.54341686 4
-6.626574 2.3583131 -0.3653934 13
-6.5446792 2.3304548 -0.11939126 10
-6.6831694 2.3810835 1.8894415 13
-6.6490335 2.3702295 1.619547 8
-6.6146131 2.3592606 1.3563869 15
-6.4873319 2.3151388 1.0836774 11
-6.6259713 2.3659191 0.85917884 10
-6.565351 2.3455656 0.60660398 11
-6.566793 2.3473732 0.36347321 10
-6.4472547 2.3059123 0.11885088 11
-1.8362603 0.65856117 -0.5124619 2
-2.1178448 0.75996649 -0.51063919 2
nan nan nan 0
-3.1545718 1.1332284 -0.52483809 2
-4.169138 1.4985161 -0.53927243 8
-5.8948569 2.1199543 -0.54472423 6
-6.4397664 2.3171885 -0.35548267 12
-6.3624673 2.2906287 -0.11619481 11
-6.4975996 2.3405604 1.8390046 15
-6.4757156 2.3339543 1.5790864 10
-6.4308815 2.3190637 1.3201658 14
-6.298038 2.2724006 1.0532063 9
-6.4309583 2.3216283 0.83480495 10
-6.3744187 2.302475 0.58960861 11
-6.3660278 2.3006999 0.35274434 11
-6.2652173 2.2655032 0.11562219 11
nan nan nan 0
nan nan nan 0
nan nan nan 0
-3.1459551 1.1425471 -0.5240559 2
-4.1685462 1.514755 -0.53988177 7
-5.8733768 2.1354122 -0.54341686 6
-6.2814832 2.2850308 -0.34713677 12
-6.2135 2.2615285 -0.11360311 11
-6.3305507 2.3053827 1.7937409 11
-6.2752686 2.2864914 1.5318825 8
-6.2659593 2.2843382 1.2877574 14
-6.1462417 2.241909 1.0289857 10
-6.2596459 2.2845125 0.81347781 11
-6.197906 2.2632058 0.57392061 12
-6.2031903 2.2663627 0.34410891 12
-6.1117153 2.2341509 0.11291706 11
nan nan nan 0
nan nan nan 0
-2.5516505 0.93680233 -0.52044117 2
nan nan nan 0
-4.1676245 1.5317353 -0.54049116 7
-5.8795357 2.1620824 -0.54472423 13
-6.1043673 2.2459691 -0.33774766 13
-6.0175114 2.215205 -0.11014751 10
-6.1815596 2.2768207 1.75365 12
-6.143415 2.2639887 1.501537 9
-6.110177 2.2529514 1.2572553 14
-6.0036163 2.2148507 1.0063277 7
-6.1022487 2.2524481 0.79397875 11
-6.0447216 2.2324126 0.56041139 11
-6.0730681 2.2440858 0.33730522 10
-5.8971682 2.180258 0.10907754 14
nan nan nan 0
nan nan nan 0
nan nan nan 0
-3.1145506 1.1564348 -0.520145 2
-4.1575999 1.5445455 -0.53988177 8
-5.8299332 2.1669738 -0.54080224 16
-5.9046087 2.1959038 -0.3270545 12
-5.8785501 2.1873806 -0.10772857 21
-6.0242052 2.2427752 1.7109727 13
-5.9802446 2.2275975 1.4633242 8
-5.9229045 2.2074161 1.220081 12
-5.8894196 2.1961071 0.98835754 13
-5.9130125 2.2060804 0.7702142 9
-5.8922324 2.1994991 0.5469023 13
-5.892128 2.2006321 0.32762307 13
-5.8099089 2.171087 0.10759408 22
nan nan nan 0
nan nan nan 0
-2.531261 0.94942194 -0.51758158 2
nan nan nan 0
-4.1475372 1.5573043 -0.53927243 8
-5.6731238 2.1312568 -0.52685732 4
-5.873538 2.2077174 -0.32575044 23
-5.8428035 2.1973288 -0.10721023 5
-5.8671651 2.2076595 1.6682954 10
-5.8128457 2.1883786 1.4239876 3
-5.8830104 2.2159662 1.2134087 13
-5.7708073 2.1748526 0.96960616 4
-5.8263345 2.1969407 0.75985527 12
-5.8006325 2.1884058 0.53905827 7
-5.7255821 2.1612332 0.31872594 4
-5.6573162 2.1365929 0.10488895 5
nan nan nan 0
nan nan nan 0
nan nan nan 0
-3.0971663 1.1746476 -0.51858068 2
-4.1374359 1.5700119 -0.53866315 8
-5.5399203 2.1033113 -0.51509124 4
nan nan nan 0
-5.6762118 2.1573236 -0.10427297 6
-5.7104454 2.1714756 1.6256181 10
-5.7459745 2.1861339 1.4093769 7
-5.719275 2.1771185 1.1810002 5
-5.6801071 2.1633439 0.9555425 10
-5.6934199 2.1695518 0.74340296 5
-5.6766038 2.1642787 0.52816379 3
-5.6480246 2.1545117 0.31480077 4
-5.584435 2.1313713 0.10366729 56
nan nan nan 0
nan nan nan 0
nan nan nan 0
-3.1211329 1.1949664 -0.52327371 2
-4.1324835 1.5830021 -0.53866315 7
-5.4216595 2.0779233 -0.50463253 4
-5.6116719 2.1518712 -0.31192759 6
-5.5107102 2.1142595 -0.1013357 8
-5.577342 2.1409404 1.589407 10
-5.6799521 2.1814663 1.3947661 7
nan nan nan 0
-5.5073361 2.117377 0.92741537 8
-5.5754113 2.1446664 0.72877866 9
-5.5721564 2.144531 0.51901245 10
-5.529397 2.1291823 0.30852047 3
-5.4377618 2.0949867 0.10104943 52
nan nan nan 0
nan nan nan 0
nan nan nan 0
-3.1261542 1.2094176 -0.52483809 2
-4.1223044 1.5956261 -0.53805375 8
-5.2982526 2.0518653 -0.49373806 5
-5.4504814 2.1119134 -0.30332088 6
-5.3774438 2.0846927 -0.099003166 9
-5.4437504 2.1114912 1.5531958 11
-5.4951639 2.1325364 1.3509337 9
-5.4530573 2.1172912 1.128575 11
-5.3848257 2.0918801 0.90788263 7
-5.4476252 2.1173706 0.71293563 9
-5.4532213 2.1206412 0.50855374 10
-5.4102511 2.1050184 0.30224013 3
-5.3046303 2.0649896 0.098693348 45
nan nan nan 0
nan nan nan 0
nan nan nan 0
-3.126086 1.2232116 -0.52562022 2
-4.116147 1.6114428 -0.53805375 6
-5.1697502 2.0249617 -0.48240778 9
-5.3307571 2.0891004 -0.29706144 6
-5.2251167 2.0487525 -0.09632507 8
