# .PCD v0.7 - Point Cloud Data file format
VERSION 0.7
FIELDS x y z intensity
SIZE 4 4 4 4
TYPE F F F F
COUNT 1 1 1 1
WIDTH 1400
HEIGHT 1
VIEWPOINT 0 0 0 1 0 0 0
POINTS 1400
DATA ascii
3.3369558 -2.4548261 -0.070926353 22
3.3256538 -2.4474068 1.0953847 21
3.3226173 -2.4460661 0.94295621 18
3.3190181 -2.4443099 0.79305267 17
3.3229673 -2.4481127 0.64692497 16
3.3306489 -2.454669 0.5033204 24
3.3303213 -2.4553246 0.35864586 17
3.3299196 -2.4559255 0.2148391 14
3.3335147 -2.4594755 0.071642123 17
1.5376871 -1.136583 -0.50210917 3
1.7661111 -1.3058997 -0.49826688 3
2.078768 -1.5376459 -0.49470508 2
2.5674496 -1.8998127 -0.49980852 3
3.329489 -2.4645917 -0.50393027 5
3.3371806 -2.4711869 -0.35995379 9
3.332823 -2.4688609 -0.2146458 18
3.3363993 -2.4724121 -0.071099132 21
3.3248506 -2.4647532 1.0979711 21
3.3218856 -2.4634535 0.94520408 19
3.3183501 -2.4617295 0.79495907 17
3.3223336 -2.4655836 0.64848763 16
3.3260446 -2.469238 0.50392967 24
3.3297279 -2.4728742 0.35951746 17
3.3293424 -2.4734895 0.21536244 15
3.3289218 -2.4740787 0.071729392 16
1.5375839 -1.1448278 -0.50340325 3
1.761542 -1.3120567 -0.49826688 3
2.0733879 -1.5448928 -0.49470508 2
2.5608025 -1.9087633 -0.49980852 3
3.3566723 -2.502898 -0.50941443 7
3.3365192 -2.4887769 -0.36082533 10
3.3321886 -2.4864519 -0.21516743 18
3.3357613 -2.4900246 -0.071271911 21
3.3239665 -2.4821236 1.1005577 21
3.3210728 -2.4808657 0.94745183 19
3.3176003 -2.4791739 0.7968654 17
3.3216176 -2.4830794 0.65005016 16
3.3253541 -2.4867775 0.50514841 24
3.3290527 -2.4904497 0.36038899 18
3.3286834 -2.4910796 0.21588582 14
3.328269 -2.4916759 0.071903907 16
1.5374422 -1.1530858 -0.50469732 3
1.7530545 -1.3152739 -0.49714214 3
2.0679827 -1.5521209 -0.49470508 2
2.558073 -1.9206557 -0.50059068 3
3.3677557 -2.5295017 -0.51246119 6
3.3357756 -2.5063925 -0.3616969 10
3.3314717 -2.5040684 -0.21568903 18
3.3310449 -2.5046577 -0.071358308 20
3.3230021 -2.4995179 1.1031442 24
3.320179 -2.498302 0.94969964 18
3.3206902 -2.4995944 0.79972494 17
3.3208201 -2.5006003 0.65161282 16
3.3245811 -2.5043418 0.50636709 24
3.3243175 -2.5050526 0.36082476 17
3.3239551 -2.5056894 0.2161475 14
3.3275344 -2.5092986 0.072078437 16
1.5372614 -1.1613568 -0.50599146 3
1.7523392 -1.3243225 -0.49826688 3
2.0664673 -1.56229 -0.49565825 2
2.5513532 -1.9295733 -0.50059068 3
3.3707781 -2.5502243 -0.5142892 6
3.3349502 -2.5240333 -0.36256844 9
3.3266912 -2.5186961 -0.21594985 17
3.3302522 -2.5223064 -0.07153108 21
3.3219559 -2.5169358 1.1057307 21
3.3230863 -2.5187051 0.95307136 19
3.3197677 -2.517102 0.80163133 17
3.3199408 -2.5181458 0.65317541 15
3.3237259 -2.5219309 0.50758582 23
3.323488 -2.5226645 0.36169636 17
3.3231413 -2.5233157 0.21667084 14
3.3227358 -2.5239222 0.07216569 16
1.5331981 -1.1667157 -0.50599146 3
1.7360767 -1.3215785 -0.49489263 3
2.0610013 -1.5694938 -0.49565825 3
2.5446024 -1.9384674 -0.50059068 3
3.3736978 -2.5709994 -0.51611727 6
3.3340416 -2.5416987 -0.36344001 9
3.3258202 -2.5363493 -0.21647148 18
3.3293769 -2.5399806 -0.071703866 21
3.3246682 -2.5373065 1.1096104 21
3.3220193 -2.5362024 0.95531923 21
3.3187623 -2.5346329 0.80353767 17
3.3189793 -2.5357158 0.65473807 16
3.3227885 -2.5395446 0.50880444 22
3.3225756 -2.5403006 0.36256787 19
3.3222454 -2.540967 0.21719421 14
3.3218465 -2.5415812 0.07234022 16
1.5214498 -1.1661843 -0.50340325 3
1.7469174 -1.3394883 -0.49939165 3
2.0594049 -1.579666 -0.49661148 3
2.5378203 -1.9473379 -0.50059068 3
3.3686392 -2.5857821 -0.51672655 5
3.3330503 -2.5593882 -0.36431155 9
3.3248656 -2.5540261 -0.21699309 18
3.3284183 -2.5576789 -0.071876645 22
3.3234496 -2.5547833 1.1121969 21
3.3208699 -2.5537226 0.95756698 19
3.3176754 -2.5521877 0.80544412 17
3.3179352 -2.5533094 0.65630066 17
3.325701 -2.56021 0.51063251 23
3.3215809 -2.5579615 0.36343947 17
3.3212667 -2.5586431 0.21771757 14
3.320874 -2.5592642 0.072514743 15
1.5211927 -1.1744395 -0.50469732 3
1.7422311 -1.345578 -0.49939165 3
2.049994 -1.5838439 -0.49565825 3
2.5310073 -1.9561846 -0.50059068 3
3.3595924 -2.5975249 -0.51672655 5
3.3319759 -2.5771019 -0.36518314 9
3.3238287 -2.5717278 -0.21751472 17
3.3273768 -2.5754018 -0.072049424 20
3.3221493 -2.5722828 1.1147834 22
3.3196394 -2.5712662 0.95981485 19
3.3126264 -2.5667593 0.80639732 17
3.3168089 -2.5709269 0.65786332 16
3.3245876 -2.5778852 0.51185119 24
3.3244388 -2.5786991 0.36474678 16
3.3202047 -2.5763428 0.21824093 14
3.3198185 -2.5769718 0.072689272 15
nan nan nan 0
nan nan nan 0
2.0599473 -1.6030478 -0.49947101 2
2.5280604 -1.9680413 -0.50137287 3
3.3544207 -2.6122856 -0.51733595 5
3.3308184 -2.5948391 -0.36605468 10
3.3266468 -2.5925224 -0.21829714 18
3.3262522 -2.593148 -0.072222203 22
3.3207674 -2.5898039 1.1173699 19
3.3183262 -2.5888317 0.9620626 17
3.3113849 -2.5843465 0.80830365 17
3.3155999 -2.588567 0.65942591 16
3.3233914 -2.5955839 0.51306993 24
3.3232672 -2.5964208 0.36561832 18
3.3190594 -2.5940664 0.21876429 14
3.3186796 -2.594703 0.072863787 15
1.5167588 -1.1880089 -0.50599146 4
1.7136203 -1.3426843 -0.49376786 2
2.0620651 -1.6162846 -0.5013774 3
2.5211754 -1.976854 -0.50137287 3
3.3452816 -2.6239789 -0.51733595 5
3.3295782 -2.6125998 -0.36692625 9
3.3254321 -2.6102843 -0.21881874 17
3.3250444 -2.6109183 -0.072394989 19
3.3193035 -2.607347 1.1199565 20
3.316931 -2.6064196 0.96431047 17
3.3100619 -2.6019564 0.81021005 17
3.3143084 -2.6062305 0.66098857 17
3.3221116 -2.6133053 0.5142886 23
3.3220127 -2.614166 0.36648989 17
3.3178308 -2.6118131 0.21928765 13
3.3174574 -2.6124573 0.073038317 17
nan nan nan 0
nan nan nan 0
2.0525582 -1.6204311 -0.50042421 2
2.5142596 -1.9856423 -0.50137287 4
3.336102 -2.6356399 -0.51733595 5
3.3282535 -2.6303833 -0.36779779 9
3.3241343 -2.6280704 -0.21934037 16
3.3237517 -2.6287107 -0.072567761 20
3.3177571 -2.6249108 1.1225429 19
3.3154533 -2.6240294 0.96655822 19
3.3125036 -2.6226349 0.81306958 17
3.312933 -2.6239159 0.66255116 16
3.320749 -2.6310496 0.51550734 21
3.3206742 -2.6319337 0.36736143 17
3.316519 -2.6295831 0.21981101 14
3.3161514 -2.6302345 0.07321284 16
1.5197718 -1.2075824 -0.50987375 3
1.723274 -1.3697721 -0.49939165 3
nan nan nan 0
2.507313 -1.9944067 -0.50137287 4
3.330765 -2.6503594 -0.51794529 5
3.3268459 -2.6481891 -0.36866936 9
3.3227522 -2.6458781 -0.21986198 17
3.3223765 -2.6465266 -0.072740547 21
3.3161292 -2.6424961 1.1251295 20
3.317703 -2.6446972 0.96992999 17
3.3110039 -2.6403024 0.81497604 17
3.3153362 -2.6447039 0.66489512 16
3.3193028 -2.6488161 0.51672596 24
3.3192523 -2.6497242 0.36823303 17
3.3151233 -2.6473756 0.22033437 14
3.3186679 -2.651155 0.073474631 15
1.4740689 -1.1796851 -0.4956387 3
1.7146788 -1.3727343 -0.49826688 2
2.0335333 -1.6285849 -0.49851784 3
2.5041902 -2.0062346 -0.50215507 3
3.3214931 -2.6619697 -0.51794529 5
3.3253536 -2.6660171 -0.3695409 9
3.3212869 -2.6637089 -0.2203836 18
3.3209167 -2.6643646 -0.072913326 22
3.3144186 -2.6601019 1.1277159 20
3.3160491 -2.6623623 0.97217774 18
3.3094208 -2.6579909 0.81688237 17
3.3137836 -2.6624467 0.66645771 16
3.3177731 -2.6666048 0.51794469 23
3.3177471 -2.667537 0.36910459 17
3.3175344 -2.6683195 0.2211194 14
3.3171833 -2.6689909 0.073649146 16
nan nan nan 0
1.7060841 -1.3756533 -0.49714214 2
2.0087342 -1.6202655 -0.49375188 3
2.4971719 -2.0149636 -0.50215507 3
3.3160424 -2.6766644 -0.51855469 5
3.3237782 -2.683867 -0.37041247 9
3.319737 -2.6815612 -0.22090523 16
3.3193731 -2.6822248 -0.073086105 19
3.316381 -2.6807637 1.1315957 20
3.3143122 -2.6800482 0.97442561 18
3.3077548 -2.6757007 0.81878877 17
3.3121483 -2.6802108 0.66802037 16
3.3161588 -2.6844141 0.51916337 23
3.3161569 -2.6853709 0.36997613 17
3.3159597 -2.6861694 0.22164278 14
3.3156152 -2.6868489 0.073823676 15
1.496006 -1.2140379 -0.50599146 3
1.7055368 -1.3840762 -0.49826688 2
2.0341196 -1.6513163 -0.5013774 3
2.4869957 -2.0196855 -0.50137287 3
3.3191726 -2.6964564 -0.5203827 5
3.319196 -2.6974373 -0.37084827 9
3.3190451 -2.6982768 -0.22142684 19
3.3186874 -2.6989481 -0.073258884 19
3.3154359 -2.6972654 1.1341822 21
3.3134339 -2.6965978 0.97667336 19
3.3069451 -2.6922765 0.8206951 17
3.3113704 -2.6968405 0.66958296 16
3.3154047 -2.7010884 0.52038211 25
3.3154266 -2.7020693 0.3708477 16
3.3152442 -2.7028837 0.22216612 14
3.3187797 -2.7067308 0.074085459 14
1.506932 -1.2312151 -0.51116782 3
1.6969231 -1.3869382 -0.49714214 3
2.0359428 -1.6646204 -0.50328374 3
2.4837532 -2.031481 -0.50215507 3
3.3212626 -2.7174537 -0.52221072 5
3.3174689 -2.7153168 -0.37171981 9
3.3173332 -2.7161725 -0.22194847 18
3.3208487 -2.7200196 -0.07351806 20
3.3134725 -2.7149441 1.1367687 20
3.311537 -2.7143245 0.97892123 18
3.3051183 -2.7100279 0.8226015 17
3.3095732 -2.7146466 0.67114562 16
3.3136287 -2.7189407 0.52160072 19
3.3136742 -2.7199461 0.37171924 17
3.3135076 -2.7207773 0.22268949 14
3.3209004 -2.7278183 0.074347243 16
1.4837654 -1.2213829 -0.50469732 2
nan nan nan 0
nan nan nan 0
2.4724796 -2.03743 -0.50137287 2
3.3304274 -2.7453923 -0.52525747 4
3.3151803 -2.7337954 -0.37259138 10
3.3189106 -2.7378452 -0.22273089 17
3.3185687 -2.7385364 -0.073690839 18
3.3109488 -2.7332199 1.1393552 19
3.3090794 -2.7326479 0.98116899 19
3.3065157 -2.7315016 0.82546109 16
3.311022 -2.7361968 0.67348951 16
3.3112907 -2.7373917 0.52281946 22
3.3151984 -2.741596 0.37302655 16
3.3112073 -2.739269 0.22321284 13
3.3185835 -2.7463465 0.074521773 14
nan nan nan 0
nan nan nan 0
nan nan nan 0
2.4539518 -2.0365865 -0.49902633 3
3.3170056 -2.7538307 -0.52464807 4
3.3171124 -2.7548978 -0.37389871 10
3.3170147 -2.7557952 -0.22325249 18
3.316679 -2.7564948 -0.073863626 21
3.3088157 -2.7509363 1.1419418 20
3.3107584 -2.7535284 0.98454076 18
3.3045068 -2.749305 0.82736742 15
3.3090422 -2.754056 0.67505211 17
3.3131573 -2.7584596 0.52464747 23
3.3132629 -2.7595272 0.37389815 18
3.3054614 -2.7540064 0.22347453 13
3.3166568 -2.7643151 0.074696295 14
nan nan nan 0
1.708235 -1.426787 -0.50501537 2
nan nan nan 0
2.4392498 -2.038806 -0.49746197 3
3.3035653 -2.7622092 -0.52403873 4
3.3189375 -2.776047 -0.37520605 10
3.3150339 -2.7737653 -0.22377412 18
3.3147039 -2.774473 -0.074036397 19
3.3065989 -2.7686706 1.1445282 20
3.3085961 -2.7713253 0.98678851 20
3.3061767 -2.7702804 0.83022702 17
3.3107634 -2.7751076 0.67739606 14
3.3111136 -2.7763851 0.52586621 19
3.3150587 -2.7806785 0.37520546 17
3.303478 -2.7719469 0.22399788 15
3.314646 -2.782304 0.074870817 15
nan nan nan 0
1.6995161 -1.4296052 -0.50389069 2
nan nan nan 0
2.4132278 -2.0314066 -0.49355114 3
3.2939034 -2.7737238 -0.52403873 4
3.3168466 -2.7940338 -0.37607762 10
3.3129683 -2.7917552 -0.22429574 17
3.3164659 -2.7956924 -0.074295565 20
3.3079917 -2.789537 1.1484081 20
3.3100743 -2.7922819 0.99016023 18
3.3039887 -2.7881353 0.83213335 16
3.3086035 -2.7930186 0.67895865 15
3.312777 -2.7975318 0.52769423 23
3.3129423 -2.7986622 0.37607706 15
3.3052235 -2.7931304 0.22478293 13
3.3125491 -2.800312 0.07504534 14
nan nan nan 0
1.6833636 -1.4260814 -0.50051636 3
1.9875619 -1.6843827 -0.49851784 3
2.4211898 -2.0525918 -0.49667984 3
3.2804163 -2.7819953 -0.52342945 4
3.3184679 -2.8152614 -0.37738496 10
3.310817 -2.8097644 -0.22481737 19
3.3143091 -2.8137233 -0.074468352 20
3.3055968 -2.8073196 1.1509944 21
3.3077333 -2.8101282 0.9924081 19
3.3017163 -2.8060086 0.83403975 17
3.3101223 -2.8141475 0.68130267 16
3.3105526 -2.8155088 0.5289129 22
3.3145342 -2.8198924 0.37738436 17
3.3030581 -2.8111227 0.22530627 15
3.3103671 -2.8183396 0.07521987 15
nan nan nan 0
1.6598444 -1.4161386 -0.49489263 3
1.9854034 -1.6944964 -0.49947101 3
2.4290333 -2.0738573 -0.49980852 3
3.2744586 -2.7966518 -0.52403873 4
3.3161943 -2.8332987 -0.37825647 9
3.3085799 -2.8277924 -0.22533897 16
3.3158662 -2.8350213 -0.07472752 22
3.3067884 -2.8282592 1.1548742 19
3.3053076 -2.8279915 0.99465585 19
3.2993593 -2.8239 0.83594608 17
3.3077812 -2.8321083 0.6828652 15
3.3082426 -2.8335042 0.53013164 20
3.3122356 -2.8379266 0.3782559 15
3.3045988 -2.8323836 0.22609131 13
3.3080993 -2.8363857 0.075394385 15
nan nan nan 0
1.6622813 -1.4282738 -0.49714214 3
1.9757544 -1.6982173 -0.49851784 3
2.4255238 -2.0855432 -0.50059068 4
3.2646768 -2.8080649 -0.52403873 5
3.3138356 -2.8513546 -0.37912807 11
3.3062582 -2.8458393 -0.2258606 17
3.3135271 -2.8531027 -0.074900307 20
3.3042152 -2.8460891 1.1574607 21
3.306489 -2.8490529 0.99802762 17
3.3006356 -2.8450134 0.83880574 16
3.3090956 -2.8533125 0.68520916 15
3.3096056 -2.8547595 0.53195965 20
3.3098516 -2.8559792 0.37912747 15
3.3022516 -2.8504267 0.22661468 13
3.3057463 -2.8544507 0.075568914 13
1.4352179 -1.2414719 -0.49822688 3
1.6609695 -1.4372554 -0.49826688 2
1.9623923 -1.6986789 -0.49661148 2
2.4219625 -2.09723 -0.50137287 3
3.2548549 -2.8194437 -0.52403873 4
3.3113916 -2.8694289 -0.37999964 10
3.3038499 -2.8639038 -0.2263822 17
3.3111017 -2.871202 -0.075073078 20
3.3015571 -2.8639352 1.1600473 20
3.3038833 -2.8669639 1.0002754 19
3.2980974 -2.8629522 0.84071207 16
3.3103023 -2.8745604 0.68755311 15
3.3071136 -2.8728037 0.53317839 22
3.3073819 -2.8740499 0.37999907 17
3.299818 -2.8684878 0.22713803 14
3.3033071 -2.8725333 0.075743437 15
1.4418005 -1.2559911 -0.50210917 3
1.6596155 -1.4462453 -0.49939165 3
1.9638505 -1.711969 -0.49851784 3
2.4220712 -2.1121631 -0.5029372 3
3.2449934 -2.8307879 -0.52403873 4
3.3088608 -2.8875203 -0.38087118 9
3.3051176 -2.8852701 -0.22716464 16
3.3123558 -2.8926075 -0.075332254 20
3.3024521 -2.8849752 1.1639271 20
3.3048615 -2.8880968 1.0036471 18
3.2954745 -2.8809085 0.84261847 16
3.307683 -2.8925996 0.6891157 15
3.3045354 -2.8908651 0.53439701 20
3.308574 -2.8954177 0.38130638 17
3.2972994 -2.8865671 0.2276614 13
3.300782 -2.8906338 0.075917967 15
1.4265158 -1.2514613 -0.49822688 3
1.6545571 -1.4520296 -0.49939165 3
1.9578626 -1.7188138 -0.49851784 2
2.4183941 -2.1238635 -0.50371939 3
3.2350924 -2.8420978 -0.52403873 4
3.3099854 -2.9089167 -0.38217852 9
3.3025262 -2.903383 -0.22768626 17
3.3097463 -2.9107549 -0.075505033 19
3.299614 -2.9028656 1.1665134 18
3.3020747 -2.9060528 1.0058949 17
3.2964504 -2.9021244 0.845478 16
3.3086843 -2.9139199 0.6914596 16
3.3055961 -2.9122248 0.53622508 21
3.3059208 -2.9135358 0.38217792 17
3.298439 -2.9079652 0.22844644 13
3.3019197 -2.9120581 0.07617975 15
1.425758 -1.2596307 -0.49952096 3
1.6494784 -1.4577963 -0.49939165 3
1.955528 -1.7288885 -0.49947101 2
2.414665 -2.1355639 -0.50450158 2
3.2251518 -2.8533731 -0.52403873 4
3.3072712 -2.9270554 -0.38305008 9
3.2998483 -2.9215133 -0.22820789 15
3.3107932 -2.932234 -0.075764202 18
3.3003068 -2.9239748 1.1703933 20
3.2992029 -2.9240248 1.0081428 19
3.2936454 -2.9201257 0.84738433 16
3.3058825 -2.9320056 0.69302225 15
3.3028345 -2.9303324 0.53744376 21
3.3069067 -2.9349771 0.38348529 17
3.2957363 -2.9260914 0.2289698 13
3.2992105 -2.9302061 0.076354273 15
1.4249607 -1.2678102 -0.50081509 3
1.6480187 -1.466784 -0.50051636 3
1.9494811 -1.7357039 -0.49947101 2
2.4071958 -2.1439795 -0.50450158 2
3.2151721 -2.8646135 -0.52403873 4
3.3081892 -2.9485247 -0.38435742 9
3.2970843 -2.9396598 -0.22872949 6
3.3079996 -2.9504282 -0.075936988 19
3.2972877 -2.9419079 1.1729797 19
3.2998805 -2.9452558 1.0115144 18
3.2944162 -2.941412 0.85024399 16
3.3029943 -2.9501071 0.69458485 15
3.303688 -2.9517634 0.53927177 22
3.304069 -2.953141 0.38435683 16
3.296669 -2.9475622 0.22975484 13
3.3001406 -2.9517028 0.076616056 15
1.4241235 -1.2759994 -0.50210917 2
1.6428888 -1.4725277 -0.50051636 3
1.9434105 -1.7424983 -0.49947101 2
2.4033737 -2.1556666 -0.50528377 3
3.2051532 -2.8758192 -0.52403873 4
3.3089969 -2.9700356 -0.38566473 9
3.2979491 -2.9611588 -0.22951193 16
3.3088381 -2.9719796 -0.076196156 18
3.2977765 -2.9630837 1.1768595 20
3.2968264 -2.9632704 1.0137622 18
3.2914281 -2.9594569 0.85215032 16
3.3036919 -2.9715266 0.69692886 17
3.3007429 -2.9699166 0.54049051 22
3.3048468 -2.974653 0.38566414 17
3.2937813 -2.9657342 0.23027821 13
3.2972465 -2.9698961 0.076790586 15
1.4232466 -1.2841982 -0.50340325 3
1.6413554 -1.481518 -0.50164115 3
1.9373163 -1.7492715 -0.49947101 2
2.3958342 -2.1640429 -0.50528377 3
3.1914129 -2.8836629 -0.52342945 4
3.306 -2.9882481 -0.38653633 9
3.2987032 -2.9826994 -0.23029435 10
3.3058593 -2.9902186 -0.076368935 18
3.2945759 -2.9810584 1.1794461 21
3.2972991 -2.9845691 1.017134 18
3.2919934 -2.9808121 0.85500997 16
3.3006196 -2.9896715 0.69849139 15
3.3013883 -2.9914167 0.54231852 22
3.3018246 -2.9928617 0.38653573 16
3.2945058 -2.9872754 0.23106325 13
3.2979679 -2.9914637 0.07705237 15
1.4187552 -1.2891583 -0.50340325 3
1.6361738 -1.4872383 -0.50164115 3
1.9311982 -1.7560234 -0.49947101 2
2.3919189 -2.1757157 -0.50606591 2
3.184998 -2.8981252 -0.52403873 4
3.3065991 -3.0098288 -0.38784364 9
3.2956557 -3.0009193 -0.23081596 10
3.3027925 -3.0084727 -0.076541714 21
3.2948601 -3.0022993 1.1833258 20
3.297663 -3.0059068 1.0205057 17
3.2924488 -3.0022066 0.85786951 16
3.3011098 -3.0111592 0.70083541 16
3.2982583 -3.0096128 0.54353726 22
3.3023937 -3.0144429 0.38784304 17
3.2914324 -3.0054908 0.23158659 13
3.2948878 -3.0097008 0.077226892 14
1.4142464 -1.2941029 -0.50340325 3
1.6345658 -1.4962299 -0.50276589 3
1.9250569 -1.7627537 -0.49947101 2
2.3843098 -2.184052 -0.50606591 2
3.1785214 -2.9125783 -0.52464807 4
3.3034167 -3.0280843 -0.38871521 9
3.296201 -3.0225291 -0.23159841 10
3.2996392 -3.0267422 -0.076714501 18
3.2950358 -3.0235784 1.1872054 20
3.2943282 -3.0239885 1.0227535 18
3.2927947 -3.0236402 0.86072904 16
3.2978525 -3.0293455 0.702398 15
3.2986951 -3.0311811 0.54536527 21
3.2991855 -3.0326941 0.38871461 16
3.2919478 -3.027101 0.23237164 13
3.2954001 -3.0313373 0.077488683 14
1.4063951 -1.2955135 -0.50210917 3
1.6298573 -1.5013577 -0.50276589 3
1.9195095 -1.7687927 -0.49947101 2
2.3810678 -2.1948788 -0.5068481 2
3.1730042 -2.9259136 -0.52525747 4
3.308532 -3.0519564 -0.39045835 12
3.294028 -3.0396416 -0.23212001 10
3.3011346 -3.0472662 -0.076973669 17
3.2961664 -3.0437455 1.1910853 19
3.2955484 -3.044241 1.0261252 18
3.2904892 -3.040632 0.86263543 16
3.2991989 -3.0497479 0.7047419 16
3.2964437 -3.0482683 0.54658401 20
3.3006108 -3.0531905 0.39002195 16
3.293416 -3.0476019 0.23315668 13
3.2931979 -3.0484672 0.077663206 15
1.4020914 -1.3001701 -0.50210917 3
1.6246066 -1.5070378 -0.50276589 3
1.9097259 -1.7721438 -0.49851784 2
2.3733919 -2.203177 -0.5068481 3
3.1700442 -2.9437253 -0.52647614 3
3.294209 -3.0600967 -0.39002255 13
3.2907135 -3.0579195 -0.23264164 10
3.2978003 -3.065578 -0.077146441 18
3.2925951 -3.0618105 1.1936718 19
3.2956038 -3.065681 1.0294969 18
3.2906351 -3.0621305 0.86549497 15
3.295763 -3.067976 0.70630455 15
3.2966788 -3.0699027 0.54841202 21
3.3008673 -3.0748785 0.39132926 16
3.2900634 -3.0658872 0.23368002 13
3.2935069 -3.0701704 0.077924989 14
1.3973165 -1.3053004 -0.50210917 3
1.6190721 -1.5129822 -0.50276589 3
1.9032179 -1.7791315 -0.49851784 2
2.3689075 -2.215234 -0.50763023 2
3.1592336 -2.9553242 -0.52647614 3
3.2684231 -3.0585361 -0.38827944 9
3.2904191 -3.0801969 -0.23342405 10
3.2974899 -3.0878961 -0.077405617 17
3.2919259 -3.0837643 1.1975516 20
3.2950103 -3.0877337 1.0328686 18
3.2901323 -3.0842409 0.8683545 16
3.2953031 -3.090169 0.70864844 15
3.2926433 -3.0887551 0.5496307 19
3.3004718 -3.0971818 0.39263663 16
3.289726 -3.0881779 0.23446508 12
3.2895207 -3.0890656 0.078099512 14
1.3927516 -1.3101699 -0.50210917 3
1.6137811 -1.5186244 -0.50276589 3
1.8934219 -1.7823997 -0.49756464 2
2.3611605 -2.2234895 -0.50763023 2
3.1488984 -2.9663341 -0.52647614 3
3.243227 -3.0562625 -0.38653633 6
3.2869139 -3.0985141 -0.23394568 10
3.2976024 -3.1096771 -0.077664785 16
3.2916813 -3.1051788 1.2014314 18
3.2948425 -3.1092484 1.0362405 17
3.286485 -3.1024458 0.87026095 15
3.2952683 -3.1118252 0.7109924 15
3.2926645 -3.1104538 0.55145878 20
3.2968805 -3.1155257 0.39350817 15
3.2898116 -3.1099327 0.23525012 13
3.2896147 -3.1108339 0.078361295 14
1.3846636 -1.3117021 -0.50081509 3
1.6084702 -1.5242484 -0.50276589 3
1.8871886 -1.7889981 -0.49756464 2
2.3533847 -2.2317178 -0.50763023 2
3.1385248 -2.9773078 -0.52647614 3
3.218087 -3.0538502 -0.38479319 6
3.2869418 -3.1202817 -0.23472811 10
3.293978 -3.1280544 -0.077837572 17
3.2878253 -3.1233032 1.2040178 18
3.2945642 -3.1307988 1.0396121 17
3.2863076 -3.1240442 0.87312049 16
3.2951221 -3.1335187 0.71333635 15
3.2889781 -3.1287694 0.55267745 21
3.2968099 -3.1373158 0.3948155 16
3.2897851 -3.1317253 0.23603514 12
3.289597 -3.1326408 0.078623094 14
1.3835711 -1.3198612 -0.50210917 3
1.6066644 -1.5332174 -0.50389069 3
1.8844829 -1.798964 -0.49851784 2
2.3455801 -2.2399192 -0.50763023 2
3.1281128 -2.988245 -0.52647614 3
3.1930027 -3.0512996 -0.38305008 6
3.2832487 -3.1386368 -0.23524971 9
3.2938778 -3.1498983 -0.07809674 17
3.2873733 -3.1447771 1.2078977 19
3.2906554 -3.1490166 1.0418599 17
3.2824733 -3.1422846 0.87502682 16
3.2912977 -3.1518333 0.71489894 15
3.2887878 -3.1505299 0.55450547 20
3.2966278 -3.1591442 0.39612287 16
3.2896471 -3.1535561 0.23682021 13
3.2894666 -3.154485 0.078884877 14
1.3789555 -1.3246826 -0.50210917 3
1.6013029 -1.5388163 -0.50389069 3
1.8817301 -1.8089325 -0.49947101 2
2.3377471 -2.2480931 -0.50763023 2
3.1212394 -3.0025868 -0.52708548 3
3.1679764 -3.0486116 -0.38130698 6
3.2830646 -3.1604674 -0.23603216 10
3.2900643 -3.1683123 -0.078269519 18
3.2868114 -3.1662853 1.2117773 19
3.290168 -3.1706264 1.0452316 17
3.2820861 -3.1639431 0.87788641 15
3.2909403 -3.1735868 0.71724284 15
3.2884855 -3.1723275 0.55633354 18
3.2927485 -3.1775496 0.39699441 15
3.2893958 -3.1754231 0.23760523 13
3.2892239 -3.1763666 0.079146661 14
1.374323 -1.329488 -0.50210917 3
1.5959215 -1.5443965 -0.50389069 3
1.8789309 -1.8189039 -0.50042421 2
2.3263383 -2.2528043 -0.5068481 2
3.1107395 -3.0134635 -0.52708548 5
3.1430073 -3.0457859 -0.37956384 5
3.2827678 -3.1823344 -0.23681457 9
3.2897518 -3.1902187 -0.078528695 8
3.2861385 -3.1878278 1.2156571 19
3.2895694 -3.1922705 1.0486033 17
3.2815871 -3.185637 0.88074601 16
3.2904716 -3.1953769 0.71958685 15
3.2845111 -3.1907029 0.55755222 19
3.2923527 -3.1994379 0.39830172 16
3.2890322 -3.1973271 0.23839027 13
3.2888682 -3.1982844 0.079408444 14
1.369674 -1.3342772 -0.50210917 3
1.5870316 -1.5465575 -0.50276589 3
1.8725702 -1.8254515 -0.50042421 2
2.3184602 -2.260911 -0.5068481 2
3.1037543 -3.0277693 -0.52769482 4
3.1180971 -3.0428236 -0.37782073 6
3.2787855 -3.2007499 -0.23733619 10
3.2893262 -3.2121613 -0.078787863 5
3.2853558 -3.2094042 1.2195368 18
3.2888598 -3.2139494 1.051975 16
3.2809768 -3.2073655 0.88360554 15
3.2863591 -3.2137492 0.72114944 15
3.2839961 -3.2125599 0.55938023 20
3.2918451 -3.2213626 0.39960909 15
3.2849879 -3.215775 0.23891364 13
3.2883999 -3.2202389 0.079670236 13
1.365008 -1.3390502 -0.50210917 3
1.5781463 -1.5486758 -0.50164115 3
1.8696896 -1.8354154 -0.5013774 2
2.310554 -2.2689903 -0.5068481 2
3.0967066 -3.0420628 -0.52830422 4
3.0932462 -3.0397243 -0.37607762 5
3.278275 -3.2226768 -0.23811863 9
3.2887869 -3.234139 -0.079047032 16
3.2844622 -3.2310143 1.2234167 17
3.2880387 -3.2356617 1.0553467 17
3.2802551 -3.2291291 0.88646513 15
3.2856777 -3.2355969 0.7234934 14
3.2833686 -3.234452 0.56120831 19
3.2912235 -3.2433221 0.40091643 15
3.2844105 -3.2377379 0.23969868 12
3.2842581 -3.2387183 0.07984475 14
1.3603256 -1.3438067 -0.50210917 3
1.5692654 -1.5507505 -0.50051636 3
1.8632714 -1.8419306 -0.5013774 2
2.3061309 -2.280514 -0.50763023 2
3.089597 -3.0563438 -0.5289135 4
3.0684547 -3.0364888 -0.37433451 5
3.2741029 -3.2411258 -0.23864023 10
3.2881339 -3.2561524 -0.0793062 10
3.283458 -3.2526567 1.2272964 17
3.2871063 -3.2574079 1.0587184 17
3.2794206 -3.2509263 0.88932467 15
3.2848833 -3.2574782 0.72583729 15
3.2826281 -3.2563784 0.56303632 21
3.2869537 -3.2618079 0.401788 15
3.2801754 -3.256218 0.24022202 13
3.2835746 -3.2607305 0.080106534 13
1.3556266 -1.348547 -0.50210917 3
1.556936 -1.5493459 -0.49826688 2
1.8568305 -1.8484235 -0.5013774 2
2.2981565 -2.2885501 -0.50763023 2
3.0824256 -3.0706124 -0.5295229 4
3.0507801 -3.0401492 -0.37346292 5
3.2733784 -3.2631106 -0.23942265 10
3.2873681 -3.2782009 -0.079565376 11
3.2823417 -3.2743311 1.2311761 17
3.2860618 -3.2791862 1.0620902 17
3.2784739 -3.2727566 0.89218426 15
3.2839763 -3.2793939 0.72818124 15
3.2817738 -3.2783391 0.56486434 20
3.2861176 -3.283824 0.4030953 15
3.2793834 -3.2782385 0.24100707 12
3.2827775 -3.2827775 0.080368333 13
1.354323 -1.3566889 -0.50340325 3
1.5515183 -1.5547712 -0.49826688 2
1.850367 -1.8548937 -0.5013774 2
2.2936413 -2.300055 -0.50841242 2
3.0646811 -3.0743241 -0.52830422 4
3.0401492 -3.0507798 -0.37346292 5
3.2725399 -3.2851295 -0.24020509 9
3.2864878 -3.3002827 -0.079824544 11
3.2811151 -3.2960379 1.2350559 18
3.2849052 -3.3009973 1.0654619 17
3.2774143 -3.2946198 0.89504379 15
3.2864385 -3.3048446 0.73130643 14
3.280807 -3.3003337 0.56669247 19
3.2851677 -3.3058741 0.40440264 15
3.278477 -3.300293 0.24179211 12
3.2818666 -3.3048582 0.080630116 13
1.3495791 -1.361408 -0.50340325 3
1.5495112 -1.5636382 -0.49939165 3
1.8438808 -1.8613412 -0.5013774 2
2.2890732 -2.3115563 -0.50919461 2
3.0504396 -3.081476 -0.52769482 4
3.0259778 -3.057833 -0.37302715 10
3.2715874 -3.3071821 -0.24098752 10
3.2854931 -3.3223987 -0.080083713 11
3.2797759 -3.3177755 1.2389357 18
3.2836363 -3.3228402 1.0688336 17
3.2727928 -3.3130238 0.89695019 15
3.2852924 -3.326838 0.73365039 14
3.279726 -3.3223608 0.56852049 20
3.2841041 -3.3279574 0.40570998 16
3.277456 -3.3223803 0.24257714 13
3.2808411 -3.3269732 0.0808919 13
1.3482068 -1.3695525 -0.50469732 3
1.5474607 -1.5725098 -0.50051636 3
1.8373723 -1.8677664 -0.5013774 2
2.2809906 -2.3195326 -0.50919461 2
3.0361855 -3.0885661 -0.52708548 5
3.0152855 -3.068377 -0.37302715 9
3.2740197 -3.33283 -0.24203075 11
3.2843845 -3.3445482 -0.080342889 11
3.2783253 -3.3395438 1.2428154 17
3.2822545 -3.3447139 1.0722053 17
3.2715197 -3.334939 0.89980972 15
3.2840333 -3.3488638 0.73599434 14
3.2785311 -3.3444207 0.5703485 18
3.2864122 -3.3536308 0.40745309 16
3.2763216 -3.3445015 0.2433622 12
3.2797012 -3.3491206 0.081153691 13
1.343418 -1.3742502 -0.50469732 3
1.5453672 -1.5813863 -0.50164115 2
1.8308414 -1.8741685 -0.5013774 2
2.2728801 -2.3274806 -0.50919461 2
3.021919 -3.0955944 -0.52647614 5
2.9975994 -3.071754 -0.37215561 11
3.2728257 -3.3549604 -0.24281317 14
3.2831604 -3.3667297 -0.080602057 11
3.2767627 -3.3613424 1.246695 17
3.28076 -3.3666186 1.075577 16
3.2701335 -3.3568859 0.90266925 15
3.2826595 -3.3709209 0.73833829 13
3.2772217 -3.3665123 0.57217652 20
3.2851076 -3.3757915 0.40876046 16
3.2750723 -3.3666546 0.24414723 13
3.2784464 -3.3713005 0.081415474 13
1.3386128 -1.3789312 -0.50469732 3
1.5398377 -1.5867711 -0.50164115 2
1.8242881 -1.880548 -0.5013774 2
2.2681797 -2.3389456 -0.5099768 2
3.0076408 -3.102561 -0.52586681 7
2.97646 -3.0714684 -0.37084827 10
3.2541471 -3.3591919 -0.24229157 12
3.2783439 -3.3853521 -0.080774829 11
3.2750876 -3.3831706 1.2505749 19
3.2791524 -3.3885534 1.0789487 17
3.2686341 -3.3788638 0.9055289 15
3.2811723 -3.3930097 0.74068218 14
3.2757986 -3.3886361 0.57400459 20
3.2836876 -3.3979833 0.41006777 16
3.2737079 -3.3888397 0.24493226 12
3.2770767 -3.393512 0.081677258 13
1.3337913 -1.3835955 -0.50469732 3
1.5342895 -1.5921365 -0.50164115 2
1.8177128 -1.8869046 -0.5013774 2
2.2600017 -2.3468487 -0.5099768 2
2.993351 -3.1094656 -0.52525747 8
2.9519048 -3.0674827 -0.36910516 10
3.2250926 -3.3525381 -0.24098752 8
3.2769027 -3.4075854 -0.081034005 11
3.2732997 -3.4050281 1.2544546 18
3.277432 -3.4105179 1.0823205 16
3.2704213 -3.4044116 0.90934163 15
3.2795706 -3.4151285 0.74302614 14
3.27426 -3.4107902 0.57583261 18
3.2821527 -3.4202063 0.41137511 15
3.2722285 -3.411056 0.24571729 12
3.2755919 -3.4157555 0.081939042 12
1.3291957 -1.3880109 -0.50469732 3
1.5292801 -1.5969487 -0.50164115 2
1.8117759 -1.8926057 -0.5013774 2
2.256032 -2.3575051 -0.51075894 2
2.9801369 -3.1152678 -0.52464807 9
2.9319258 -3.0659416 -0.36779779 11
3.2041936 -3.3518257 -0.24020509 6
3.2765429 -3.4287062 -0.081293173 11
3.2725949 -3.4257717 1.2583344 17
3.2767956 -3.4313679 1.0856922 16
3.2698772 -3.4253199 0.91220117 15
3.2790539 -3.4361334 0.74537009 14
3.277231 -3.4354234 0.57827002 20
3.2817042 -3.4413147 0.41268241 15
3.271832 -3.4321618 0.24650235 12
3.2751915 -3.4368865 0.082200833 13
1.3245856 -1.392411 -0.50469732 3
1.5236963 -1.6022772 -0.50164115 2
1.8051584 -1.8989185 -0.5013774 2
2.2477889 -2.3653657 -0.51075894 2
2.9589903 -3.1148572 -0.52282006 10
2.9109163 -3.0653219 -0.36649045 8
3.1787231 -3.3485045 -0.23916186 7
3.2748785 -3.4510014 -0.081552342 10
3.2705891 -3.4476869 1.2622142 17
3.2748554 -3.4533908 1.0890639 17
3.2680311 -3.4473991 0.9150607 15
3.2772307 -3.4583125 0.74771398 14
3.2754579 -3.4576504 0.58009803 19
3.2799466 -3.4635992 0.41398978 14
3.2701297 -3.4544401 0.24728738 12
3.2734828 -3.4591913 0.082462616 14
1.3161573 -1.3937452 -0.50340325 3
1.5178136 -1.607851 -0.50164115 2
1.7981864 -1.905522 -0.5013774 2
2.2391043 -2.3735883 -0.51075894 2
2.9407444 -3.1184604 -0.52160138 10
2.8894117 -3.0650969 -0.36518314 8
3.1561556 -3.349231 -0.23837942 5
3.2724915 -3.4738979 -0.08181151 10
3.267864 -3.4701991 1.266094 18
3.2755339 -3.4795604 1.0935595 16
3.2688286 -3.4736519 0.91887349 15
3.2746844 -3.481092 0.75005788 15
3.2729626 -3.4804785 0.58192611 20
3.2774644 -3.486485 0.41529712 14
3.2677042 -3.4773183 0.24807242 12
3.2710507 -3.4820969 0.0827244 6
1.3079807 -1.3948079 -0.50210917 2
1.5121919 -1.6131394 -0.50164115 2
1.7915239 -1.9117872 -0.5013774 2
2.2308052 -2.3813899 -0.51075894 2
2.9196644 -3.1178393 -0.5197733 10
2.8718867 -3.0678914 -0.36431155 8
3.1307986 -3.345644 -0.23733619 6
3.2705913 -3.4962528 -0.082070686 10
3.2689266 -3.4956961 1.2712669 18
3.2733495 -3.5016508 1.0969312 17
3.2667372 -3.4958 0.92173308 15
3.2759984 -3.5069373 0.75318313 14
3.2709546 -3.5027635 0.58375412 20
3.275471 -3.5088272 0.41660443 15
3.2691724 -3.5033057 0.24911913 12
3.2691064 -3.5044611 0.082986191 11
1.3031038 -1.3993651 -0.50210917 3
1.5065517 -1.6184081 -0.50164115 2
1.7848397 -1.9180291 -0.5013774 2
2.2191155 -2.3855467 -0.5099768 2
2.9020047 -3.1207435 -0.51855469 10
2.8509865 -3.0669532 -0.36300424 8
3.1089041 -3.3455791 -0.23655376 7
3.2685745 -3.5186362 -0.082329854 9
3.2665639 -3.5177028 1.2751467 16
3.2710505 -3.5237675 1.1003029 16
3.2645304 -3.5179751 0.92459267 15
3.2738132 -3.5292137 0.75552714 14
3.2688313 -3.5250766 0.58558214 19
3.2733622 -3.5311987 0.4179118 15
3.2671056 -3.5256834 0.24990419 12
3.267046 -3.5268538 0.083247975 10
1.2982112 -1.4039053 -0.50210917 3
1.5008932 -1.6236571 -0.50164115 2
1.7781336 -1.9242477 -0.5013774 2
2.2074239 -2.3896506 -0.50919461 2
2.8809931 -3.1199162 -0.51672655 11
2.8301277 -3.0659063 -0.3616969 7
3.0870481 -3.345402 -0.23577134 6
3.2664409 -3.5410478 -0.082589023 10
3.2673616 -3.5432863 1.2803197 17
3.2686367 -3.5459108 1.1036747 16
3.2622089 -3.5401776 0.92745221 16
3.2715116 -3.5515168 0.75787103 14
3.269953 -3.5510683 0.58801955 18
3.2711358 -3.5535972 0.41921914 15
3.2649219 -3.548089 0.25068924 11
3.2648683 -3.549274 0.083509758 11
1.2933028 -1.4084283 -0.50210917 3
1.4952164 -1.6288862 -0.50164115 2
1.7714059 -1.9304428 -0.5013774 2
2.1957307 -2.393702 -0.50841242 2
2.8600225 -3.1189806 -0.51489854 11
2.8126769 -3.0684226 -0.36082533 7
3.0652318 -3.3451135 -0.23498893 6
3.2641912 -3.5634878 -0.082848199 10
3.2647588 -3.5653565 1.2841994 17
3.266108 -3.5680802 1.1070464 16
3.2597725 -3.562407 0.9303118 15
3.2724276 -3.5774908 0.76099628 14
3.2675846 -3.5734484 0.58984756 19
3.2721539 -3.5796995 0.42096224 15
3.2659893 -3.574208 0.25173596 11
3.2659454 -3.5754132 0.08385881 10
1.2883786 -1.4129342 -0.50210917 3
1.4862393 -1.630495 -0.50051636 2
1.7646567 -1.9366145 -0.5013774 2
2.1807108 -2.3940504 -0.5068481 2
2.8390944 -3.1179368 -0.51307052 9
2.7918904 -3.0671721 -0.35951799 8
3.0434551 -3.3447132 -0.23420648 5
3.2651882 -3.589653 -0.083193764 10
3.2652903 -3.5910244 1.2893724 16
3.2667413 -3.5938802 1.111542 16
3.2605205 -3.5882943 0.93412459 15
3.2698812 -3.5998585 0.76334018 14
3.2650995 -3.5958548 0.59167564 19
3.2696819 -3.6021645 0.42226955 14
3.2635586 -3.5966799 0.25252098 11
3.2635217 -3.5979004 0.084120594 10
1.2801969 -1.4138428 -0.50081509 2
1.4772695 -1.6320611 -0.49939165 2
1.7578858 -1.9427624 -0.5013774 2
2.1491511 -2.3760104 -0.50137287 2
2.8182077 -3.1167846 -0.51124245 10
2.7711473 -3.0658133 -0.35821068 7
3.0250664 -3.3479073 -0.23368487 5
3.2626908 -3.6121583 -0.083452933 11
3.2624462 -3.6131551 1.2932522 17
3.2639699 -3.6161113 1.1149137 16
3.2578392 -3.6105862 0.93698412 14
3.2672193 -3.6222527 0.76568419 15
3.2624974 -3.6182876 0.59350365 20
3.2704275 -3.628355 0.42401269 15
3.2610111 -3.6191785 0.253306 11
3.2643256 -3.6241286 0.084469639 10
1.2752539 -1.4183029 -0.50081509 2
1.4715636 -1.6372079 -0.49939165 2
1.7510935 -1.9488868 -0.5013774 2
2.1705439 -2.416564 -0.50841242 2
2.7973647 -3.1155252 -0.50941443 10
2.7471199 -3.0606401 -0.35646752 7
3.0066919 -3.3510127 -0.23316324 15
3.2600763 -3.6346903 -0.083712101 12
3.2627113 -3.6389055 1.2984253 16
3.2643347 -3.641995 1.1194093 16
3.2583177 -3.6365585 0.94079685 14
3.2677352 -3.6483502 0.76880938 14
3.2597785 -3.6407452 0.59533167 19
3.2677081 -3.6508834 0.42532003 14
3.2616758 -3.6454239 0.25435272 11
3.2616537 -3.6466799 0.08473143 10
1.2702954 -1.4227458 -0.50081509 2
1.4625956 -1.6386999 -0.49826688 2
1.74428 -1.9549873 -0.5013774 2
2.1686697 -2.4314969 -0.5099768 2
2.7765644 -3.1141582 -0.50758636 10
2.7264771 -3.0590556 -0.35516018 8
2.9850118 -3.3503036 -0.23238082 10
3.2307434 -3.6273816 -0.083280146 9
3.2628357 -3.6647012 1.3035983 17
3.2613192 -3.6642854 1.122781 15
3.2553916 -3.6589108 0.94365638 15
3.2648261 -3.670805 0.77115333 14
3.2602403 -3.6669371 0.59776908 19
3.2681801 -3.67716 0.42706317 14
3.2588804 -3.6679857 0.25513777 11
3.2621837 -3.6729946 0.085080475 10
1.2685252 -1.4307851 -0.50210917 2
1.460098 -1.6474414 -0.49939165 2
1.7407002 -1.964738 -0.5023306 2
2.1732659 -2.45384 -0.51310545 2
2.7558081 -3.1126842 -0.50575835 10
2.7058792 -3.0573645 -0.35385287 9
2.9633732 -3.349484 -0.23159841 9
3.2081263 -3.6274025 -0.083020978 7
3.2596211 -3.6869235 1.307478 16
3.2614141 -3.6902494 1.1272767 16
3.255599 -3.6849656 0.94746917 15
3.2650692 -3.6969852 0.77427852 14
3.2572737 -3.689456 0.59959716 18
3.2652121 -3.699749 0.42837048 15
3.2559667 -3.6905718 0.25592282 11
3.2592628 -3.6956074 0.085342258 10
1.2635232 -1.4352043 -0.50210917 2
1.4543386 -1.652528 -0.49939165 2
1.7338313 -1.9708022 -0.5023306 2
2.1679485 -2.4651196 -0.51388764 2
2.7350955 -3.1111028 -0.50393027 9
2.6886137 -3.0593078 -0.35298127 10
2.9417765 -3.3485537 -0.23081596 8
3.1822493 -3.6235535 -0.08267542 6
3.2594771 -3.7127981 1.312651 17
3.2613676 -3.7162592 1.1317723 16
3.2524269 -3.7073762 0.95032871 15
3.2651696 -3.7232122 0.77740377 14
3.2574618 -3.7157309 0.60203457 18
3.2654092 -3.7261083 0.43011358 14
3.2562253 -3.7169373 0.25696954 11
3.2562234 -3.7182441 0.085604049 11
1.2616844 -1.4432422 -0.50340325 3
1.4517668 -1.6612628 -0.50051636 2
1.7269413 -1.9768424 -0.5023306 2
2.1625788 -2.4763918 -0.51466984 2
2.7144282 -3.1094158 -0.50210226 9
2.6680934 -3.0574155 -0.35167396 10
2.9202228 -3.3475139 -0.23003353 10
3.1597242 -3.6233361 -0.082416251 7
3.2560184 -3.735075 1.3165307 17
3.261179 -3.7423134 1.1362679 15
3.2523623 -3.733511 0.9541415 15
3.2618828 -3.7457597 0.77974766 14
3.2575052 -3.7420514 0.60447192 17
3.2621922 -3.7487566 0.43142092 15
3.253062 -3.7395828 0.25775456 12
3.2530663 -3.7409058 0.08586584 10
1.2598048 -1.4512848 -0.50469732 3
1.4459591 -1.6663203 -0.50051636 2
1.7200304 -1.9828584 -0.5023306 2
2.160392 -2.4913876 -0.51623416 2
2.6970568 -3.1113722 -0.50088358 9
2.6508813 -3.0591819 -0.35080242 9
2.895443 -3.3425908 -0.2289903 12
3.1339669 -3.6192265 -0.082070686 6
3.2556047 -3.761025 1.3217037 17
3.2576599 -3.7647266 1.1396396 16
3.2489433 -3.7559776 0.95700109 15
3.2617087 -3.7720659 0.78287292 14
3.254159 -3.7646627 0.60629994 19
3.2621131 -3.7751963 0.43316403 14
3.2465167 -3.7584727 0.25827792 11
3.253057 -3.7673733 0.086214885 10
1.2578845 -1.4593316 -0.50599146 3
1.4401338 -1.6713575 -0.50051636 2
1.7130984 -1.9888504 -0.5023306 2
2.1581268 -2.5063982 -0.51779848 2
2.6764667 -3.1094835 -0.4990555 9
2.6304402 -3.0570893 -0.34949505 9
2.8739893 -3.3413208 -0.22820789 9
3.1115363 -3.6187718 -0.08181151 6
3.2519016 -3.7833548 1.3255836 17
3.257199 -3.7908561 1.1441351 15
3.248605 -3.7821894 0.96081382 15
3.2613907 -3.7984161 0.78599817 14
3.253927 -3.7910624 0.60873735 19
3.2618892 -3.8016813 0.43490714 14
3.2398789 -3.7773621 0.25880128 8
3.2496488 -3.7900913 0.086476669 9
1.2496424 -1.4600444 -0.50469732 3
1.4342909 -1.6763743 -0.50051636 2
1.7061456 -1.9948181 -0.5023306 2
2.1589925 -2.5251768 -0.520145 2
2.6559236 -3.1074896 -0.49722749 9
2.613282 -3.0586789 -0.34862351 9
2.8525801 -3.339942 -0.22742546 7
3.0956397 -3.6258092 -0.081725128 6
3.2512174 -3.8093779 1.3307565 16
3.2534332 -3.8133221 1.147507 15
3.2481232 -3.8084443 0.96462655 14
3.257724 -3.8210518 0.78834218 13
3.2535503 -3.8175056 0.6111747 18
3.2582901 -3.8244188 0.43621451 14
3.2266736 -3.7886481 0.25880128 4
3.2493622 -3.8166375 0.086825714 9
1.2445382 -1.4643975 -0.50469732 3
1.4284306 -1.6813707 -0.50051636 3
1.699172 -2.0007615 -0.5023306 2
2.1373804 -2.5176389 -0.51701629 2
2.6354265 -3.1053901 -0.49539945 9
2.5929222 -3.0563874 -0.34731618 8
2.8312154 -3.3384545 -0.22664301 8
3.0764987 -3.6289663 -0.081552342 5
3.2503908 -3.8354423 1.3359296 17
3.2526996 -3.8395252 1.1520026 15
3.2474976 -3.8347414 0.96843934 15
3.2571301 -3.8474774 0.79146737 14
3.2498226 -3.8402045 0.61300278 17
3.2577882 -3.85098 0.43795761 14
3.2488956 -3.8418274 0.26167977 14
3.24893 -3.8432283 0.087174766 9
1.2396753 -1.4685165 -0.50469732 3
1.4228472 -1.6860983 -0.50051636 2
1.6956928 -2.0101368 -0.50328374 3
2.1194692 -2.5133872 -0.51466984 3
2.6155186 -3.1027291 -0.49357137 9
2.5763535 -3.0573511 -0.34644461 12
2.8104784 -3.3363683 -0.2258606 11
3.0580075 -3.6315002 -0.08137957 17
3.2500958 -3.8609798 1.3411026 17
3.252497 -3.865202 1.1564982 16
3.2474015 -3.8605139 0.97225207 15
3.2570674 -3.8733768 0.79459262 14
3.2498431 -3.8661554 0.61544013 17
3.257818 -3.8770158 0.43970072 14
3.2554069 -3.8755198 0.26324984 13
3.2490261 -3.8692949 0.087523811 9
1.2314391 -1.4691335 -0.50340325 3
1.4169528 -1.6910547 -0.50051636 2
1.6918174 -2.0198064 -0.504237 3
2.0980012 -2.5056243 -0.51154113 3
2.5951159 -3.1004233 -0.49174336 8
2.556076 -3.0548651 -0.34513727 8
2.7892048 -3.3346686 -0.22507818 9
3.0356917 -3.6306462 -0.081120394 13
3.2489882 -3.8871243 1.3462756 16
3.2514806 -3.8914864 1.1609938 15
3.2464919 -3.8868942 0.9760648 15
3.2561877 -3.8998859 0.79771787 13
3.249048 -3.8927159 0.61787754 17
3.2538376 -3.8998377 0.44100806 14
3.2610478 -3.9098668 0.26481992 13
3.2451046 -3.8921318 0.087785594 12
1.2263033 -1.4734231 -0.50340325 3
1.4141574 -1.6997359 -0.50164115 2
1.6878952 -2.0294733 -0.50519013 3
2.0987136 -2.5243247 -0.51388764 3
2.5747616 -3.0980132 -0.48991531 8
2.5390313 -3.0561066 -0.3442657 7
2.767977 -3.3328605 -0.22429574 9
3.0134201 -3.6296816 -0.080861226 11
3.2446535 -3.9095919 1.3501554 17
3.25032 -3.9178112 1.1654894 15
3.2454376 -3.9133155 0.97987759 14
3.2551625 -3.9264359 0.80084312 14
3.248107 -3.919318 0.6203149 18
3.2529151 -3.9265146 0.44275117 15
3.263304 -3.9404542 0.26612833 14
3.2283108 -3.8995848 0.08769834 10
1.2211528 -1.4776947 -0.50340325 3
1.4051126 -1.7009057 -0.50051636 2
1.6808007 -2.0353527 -0.50519013 3
2.0993209 -2.5430608 -0.51623416 2
2.554456 -3.095499 -0.4880873 7
2.5220087 -3.0572662 -0.34339416 7
2.7467959 -3.330945 -0.22351331 9
2.984832 -3.6208906 -0.080429271 11
3.2432725 -3.9358034 1.3553283 16
3.2490153 -3.944175 1.1699851 15
3.2442379 -3.9397764 0.98369032 15
3.2539914 -3.9530265 0.80396837 14
3.2470198 -3.9459603 0.62275231 18
3.245518 -3.945539 0.44362271 14
3.2622149 -3.9672482 0.26717505 13
3.1988063 -3.89152 0.087262027 7
1.2190508 -1.485682 -0.50469732 3
1.3991668 -1.7057999 -0.50051636 2
1.6767981 -2.0450032 -0.50614333 3
2.1154759 -2.5809281 -0.52249151 2
2.5373442 -3.096719 -0.48686856 9
2.5113215 -3.066051 -0.34339416 5
2.7256625 -3.3289227 -0.22273089 9
2.9626756 -3.6196821 -0.080170102 11
3.2417481 -3.9620528 1.3605013 16
3.2475657 -3.970577 1.1744807 15
3.242893 -3.9662759 0.98750305 15
3.2526743 -3.9796565 0.80709356 14
3.2457857 -3.9726431 0.62518972 18
3.2506304 -3.9799905 0.44623742 14
3.2641358 -3.9979501 0.26848346 13
3.1788807 -3.8949161 0.087087497 8
1.2138573 -1.4899281 -0.50469732 3
1.3932039 -1.7106736 -0.50051636 2
1.6696494 -2.0508437 -0.50614333 3
2.0877507 -2.5653152 -0.51779848 3
2.5171235 -3.0940084 -0.48504055 7
2.5006039 -3.0747986 -0.34339416 5
2.7045765 -3.3267939 -0.22194847 8
2.9405637 -3.6183624 -0.079910934 11
3.2400799 -3.9883394 1.3656744 16
3.2459717 -3.9970171 1.1789763 15
3.2414026 -3.9928145 0.99131578 15
3.2512107 -4.0063252 0.81021881 14
3.2412784 -3.9955111 0.62701774 18
3.2524049 -4.0106573 0.44841629 14
3.256449 -4.017077 0.26900679 13
3.1526759 -3.8904526 0.086738452 6
1.2086492 -1.4941562 -0.50469732 3
1.387224 -1.7155263 -0.50051636 2
1.6624805 -2.0566595 -0.50614333 3
2.0756793 -2.5687459 -0.51701629 3
2.5000713 -3.0950549 -0.48382184 7
2.486726 -3.0796332 -0.34295839 6
2.6835384 -3.324558 -0.22116603 9
2.9153581 -3.6130426 -0.079565376 9
3.2382677 -4.0146627 1.3708473 16
3.2442324 -4.0234942 1.1834719 15
3.2397664 -4.0193911 0.99512857 15
3.2496002 -4.0330315 0.81334406 13
3.242877 -4.0261254 0.63006449 19
3.2477565 -4.0336246 0.44972363 14
3.2580607 -4.0478683 0.2703152 13
3.1328087 -3.8936441 0.08656393 6
1.2034261 -1.4983661 -0.50469732 3
1.3812273 -1.7203583 -0.50051636 2
1.6552913 -2.0624499 -0.50614333 3
2.0605195 -2.5682719 -0.51545197 3
2.4830425 -3.09602 -0.48260313 8
2.4790769 -3.092181 -0.34339416 7
2.6625493 -3.3222163 -0.2203836 9
2.8933506 -3.6114919 -0.0793062 10
3.236311 -4.0410213 1.3760203 16
3.2423472 -4.0500073 1.1879675 15
3.2379837 -4.0460038 0.9989413 15
3.247843 -4.0597758 0.81646931 14
3.2412016 -4.0529242 0.6325019 18
nan nan nan 0
3.2501454 -4.0670171 0.27083856 13
3.1035967 -3.8850262 0.086127624 6
1.1984508 -1.5023485 -0.50469732 3
1.3788542 -1.7284976 -0.50164115 2
1.6457434 -2.0638022 -0.50519013 3
2.0493627 -2.5708711 -0.51466984 3
2.4609327 -3.0882807 -0.48016575 7
2.4600401 -3.0882659 -0.34208682 6
2.6427679 -3.3188462 -0.21960118 10
2.8664234 -3.6010072 -0.078874253 8
3.238636 -4.070065 1.3824866 16
3.2417397 -4.0754251 1.1924632 15
3.2374761 -4.0715237 1.0027541 15
3.247365 -4.0854235 0.81959456 13
3.2408025 -4.0786285 0.63493925 18
3.2457175 -4.086278 0.45320985 10
nan nan nan 0
3.0913761 -3.8947573 0.086127624 8
1.1934623 -1.5063145 -0.50469732 3
1.3728122 -1.7333002 -0.50164115 2
1.6385293 -2.0695345 -0.50519013 3
2.0495703 -2.5896258 -0.51701629 3
2.443979 -3.0890679 -0.47894704 8
2.4461548 -3.0929275 -0.34165102 6
2.6249733 -3.3202171 -0.21907955 8
2.8507364 -3.607069 -0.078787863 8
3.2363858 -4.0965047 1.3876597 16
3.2395725 -4.1020098 1.1969588 15
3.2354097 -4.0982094 1.0065668 15
3.2453222 -4.1122408 0.82271975 13
nan nan nan 0
nan nan nan 0
nan nan nan 0
3.0530076 -3.8741121 0.085429527 6
1.1879333 -1.5106786 -0.50469732 3
1.3664501 -1.7383202 -0.50164115 2
1.630933 -2.0755262 -0.50519013 3
2.0248122 -2.5777028 -0.51310545 3
2.4295759 -3.0941019 -0.47833771 7
2.4317272 -3.0979543 -0.34121525 6
2.6066222 -3.3219597 -0.21855795 8
2.8344114 -3.6135595 -0.078701466 9
3.2332702 -4.1235423 1.3928326 16
3.2365382 -4.1291938 1.2014544 15
3.2355037 -4.1293583 1.0113328 15
3.2454545 -4.143548 0.82662636 14
nan nan nan 0
1.7765555 -2.2698016 0.24882965 4
1.7773658 -2.2716537 0.14915746 6
3.035708 -3.8813379 0.085342258 6
1.1826528 -1.5148162 -0.50469732 3
1.3603737 -1.7430794 -0.50164115 2
1.6297166 -2.0889463 -0.50709653 3
2.006691 -2.5730724 -0.51075894 3
nan nan nan 0
nan nan nan 0
nan nan nan 0
2.8187087 -3.619487 -0.078615077 9
3.2336915 -4.1538591 1.3992989 16
3.2340736 -4.1558461 1.20595 14
3.2331247 -4.1561236 1.0151455 14
3.2430978 -4.170445 0.82975161 14
nan nan nan 0
1.7686216 -2.2759893 0.24882965 6
1.7632993 -2.2699575 0.14863411 6
nan nan nan 0
1.1803167 -1.5227524 -0.50599146 3
1.3572649 -1.7516682 -0.50276589 2
1.6254207 -2.0985031 -0.50804973 3
1.8223399 -2.3535845 -0.46539292 5
1.8034364 -2.3300104 -0.35707757 2
1.7668988 -2.2836275 -0.2492658 5
2.565038 -3.3163779 -0.21699309 8
nan nan nan 0
3.2309864 -4.1804075 1.4044719 17
3.234441 -4.1863871 1.2115695 15
3.2335985 -4.1868072 1.0199115 14
3.2405925 -4.1973767 0.8328768 13
nan nan nan 0
1.7576234 -2.2782052 0.24839386 5
1.7584143 -2.2800529 0.1488958 6
nan nan nan 0
1.1749941 -1.5268632 -0.50599146 3
1.351142 -1.7563953 -0.50276589 2
1.6210775 -2.1080546 -0.50900286 3
1.7840158 -2.3207781 -0.45757118 15
1.7892445 -2.3284214 -0.35585886 7
1.7589166 -2.2897813 -0.2492658 10
nan nan nan 0
1.7249115 -2.2471361 -0.048292119 5
3.2310753 -4.2108192 1.4109381 16
3.2316689 -4.2131152 1.2160652 15
3.2309105 -4.2136493 1.0237242 15
3.2409432 -4.228261 0.83678341 13
1.7407163 -2.2718279 0.34671828 9
1.7375453 -2.2685091 0.24665076 6
1.7383027 -2.270319 0.14784908 6
1.7491136 -2.2852647 0.049564831 59
1.1696572 -1.5309553 -0.50599146 3
1.3450029 -1.761101 -0.50276589 2
1.6166877 -2.1176019 -0.50995612 4
1.7549312 -2.299511 -0.45209596 5
1.7931464 -2.3504353 -0.35829625 6
1.7569541 -2.3038285 -0.25013736 6
1.7608044 -2.3097131 -0.14970437 15
1.7231175 -2.2610962 -0.048464898 7
3.2280648 -4.2374401 1.4161112 17
3.2317014 -4.2437506 1.2216847 15
3.2280746 -4.2405233 1.027537 15
3.2381265 -4.2552691 0.8399086 13
1.7237618 -2.2660408 0.34489024 10
1.741676 -2.2904201 0.24839386 5
1.7213023 -2.2644477 0.14706403 5
1.7441506 -2.2953367 0.049652096 56
1.164306 -1.5350288 -0.50599146 3
1.3388474 -1.7657853 -0.50276589 2
1.609286 -2.1232324 -0.50995612 3
nan nan nan 0
nan nan nan 0
nan nan nan 0
1.7316381 -2.2879753 -0.14787871 5
2.7015398 -3.57078 -0.076714501 4
3.2278206 -4.2679439 1.4225775 16
3.228621 -4.2705512 1.2261803 14
3.2280495 -4.2713447 1.032303 14
3.238138 -4.2862487 0.84381521 13
1.7218229 -2.2799644 0.34610891 9
1.7366714 -2.3004611 0.24882965 7
1.7163953 -2.2744279 0.14732571 5
1.7421491 -2.3093929 0.049826618 41
1.1589407 -1.5390837 -0.50599146 3
1.3326755 -1.7704479 -0.50276589 2
1.6018647 -2.1288369 -0.50995612 4
1.9436674 -2.5840223 -0.50606591 4
nan nan nan 0
nan nan nan 0
nan nan nan 0
nan nan nan 0
3.2245028 -4.2946343 1.4277505 17
3.2283173 -4.3012781 1.2317998 14
3.2249029 -4.2982912 1.0361156 15
3.237972 -4.3172798 0.8477217 13
1.7227846 -2.297873 0.34793696 13
1.7346051 -2.3144808 0.2497012 10
1.7144332 -2.2883976 0.14784908 4
1.7310804 -2.3114588 0.049739353 23
1.1535612 -1.5431198 -0.50599146 3
1.3264873 -1.775089 -0.50276589 2
1.5914865 -2.1304832 -0.50900286 4
1.9553192 -2.61849 -0.51154113 3
2.3027883 -3.0849302 -0.46797881 8
2.4655285 -3.304148 -0.35733908 9
2.470943 -3.3126106 -0.21386339 8
2.688499 -3.6055844 -0.077060059 12
3.2239244 -4.3252263 1.4342167 17
3.2278383 -4.3320546 1.2374194 14
3.224539 -4.3292036 1.0408816 14
3.2346797 -4.3444009 0.85084695 14
1.7029008 -2.2879484 0.34549958 11
1.7294886 -2.3245177 0.25013697 7
1.7183541 -2.310394 0.1488958 4
2.8952308 -3.8941698 0.084033333 57
1.1481677 -1.547137 -0.50599146 3
1.3173804 -1.7757961 -0.50164115 2
1.5811164 -2.1320829 -0.50804973 4
1.9638128 -2.6491027 -0.51623416 3
2.2890513 -3.0889626 -0.46736944 8
2.4599099 -3.3207395 -0.35821068 9
2.4593651 -3.3212156 -0.21386339 10
2.6669734 -3.6028924 -0.076800883 12
3.2231715 -4.355866 1.4406829 16
3.2242863 -4.3589635 1.241915 14
3.2210803 -4.3562198 1.0446944 15
3.2341723 -4.3755221 0.85475349 13
1.6860565 -2.2819045 0.34367153 7
1.7154455 -2.3225276 0.24926542 6
1.7191763 -2.3284287 0.14968082 4
2.8786509 -3.9002299 0.083946072 62
1.1427603 -1.5511354 -0.50599146 3
1.3111738 -1.7803837 -0.50164115 2
1.5736644 -2.1375892 -0.50804973 3
1.9545538 -2.6559415 -0.51623416 3
2.2694321 -3.0849411 -0.46554142 7
2.454205 -3.3373313 -0.35908222 11
2.4388843 -3.3177106 -0.21308096 8
2.6514206 -3.6081514 -0.076714501 12
3.2222433 -4.3865528 1.4471493 17
3.2234688 -4.3898263 1.2475344 14
3.220377 -4.3872209 1.0494604 14
3.2305658 -4.4027119 0.85787874 14
1.6722105 -2.2797725 0.34245285 7
1.7014374 -2.3204677 0.24839386 6
1.7228452 -2.3505244 0.15072754 5
