# .PCD v0.7 - Point Cloud Data file format
VERSION 0.7
FIELDS x y z intensity
SIZE 4 4 4 4
TYPE F F F F
COUNT 1 1 1 1
WIDTH 1263
HEIGHT 1
VIEWPOINT 0 0 0 1 0 0 0
POINTS 1263
DATA ascii
0.084734574 -1.2657174 0.10763735 30
0.084048681 -1.2587683 0.064111546 35
0.082599387 -1.2403191 0.021030148 88
0.083587147 -1.2718914 -0.33128852 25
0.082160279 -1.253523 -0.28118899 24
0.081895597 -1.2528352 -0.23639087 27
0.081841923 -1.2553802 -0.19319673 28
0.082656033 -1.2712857 -0.15172751 25
0.08079426 -1.2460097 -0.10589439 27
0.080446191 -1.2440042 -0.063115776 34
0.080645211 -1.2504709 -0.020992817 50
0.0793349 -1.2335055 0.32072657 27
0.079477519 -1.2390993 0.27760452 26
0.080459557 -1.2578466 0.23734389 29
0.080405541 -1.2604554 0.19376497 26
0.079305544 -1.2466363 0.1486806 27
0.08031588 -1.2660055 0.10763735 32
0.079654247 -1.2590541 0.064111546 35
0.078269355 -1.2405999 0.021030148 69
0.079146907 -1.2721753 -0.33128852 24
0.077784166 -1.2538022 -0.28118899 24
0.077218816 -1.2482144 -0.23543768 25
0.077459335 -1.2556581 -0.19319673 26
0.078522608 -1.27652 -0.15233685 29
0.07644438 -1.2462841 -0.10589439 28
0.076103315 -1.2442775 -0.063115776 33
0.076279752 -1.2507447 -0.020992817 35
0.075028673 -1.2337749 0.32072657 27
0.075151771 -1.2393692 0.27760452 27
0.076068364 -1.2581197 0.23734389 30
0.075708047 -1.2557987 0.19298366 27
0.074953489 -1.2469054 0.1486806 27
0.075896204 -1.2662781 0.10763735 31
0.075258844 -1.2593244 0.064111546 37
0.073641017 -1.2358751 0.020942885 33
0.074705705 -1.2724439 -0.33128852 25
0.073122419 -1.2492025 -0.28006423 24
0.072861269 -1.2484763 -0.23543768 27
0.072788931 -1.2509907 -0.19241455 26
0.074066244 -1.2767862 -0.15233685 26
0.072093569 -1.2465433 -0.10589439 28
0.071759515 -1.2445356 -0.063115776 30
0.071913376 -1.2510034 -0.020992817 29
0.070997879 -1.2388511 0.32201982 30
0.070825107 -1.239624 0.27760452 28
0.071676239 -1.2583776 0.23734389 29
0.071324028 -1.2560554 0.19298366 27
0.070320033 -1.2422047 0.14807124 27
0.071194954 -1.2615622 0.10720157 32
0.070862524 -1.2595794 0.064111546 35
0.069326565 -1.2361246 0.020942885 30
0.069997363 -1.2678746 -0.32999444 23
0.068761446 -1.2494501 -0.28006423 23
0.068233967 -1.2438221 -0.23448449 25
0.068421721 -1.2512373 -0.19241455 26
0.069608986 -1.277037 -0.15233685 25
0.067471653 -1.2418139 -0.1054586 29
0.067414835 -1.2447785 -0.063115776 30
0.067546122 -1.2512467 -0.020992817 30
0.066673048 -1.2390914 0.32201982 28
0.066497579 -1.2398636 0.27760452 28
0.067283243 -1.2586201 0.23734389 29
0.066939145 -1.2562966 0.19298366 25
0.065983497 -1.2424426 0.14807124 27
0.066790849 -1.261803 0.10720157 31
0.066465341 -1.2598191 0.064111546 33
0.065011263 -1.2363591 0.020942885 28
0.065571226 -1.2681112 -0.32999444 25
0.06439963 -1.2496825 -0.28006423 24
0.063891806 -1.2440528 -0.23448449 25
0.06405367 -1.2514685 -0.19241455 27
0.065150864 -1.2772722 -0.15233685 25
0.063136503 -1.2420418 -0.1054586 28
0.063069336 -1.2450062 -0.063115776 31
0.062925987 -1.246482 -0.020906426 30
0.062347408 -1.2393166 0.32201982 28
0.062169246 -1.2400882 0.27760452 29
0.062889427 -1.2588474 0.23734389 29
0.062307898 -1.2515903 0.19220234 26
0.061646167 -1.2426653 0.14807124 28
0.062385928 -1.2620285 0.10720157 30
0.061821688 -1.2550563 0.063849866 34
0.060450077 -1.2315853 0.020855624 27
0.061144296 -1.2683324 -0.32999444 24
0.060037032 -1.2498997 -0.28006423 23
0.059548862 -1.2442681 -0.23448449 27
0.059684835 -1.2516844 -0.19241455 27
0.06069196 -1.2774918 -0.15233685 26
0.058800578 -1.2422546 -0.1054586 27
0.058723073 -1.2452188 -0.063115776 30
0.058339946 -1.2417003 -0.020820037 27
0.057795174 -1.2347021 0.32072657 29
0.05784015 -1.2402977 0.27760452 28
0.058267064 -1.2541562 0.23639071 28
0.057938654 -1.2518001 0.19220234 26
0.057308078 -1.242873 0.14807124 27
0.057980247 -1.2622385 0.10720157 30
0.057440348 -1.2552644 0.063849866 32
0.055923026 -1.2267948 0.020768361 27
0.056716613 -1.268538 -0.32999444 26
0.055456948 -1.2452346 -0.27893949 25
0.055205192 -1.2444685 -0.23448449 25
0.055315278 -1.2518852 -0.19241455 27
0.056014102 -1.2727379 -0.15172751 26
0.054245811 -1.2374761 -0.10502283 27
0.054376088 -1.2454162 -0.063115776 29
0.054005247 -1.2418964 -0.020820037 28
0.053484906 -1.2348964 0.32072657 28
0.053510349 -1.240492 0.27760452 27
0.053888891 -1.2543521 0.23639071 27
0.05335759 -1.2470607 0.19142105 25
0.052758019 -1.2381072 0.14746189 27
0.053362671 -1.2574568 0.10676579 31
0.053058308 -1.2554573 0.063849866 30
0.051640373 -1.2269826 0.020768361 24
0.052288245 -1.2687284 -0.32999444 25
0.051109929 -1.2454206 -0.27893949 23
0.051061254 -1.2495577 -0.23543768 26
0.050744273 -1.2471362 -0.19163239 26
0.051571079 -1.2729256 -0.15172751 26
0.049925882 -1.2376579 -0.10502283 26
0.049828056 -1.2406092 -0.062854968 25
0.049470134 -1.2370821 -0.020733647 24
0.048981838 -1.2302495 0.3194333 27
0.049179897 -1.2406712 0.27760452 27
0.049316499 -1.2496279 0.23543751 24
0.049004212 -1.2472394 0.19142105 24
0.048435893 -1.2382839 0.14746189 23
0.048973005 -1.2576354 0.10676579 30
0.048482202 -1.2506454 0.06358818 29
0.047164306 -1.2221597 0.0206811 24
0.047677215 -1.2640769 -0.32870033 25
0.046579517 -1.240723 -0.27781472 26
0.046699174 -1.2497284 -0.23543768 26
0.046390649 -1.2473058 -0.19163239 26
0.047127426 -1.273098 -0.15172751 26
0.045605347 -1.2378247 -0.10502283 26
0.04549722 -1.2407756 -0.062854968 26
0.04515161 -1.2372472 -0.020733647 27
0.044511873 -1.2255863 0.31814006 26
0.044848848 -1.2408353 0.27760452 25
0.044954184 -1.2497925 0.23543751 25
0.04447357 -1.2424673 0.19063973 24
0.044113182 -1.2384454 0.14746189 24
0.044406295 -1.2528208 0.10633001 28
0.044116341 -1.250807 0.06358818 28
0.042897888 -1.2223169 0.0206811 26
0.043264471 -1.2642357 -0.32870033 24
0.042248305 -1.2408781 -0.27781472 25
0.042336524 -1.2498838 -0.23543768 25
0.042036455 -1.2474601 -0.19163239 27
0.042683195 -1.2732548 -0.15172751 25
0.041284256 -1.2379763 -0.10502283 28
0.041000277 -1.2359364 -0.06259416 27
0.040667657 -1.2324008 -0.020647256 28
0.040233504 -1.2257341 0.31814006 27
0.040517252 -1.2409843 0.27760452 26
0.040432006 -1.245036 0.23448433 26
0.040136281 -1.242615 0.19063973 24
0.039630581 -1.2336315 0.14685255 24
0.040032867 -1.2529682 0.10633001 28
0.039749943 -1.2509534 0.06358818 30
0.03847304 -1.2174625 0.020593839 26
0.038702868 -1.2595516 -0.32740623 25
0.037916571 -1.2410179 -0.27781472 26
0.037824322 -1.2451179 -0.23448449 27
0.037681751 -1.2475992 -0.19163239 27
0.038238447 -1.2733959 -0.15172751 26
0.036814019 -1.2331342 -0.10458705 29
0.036685802 -1.2360721 -0.06259416 26
0.036365528 -1.2325352 -0.020647256 26
0.035813048 -1.2210393 0.31684682 26
0.036043175 -1.2362483 0.27648062 26
0.036085777 -1.2451696 0.23448433 25
0.035798501 -1.2427475 0.19063973 25
0.035324164 -1.2337624 0.14685255 25
0.03551726 -1.2481213 0.10589422 29
0.035241894 -1.2460933 0.0633265 30
0.034223072 -1.2175895 0.020593839 26
0.034305975 -1.2596791 -0.32740623 24
0.033584379 -1.2411427 -0.27781472 26
0.033477817 -1.2452424 -0.23448449 26
0.033326585 -1.2477232 -0.19163239 27
0.033793233 -1.2735217 -0.15172751 26
0.032509357 -1.2332551 -0.10458705 28
0.032240178 -1.2312011 -0.062333349 28
0.032062955 -1.2326547 -0.020647256 28
0.031550609 -1.221157 0.31684682 27
0.031727642 -1.2363665 0.27648062 24
0.031739101 -1.245288 0.23448433 25
0.031460285 -1.242865 0.19063973 25
0.030892603 -1.2289171 0.1462432 25
0.031160289 -1.2482376 0.10589422 29
0.030892001 -1.2462088 0.0633265 30
0.029972682 -1.2177014 0.020593839 26
0.029908666 -1.2597913 -0.32740623 24
0.029136999 -1.236382 -0.27668998 25
0.029130906 -1.2453517 -0.23448449 27
0.028971018 -1.2478318 -0.19163239 28
0.029233284 -1.2686704 -0.15111816 27
0.028204294 -1.233361 -0.10458705 30
0.027942287 -1.2313061 -0.062333349 28
0.027759992 -1.2327591 -0.020647256 28
0.027287783 -1.2212597 0.31684682 27
0.027411727 -1.2364697 0.27648062 25
0.02728411 -1.240484 0.23353115 26
0.027121684 -1.2429671 0.19063973 26
0.026602693 -1.2290174 0.1462432 27
0.026802935 -1.2483388 0.10589422 30
0.026435424 -1.241317 0.063064821 31
0.02572193 -1.2177987 0.020593839 26
0.025510993 -1.2598879 -0.32740623 25
0.024821043 -1.2364762 -0.27668998 25
0.024685988 -1.2405385 -0.23353131 28
0.024517706 -1.242988 -0.19085021 27
0.02480462 -1.2687649 -0.15111816 25
0.023898888 -1.233452 -0.10458705 29
0.023644056 -1.2313961 -0.062333349 27
0.02336159 -1.2278501 -0.020560866 29
0.023024626 -1.2213475 0.31684682 26
0.023004493 -1.2316866 0.27535671 27
0.022953847 -1.2405717 0.23353115 25
0.022782752 -1.2430543 0.19063973 26
0.022312459 -1.2291027 0.1462432 27
0.022445258 -1.2484248 0.10589422 28
0.022102257 -1.2414018 0.063064821 30
0.02147086 -1.2178811 0.020593839 26
0.021113006 -1.2599692 -0.32740623 24
0.020504786 -1.2365552 -0.27668998 25
0.020355552 -1.240617 -0.23353131 26
0.02017872 -1.243066 -0.19085021 28
0.020375654 -1.2688437 -0.15111816 26
0.019593192 -1.2335279 -0.10458705 28
0.019345537 -1.2314712 -0.062333349 28
0.019075451 -1.2279241 -0.020560866 28
0.018761188 -1.2214204 0.31684682 28
0.018704964 -1.2317594 0.27535671 26
0.018623304 -1.2406443 0.23353115 26
0.018443545 -1.2431263 0.19063973 25
0.018021954 -1.2291732 0.1462432 26
0.018087305 -1.2484955 0.10589422 29
0.017697362 -1.2364787 0.062803142 30
0.017148858 -1.2129498 0.020506576 27
0.016650705 -1.2552061 -0.32611215 24
0.016188277 -1.2366194 -0.27668998 25
0.016024865 -1.2406806 -0.23353131 27
0.015839485 -1.2431289 -0.19085021 28
0.01594644 -1.2689071 -0.15111816 26
0.015287257 -1.2335888 -0.10458705 29
0.015046783 -1.2315311 -0.062333349 28
0.014728877 -1.2229843 -0.020474477 28
0.014497521 -1.2214783 0.31684682 28
0.014348237 -1.2269456 0.2742328 26
0.014292534 -1.2407018 0.23353115 28
0.014104113 -1.243183 0.19063973 26
0.013731229 -1.2292286 0.1462432 26
0.013729133 -1.248551 0.10589422 29
0.013381138 -1.2365329 0.062803142 31
0.012914769 -1.2130022 0.020506576 27
0.012269116 -1.2552567 -0.32611215 24
0.011871571 -1.2366682 -0.27668998 25
0.011647725 -1.2358209 -0.23257811 26
0.01150006 -1.2431766 -0.19085021 28
0.01147199 -1.2639925 -0.15050881 26
0.010981136 -1.2336346 -0.10458705 28
0.010747846 -1.2315762 -0.062333349 28
0.010459774 -1.2230283 -0.020474477 29
0.010233678 -1.2215216 0.31684682 27
0.010065312 -1.2269882 0.2742328 26
0.0099615892 -1.2407441 0.23353115 27
0.0097257197 -1.2382861 0.18985841 25
0.0094403373 -1.229269 0.1462432 26
0.0093707927 -1.2485914 0.10589422 29
0.0090647526 -1.236572 0.062803142 30
0.0086805224 -1.2130399 0.020506576 28
0.0078873783 -1.2552917 -0.32611215 25
0.0075547211 -1.2367022 -0.27668998 26
0.0073338347 -1.235854 -0.23257811 26
0.0071320492 -1.2382706 -0.19006802 28
0.0070597641 -1.2640249 -0.15050881 26
0.0066748806 -1.2336653 -0.10458705 31
0.0064487769 -1.2316062 -0.062333349 27
0.0061905454 -1.2230574 -0.020474477 28
0.0059461063 -1.2167202 0.31555355 29
0.0057593021 -1.2221438 0.2731089 28
0.0056305234 -1.2407713 0.23353115 26
0.0054032356 -1.2383125 0.18985841 26
0.005128542 -1.2243319 0.14563385 27
0.0049923435 -1.2436355 0.10545845 30
0.004748255 -1.2365962 0.062803142 31
0.0044461703 -1.2130629 0.020506576 26
0.0034920573 -1.2504821 -0.32481804 25
0.0032250241 -1.2318492 -0.27556521 25
0.0030198544 -1.235872 -0.23257811 26
0.0028096347 -1.238288 -0.19006802 28
0.0026474509 -1.2640418 -0.15050881 27
0.0023589812 -1.2287003 -0.10415127 30
0.0021496299 -1.2316211 -0.062333349 28
0.0019212407 -1.2230715 -0.020474477 30
0.0016989242 -1.2167336 0.31555355 27
0.0014931894 -1.2221563 0.2731089 27
0.0012993893 -1.2407835 0.23353115 27
0.0010806852 -1.2383239 0.18985841 25
0.00085479527 -1.2243423 0.14563385 27
0.00065121491 -1.2436454 0.10545845 29
0.00043170009 -1.2366053 0.062803142 31
0.00021176343 -1.213071 0.020506576 28
-0.00065470947 -1.2504867 -0.32481804 24
-0.00064495363 -1.2318532 -0.27556521 25
-0.00086276059 -1.2358755 -0.23257811 27
-0.0010805693 -1.2382908 -0.19006802 27
-0.0013236597 -1.2640439 -0.15050881 27
-0.0015010998 -1.2287016 -0.10415127 28
-0.0017126548 -1.2266287 -0.062072542 28
-0.0019211548 -1.2230715 -0.020474477 28
-0.0021235589 -1.2167327 0.31555355 28
-0.0023463292 -1.222155 0.2731089 28
-0.0025883671 -1.2358731 0.23257795 26
-0.0028096228 -1.2383212 0.18985841 26
-0.0029915872 -1.224339 0.14563385 25
-0.003255809 -1.2436414 0.10545845 29
-0.0034532056 -1.2366005 0.062803142 32
-0.0035992062 -1.2130656 0.020506576 26
-0.0048014694 -1.2504777 -0.32481804 26
-0.0049449196 -1.2318435 -0.27556521 27
-0.0051767658 -1.2358649 -0.23257811 26
-0.0054030041 -1.2382793 -0.19006802 29
-0.0057359883 -1.2640315 -0.15050881 27
-0.0057665873 -1.2237079 -0.10371549 29
-0.0059943772 -1.2266153 -0.062072542 28
-0.0061904592 -1.2230574 -0.020474477 27
-0.0063707358 -1.216718 0.31555355 28
-0.0066387923 -1.2270114 0.2742328 27
-0.0069023534 -1.2358565 0.23257795 29
-0.007132153 -1.2383038 0.18985841 27
-0.0072653093 -1.2243211 0.14563385 26
-0.0075664804 -1.2386414 0.10502267 29
-0.0077697253 -1.236581 0.062803142 30
-0.0078012901 -1.2080466 0.020419315 28
-0.0093846666 -1.2504517 -0.32481804 26
-0.0094598187 -1.231817 -0.27556521 26
-0.0097064022 -1.2358377 -0.23257811 27
-0.0099414876 -1.2382512 -0.19006802 28
-0.010368856 -1.2640021 -0.15050881 27
-0.010251662 -1.2236786 -0.10371549 28
-0.010490106 -1.226585 -0.062072542 27
-0.010629522 -1.2180275 -0.020388085 29
-0.010830187 -1.2166865 0.31555355 26
-0.01113597 -1.2269789 0.2742328 27
-0.011431947 -1.235823 0.23257795 25
-0.011670716 -1.2382693 0.18985841 24
-0.011752621 -1.2242862 0.14563385 26
-0.012106277 -1.2386054 0.10502267 28
-0.012301969 -1.2365441 0.062803142 31
-0.01222895 -1.2080098 0.020419315 26
-0.0137495 -1.2504113 -0.32481804 26
-0.013759605 -1.2317765 -0.27556521 26
-0.014020221 -1.2357962 -0.23257811 27
-0.01426373 -1.238209 -0.19006802 27
-0.014722952 -1.2589957 -0.14989947 26
-0.014523035 -1.2236353 -0.10371549 29
-0.014711493 -1.2215481 -0.06181173 29
-0.014881167 -1.217983 -0.020388085 27
-0.015077149 -1.2166413 0.31555355 28
-0.015418858 -1.2269325 0.2742328 26
-0.015745705 -1.2357756 0.23257795 26
-0.01592923 -1.233283 0.18907709 26
-0.016026106 -1.2242378 0.14563385 25
-0.016429743 -1.2385556 0.10502267 29
-0.016618239 -1.2364937 0.062803142 31
-0.016377563 -1.2029611 0.020332051 28
-0.018114166 -1.2503557 -0.32481804 24
-0.018059224 -1.231721 -0.27556521 26
-0.018261055 -1.2308319 -0.2316249 26
-0.018585801 -1.2381517 -0.19006802 29
-0.019117577 -1.2589366 -0.14989947 25
-0.018794231 -1.2235771 -0.10371549 29
-0.018975401 -1.2214893 -0.06181173 28
-0.019054106 -1.212925 -0.020301696 29
-0.019323928 -1.2165812 0.31555355 28
-0.019701557 -1.2268713 0.2742328 26
-0.020059271 -1.2357131 0.23257795 27
-0.020234093 -1.2332199 0.18907709 26
-0.020299396 -1.2241744 0.14563385 25
-0.020753009 -1.2384907 0.10502267 29
-0.020934306 -1.2364281 0.062803142 31
-0.020576579 -1.2028966 0.020332051 27
-0.022391794 -1.245456 -0.32352394 25
-0.022270197 -1.2267795 -0.27444047 26
-0.022557348 -1.2307606 -0.2316249 28
-0.022816285 -1.2331418 -0.18928584 28
-0.02351197 -1.2588623 -0.14989947 26
-0.023065198 -1.2235042 -0.10371549 29
-0.02323908 -1.2214156 -0.06181173 29
-0.023287885 -1.212851 -0.020301696 28
-0.023570472 -1.2165064 0.31555355 28
-0.023888784 -1.2219238 0.2731089 27
-0.024372593 -1.2356355 0.23257795 27
-0.024440454 -1.228204 0.18829578 26
-0.024572438 -1.2240961 0.14563385 26
-0.025076022 -1.2384107 0.10502267 29
-0.025148164 -1.2313554 0.062541462 32
-0.024775347 -1.2028174 0.020332051 27
-0.026739111 -1.2453701 -0.32352394 25
-0.026552321 -1.2266942 -0.27444047 27
-0.026853366 -1.2306744 -0.2316249 27
-0.027120614 -1.2330545 -0.18928584 29
-0.027796082 -1.253811 -0.14929011 27
-0.027335886 -1.2234162 -0.10371549 28
-0.027502475 -1.2213271 -0.06181173 28
-0.027521385 -1.2127624 -0.020301696 27
-0.027816728 -1.2164167 0.31555355 28
-0.028153948 -1.221833 0.2731089 25
-0.028571688 -1.2306358 0.23162474 27
-0.028727537 -1.2281113 0.18829578 25
-0.02884518 -1.2240027 0.14563385 26
-0.029398728 -1.2383156 0.10502267 30
-0.029446244 -1.2312602 0.062541462 32
-0.029094208 -1.2077214 0.020419315 28
-0.0310861 -1.2452693 -0.32352394 24
-0.03083412 -1.2265941 -0.27444047 26
-0.031149058 -1.2305732 -0.2316249 28
-0.031424612 -1.2329524 -0.18928584 27
-0.032172531 -1.2537063 -0.14929011 27
-0.031606238 -1.2233133 -0.10371549 30
-0.031765532 -1.2212236 -0.06181173 27
-0.03175455 -1.2126589 -0.020301696 28
-0.031935368 -1.2114838 0.31426027 28
-0.032418769 -1.2217273 0.2731089 26
-0.032867234 -1.2305286 0.23162474 27
-0.033014271 -1.2280035 0.18829578 26
-0.032983329 -1.2189336 0.14502451 27
-0.033856679 -1.2431847 0.10545845 30
-0.033743963 -1.2311499 0.062541462 30
-0.033309765 -1.2076124 0.020419315 30
-0.035432711 -1.2451532 -0.32352394 24
-0.035115544 -1.2264789 -0.27444047 27
-0.035444371 -1.2304569 -0.2316249 26
-0.035585169 -1.2278988 -0.18850368 26
-0.036548585 -1.2535864 -0.14929011 28
-0.035876207 -1.2231956 -0.10371549 29
-0.036028206 -1.2211053 -0.06181173 29
-0.035987321 -1.2125407 -0.020301696 29
-0.036164038 -1.211365 0.31426027 27
-0.036683194 -1.2216066 0.2731089 27
-0.037014201 -1.2255002 0.23067155 27
-0.037150647 -1.2229445 0.18751447 27
-0.037238002 -1.218811 0.14502451 26
-0.038195997 -1.2430589 0.10545845 25
-0.038041271 -1.2310246 0.062541462 30
-0.037524916 -1.2074888 0.020419315 30
-0.039778892 -1.2450219 -0.32352394 24
-0.039396543 -1.2263489 -0.27444047 28
-0.039580796 -1.2254199 -0.23067172 27
-0.039871115 -1.2277671 -0.18850368 32
-0.040924195 -1.2534511 -0.14929011 27
-0.040145736 -1.2230629 -0.10371549 29
-0.040290441 -1.2209721 -0.06181173 27
-0.040219661 -1.2124077 -0.020301696 29
-0.040392272 -1.2112314 0.31426027 28
-0.040947173 -1.2214712 0.2731089 28
-0.04129177 -1.2253636 0.23067155 27
-0.041419294 -1.2228074 0.18751447 30
-0.04149222 -1.2186737 0.14502451 27
-0.042534851 -1.2429179 0.10545845 28
-0.042338122 -1.2308843 0.062541462 30
-0.04191234 -1.2123468 0.020506576 25
-0.044124585 -1.2448754 -0.32352394 26
-0.043677058 -1.2262039 -0.27444047 23
-0.04385807 -1.2252743 -0.23067172 25
-0.044156581 -1.2276204 -0.18850368 27
-0.04529931 -1.2533007 -0.14929011 27
-0.044233996 -1.2179376 -0.10327971 29
-0.044552185 -1.220824 -0.06181173 24
-0.0446347 -1.2172558 -0.020388085 27
-0.044442184 -1.2062564 0.31296703 28
-0.045210656 -1.2213207 0.2731089 26
-0.045568835 -1.225212 0.23067155 28
-0.045687433 -1.2226553 0.18751447 29
-0.045745932 -1.2185214 0.14502451 25
-0.04668545 -1.2377844 0.10502267 26
-0.046634451 -1.230729 0.062541462 29
-0.046334129 -1.2171887 0.020593839 27
-0.048469745 -1.2447139 -0.32352394 25
-0.04795704 -1.2260439 -0.27444047 27
-0.048134807 -1.2251137 -0.23067172 26
-0.048441507 -1.2274588 -0.18850368 30
-0.04967387 -1.2531348 -0.14929011 25
-0.048485123 -1.2177758 -0.10327971 24
-0.049012896 -1.2256502 -0.062072542 28
-0.048883442 -1.2170926 -0.020388085 35
-0.048652533 -1.2060939 0.31296703 26
-0.049276359 -1.2162874 0.27198499 26
-0.049845345 -1.2250454 0.23067155 27
-0.049955022 -1.2224884 0.18751447 27
-0.049999088 -1.2183543 0.14502451 30
-0.051005837 -1.2376139 0.10502267 22
-0.050930213 -1.2305588 0.062541462 31
-0.050582629 -1.2170196 0.020593839 36
-0.052814312 -1.2445371 -0.32352394 22
-0.052236442 -1.2258691 -0.27444047 23
-0.052410956 -1.2249383 -0.23067172 31
-0.052725844 -1.2272823 -0.18850368 28
-0.054047823 -1.2529539 -0.14929011 23
-0.052735653 -1.2175992 -0.10327971 28
-0.053073987 -1.2204832 -0.06181173 30
-0.053131592 -1.2169145 -0.020388085 47
-0.052862294 -1.2059168 0.31296703 27
-0.053521693 -1.216108 0.27198499 28
-0.054121248 -1.224864 0.23067155 26
-0.054221999 -1.2223066 0.18751447 29
-0.054251634 -1.2181723 0.14502451 29
-0.055325605 -1.2374283 0.10502267 32
-0.05522535 -1.2303735 0.062541462 31
-0.055055548 -1.2218297 0.0206811 81
-0.057158235 -1.2443452 -0.32352394 20
-0.056290798 -1.2208126 -0.27331567 25
-0.056686472 -1.2247479 -0.23067172 28
-0.05700954 -1.2270907 -0.18850368 26
-0.058189936 -1.2478002 -0.14868078 23
-0.056752648 -1.2124321 -0.10284393 30
-0.057333946 -1.2202905 -0.06181173 32
-0.057614587 -1.2217152 -0.020474477 55
-0.057071406 -1.2057248 0.31296703 27
-0.057766378 -1.2159138 0.27198499 27
-0.058396492 -1.2246677 0.23067155 28
-0.058488313 -1.2221098 0.18751447 27
-0.058503516 -1.2179755 0.14502451 27
-0.059404857 -1.2322525 0.10458688 28
-0.05951982 -1.2301732 0.062541462 36
-0.059320193 -1.22163 0.0206811 93
-0.061263006 -1.2393143 -0.32222986 28
-0.060551889 -1.2206086 -0.27331567 27
-0.060961295 -1.2245425 -0.23067172 25
-0.061292537 -1.2268842 -0.18850368 29
-0.062545218 -1.2475895 -0.14868078 28
-0.060984485 -1.2122266 -0.10284393 37
-0.061593201 -1.220083 -0.06181173 27
-0.061878815 -1.2215067 -0.020474477 79
-0.061279822 -1.2055182 0.31296703 30
-0.062010355 -1.2157047 0.27198499 28
-0.062671021 -1.2244563 0.23067155 29
-0.063007213 -1.2268304 0.18829578 26
-0.062754691 -1.2177639 0.14502451 23
-0.063705862 -1.2320377 0.10458688 32
-0.063813567 -1.2299579 0.062541462 37
-0.063584112 -1.2214155 0.0206811 104
-0.065588646 -1.2390928 -0.32222986 23
-0.064812243 -1.2203897 -0.27331567 25
-0.065496527 -1.2292236 -0.2316249 30
-0.065574788 -1.2266629 -0.18850368 30
-0.066899732 -1.2473636 -0.14868078 23
-0.065483198 -1.2169801 -0.10327971 34
-0.065582559 -1.2148746 -0.061550923 34
-0.066142291 -1.2212832 -0.020474477 74
-0.065487489 -1.205297 0.31296703 30
-0.065988414 -1.2106161 0.27086109 27
-0.066944793 -1.2242301 0.23067155 30
-0.06728927 -1.2266029 0.18829578 22
-0.067005098 -1.2175374 0.14502451 21
-0.068006083 -1.2318078 0.10458688 37
-0.067830414 -1.2247421 0.062279783 43
-0.067569949 -1.2161946 0.020593839 79
-0.069641374 -1.2340345 -0.32093576 21
-0.0690718 -1.2201561 -0.27331567 27
-0.069786929 -1.2289876 -0.2316249 23
-0.069856241 -1.2264265 -0.18850368 27
-0.071253441 -1.2471224 -0.14868078 28
-0.069730856 -1.2167441 -0.10327971 30
-0.069822863 -1.2146384 -0.061550923 32
-0.07011719 -1.2160541 -0.020388085 34
-0.069694363 -1.2050611 0.31296703 28
-0.070213847 -1.2103784 0.27086109 25
-0.071502849 -1.228889 0.23162474 30
-0.071570501 -1.2263606 0.18829578 25
-0.071254686 -1.2172961 0.14502451 28
-0.072305478 -1.231563 0.10458688 33
-0.072105147 -1.2244979 0.062279783 35
-0.071520098 -1.2109609 0.020506576 61
-0.07394854 -1.233784 -0.32093576 25
-0.073330514 -1.2199076 -0.27331567 24
-0.074076466 -1.2287364 -0.2316249 24
-0.074136846 -1.2261752 -0.18850368 29
-0.075305894 -1.2419124 -0.14807141 26
-0.073977657 -1.2164934 -0.10327971 28
-0.073758364 -1.2094034 -0.061290115 30
-0.074056387 -1.210812 -0.020301696 40
-0.073604695 -1.1999898 0.31167376 30
-0.07443843 -1.2101259 0.27086109 30
-0.075792037 -1.228632 0.23162474 28
-0.075850867 -1.2261033 0.18829578 27
-0.075196125 -1.2120868 0.14441516 28
-0.076603994 -1.231303 0.10458688 40
-0.076379001 -1.2242388 0.062279783 36
-0.075434536 -1.2057143 0.020419315 54
-0.078254789 -1.2335182 -0.32093576 22
-0.077279046 -1.2147822 -0.27219093 29
-0.07805264 -1.223572 -0.23067172 26
-0.078416534 -1.2259089 -0.18850368 26
-0.079958186 -1.2465947 -0.14868078 26
-0.078543253 -1.2211983 -0.10371549 26
-0.07797952 -1.2091385 -0.061290115 32
-0.077959843 -1.2055572 -0.020215306 38
-0.077792995 -1.1997255 0.31167376 28
-0.078662112 -1.2098587 0.27086109 28
-0.080080301 -1.2283599 0.23162474 27
-0.079808161 -1.2209029 0.18751447 31
-0.079426639 -1.211817 0.14441516 30
-0.080901586 -1.2310281 0.10458688 31
-0.080651924 -1.2239647 0.062279783 30
-0.079313233 -1.2004553 0.020332051 27
-0.082237497 -1.2284187 -0.31964168 24
-0.081518956 -1.214505 -0.27219093 25
-0.082323223 -1.2232921 -0.23067172 27
-0.082362831 -1.2207004 -0.18772151 27
-0.084309123 -1.2463078 -0.14868078 24
-0.082805559 -1.2209167 -0.10371549 27
-0.08219973 -1.208859 -0.061290115 30
-0.081827521 -1.2002901 -0.020128915 38
-0.081980348 -1.1994467 0.31167376 28
-0.083217889 -1.2144372 0.27198499 29
-0.084031187 -1.2231761 0.23067155 27
-0.084069416 -1.2206169 0.18751447 26
-0.083656184 -1.2115324 0.14441516 30
-0.085198179 -1.2307383 0.10458688 30
-0.084923871 -1.2236757 0.062279783 28
-0.08350312 -1.2001711 0.020332051 34
-0.086524978 -1.2281243 -0.31964168 26
-0.085757874 -1.214213 -0.27219093 26
-0.086246155 -1.2181014 -0.22971854 30
-0.086623363 -1.2204055 -0.18772151 30
-0.088306807 -1.2410557 -0.14807141 28
-0.086712457 -1.2156519 -0.10327971 26
-0.086418927 -1.2085646 -0.061290115 27
-0.086016819 -1.1999972 -0.020128915 32
-0.086166695 -1.1991532 0.31167376 27
-0.087456554 -1.2141395 0.27198499 28
-0.088300362 -1.2228752 0.23067155 28
-0.087973118 -1.2153903 0.18673316 24
-0.087884709 -1.2112329 0.14441516 22
-0.089493737 -1.2304333 0.10458688 38
-0.089194782 -1.2233719 0.062279783 28
-0.0873276 -1.1948863 0.02024479 26
-0.090811409 -1.2278147 -0.31964168 23
-0.089995742 -1.2139063 -0.27219093 27
-0.090133846 -1.212898 -0.22876534 26
-0.090882853 -1.2200958 -0.18772151 29
-0.093007877 -1.2456889 -0.14868078 24
-0.090955347 -1.2153419 -0.10327971 27
-0.09063708 -1.2082556 -0.061290115 26
-0.090205058 -1.1996895 -0.020128915 27
-0.089989021 -1.194029 0.31038052 27
-0.091694161 -1.2138268 0.27198499 22
-0.092197865 -1.2176653 0.22971837 25
-0.092215091 -1.2150759 0.18673316 27
-0.092112169 -1.2109188 0.14441516 28
-0.094166867 -1.2350799 0.10502267 23
-0.093464598 -1.223053 0.062279783 30
-0.09111619 -1.1895896 0.020157529 26
-0.095096722 -1.2274902 -0.31964168 20
-0.093855366 -1.2087276 -0.27106616 28
-0.094367109 -1.212576 -0.22876534 28
-0.095141225 -1.219771 -0.18772151 29
-0.097355574 -1.2453567 -0.14868078 26
-0.094808064 -1.2100513 -0.10284393 33
-0.094854124 -1.2079319 -0.061290115 28
-0.093999989 -1.1943836 -0.020042526 30
-0.094156414 -1.1937075 0.31038052 26
-0.095930643 -1.2134993 0.27198499 25
-0.096447751 -1.2173361 0.22971837 26
-0.096455932 -1.2147465 0.18673316 29
-0.096338503 -1.2105899 0.14441516 26
-0.098477527 -1.2347437 0.10502267 25
-0.097733282 -1.2227193 0.062279783 31
-0.095268086 -1.1892643 0.020157529 27
-0.099380888 -1.2271508 -0.31964168 25
-0.098074041 -1.2083925 -0.27106616 27
-0.09859921 -1.2122393 -0.22876534 26
-0.099398442 -1.2194314 -0.18772151 25
-0.10129803 -1.240063 -0.14807141 27
-0.099031352 -1.209713 -0.10284393 35
-0.09907002 -1.2075933 -0.061290115 23
-0.098168589 -1.1940482 -0.020042526 35
-0.098322652 -1.1933715 0.31038052 26
-0.09976507 -1.2083017 0.27086109 25
-0.10029171 -1.2121004 0.22876517 26
-0.1006956 -1.2144024 0.18673316 23
-0.10056367 -1.2102462 0.14441516 19
-0.10278699 -1.2343924 0.10502267 26
-0.10200077 -1.2223707 0.062279783 26
-0.099002235 -1.1839428 0.020070266 33
-0.10344972 -1.2268145 -0.31964168 25
-0.10186982 -1.2080785 -0.27106616 26
-0.10240708 -1.2119235 -0.22876534 27
-0.1032289 -1.2191132 -0.18772151 29
-0.10519329 -1.2397386 -0.14807141 28
-0.10240927 -1.2044327 -0.10240816 27
-0.10286329 -1.2072762 -0.061290115 28
-0.10191931 -1.1937339 -0.020042526 28
-0.10207124 -1.1930568 0.31038052 26
-0.10356056 -1.2079822 0.27086109 26
-0.10409914 -1.2117794 0.22876517 26
-0.10451026 -1.2140801 0.18673316 26
-0.10393877 -1.20498 0.14380582 26
-0.10666443 -1.2340634 0.10502267 31
-0.10540962 -1.2170697 0.062018104 29
-0.1027212 -1.1836258 0.020070266 28
-0.10751741 -1.2264647 -0.31964168 24
-0.10608619 -1.2077155 -0.27106616 25
-0.10663685 -1.2115587 -0.22876534 28
-0.10748377 -1.2187455 -0.18772151 29
-0.10952015 -1.2393638 -0.14807141 27
-0.10661291 -1.2040678 -0.10240816 28
-0.10707685 -1.2069098 -0.061290115 29
-0.10652826 -1.1983504 -0.020128915 30
-0.10623518 -1.1926932 0.31038052 27
-0.10734348 -1.2027606 0.26973718 27
-0.1083284 -1.2114086 0.22876517 28
-0.10874755 -1.2137079 0.18673316 26
-0.10814431 -1.2046099 0.14380582 28
-0.11097147 -1.2336836 0.10502267 34
-0.10965734 -1.2166944 0.062018104 30
-0.1068522 -1.1832601 0.020070266 29
-0.1120119 -1.2260624 -0.31964168 24
-0.11051197 -1.2073185 -0.27106616 26
-0.11107672 -1.2111596 -0.22876534 27
-0.1114981 -1.2134256 -0.18693933 29
-0.11406191 -1.2389541 -0.14807141 28
-0.11102533 -1.2036691 -0.10240816 28
-0.11149967 -1.2065092 -0.061290115 29
-0.11091971 -1.1979519 -0.020128915 30
-0.1106059 -1.1922958 0.31038052 27
-0.11175109 -1.2023591 0.26973718 29
-0.11276771 -1.2110033 0.22876517 27
-0.11319528 -1.2133012 0.18673316 28
-0.11209682 -1.199264 0.14319646 27
-0.11502798 -1.2283094 0.10458688 34
-0.11411601 -1.2162843 0.062018104 31
-0.11118834 -1.1828606 0.020070266 29
-0.11583479 -1.2208558 -0.31834757 24
-0.11472563 -1.2069255 -0.27106616 26
-0.11530378 -1.2107645 -0.22876534 27
-0.11573307 -1.213029 -0.18693933 29
-0.11838597 -1.2385484 -0.14807141 27
-0.11522624 -1.2032743 -0.10240816 30
-0.11571049 -1.2061126 -0.061290115 31
-0.11510067 -1.1975573 -0.020128915 30
-0.11476711 -1.1919025 0.31038052 27
-0.11594743 -1.2019616 0.26973718 28
-0.11699422 -1.2106024 0.22876517 27
-0.1174298 -1.2128986 0.18673316 26
-0.11628236 -1.1988655 0.14319646 26
-0.11931488 -1.2279003 0.10458688 34
-0.11836094 -1.2158786 0.062018104 31
-0.11531662 -1.1824652 0.020070266 27
-0.12030867 -1.2204231 -0.31834757 25
-0.11914846 -1.2064968 -0.27106616 27
-0.11974068 -1.2103338 -0.22876534 29
-0.12017827 -1.2125968 -0.18693933 30
-0.12243438 -1.2331678 -0.14746207 27
-0.11963568 -1.2028438 -0.10240816 29
-0.12013034 -1.2056805 -0.061290115 31
-0.11948916 -1.1971275 -0.020128915 31
-0.11913489 -1.1914738 0.31038052 27
-0.12035206 -1.2015287 0.26973718 28
-0.12143051 -1.2101655 0.22876517 28
-0.12187451 -1.2124602 0.18673316 26
-0.12067564 -1.1984313 0.14319646 27
-0.12381455 -1.2274548 0.10458688 31
-0.12281656 -1.2154366 0.062018104 31
-0.11964981 -1.1820346 0.020070266 28
-0.12456802 -1.2199957 -0.31834757 25
-0.12335919 -1.2060736 -0.27106616 27
-0.12396481 -1.2099085 -0.22876534 28
-0.12441029 -1.2121698 -0.18693933 29
-0.12673819 -1.2327329 -0.14746207 27
-0.12383366 -1.2024188 -0.10240816 28
-0.12382582 -1.200287 -0.061029304 32
-0.12418108 -1.2016759 -0.020215306 30
-0.12329318 -1.1910508 0.31038052 29
-0.12454545 -1.2011012 0.26973718 28
-0.12565404 -1.2097342 0.22876517 28
-0.12559497 -1.2071153 0.18595186 26
-0.12485821 -1.1980027 0.14319646 27
-0.12809841 -1.2270151 0.10458688 33
-0.12705849 -1.2150005 0.062018104 31
-0.12378179 -1.181609 0.020070266 31
-0.12861298 -1.219576 -0.31834757 24
-0.12714757 -1.2056801 -0.27106616 27
-0.12776522 -1.2095131 -0.22876534 27
-0.12821782 -1.2117729 -0.18693933 29
-0.1306103 -1.2323287 -0.14746207 27
-0.12761056 -1.2020239 -0.10240816 29
-0.12759602 -1.199892 -0.061029304 30
-0.12795565 -1.2012799 -0.020215306 30
-0.12703435 -1.1906575 0.31038052 30
-0.12831819 -1.200704 0.26973718 27
-0.1294539 -1.2093334 0.22876517 27
-0.12938662 -1.2067147 0.18595186 27
-0.12862122 -1.1976045 0.14319646 27
-0.13195257 -1.2266066 0.10458688 34
-0.13087489 -1.2145953 0.062018104 30
-0.12748666 -1.181215 0.020070266 28
-0.13265653 -1.2191428 -0.31834757 25
-0.1313554 -1.2052289 -0.27106616 27
-0.13198644 -1.2090597 -0.22876534 29
-0.13244691 -1.211318 -0.18693933 29
-0.13491113 -1.2318652 -0.14746207 29
-0.13126251 -1.1966199 -0.10197237 28
-0.13178365 -1.1994393 -0.061029304 31
-0.1321481 -1.2008259 -0.020215306 31
-0.13118975 -1.1902069 0.31038052 27
-0.13250865 -1.2002487 0.26973718 28
-0.13367447 -1.2088742 0.22876517 28
-0.13359804 -1.2062558 0.18595186 26
-0.13280086 -1.1971483 0.14319646 26
-0.13623342 -1.2261385 0.10458688 34
-0.13511382 -1.2141311 0.062018104 31
-0.1316091 -1.1807629 0.020070266 30
-0.13712403 -1.2186483 -0.31834757 24
-0.13522631 -1.1998982 -0.26994142 27
-0.13641697 -1.2085677 -0.22876534 29
-0.13633095 -1.2059172 -0.18615715 29
-0.13942525 -1.2313625 -0.14746207 27
-0.13564746 -1.1961308 -0.10197237 27
-0.13617893 -1.1989483 -0.061029304 31
-0.13654846 -1.2003335 -0.020215306 31
-0.1355512 -1.189718 0.31038052 28
-0.13635451 -1.1949143 0.26861328 28
-0.137547 -1.2034997 0.22781199 27
-0.1380183 -1.2057581 0.18595186 26
-0.13718773 -1.1966535 0.14319646 27
-0.14072652 -1.225631 0.10458688 34
-0.13899249 -1.2086672 0.061756425 32
-0.13593593 -1.1802726 0.020070266 30
-0.14137708 -1.2181623 -0.31834757 25
-0.13941392 -1.1994189 -0.26994142 25
-0.14063483 -1.2080842 -0.22876534 29
-0.14053956 -1.205434 -0.18615715 30
-0.14372265 -1.2308682 -0.14746207 28
-0.1398219 -1.19565 -0.10197237 28
-0.1403632 -1.1984656 -0.061029304 31
-0.14073758 -1.1998495 -0.020215306 30
-0.13913976 -1.1844407 0.30908728 30
-0.1405247 -1.1944312 0.26861328 28
-0.14174715 -1.2030122 0.22781199 27
-0.14222634 -1.2052689 0.18595186 27
-0.14078155 -1.191239 0.14258713 25
-0.14500391 -1.2251322 0.10458688 34
-0.14321066 -1.2081747 0.061756425 32
-0.14005502 -1.1797909 0.020070266 30
-0.14562839 -1.2176613 -0.31834757 25
-0.14359981 -1.1989249 -0.26994142 26
-0.14485097 -1.2075859 -0.22876534 28
-0.14474645 -1.2049361 -0.18615715 28
-0.14801832 -1.2303591 -0.14746207 27
-0.14399464 -1.1951545 -0.10197237 28
-0.14454578 -1.1979684 -0.061029304 31
-0.14492498 -1.199351 -0.020215306 31
-0.14327338 -1.1839478 0.30908728 27
-0.1446932 -1.1939332 0.26861328 27
-0.14594559 -1.2025101 0.22781199 28
-0.14643265 -1.2047651 0.18595186 26
-0.1449389 -1.1907402 0.14258713 26
-0.14927953 -1.2246187 0.10458688 33
-0.14742711 -1.2076674 0.061756425 32
-0.1441724 -1.1792948 0.020070266 31
-0.15046819 -1.2219391 -0.31964168 25
-0.14778398 -1.1984164 -0.26994142 25
-0.14906536 -1.207073 -0.22876534 28
-0.14955771 -1.2093247 -0.18693933 30
-0.15231216 -1.2298349 -0.14746207 28
-0.14816564 -1.1946447 -0.10197237 29
-0.14872658 -1.1974565 -0.061029304 31
-0.14911062 -1.1988378 -0.020215306 32
-0.14740525 -1.1834404 0.30908728 28
-0.14885992 -1.1934209 0.26861328 28
-0.15014224 -1.2019933 0.22781199 29
-0.15063716 -1.2042466 0.18595186 26
-0.14909448 -1.1902272 0.14258713 27
-0.15355335 -1.2240901 0.10458688 34
-0.15164176 -1.2071455 0.061756425 34
-0.14828803 -1.1787844 0.020070266 32
-0.15473264 -1.2214063 -0.31964168 26
-0.15196632 -1.1978931 -0.26994142 26
-0.15327792 -1.2065454 -0.22876534 29
-0.15377814 -1.2087952 -0.18693933 29
-0.15660416 -1.2292958 -0.14746207 28
-0.15233482 -1.1941202 -0.10197237 28
-0.15290558 -1.1969301 -0.061029304 32
-0.15329443 -1.1983099 -0.020215306 32
-0.15153533 -1.1829187 0.30908728 27
-0.15302484 -1.1928941 0.26861328 28
-0.15433706 -1.2014619 0.22781199 28
-0.15483986 -1.2037135 0.18595186 27
-0.15324824 -1.1896994 0.14258713 27
-0.15782529 -1.2235467 0.10458688 35
-0.15585457 -1.2066088 0.061756425 34
-0.15240185 -1.1782596 0.020070266 31
-0.15899518 -1.2208588 -0.31964168 25
-0.15614682 -1.1973555 -0.26994142 27
-0.15685305 -1.201136 -0.22781216 27
-0.15799667 -1.208251 -0.18693933 30
-0.16089424 -1.2287416 -0.14746207 28
-0.15650214 -1.1935812 -0.10197237 28
-0.15708271 -1.196389 -0.061029304 32
-0.15747637 -1.1977676 -0.020215306 34
-0.15566356 -1.1823826 0.30908728 29
-0.15718786 -1.1923527 0.26861328 28
-0.15853 -1.2009158 0.22781199 29
-0.15904064 -1.2031657 0.18595186 28
-0.15740013 -1.1891572 0.14258713 25
-0.16209529 -1.2229882 0.10458688 34
-0.16006546 -1.2060573 0.061756425 33
-0.15651381 -1.1777204 0.020070266 33
-0.16325583 -1.2202964 -0.31964168 27
-0.16032542 -1.1968031 -0.26994142 26
-0.16104485 -1.2005811 -0.22781216 27
-0.1622133 -1.2076923 -0.18693933 29
-0.16518238 -1.2281725 -0.14746207 29
-0.16066758 -1.1930276 -0.10197237 28
-0.16125792 -1.1958334 -0.061029304 33
-0.16165641 -1.1972106 -0.020215306 35
-0.1597899 -1.181832 0.30908728 28
-0.161349 -1.1917967 0.26861328 28
-0.16272102 -1.2003552 0.22781199 28
-0.16323951 -1.2026032 0.18595186 28
-0.1615501 -1.1886005 0.14258713 28
-0.16636333 -1.222415 0.10458688 33
-0.16427442 -1.2054913 0.061756425 35
-0.16062388 -1.1771669 0.020070266 34
-0.16751444 -1.2197191 -0.31964168 26
-0.16450207 -1.1962361 -0.26994142 27
-0.16523466 -1.2000116 -0.22781216 29
-0.16642794 -1.2071186 -0.18693933 29
-0.16946848 -1.2275884 -0.14746207 29
-0.16483104 -1.1924595 -0.10197237 29
-0.16474663 -1.1903172 -0.060768496 32
-0.16583447 -1.1966391 -0.020215306 35
-0.16391429 -1.181267 0.30908728 28
-0.16550817 -1.1912262 0.26861328 27
-0.16691005 -1.1997799 0.22781199 26
-0.16743639 -1.202026 0.18595186 26
-0.16569811 -1.1880294 0.14258713 27
-0.16994043 -1.2168937 0.10415111 35
-0.16848136 -1.2049105 0.061756425 35
-0.16473198 -1.176599 0.020070266 33
-0.17109722 -1.2143445 -0.31834757 26
-0.1686767 -1.1956546 -0.26994142 28
-0.16942249 -1.1994275 -0.22781216 27
-0.17064056 -1.2065303 -0.18693933 30
-0.17375253 -1.2269894 -0.14746207 29
-0.16899249 -1.1918769 -0.10197237 28
-0.16890061 -1.1897348 -0.060768496 31
-0.17001051 -1.1960528 -0.020215306 34
-0.16803668 -1.1806877 0.30908728 27
-0.16966532 -1.1906413 0.26861328 29
-0.17109704 -1.1991899 0.22781199 27
-0.17163122 -1.2014343 0.18595186 28
-0.16984409 -1.1874437 0.14258713 28
-0.17418715 -1.2162931 0.10415111 35
-0.17268626 -1.2043151 0.061756425 35
-0.16883807 -1.1760168 0.020070266 37
-0.17533503 -1.2137399 -0.31834757 28
-0.1728493 -1.1950586 -0.26994142 27
-0.17360824 -1.1988288 -0.22781216 28
-0.17485109 -1.2059273 -0.18693933 31
-0.17803448 -1.2263755 -0.14746207 29
-0.1731519 -1.1912798 -0.10197237 27
-0.17305252 -1.1891379 -0.060768496 35
-0.17418447 -1.1954521 -0.020215306 37
-0.17215703 -1.1800939 0.30908728 26
-0.17382039 -1.1900418 0.26861328 28
-0.17528197 -1.1985854 0.22781199 27
-0.17582397 -1.2008278 0.18595186 26
-0.17398801 -1.1868436 0.14258713 25
-0.17843175 -1.2156776 0.10415111 34
-0.17688905 -1.203705 0.061756425 36
-0.1729421 -1.1754203 0.020070266 39
-0.1795707 -1.2131205 -0.31834757 25
-0.17701977 -1.1944479 -0.26994142 26
-0.17779186 -1.1982156 -0.22781216 29
-0.1783338 -1.2004248 -0.18615715 29
-0.18231423 -1.2257465 -0.14746207 29
-0.17730919 -1.1906681 -0.10197237 29
-0.17720233 -1.1885266 -0.060768496 34
-0.17835632 -1.1948367 -0.020215306 38
-0.17627528 -1.1794858 0.30908728 28
-0.1772524 -1.1846094 0.26748937 28
-0.17946474 -1.1979662 0.22781199 26
-0.18001457 -1.2002068 0.18595186 27
-0.17812981 -1.1862291 0.14258713 27
-0.18267417 -1.2150474 0.10415111 34
-0.18108968 -1.2030802 0.061756425 36
-0.17704403 -1.1748095 0.020070266 46
-0.1838042 -1.2124863 -0.31834757 28
-0.18118809 -1.1938227 -0.26994142 27
-0.18197334 -1.1975876 -0.22781216 28
-0.18252298 -1.1997949 -0.18615715 28
-0.18659177 -1.2251027 -0.14746207 31
-0.1814643 -1.1900419 -0.10197237 28
-0.18134999 -1.1879009 -0.060768496 34
-0.18252599 -1.194207 -0.020215306 40
-0.18039137 -1.1788633 0.30908728 27
-0.18138637 -1.1839834 0.26748937 27
-0.18364534 -1.1973325 0.22781199 27
-0.18420298 -1.1995711 0.18595186 26
-0.18226945 -1.1856002 0.14258713 27
-0.18691435 -1.2144023 0.10415111 34
-0.18528812 -1.2024406 0.061756425 37
-0.18190601 -1.1791251 0.020157529 48
-0.18803543 -1.2118372 -0.31834757 26
-0.18535422 -1.1931831 -0.26994142 26
-0.18615259 -1.1969451 -0.22781216 28
-0.18670993 -1.1991506 -0.18615715 29
-0.19086704 -1.2244438 -0.14746207 31
-0.18561722 -1.1894011 -0.10197237 28
-0.18549544 -1.1872606 -0.060768496 33
-0.18669344 -1.1935625 -0.020215306 43
-0.18450528 -1.1782264 0.30908728 27
-0.18551813 -1.1833431 0.26748937 29
-0.18706261 -1.1918352 0.22685881 27
-0.18838914 -1.1989208 0.18595186 28
-0.18640685 -1.1849567 0.14258713 27
-0.19115226 -1.2137425 0.10415111 34
-0.18948428 -1.2017865 0.061756425 39
-0.18602082 -1.1784829 0.020157529 55
-0.19226439 -1.2111735 -0.31834757 26
-0.18951808 -1.1925287 -0.26994142 28
-0.19032957 -1.196288 -0.22781216 28
-0.19089462 -1.1984915 -0.18615715 29
-0.19513999 -1.2237701 -0.14746207 30
-0.18976787 -1.1887461 -0.10197237 29
-0.18963861 -1.1866059 -0.060768496 36
-0.1908586 -1.1929036 -0.020215306 49
-0.18861695 -1.1775751 0.30908728 27
-0.18964764 -1.1826882 0.26748937 30
-0.19122176 -1.191175 0.22685881 28
-0.192573 -1.1982559 0.18595186 27
-0.19054198 -1.1842988 0.14258713 26
-0.19538786 -1.2130679 0.10415111 35
-0.19367816 -1.2011179 0.061756425 38
-0.19093007 -1.1827618 0.02024479 61
-0.19649102 -1.210495 -0.31834757 26
-0.19367962 -1.19186 -0.26994142 27
-0.19450425 -1.1956164 -0.22781216 29
-0.19507696 -1.1978178 -0.18615715 29
-0.19861197 -1.2181834 -0.14685272 33
-0.19391623 -1.1880764 -0.10197237 26
-0.19458468 -1.1908646 -0.061029304 37
-0.19502145 -1.1922301 -0.020215306 55
-0.19272628 -1.1769096 0.30908728 28
-0.19377485 -1.1820191 0.26748937 29
-0.19537857 -1.1905001 0.22685881 28
-0.19675453 -1.1975764 0.18595186 27
-0.1946748 -1.1836264 0.14258713 26
-0.19962107 -1.2123784 0.10415111 35
-0.19786966 -1.2004344 0.061756425 40
-0.19505751 -1.182088 0.02024479 65
-0.20071521 -1.2098017 -0.31834757 24
-0.19783881 -1.1911765 -0.26994142 28
-0.19867653 -1.1949301 -0.22781216 29
-0.19925694 -1.1971296 -0.18615715 29
-0.20286302 -1.2174827 -0.14685272 34
-0.1980622 -1.1873922 -0.10197237 29
-0.19874039 -1.190178 -0.061029304 39
-0.19918194 -1.1915421 -0.020215306 58
-0.1968333 -1.1762297 0.30908728 27
-0.19789968 -1.1813354 0.26748937 27
-0.20034479 -1.1946517 0.22781199 28
-0.20011598 -1.1920118 0.18517055 28
-0.19798271 -1.1780454 0.14197777 26
-0.20385183 -1.2116742 0.10415111 35
-0.20205875 -1.1997365 0.061756425 43
-0.19918258 -1.1813999 0.02024479 65
-0.20472597 -1.2091295 -0.31834757 26
-0.20158002 -1.1905491 -0.26994142 26
-0.20242953 -1.1943001 -0.22781216 29
-0.20301685 -1.1964977 -0.18615715 29
-0.20668685 -1.2168393 -0.14685272 35
-0.20179152 -1.1867641 -0.10197237 28
-0.20164061 -1.1846255 -0.060768496 38
-0.20376402 -1.1958387 -0.020301696 63
-0.20052755 -1.1756055 0.30908728 26
-0.20160997 -1.1807079 0.26748937 27
-0.2040969 -1.1940163 0.22781199 28
-0.20385981 -1.1913773 0.18517055 27
-0.20168267 -1.1774176 0.14197777 27
-0.2076574 -1.2110279 0.10415111 37
-0.20582683 -1.1990957 0.061756425 46
-0.20373969 -1.1856955 0.020332051 74
-0.20873447 -1.2084439 -0.31834757 25
-0.20573458 -1.1898383 -0.26994142 27
-0.20659718 -1.1935861 -0.22781216 27
-0.20719217 -1.1957817 -0.18615715 29
-0.21093315 -1.2161105 -0.14685272 38
-0.20593287 -1.1860526 -0.10197237 28
-0.20662953 -1.1888338 -0.061029304 38
-0.20793705 -1.1951201 -0.020301696 79
-0.20462996 -1.1748984 0.30908728 30
-0.2057302 -1.179997 0.26748937 28
-0.20826356 -1.1932967 0.22781199 28
-0.20801726 -1.1906583 0.18517055 27
-0.2057914 -1.1767066 0.14197777 27
-0.21188341 -1.2102956 0.10415111 36
-0.2091493 -1.1934518 0.061494745 40
-0.20787731 -1.1849771 0.020332051 88
-0.21316223 -1.2076708 -0.31834757 26
-0.21009417 -1.1890763 -0.26994142 27
-0.21097051 -1.192821 -0.22781216 28
-0.21157354 -1.1950144 -0.18615715 30
-0.215389 -1.2153292 -0.14685272 46
-0.21027859 -1.1852899 -0.10197237 29
-0.21098544 -1.1880685 -0.061029304 38
-0.21231598 -1.19435 -0.020301696 81
-0.20893481 -1.1741405 0.30908728 28
-0.2100537 -1.1792351 0.26748937 27
-0.21263582 -1.1925254 0.22781199 30
-0.21237984 -1.189888 0.18517055 28
-0.21010286 -1.1759443 0.14197777 29
-0.21631795 -1.2095109 0.10415111 37
-0.21352214 -1.1926773 0.061494745 42
-0.21221907 -1.1842072 0.020332051 96
-0.2173765 -1.2069193 -0.31834757 26
-0.21424355 -1.1883357 -0.26994142 27
-0.21513294 -1.1920773 -0.22781216 27
-0.21574363 -1.1942685 -0.18615715 30
-0.21962997 -1.2145699 -0.14685272 43
-0.21441473 -1.1845485 -0.10197237 29
-0.21513127 -1.1873248 -0.061029304 41
-0.21648374 -1.1936016 -0.020301696 93
-0.21303205 -1.173404 0.30908728 28
-0.21416873 -1.1784947 0.26748937 30
-0.21679722 -1.1917758 0.22781199 27
-0.21653202 -1.1891394 0.18517055 26
-0.2142064 -1.1752038 0.14197777 28
-0.22053862 -1.2087485 0.10415111 35
-0.21768405 -1.1919247 0.061494745 40
-0.21545239 -1.1785414 0.02024479 98
-0.22158809 -1.2061532 -0.31834757 26
-0.2183903 -1.1875806 -0.26994142 27
-0.21929276 -1.191319 -0.22781216 29
-0.21991108 -1.1935081 -0.18615715 30
-0.22386828 -1.2137959 -0.14685272 51
-0.21854827 -1.1837929 -0.10197237 28
-0.21927451 -1.1865666 -0.061029304 37
-0.22064888 -1.1928387 -0.020301696 77
-0.2171267 -1.1726532 0.30908728 28
-0.21828115 -1.1777399 0.26748937 29
-0.22095597 -1.1910118 0.22781199 27
-0.22068158 -1.1883763 0.18517055 28
-0.21921428 -1.1793281 0.14258713 28
-0.2247566 -1.2079712 0.10415111 34
-0.22184332 -1.1911576 0.061494745 34
-0.21956496 -1.1777822 0.02024479 56
-0.225797 -1.2053723 -0.31834757 25
-0.22253439 -1.186811 -0.26994142 27
-0.2234499 -1.1905464 -0.22781216 27
-0.22407587 -1.1927332 -0.18615715 32
-0.22810385 -1.213007 -0.14685272 59
-0.22267915 -1.1830229 -0.10197237 29
-0.22341506 -1.185794 -0.061029304 33
-0.22388482 -1.1871486 -0.020215306 38
-0.22121869 -1.1718882 0.30908728 28
-0.22239089 -1.1769707 0.26748937 28
-0.22511202 -1.1902332 0.22781199 28
-0.22482844 -1.1875987 0.18517055 26
-0.22332956 -1.1785557 0.14258713 28
-0.22897182 -1.2071793 0.10415111 34
-0.22599988 -1.1903759 0.061494745 31
-0.22274151 -1.1720972 0.020157529 32
-0.23000318 -1.2045768 -0.31834757 26
-0.22667578 -1.1860269 -0.26994142 27
-0.22760433 -1.189759 -0.22781216 28
-0.22730917 -1.1870935 -0.18537499 30
-0.23233664 -1.2122034 -0.14685272 68
-0.22680731 -1.1822382 -0.10197237 29
-0.22755289 -1.1850069 -0.061029304 30
-0.22802739 -1.1863598 -0.020215306 32
-0.225308 -1.1711088 0.30908728 29
-0.22649793 -1.1761873 0.26748937 28
-0.22926535 -1.1894403 0.22781199 27
-0.22897257 -1.1868067 0.18517055 27
-0.22744212 -1.1777689 0.14258713 27
-0.23318426 -1.2063727 0.10415111 33
-0.23015368 -1.1895797 0.061494745 31
-0.22683153 -1.1713126 0.020157529 33
-0.23420653 -1.2037666 -0.31834757 26
-0.23081443 -1.1852285 -0.26994142 28
-0.23175597 -1.1889573 -0.22781216 29
-0.23145151 -1.1862929 -0.18537499 30
-0.2365666 -1.211385 -0.14685272 71
-0.23188823 -1.1863278 -0.10240816 30
-0.23168795 -1.1842053 -0.061029304 30
-0.23216717 -1.1855567 -0.020215306 32
-0.22939456 -1.1703153 0.30908728 28
-0.2306022 -1.1753895 0.26748937 29
-0.23341586 -1.1886327 0.22781199 27
-0.23406638 -1.1908461 0.18595186 28
-0.23155192 -1.176968 0.14258713 27
-0.23739387 -1.2055514 0.10415111 35
-0.2343047 -1.1887691 0.061494745 31
-0.23091879 -1.1705136 0.020157529 33
-0.23840703 -1.2029418 -0.31834757 26
-0.23400229 -1.1796368 -0.26881665 28
-0.2359048 -1.1881411 -0.22781216 29
-0.23559104 -1.1854777 -0.18537499 30
-0.24079369 -1.2105519 -0.14685272 74
-0.23602788 -1.1855111 -0.10240816 31
-0.23484436 -1.1784924 -0.060768496 32
-0.2363041 -1.184739 -0.020215306 30
-0.23347832 -1.1695074 0.30908728 29
-0.23470369 -1.1745774 0.26748937 28
-0.23756355 -1.1878107 0.22781199 28
-0.23822178 -1.1900219 0.18595186 28
-0.2356589 -1.1761525 0.14258713 26
-0.24258003 -1.2095991 0.10458688 35
-0.23845285 -1.1879441 0.061494745 29
-0.23500323 -1.1697004 0.020157529 37
-0.24260461 -1.2021022 -0.31834757 26
-0.23811854 -1.1788129 -0.26881665 27
-0.24005075 -1.1873105 -0.22781216 30
-0.23972769 -1.1846482 -0.18537499 30
-0.24501784 -1.2097039 -0.14685272 83
-0.24016464 -1.1846801 -0.10240816 30
-0.23895663 -1.1776656 -0.060768496 32
-0.24043819 -1.1839068 -0.020215306 36
-0.23755924 -1.1686852 0.30908728 29
-0.23880228 -1.173751 0.26748937 28
-0.24170832 -1.1869743 0.22781199 29
-0.24237427 -1.189183 0.18595186 26
-0.23976299 -1.1753227 0.14258713 27
-0.24680082 -1.208745 0.10458688 35
-0.24259809 -1.1871043 0.061494745 31
-0.23908482 -1.168873 0.020157529 39
-0.2465896 -1.2012911 -0.31834757 24
-0.24182072 -1.178059 -0.26881665 28
-0.24377961 -1.1865505 -0.22781216 29
-0.24344818 -1.1838892 -0.18537499 30
-0.24881703 -1.2089282 -0.14685272 87
-0.24388525 -1.1839197 -0.10240816 31
-0.24265519 -1.176909 -0.060768496 32
-0.24415635 -1.1831456 -0.020215306 37
-0.24122961 -1.1679332 0.30908728 28
-0.24248855 -1.172995 0.26748937 27
-0.24543613 -1.186209 0.22781199 28
-0.24610901 -1.1884158 0.18595186 26
-0.2434542 -1.1745636 0.14258713 28
-0.25059697 -1.2079637 0.10458688 36
-0.2463263 -1.1863364 0.061494745 31
-0.24275576 -1.1681161 0.020157529 54
-0.25057188 -1.2004668 -0.31834757 25
-0.24593145 -1.1772077 -0.26881665 27
-0.24791995 -1.1856923 -0.22781216 29
-0.24859083 -1.1878657 -0.18615715 31
-0.25303546 -1.2080524 -0.14685272 103
-0.24801642 -1.1830612 -0.10240816 32
-0.24676189 -1.1760548 -0.060768496 32
-0.24828482 -1.1822861 -0.020215306 38
-0.24530497 -1.167084 0.30908728 28
-0.24658158 -1.1721413 0.26748937 28
-0.24957527 -1.1853451 0.22781199 28
-0.25025585 -1.1875494 0.18595186 25
