# .PCD v0.7 - Point Cloud Data file format
VERSION 0.7
FIELDS x y z intensity
SIZE 4 4 4 4
TYPE F F F F
COUNT 1 1 1 1
WIDTH 1467
HEIGHT 1
VIEWPOINT 0 0 0 1 0 0 0
POINTS 1467
DATA ascii
2.0563681 1.4170052 -0.47754765 3
2.642493 1.8202128 -0.50215507 3
2.9949136 2.0621979 -0.44177687 11
2.9897559 2.0578775 -0.31419694 11
2.9768054 2.0481982 -0.18673925 18
2.9807384 2.0501375 -0.061855379 17
2.9527891 2.0301552 0.94924712 12
2.9666202 2.0389023 0.82157451 17
2.9605012 2.033936 0.6901083 15
2.978925 2.0458283 0.5656687 17
2.9650588 2.0355439 0.4369016 14
2.9803059 2.0452459 0.31288913 11
2.9796355 2.0440211 0.18736272 14
2.979466 2.0431402 0.062392347 58
1.5498424 1.0611995 -0.49305049 3
1.7641069 1.2079095 -0.48476982 3
2.0648599 1.4133103 -0.47850087 3
2.5992892 1.7784386 -0.49276894 3
3.0177624 2.0639856 -0.44421425 12
3.0085416 2.0569084 -0.31550428 12
2.9955931 2.0472884 -0.18752168 15
2.9995484 2.0492239 -0.062114555 14
2.9751065 2.031764 0.95442015 14
2.9850821 2.0378127 0.82494622 16
2.9790394 2.0329254 0.69296789 13
3.0016565 2.0475919 0.56879389 15
2.9837396 2.0346067 0.43872961 14
2.9990637 2.0442896 0.31419647 11
2.9984214 2.0430853 0.18814775 13
3.0023975 2.0450275 0.062741399 57
1.553353 1.0560542 -0.49305049 3
1.7763714 1.207221 -0.48701933 3
2.0657208 1.4033358 -0.47754765 3
2.5932252 1.7610315 -0.49042246 3
3.0372667 2.061801 -0.4460423 11
3.0321896 2.0575814 -0.31724739 12
3.0151174 2.0452282 -0.1883041 14
3.0232339 2.0499635 -0.062460113 13
2.9941745 2.0294964 0.95829988 12
3.0042777 2.0355792 0.82831794 14
2.9983091 2.0307717 0.69582742 12
3.021054 2.0454078 0.57113785 14
3.0072629 2.0353053 0.441167 14
3.0226834 2.0449727 0.31593958 11
3.0179431 2.040998 0.18893279 12
3.0219424 2.0429339 0.063003182 56
nan nan nan 0
1.7727052 1.195255 -0.48476982 3
2.0830607 1.4039849 -0.48040724 3
2.5750887 1.7349586 -0.48572943 3
3.057152 2.0589716 -0.44787034 11
3.0521064 2.0547991 -0.31855473 11
3.0350208 2.042527 -0.18908653 14
3.0431712 2.0472405 -0.062719285 13
3.0136168 2.0265942 0.96217966 11
3.0278919 2.0354264 0.83281356 14
3.0179541 2.0279815 0.69868702 12
3.0408292 2.0425825 0.5734818 14
3.0270631 2.0325692 0.44299504 13
3.0425653 2.042208 0.31724688 12
3.0378425 2.038269 0.18971784 11
3.0460174 2.0429831 0.063352227 56
1.5568569 1.042225 -0.49175641 3
1.7768667 1.1890599 -0.48476982 3
2.0797896 1.3912469 -0.47850087 3
2.5729187 1.720469 -0.48416507 3
3.0766981 2.0565612 -0.44969836 11
3.0716848 2.0524349 -0.31986207 11
3.0545888 2.0402405 -0.18986896 13
3.0669293 2.0477092 -0.063064843 12
3.0327244 2.024106 0.96605939 10
3.0471368 2.0329568 0.83618528 14
3.0372651 2.0256045 0.70154655 12
3.0602679 2.040174 0.57582569 13
3.0506585 2.0329988 0.44543242 13
3.066257 2.0426211 0.31899002 11
3.0574067 2.035955 0.19050287 11
3.0656149 2.0406485 0.063614018 55
nan nan nan 0
nan nan nan 0
2.0764549 1.3785493 -0.47659451 3
2.5706792 1.7060161 -0.48260072 3
3.1003997 2.0567827 -0.45213574 11
3.0954351 2.0527112 -0.32160518 12
3.0783389 2.0406008 -0.19091219 13
3.0865607 2.0452757 -0.063324012 14
3.051851 2.0215092 0.96993917 10
3.0664012 2.0303769 0.83955699 14
3.0606887 2.0258265 0.70535934 13
3.0838456 2.0403795 0.57895094 13
3.0701542 2.0305505 0.44726047 11
3.0858335 2.0401464 0.32029736 11
3.076992 2.033529 0.19128792 10
3.085233 2.0382018 0.063875802 58
nan nan nan 0
nan nan nan 0
nan nan nan 0
2.5724943 1.6943159 -0.48181856 3
3.1199958 2.0541348 -0.45396382 9
3.1150637 2.0501087 -0.32291251 11
3.0979578 2.0380759 -0.19169462 15
3.1103892 2.0454764 -0.063669577 11
3.0750322 2.021456 0.9751122 11
3.085685 2.0276875 0.84292871 13
3.080049 2.0232146 0.70821887 11
3.103334 2.0377347 0.58129489 15
3.0938189 2.030714 0.44969785 13
3.1054296 2.03756 0.32160467 13
3.0965972 2.0309913 0.19207294 10
3.1090517 2.0383844 0.064224847 53
nan nan nan 0
nan nan nan 0
nan nan nan 0
nan nan nan 0
3.1437647 2.0540895 -0.4564012 9
3.134712 2.047394 -0.32421988 15
3.1175959 2.0354385 -0.19247703 13
3.13007 2.0428035 -0.063928746 14
3.0942054 2.0186272 0.97899193 11
3.1049867 2.0248883 0.84630042 14
3.1035397 2.0231726 0.71203166 12
3.1228406 2.0349782 0.58363879 15
3.1133635 2.0280285 0.4515259 12
3.1250455 2.0348611 0.32291204 13
3.1204069 2.0310652 0.19311966 12
3.1287196 2.0356987 0.064486638 58
nan nan nan 0
nan nan nan 0
nan nan nan 0
nan nan nan 0
3.163408 2.0512033 -0.45822924 9
3.1543789 2.0445666 -0.32552719 13
3.1372533 2.0326891 -0.19325948 17
3.1539657 2.0427358 -0.064274311 11
3.11745 2.0183134 0.98416495 12
3.1243069 2.0219789 0.84967214 15
3.1229463 2.0203252 0.71489125 14
3.146513 2.0347922 0.58676404 14
3.1329269 2.0252309 0.45335394 16
3.14468 2.0320506 0.32421938 12
3.1400602 2.0282884 0.19390471 9
3.1484056 2.0329003 0.064748421 61
nan nan nan 0
nan nan nan 0
nan nan nan 0
nan nan nan 0
3.1830688 2.0482047 -0.46005729 10
3.1740642 2.0416272 -0.32683456 14
3.1569297 2.0298274 -0.19404191 16
3.1736934 2.0398228 -0.06453348 17
3.1407299 2.0178618 0.98933792 12
3.1477435 2.0215917 0.85416776 15
3.1465011 2.0200183 0.71870399 14
3.1660657 2.0317984 0.58910799 15
3.1525085 2.0223215 0.45518199 14
3.1643331 2.0291274 0.32552668 15
3.1639357 2.0280936 0.19495143 14
3.1681104 2.0299892 0.065010212 65
nan nan nan 0
nan nan nan 0
nan nan nan 0
nan nan nan 0
3.1985645 2.042423 -0.46127596 7
3.1937671 2.0385749 -0.32814187 14
3.1724148 2.0241666 -0.19456352 21
3.193439 2.0367973 -0.064792648 19
3.1640451 2.0172727 0.99451101 15
3.1671066 2.0184472 0.85753942 18
3.1700916 2.0195715 0.72251672 14
3.189801 2.0313454 0.59223324 17
3.1762943 2.021965 0.45761937 16
3.1882057 2.0287654 0.32726982 17
3.1878481 2.0277565 0.19599815 16
3.1920516 2.0296478 0.065359257 60
nan nan nan 0
nan nan nan 0
nan nan nan 0
nan nan nan 0
3.2224422 2.0418704 -0.46371335 4
3.2092791 2.0327449 -0.32901344 8
3.1963358 2.0237648 -0.19560675 17
3.2132022 2.0336585 -0.065051816 15
3.1873937 2.0165448 0.99968398 16
3.1906035 2.017796 0.86203504 22
3.193717 2.0189848 0.72632951 14
3.213572 2.0307512 0.59535849 14
3.2001159 2.0214667 0.46005675 16
3.2079031 2.0256026 0.32857716 14
3.2160187 2.029942 0.19730654 12
3.2160289 2.0291638 0.065708302 60
nan nan nan 0
nan nan nan 0
nan nan nan 0
nan nan nan 0
3.2463553 2.0411758 -0.46615076 9
3.229007 2.0294816 -0.33032078 6
3.2245204 2.0258765 -0.1969108 17
3.237216 2.0330651 -0.065397382 15
3.2107756 2.0156784 1.0048569 13
3.2141349 2.0170054 0.86653072 12
3.2173769 2.0182574 0.73014224 14
3.2373769 2.0300159 0.59848374 16
3.2239726 2.0208268 0.46249413 16
3.2318377 2.0249712 0.33032027 15
3.2400117 2.0293052 0.19835328 12
3.2400415 2.028537 0.066057354 61
nan nan nan 0
nan nan nan 0
nan nan nan 0
nan nan nan 0
3.274513 2.0429664 -0.46919748 6
3.2572036 2.0313771 -0.33249965 7
3.2527585 2.0278165 -0.19821484 17
3.2612641 2.0323288 -0.06574294 16
3.2341902 2.0146732 1.01003 14
3.2376993 2.0160749 0.87102634 12
3.2410703 2.0173893 0.73395497 15
3.2612159 2.0291393 0.60160893 16
3.2520773 2.0226657 0.46554089 16
3.2558067 2.0241973 0.33206338 15
3.2640388 2.0285256 0.19939999 11
3.2640891 2.0277672 0.066406399 60
nan nan nan 0
nan nan nan 0
nan nan nan 0
nan nan nan 0
3.306942 2.0471966 -0.47285357 4
3.2854526 2.0331001 -0.33467856 6
3.281049 2.0295835 -0.19951887 16
3.2853467 2.0314493 -0.066088498 15
3.2576365 2.0135291 1.015203 14
3.2612958 2.0150042 0.87552196 12
3.2689729 2.0189593 0.73872095 15
3.2850881 2.0281203 0.60473418 15
3.276011 2.0217268 0.46797827 16
3.2798097 2.0232806 0.33380648 16
3.2881002 2.0276029 0.20044671 12
3.2881701 2.0268538 0.066755451 59
nan nan nan 0
nan nan nan 0
nan nan nan 0
nan nan nan 0
3.3098392 2.0330434 -0.47224423 5
3.3137529 2.0346508 -0.33685747 15
3.3051362 2.0285659 -0.20056213 15
3.3094625 2.0304263 -0.066434063 14
3.2811141 2.0122457 1.020376 15
3.284924 2.0137935 0.88001758 13
3.2927406 2.0177946 0.74253368 15
3.3089929 2.0269594 0.60785943 18
3.2999775 2.0206454 0.47041565 16
3.3038456 2.0222211 0.33554959 16
3.3121943 2.0265365 0.20149343 12
3.3165491 2.0284054 0.067191757 63
nan nan nan 0
nan nan nan 0
nan nan nan 0
nan nan nan 0
3.3253913 2.0266428 -0.47346294 5
3.3378501 2.033437 -0.33860058 12
3.3335202 2.0300014 -0.20186616 16
3.3293409 2.02666 -0.066693231 17
3.3087485 2.0133336 1.0268424 15
3.3085837 2.0124421 0.8845132 13
3.3165395 2.0164881 0.74634641 15
3.3329289 2.0256565 0.61098468 16
3.3239763 2.0194211 0.47285303 17
3.327914 2.021018 0.33729273 15
3.3363214 2.0253267 0.20254014 10
3.3407052 2.0271902 0.06754081 59
nan nan nan 0
nan nan nan 0
nan nan nan 0
nan nan nan 0
3.3366919 2.0175905 -0.47407228 4
3.3662415 2.0346558 -0.34077948 12
3.3576808 2.0286815 -0.2029094 17
3.3535123 2.0253642 -0.067038789 16
3.3322952 2.0117564 1.0320153 14
3.3364449 2.0134671 0.89013267 12
3.3361669 2.0125051 0.74920601 15
3.3568962 2.0242109 0.61410993 16
3.3480062 2.0180535 0.47529042 16
3.3562803 2.0222423 0.33947161 14
3.3604796 2.0239732 0.20358686 13
3.3648927 2.0258307 0.067889854 60
nan nan nan 0
nan nan nan 0
nan nan nan 0
nan nan nan 0
3.3437142 2.0059309 -0.47407228 4
3.3904102 2.0331399 -0.34252259 12
3.3775899 2.0246503 -0.20369184 15
3.3777151 2.0239241 -0.067384355 15
3.355871 2.0100393 1.0371883 14
3.3601735 2.0118196 0.89462835 12
3.3600178 2.0109296 0.75301874 14
3.3851321 2.0251579 0.61801648 16
3.3720672 2.0165429 0.4777278 16
3.3804202 2.0207369 0.34121475 13
3.3846691 2.0224752 0.20463358 13
3.3934031 2.0268905 0.068326168 57
nan nan nan 0
1.8073661 1.0769792 -0.47689649 3
nan nan nan 0
nan nan nan 0
3.3506961 1.9942471 -0.47407228 5
3.4146094 2.0314796 -0.3442657 12
3.4018033 2.023057 -0.20473507 17
3.4019482 2.0223398 -0.067729913 15
3.3836274 2.0106494 1.0436546 15
3.3839307 2.0100305 0.89912397 13
3.3838987 2.0092127 0.75683153 14
3.409168 2.0234118 0.62114173 16
3.396158 2.0148888 0.48016518 16
3.4045901 2.0190878 0.34295785 13
3.4088888 2.020833 0.2056803 13
3.4176612 2.0252273 0.068675213 63
1.625079 0.96106935 -0.4956387 3
1.8404713 1.0880184 -0.48476982 2
2.1542082 1.2729807 -0.47850087 2
nan nan nan 0
3.3619103 1.9850621 -0.47468162 4
3.4388382 2.0296752 -0.34600884 12
3.4260461 2.0213192 -0.2057783 16
3.4305177 2.0231502 -0.068161868 16
3.407268 2.0086372 1.0488275 15
3.407716 2.0080998 0.90361959 12
3.4120369 2.0098441 0.76159745 15
3.4332328 2.0215223 0.62426692 17
3.4202785 2.0130906 0.48260257 17
3.4287896 2.0172944 0.34470096 14
3.4331381 2.0190465 0.20672701 13
3.4419487 2.0234194 0.069024265 63
1.6284238 0.95539093 -0.4956387 3
1.8274481 1.0717291 -0.4802708 3
nan nan nan 0
nan nan nan 0
3.373101 1.9758229 -0.47529095 4
3.4673936 2.0302429 -0.34818771 13
3.4503186 2.0194364 -0.20682155 17
3.4548192 2.0212612 -0.068507425 17
3.4309356 2.0064845 1.0540005 15
3.4315293 2.0060279 0.90811521 13
3.4359832 2.007827 0.76541018 15
3.4573259 2.0194893 0.62739217 17
3.4487128 2.0136511 0.48564932 17
3.45732 2.0178676 0.34687987 15
3.4574163 2.0171149 0.20777375 13
3.4705832 2.0239849 0.069460578 62
1.6317489 0.94970077 -0.4956387 3
1.8648664 1.0849427 -0.48926884 2
2.1503136 1.2505081 -0.47564128 2
2.5990202 1.5108451 -0.47008595 3
3.3842683 1.9665301 -0.47590032 4
3.491688 2.0281343 -0.34993085 12
3.4789374 2.0199161 -0.20812559 17
3.4791489 2.0192273 -0.068852983 17
3.4588072 2.0066144 1.0604669 15
3.4595838 2.006258 0.91373473 13
3.4642029 2.0081289 0.77017617 15
3.4814463 2.0173128 0.63051742 17
3.4728985 2.0115502 0.48808673 17
3.4815848 2.01577 0.34862298 14
3.4817226 2.0150385 0.20882046 13
3.4949362 2.0218716 0.069809623 63
1.6308714 0.94158435 -0.49434459 3
1.8559834 1.071121 -0.48589453 2
2.1716719 1.2528052 -0.47945404 2
2.6085563 1.5042306 -0.47086814 3
3.3954117 1.9571831 -0.47650966 4
3.5160093 2.0258806 -0.35167396 12
3.503274 2.0177281 -0.20916881 17
3.5035062 2.0170476 -0.069198549 16
3.4825354 2.0041649 1.0656399 15
3.4834588 2.0038872 0.91823035 12
3.4882116 2.0058112 0.7739889 15
3.5098751 2.0174534 0.63442397 17
3.4971111 2.0093045 0.49052411 17
3.5101962 2.0160081 0.35080189 14
3.5060563 2.0128167 0.20986716 14
3.5193164 2.0196128 0.070158668 61
1.6299572 0.93348563 -0.49305049 3
1.8554829 1.0622154 -0.48476982 2
2.1760318 1.2452171 -0.47945404 2
2.6395113 1.5098281 -0.47556117 2
3.4065311 1.9477823 -0.47711903 4
3.5446823 2.0259535 -0.35385287 12
3.5276377 2.0153949 -0.21021205 16
3.5322316 2.0172019 -0.069630496 17
3.5104825 2.0039687 1.0721061 15
3.5115902 2.0037889 0.92384988 15
3.5165095 2.0057821 0.77875489 15
3.5340569 2.0149739 0.63754922 17
3.5213501 2.0069146 0.4929615 18
3.534524 2.0136056 0.35254499 14
3.5347557 2.0129204 0.21117558 13
3.5437236 2.0172083 0.07050772 62
1.6290065 0.92540479 -0.49175641 3
1.854943 1.0533264 -0.48364502 3
2.1760967 1.2351907 -0.47850087 3
2.6404703 1.4981681 -0.47477898 3
3.4219429 1.9407761 -0.47833771 4
3.5690646 2.0233939 -0.35559598 12
3.5563722 2.015378 -0.2115161 17
3.5566506 2.0147157 -0.069976054 16
3.5342679 2.0012221 1.0772791 14
3.5355232 2.0011179 0.9283455 13
3.5448492 2.0055799 0.78352082 16
3.5625629 2.014781 0.64145583 17
3.5499346 2.0068214 0.49600819 17
3.5632131 2.0135074 0.35472384 14
3.5591502 2.0103922 0.21222229 14
3.5725095 2.0171158 0.070944034 63
1.6322268 0.91971284 -0.49175641 3
1.8586085 1.0468451 -0.48364502 2
2.1761179 1.2251792 -0.47754765 2
2.6413803 1.4865201 -0.47399682 3
3.4330215 1.9312526 -0.47894704 4
3.5978143 2.0231302 -0.35777488 12
3.5807965 2.0127382 -0.21255933 18
3.585454 2.0145328 -0.070408009 17
3.5622878 2.0006986 1.0837454 15
3.5637286 2.0006897 0.93396497 13
3.5689499 2.0028019 0.78733355 15
3.586803 2.0119975 0.64458102 17
3.5742333 2.0041265 0.49844557 17
3.5919454 2.0132341 0.35690275 15
3.5835707 2.0077183 0.21326901 14
3.596976 2.0144041 0.071293078 63
1.6396431 0.91636586 -0.49305049 3
1.8579983 1.0379748 -0.48252031 2
2.1760962 1.2151827 -0.47659451 3
2.646553 1.4772909 -0.47399682 3
3.4440761 1.9216754 -0.47955641 3
3.6222546 2.0202641 -0.35951799 12
3.6052451 2.0099523 -0.21360257 17
3.6055648 2.0093057 -0.070667177 18
3.5861273 1.9976532 1.0889184 15
3.5877168 1.9977185 0.93846059 13
3.5930743 1.9998802 0.79114634 15
3.6067507 2.0066679 0.64692497 17
3.5942187 1.9988741 0.50027364 17
3.6163647 2.0103641 0.35864586 15
3.6080153 2.0048983 0.21431573 14
3.6127262 2.0066907 0.071467601 65
1.6428319 0.91063684 -0.49305049 3
1.8573487 1.0291218 -0.48139551 3
2.1760306 1.2052011 -0.47564128 2
2.6516936 1.4680437 -0.47399682 3
3.4551053 1.9120446 -0.48016575 3
3.6467187 2.0172517 -0.36126113 15
3.6253486 2.0046041 -0.21438502 19
3.6256831 2.0039628 -0.070926353 24
3.6099885 1.9944657 1.0940914 15
3.6074634 1.9922489 0.94183236 13
3.6215181 1.999186 0.79591221 17
3.6310294 2.0036097 0.65005016 15
3.6185565 1.9959035 0.50271106 19
3.6364467 2.0049434 0.35995322 23
3.6324837 2.0019319 0.21536244 17
3.6372242 2.0037167 0.071816646 65
1.6502328 0.90722346 -0.49434459 3
1.8609297 1.0226321 -0.48139551 2
2.1802244 1.197598 -0.47564128 2
2.6568017 1.4587786 -0.47399682 3
3.4574077 1.8975847 -0.47955641 4
3.6755731 2.016489 -0.36344001 17
3.6454577 1.9991397 -0.21516743 24
3.6458073 1.9985036 -0.071185522 11
3.6338711 1.991136 1.0992644 21
3.6272147 1.9866656 0.94520408 14
3.6456959 1.9959607 0.79972494 23
3.6509981 1.9980354 0.65239412 9
3.6385627 1.9904051 0.50453907 24
3.6565337 1.9994067 0.36126056 13
3.6525943 1.9964246 0.2161475 12
3.6398091 1.9886115 0.071729392 46
1.6533896 0.90145749 -0.49434459 3
1.8644879 1.0161301 -0.48139551 3
2.1843915 1.1899804 -0.47564128 2
2.6618776 1.4494958 -0.47399682 3
3.4640107 1.8855045 -0.47955641 4
3.7000906 2.0131686 -0.36518314 10
3.6568007 1.9887882 -0.21542825 7
3.6615458 1.9905409 -0.071358308 6
3.6577744 1.9876636 1.1044375 12
3.6426899 1.9786432 0.94745183 9
3.6698947 1.9925909 0.80353767 7
3.6709716 1.9923462 0.65473807 7
3.6585751 1.9847915 0.50636709 8
3.6722476 1.9913795 0.3621321 8
3.6770997 1.99318 0.21719421 7
3.6774969 1.9925652 0.07234022 48
1.6565261 0.89568061 -0.49434459 3
1.8723096 1.011932 -0.48252031 2
2.1885321 1.1823481 -0.47564128 2
2.6712663 1.4425417 -0.47477898 3
3.4662039 1.8710439 -0.47894704 4
3.7333965 2.0144322 -0.36779779 8
3.6725097 1.9807518 -0.21594985 6
3.699275 1.9943541 -0.071963035 19
3.6774454 1.9817572 1.1083171 7
3.6753101 1.9797789 0.95419526 6
3.6941152 1.9890766 0.80735052 17
3.6952991 1.9888823 0.65786332 6
3.6742215 1.976711 0.50758582 7
3.6967237 1.9879851 0.36387521 8
3.6928308 1.9850608 0.21771757 8
3.7152562 1.9962797 0.072951056 41
1.6596426 0.88989282 -0.49434459 3
1.8801243 1.0076917 -0.48364502 2
2.1969726 1.1770196 -0.47659451 2
2.6762855 1.4332085 -0.47477898 3
3.4727139 1.8589332 -0.47894704 3
3.7623644 2.0131376 -0.3699767 8
3.7234318 1.9914697 -0.21855795 15
3.7326663 1.9955711 -0.072481371 9
3.7056396 1.9802905 1.1147834 9
3.7165778 1.9853021 0.9631865 17
3.7270138 1.9900407 0.81306958 9
3.7370737 1.994574 0.66411382 5
3.702992 1.9755534 0.51063251 6
3.7388015 1.9938196 0.36736143 6
3.7393932 1.9932971 0.22007269 5
3.7486739 1.9974041 0.073474631 40
1.6627387 0.88409412 -0.49434459 3
1.8879324 1.0034091 -0.48476982 3
2.2010677 1.1693435 -0.47659451 2
2.6812723 1.4238578 -0.47477898 3
3.4835653 1.8491267 -0.47955641 3
3.7957687 2.0139997 -0.37259138 8
3.7656498 1.9971766 -0.22064441 14
3.7705283 1.998921 -0.073086105 9
3.7338681 1.9786509 1.1212497 7
3.7536221 1.9882801 0.97105384 9
3.7556267 1.9885025 0.81783557 7
3.783298 2.0023084 0.67114562 6
3.7405722 1.9788603 0.51489794 12
3.7809644 1.9993843 0.3708477 14
3.7772293 1.9965656 0.22190444 15
3.7821445 1.9983193 0.073998198 41
1.6700869 0.88053721 -0.4956387 3
1.8957335 0.99908435 -0.48589453 3
2.2094784 1.1639408 -0.47754765 2
2.6862259 1.4144897 -0.47477898 2
3.4943902 1.839267 -0.48016575 3
3.824816 2.0123336 -0.37477025 8
3.8079529 2.0026131 -0.22273089 15
3.7996085 1.9973781 -0.07351806 10
3.7664051 1.9790848 1.1290091 7
3.7907331 1.9910241 0.97892123 9
3.7886195 1.9890704 0.82355464 8
3.8252482 2.0074492 0.67739606 2
3.7782202 1.9819286 0.51916337 10
3.8188 2.0023656 0.37389815 12
3.8195558 2.0019119 0.22399788 12
3.8112385 1.9967049 0.074434511 42
1.6731504 0.87470216 -0.4956387 3
1.8992093 0.99246091 -0.48589453 3
2.2135279 1.1562212 -0.47754765 2
2.6911471 1.4051044 -0.47477898 2
3.5051889 1.8293544 -0.48077509 3
3.8583143 2.0127933 -0.37738496 9
3.8414843 2.0031607 -0.22429574 11
3.8331563 1.9979671 -0.074036397 8
3.7947071 1.977084 1.1354754 8
3.8235867 1.9912822 0.98566461 10
3.8216619 1.989432 0.82927382 8
3.8848038 2.0214398 0.68677181 16
3.8115325 1.9824681 0.52281946 5
3.8522823 2.0028088 0.3765128 12
3.8531041 2.002382 0.22556797 12
3.8403673 1.9949117 0.074870817 42
1.6761934 0.86885643 -0.4956387 3
1.902662 0.98582542 -0.48589453 3
2.2175505 1.1484874 -0.47754765 2
2.6960354 1.395702 -0.47477898 2
3.5159605 1.8193884 -0.48138443 3
3.8874378 2.0107551 -0.37956384 9
3.8706305 2.0012052 -0.22559978 12
3.8623133 1.996051 -0.074468352 9
3.8273323 1.9771262 1.143235 9
3.8521593 1.9890997 0.99128413 10
3.8503911 1.9873357 0.83403975 8
3.8918362 2.0078671 0.68677181 17
3.8493044 1.9850736 0.52708489 14
3.8813868 2.0007608 0.3786917 13
3.8822634 2.000355 0.22687636 13
3.8695297 1.9929392 0.075307131 42
1.6792161 0.86300015 -0.4956387 3
1.9017582 0.97695166 -0.48476982 2
2.2171798 1.1384978 -0.47659451 2
2.700891 1.3862826 -0.47477898 2
3.52229 1.8071045 -0.48138443 3
3.9165938 2.0085378 -0.38174275 8
3.8998096 1.9990708 -0.22690383 11
3.8959527 1.9962351 -0.074986689 10
3.8557043 1.9747628 1.1497012 10
3.8807631 1.9867424 0.99690366 11
3.8791523 1.9850631 0.83880574 10
3.9164083 2.0032656 0.68989706 12
3.8827224 1.9851803 0.53074098 18
3.914959 2.0008004 0.38130638 13
3.9114552 1.9981487 0.22818477 13
3.8987241 1.9907873 0.075743437 40
1.6822183 0.85713333 -0.4956387 3
1.9051567 0.97030735 -0.48476982 3
2.2211404 1.1307515 -0.47659451 2
2.7057135 1.3768463 -0.47477898 2
3.5285766 1.7947983 -0.48138443 3
3.9457808 2.0061409 -0.38392162 9
3.9290204 1.9967567 -0.22820789 12
3.9251826 1.9939444 -0.075418636 11
3.888413 1.9744122 1.1574607 9
3.9093971 1.9842089 1.0025232 10
3.9079432 1.9826134 0.8435716 8
3.9409952 1.9985169 0.69302225 12
3.9117613 1.9828337 0.53378773 11
3.9441354 1.9983788 0.38348529 12
3.9406779 1.9957626 0.22949316 14
3.9279509 1.9884558 0.07617975 44
1.6808891 0.84907854 -0.49434459 3
1.9041831 0.96145535 -0.48364502 3
2.2206919 1.1207798 -0.47564128 2
2.7105031 1.3673933 -0.47477898 2
3.5348198 1.7824703 -0.48138443 3
3.9794474 2.0058072 -0.38653633 9
3.9582627 1.9942631 -0.22951193 12
3.9544442 1.9914737 -0.075850591 10
3.9168518 1.9716854 1.1639271 7
3.9380603 1.9814998 1.0081428 12
3.9367652 1.9799873 0.84833759 8
3.9655969 1.9936211 0.6961475 11
3.9452643 1.9825368 0.53744376 11
3.977793 1.9980131 0.38609993 12
3.9699318 1.993197 0.23080155 14
3.9572086 1.9859443 0.076616056 42
1.6838428 0.84320593 -0.49434459 3
1.9075278 0.95480263 -0.48364502 3
2.2289803 1.1152176 -0.47659451 2
2.7152596 1.3579234 -0.47477898 2
3.5365818 1.7679017 -0.48077509 3
4.0087032 2.0030363 -0.38871521 9
3.9875348 1.9915893 -0.23081596 11
3.9882088 1.9910562 -0.076368935 10
3.9496403 1.9709402 1.1716865 10
3.9667518 1.9786147 1.0137622 11
3.9656155 1.9771836 0.85310352 6
3.9946325 1.9907806 0.70005405 9
3.9743717 1.9798174 0.54049051 11
4.0070376 1.9952168 0.38827884 13
4.0036864 1.9926761 0.23237164 12
3.9864967 1.9832528 0.07705237 42
1.6867759 0.83732307 -0.49434459 3
1.910849 0.94813836 -0.48364502 2
2.2328596 1.1074302 -0.47659451 2
2.7199833 1.3484372 -0.47477898 3
3.5427313 1.755546 -0.48077509 2
4.0424509 2.0022957 -0.39132988 9
4.0213113 1.9909508 -0.23238082 11
4.0175371 1.9882092 -0.076800883 9
3.978142 1.9678489 1.1781528 9
3.9998386 1.9777128 1.0205057 10
3.9988945 1.9763774 0.8588227 7
4.0236964 1.9877615 0.70396066 8
4.0035071 1.9769187 0.54353726 10
4.0407772 1.9944452 0.39089352 11
4.0330062 1.9897344 0.23368002 11
4.0158138 1.9803809 0.077488683 41
1.6896884 0.83143002 -0.49434459 3
1.9141469 0.94146246 -0.48364502 2
2.2411163 1.1017947 -0.47754765 2
2.7246735 1.3389344 -0.47477898 2
3.5443833 1.7409809 -0.48016575 2
4.0717716 1.999149 -0.39350879 8
4.0506492 1.987901 -0.23368487 12
4.0513825 1.9873836 -0.077319227 9
4.0110064 1.9667089 1.1859124 7
4.0285921 1.9744594 1.0261252 10
4.0278077 1.9732033 0.86358857 9
4.0572224 1.9867352 0.70864844 9
4.037128 1.9760221 0.54719329 10
4.0700846 1.9912727 0.3930724 14
4.0668406 1.9888059 0.23525012 12
4.0496497 1.9795233 0.07801225 41
1.6925803 0.82552683 -0.49434459 3
1.9174216 0.93477511 -0.48364502 2
2.2493608 1.0961152 -0.47850087 2
2.7337704 1.3315779 -0.47556117 2
3.5459769 1.7264256 -0.47955641 2
4.1055975 1.9980013 -0.39612347 8
4.0845041 1.9868543 -0.23524971 11
4.0807757 1.9841599 -0.077751182 8
4.0395675 1.9632519 1.1923786 9
4.0617533 1.9731582 1.0328686 11
4.0611629 1.9719954 0.86930776 8
4.0907898 1.9854993 0.71333635 10
4.0663261 1.9727488 0.55024004 11
4.1039019 1.9900936 0.39568707 14
4.0962238 1.9854872 0.23655851 14
4.0835295 1.9784542 0.078535825 44
1.6911035 0.81751156 -0.49305049 3
1.9206729 0.92807633 -0.48364502 3
2.2531734 1.0882567 -0.47850087 2
2.7384019 1.3220272 -0.47556117 2
3.5475118 1.7118803 -0.47894704 2
4.1394653 1.9966416 -0.39873812 8
4.1139035 1.9834272 -0.23655376 11
4.1146975 1.9829249 -0.078269519 10
4.0725036 1.9617153 1.2001381 9
4.0905647 1.9695358 1.0384881 10
4.0945578 1.9705783 0.87502682 8
4.1243978 1.9840528 0.71802419 8
4.1000233 1.971446 0.55389619 10
4.1332703 1.9865446 0.39786598 12
4.1301336 1.9841497 0.23812859 12
4.1129436 1.9750081 0.078972138 41
1.6939467 0.81160355 -0.49305049 3
1.9239008 0.92136627 -0.48364502 2
2.2613857 1.0825044 -0.47945404 2
2.7429998 1.3124602 -0.47556117 2
3.5445118 1.6952045 -0.47772834 2
4.168879 1.9929215 -0.40091702 8
4.1478333 1.9819715 -0.23811863 11
4.1486611 1.9814777 -0.078787863 9
4.1054783 1.9599727 1.2078977 10
4.1237969 1.9678346 1.0452316 9
4.1235628 1.9668391 0.87979275 9
4.1580462 1.9823961 0.7227121 11
4.1337595 1.969932 0.55755222 11
4.167161 1.9849569 0.40048063 12
4.164084 1.9825996 0.23969868 12
4.1468973 1.9735287 0.079495706 41
1.6967694 0.80568564 -0.49305049 3
1.9271052 0.91464502 -0.48364502 3
2.2651503 1.074604 -0.47945404 2
2.7475646 1.3028774 -0.47556117 2
3.5369542 1.6764449 -0.47590032 2
4.2028184 1.9911529 -0.40353173 8
4.1772904 1.9781659 -0.23942265 11
4.1781459 1.9776783 -0.079219811 9
4.1384897 1.9580235 1.2156571 9
4.1570673 1.9659251 1.051975 6
4.1570282 1.9650189 0.88551193 9
4.1917319 1.9805281 0.72739989 11
4.1675358 1.9682062 0.56120831 10
4.2010899 1.9831563 0.4030953 12
4.1935577 1.9787058 0.24100707 11
4.1808906 1.9718367 0.08001928 39
1.6952016 0.7977016 -0.49175641 3
1.9302862 0.90791261 -0.48364502 2
2.2733297 1.068779 -0.48040724 2
2.7520957 1.2932787 -0.47556117 2
3.5293088 1.6577587 -0.47407228 2
4.2367954 1.9891711 -0.40614638 8
4.2112913 1.9763 -0.24098752 11
4.2121801 1.9758202 -0.079738148 8
4.1715379 1.9558676 1.2234167 10
4.1903739 1.9638072 1.0587184 5
4.1905308 1.9629887 0.891231 9
4.2254553 1.9784493 0.73208779 12
4.1968546 1.9641649 0.56425506 10
4.2350574 1.9811431 0.40570998 12
4.2275772 1.9767448 0.24257714 12
4.2149215 1.9699309 0.080542848 43
1.6979758 0.7917794 -0.49175641 3
1.9334437 0.90116912 -0.48364502 3
2.2725973 1.0587643 -0.47945404 2
2.7521164 1.2815795 -0.47477898 2
3.517077 1.6370522 -0.47163489 2
4.2708101 1.9869766 -0.40876108 8
4.2453294 1.9742206 -0.24255238 11
4.2462521 1.9737483 -0.080256492 10
4.2090011 1.9555401 1.2324693 6
4.2237158 1.9614805 1.0654619 21
4.2196174 1.9586819 0.89599699 9
4.2592144 1.9761587 0.73677564 11
4.2306976 1.9620306 0.56791109 10
4.2690616 1.978917 0.40832466 12
4.2616348 1.9745706 0.24414723 11
4.248991 1.9678116 0.081066422 42
1.696345 0.7838217 -0.4904623 3
1.9365776 0.89441466 -0.48364502 3
2.2762792 1.050825 -0.47945404 3
2.7565734 1.271965 -0.47477898 2
3.5317831 1.6289223 -0.47285357 2
4.3048606 1.9845687 -0.41137573 8
4.2794046 1.9719276 -0.24411722 11
4.2849007 1.9735538 -0.080861226 9
4.2465119 1.9549743 1.2415221 17
4.257093 1.958945 1.0722053 16
4.2531848 1.956247 0.90171617 9
4.2930093 1.9736568 0.74146348 12
4.2645779 1.9596841 0.57156724 10
4.3031011 1.9764769 0.41093931 11
4.2957282 1.9721825 0.24571729 11
4.2876391 1.9675629 0.081677258 42
1.6990707 0.77789563 -0.4904623 3
1.9396878 0.8876493 -0.48364502 2
2.27547 1.0408312 -0.47850087 2
2.7609963 1.2623351 -0.47477898 2
3.5419614 1.618647 -0.47346294 2
4.3434768 1.9840164 -0.41442621 8
4.3135147 1.9694207 -0.24568209 11
4.3190522 1.971038 -0.08137957 9
4.2840705 1.9541703 1.2505749 15
4.290503 1.9562 1.0789487 12
4.2867851 1.9536012 0.90743524 8
4.3268385 1.9709426 0.74615139 12
4.298492 1.9571245 0.57522327 10
4.3371758 1.9738237 0.41355398 12
4.3298564 1.9695805 0.24728738 12
4.3217874 1.9649997 0.082200833 40
1.701641 0.77225703 -0.4904623 3
1.9380306 0.87953788 -0.48252031 2
2.2787285 1.0336775 -0.47850087 2
2.7694461 1.2556942 -0.47556117 2
3.5560694 1.6116087 -0.47468162 2
4.3769112 1.982693 -0.41704085 7
4.346972 1.9682167 -0.24724692 11
4.3571048 1.9718883 -0.081984296 9
4.3165917 1.9526455 1.2583344 10
4.3232636 1.9547548 1.0856922 10
4.3197379 1.9522527 0.91315442 6
4.360013 1.9695381 0.75083923 11
4.3317575 1.9558643 0.57887936 10
4.3705955 1.972482 0.41616869 13
4.3678827 1.9703401 0.24911913 11
4.3552833 1.9637417 0.0827244 41
1.7041925 0.76660991 -0.4904623 3
1.9455323 0.87476534 -0.48364502 2
2.2778459 1.0237049 -0.47754765 2
2.7738125 1.2460194 -0.47556117 2
3.5616734 1.5991858 -0.47468162 2
4.4110713 1.9796393 -0.41965556 6
4.3857069 1.9673365 -0.24907261 11
4.3913317 1.9689391 -0.082502641 8
4.3542337 1.9513929 1.2673873 14
4.3567386 1.9516022 1.0924356 9
4.3578844 1.9512026 0.91982669 8
4.393908 1.9664111 0.75552714 9
4.3657389 1.9528903 0.58253539 9
4.404737 1.9694123 0.41878334 12
4.4020858 1.9673051 0.25068924 10
4.3894987 1.9607608 0.083247975 43
1.7115357 0.762025 -0.49175641 2
1.9444257 0.86530781 -0.48252031 2
2.2862446 1.0169458 -0.47850087 2
2.7785764 1.2353595 -0.47556117 2
3.5587173 1.5814676 -0.47346294 2
4.4459524 1.9748192 -0.42227021 4
4.4206104 1.962639 -0.25063744 11
4.4262767 1.9642298 -0.083020978 10
4.3881845 1.9464091 1.2751467 15
4.3953781 1.948682 1.1003029 13
4.3922691 1.9463866 0.92554587 8
4.4285188 1.9615253 0.76021492 8
4.4004331 1.9481668 0.58619153 8
4.4441509 1.966594 0.42183378 11
4.4415722 1.9645259 0.25252098 14
4.4290013 1.9580417 0.08385881 39
1.7141851 0.756046 -0.49175641 3
1.9474344 0.85851526 -0.48252031 2
2.2897804 1.0089592 -0.47850087 3
2.7828717 1.2256529 -0.47556117 2
3.5596738 1.5670362 -0.47285357 2
4.5075283 1.9833606 -0.42749956 5
4.4594293 1.9612676 -0.2524631 10
4.4651418 1.9628501 -0.083625704 9
4.4214835 1.9427373 1.2829063 14
4.4289179 1.9450818 1.1070464 13
4.4304972 1.9448528 0.93221813 7
4.4669957 1.959945 0.76568419 7
4.4390206 1.9467468 0.5904569 8
4.4783602 1.9630673 0.42444846 11
4.475843 1.9610327 0.25409105 11
4.4632883 1.9545964 0.084382385 40
1.7211081 0.75229168 -0.49305049 3
1.9501219 0.85239297 -0.48252031 2
2.2974367 1.0037256 -0.47945404 3
2.7867086 1.2169043 -0.47556117 2
3.5554824 1.5518749 -0.47163489 2
4.568522 1.9930909 -0.43272892 3
4.4930305 1.9592232 -0.25402796 10
4.4987841 1.9607977 -0.084144048 9
4.4585605 1.9423401 1.2919589 12
4.4662752 1.9447739 1.1149137 13
4.4680886 1.9446357 0.93889046 8
4.5048313 1.959692 0.77115333 9
4.4724216 1.9446651 0.59411305 8
4.5164824 1.962886 0.42749891 12
4.51404 1.9608878 0.25592282 11
4.5015039 1.9545083 0.084993213 40
1.7235934 0.74658018 -0.49305049 3
1.9530854 0.84558058 -0.48252031 2
2.3054309 0.99764937 -0.48040724 3
2.7909393 1.2071694 -0.47556117 2
3.5608778 1.5394545 -0.47163489 2
4.6074581 1.9909624 -0.43577939 3
4.5319295 1.9573864 -0.25585362 11
4.5377293 1.9589518 -0.084748782 9
4.4919209 1.9382461 1.2997185 11
4.4998789 1.9407483 1.1216571 13
4.5018935 1.9406855 0.94460958 8
4.538857 1.9556805 0.77584112 8
4.5110879 1.9427822 0.59837842 9
4.5507574 1.958925 0.43011358 12
4.548377 1.9569594 0.2574929 11
4.5404463 1.9526082 0.085604049 41
1.7263181 0.74025786 -0.49305049 3
1.9606494 0.84033573 -0.48364502 2
2.309072 0.98919284 -0.48040724 2
2.7953451 1.1969321 -0.47556117 2
3.5664964 1.5263928 -0.47163489 2
4.6650996 1.995611 -0.44057295 9
4.5666203 1.9525412 -0.25741848 11
4.5724611 1.9540948 -0.085267127 9
4.5300856 1.9350502 1.3087713 13
4.5383272 1.937634 1.1295245 13
4.5405774 1.9376578 0.95128191 8
4.5777931 1.952595 0.78131032 12
4.5455699 1.9379129 0.60203457 8
4.5854001 1.9539481 0.43272823 12
4.5830817 1.9520152 0.25906298 11
4.5751715 1.9477028 0.086127624 43
1.7288916 0.73422736 -0.49305049 3
1.9635708 0.83348662 -0.48364502 2
2.3170292 0.98304373 -0.48136041 2
2.7995059 1.1871672 -0.47556117 2
3.5718026 1.5139341 -0.47163489 2
4.6628647 1.9754287 -0.43970141 29
4.6055937 1.9502176 -0.25924414 12
4.6114812 1.9517617 -0.085871853 13
4.5635018 1.9305159 1.3165307 14
4.5719876 1.9331648 1.1362679 11
4.57444 1.9332608 0.95700109 8
4.611877 1.9481338 0.78599817 16
4.5843101 1.9355462 0.60629994 10
4.6197281 1.94955 0.43534294 15
4.6128712 1.945708 0.26037139 14
4.6141887 1.9453152 0.086738452 69
1.7314439 0.72818792 -0.49305049 3
1.9709593 0.82851529 -0.48476982 2
2.3204467 0.97494984 -0.48136041 2
2.803633 1.1773878 -0.47556117 2
3.5816414 1.5033778 -0.47224423 2
4.6835108 1.964921 -0.44100875 16
4.6400013 1.9457148 -0.260809 18
4.6505408 1.9491801 -0.086476594 13
4.5969415 1.9257716 1.3242903 11
4.6056719 1.9284842 1.1430113 12
4.612855 1.9305458 0.96367335 13
4.6459856 1.9434584 0.79068607 13
4.6185102 1.9310184 0.60995609 16
4.6494837 1.9430152 0.43752185 20
4.6472793 1.9411411 0.26194146 18
4.6532445 1.9426792 0.087349296 46
1.7339753 0.7221396 -0.49305049 3
1.9783372 0.82350254 -0.48589453 2
2.3238356 0.96684402 -0.48136041 3
2.8077259 1.1675941 -0.47556117 2
3.5868676 1.4908664 -0.47224423 2
4.7041407 1.9542936 -0.44231606 14
4.6744332 1.9409952 -0.26237383 8
4.6942558 1.9482657 -0.08716771 15
4.6259422 1.9189669 1.3307565 17
4.6393785 1.9235917 1.1497548 15
4.6513062 1.927586 0.97034562 11
4.6846795 1.9404584 0.79615521 12
4.6527348 1.9262753 0.61361212 12
4.6792507 1.9362963 0.43970072 11
4.672483 1.932541 0.26298818 10
4.6969576 1.9417037 0.088047385 51
1.7320207 0.71424133 -0.49175641 3
1.9811997 0.81659186 -0.48589453 2
2.3271964 0.95872635 -0.48136041 2
2.8117843 1.1577863 -0.47556117 2
3.5874603 1.4764479 -0.47163489 2
4.7477851 1.95302 -0.4458023 11
4.7181249 1.9398564 -0.26446033 11
4.7380199 1.9470695 -0.087858833 17
4.6504831 1.9101479 1.3359296 8
4.6821208 1.9221879 1.158746 12
4.6897926 1.9243811 0.977018 13
4.7279782 1.9390858 0.80240571 14
4.6915727 1.9231985 0.61787754 14
4.7274628 1.936947 0.44362271 13
4.7254071 1.9351416 0.26560497 13
4.7453461 1.9423399 0.088832736 58
1.7345033 0.7081911 -0.49175641 3
1.9885488 0.81151199 -0.48701933 2
2.330529 0.95059717 -0.48136041 2
2.8158088 1.1479642 -0.47556117 2
3.5925922 1.4639164 -0.47163489 2
4.7868652 1.949587 -0.44885278 10
4.7618651 1.938436 -0.26654679 14
4.7818332 1.9455917 -0.088549957 13
4.6973891 1.9102783 1.3475689 11
4.7249093 1.920509 1.1677371 15
4.7374077 1.9246256 0.98559672 15
4.7713237 1.9374344 0.80865616 16
4.7350454 1.9217405 0.62275231 18
4.7757354 1.9372844 0.44754472 16
4.7737784 1.9355202 0.26796007 16
4.7891641 1.9407848 0.089530841 59
1.7369648 0.70213223 -0.49175641 3
1.9868523 0.80274075 -0.48589453 2
2.3247304 0.93878043 -0.47945404 2
2.8197987 1.1381283 -0.47556117 2
3.5976806 1.451367 -0.47163489 2
4.8259788 1.9459046 -0.45190322 10
4.8056531 1.936734 -0.26863328 15
4.8256927 1.9438311 -0.089241073 14
4.7533126 1.9137118 1.3617946 14
4.7677431 1.9185547 1.1767284 18
4.7805271 1.9227295 0.99322224 16
4.8192973 1.9373459 0.81568795 16
4.7785645 1.9200025 0.62762713 14
4.8194466 1.9354519 0.45103094 15
4.8222098 1.9355843 0.2703152 15
4.8376665 1.9408082 0.090316191 59
1.7394052 0.69606483 -0.49175641 3
1.9896421 0.79580045 -0.48589453 2
2.3234355 0.9288379 -0.47850087 2
2.8283401 1.1301107 -0.4763433 2
3.6073337 1.4406407 -0.47224423 2
4.8651233 1.9419726 -0.45495367 10
4.8541231 1.9365994 -0.27098054 15
4.8695979 1.9417882 -0.089932196 14
4.800343 1.9132013 1.3734338 15
4.8151464 1.9181274 1.1868436 13
4.8236909 1.9205557 1.0008477 17
4.8627396 1.9351199 0.82193846 15
4.8267388 1.9198177 0.63311118 13
4.8678308 1.9351778 0.45495296 15
4.8660593 1.9334902 0.27240863 15
4.8815818 1.9386714 0.091014288 57
1.7418242 0.68998891 -0.49175641 3
1.9878782 0.78705698 -0.48476982 2
2.2992802 0.90988559 -0.47278175 2
2.8322678 1.120231 -0.4763433 2
3.6077251 1.4262153 -0.47163489 2
4.8950353 1.9341303 -0.45713258 8
4.8980069 1.9343162 -0.27306703 14
4.913547 1.9394621 -0.090623319 13
4.8519206 1.9141582 1.3863664 15
4.8580718 1.9156054 1.1958348 13
4.8714633 1.9199034 1.0094265 17
4.9062243 1.9326138 0.8281889 16
4.8749709 1.91932 0.63859534 13
4.9116364 1.9327655 0.4584392 15
4.9099517 1.931113 0.27450207 15
4.9255414 1.9362519 0.091712393 55
1.7487184 0.68566763 -0.49305049 3
1.9860775 0.77833557 -0.48364502 2
2.3207231 0.90901464 -0.47659451 2
2.8361609 1.1103377 -0.4763433 2
3.6404107 1.4244635 -0.47529095 2
4.9295902 1.9279171 -0.45974725 6
4.9419336 1.9317502 -0.27515352 13
4.9575391 1.9368527 -0.091314435 13
4.8990641 1.9130217 1.3980056 15
4.9055767 1.9145782 1.20595 12
4.9147172 1.9171572 1.0170519 16
4.9543514 1.9316217 0.83522075 15
4.9186335 1.9167067 0.64347011 13
4.9554844 1.9300706 0.46192542 14
4.953887 1.928453 0.2765955 14
4.969542 1.9335486 0.09241049 57
1.7556037 0.68130654 -0.49434459 3
1.9887823 0.77139813 -0.48364502 2
2.3330348 0.9044565 -0.47850087 2
2.8400192 1.100431 -0.4763433 2
3.6129665 1.3992019 -0.47102556 2
4.9595151 1.9196876 -0.46192613 5
4.9905577 1.9307019 -0.27750078 14
5.0015721 1.9339595 -0.092005558 12
4.9417529 1.9098377 1.4083517 14
4.9485879 1.9114867 1.2149411 13
4.9625897 1.9158999 1.0256306 16
4.9979234 1.9285389 0.8414712 16
4.9623356 1.9138118 0.64834487 13
4.9993715 1.927093 0.46541163 15
4.9978628 1.9255097 0.27868894 14
5.0135832 1.9305614 0.093108587 57
1.7579712 0.67517418 -0.49434459 3
1.9960111 0.7661972 -0.48476982 2
2.3499255 0.90158176 -0.48136041 2
2.8438432 1.0905108 -0.4763433 2
3.6502666 1.3990141 -0.47529095 2
4.9940944 1.9130548 -0.46454084 7
5.0345716 1.9275526 -0.27958724 14
5.0456452 1.9307826 -0.092696682 14
4.9844785 1.906379 1.4186976 15
4.9961882 1.909858 1.2250564 12
5.005928 1.9125799 1.0332562 16
5.0461478 1.9269372 0.84850299 16
5.0060782 1.9106351 0.65321964 12
5.0479531 1.9256078 0.46933365 15
5.0465436 1.9240613 0.28104407 15
5.062336 1.9290705 0.093893945 56
1.7648318 0.67074949 -0.4956387 3
1.9986736 0.75922519 -0.48476982 2
2.3530583 0.89337349 -0.48136041 3
2.8476324 1.0805773 -0.4763433 2
nan nan nan 0
5.028687 1.9062035 -0.46715549 8
5.0832934 1.9258884 -0.28193453 13
5.0944319 1.9290916 -0.093474194 14
5.0317574 1.9043547 1.430337 16
5.0392799 1.9061964 1.2340477 13
5.0538931 1.9107159 1.0418347 16
5.0851812 1.9215307 0.85397214 16
5.0545015 1.9089296 0.65870374 13
5.0919242 1.9220476 0.47281989 16
5.0952754 1.9222965 0.28339919 14
5.1064606 1.9254985 0.094592042 57
1.7671624 0.66458499 -0.4956387 3
2.0058718 0.75395799 -0.48589453 2
2.3515677 0.88342816 -0.48040724 3
2.8560104 1.0723666 -0.4771255 2
3.6692371 1.376984 -0.47650966 2
5.0493011 1.8938862 -0.46846285 8
5.1367397 1.92566 -0.28454262 13
5.1432676 1.9270835 -0.094251707 13
5.0745587 1.9003297 1.4406829 15
5.0869694 1.9039648 1.2441628 13
5.1019063 1.9085404 1.0504135 16
5.1242394 1.9158753 0.8594414 21
5.0983238 1.9051716 0.66357851 12
5.1405978 1.9199466 0.47674191 15
5.1440544 1.9202147 0.28575432 14
5.1599894 1.9251368 0.095464654 57
1.7695863 0.65810353 -0.4956387 3
2.0086217 0.74660099 -0.48589453 2
2.3501887 0.87309396 -0.47945404 3
2.8645513 1.0636104 -0.47790766 2
3.6649542 1.360073 -0.47529095 2
5.0655494 1.8788314 -0.46933439 7
5.1765361 1.9189689 -0.28636828 14
5.2112379 1.9307988 -0.095374778 19
5.1222534 1.8968126 1.4523222 15
5.1304665 1.898836 1.253154 13
5.1456947 1.9034512 1.0580389 16
5.1590195 1.9073564 0.86412919 9
5.1471682 1.9019538 0.66906267 13
5.1896529 1.9166231 0.48066393 16
5.1979003 1.9186382 0.28837109 17
5.2279835 1.9287057 0.096599065 75
1.7718728 0.65192252 -0.4956387 3
2.0157881 0.74126655 -0.48701933 2
2.3486152 0.86319172 -0.47850087 2
2.8682466 1.0536048 -0.47790766 2
3.6789968 1.3506924 -0.47650966 2
5.081429 1.8645695 -0.47020596 7
5.2347698 1.9197996 -0.2892372 25
5.255497 1.9263604 -0.096065901 36
5.1741943 1.8955353 1.4652548 14
5.1873889 1.8993422 1.2655169 13
5.1891823 1.8989719 1.0656645 18
5.1981125 1.9012111 0.86959845 11
5.1957259 1.8993101 0.67454678 14
5.2477751 1.9172986 0.48545748 33
5.2420878 1.9141839 0.29046455 30
5.2159019 1.9035829 0.096250013 11
1.774025 0.64604318 -0.4956387 3
2.0181069 0.7349301 -0.48701933 2
2.3559275 0.85748786 -0.47945404 2
2.8715425 1.0445888 -0.47790766 2
3.6878858 1.3408235 -0.47711903 2
5.0966244 1.8519988 -0.4710775 6
5.2360816 1.9016399 -0.28897637 14
5.2192297 1.8944887 -0.095288388 7
5.2209868 1.8940953 1.4768941 14
5.2299724 1.8963221 1.2745082 16
5.2274256 1.8943665 1.0723369 13
5.2272763 1.8932804 0.87350494 6
5.2389979 1.8964915 0.67942154 23
5.2537723 1.9008029 0.48545748 7
5.2527709 1.8994038 0.29072621 6
5.2218537 1.8871937 0.096250013 7
1.7761574 0.64015675 -0.4956387 3
2.0206599 0.72788113 -0.48701933 2
2.3635244 0.85092157 -0.48040724 2
2.8798182 1.0362309 -0.47868985 2
3.6832039 1.3245834 -0.47590032 2
5.1030579 1.8341969 -0.4710775 6
5.2238913 1.8765986 -0.28793314 4
5.2540417 1.8863945 -0.095806733 6
5.2684803 1.8905406 1.4885333 15
5.2319741 1.8764099 1.2733843 6
5.2617288 1.8860449 1.078056 4
5.2570996 1.8833503 0.87741148 8
5.2409134 1.8765194 0.67881221 4
5.2791343 1.8891649 0.48720059 9
5.2922797 1.8928273 0.29255798 11
5.2284098 1.8689545 0.096250013 9
1.7786025 0.63333207 -0.4956387 3
2.0142603 0.71685004 -0.48476982 2
2.3667743 0.84183997 -0.48040724 3
2.8837757 1.0251657 -0.47868985 2
3.6835864 1.3087696 -0.47529095 2
5.1100631 1.8145891 -0.4710775 6
5.2734094 1.8715571 -0.29028043 13
5.2800927 1.8728917 -0.096152291 12
5.3166709 1.8848217 1.5001725 14
5.2575092 1.8628151 1.27788 3
5.3013191 1.8772964 1.0847284 12
5.2875705 1.8713892 0.88131803 6
5.252759 1.858037 0.67942154 9
5.3051338 1.8755218 0.4889437 7
5.3183398 1.8791462 0.2936047 10
5.2261195 1.8455358 0.096075498 10
1.7808024 0.62711972 -0.4956387 2
2.0121548 0.70819712 -0.48364502 2
2.3743289 0.83520204 -0.48136041 3
2.8873365 1.0150932 -0.47868985 2
3.6881323 1.2959036 -0.47529095 2
5.1210656 1.7983911 -0.4715133 6
5.2657752 1.8481771 -0.28949797 13
5.2724457 1.8494848 -0.095893115 11
5.3687968 1.882231 1.5131052 14
5.2777734 1.8492849 1.2812517 12
5.3217373 1.8636467 1.0875878 9
5.3266993 1.8643409 0.88678718 5
5.2638974 1.8413289 0.68003088 9
5.3304558 1.8635672 0.4906868 6
5.3390083 1.8655114 0.29438975 9
5.2230926 1.8239793 0.095900968 10
1.7829806 0.6208998 -0.4956387 3
2.0100133 0.69956774 -0.48252031 2
2.3772297 0.82690901 -0.48136041 3
2.8955266 1.0066298 -0.47947201 2
3.6926334 1.2830217 -0.47529095 2
5.1320171 1.7821383 -0.47194907 6
5.2627602 1.8265105 -0.28897637 11
5.2741466 1.8294309 -0.095806733 12
5.4164047 1.8777168 1.5247444 14
5.3026109 1.837231 1.2857472 10
5.365315 1.8579078 1.0952133 8
5.361177 1.8554269 0.89147508 5
5.2702928 1.8229432 0.68003088 6
5.3698821 1.856341 0.49373728 5
5.3407679 1.8452328 0.29412806 8
5.219974 1.8024789 0.095726438 10
1.7805705 0.61309987 -0.49434459 3
2.0124433 0.6925472 -0.48252031 2
2.3801017 0.81860584 -0.48136041 3
2.8990228 0.99651641 -0.47947201 2
3.6970894 1.2701242 -0.47529095 2
5.138207 1.7642132 -0.47194907 6
5.2596583 1.8048877 -0.28845474 9
5.256856 1.8029006 -0.095374778 11
5.4686155 1.8744593 1.5376768 13
5.3182101 1.8218682 1.2879951 9
5.3578372 1.8343984 1.0923538 9
5.4236922 1.8558881 0.90085083 8
5.3329725 1.8238058 0.68734306 5
5.3716159 1.8359743 0.49330151 5
5.3377266 1.8233507 0.2936047 8
5.2215033 1.7826318 0.095639184 8
1.7781277 0.60532433 -0.49305049 3
2.0240729 0.68865675 -0.48476982 2
2.3829448 0.81029278 -0.48136041 3
2.9024837 0.98639089 -0.47947201 2
3.7015004 1.2572111 -0.47529095 2
5.1537671 1.7494689 -0.47282061 7
5.2564692 1.7833086 -0.28793314 9
5.2441788 1.7781184 -0.09502922 11
5.5208688 1.8708601 1.5506095 14
5.361454 1.8157959 1.2969863 6
5.3595581 1.8141111 1.0914006 7
5.4488497 1.8432748 0.90397602 8
5.3675141 1.8147161 0.69099915 4
5.3779922 1.8172127 0.49330151 5
5.3062129 1.791927 0.29151127 8
5.2182207 1.761197 0.095464654 7
1.7802299 0.59911382 -0.49305049 3
2.0310819 0.68314028 -0.48589453 2
2.3857586 0.80196983 -0.48136041 3
2.9059091 0.97625333 -0.47947201 2
3.7105713 1.2458625 -0.47590032 2
5.159842 1.7314682 -0.47282061 7
5.2531943 1.7617738 -0.28741151 11
5.2266536 1.7518581 -0.094597265 12
5.5777426 1.8684527 1.5648352 13
5.3862395 1.8032566 1.301482 5
5.3658576 1.7953918 1.0914006 5
5.4318323 1.8164124 0.90006948 7
5.4020567 1.8054073 0.69465524 9
5.4079242 1.8063189 0.49548039 10
5.2887549 1.7654887 0.29020289 6
5.2195945 1.7413892 0.095377393 6
1.7823104 0.59289598 -0.49305049 3
2.0427003 0.6791203 -0.48814404 2
2.3932014 0.79518479 -0.48231363 3
2.9092991 0.96610385 -0.47947201 2
3.7148974 1.2329026 -0.47590032 2
5.1658545 1.7134465 -0.47282061 7
5.2450933 1.7387128 -0.28662908 10
5.2232451 1.7304585 -0.094424479 12
5.6300817 1.8641527 1.5777677 13
5.3647485 1.7752606 1.2947384 5
5.3581123 1.772027 1.088541 4
5.4240732 1.7927912 0.89772558 7
5.3706279 1.7740867 0.68978047 8
5.414197 1.7874308 0.49548039 9
5.2711768 1.7391944 0.28889447 7
5.2303886 1.7247243 0.095464654 17
1.7843691 0.58667099 -0.49305049 2
2.0450585 0.67198581 -0.48814404 2
2.3959625 0.78682613 -0.48231363 3
2.9126537 0.95594257 -0.47947201 2
3.7238941 1.2214744 -0.47650966 2
5.1623383 1.6923007 -0.47194907 7
5.2416401 1.7172841 -0.28610745 10
5.2340055 1.7137712 -0.094510876 14
5.687048 1.8610121 1.5919935 13
5.3384981 1.7459223 1.2868712 4
5.3969231 1.7639871 1.0952133 4
5.3880477 1.7600454 0.89069378 7
5.3343287 1.7414675 0.68429631 7
5.4393444 1.7747008 0.49722353 10
5.2392387 1.7084005 0.28680104 7
5.2173643 1.7002603 0.095115609 17
1.7864062 0.58043879 -0.49305049 3
2.042758 0.66333842 -0.48701933 2
2.3940258 0.77694273 -0.48136041 3
2.9159729 0.94576973 -0.47947201 2
3.7281349 1.2084683 -0.47650966 2
5.1634755 1.6727353 -0.4715133 8
5.238102 1.695901 -0.28558585 14
5.230443 1.6924126 -0.094338097 19
5.7440605 1.8574964 1.6062193 13
5.3028364 1.7137924 1.276756 6
5.3750229 1.736086 1.0894942 6
5.3236618 1.7184707 0.87897414 7
5.2978673 1.7091234 0.67881221 8
5.3222485 1.7159632 0.48589325 16
5.2356648 1.6870389 0.28627765 13
5.2137508 1.6789733 0.094941087 13
1.7930198 0.57567596 -0.49434459 3
2.0450611 0.65620381 -0.48701933 2
2.3967233 0.76858127 -0.48136041 3
2.9239595 0.9370926 -0.4802542 2
3.7323306 1.1954472 -0.47650966 2
5.1645389 1.6531829 -0.4710775 7
5.239234 1.6760848 -0.28532505 5
nan nan nan 0
5.8011169 1.853605 1.620445 13
5.3134274 1.6967536 1.27788 5
5.3529954 1.7083595 1.0837752 4
5.2778721 1.6833698 0.87037969 3
5.2896161 1.6860985 0.67698419 4
5.2665081 1.6777201 0.48022813 3
5.2082171 1.6581494 0.28444591 4
5.2243433 1.6622792 0.095028341 6
1.7949189 0.56972688 -0.49434459 3
2.0471125 0.64977586 -0.48701933 2
2.3991261 0.76104796 -0.48136041 3
2.9268889 0.9279021 -0.4802542 2
3.736068 1.1837158 -0.47650966 2
5.164959 1.6354463 -0.47064176 4
nan nan nan 0
5.2510853 1.6607009 -0.094510876 3
5.8575702 1.8513824 1.6346707 13
nan nan nan 0
5.2834454 1.6678927 1.0685241 2
5.2501664 1.6563795 0.86491054 2
5.2617559 1.6590261 0.67271876 2
5.3050084 1.6716456 0.4832786 2
5.2753139 1.6612766 0.28784776 3
nan nan nan 0
1.7967983 0.56377161 -0.49434459 3
2.0493681 0.64262611 -0.48701933 2
2.3970842 0.75120103 -0.48040724 2
2.9301102 0.91767973 -0.4802542 2
3.7401772 1.1706674 -0.47650966 2
5.1658826 1.6159203 -0.47020596 4
nan nan nan 0
nan nan nan 0
5.9147105 1.846759 1.6488966 13
5.324564 1.6614766 1.27788 5
5.3314075 1.662591 1.0771028 7
nan nan nan 0
5.3148966 1.6554067 0.67881221 3
nan nan nan 0
5.3239908 1.6562009 0.29020289 2
5.5407801 1.7225795 0.10061312 53
1.7988527 0.55718219 -0.49434459 2
2.0563636 0.6365512 -0.48814404 2
2.3998213 0.74241018 -0.48040724 2
2.933454 0.90693408 -0.4802542 2
3.7444427 1.1569511 -0.47650966 2
5.1717706 1.5969754 -0.47020596 4
nan nan nan 0
nan nan nan 0
5.9722109 1.8407162 1.6631224 13
nan nan nan 0
5.3515382 1.6473714 1.0799624 2
nan nan nan 0
5.3493905 1.6446663 0.6824683 2
nan nan nan 0
5.3682108 1.6484019 0.29229632 2
5.5661726 1.7081264 0.10096216 49
1.8007865 0.55089962 -0.49434459 3
2.058573 0.62936926 -0.48814404 2
2.4070926 0.73546296 -0.48136041 2
2.9413252 0.89813119 -0.48103639 2
3.7484584 1.1438735 -0.47650966 2
5.1773133 1.578913 -0.47020596 4
nan nan nan 0
nan nan nan 0
6.0294256 1.8353293 1.6773481 12
6.0820994 1.8502034 1.4577047 29
nan nan nan 0
nan nan nan 0
nan nan nan 0
nan nan nan 0
5.4456058 1.6513884 0.29622149 2
5.5577488 1.6843367 0.10070038 43
1.8026986 0.54461038 -0.49434459 3
2.0607574 0.62217963 -0.48814404 2
2.4096448 0.72705621 -0.48136041 2
2.9444423 0.88785863 -0.48103639 2
3.7524283 1.130782 -0.47650966 2
5.1827936 1.5608311 -0.47020596 4
nan nan nan 0
nan nan nan 0
6.091301 1.8309557 1.6928673 11
6.1258497 1.8401749 1.4666959 22
5.4569297 1.6381963 1.0990261 2
nan nan nan 0
nan nan nan 0
nan nan nan 0
5.4848204 1.642396 0.29805323 2
5.5779619 1.6692259 0.10096216 32
1.7999605 0.5369339 -0.49305049 3
2.0675855 0.61637431 -0.48926884 2
2.416872 0.72004199 -0.48231363 2
2.9475236 0.87757516 -0.48103639 2
3.7563527 1.1176766 -0.47650966 2
5.18821 1.5427302 -0.47020596 4
nan nan nan 0
nan nan nan 0
6.1578479 1.8275461 1.7096794 11
6.1929579 1.8367903 1.4813067 14
nan nan nan 0
5.5579247 1.6463331 0.91100788 2
nan nan nan 0
nan nan nan 0
nan nan nan 0
nan nan nan 0
1.8110896 0.5333764 -0.4956387 3
2.0603771 0.60640234 -0.48701933 2
2.4146621 0.7102161 -0.48136041 2
2.9600451 0.8700664 -0.48260072 2
3.7554696 1.1031591 -0.47590032 2
5.1935635 1.5246106 -0.47020596 4
nan nan nan 0
nan nan nan 0
6.2244444 1.8236942 1.7264917 11
6.2460895 1.8288523 1.4925457 15
5.6236887 1.6455479 1.1304814 3
5.5731173 1.6296943 0.91257042 2
5.5861893 1.6324586 0.70988888 2
