# .PCD v0.7 - Point Cloud Data file format
VERSION 0.7
FIELDS x y z intensity
SIZE 4 4 4 4
TYPE F F F F
COUNT 1 1 1 1
WIDTH 1365
HEIGHT 1
VIEWPOINT 0 0 0 1 0 0 0
POINTS 1365
DATA ascii
-0.065619767 2.2109525 -0.26689416 14
-0.064294338 2.1791201 -0.18738513 15
-0.063628905 2.1694105 -0.11136544 14
-0.063325681 2.1720083 -0.036888614 14
-0.062250342 2.1479948 0.56515121 10
-0.062546641 2.1713059 0.49227038 11
-0.062060252 2.1675649 0.41368371 16
-0.061634265 2.1659005 0.33674476 12
-0.060989339 2.1564736 0.26019105 14
-0.061391607 2.1841869 0.18782063 13
-0.060738645 2.174469 0.11199894 14
-0.060015321 2.1620936 0.037086364 15
nan nan nan 0
-0.058256797 2.1810865 -0.49489263 2
-0.058041174 2.1873164 -0.4174968 8
-0.057616875 2.1857128 -0.34024525 13
-0.057901703 2.2111681 -0.26689416 15
-0.0566874 2.1793311 -0.18738513 15
-0.056055855 2.1696193 -0.11136544 14
-0.055743575 2.1722159 -0.036888614 14
-0.054752067 2.1481988 0.56515121 11
-0.054843694 2.1666403 0.49114645 12
-0.054493655 2.1677682 0.41368371 16
-0.054073486 2.1661024 0.33674476 12
-0.05346147 2.1566734 0.26019105 13
-0.053766996 2.1843879 0.18782063 13
-0.053025968 2.1696761 0.11173727 13
-0.052467842 2.1622901 0.037086364 15
nan nan nan 0
-0.050529949 2.1764057 -0.49376786 2
-0.050405659 2.1875057 -0.4174968 9
-0.049986959 2.1859004 -0.34024525 13
-0.050070345 2.2063954 -0.26628482 15
-0.049079768 2.1795158 -0.18738513 15
-0.048482131 2.169802 -0.11136544 14
-0.048160784 2.1723974 -0.036888614 14
-0.047253121 2.1483769 0.56515121 10
-0.047280375 2.1668186 0.49114645 11
-0.046926402 2.1679451 0.41368371 16
-0.046512052 2.1662779 0.33674476 12
-0.045932949 2.156847 0.26019105 14
-0.046141732 2.1845624 0.18782063 13
-0.045452058 2.1698477 0.11173727 14
-0.044919722 2.1624601 0.037086364 15
nan nan nan 0
-0.042836491 2.1716981 -0.49264312 2
-0.042673592 2.182761 -0.41654357 9
-0.042356439 2.1860616 -0.34024525 13
-0.042368285 2.2065566 -0.26628482 15
-0.041471537 2.1796737 -0.18738513 15
-0.040907815 2.1699579 -0.11136544 14
-0.040577408 2.1725523 -0.036888614 14
-0.039753597 2.1485288 0.56515121 11
-0.039716482 2.1669705 0.49114645 11
-0.039358579 2.1680958 0.41368371 16
-0.038950048 2.1664271 0.33674476 12
-0.038403869 2.1569941 0.26019105 14
-0.038515907 2.18471 0.18782063 13
-0.037877604 2.1699934 0.11173727 14
-0.037371054 2.1626036 0.037086364 15
nan nan nan 0
-0.035176512 2.1669631 -0.49151835 2
-0.035054076 2.1828966 -0.41654357 10
-0.034725402 2.1861961 -0.34024525 14
-0.034665704 2.206691 -0.26628482 15
-0.033862807 2.1798053 -0.18738513 15
-0.033333 2.1700873 -0.11136544 14
-0.032917634 2.1676822 -0.036802221 14
-0.032181099 2.1438253 0.56385797 10
-0.032152101 2.1670959 0.49114645 11
-0.031790271 2.16822 0.41368371 16
-0.031387568 2.1665499 0.33674476 12
-0.030874319 2.1571152 0.26019105 14
-0.030889612 2.1848311 0.18782063 13
-0.030302681 2.1701124 0.11173727 14
-0.02982193 2.1627209 0.037086364 16
nan nan nan 0
-0.027550118 2.1622014 -0.49039361 2
-0.027434129 2.1830056 -0.41654357 10
-0.027032746 2.181366 -0.33946306 14
-0.026962705 2.2067986 -0.26628482 15
-0.026253659 2.1799102 -0.18738513 16
-0.025757777 2.1701906 -0.11136544 14
-0.025350811 2.1677837 -0.036802221 15
-0.024697555 2.1439247 0.56385797 10
-0.024587328 2.1671948 0.49114645 11
-0.024166754 2.1634099 0.41273054 16
-0.023824707 2.1666462 0.33674476 11
-0.023344394 2.1572096 0.26019105 14
-0.023209907 2.179945 0.18738484 13
-0.022727391 2.1702049 0.11173727 14
-0.022323919 2.1678104 0.037173621 16
nan nan nan 0
-0.01995739 2.1574125 -0.48926884 3
-0.019813852 2.1830881 -0.41654357 10
-0.019418193 2.1814468 -0.33946306 14
-0.019259376 2.2068794 -0.26628482 16
-0.018644193 2.1799884 -0.18738513 15
-0.018182242 2.1702673 -0.11136544 14
-0.017783677 2.1678591 -0.036802221 14
-0.017213712 2.1439977 0.56385797 10
-0.017022258 2.1672676 0.49114645 11
-0.016614895 2.163481 0.41273054 16
-0.016261555 2.1667161 0.33674476 12
-0.015814183 2.1572781 0.26019105 14
-0.015600339 2.1800127 0.18738484 14
-0.015151824 2.1702709 0.11173727 15
-0.014756714 2.1678751 0.037173621 15
nan nan nan 0
-0.012426494 2.157469 -0.48926884 3
-0.012193332 2.1831439 -0.41654357 10
-0.011803403 2.1815014 -0.33946306 14
-0.011529827 2.2019706 -0.26567549 16
-0.0110345 2.1800404 -0.18738513 15
-0.010606484 2.1703176 -0.11136544 14
-0.010216329 2.167908 -0.036802221 14
-0.0097515751 2.1488743 0.56515121 10
-0.0094569782 2.1673136 0.49114645 11
-0.0090628369 2.1635261 0.41273054 16
-0.0086982064 2.1667597 0.33674476 11
-0.0082837828 2.15732 0.26019105 14
-0.0079905801 2.1800539 0.18738484 13
-0.0075760726 2.1703107 0.11173727 15
-0.0071893279 2.1679134 0.037173621 16
nan nan nan 0
-0.0048954459 2.1574993 -0.48926884 3
-0.0045726639 2.1831732 -0.41654357 11
-0.0041884705 2.1815293 -0.33946306 15
-0.003843446 2.2019973 -0.26567549 13
-0.0034246715 2.1800656 -0.18738513 16
-0.0030305986 2.1703413 -0.11136544 14
-0.0026488563 2.1679304 -0.036802221 14
-0.002250545 2.1488953 0.56515121 10
-0.001891584 2.1673336 0.49114645 11
-0.001510667 2.1635444 0.41273054 17
-0.00113475 2.1667769 0.33674476 12
-0.00075154664 2.1523731 0.25958169 13
-0.00038072336 2.1800685 0.18738484 13
-2.2860044e-07 2.1703238 0.11173727 14
0.00037727406 2.1629264 0.037086364 17
nan nan nan 0
0.0026356613 2.1575031 -0.48926884 3
0.0030480605 2.1831758 -0.41654357 10
0.0034265134 2.1815307 -0.33946306 15
0.0038343207 2.1970344 -0.26506612 13
0.0041851983 2.1800642 -0.18738513 15
0.0045453245 2.1703386 -0.11136544 15
0.0049186493 2.1679265 -0.036802221 14
0.0052505131 2.14889 0.56515121 11
0.0056738332 2.1673269 0.49114645 11
0.0060415212 2.1635365 0.41273054 16
0.0064287195 2.1667676 0.33674476 12
0.0067616417 2.1523623 0.25958169 14
0.0072291377 2.1800566 0.18738484 13
0.0075756153 2.1703107 0.11173727 15
0.0079272939 2.1629119 0.037086364 16
nan nan nan 0
0.010166736 2.157481 -0.48926884 3
0.010668748 2.183152 -0.41654357 10
0.011016462 2.1765673 -0.33868089 15
0.011503378 2.1970077 -0.26506612 13
0.011795018 2.1800363 -0.18738513 16
0.012093306 2.1653163 -0.11110463 14
0.012486095 2.167896 -0.036802221 14
0.012751507 2.1488588 0.56515121 10
0.013239182 2.167294 0.49114645 11
0.013593636 2.1635022 0.41273054 17
0.01399211 2.1667321 0.33674476 12
0.014274747 2.1523259 0.25958169 14
0.014838911 2.1800179 0.18738484 13
0.015151368 2.1702709 0.11173727 15
0.015441443 2.1578717 0.036999099 16
nan nan nan 0
0.017657725 2.1525607 -0.48814404 3
0.018289305 2.1831014 -0.41654357 10
0.018614033 2.1765156 -0.33868089 16
0.019128989 2.1919916 -0.26445675 13
0.019404693 2.1799819 -0.18738513 16
0.019651597 2.165261 -0.11110463 15
0.020053389 2.1678393 -0.036802221 14
0.020252345 2.1488011 0.56515121 10
0.020804368 2.1672344 0.49114645 11
0.021145584 2.1634417 0.41273054 16
0.021555332 2.1666701 0.33674476 13
0.021787681 2.1522627 0.25958169 14
0.022448504 2.1799531 0.18738484 13
0.022726934 2.1702049 0.11173727 15
0.022973727 2.1578047 0.036999099 15
nan nan nan 0
0.025171457 2.1524858 -0.48814404 3
0.02590964 2.1830242 -0.41654357 11
0.026211377 2.1764374 -0.33868089 16
0.02678035 2.1919115 -0.26445675 13
0.02695241 2.1749206 -0.18694936 16
0.027209649 2.1651793 -0.11110463 14
0.027620437 2.1677561 -0.036802221 14
0.027752936 2.1487174 0.56515121 10
0.028305532 2.1622772 0.49002257 12
0.028697276 2.1633546 0.41273054 16
0.029051919 2.161643 0.33596343 12
0.029300347 2.1521735 0.25958169 14
0.030057821 2.1798613 0.18738484 13
0.030302225 2.1701124 0.11173727 15
0.03050573 2.1577115 0.036999099 15
nan nan nan 0
0.032684881 2.1523848 -0.48814404 3
0.033529658 2.1829205 -0.41654357 10
0.033808403 2.1763327 -0.33868089 16
0.034431387 2.1918046 -0.26445675 13
0.034544136 2.1748133 -0.18694936 15
0.034687199 2.1600785 -0.11084383 14
0.035187148 2.1676464 -0.036802221 13
0.03525319 2.1486073 0.56515121 10
0.035853114 2.1621652 0.49002257 11
0.036248621 2.1632411 0.41273054 16
0.036597282 2.1615286 0.33596343 12
0.036812656 2.1520584 0.25958169 14
0.037666775 2.1797431 0.18738484 14
0.037877146 2.1699934 0.11173727 15
0.038037363 2.1575918 0.036999099 16
nan nan nan 0
0.040197905 2.1522577 -0.48814404 3
0.041149266 2.1827903 -0.41654357 10
0.041405015 2.1762013 -0.33868089 16
0.042082004 2.1916711 -0.26445675 13
0.04213544 2.1746793 -0.18694936 16
0.042227067 2.1599443 -0.11084383 13
0.042753432 2.1675105 -0.036802221 14
0.042656928 2.1436424 0.56385797 10
0.043400262 2.1620269 0.49002257 11
0.04379952 2.1631017 0.41273054 17
0.044142202 2.1613877 0.33596343 12
0.044324514 2.1519167 0.25958169 13
0.045275267 2.1795983 0.18738484 13
0.045451604 2.169848 0.11173727 15
0.045568533 2.1574459 0.036999099 15
nan nan nan 0
0.048086055 2.1520958 -0.48814404 3
0.049149316 2.1826246 -0.41654357 11
0.049268872 2.1710978 -0.3378987 16
0.050114594 2.1915021 -0.26445675 13
0.050105754 2.1745102 -0.18694936 16
0.050143376 2.159775 -0.11084383 14
0.050697468 2.1673393 -0.036802221 14
0.050513484 2.1434717 0.56385797 10
0.051208556 2.1569824 0.48889863 11
0.051727388 2.1629264 0.41273054 16
0.052063789 2.1612113 0.33596343 12
0.052211385 2.1517398 0.25958169 14
0.053263593 2.1794178 0.18738484 13
0.053404186 2.1696668 0.11173727 15
0.053475659 2.1572645 0.036999099 16
nan nan nan 0
0.055597976 2.1519148 -0.48814404 3
0.056767803 2.1824398 -0.41654357 11
0.056847114 2.1709125 -0.3378987 16
0.057764061 2.1913137 -0.26445675 14
0.057695907 2.1743221 -0.18694936 16
0.05768209 2.1595869 -0.11084383 14
0.058128234 2.1621516 -0.036715835 15
0.05799529 2.1432824 0.56385797 9
0.058737516 2.1567905 0.48889863 11
0.059277091 2.1627328 0.41273054 17
0.05960751 2.1610165 0.33596343 12
0.05972204 2.1515443 0.25958169 15
0.060731784 2.1742396 0.18694907 13
0.060977414 2.1694672 0.11173727 15
0.061012264 2.1570644 0.036999099 15
nan nan nan 0
0.063252054 2.1565773 -0.48926884 3
0.064385593 2.1822283 -0.41654357 12
0.064424664 2.1707008 -0.3378987 16
0.065412819 2.1910989 -0.26445675 13
0.065285355 2.1741076 -0.18694936 16
0.065220103 2.1593723 -0.11084383 14
0.065675199 2.1619356 -0.036715835 14
0.065476388 2.1430669 0.56385797 10
0.066265762 2.1565723 0.48889863 11
0.066826075 2.1625125 0.41273054 17
0.067150496 2.1607952 0.33596343 12
0.067231968 2.1513228 0.25958169 13
0.068320923 2.1740146 0.18694907 14
0.068549901 2.169241 0.11173727 15
0.068534784 2.1568384 0.036999099 16
nan nan nan 0
0.070779525 2.1563435 -0.48926884 3
0.072002597 2.1819904 -0.41654357 12
0.072001435 2.1704626 -0.3378987 16
0.073060788 2.1908572 -0.26445675 14
0.072874017 2.1738663 -0.18694936 16
0.072757326 2.1591315 -0.11084383 14
0.073221363 2.1616931 -0.036715835 14
0.072956689 2.1428251 0.56385797 10
0.073793195 2.156328 0.48889863 11
0.074374251 2.1622663 0.41273054 16
0.074692674 2.1605475 0.33596343 12
0.074741073 2.1510751 0.25958169 14
0.075909235 2.1737628 0.18694907 15
0.076121539 2.1689885 0.11173727 15
0.076063134 2.1565859 0.036999099 16
nan nan nan 0
0.078482971 2.1609521 -0.49039361 3
0.07961873 2.1817257 -0.41654357 13
0.079577319 2.1701982 -0.3378987 16
0.080707856 2.1905887 -0.26445675 13
0.08046177 2.1735988 -0.18694936 15
0.080293655 2.1588643 -0.11084383 14
0.080766633 2.1614244 -0.036715835 14
0.080436096 2.1425576 0.56385797 10
0.081319742 2.1560571 0.48889863 11
0.08192151 2.1619935 0.41273054 16
0.082233936 2.1602738 0.33596343 11
0.082249276 2.1508009 0.25958169 14
0.083496623 2.1734846 0.18694907 13
0.08369226 2.1687095 0.11173727 14
0.083590567 2.1563075 0.036999099 16
nan nan nan 0
0.086025625 2.160665 -0.49039361 3
0.087233879 2.1814346 -0.41654357 13
0.08715225 2.1699071 -0.3378987 16
0.088353947 2.1902936 -0.26445675 14
0.088048562 2.1733046 -0.18694936 16
0.087829009 2.158571 -0.11084383 14
0.08831092 2.1611292 -0.036715835 14
0.087914534 2.1422637 0.56385797 10
0.08884529 2.15576 0.48889863 11
0.089467779 2.1616943 0.41273054 16
0.089569122 2.1550393 0.33518213 12
0.089756474 2.1505008 0.25958169 14
0.09108299 2.1731799 0.18694907 13
0.091261961 2.1684043 0.11173727 14
0.091116965 2.1560025 0.036999099 16
nan nan nan 0
0.093778022 2.1652186 -0.49151835 3
0.094847977 2.1811166 -0.41654357 13
0.094726108 2.1695898 -0.3378987 16
0.095998965 2.1899719 -0.26445675 14
0.095634267 2.1729839 -0.18694936 16
0.095363297 2.158251 -0.11084383 14
0.095854133 2.1608078 -0.036715835 14
0.095391884 2.1419437 0.56385797 9
0.096369758 2.1554368 0.48889863 11
0.096792862 2.1564653 0.41177732 17
0.097091064 2.1547136 0.33518213 12
0.097262569 2.1501744 0.25958169 14
0.098668247 2.1728487 0.18694907 14
0.098830543 2.1680725 0.11173727 15
0.098642267 2.1556714 0.036999099 16
nan nan nan 0
0.10133548 2.1648781 -0.49151835 3
0.10246092 2.1807723 -0.41654357 13
0.1022988 2.1692457 -0.3378987 17
0.10364281 2.1896236 -0.26445675 13
0.10321882 2.172637 -0.18694936 16
0.10289641 2.1579051 -0.11084383 14
0.10339617 2.16046 -0.036715835 14
0.10286809 2.1415977 0.56385797 10
0.10365845 2.1502209 0.48777473 11
0.10431974 2.1561143 0.41177732 15
0.10461183 2.1543615 0.33518213 12
0.10476749 2.1498218 0.25958169 14
0.10649562 2.1774657 0.18738484 14
0.10615314 2.1627271 0.11147558 14
0.10616637 2.1553137 0.036999099 16
nan nan nan 0
0.10789306 2.1596835 -0.49039361 3
0.1093115 2.1804397 -0.41654357 13
0.10911318 2.1689138 -0.3378987 16
0.11052118 2.1892869 -0.26445675 14
0.11004384 2.172302 -0.18694936 15
0.10967515 2.1575713 -0.11084383 14
0.11018293 2.1601245 -0.036715835 14
0.1095956 2.141264 0.56385797 10
0.11041304 2.1498847 0.48777473 12
0.11109285 2.155776 0.41177732 16
0.11137943 2.1540222 0.33518213 12
0.11152083 2.149482 0.25958169 14
0.11333579 2.1771204 0.18738484 14
0.11294702 2.1623828 0.11147558 14
0.11293695 2.1549697 0.036999099 16
nan nan nan 0
0.11543111 2.1592939 -0.49039361 3
0.11692198 2.1800447 -0.41654357 13
0.11668343 2.1685197 -0.3378987 16
0.11816255 2.1888881 -0.26445675 13
0.11762591 2.1719046 -0.18694936 16
0.11720581 2.1571753 -0.11084383 14
0.11772251 2.1597269 -0.036715835 13
0.11706933 2.1408684 0.56385797 9
0.11791687 2.1494861 0.48777473 11
0.11861724 2.155375 0.41177732 16
0.11889769 2.1536202 0.33518213 12
0.11902323 2.1490798 0.25958169 14
0.12065837 2.1717384 0.18694907 13
0.12049446 2.1619756 0.11147558 14
0.12045851 2.1545622 0.036999099 16
nan nan nan 0
0.12344257 2.1539705 -0.48926884 3
0.12529188 2.1795797 -0.41654357 13
0.12500907 2.1680555 -0.3378987 16
0.12656638 2.1884181 -0.26445675 13
0.12596455 2.171437 -0.18694936 15
0.12577793 2.161694 -0.11110463 14
0.12601438 2.1592588 -0.036715835 14
0.1252888 2.140403 0.56385797 9
0.12645496 2.1538813 0.48889863 11
0.12689239 2.1549039 0.41177732 16
0.12716611 2.1531479 0.33518213 12
0.12727422 2.1486068 0.25958169 14
0.12899633 2.1712592 0.18694907 13
0.12879494 2.1614969 0.11147558 15
0.1284323 2.1490936 0.036911838 16
nan nan nan 0
0.13125631 2.1583896 -0.49039361 4
0.13289927 2.1791291 -0.41654357 13
0.13257624 2.1676061 -0.3378987 16
0.13420463 2.187963 -0.26445675 14
0.13354351 2.170984 -0.18694936 16
0.13332288 2.161242 -0.11110463 14
0.13355082 2.1588058 -0.036715835 14
0.13275944 2.1399527 0.56385797 10
0.13397264 2.1534266 0.48889863 11
0.13441364 2.1544476 0.41177732 16
0.13468121 2.1526909 0.33518213 12
0.13477348 2.1481495 0.25958169 13
0.13657466 2.1707957 0.18694907 14
0.13633919 2.1610341 0.11147558 15
0.13593991 2.1486318 0.036911838 15
nan nan nan 0
0.13847698 2.1530561 -0.48926884 4
0.14050505 2.178652 -0.41654357 14
0.14014177 2.16713 -0.3378987 16
0.14184122 2.1874812 -0.26445675 14
0.14112084 2.1705046 -0.18694936 15
0.14086621 2.1607635 -0.11110463 14
0.14108565 2.1583266 -0.036715835 14
0.14022845 2.1394763 0.56385797 10
0.14148867 2.152946 0.48889863 11
0.14193325 2.1539655 0.41177732 16
0.14219469 2.1522076 0.33518213 11
0.1422711 2.147666 0.25958169 14
0.14415132 2.1703057 0.18694907 14
0.14388177 2.1605451 0.11147558 14
0.14343254 2.1481447 0.036911838 16
nan nan nan 0
0.1463214 2.1574206 -0.49039361 4
0.14810909 2.1781483 -0.41654357 13
0.14770561 2.1666276 -0.3378987 16
0.1494761 2.1869726 -0.26445675 13
0.14869645 2.1699989 -0.18694936 15
0.14840783 2.1602585 -0.11110463 14
0.14861876 2.1578209 -0.036715835 14
0.14769576 2.1389737 0.56385797 9
0.149003 2.1524391 0.48889863 11
0.14945112 2.1534569 0.41177732 16
0.14970644 2.1516984 0.33518213 12
0.14976698 2.1471562 0.25958169 14
0.15172622 2.1697893 0.18694907 13
0.15177177 2.1650107 0.11173727 14
0.15093011 2.1476309 0.036911838 16
nan nan nan 0
0.15350467 2.1520369 -0.48926884 4
0.15571135 2.177618 -0.41654357 13
0.15526767 2.1660991 -0.3378987 16
0.15710914 2.1864376 -0.26445675 14
0.15627027 2.1694665 -0.18694936 16
0.15558802 2.154747 -0.11084383 14
0.15615006 2.157289 -0.036715835 14
0.15516128 2.1384451 0.56385797 10
0.15651551 2.1519058 0.48889863 12
0.15696718 2.1529222 0.41177732 16
0.15721634 2.1511626 0.33518213 12
0.15726103 2.1466203 0.25958169 14
0.15893447 2.164279 0.18651327 14
0.15932815 2.1644676 0.11173727 14
0.15842582 2.1470912 0.036911838 16
nan nan nan 0
0.16101572 2.1514881 -0.48926884 4
0.16367887 2.1819558 -0.4174968 14
0.16282782 2.1655438 -0.3378987 16
0.16474026 2.1858759 -0.26445675 14
0.16384216 2.1689079 -0.18694936 15
0.16310854 2.1541908 -0.11084383 14
0.16367944 2.1567309 -0.036715835 14
0.16262491 2.1378903 0.56385797 10
0.16439651 2.1562045 0.49002257 11
0.16448133 2.1523609 0.41177732 16
0.16472435 2.1506007 0.33518213 12
0.16437334 2.1411104 0.25897235 15
0.16648825 2.1637108 0.18651327 13
0.16688259 2.1638985 0.11173727 14
0.16630486 2.1515093 0.036999099 15
nan nan nan 0
0.16852485 2.150913 -0.48926884 4
0.17129432 2.1813712 -0.4174968 14
0.17038599 2.1649623 -0.3378987 16
0.17236939 2.1852877 -0.26445675 14
0.17141207 2.1683228 -0.18694936 15
0.17062707 2.1536083 -0.11084383 14
0.17120683 2.1561463 -0.036715835 14
0.17008653 2.1373098 0.56385797 10
0.17192207 2.1556175 0.49002257 11
0.17199346 2.1517737 0.41177732 16
0.17223035 2.1500125 0.33518213 12
0.17184621 2.1405237 0.25897235 14
0.17403999 2.1631165 0.18651327 13
0.17443497 2.1633027 0.11173727 14
0.17381401 2.1509156 0.036999099 15
nan nan nan 0
0.1760319 2.1503117 -0.48926884 4
0.17890768 2.1807599 -0.4174968 14
0.17794207 2.1643543 -0.3378987 16
0.17999643 2.1846726 -0.26445675 14
0.17897987 2.1677113 -0.18694936 16
0.17814355 2.1529996 -0.11084383 14
0.17873216 2.1555355 -0.036715835 13
0.1775461 2.136703 0.56385797 11
0.17944553 2.1550043 0.49002257 11
0.1795035 2.1511602 0.41177732 16
0.17973423 2.1493983 0.33518213 12
0.17931698 2.1399107 0.25897235 14
0.18200642 2.1674595 0.18694907 13
0.18198526 2.1626806 0.11173727 14
0.18132107 2.1502957 0.036999099 16
nan nan nan 0
0.18353683 2.149684 -0.48926884 4
0.18651886 2.1801221 -0.4174968 14
0.185496 2.1637199 -0.3378987 16
0.18762127 2.184031 -0.26445675 13
0.18697269 2.1720357 -0.18738513 16
0.18565783 2.1523647 -0.11084383 14
0.18625529 2.1548986 -0.036715835 14
0.18500352 2.1360703 0.56385797 9
0.18696682 2.1543648 0.49002257 11
0.18701136 2.1505206 0.41177732 17
0.18723594 2.1487577 0.33518213 12
0.18721722 2.1442153 0.25958169 14
0.18957114 2.166811 0.18694907 13
0.18909726 2.157058 0.11147558 15
0.18882588 2.1496496 0.036999099 16
nan nan nan 0
0.1910395 2.1490302 -0.48926884 4
0.19412777 2.1794577 -0.4174968 14
0.19304766 2.1630592 -0.3378987 16
0.19524381 2.1833627 -0.26445675 14
0.19455338 2.1713698 -0.18738513 15
0.19316985 2.1517036 -0.11084383 14
0.19377616 2.1542354 -0.036715835 14
0.19289218 2.1402216 0.56515121 10
0.19448581 2.1536989 0.49002257 11
0.19451694 2.1498547 0.41177732 16
0.19473536 2.1480913 0.33518213 12
0.19470078 2.1435487 0.25958169 14
0.19713359 2.166136 0.18694907 13
0.19662564 2.1563847 0.11147558 14
0.19632842 2.1489775 0.036999099 16
nan nan nan 0
0.19861239 2.1532364 -0.49039361 4
0.20180573 2.1836894 -0.41844994 14
0.20021957 2.1624072 -0.3378987 16
0.20248303 2.1827033 -0.26445675 13
0.20175281 2.1707127 -0.18738513 15
0.20030409 2.151051 -0.11084383 14
0.20091879 2.1535809 -0.036715835 14
0.19998835 2.1395702 0.56515121 10
0.20162667 2.1530423 0.49002257 11
0.20164505 2.1491978 0.41177732 15
0.20185763 2.1474335 0.33518213 12
0.20180798 2.1428914 0.25958169 15
0.20478353 2.1704292 0.18738484 14
0.20377539 2.1557209 0.11147558 15
0.2034536 2.1483145 0.036999099 16
nan nan nan 0
0.20612738 2.15253 -0.49039361 4
0.209427 2.1829717 -0.41844994 14
0.20823903 2.1666112 -0.33868089 16
0.21010084 2.1819832 -0.26445675 14
0.20932879 2.1699951 -0.18738513 15
0.20829174 2.155309 -0.11110463 14
0.20843497 2.1528664 -0.036715835 14
0.20745564 2.1388593 0.56515121 11
0.20914096 2.1523254 0.49002257 11
0.20914592 2.1484809 0.41177732 17
0.20983166 2.1516309 0.33596343 12
0.20928684 2.142174 0.25958169 14
0.21235849 2.1697011 0.18738484 13
0.21129902 2.1549964 0.11147558 14
0.21095137 2.1475914 0.036999099 16
0.18953793 1.9124359 -0.50469732 3
0.21326429 2.1518347 -0.49039361 4
0.21666484 2.1822653 -0.41844994 14
0.21542263 2.1659086 -0.33868089 16
0.2173354 2.1812744 -0.26445675 14
0.2165236 2.1692891 -0.18738513 16
0.21543786 2.1546061 -0.11110463 14
0.21557298 2.1521633 -0.036715835 14
0.2145472 2.1381595 0.56515121 10
0.21578987 2.1467719 0.48889863 11
0.21626939 2.1477754 0.41177732 16
0.21696557 2.1509233 0.33596343 11
0.21638939 2.141468 0.25958169 14
0.21955231 2.1689849 0.18738484 13
0.21844408 2.1542838 0.11147558 14
0.21807188 2.1468801 0.036999099 16
0.19390972 1.8925788 -0.49952096 3
0.22077429 2.151077 -0.49039361 4
0.22428106 2.1814957 -0.41844994 14
0.22298175 2.1651435 -0.33868089 16
0.22494815 2.1805027 -0.26445675 14
0.22409451 2.16852 -0.18738513 15
0.22295752 2.153841 -0.11110463 14
0.22308412 2.1513977 -0.036715835 14
0.22200945 2.1373975 0.56515121 10
0.22328219 2.1460056 0.48889863 10
0.22376521 2.1470075 0.41177732 16
0.22447237 2.1501527 0.33596343 11
0.22386318 2.1406996 0.25958169 14
0.22712214 2.1682053 0.18738484 14
0.22596259 2.1535084 0.11147558 14
0.22556455 2.1461058 0.036999099 15
0.20135492 1.8966581 -0.50081509 3
0.22865692 2.1502535 -0.49039361 5
0.23175524 2.1757784 -0.4174968 14
0.2309159 2.1643116 -0.33868089 16
0.23293859 2.1796634 -0.26445675 13
0.23204103 2.1676841 -0.18738513 15
0.23085026 2.1530094 -0.11110463 14
0.23096788 2.1505656 -0.036715835 14
0.22984192 2.1365695 0.56515121 11
0.23114619 2.1451731 0.48889863 11
0.23163289 2.146173 0.41177732 16
0.23235157 2.1493156 0.33596343 12
0.23170774 2.1398649 0.25958169 14
0.23506749 2.1673584 0.18738484 14
0.23385409 2.1526656 0.11147558 15
0.23342893 2.1452646 0.036999099 15
0.2063944 1.8815413 -0.49693277 3
0.23616131 2.1494422 -0.49039361 4
0.23934872 2.1749561 -0.4174968 14
0.23846935 2.1634924 -0.33868089 16
0.24054562 2.1788371 -0.26445675 13
0.23960625 2.1668611 -0.18738513 15
0.23836426 2.1521904 -0.11110463 14
0.23847336 2.1497464 -0.036715835 14
0.23729855 2.1357541 0.56515121 10
0.23863284 2.1443529 0.48889863 12
0.239123 2.1453514 0.41177732 16
0.23985267 2.1484914 0.33596343 12
0.23972735 2.1439753 0.26019105 15
0.24263155 2.1665244 0.18738484 13
0.24192345 2.1567981 0.11173727 14
0.24091588 2.1444368 0.036999099 15
0.21404772 1.8904072 -0.49952096 3
0.2436628 2.1486046 -0.49039361 5
0.24749321 2.1789844 -0.41844994 15
0.2460199 2.1626468 -0.33868089 16
0.2487115 2.182915 -0.26506612 14
0.24716854 2.1660113 -0.18738513 15
0.24587536 2.1513455 -0.11110463 14
0.24597591 2.1489007 -0.036715835 14
0.24530239 2.1397114 0.56644452 11
0.24611656 2.143507 0.48889863 11
0.24661021 2.1445036 0.41177732 16
0.24791592 2.1525476 0.33674476 12
0.24720976 2.1431253 0.26019105 14
0.25019264 2.1656644 0.18738484 13
0.24945061 2.1559408 0.11173727 14
0.24839988 2.1435828 0.036999099 15
0.22064514 1.8896484 -0.49952096 3
0.25116134 2.1477411 -0.49039361 5
0.25509778 2.178107 -0.41844994 15
0.25356743 2.1617749 -0.33868089 16
0.25632977 2.1820335 -0.26506612 14
0.25472784 2.1651354 -0.18738513 16
0.25338346 2.1504738 -0.11110463 14
0.25347549 2.1480291 -0.036715835 14
0.25276989 2.1388421 0.56644452 10
0.25416997 2.1474733 0.49002257 11
0.25409445 2.1436296 0.41177732 16
0.25542819 2.151669 0.33674476 12
0.25468916 2.1422493 0.26019105 14
0.25775069 2.1647778 0.18738484 14
0.25697473 2.1550567 0.11173727 14
0.25588089 2.1427026 0.036999099 16
0.22756958 1.8888271 -0.49952096 4
0.25844792 2.1419692 -0.48926884 5
0.26307923 2.1771574 -0.41844994 15
0.26148903 2.160831 -0.33868089 16
0.26432562 2.1810794 -0.26506612 13
0.26266176 2.1641872 -0.18738513 16
0.26126361 2.1495309 -0.11110463 13
0.2613467 2.1470857 -0.036715835 15
0.26060745 2.1379013 0.56644452 10
0.26203915 2.1465273 0.49002257 11
0.26254514 2.1475561 0.41273054 16
0.26331276 2.1507185 0.33674476 12
0.26253918 2.1413014 0.26019105 14
0.26568329 2.1638186 0.18738484 13
0.26487169 2.1541004 0.11173727 14
0.26434356 2.1467123 0.037086364 15
0.23475586 1.8928142 -0.50081509 3
0.2659232 2.1410539 -0.48926884 5
0.27067733 2.1762259 -0.41844994 15
0.26903015 2.159905 -0.33868089 16
0.2719374 2.1801434 -0.26506612 13
0.27021456 2.1632574 -0.18738513 16
0.2687653 2.1486058 -0.11110463 14
0.26883984 2.1461604 -0.036715835 14
0.26806852 2.1369786 0.56644452 10
0.27013758 2.1504335 0.49114645 12
0.27003992 2.1466265 0.41273054 16
0.27081856 2.1497862 0.33674476 12
0.27001211 2.140372 0.26019105 14
0.27323481 2.162878 0.18738484 14
0.27238929 2.1531627 0.11173727 14
0.271842 2.1457756 0.037086364 16
0.2413616 1.8919832 -0.50081509 3
0.27339524 2.1401126 -0.48926884 5
0.27827209 2.1752677 -0.41844994 15
0.27656797 2.1589527 -0.33868089 16
0.27954584 2.1791809 -0.26506612 13
0.27776408 2.1623008 -0.18738513 15
0.27626368 2.1476545 -0.11110463 15
0.27696836 2.150167 -0.036802221 13
0.27552634 2.13603 0.56644452 10
0.27764234 2.1494772 0.49114645 11
0.27753139 2.1456709 0.41273054 16
0.27832106 2.1488278 0.33674476 12
0.27748176 2.1394165 0.26019105 14
0.280783 2.1619112 0.18738484 14
0.28054753 2.1571503 0.11199894 14
0.27932388 2.1448145 0.037086364 15
0.2479644 1.8911291 -0.50081509 3
0.28086397 2.1391451 -0.48926884 5
0.28586355 2.1742833 -0.41844994 15
0.28410244 2.1579742 -0.33868089 16
0.28715092 2.1781917 -0.26506612 14
0.28531024 2.1613181 -0.18738513 15
0.28375873 2.146677 -0.11110463 15
0.28447217 2.1491871 -0.036802221 14
0.28298077 2.1350551 0.56644452 10
0.2851437 2.148495 0.49114645 11
0.28566605 2.1495543 0.41368371 16
0.28582019 2.1478431 0.33674476 11
0.28494802 2.1384346 0.26019105 14
0.28832775 2.1609178 0.18738484 14
0.28807569 2.156158 0.11199894 14
0.28680897 2.1438265 0.037086364 15
0.25520873 1.8950385 -0.50210917 3
0.28832927 2.1381519 -0.48926884 5
0.29345143 2.1732721 -0.41844994 15
0.2922951 2.1618629 -0.33946306 16
0.29475245 2.1771762 -0.26506612 14
0.29285291 2.1603091 -0.18738513 15
0.29125032 2.1456735 -0.11110463 14
0.29197252 2.148181 -0.036802221 14
0.29043183 2.1340542 0.56644452 10
0.29264164 2.1474867 0.49114645 11
0.29316765 2.1485441 0.41368371 15
0.2933158 2.1468325 0.33674476 12
0.29241082 2.1374271 0.26019105 14
0.29586902 2.1598983 0.18738484 13
0.29560032 2.1551392 0.11199894 14
0.29429057 2.1428123 0.037086364 16
0.2618221 1.8941362 -0.50210917 4
0.29579103 2.1371324 -0.48926884 5
0.30103579 2.1722345 -0.41844994 15
0.29983962 2.1608293 -0.33946306 16
0.30235043 2.1761339 -0.26506612 13
0.30039203 2.1592736 -0.18738513 15
0.29873833 2.1446438 -0.11110463 13
0.29946926 2.1471488 -0.036802221 13
0.29787928 2.1330276 0.56644452 10
0.29946131 2.1416273 0.49002257 11
0.30066571 2.1475077 0.41368371 16
0.30080783 2.1457953 0.33674476 11
0.29987004 2.1363933 0.26019105 14
0.30340666 2.1588523 0.18738484 13
0.30312136 2.1540942 0.11199894 14
0.30176857 2.1417718 0.037086364 15
0.26843229 1.8932105 -0.50210917 4
0.30324924 2.1360867 -0.48926884 5
0.30861646 2.1711705 -0.41844994 15
0.3073805 2.1597698 -0.33946306 16
0.30994472 2.1750653 -0.26506612 13
0.30792746 2.1582119 -0.18738513 16
0.30622271 2.1435878 -0.11110463 13
0.30767027 2.1510391 -0.036888614 14
0.30532312 2.1319747 0.56644452 10
0.30693516 2.1405687 0.49002257 11
0.30816007 2.146445 0.41368371 16
0.30829626 2.1447322 0.33674476 12
0.3073256 2.1353335 0.26019105 13
0.31094062 2.1577802 0.18738484 13
0.3106387 2.153023 0.11199894 14
0.30924293 2.1407056 0.037086364 16
0.27503917 1.8922621 -0.50210917 3
0.31070372 2.1350152 -0.48926884 5
0.31619337 2.1700799 -0.41844994 15
0.31491762 2.1586835 -0.33946306 16
0.31753522 2.1739702 -0.26506612 13
0.31545913 2.1571238 -0.18738513 15
0.31442675 2.1474466 -0.11136544 14
0.31517687 2.1499519 -0.036888614 13
0.31206182 2.126117 0.56515121 10
0.31440526 2.1394844 0.49002257 11
0.31565067 2.1453562 0.41368371 16
0.31650057 2.1485286 0.33752605 12
0.31477746 2.1342478 0.26019105 14
0.31847078 2.1566815 0.18738484 13
0.31815228 2.1519256 0.11199894 14
0.31671348 2.1396129 0.037086364 15
0.28164274 1.8912904 -0.50210917 4
0.31815442 2.1339178 -0.48926884 5
0.32376644 2.1689632 -0.41844994 15
0.32245091 2.1575711 -0.33946306 17
0.32512185 2.1728485 -0.26506612 13
0.32372499 2.1609359 -0.18782091 16
0.32192081 2.1463358 -0.11136544 14
0.3226797 2.1488388 -0.036888614 13
0.32019955 2.1297913 0.56644452 10
0.3225967 2.1431913 0.49114645 11
0.32313743 2.1442413 0.41368371 16
0.32399842 2.1474109 0.33752605 12
0.32222545 2.133136 0.26019105 14
0.3267419 2.1604817 0.18782063 13
0.32566196 2.1508019 0.11199894 14
0.32418022 2.1384943 0.037086364 15
0.28824285 1.8902959 -0.50210917 3
0.32560125 2.1327941 -0.48926884 4
0.33207718 2.1726716 -0.41940317 15
0.32998031 2.1564324 -0.33946306 15
0.33345607 2.1766062 -0.26567549 13
0.33126608 2.1597927 -0.18782091 15
0.32941097 2.1451991 -0.11136544 13
0.33093822 2.1526403 -0.036975004 14
0.32689717 2.1238866 0.56515121 10
0.33007589 2.1420522 0.49114645 11
0.33062029 2.1431003 0.41368371 16
0.3314923 2.1462667 0.33752605 12
0.33042789 2.1369028 0.26080036 13
0.33428138 2.159328 0.18782063 13
0.33316764 2.149652 0.11199894 14
0.33164296 2.1373496 0.037086364 15
0.29558417 1.89405 -0.50340325 4
0.3337962 2.1364582 -0.49039361 5
0.33965918 2.1714993 -0.41940317 15
0.33750564 2.1552675 -0.33946306 16
0.34105185 2.1754289 -0.26567549 13
0.33880314 2.1586232 -0.18782091 15
0.3368971 2.1440361 -0.11136544 13
0.33845031 2.1514721 -0.036975004 14
0.33430895 2.1227326 0.56515121 9
0.33830979 2.1456997 0.49227038 10
0.33809909 2.1419332 0.41368371 16
0.33898216 2.1450965 0.33752605 12
0.33788505 2.1357362 0.26080036 14
0.34181681 2.1581481 0.18782063 13
0.3406693 2.1484759 0.11199894 14
0.33988541 2.1411161 0.037173621 15
0.30219382 1.8930067 -0.50340325 4
0.34125179 2.1352801 -0.49039361 4
0.34801251 2.1751471 -0.42035633 15
0.34502688 2.1540761 -0.33946306 16
0.34864339 2.1742251 -0.26567549 13
0.34712556 2.1623452 -0.18825668 15
0.34437913 2.1428471 -0.11136544 13
0.34595829 2.1502776 -0.036975004 13
0.34171662 2.1215527 0.56515121 10
0.34579766 2.1445057 0.49227038 11
0.34557375 2.1407399 0.41368371 16
0.34646788 2.1439002 0.33752605 12
0.34533811 2.1345439 0.26080036 13
0.35014445 2.1618586 0.1882564 13
0.348966 2.1522024 0.11226062 14
0.34735724 2.1399167 0.037173621 15
0.3087998 1.8919404 -0.50340325 4
0.34870321 2.1340759 -0.49039361 5
0.35560307 2.173919 -0.42035633 15
0.35254389 2.1528587 -0.33946306 16
0.35623074 2.1729949 -0.26567549 13
0.35467142 2.1611204 -0.18825668 15
0.35266644 2.146559 -0.11162625 14
0.35346204 2.1490569 -0.036975004 13
0.34990487 2.1251128 0.56644452 10
0.35328126 2.1432858 0.49227038 11
0.35384339 2.1443636 0.41463691 16
0.35475427 2.1475503 0.33830738 12
0.35278696 2.1333253 0.26080036 13
0.35768861 2.1606231 0.1882564 13
0.35647646 2.1509712 0.11226062 14
0.35482484 2.1386912 0.037173621 15
0.31460738 1.8860871 -0.50210917 4
0.35615042 2.1328456 -0.49039361 5
0.36318931 2.1726644 -0.42035633 15
0.36005661 2.1516149 -0.33946306 16
0.36381373 2.1717381 -0.26567549 13
0.36221302 2.1598692 -0.18825668 15
0.36015722 2.1453149 -0.11162625 14
0.36096153 2.14781 -0.036975004 13
0.35732076 2.1238785 0.56644452 9
0.36076057 2.1420393 0.49227038 11
0.36132646 2.1431155 0.41463691 16
0.36142656 2.1414292 0.33752605 11
0.36023149 2.132081 0.26080036 14
0.36522838 2.1593614 0.1882564 13
0.36398256 2.1497138 0.11226062 14
0.36228812 2.1374395 0.037173621 15
0.32118917 1.8849773 -0.50210917 4
0.36359325 2.1315894 -0.49039361 5
0.37077108 2.1713834 -0.42035633 14
0.36839709 2.1552131 -0.34024525 16
0.37222934 2.1753466 -0.26628482 13
0.36975011 2.1585917 -0.18825668 15
0.36764356 2.1440446 -0.11162625 14
0.36845657 2.1465368 -0.036975004 13
0.36473233 2.1226184 0.56644452 9
0.3682355 2.1407671 0.49227038 10
0.36880514 2.1418409 0.41463691 16
0.36889935 2.1401546 0.33752605 12
0.36851549 2.1357009 0.26140973 13
0.37276375 2.1580732 0.1882564 13
0.37148428 2.1484303 0.11226062 14
0.36974695 2.136162 0.037173621 15
0.32693914 1.8790866 -0.50081509 4
0.37103167 2.1303074 -0.49039361 5
0.37834838 2.1700759 -0.42035633 14
0.37591791 2.153914 -0.34024525 15
0.37982044 2.1740339 -0.26628482 13
0.37728277 2.1572878 -0.18825668 15
0.37512544 2.1427484 -0.11162625 14
0.37594715 2.1452377 -0.036975004 13
0.37213939 2.1213324 0.56644452 10
0.37570593 2.1394687 0.49227038 11
0.37627932 2.1405406 0.41463691 16
0.37722349 2.1437178 0.33830738 11
0.37596825 2.1344016 0.26140973 14
0.38029456 2.156759 0.1882564 13
0.37984928 2.1520374 0.1125223 14
0.37720129 2.1348584 0.037173621 15
0.33349636 1.877934 -0.50081509 4
0.37846556 2.1289992 -0.49039361 4
0.38592106 2.1687422 -0.42035633 14
0.38343421 2.1525886 -0.34024525 16
0.38740692 2.1726949 -0.26628482 13
0.38481081 2.1559577 -0.18825668 15
0.38260275 2.1414258 -0.11162625 14
0.38431326 2.1488335 -0.037061393 14
0.37954196 2.1200204 0.56644452 10
0.38317177 2.138144 0.49227038 11
0.38374889 2.1392143 0.41463691 16
0.3847042 2.1423879 0.33830738 12
0.38341641 2.1330762 0.26140973 14
0.38782075 2.1554184 0.1882564 13
0.38735899 2.1506984 0.1125223 14
0.38553807 2.1384487 0.037260886 15
0.34004956 1.8767585 -0.50081509 4
0.38589489 2.127665 -0.49039361 4
0.39348903 2.1673818 -0.42035633 14
0.39094579 2.151237 -0.34024525 16
0.39498866 2.1713293 -0.26628482 13
0.39322647 2.1595018 -0.18869248 15
0.39007539 2.1400774 -0.11162625 14
0.39181176 2.1474791 -0.037061393 13
0.38693991 2.1186826 0.56644452 10
0.39063293 2.1367936 0.49227038 11
0.39209732 2.1426897 0.41559011 16
0.39218017 2.141032 0.33830738 12
0.3908599 2.1317248 0.26140973 13
0.3953422 2.1540513 0.1882564 13
0.39486399 2.1493332 0.1125223 14
0.39300027 2.1370897 0.037260886 15
0.3465986 1.8755599 -0.50081509 4
0.39331946 2.1263053 -0.49039361 4
0.40105221 2.1659951 -0.42035633 14
0.39845264 2.1498592 -0.34024525 16
0.4025656 2.1699374 -0.26628482 13
0.40076217 2.1581161 -0.18869248 14
0.39845577 2.1436117 -0.11188706 13
0.39930546 2.1460981 -0.037061393 14
0.39433312 2.1173191 0.56644452 10
0.39808938 2.135417 0.49227038 11
0.39957434 2.1413081 0.41559011 16
0.39965141 2.1396499 0.33830738 11
0.39829862 2.1303475 0.26140973 13
0.40285882 2.1526582 0.1882564 13
0.40236416 2.1479416 0.1125223 14
0.40137905 2.1406186 0.037348147 15
0.35314342 1.8743386 -0.50081509 4
0.40073928 2.1249194 -0.49039361 4
0.40861049 2.164582 -0.42035633 14
0.40687153 2.1533082 -0.34102744 16
0.41013765 2.168519 -0.26628482 13
0.40829298 2.1567039 -0.18869248 15
0.40593594 2.1422079 -0.11188706 14
0.40772593 2.1496029 -0.037147783 14
0.40172154 2.1159296 0.56644452 10
0.40554094 2.1340144 0.49227038 11
0.40704644 2.1399002 0.41559011 16
0.40711772 2.1382418 0.33830738 12
0.40573251 2.1289442 0.26140973 14
0.41037053 2.1512389 0.1882564 13
0.40985942 2.1465242 0.1125223 14
0.40884879 2.1392043 0.037348147 15
0.35968393 1.8730946 -0.50081509 4
0.40815419 2.1235075 -0.49039361 4
0.41616383 2.1631424 -0.42035633 14
0.4143855 2.1518748 -0.34102744 15
0.4177047 2.167074 -0.26628482 13
0.41581878 2.1552656 -0.18869248 15
0.41341117 2.1407776 -0.11188706 13
0.41522697 2.1481667 -0.037147783 14
0.41002247 2.1192563 0.5677377 10
0.41391388 2.1373692 0.49339426 10
0.41544762 2.143285 0.41654328 16
0.41551974 2.1416559 0.33908868 12
0.4141075 2.1323864 0.26201907 14
0.41882774 2.1546831 0.18869218 13
0.41734967 2.1450803 0.1125223 14
0.4163135 2.1377642 0.037348147 15
0.36622006 1.8718276 -0.50081509 4
0.41556409 2.1220698 -0.49039361 4
0.42371202 2.1616766 -0.42035633 14
0.42189443 2.1504152 -0.34102744 16
0.42526668 2.1656027 -0.26628482 13
0.42333955 2.153801 -0.18869248 15
0.42088136 2.1393216 -0.11188706 14
0.42272291 2.146704 -0.037147783 14
0.41741756 2.1178119 0.5677377 9
0.42137218 2.1359112 0.49339426 11
0.42292657 2.1418216 0.41654328 16
0.42299297 2.1401925 0.33908868 11
0.4215484 2.130928 0.26201907 13
0.42634642 2.153208 0.18869218 12
0.42483488 2.1436105 0.1125223 14
0.42377314 2.1362979 0.037348147 15
0.37275171 1.8705378 -0.50081509 4
0.42296898 2.1206064 -0.49039361 4
0.43125513 2.1601844 -0.42035633 14
0.43036586 2.1537719 -0.34180957 15
0.43379667 2.1689713 -0.26689416 13
0.4308551 2.1523101 -0.18869248 14
0.42932737 2.1427355 -0.11214787 14
0.43119678 2.1501172 -0.037234176 14
0.42480755 2.1163421 0.5677377 9
0.42882532 2.1344273 0.49339426 10
0.43040037 2.1403325 0.41654328 16
0.43046105 2.1387029 0.33908868 12
0.42898417 2.1294436 0.26201907 13
0.43385991 2.1517067 0.18869218 13
0.43231487 2.1421144 0.1125223 15
0.43122765 2.1348057 0.037348147 15
0.37927884 1.8692253 -0.50081509 4
0.43036869 2.119117 -0.49039361 4
0.43879294 2.1586659 -0.42035633 13
0.43788129 2.1522567 -0.34180957 16
0.44136518 2.167444 -0.26689416 13
0.43836546 2.1507931 -0.18869248 15
0.43680429 2.1412237 -0.11214787 14
0.43869945 2.1485989 -0.037234176 13
0.43219239 2.1148462 0.5677377 10
0.43627322 2.1329174 0.49339426 11
0.43786886 2.1388168 0.41654328 16
0.43792391 2.1371872 0.33908868 12
0.43741176 2.1327949 0.26262844 14
0.44136816 2.1501791 0.18869218 13
0.44079453 2.1454835 0.11278398 15
0.43968385 2.1381843 0.037435409 15
0.38580135 1.86789 -0.50081509 4
0.43776315 2.1176019 -0.49039361 4
0.44731992 2.1619277 -0.42130953 15
0.44539142 2.1507151 -0.34180957 16
0.4489283 2.1658902 -0.26689416 13
0.44688222 2.1541266 -0.18912823 15
0.44427592 2.1396859 -0.11214787 14
0.44619682 2.1470544 -0.037234176 14
0.44055548 2.1180534 0.569031 9
0.44371584 2.1313815 0.49339426 11
0.44533208 2.1372755 0.41654328 16
0.4453814 2.1356456 0.33908868 11
0.44485393 2.1312551 0.26262844 13
0.44988954 2.1535008 0.18912795 13
0.44828096 2.1439319 0.11278398 14
0.44714484 2.1366365 0.037435409 15
0.39231917 1.8665318 -0.50081509 4
0.44515234 2.116061 -0.49039361 5
0.45486373 2.1603529 -0.42130953 14
0.45289609 2.1491473 -0.34180957 16
0.4564859 2.16431 -0.26689416 13
0.45439878 2.1525536 -0.18912823 15
0.45174208 2.1381221 -0.11214787 14
0.45368871 2.145484 -0.037234176 14
0.44794622 2.1165028 0.569031 10
0.45115307 2.1298196 0.49339426 11
0.45278984 2.1357079 0.41654328 16
0.4528335 2.134078 0.33908868 11
0.45229068 2.1296892 0.26262844 14
0.4574039 2.1519175 0.18912795 13
0.45576197 2.142354 0.11278398 13
0.45460036 2.1350627 0.037435409 15
0.39883217 1.865151 -0.50081509 5
0.45253605 2.1144941 -0.49039361 5
0.46240202 2.158752 -0.42130953 14
0.46039525 2.1475532 -0.34180957 16
0.46403798 2.1627033 -0.26689416 13
0.46295565 2.1558244 -0.18956403 15
0.4592028 2.1365321 -0.11214787 13
0.46117508 2.1438873 -0.037234176 14
0.45533144 2.1149263 0.569031 10
0.45961106 2.1329947 0.49451819 11
0.46024209 2.1341145 0.41654328 16
0.46132204 2.1373117 0.33987001 12
0.45972192 2.1280975 0.26262844 14
0.46491271 2.1503077 0.18912795 13
0.46429339 2.1456301 0.11304566 15
0.46310848 2.1383488 0.03752267 15
0.40534031 1.8637475 -0.50081509 4
0.45991424 2.1129014 -0.49039361 4
0.46993464 2.1571248 -0.42130953 15
0.46894088 2.1507583 -0.34259176 16
0.47158441 2.1610703 -0.26689416 13
0.47047806 2.1541953 -0.18956403 15
0.46665788 2.1349161 -0.11214787 14
0.46865582 2.1422644 -0.037234176 14
0.46374419 2.118042 0.57032424 10
0.46705377 2.1313772 0.49451819 11
0.46768874 2.1324949 0.41654328 16
0.46877983 2.1356883 0.33987001 12
0.46714759 2.1264799 0.26262844 14
0.47348547 2.1535366 0.18956374 13
0.47178021 2.1439962 0.11304566 14
0.47056991 2.1367192 0.03752267 15
0.41216856 1.8622494 -0.50081509 4
0.46765533 2.1112018 -0.49039361 4
0.47890002 2.1601796 -0.4222627 15
0.47682068 2.149025 -0.34259176 16
0.48057777 2.1641719 -0.2675035 12
0.47837043 2.1524565 -0.18956403 15
0.47556373 2.1380656 -0.11240868 13
0.47650447 2.1405323 -0.037234176 14
0.47150409 2.1163282 0.57032424 9
0.47486252 2.1296511 0.49451819 11
0.4755016 2.1307664 0.41654328 16
0.47660437 2.1339557 0.33987001 12
0.47493839 2.1247535 0.26262844 13
0.4813754 2.1517868 0.18956374 13
0.48072609 2.1471252 0.11330734 14
0.4783982 2.1349802 0.03752267 16
0.41866654 1.8607993 -0.50081509 4
0.47395164 2.1048033 -0.48926884 5
0.48643756 2.1584947 -0.4222627 14
0.48431927 2.1473475 -0.34259176 16
0.4881292 2.1624813 -0.2675035 13
0.48697862 2.1556325 -0.18999982 16
0.48302409 2.1363926 -0.11240868 13
0.48397341 2.1388559 -0.037234176 14
0.47888857 2.1146693 0.57032424 9
0.48229352 2.1279807 0.49451819 10
0.48402223 2.1338804 0.4174965 16
0.48514369 2.1370955 0.34065133 11
0.48235229 2.1230826 0.26262844 13
0.48888358 2.1500933 0.18956374 13
0.48821804 2.1454341 0.11330734 14
0.4858543 2.1332955 0.03752267 16
0.42483488 1.8594006 -0.50081509 4
0.48056173 2.1033039 -0.48926884 4
0.49321625 2.156956 -0.4222627 13
0.49106294 2.1458154 -0.34259176 16
0.49602836 2.1657748 -0.26811287 13
0.49374834 2.1540918 -0.18999982 15
0.48973337 2.1348646 -0.11240868 13
0.49180907 2.1421974 -0.037320562 13
0.48661119 2.1178617 0.57161748 10
0.48897636 2.1264551 0.49451819 11
0.49072361 2.1323493 0.4174965 16
0.49185517 2.1355608 0.34065133 12
0.49013439 2.1263924 0.26323774 13
0.4956359 2.1485467 0.18956374 13
0.49495569 2.1438897 0.11330734 14
0.4925473 2.1317604 0.03752267 15
0.4320899 1.8626864 -0.50210917 4
0.48790073 2.1016135 -0.48926884 4
0.50074244 2.1552212 -0.4222627 14
0.49855024 2.1440883 -0.34259176 16
0.50358534 2.1640301 -0.26811287 13
0.50126451 2.1523552 -0.18999982 15
0.49831578 2.1380045 -0.11266948 13
0.49928373 2.1404674 -0.037320562 14
0.49400091 2.1161501 0.57161748 9
0.49639609 2.1247351 0.49451819 11
0.49816391 2.1306233 0.4174965 16
0.49930668 2.133831 0.34065133 12
0.49755388 2.1246686 0.26323774 13
0.5031327 2.1468036 0.18956374 13
0.50243628 2.142149 0.11330734 14
0.50112796 2.1348948 0.037609935 16
0.4378055 1.8563895 -0.50081509 4
0.49560022 2.0998113 -0.48926884 4
0.50863838 2.1533713 -0.4222627 14
0.50754136 2.1470523 -0.34337392 16
0.51151353 2.1621699 -0.26811287 13
0.50914991 2.1505034 -0.18999982 15
0.50614864 2.1361637 -0.11266948 14
0.50712556 2.1386232 -0.037320562 14
0.50175369 2.1143253 0.57161748 10
0.50530601 2.1276414 0.49564207 11
0.50710464 2.133558 0.41844967 15
0.50712425 2.1319866 0.34065133 11
0.50648713 2.1276586 0.26384711 13
0.51215208 2.1497905 0.18999954 12
0.51028425 2.1402931 0.11330734 14
0.50894934 2.1330438 0.037609935 15
0.44428283 1.8548499 -0.50081509 4
0.50292695 2.0980685 -0.48926884 4
0.51729697 2.1563559 -0.42321593 14
0.51503289 2.1452675 -0.34337392 15
0.52021712 2.1651964 -0.26872221 13
0.51781791 2.1535559 -0.19043559 15
0.51360214 2.1343842 -0.11266948 14
0.51458764 2.1368399 -0.037320562 14
0.50913101 2.112561 0.57161748 10
0.51272982 2.1258645 0.49564207 11
0.51454902 2.1317749 0.41844967 15
0.51572269 2.1350036 0.3414326 12
0.51391095 2.1258776 0.26384711 14
0.51965314 2.1479897 0.18999954 13
0.51775217 2.1384988 0.11330734 14
0.51756918 2.1361129 0.037697192 15
0.45075473 1.8532878 -0.50081509 4
0.51024753 2.0963001 -0.48926884 4
0.52482092 2.154537 -0.42321593 13
0.52368784 2.1482549 -0.34415612 16
0.52777189 2.1633673 -0.26872221 13
0.52533209 2.1517353 -0.19043559 15
0.52223456 2.137429 -0.1129303 13
0.52323097 2.1398871 -0.037406955 13
0.51765007 2.1154621 0.57291073 9
0.52014732 2.1240621 0.49564207 10
0.52315551 2.1347334 0.41940287 16
0.52317208 2.1331904 0.3414326 11
0.52132851 2.1240709 0.26384711 13
0.52833593 2.1509998 0.19043529 13
0.52640563 2.1415272 0.11356901 14
0.52502245 2.1342931 0.037697192 15
0.45722118 1.8517032 -0.50081509 4
0.51756185 2.0945063 -0.48926884 4
0.53351671 2.1574566 -0.42416909 14
0.53118342 2.1464138 -0.34415612 16
0.53532022 2.1615119 -0.26872221 13
0.53283983 2.1498885 -0.19043559 15
0.52969241 2.1355929 -0.1129303 13
0.53069735 2.1380475 -0.037406955 14
0.52503121 2.1136425 0.57291073 9
0.52873391 2.1269617 0.496766 11
0.53060395 2.1328943 0.41940287 16
0.53061515 2.1313512 0.3414326 12
0.52873975 2.1222382 0.26384711 13
0.53584111 2.1491423 0.19043529 13
0.53387773 2.1396766 0.11356901 14
0.5336805 2.1372981 0.037784457 15
0.46368206 1.8500959 -0.50081509 4
0.52486986 2.0926869 -0.48926884 4
0.54104435 2.155581 -0.42416909 13
0.53867257 2.1445465 -0.34415612 16
0.542862 2.1596301 -0.26872221 13
0.54034108 2.1480153 -0.19043559 15
0.53836274 2.1385729 -0.1131911 13
0.53937858 2.1410296 -0.037493344 14
0.53240603 2.1117969 0.57291073 9
0.53615516 2.1251032 0.496766 10
0.53804594 2.1310291 0.41940287 17
0.53805172 2.1294861 0.3414326 12
0.5361445 2.1203797 0.26384711 14
0.54456168 2.1520879 0.19087109 13
0.54134333 2.1378 0.11356901 14
0.54113781 2.135422 0.037784457 15
0.47013727 1.848466 -0.50081509 4
0.53217149 2.090842 -0.48926884 4
0.54977697 2.1584358 -0.42512229 13
0.54615515 2.142653 -0.34415612 16
0.55039722 2.1577218 -0.26872221 13
0.5490678 2.1509423 -0.19087137 15
0.54582441 2.1366806 -0.1131911 13
0.54684883 2.1391339 -0.037493344 13
0.53977436 2.1099255 0.57291073 9
0.54477823 2.1279383 0.49788988 10
0.54548132 2.129138 0.41940287 16
0.54670823 2.1323788 0.34221393 11
0.54354274 2.1184952 0.26384711 13
0.55207056 2.1501739 0.19087109 13
0.55004501 2.1407337 0.1138307 14
0.54858851 2.1335201 0.037784457 15
0.47658673 1.8468137 -0.50081509 4
0.53946668 2.0889716 -0.48926884 4
0.55730796 2.1565034 -0.42512229 13
0.55363107 2.1407335 -0.34415612 16
0.55916917 2.1605921 -0.26933157 13
0.55657262 2.1490126 -0.19087137 15
0.55327958 2.1347623 -0.1131911 13
0.55431247 2.137212 -0.037493344 14
0.54713607 2.1080284 0.57291073 10
0.55220276 2.1260238 0.49788988 11
0.55291009 2.1272209 0.41940287 16
0.55414832 2.1304574 0.34221393 11
0.55218446 2.1213875 0.26445645 13
0.55957276 2.1482337 0.19087109 13
0.55751425 2.1388006 0.1138307 13
0.5560326 2.1315923 0.037784457 14
0.48180732 1.8404666 -0.49952096 4
0.54675525 2.0870759 -0.48926884 4
0.56483215 2.1545451 -0.42512229 14
0.56235343 2.1435647 -0.34493828 16
0.56670767 2.158627 -0.26933157 13
0.5640707 2.1470568 -0.19087137 15
0.56199753 2.1376474 -0.11345191 14
0.56304133 2.1400986 -0.037579738 13
0.5544911 2.1061058 0.57291073 9
0.56086189 2.1287944 0.49901381 11
0.56158334 2.130024 0.42035604 15
0.56284148 2.1332853 0.34299523 12
0.55958617 2.1194472 0.26445645 13
0.56706804 2.1462674 0.19087109 13
0.56625301 2.1416688 0.11409239 14
0.56346977 2.1296382 0.037784457 15
0.48822883 1.8387736 -0.49952096 4
0.55403721 2.0851548 -0.48926884 4
0.57234949 2.1525602 -0.42512229 13
0.56983238 2.1415887 -0.34493828 16
0.57551616 2.1614313 -0.26994088 12
0.57156187 2.1450748 -0.19087137 15
0.56945586 2.1356726 -0.11345191 13
0.57050824 2.1381204 -0.037579738 13
0.5630855 2.108824 0.57420403 9
0.56828934 2.1268237 0.49901381 11
0.56901515 2.1280506 0.42035604 16
0.57028461 2.1313076 0.34299523 11
0.5682646 2.1222746 0.26506582 13
0.57455641 2.144275 0.19087109 13
0.57372534 2.1396792 0.11409239 14
0.57090026 2.1276584 0.037784457 15
0.49464437 1.8370582 -0.49952096 4
0.56131232 2.0832081 -0.48926884 4
0.58113766 2.1552885 -0.42607546 14
0.57730448 2.1395864 -0.34493828 16
0.5830574 2.1594093 -0.26994088 13
0.57904607 2.1430666 -0.19087137 15
0.57690728 2.133672 -0.11345191 13
0.57796824 2.1361158 -0.037579738 13
0.57044327 2.1068456 0.57420403 9
0.57570988 2.1248271 0.49901381 10
0.57643992 2.1260514 0.42035604 15
0.57901394 2.1340702 0.34377655 12
0.57566923 2.1202781 0.26506582 14
0.58203787 2.1422563 0.19087109 13
0.58119071 2.1376636 0.11409239 13
0.57963604 2.1304765 0.037871718 15
0.50105387 1.8353202 -0.49952096 4
0.56858075 2.0812359 -0.48926884 4
0.5886575 2.1532466 -0.42607546 13
0.58607268 2.1423218 -0.34572047 16
0.59059161 2.1573608 -0.26994088 13
0.58783925 2.1458361 -0.19130714 15
0.58435166 2.131645 -0.11345191 13
0.58542114 2.1340854 -0.037579738 14
0.57907248 2.109499 0.57549721 10
