# .PCD v0.7 - Point Cloud Data file format
VERSION 0.7
FIELDS x y z intensity
SIZE 4 4 4 4
TYPE F F F F
COUNT 1 1 1 1
WIDTH 1422
HEIGHT 1
VIEWPOINT 0 0 0 1 0 0 0
POINTS 1422
DATA ascii
nan nan nan 0
1.5807219 1.9900904 -0.48612636 4
1.6397871 2.0637124 -0.41142297 11
1.6604491 2.0889676 -0.32295412 9
1.6513311 2.0767522 -0.22878417 13
1.6370373 2.0580385 -0.13535988 12
1.6424675 2.0641255 -0.044922903 10
1.6391038 2.0591605 0.69447643 10
1.6414369 2.0613532 0.59904134 8
1.635488 2.0531471 0.50233024 10
1.6427119 2.0614772 0.41096923 9
1.6386169 2.0556021 0.31807896 9
1.6542293 2.0744445 0.22878383 10
1.6461221 2.0635388 0.13633516 11
1.6484616 2.065732 0.045463517 11
nan nan nan 0
nan nan nan 0
1.587659 1.9845606 -0.48612636 5
1.6531522 2.0656874 -0.41298732 9
1.6708325 2.087033 -0.32356349 10
1.6647974 2.0787508 -0.22965574 13
1.6504551 2.0601051 -0.1358815 11
1.6527894 2.0622811 -0.045009293 10
1.6493027 2.0571949 0.69576973 10
1.6516707 2.0594118 0.60016519 9
1.6457163 2.0512538 0.50328338 9
1.6529889 2.059582 0.41175056 10
1.6488892 2.0537395 0.31868833 9
1.6645793 2.072541 0.2292196 12
1.6595696 2.0655649 0.13685852 11
1.658794 2.0638616 0.045550779 12
nan nan nan 0
nan nan nan 0
1.597656 1.9828284 -0.48707953 4
1.6634519 2.0637493 -0.41376951 10
1.6812224 2.0850511 -0.32417279 10
1.6751707 2.0768039 -0.23009151 12
1.6639071 2.0621033 -0.13640311 12
1.666258 2.0642793 -0.045182075 10
1.6625421 2.0589406 0.69835621 10
1.6619108 2.0574238 0.60128915 8
1.6559515 2.0493145 0.50423664 9
1.6663773 2.061481 0.41331318 8
1.6622891 2.0556893 0.31990701 11
1.6749364 2.0705905 0.22965539 13
1.6730517 2.0675225 0.13738188 10
1.6691337 2.0619445 0.04563804 11
nan nan nan 0
nan nan nan 0
1.6045676 1.9772394 -0.48707953 4
1.6768707 2.0655982 -0.41533384 11
1.6916189 2.0830224 -0.32478216 9
1.6855507 2.07481 -0.2305273 13
1.6742443 2.0601575 -0.13666391 10
1.6797607 2.0662088 -0.045354854 12
1.6727666 2.0568719 0.69964945 10
1.6690823 2.05161 0.60128915 9
1.6692913 2.0511353 0.50614297 10
1.676681 2.0594814 0.41409445 9
1.6757224 2.0575702 0.32112572 11
1.6853 2.0685928 0.23009115 9
1.6865674 2.0694108 0.13790524 11
1.6794797 2.0599802 0.045725301 13
nan nan nan 0
nan nan nan 0
1.6114599 1.9716264 -0.48707953 5
1.6903226 2.0673788 -0.41689819 9
1.7020218 2.0809462 -0.3253915 11
1.6990912 2.0766237 -0.23139885 13
1.6877505 2.0620286 -0.13718553 11
1.6901299 2.0642006 -0.045441244 11
1.6829965 2.0547569 0.70094275 10
1.6793215 2.04954 0.602413 9
1.6795522 2.0490921 0.50709617 10
1.6869911 2.057435 0.41487581 9
1.6860417 2.0555456 0.32173505 9
1.69567 2.0665481 0.23052694 11
1.6969486 2.0673707 0.13816692 13
1.6898328 2.0579689 0.045812566 12
nan nan nan 0
1.3703067 1.6664593 -0.48926884 3
1.617646 1.9665542 -0.48707953 4
1.7030851 2.069685 -0.41846254 11
1.7148588 2.0832522 -0.32661018 10
1.7087728 2.0751204 -0.23183462 13
1.697395 2.0605702 -0.13744634 9
1.7029649 2.0665967 -0.045614023 8
1.6925155 2.0531862 0.70223594 10
1.6919514 2.0517721 0.60466087 9
1.6922281 2.0513783 0.50900251 9
1.699733 2.0597432 0.4164384 11
1.6988097 2.0578926 0.32295373 10
1.7084972 2.0688922 0.23139849 14
1.7066152 2.0658786 0.1384286 11
1.6994743 2.0565035 0.045899823 12
nan nan nan 0
1.3636858 1.6466571 -0.48476982 4
1.627632 1.9646752 -0.48803276 4
1.7134502 2.0675297 -0.41924468 11
1.7252878 2.081074 -0.32721955 11
1.7223654 2.0768113 -0.23270617 12
1.7077656 2.0584755 -0.13770714 12
1.713361 2.0644867 -0.045700416 10
1.7027575 2.0509818 0.70352924 10
1.7022158 2.0496013 0.60578477 9
1.7025151 2.0492339 0.50995576 10
1.7132256 2.0613937 0.41800103 9
1.7059827 2.0519502 0.32295373 9
1.7188935 2.0667453 0.23183426 11
1.7202029 2.0675857 0.13895196 12
1.7098408 2.0544014 0.045987088 14
nan nan nan 0
1.4137033 1.6937721 -0.50051636 3
1.6351637 1.9584111 -0.48803276 4
1.7277081 2.0685163 -0.42080906 10
1.7364478 2.0782428 -0.32782891 10
1.7335215 2.0740044 -0.23314197 13
1.7188597 2.0557337 -0.13796796 11
1.7212754 2.0578928 -0.045700416 9
1.7137195 2.0481327 0.70482248 9
1.7163274 2.0505223 0.60803258 9
1.7166731 2.0502083 0.5118621 10
1.7274705 2.062372 0.41956365 8
1.7170366 2.0491886 0.3235631 11
1.7332158 2.0677645 0.23270582 13
1.7313374 2.0647914 0.13921364 10
1.7241421 2.0554814 0.046161614 11
nan nan nan 0
1.3882588 1.651534 -0.48926884 4
1.638831 1.9489347 -0.48707953 4
1.738097 2.0662518 -0.42159122 10
1.7468867 2.0759656 -0.32843825 11
1.7439581 2.0717511 -0.23357774 12
1.7292414 2.0535407 -0.13822877 11
1.7316689 2.0556953 -0.045786802 10
1.727083 2.049525 0.70740896 10
1.7297549 2.0519688 0.61028039 9
1.7269834 2.0479558 0.5128153 9
1.7442122 2.0676541 0.4219076 10
1.7241791 2.0431826 0.3235631 10
1.7468492 2.0693142 0.23357739 12
1.741756 2.0625503 0.13947532 13
1.7345376 2.0532649 0.046248872 12
nan nan nan 0
1.3908676 1.6429595 -0.48814404 3
1.645624 1.9432023 -0.48707953 4
1.7516832 2.0677085 -0.42315558 11
1.7605398 2.0774274 -0.32965693 11
1.7576215 2.0732501 -0.23444931 12
1.7396284 2.0513 -0.13848959 9
1.7388341 2.0496383 -0.045786802 11
1.7373518 2.0471663 0.70870227 10
1.7400602 2.0496325 0.6114043 8
1.7404763 2.0493975 0.51472169 9
1.7514189 2.061553 0.4219076 9
1.7345144 2.0409329 0.32417244 10
1.7605146 2.0707939 0.23444895 12
1.7554146 2.064065 0.13999867 12
1.748168 2.0548177 0.046423398 11
nan nan nan 0
nan nan nan 0
1.6555822 1.9411806 -0.48803276 5
1.7653008 2.0690949 -0.4247199 9
1.7710023 2.0750442 -0.3302663 10
1.7680819 2.0708902 -0.23488508 12
1.7532641 2.0528088 -0.1390112 11
1.752473 2.051158 -0.045959584 12
1.7476251 2.0447609 0.70999545 10
1.7535363 2.0509522 0.61365211 9
1.7508094 2.0470395 0.51567489 8
1.7618151 2.0591793 0.4226889 9
1.7448549 2.0386364 0.32478178 8
1.7742114 2.0722032 0.23532051 11
1.765857 2.061717 0.14026035 10
1.7585829 2.0524991 0.046510659 12
nan nan nan 0
nan nan nan 0
1.662348 1.9353899 -0.48803276 4
1.775731 2.0666659 -0.42550209 11
1.7847047 2.0763767 -0.331485 10
1.7785473 2.0684826 -0.23532088 12
1.7669309 2.0542474 -0.13953282 11
1.7694042 2.0563965 -0.046218757 11
1.7610536 2.0459692 0.71258199 10
1.7638639 2.0485108 0.61477602 8
1.7643509 2.0483534 0.51758122 10
1.772216 2.0567584 0.42347023 9
1.7552006 2.0362923 0.32539111 11
1.7879393 2.0735419 0.23619208 10
1.7763042 2.0593216 0.14052203 11
1.7690026 2.050133 0.04659792 11
nan nan nan 0
nan nan nan 0
1.672305 1.9332877 -0.48898596 4
1.7861656 2.0641894 -0.42628425 9
1.7951894 2.0738862 -0.33209434 11
1.7890173 2.0660272 -0.23575665 13
1.7773601 2.051841 -0.13979362 12
1.7831194 2.0577641 -0.046391536 8
1.7713484 2.0434592 0.71387523 9
1.7741956 2.0460222 0.61589992 8
1.7747067 2.0458901 0.51853442 9
1.785858 2.0580194 0.42503282 10
1.7688043 2.0376484 0.32660982 10
1.798432 2.071049 0.23662783 13
1.7867563 2.0568781 0.14078373 12
1.7827063 2.0514925 0.046772443 13
1.2332903 1.4167397 -0.49305049 3
1.4168707 1.627054 -0.48926884 3
1.6790432 1.9274385 -0.48898596 4
1.7998489 2.065388 -0.42784861 10
1.8089399 2.075089 -0.33331302 11
1.8027657 2.0672779 -0.2366282 12
1.7910764 2.0531499 -0.14031525 11
1.7968656 2.0590606 -0.046564315 10
1.7848231 2.0445406 0.71646172 10
1.7845312 2.0434861 0.61702383 8
1.7882956 2.0470755 0.52044082 9
1.7962807 2.0554919 0.42581412 9
1.782439 2.0389347 0.32782853 10
1.8089294 2.0685081 0.23706363 12
1.7972128 2.0543866 0.14104539 11
1.7931488 2.0490193 0.046859708 12
1.2477794 1.4233211 -0.49693277 3
1.428966 1.6294239 -0.49151835 3
1.6889977 1.9252553 -0.48993912 4
1.810305 2.0628047 -0.4286308 10
1.8227205 2.0762208 -0.33453172 10
1.8132577 2.0647151 -0.23706399 12
1.8015279 2.0506365 -0.14057605 11
1.8073424 2.0565312 -0.046650708 10
1.795138 2.0419252 0.71775496 9
1.7980884 2.0445616 0.61927158 8
1.7986724 2.0445061 0.52139401 10
1.80997 2.0566237 0.42737675 10
1.796104 2.0401499 0.32904723 9
1.8194309 2.0659194 0.2374994 12
1.8109745 2.055594 0.14156875 11
1.8035959 2.0464983 0.046946973 12
1.236758 1.4008542 -0.4904623 3
1.4346452 1.624426 -0.49151835 3
1.6957078 1.9193479 -0.48993912 4
1.8207648 2.0601733 -0.42941296 10
1.833244 2.0735641 -0.33514106 11
1.8270535 2.0658352 -0.23793554 13
1.815292 2.0518148 -0.14109766 11
1.8178232 2.0539534 -0.046737097 10
1.808658 2.0428791 0.72034144 10
1.8084446 2.0419199 0.62039554 8
1.8123078 2.0455625 0.52330035 9
1.8204137 2.0539894 0.42815807 10
1.8065066 2.0375814 0.32965657 10
1.8332412 2.0670087 0.23837095 12
1.8214526 2.052995 0.14183044 12
1.8173653 2.047668 0.047121495 12
1.2512674 1.4073566 -0.49434459 3
1.4338312 1.6121275 -0.48926884 3
1.6991348 1.9097502 -0.48898596 4
1.8312284 2.0574942 -0.43019515 10
1.8470711 2.0745649 -0.33635977 11
1.8375661 2.0631645 -0.23837131 13
1.8257649 2.0491941 -0.14135848 10
1.8283082 2.0513277 -0.04682349 10
1.8222063 2.0437632 0.72292799 10
1.8220471 2.0428669 0.62264335 8
1.8227049 2.0428865 0.52425355 9
1.8341495 2.0549915 0.4297207 9
1.8202186 2.0386667 0.33087525 10
1.8437635 2.064312 0.23880674 12
1.8352613 2.0540712 0.1423538 11
1.8278334 2.0450392 0.047208756 12
1.2561724 1.4029802 -0.49434459 3
1.4361994 1.6034837 -0.48814404 3
1.7057908 1.9038075 -0.48898596 4
1.8449916 2.0584443 -0.43175948 10
1.8576143 2.0717998 -0.33696911 10
1.8514085 2.0641537 -0.23924288 13
1.8395761 2.0502415 -0.1418801 11
1.842136 2.0523739 -0.046996269 10
1.8357829 2.0445776 0.72551447 10
1.8356782 2.0437436 0.62489116 8
1.8331052 2.0401626 0.52520674 9
1.8446128 2.0522494 0.430502 9
1.8306421 2.0359912 0.33148462 10
1.8542887 2.0615666 0.23924251 11
1.8490998 2.0550761 0.14287716 11
1.8416498 2.046078 0.047383279 12
1.2642963 1.4021736 -0.4956387 3
1.4385248 1.594843 -0.48701933 3
1.7124258 1.8978416 -0.48898596 4
1.8554744 2.0556574 -0.43254164 10
1.8681607 2.0689864 -0.33757848 10
1.8619412 2.0613749 -0.23967867 13
1.8500689 2.0475123 -0.14214091 11
1.8526411 2.0496397 -0.047082655 10
1.8461479 2.0417397 0.72680777 10
1.8460692 2.0409365 0.62601501 9
1.8468019 2.0410304 0.52711314 9
1.8550794 2.0494592 0.43128332 9
1.8410686 2.0332673 0.33209395 9
1.8648179 2.0587733 0.23967829 11
1.8596148 2.052309 0.14313883 11
1.8521384 2.0433412 0.047470544 12
1.269183 1.3977519 -0.4956387 3
1.4440831 1.5898119 -0.48701933 3
1.7190402 1.8918526 -0.48898596 4
1.8659605 2.0528226 -0.43332383 10
1.8787102 2.0661244 -0.33818778 11
1.8758286 2.0622323 -0.24055022 13
1.8639258 2.0484281 -0.14266253 11
1.8665148 2.0505545 -0.047255438 10
1.8597673 2.0424254 0.72939426 10
1.859744 2.0416837 0.62826282 8
1.8572211 2.0381994 0.52806634 9
1.8655488 2.0466213 0.43206459 9
1.8548427 2.0341625 0.33331263 10
1.8787063 2.0596111 0.24054985 12
1.8734984 2.0531819 0.14366218 11
1.8660003 2.0442479 0.04764507 12
1.2740544 1.3933132 -0.4956387 3
1.4496238 1.5847614 -0.48701933 3
1.7223198 1.8822191 -0.48803276 4
1.8797837 2.0535822 -0.43488818 10
1.8926136 2.0668738 -0.33940649 10
1.8897446 2.0630178 -0.24142179 13
1.8744382 2.0455909 -0.14292334 11
1.8804175 2.0513971 -0.047428217 10
1.8701495 2.0394809 0.73068756 9
1.8734459 2.0423601 0.63051063 8
1.8709615 2.0389371 0.52997267 9
1.8793609 2.0473733 0.43362722 9
1.8652884 2.0313308 0.333922 10
1.8892537 2.0567088 0.24098562 12
1.887411 2.053983 0.14418554 11
1.8765078 2.0414023 0.047732327 12
1.2789102 1.3888574 -0.4956387 3
1.4584476 1.5832748 -0.48814404 3
1.7322057 1.8798053 -0.48898596 4
1.8902875 2.0506389 -0.43567032 10
1.9031812 2.0639033 -0.34001586 10
1.9070661 2.0673921 -0.24272911 12
1.8849534 2.0427048 -0.14318414 10
1.8977395 2.055841 -0.047687389 10
1.8838106 2.0400374 0.73327404 10
1.8838698 2.039387 0.63163459 7
1.8880606 2.0432081 0.53283226 9
1.8898485 2.0444272 0.43440855 9
1.8757371 2.028451 0.33453134 10
1.9065688 2.0610712 0.24229297 12
1.904743 2.0583766 0.1449706 12
1.9073945 2.0605206 0.048343163 13
1.2870343 1.3879261 -0.49693277 3
1.4606521 1.5746027 -0.48701933 3
1.7420956 1.8773451 -0.48993912 4
1.9075137 2.0548863 -0.43801686 10
1.9205049 2.0681572 -0.34184387 10
1.931221 2.0789695 -0.24490802 12
1.8988702 2.0434282 -0.14370576 10
1.9219228 2.067512 -0.04811934 10
1.9040765 2.0475969 0.73844707 10
1.9075689 2.0506349 0.63725412 8
1.9052125 2.0473852 0.5356918 9
1.9205279 2.0631213 0.43987769 10
1.8997164 2.0400505 0.33757806 10
1.927332 2.0689819 0.24403608 12
1.9255327 2.0663271 0.14601731 12
1.9316196 2.0721338 0.048779473 16
1.2918713 1.383425 -0.49693277 3
1.4661397 1.5694944 -0.48701933 3
1.7519892 1.8748388 -0.49089235 4
1.9315372 2.0662537 -0.44192773 10
1.9514399 2.0868142 -0.34610933 11
1.9520773 2.0867655 -0.24665113 27
1.9298735 2.0623083 -0.14553143 12
1.9393775 2.0717397 -0.048378512 21
1.9343215 2.0656157 0.74749976 10
1.9313694 2.0617421 0.64287359 10
1.9324849 2.0622113 0.54141092 14
1.9446055 2.0744197 0.44378427 26
1.9271942 2.0551271 0.34123415 13
1.9481735 2.0767725 0.24577919 25
1.9464008 2.0741572 0.14706403 23
1.9662136 2.094538 0.04947757 32
1.2966925 1.3789072 -0.49693277 3
1.4682711 1.5608184 -0.48589453 3
1.7618867 1.8722863 -0.49184549 4
1.9556627 2.0774777 -0.44583857 11
1.9757236 2.0980544 -0.34915608 14
1.9730113 2.0944414 -0.24839425 21
1.9576072 2.0773628 -0.14709628 29
1.9637437 2.0831461 -0.048810463 18
1.9746565 2.0939901 0.7604323 29
1.9552705 2.0727079 0.64849317 24
1.9666212 2.0840111 0.54903644 30
1.9687854 2.0855753 0.44769084 17
1.9684292 2.0844691 0.34732762 31
1.9725133 2.088064 0.24795809 24
1.9673469 2.0818667 0.14811075 26
1.9735129 2.0876617 0.04947757 68
1.3014977 1.3743725 -0.49693277 3
1.4737104 1.5556837 -0.48589453 3
1.7751639 1.8732501 -0.49375188 4
1.9832878 2.0921426 -0.4505316 13
2.0035243 2.1127512 -0.35281214 12
1.9905943 2.0983825 -0.24970159 19
1.9820321 2.0886264 -0.14840032 17
1.9847708 2.0907815 -0.049156025 18
1.9753019 2.0800798 0.75784576 22
1.9759158 2.079999 0.65298879 19
1.9738836 2.0771337 0.54903644 16
1.989664 2.0930078 0.45081607 17
1.9756935 2.0775855 0.34732762 19
1.9900892 2.0919921 0.24926542 24
1.9849285 2.0858381 0.1488958 18
1.9842352 2.0843809 0.049564831 64
1.3062874 1.369821 -0.49693277 3
1.4791318 1.5505301 -0.48589453 3
1.7850804 1.8705933 -0.49470508 4
2.0042186 2.0994954 -0.45366031 16
2.0211692 2.1165121 -0.35464019 16
2.0082288 2.1022263 -0.25100893 17
1.9927603 2.085305 -0.14866114 15
1.998966 2.091068 -0.049328804 17
1.9858888 2.0766628 0.75913906 18
1.9898999 2.0801303 0.6552366 16
1.9879092 2.0773232 0.55094284 13
1.9969577 2.0860498 0.45081607 14
1.9863659 2.0742607 0.34793696 15
2.0042708 2.0922265 0.25013697 22
1.9991068 2.086107 0.14941916 16
1.998418 2.0846598 0.049739353 60
1.3077157 1.3617693 -0.4956387 3
1.4845352 1.5453575 -0.48589453 3
1.795 1.8678898 -0.49565825 4
2.0218024 2.1031671 -0.45600685 17
2.0354247 2.1165981 -0.35585886 17
2.0224609 2.1023827 -0.25188047 15
2.0069518 2.0855319 -0.14918275 14
2.0131872 2.0912809 -0.049501583 15
1.9964759 2.0731971 0.7604323 15
2.0072892 2.0836978 0.65860826 14
1.9985543 2.0739059 0.55189604 12
2.0110824 2.0861773 0.45237869 12
2.0004842 2.0744588 0.34915566 13
2.0184782 2.0923872 0.25100854 17
2.0133109 2.0863018 0.14994252 13
2.0126269 2.0848649 0.049913879 59
1.3124613 1.3571962 -0.4956387 3
1.4899204 1.5401661 -0.48589453 3
1.8015093 1.8616127 -0.49565825 4
2.0394361 2.1067414 -0.45835334 16
2.0497055 2.1166103 -0.35707757 17
2.0367188 2.1024654 -0.25275204 15
2.0211689 2.085685 -0.14970437 14
2.0274341 2.0914197 -0.049674366 14
2.0104253 2.0731499 0.76301885 14
2.0213351 2.0836725 0.66085607 13
2.0160358 2.0774839 0.55475557 12
2.0252318 2.0862317 0.45394132 12
2.0146279 2.0745838 0.35037434 13
2.032711 2.0924742 0.25188008 15
2.0240612 2.0828424 0.15020418 11
2.0268617 2.084996 0.050088402 59
1.3171906 1.3526067 -0.4956387 3
1.4952875 1.534956 -0.48589453 3
1.8114222 1.8588282 -0.49661148 4
2.0536721 2.1066821 -0.45991769 16
2.0605464 2.1129956 -0.35768694 22
2.0510015 2.102474 -0.2536236 16
2.0354118 2.0857644 -0.15022598 13
2.0417066 2.0914845 -0.049847145 15
2.0243986 2.0730307 0.76560533 13
2.0354054 2.0835743 0.66310394 12
2.0301363 2.077455 0.55666196 11
2.0394065 2.0862126 0.45550394 12
2.0287969 2.074635 0.35159305 13
2.0504525 2.0960479 0.25318745 17
2.0383039 2.0829017 0.15072754 12
2.0411212 2.0850527 0.050262928 61
1.3185226 1.3445523 -0.49434459 3
1.5006365 1.5297271 -0.48589453 3
1.8213375 1.855997 -0.49756464 4
2.0644727 2.103025 -0.46069989 14
2.0748637 2.1128719 -0.35890561 14
2.0653095 2.1024084 -0.25449514 16
2.0496795 2.0857694 -0.1507476 13
2.056004 2.0914752 -0.050019924 15
2.0383956 2.072839 0.76819187 14
2.0494995 2.0834029 0.66535175 14
2.0442612 2.0773528 0.5585683 12
2.0536056 2.0861199 0.45706654 12
2.0429904 2.0746126 0.35281172 13
2.0647476 2.0959744 0.25405899 16
2.0525713 2.0828872 0.1512509 12
2.0554063 2.0850358 0.05043745 58
1.323208 1.3399415 -0.49434459 3
1.505967 1.5244796 -0.48589453 3
1.8312552 1.8531195 -0.49851784 4
2.0752733 2.0993178 -0.46148208 11
2.0892055 2.112674 -0.36012432 14
2.0796416 2.1022685 -0.25536671 16
2.063972 2.0857005 -0.15126921 14
2.0703263 2.0913913 -0.050192706 14
2.055814 2.0760067 0.7720716 13
2.063617 2.0831587 0.66759956 15
2.0584099 2.077177 0.56047469 14
2.0678287 2.0859535 0.45862916 12
2.0572088 2.0745163 0.35403043 13
2.0790672 2.0958269 0.25493056 16
2.0668638 2.0827978 0.15177426 12
2.0697162 2.0849442 0.050611973 59
1.3278772 1.3353145 -0.49434459 3
1.5112792 1.5192134 -0.48589453 3
1.8411747 1.8501949 -0.49947101 4
2.0860724 2.0955608 -0.46226421 8
2.1035709 2.1124015 -0.361343 15
2.0939977 2.1020541 -0.25623828 16
2.078289 2.085557 -0.15179083 14
2.0846727 2.0912328 -0.050365485 16
2.069869 2.0756578 0.77465808 14
2.0743165 2.079392 0.6687234 14
2.0725822 2.0769281 0.56238109 13
2.0820754 2.0857129 0.46019179 12
2.0714512 2.0743461 0.35524914 15
2.0934107 2.0956047 0.25580209 15
2.0811803 2.0826344 0.15229762 12
2.0840499 2.0847781 0.050786499 60
1.3325301 1.3306713 -0.49434459 3
1.5165731 1.5139288 -0.48589453 3
1.8510962 1.8472238 -0.50042421 4
2.1003671 2.0952418 -0.46382856 7
2.1179597 2.1120543 -0.3625617 15
2.1083779 2.1017652 -0.25710985 17
2.0926301 2.0853388 -0.15231246 14
2.0990436 2.0909996 -0.050538264 14
2.0839465 2.0752361 0.77724457 14
2.0850155 2.0755758 0.66984737 5
2.0798194 2.0696809 0.56238109 4
2.0963454 2.0853982 0.46175441 14
2.0857174 2.0741014 0.35646781 13
2.1042454 2.0917959 0.25623786 16
2.095521 2.082396 0.15282097 13
2.098408 2.0845373 0.050961021 60
1.3371669 1.3260118 -0.49434459 3
1.5218484 1.5086259 -0.48589453 3
1.8610193 1.8442059 -0.5013774 4
2.1217017 2.1017995 -0.46695724 6
2.1323721 2.1116323 -0.36378038 14
2.1263211 2.1049051 -0.25841716 16
2.1069951 2.0850458 -0.15283407 14
2.1134379 2.0906916 -0.050711047 15
2.0980461 2.0747414 0.77983105 13
2.1095719 2.0854108 0.67546684 4
2.1184523 2.0934584 0.57095981 4
2.1106391 2.0850093 0.46331704 13
2.1000068 2.0737824 0.35768652 6
2.118624 2.0914366 0.25710946 16
2.1098852 2.082083 0.15334433 12
2.1127894 2.0842214 0.051135547 59
1.3417876 1.321336 -0.49434459 3
1.5305772 1.5067222 -0.48701933 3
1.8709439 1.8411412 -0.5023306 4
2.1395872 2.1047704 -0.46930379 11
2.146807 2.1111355 -0.36499909 14
2.1407597 2.1044538 -0.25928873 16
2.1249444 2.0881777 -0.1536165 14
2.1278555 2.0903082 -0.050883826 15
2.1121678 2.0741735 0.7824176 14
2.1376991 2.0985124 0.68221027 2
2.1467662 2.1066778 0.57667893 3
2.1284807 2.0880046 0.46566096 9
2.1178629 2.0768635 0.35951456 7
2.1330254 2.0910022 0.257981 15
2.1242726 2.0816951 0.15386769 12
2.1271942 2.0838304 0.05131007 61
1.3463916 1.3166443 -0.49434459 3
1.5358273 1.5013702 -0.48701933 3
1.8808697 1.8380296 -0.50328374 4
2.1575189 2.1076415 -0.47165027 10
2.1612642 2.1105633 -0.36621779 14
2.155221 2.1039271 -0.2601603 16
2.1393678 2.0877223 -0.15413812 14
2.1422961 2.0898499 -0.051056605 15
2.1263111 2.0735321 0.78500408 13
2.1694322 2.1148441 0.6900776 2
2.1751983 2.119725 0.58239806 3
2.1428311 2.0874543 0.46722358 5
2.1322103 2.0763826 0.36073324 5
2.1474495 2.0904927 0.25885257 15
2.1386831 2.0812321 0.15439107 12
2.1416223 2.0833645 0.051484596 61
1.3509793 1.3119365 -0.49434459 3
1.5410587 1.4960001 -0.48701933 3
1.8978416 1.8417077 -0.50614333 4
2.171952 2.1069748 -0.47321463 9
2.1757436 2.1099162 -0.36743647 15
2.1697049 2.1033251 -0.26103184 17
2.1538138 2.0871913 -0.15465973 14
2.1567593 2.0893159 -0.051229388 14
2.140475 2.0728168 0.78759056 13
2.1943035 2.124202 0.69569719 9
2.1861115 2.1155324 0.58335125 13
2.1607533 2.0902627 0.46956751 6
2.1501477 2.079277 0.36256129 26
2.161896 2.0899079 0.25972411 16
2.153116 2.0806935 0.15491442 12
2.1560726 2.0828228 0.051659122 61
1.3590271 1.3105652 -0.4956387 3
1.5462713 1.4906117 -0.48701933 3
1.9219302 1.8521012 -0.51090926 4
2.1828501 2.1028068 -0.47399682 8
2.1902449 2.1091933 -0.36865517 14
2.1842103 2.1026473 -0.26190341 17
2.168282 2.086585 -0.15518135 14
2.1712449 2.0887065 -0.051402166 15
2.1581416 2.075376 0.79147035 13
2.1911681 2.1064 0.69232541 28
2.1864047 2.1010866 0.58144486 25
2.178721 2.0929716 0.47191146 20
2.1645517 2.0786338 0.36377996 18
2.1799576 2.0926969 0.26103145 16
2.1711738 2.0835366 0.15569946 12
2.1705451 2.0822058 0.051833645 59
1.3635936 1.3058133 -0.4956387 3
1.5479459 1.4818361 -0.48589453 3
1.917745 1.8352005 -0.50804973 4
2.1937456 2.098588 -0.47477898 7
2.2047675 2.1083949 -0.36987385 14
2.195137 2.0984523 -0.2623392 15
2.1827724 2.0859029 -0.15570298 14
2.1893673 2.0914745 -0.051661339 12
2.172359 2.0745015 0.79405689 13
2.1985075 2.0987384 0.69232541 24
2.1937256 2.093442 0.58144486 20
2.1931603 2.0921714 0.47347406 14
2.1789773 2.0779152 0.36499867 15
2.1944599 2.0919485 0.26190299 14
2.1856627 2.0828342 0.15622282 10
2.1886592 2.0849609 0.052095428 57
1.3716433 1.3043737 -0.49693277 3
1.5531089 1.4764237 -0.48589453 3
1.9454874 1.8487819 -0.51376885 4
2.2010577 2.0909176 -0.47477898 6
2.2193108 2.1075206 -0.37109256 14
2.2096739 2.0976357 -0.26321074 15
2.197284 2.0851452 -0.15622459 11
2.2039087 2.0907009 -0.051834121 16
2.1901009 2.0768762 0.79793668 10
2.2022843 2.0876999 0.69120157 14
2.2010195 2.0857716 0.58144486 14
2.2112057 2.094692 0.47581798 25
2.193424 2.077121 0.36621734 16
2.2089832 2.0911241 0.26277456 15
2.2038 2.0854883 0.15700787 14
2.2031872 2.0841794 0.052269954 63
1.3761879 1.2995778 -0.49693277 3
1.5547105 1.4676491 -0.48476982 4
1.9376497 1.8285049 -0.50995612 4
2.211935 2.0866106 -0.47556117 6
2.233875 2.1065705 -0.37231123 15
2.2242312 2.0967431 -0.26408231 15
2.2154508 2.0877357 -0.15700702 16
2.2184708 2.0898509 -0.0520069 16
2.2043695 2.075841 0.80052316 14
2.2131057 2.083339 0.69232541 20
2.2118614 2.0814397 0.58239806 17
2.2221012 2.0903447 0.47659931 14
2.2078919 2.0762515 0.36743605 15
2.2271569 2.0936356 0.2640819 14
2.2183437 2.0846217 0.15753123 13
2.2177362 2.083322 0.052444477 63
1.3807161 1.2947662 -0.49693277 3
1.559824 1.4622132 -0.48476982 4
1.9296947 1.8083054 -0.50614333 4
2.2228093 2.0822527 -0.4763433 6
2.2484596 2.1055446 -0.37352994 14
2.2388093 2.0957742 -0.26495388 15
2.2300167 2.0868132 -0.15752864 16
2.2330539 2.0889244 -0.052179679 17
2.2186577 2.0747316 0.80310965 14
2.2274826 2.0822556 0.69457322 14
2.2262859 2.0804086 0.58430439 17
2.2366021 2.0893178 0.47816193 15
2.2223802 2.0753062 0.36865473 16
2.2417336 2.0926464 0.26495346 15
2.232908 2.0836787 0.15805459 14
2.232306 2.0823882 0.052619003 62
1.3816928 1.2866473 -0.4956387 3
1.5649186 1.4567595 -0.48476982 3
1.918029 1.7848399 -0.5013774 4
2.2300644 2.074481 -0.4763433 6
2.2630641 2.1044421 -0.37474868 14
2.2534077 2.0947292 -0.26582542 15
2.2446029 2.0858142 -0.15805025 16
2.2476575 2.0879219 -0.052352462 15
2.2329648 2.0735474 0.80569619 16
2.241879 2.0810966 0.69682103 15
2.24073 2.0793021 0.58621085 17
2.251123 2.0882151 0.47972456 15
2.2368886 2.0742848 0.36987343 15
2.2563303 2.0915809 0.265825 14
2.2438302 2.0792654 0.15831625 13
2.2468963 2.081378 0.052793525 61
1.3861755 1.2818165 -0.4956387 3
1.5735717 1.454595 -0.48589453 3
1.9242474 1.7781339 -0.5013774 4
2.2409196 2.070035 -0.4771255 5
2.2776883 2.1032631 -0.37596735 13
2.2716858 2.0969861 -0.26713276 15
2.2555394 2.0813525 -0.15831105 14
2.2622814 2.0868428 -0.052525241 15
2.2472906 2.0722885 0.80828267 14
2.252712 2.0765605 0.697945 13
2.2515841 2.0747938 0.58716398 16
2.2656631 2.0870366 0.48128715 15
2.2514169 2.0731874 0.37109211 15
2.2709472 2.0904391 0.26669657 15
2.2584231 2.0781822 0.15883961 12
2.2615066 2.080291 0.052968048 60
1.387084 1.2737035 -0.49434459 3
1.5786396 1.4490933 -0.48589453 3
1.9304427 1.7714061 -0.5013774 4
2.251771 2.0655384 -0.47790766 5
2.295989 2.1053617 -0.37779537 14
2.2863355 2.0957754 -0.26800433 15
2.2701538 2.0802131 -0.15883268 14
2.2769251 2.0856867 -0.05269802 14
2.2580724 2.067693 0.80957586 13
2.2671344 2.0752635 0.70019281 13
2.2660549 2.0735488 0.58907038 15
2.2802224 2.0857816 0.48284978 15
2.2659647 2.0720136 0.37231082 15
2.285583 2.0892203 0.26756814 15
2.2730355 2.0770226 0.15936297 11
2.2761369 2.0791276 0.053142574 60
1.3915217 1.2688538 -0.49434459 3
1.5872887 1.446856 -0.48701933 3
1.9438702 1.7712686 -0.50328374 4
2.2662687 2.0643167 -0.47947201 5
2.3106632 2.1040173 -0.37901407 14
2.3010042 2.0944874 -0.2688759 15
2.2847874 2.0789971 -0.1593543 13
2.2915878 2.0844538 -0.052870803 14
2.2724233 2.0662971 0.8121624 13
2.2815752 2.0738914 0.70244062 12
2.2805443 2.0722277 0.59097672 15
2.2948005 2.0844505 0.4844124 15
2.2805321 2.0707636 0.37352949 15
2.3002384 2.087925 0.26843968 14
2.2876673 2.0757861 0.15988633 12
2.2907863 2.0778873 0.053317096 61
1.3995224 1.2672304 -0.4956387 3
1.5923295 1.4413066 -0.48701933 3
1.9245646 1.7414201 -0.49661148 4
2.2844484 2.0663319 -0.48181856 4
2.3253558 2.1025953 -0.38023278 14
2.3193867 2.0964627 -0.27018321 15
2.2994404 2.0777042 -0.15987591 13
2.3062696 2.0831442 -0.053043582 14
2.2867916 2.0648258 0.81474888 12
2.2960336 2.0724435 0.70468843 13
2.2986965 2.0741189 0.59383631 16
2.309397 2.0830429 0.48597503 15
2.2988036 2.0727603 0.37535757 15
2.3149121 2.0865526 0.26931125 15
2.3023181 2.0744729 0.16040969 11
2.3054545 2.0765698 0.053491622 59
1.4039373 1.2623374 -0.4956387 3
1.597351 1.4357395 -0.48701933 3
1.9123764 1.7182891 -0.49184549 4
2.3026695 2.0682449 -0.48416507 5
2.340066 2.1010966 -0.38145146 13
2.3341041 2.0950079 -0.27105477 16
2.3141119 2.0763345 -0.16039754 13
2.3209705 2.0817571 -0.053216361 15
2.3011773 2.0632794 0.81733537 13
2.3105099 2.0709198 0.70693624 13
2.3132334 2.072633 0.5957427 15
2.3240116 2.0815589 0.48753765 14
2.3134193 2.0713441 0.37657624 15
2.3296044 2.085103 0.27018279 15
2.3207088 2.0764117 0.16119474 12
2.3201418 2.0751753 0.053666148 60
1.4083351 1.2574292 -0.4956387 3
1.6023529 1.4301549 -0.48701933 3
1.8963882 1.6919969 -0.48612636 4
2.3246171 2.0733433 -0.48729378 5
2.3547945 2.0995209 -0.38267016 13
2.3488398 2.0934758 -0.27192634 15
2.3288019 2.0748873 -0.16091916 14
2.3394227 2.0836177 -0.053475533 14
2.3191876 2.0648694 0.82121515 12
2.3286426 2.0725594 0.7103079 12
2.3314552 2.0743334 0.59860224 15
2.3386436 2.079998 0.48910025 13
2.328053 2.0698512 0.37779495 15
2.3480377 2.0868857 0.27149016 15
2.3354082 2.0749311 0.1617181 12
2.3385847 2.0770233 0.053927932 60
1.4127158 1.2525055 -0.4956387 3
1.6073352 1.4245529 -0.48701933 3
1.8875873 1.6723474 -0.48231363 4
2.342931 2.0750387 -0.48964027 4
2.3732562 2.1011577 -0.38449821 14
2.3635929 2.0918665 -0.27279788 16
2.3472493 2.0766711 -0.16170157 14
2.3541713 2.0820627 -0.053648315 15
2.3336179 2.0631595 0.8238017 13
2.3431644 2.0708709 0.71255571 12
2.3460386 2.0726819 0.60050863 15
2.3532932 2.0783603 0.49066287 14
2.3464251 2.0715656 0.379623 15
2.362777 2.0852683 0.2723617 15
2.3501251 2.0733731 0.16224146 12
2.3533194 2.0754609 0.054102458 56
1.4170793 1.2475666 -0.4956387 3
1.612298 1.4189336 -0.48701933 3
1.9007839 1.6722325 -0.48422 4
2.3427432 2.0603251 -0.48807591 4
2.3880303 2.0994139 -0.38571692 13
2.3783634 2.0901794 -0.27366945 15
2.3619862 2.0750561 -0.1622232 12
2.3726935 2.083729 -0.053907484 12
2.3516941 2.0645604 0.82768142 12
2.3613644 2.0723202 0.71592742 12
2.3643284 2.0741909 0.60336822 14
2.3716729 2.0799019 0.49300683 12
2.3611054 2.0699055 0.3808417 14
2.3775337 2.0835738 0.27323326 14
2.3686159 2.0750277 0.1630265 9
2.3718326 2.0771143 0.054364245 57
1.4214255 1.2426124 -0.4956387 3
1.6172413 1.4132971 -0.48701933 3
1.9066094 1.6655873 -0.48422 4
2.3462012 2.0488865 -0.48729378 5
2.4028215 2.0975928 -0.38693559 14
2.3931508 2.0884147 -0.27454099 15
2.3805032 2.0766459 -0.16300564 12
2.3874884 2.0820055 -0.054080263 14
2.366168 2.0626864 0.83026797 11
2.3796029 2.0736673 0.71929914 11
2.3789561 2.0723734 0.60527456 14
2.3863673 2.0780971 0.49456945 14
2.3758028 2.0681682 0.38206038 15
2.392307 2.0818017 0.2741048 15
2.383379 2.0733013 0.16354986 12
2.3866134 2.0753834 0.054538768 64
1.4257543 1.2376431 -0.4956387 3
1.6221647 1.4076432 -0.48701933 3
1.9124118 1.6589218 -0.48422 3
2.353339 2.0406845 -0.48729378 5
2.4176285 2.0956938 -0.3881543 13
2.4117191 2.0898342 -0.27584836 15
2.3952858 2.0748622 -0.16352725 15
2.4022999 2.080204 -0.054253042 16
2.3843091 2.0638974 0.83414769 13
2.3941956 2.0717244 0.72154701 13
2.3936 2.0704787 0.60718095 17
2.4048138 2.0794449 0.49691334 16
2.3905165 2.0663531 0.38327909 15
2.4070971 2.0799518 0.27497637 14
2.398159 2.071497 0.16407321 13
2.4014111 2.0735745 0.05471329 64
1.4264076 1.2295055 -0.49434459 3
1.6270684 1.4019723 -0.48701933 3
1.9181908 1.6522361 -0.48422 4
2.3529632 2.0260127 -0.48572943 5
2.436213 2.0969543 -0.38998231 13
2.4265506 2.0879004 -0.2767199 15
2.4138703 2.0762565 -0.16430967 15
2.4171276 2.0783246 -0.054425824 16
2.3988245 2.0618587 0.83673418 15
2.4124987 2.07288 0.72491866 14
2.4119828 2.0717051 0.61004049 17
2.4195516 2.0774722 0.49847597 15
2.4090123 2.0676928 0.3851071 14
2.4219034 2.0780234 0.27584794 15
2.4167452 2.0728655 0.16485825 13
2.416225 2.0716872 0.054887816 60
1.4306908 1.224519 -0.49434459 3
1.6282505 1.393117 -0.48589453 3
1.9202163 1.6423399 -0.4832668 4
2.3787885 2.033833 -0.48964027 4
2.4510632 2.0948863 -0.39120105 13
2.4451849 2.089124 -0.27802724 15
2.4286969 2.0743036 -0.16483128 14
2.4357738 2.079613 -0.054684997 14
2.4170282 2.0628791 0.84061396 13
2.4271321 2.0707703 0.72716647 14
2.4266689 2.0696435 0.61194688 16
2.4343047 2.075422 0.50003856 14
2.4237692 2.0657091 0.38632578 15
2.4405167 2.0792475 0.27715525 15
2.4315689 2.0708919 0.16538161 12
2.4310548 2.0697222 0.055062339 59
1.4349563 1.2195175 -0.49434459 3
1.6293907 1.3842704 -0.48476982 3
1.9221964 1.63245 -0.48231363 3
2.4009323 2.0383015 -0.49276894 4
2.4659283 2.0927401 -0.39241973 13
2.4600592 2.0870206 -0.27889881 16
2.4435389 2.0722721 -0.1653529 13
2.450645 2.0775633 -0.054857776 14
2.4315839 2.0606747 0.84320045 12
2.4417806 2.068584 0.72941428 13
2.4413698 2.0675042 0.61385328 15
2.4490731 2.0732939 0.50160128 13
2.4385414 2.0636477 0.38754448 15
2.4553654 2.0771499 0.27802682 15
2.446408 2.0688398 0.16590497 11
2.4459002 2.0676785 0.055236865 58
1.4355135 1.2113864 -0.49305049 3
1.6304889 1.3754331 -0.48364502 3
1.9241308 1.6225661 -0.48136041 3
2.423136 2.04264 -0.49589765 5
2.4846032 2.0937135 -0.39424777 13
2.4787576 2.0880477 -0.28020614 15
2.4583964 2.0701625 -0.16587453 14
2.4655311 2.0754352 -0.055030555 13
2.4461532 2.0583937 0.84578699 12
2.4564433 2.0663207 0.73166209 13
2.4560854 2.0652876 0.61575967 15
2.4638562 2.0710881 0.50316387 13
2.4571285 2.0647011 0.38937253 15
2.4702287 2.0749736 0.27889836 15
2.4612625 2.0667095 0.16642833 10
2.4645901 2.0687704 0.055498648 58
1.4360315 1.2032664 -0.49175641 3
1.6352801 1.3697333 -0.48364502 3
1.9297829 1.6158398 -0.48136041 3
2.4416125 2.0436785 -0.49824417 4
2.4995089 2.091397 -0.39546645 13
2.4936726 2.0857742 -0.28107771 15
2.4732687 2.0679743 -0.16639614 13
2.4842682 2.0764346 -0.055289723 14
2.4644425 2.0591331 0.84966671 12
2.4711196 2.0639796 0.7339099 12
2.4745824 2.0661387 0.6186192 15
2.4786537 2.068804 0.50472647 13
2.4719419 2.0624702 0.39059123 14
2.4889321 2.0759096 0.2802057 15
2.4761317 2.0645003 0.16695169 11
2.4794769 2.0665562 0.055673171 59
1.4365102 1.1951574 -0.4904623 3
1.6400514 1.3640168 -0.48364502 3
1.9354113 1.6090937 -0.48136041 3
2.4525292 2.0382998 -0.49902633 4
2.5144284 2.0890021 -0.39668515 13
2.5124335 2.0866039 -0.28238505 15
2.4919977 2.0688968 -0.16717857 13
2.4991953 2.0741358 -0.055462509 14
2.4790492 2.0566857 0.8522532 12
2.4895599 2.0646718 0.73728162 12
2.4893367 2.0637538 0.6205256 15
2.4972672 2.069593 0.50707042 13
2.4867697 2.0601611 0.39180991 14
2.5038359 2.0735629 0.28107727 16
2.4948616 2.0653968 0.16773674 11
2.49823 2.0674508 0.055934958 58
1.4406734 1.1901357 -0.4904623 3
1.6485592 1.3613857 -0.48476982 3
1.9372312 1.5992033 -0.48040724 3
2.4672472 2.0360126 -0.50059068 4
2.5293615 2.0865285 -0.39790383 13
2.5273876 2.0841591 -0.28325659 14
2.5069101 2.0665376 -0.16770019 13
2.5179942 2.0749369 -0.055721678 13
2.4973972 2.0572321 0.85613298 12
2.5042739 2.0621631 0.73952943 12
2.507894 2.06441 0.62338513 15
2.5159168 2.0702775 0.50941437 13
2.5054438 2.0609262 0.39363798 14
2.5187533 2.0711374 0.28194883 15
2.5097704 2.0630167 0.1682601 11
2.517019 2.068239 0.056196745 58
1.4485531 1.1881626 -0.49175641 3
1.6533014 1.3556229 -0.48476982 3
1.9428016 1.5924314 -0.48040724 3
2.4819791 2.033648 -0.50215507 4
2.5443079 2.083976 -0.39912254 12
2.5423551 2.0816352 -0.28412816 15
2.5257003 2.0672622 -0.16848262 13
2.5329602 2.0724664 -0.055894457 13
2.5157788 2.0576756 0.86001271 12
2.5227721 2.0626607 0.74290115 13
2.5264859 2.0649617 0.62624466 15
2.534601 2.0708566 0.51175827 12
2.5203097 2.0584464 0.39485666 14
2.5375426 2.0717831 0.28325617 15
2.5285616 2.063715 0.16904514 10
2.5358438 2.0689216 0.056458529 52
1.4564364 1.1861486 -0.49305049 3
1.6618013 1.3529193 -0.48589453 3
1.9483484 1.5856401 -0.48040724 3
2.4967244 2.0312049 -0.50371939 4
2.5631175 2.0844758 -0.40095058 12
2.5612006 2.0821741 -0.2854355 14
2.5445256 2.0678804 -0.16926505 10
2.5518198 2.0730689 -0.056153629 15
2.534194 2.0580156 0.8638925 10
2.5413043 2.0630541 0.74627286 10
2.5413013 2.0623159 0.62815106 12
2.5533204 2.0713305 0.51410222 16
2.5390432 2.0590138 0.39668468 14
2.5524976 2.0691862 0.28412771 15
2.5435083 2.0611634 0.16956849 11
2.5508194 2.0663505 0.056633055 64
1.460568 1.1810576 -0.49305049 3
1.6665138 1.3471104 -0.48589453 3
1.9500538 1.5757444 -0.47945404 3
2.511483 2.0286839 -0.50528377 4
2.5781004 2.0817518 -0.40216929 12
2.5762048 2.0794783 -0.28630704 14
2.5633862 2.0683923 -0.17004748 15
2.570714 2.0735645 -0.056412797 16
2.5526421 2.0582523 0.86777228 14
2.5560768 2.0602858 0.74852067 14
2.5599506 2.0626712 0.63101065 17
2.5720735 2.0716987 0.51644611 15
2.5539463 2.0563633 0.39790338 15
2.5713456 2.069633 0.28543505 14
2.5623584 2.0616627 0.17035353 12
2.5697036 2.0668337 0.056894843 61
1.4684478 1.1789757 -0.49434459 3
1.6712059 1.3412849 -0.48589453 3
1.9555423 1.5689279 -0.47945404 3
2.5301063 2.0291739 -0.50763023 4
2.5930953 2.0789483 -0.40338799 12
2.5951083 2.079818 -0.28761441 14
2.5783844 2.065676 -0.17056909 15
2.5857408 2.0708284 -0.056585576 17
2.5673518 2.0553663 0.87035877 14
2.5746646 2.0604835 0.75189245 14
2.5786331 2.0629213 0.63387018 16
2.5870028 2.0688767 0.51800871 15
2.5727377 2.0567324 0.39973143 14
2.5863364 2.0668638 0.28630662 14
2.5773416 2.0589387 0.17087689 12
2.5847154 2.0640905 0.057069365 59
1.4725543 1.1738427 -0.49434459 3
1.6796879 1.3384793 -0.48701933 3
1.9610069 1.5620922 -0.47945404 3
2.5449004 2.0264823 -0.50919461 4
2.6119845 2.0791559 -0.40521601 12
2.6101475 2.0769496 -0.28848594 14
2.5973024 2.0659881 -0.17135151 15
2.6046925 2.0711243 -0.056844749 14
2.5858536 2.0554078 0.87423849 14
2.5932846 2.0605764 0.7552641 14
2.5973487 2.063066 0.63672978 16
2.6058118 2.0690467 0.52035266 13
2.5915625 2.0569952 0.40155947 14
2.6052413 2.0671113 0.28761396 14
2.5962491 2.0592382 0.17166193 11
2.5997393 2.0612674 0.057243891 58
1.4728557 1.1656981 -0.49305049 3
1.6843497 1.3326079 -0.48701933 3
1.9702975 1.5582824 -0.48040724 3
2.5635808 2.0267749 -0.51154113 4
2.6270137 2.0761802 -0.40643471 12
2.6291068 2.0770891 -0.28979328 14
2.6123352 2.0630984 -0.17187312 13
2.6197538 2.0682151 -0.057017531 14
2.6005952 2.0523534 0.87682498 12
2.611937 2.0605643 0.75863582 12
2.6122425 2.0600657 0.63863617 15
2.620775 2.0660532 0.52191532 13
2.6065226 2.0540798 0.40277815 14
2.6202664 2.0641694 0.2884855 14
2.6112669 2.0563414 0.17218529 11
2.6187031 2.0614567 0.057505675 56
1.4769158 1.1605498 -0.49305049 3
1.68516 1.3237108 -0.48589453 3
1.9757249 1.5513951 -0.48040724 3
2.5784092 2.0239124 -0.51310545 4
2.6459575 2.0761881 -0.40826276 12
2.6441796 2.0740476 -0.29066485 14
2.6273794 2.0601292 -0.17239475 13
2.638761 2.06831 -0.0572767 14
2.6153471 2.049221 0.87941152 12
2.6267848 2.0574429 0.76088363 12
2.6271467 2.0569866 0.64054251 15
2.6396379 2.0660238 0.52425927 13
2.6254025 2.054143 0.40460619 14
2.639226 2.0642161 0.28979284 14
2.6302297 2.0564399 0.17297032 10
2.6337607 2.0584602 0.057680197 57
1.4771501 1.1524166 -0.49175641 3
1.6859286 1.3148245 -0.48476982 3
1.9811283 1.5444891 -0.48040724 3
2.5854583 2.0148997 -0.51310545 4
2.6649337 2.0760891 -0.4100908 12
2.6631927 2.0739861 -0.29197219 14
2.6463749 2.060147 -0.17317718 13
2.6538556 2.0652268 -0.057449479 14
2.6339211 2.0489759 0.8832913 11
2.6454887 2.0572336 0.76425534 12
2.6420615 2.0538285 0.6424489 14
2.6546328 2.0628579 0.52582186 13
2.6403954 2.0510552 0.4058249 14
2.6582179 2.0641558 0.29110017 14
2.6452806 2.0533698 0.17349368 10
2.6527789 2.0584486 0.057941984 56
1.4811637 1.1472533 -0.49175641 3
1.6905079 1.3089315 -0.48476982 3
1.9865074 1.5375644 -0.48040724 3
2.5924759 2.0058627 -0.51310545 4
2.6839411 2.0758829 -0.41191885 12
2.6822376 2.0738175 -0.29327953 13
2.6654022 2.0600574 -0.17395961 12
2.6729167 2.0651202 -0.057708651 14
2.6487021 2.0456738 0.88587779 12
2.664223 2.0569186 0.76762706 12
2.6608715 2.0535901 0.64530849 14
2.6735477 2.062629 0.52816576 13
2.6593285 2.0509181 0.40765294 15
2.6772416 2.063988 0.29240751 14
2.6642969 2.0532672 0.17427872 10
2.6718292 2.0583291 0.058203775 58
1.4851593 1.1420761 -0.49175641 3
1.6950667 1.3030225 -0.48476982 3
1.9879706 1.52763 -0.47945404 3
2.5994618 1.9968009 -0.51310545 4
2.7029793 2.0755689 -0.41374689 12
2.7013137 2.0735407 -0.29458687 13
2.6844611 2.05986 -0.17474203 12
2.6920092 2.0649054 -0.057967823 14
2.6673253 2.0452323 0.88975751 12
2.6791205 2.053534 0.76987487 11
2.6797118 2.0532451 0.64816803 14
2.6924934 2.0622928 0.53050971 13
2.678292 2.050674 0.40948096 14
2.6923404 2.0606847 0.29327908 14
2.6833448 2.053057 0.17506377 10
2.6909106 2.0581012 0.058465559 56
1.4891369 1.136885 -0.49175641 3
1.6996047 1.2970977 -0.48476982 3
1.9893885 1.5177044 -0.47850087 3
2.606416 1.987715 -0.51310545 4
2.7220478 2.0751474 -0.41557491 12
2.7204204 2.0731559 -0.29589421 14
2.7035508 2.0595543 -0.17552446 13
2.7111323 2.0645823 -0.058226991 13
2.6859772 2.0446856 0.8936373 12
2.6979036 2.053021 0.77324659 11
2.6985822 2.0527935 0.65102762 15
2.7114689 2.0618496 0.53285366 11
2.6933355 2.0473189 0.41069967 14
2.7114148 2.0603149 0.29458642 14
2.7024233 2.0527387 0.1758488 10
2.7100232 2.0577655 0.058727346 52
1.4930962 1.13168 -0.49175641 3
1.7041221 1.291157 -0.48476982 3
1.9946741 1.5107508 -0.47850087 3
2.617276 1.9815857 -0.51388764 4
2.7371891 2.0716228 -0.41679361 12
2.739557 2.0726631 -0.29720154 14
2.722671 2.0591402 -0.17630689 10
2.7302864 2.0641508 -0.058486164 12
2.704658 2.0440338 0.89751709 10
2.7167161 2.0524015 0.7766183 10
2.7174819 2.0522351 0.65388715 12
2.7304745 2.0612991 0.53519756 12
2.7123497 2.0468731 0.41252771 14
2.7305195 2.0598371 0.29589376 14
2.7215323 2.0523121 0.17663385 9
2.7291653 2.0573211 0.05898913 60
1.4970375 1.1264613 -0.49175641 3
1.7086186 1.2852007 -0.48476982 3
1.9960123 1.5008291 -0.47754765 3
2.5965436 1.9516673 -0.50841242 4
2.7563066 2.0709989 -0.41862166 11
2.7587235 2.0720618 -0.29850888 13
2.7418211 2.0586181 -0.17708932 13
2.74947 2.0636108 -0.058745332 17
2.7272298 2.0461745 0.90269005 10
2.739454 2.0545986 0.78111392 11
2.7403374 2.0545142 0.65769988 16
2.7495089 2.0606406 0.53754151 15
2.7313931 2.0463192 0.41435575 14
2.7496536 2.0592506 0.29720107 14
2.7406707 2.0517766 0.17741889 13
2.7483377 2.0567682 0.059250917 63
1.5009605 1.1212288 -0.49175641 3
1.7130945 1.2792287 -0.48476982 2
2.0012391 1.4938525 -0.47754765 3
2.5835502 1.9278247 -0.50450158 4
2.7754526 2.0702667 -0.4204497 11
2.7779188 2.0713515 -0.29981622 14
2.7610004 2.057987 -0.17787173 15
2.7646739 2.0599744 -0.058918115 17
2.7459762 2.0452974 0.90656978 15
2.7583327 2.0537524 0.78448564 15
2.7593045 2.0537276 0.66055948 18
2.7685719 2.0598743 0.53988546 14
2.7504659 2.0456576 0.4161838 14
2.7688167 2.0585554 0.29850841 14
2.7598386 2.0511327 0.17820393 13
2.7675393 2.0561061 0.059512701 58
1.5048652 1.1159827 -0.49175641 3
1.7214631 1.2761422 -0.48589453 3
2.0064416 1.4868578 -0.47754765 3
2.5664544 1.9011571 -0.49980852 4
2.7946274 2.0694261 -0.42227775 12
2.7971427 2.070533 -0.30112356 14
2.776195 2.0542767 -0.17839335 13
2.7839055 2.0592303 -0.059177287 14
2.7647495 2.0443144 0.91044956 13
2.7772386 2.0527995 0.78785735 14
2.7782996 2.052834 0.66341907 16
2.7836902 2.056066 0.54144806 14
2.769567 2.0448875 0.41801181 14
2.7880082 2.0577517 0.29981574 14
2.7750177 2.0474157 0.17872728 11
2.7827461 2.0523677 0.059687223 57
1.5087515 1.1107229 -0.49175641 3
1.7219833 1.2672379 -0.48476982 2
2.0116193 1.479845 -0.47754765 3
2.588989 1.9038899 -0.5029372 4
2.8138297 2.0684767 -0.42410579 11
2.8163946 2.0696049 -0.3024309 14
2.7954214 2.0534418 -0.17917578 13
2.7991357 2.0554183 -0.059350066 13
2.7835493 2.043225 0.91432929 12
2.792243 2.0488572 0.79010516 12
2.7933638 2.0489295 0.66532546 15
2.8027983 2.0550971 0.54379201 14
2.7886963 2.044009 0.41983986 14
2.8072278 2.0568388 0.30112308 14
2.7942324 2.0465677 0.17951232 10
2.8019946 2.0515015 0.059949014 57
1.5126195 1.1054494 -0.49175641 3
1.7224624 1.2583454 -0.48364502 2
2.0167727 1.4728142 -0.47754765 3
2.5996077 1.8977529 -0.50371939 3
2.8330593 2.0674181 -0.42593384 11
2.8316498 2.0656323 -0.30330247 14
2.8106411 2.0495551 -0.17969741 11
2.8184128 2.0544691 -0.059609234 13
2.8023748 2.0420294 0.91820908 11
2.8111925 2.0477035 0.79347688 12
2.8124025 2.0478337 0.668185 14
2.8219333 2.0540199 0.5461359 13
2.807853 2.0430217 0.42166793 15
2.8264749 2.0558169 0.30243042 14
2.8134747 2.0456102 0.18029736 10
2.8172264 2.0475867 0.060123537 56
1.516469 1.1001629 -0.49175641 3
1.7229005 1.2494651 -0.48252031 2
2.0219014 1.4657654 -0.47754765 3
2.6102149 1.8915647 -0.50450158 4
2.8523157 2.0662506 -0.42776188 11
2.8509457 2.0644994 -0.30460978 13
2.8299122 2.0485153 -0.18047984 11
2.8377175 2.0534108 -0.059868407 14
2.8212259 2.0407269 0.9220888 11
2.8262191 2.0435877 0.79572469 12
2.8274896 2.0437548 0.67009133 15
2.841095 2.0528343 0.54847986 13
2.8270364 2.0419252 0.42349595 14
2.8457489 2.0546854 0.30373776 14
2.8286955 2.0416214 0.18082072 10
2.8365195 2.0465155 0.060385324 57
1.524219 1.097685 -0.49305049 3
1.7272515 1.2434435 -0.48252031 2
2.0270057 1.4586986 -0.47754765 3
2.6087842 1.8766742 -0.5029372 3
2.8715982 2.0649736 -0.4295899 9
2.8702683 2.0632572 -0.30591714 14
2.8492105 2.0473659 -0.18126225 12
2.8570492 2.0522428 -0.060127579 13
2.8401017 2.0393178 0.92596859 11
2.8452094 2.0422328 0.79909641 11
2.8465703 2.0424569 0.67295092 15
2.8602824 2.0515394 0.55082375 13
2.8462465 2.04072 0.42532399 14
2.8650494 2.0534444 0.3050451 14
2.8479817 2.0404594 0.18160577 9
2.8558385 2.0453341 0.060647108 56
1.5280414 1.0923578 -0.49305049 3
1.7276175 1.2345741 -0.48139551 2
2.0320852 1.4516141 -0.47754765 2
2.6032622 1.8589467 -0.50059068 3
2.8909066 2.0635872 -0.43141797 8
2.8896165 2.0619049 -0.30722445 14
2.8685348 2.0461066 -0.18204468 12
2.8804772 2.0538666 -0.06047314 14
2.8590024 2.0378015 0.92984837 12
2.8602564 2.0379429 0.80134422 12
2.8656762 2.0410504 0.67581046 15
2.8754723 2.0472715 0.5523864 12
2.8654826 2.0394051 0.42715204 14
2.8843756 2.0520935 0.30635244 13
2.8672938 2.039187 0.18239079 10
2.8751843 2.0440433 0.060908895 58
1.5357838 1.0898122 -0.49434459 3
1.7319165 1.228536 -0.48139551 2
2.0371399 1.444512 -0.47754765 2
2.5976484 1.8412809 -0.49824417 3
2.9102397 2.0620909 -0.43324599 8
2.9089904 2.0604429 -0.30853182 14
2.8878846 2.0447369 -0.18282712 12
2.8998706 2.0524638 -0.060732309 14
2.8779263 2.0361781 0.9337281 12
2.8792863 2.0363863 0.80471593 12
2.8848066 2.0395353 0.67867005 14
2.8947005 2.0457723 0.55473036 13
2.8847437 2.037981 0.42898008 14
2.9037273 2.0506325 0.30765978 14
2.886632 2.0378048 0.18317585 10
2.8945556 2.0426416 0.061170679 60
1.5356301 1.0816635 -0.49305049 3
1.7361943 1.222483 -0.48139551 2
2.0421696 1.4373921 -0.47754765 2
2.6080987 1.8350439 -0.49902633 4
2.9255388 2.0576298 -0.43446469 10
2.9283888 2.0588706 -0.30983913 15
2.9072604 2.0432575 -0.18360955 12
2.9192894 2.0509503 -0.060991481 17
2.896874 2.0344474 0.93760788 12
2.8983397 2.0347214 0.80808765 12
2.9039617 2.0379117 0.68152958 16
2.9139526 2.0441642 0.55707425 14
2.8999662 2.0335977 0.43019876 14
2.9190249 2.0462024 0.30853134 17
2.9059951 2.0363121 0.18396087 12
2.9139524 2.0411298 0.06143247 56
1.5473129 1.0818313 -0.4956387 3
1.7404511 1.2164152 -0.48139551 2
2.0471747 1.4302551 -0.47754765 2
2.5699518 1.794825 -0.49042246 4
2.944911 2.0559275 -0.43629274 10
2.9478118 2.0571876 -0.31114647 17
2.9266603 2.0416672 -0.18439196 12
2.9387326 2.0493264 -0.061250649 15
2.9158444 2.032609 0.94148761 14
2.9174161 2.0329483 0.81145936 13
2.92314 2.0361788 0.68438917 15
2.9332287 2.0424461 0.5594182 14
2.9192665 2.0319676 0.4320268 14
2.9384155 2.0445352 0.30983865 15
2.9253829 2.0347095 0.18474592 10
2.933373 2.0395074 0.061694253 64
1.5352087 1.0654093 -0.4904623 3
1.7446865 1.2103325 -0.48139551 2
2.0521548 1.4231002 -0.47754765 2
2.5762012 1.7858431 -0.49042246 4
2.9602277 2.0512886 -0.43751144 13
2.9631641 2.0525579 -0.31201804 17
2.9460847 2.0399663 -0.18517439 15
2.9582 2.0475917 -0.061509822 16
2.9348371 2.030663 0.9453674 13
2.9365158 2.0310664 0.81483108 13
2.9383044 2.0315456 0.68629557 16
2.9525285 2.0406187 0.56176215 14
2.938591 2.0302279 0.43385485 16
2.95783 2.0427573 0.31114599 16
2.9447944 2.0329957 0.18553095 12
2.9528179 2.0377741 0.061956041 66
1.546873 1.0655233 -0.49305049 3
1.7448882 1.201472 -0.4802708 2
2.0571096 1.4159282 -0.47754765 2
2.5986929 1.7880368 -0.49355114 4
2.9755483 2.0465677 -0.43873012 12
2.9826241 2.050668 -0.31332538 15
2.9655325 2.0381548 -0.18595681 17
2.9776909 2.0457456 -0.06176899 19
2.9538515 2.0286088 0.94924712 13
2.9596541 2.0318336 0.8193267 14
2.9575191 2.0296085 0.68915516 19
2.9759235 2.0414748 0.5648874 14
2.9620314 2.0311844 0.43629223 17
2.977268 2.040869 0.31245336 18
2.9683487 2.0339935 0.18657768 14
2.9764113 2.0387549 0.062305089 58
1.5545697 1.0628431 -0.49434459 3
1.7611382 1.2036207 -0.48364502 2
2.0741982 1.4170455 -0.48040724 2
nan nan nan 0
2.9867725 2.0389667 -0.43933949 7
2.9979925 2.0458593 -0.31419694 9
2.9808786 2.0334182 -0.18647844 13
2.997205 2.0437887 -0.062028162 16
2.9768784 2.0291672 0.95442015 15
2.978807 2.0297203 0.82269841 14
2.9767554 2.0275619 0.69201469 10
2.9952779 2.0394127 0.5672313 16
2.9855139 2.0320022 0.43872961 14
2.9967282 2.0388694 0.31376067 16
2.9878168 2.0320437 0.18736272 11
2.9959123 2.0367851 0.062566876 62
nan nan nan 0
1.7532333 1.1892612 -0.4802708 2
2.0669446 1.4015325 -0.47754765 2
2.5579698 1.7338302 -0.48338288 3
3.0185225 2.0452309 -0.44299558 6
3.0133641 2.0409684 -0.31506851 8
3.0003626 2.0313988 -0.18726087 16
3.0167413 2.0417202 -0.062287334 16
2.9999447 2.0295889 0.95959312 14
3.002017 2.0302272 0.82719404 15
3.0000801 2.0281544 0.69582742 12
3.0187461 2.0400054 0.57035655 15
3.009038 2.0326803 0.441167 16
3.0203388 2.0395465 0.31550378 16
3.0155847 2.0355699 0.18867111 11
3.0195801 2.0374999 0.062915921 63
nan nan nan 0
1.757374 1.183134 -0.4802708 3
nan nan nan 0
nan nan nan 0
3.0503521 2.0512981 -0.44665164 13
3.0287375 2.035995 -0.31594005 6
3.0198684 2.029268 -0.1880433 16
3.0404496 2.0423276 -0.062632896 15
3.0230505 2.0298748 0.9647662 14
3.0252666 2.0305967 0.83168966 15
3.0234449 2.0286088 0.69964021 13
3.0422544 2.0404592 0.5734818 14
3.0326033 2.0332189 0.44360438 15
3.0439904 2.0400834 0.31724688 15
3.0392647 2.0361476 0.18971784 13
