# .PCD v0.7 - Point Cloud Data file format
VERSION 0.7
FIELDS x y z intensity
SIZE 4 4 4 4
TYPE F F F F
COUNT 1 1 1 1
WIDTH 1373
HEIGHT 1
VIEWPOINT 0 0 0 1 0 0 0
POINTS 1373
DATA ascii
nan nan nan 0
nan nan nan 0
2.438298 -0.93158317 -0.49947101 4
2.7850163 -1.0646083 -0.46617511 13
2.8307984 -1.0826755 -0.36743647 14
2.7664511 -1.0586185 -0.25580251 10
2.7962806 -1.0705928 -0.15439893 14
2.7807705 -1.0652109 -0.050797433 11
2.8183641 -1.0801759 0.79793668 13
2.8197367 -1.0812664 0.68782979 13
2.7944384 -1.0721247 0.57381934 12
2.7974348 -1.0738345 0.46800488 16
2.7968545 -1.074172 0.36317062 13
2.8021667 -1.0767734 0.25928834 13
2.7947581 -1.0744864 0.15491442 15
2.7559423 -1.0601152 0.050873764 14
nan nan nan 0
nan nan nan 0
2.4350314 -0.94008875 -0.49947101 4
2.753643 -1.0636468 -0.46148208 13
2.7945986 -1.0800273 -0.36317107 13
2.7302186 -1.0556941 -0.25275204 8
2.7599287 -1.0677359 -0.15257327 10
2.7444 -1.062279 -0.050192706 13
2.7830491 -1.0777975 0.78888386 13
2.7841449 -1.0787807 0.67996246 14
2.7632203 -1.0712277 0.56810021 13
2.7614388 -1.0710915 0.46253574 15
2.7607019 -1.0713601 0.3589052 12
2.765888 -1.0739281 0.25623786 12
2.7630646 -1.0733868 0.15334433 14
2.7196074 -1.0570511 0.050262928 13
nan nan nan 0
nan nan nan 0
2.4408805 -0.9521504 -0.5013774 4
2.7177098 -1.0606837 -0.45600685 14
2.7630749 -1.0789449 -0.35951498 15
2.7125988 -1.0597802 -0.2514447 18
2.7236311 -1.0646384 -0.1507476 13
2.6987724 -1.0554645 -0.049415193 14
2.7522833 -1.0769459 0.78112435 13
2.7486048 -1.0760597 0.67209518 13
2.7274725 -1.0683357 0.56142789 12
2.7254965 -1.0681103 0.45706654 15
2.7199833 -1.0664974 0.35403043 13
2.7343011 -1.072662 0.25362322 14
2.7267654 -1.070255 0.15151259 15
2.697288 -1.0592284 0.049913879 12
nan nan nan 0
nan nan nan 0
2.4466751 -0.96426421 -0.50328374 4
2.7002082 -1.0647292 -0.45366031 20
2.7315929 -1.0776556 -0.35585886 21
2.6810842 -1.05827 -0.24883004 30
2.6827452 -1.0594667 -0.14866114 13
2.6950719 -1.0648786 -0.049415193 18
2.7215576 -1.0758928 0.77336484 13
2.7085876 -1.0713122 0.66310394 13
2.6917789 -1.0652072 0.55475557 12
2.6758339 -1.0594375 0.44925344 27
2.6977885 -1.0686747 0.35159305 12
2.6934955 -1.067518 0.25013697 18
2.7090881 -1.0742451 0.15072754 16
2.6889274 -1.0667937 0.049826618 23
nan nan nan 0
nan nan nan 0
2.466095 -0.98187697 -0.50804973 3
2.6735363 -1.0650104 -0.44974947 16
2.6909339 -1.0724851 -0.3509841 18
2.6727469 -1.0657772 -0.24839425 28
2.6512041 -1.0577232 -0.14709628 33
2.6727662 -1.0668663 -0.049069632 25
2.6863878 -1.0728471 0.76431209 15
2.6731615 -1.0681062 0.6552366 18
2.6606989 -1.0636649 0.54903644 28
2.6583631 -1.0632694 0.44690952 25
2.6710041 -1.0688661 0.3485463 26
2.6805048 -1.0732108 0.24926542 31
2.654336 -1.063271 0.14784908 32
2.6619852 -1.0668744 0.049390309 58
nan nan nan 0
2.0967371 -0.84288293 -0.51288873 4
2.4444375 -0.9831531 -0.504237 4
2.6743836 -1.0761799 -0.4505316 19
2.6779668 -1.0781648 -0.34976539 16
2.6690106 -1.0751004 -0.24839425 34
2.6521273 -1.0688376 -0.14735709 28
2.6690259 -1.0761895 -0.049069632 31
2.669189 -1.076797 0.7604323 31
2.6694169 -1.0774307 0.6552366 24
2.6478672 -1.0692703 0.54713005 22
2.6729512 -1.0799423 0.45003474 31
2.6580546 -1.0744634 0.34732762 28
2.6628892 -1.0769585 0.24795809 32
2.6691225 -1.0800215 0.1488958 26
2.6582446 -1.07616 0.049390309 61
nan nan nan 0
2.0847545 -0.84653097 -0.51063919 4
2.4364433 -0.9898324 -0.50328374 5
2.6751857 -1.0873682 -0.45131379 14
2.6879785 -1.0931146 -0.35159346 16
2.6652415 -1.0844103 -0.24839425 29
2.64838 -1.0780888 -0.14735709 34
2.6606231 -1.083614 -0.048983242 28
2.6609414 -1.084285 0.75913906 30
2.6566169 -1.0830636 0.65298879 28
2.6532083 -1.082214 0.54903644 28
2.6417303 -1.0780702 0.44534689 31
2.6588824 -1.0856112 0.34793696 30
2.6683362 -1.0900145 0.24882965 32
2.6607144 -1.0874429 0.14863411 33
2.6544721 -1.0854324 0.049390309 31
nan nan nan 0
2.0276968 -0.83161914 -0.49714214 4
2.4284325 -0.99646789 -0.5023306 5
2.6713738 -1.0966997 -0.45131379 14
2.6887369 -1.1043763 -0.35220277 15
2.6660471 -1.0956005 -0.24883004 25
2.653837 -1.0911243 -0.14787871 25
2.6568244 -1.0928947 -0.048983242 30
2.6616066 -1.0954051 0.7604323 31
2.6573248 -1.0941852 0.65411264 29
2.6494143 -1.0914688 0.54903644 30
2.656215 -1.0948128 0.44847211 25
2.6596646 -1.0967777 0.3485463 30
2.664515 -1.0993221 0.24882965 37
2.6569021 -1.0967238 0.14863411 30
2.6552877 -1.0965999 0.04947757 28
nan nan nan 0
nan nan nan 0
2.4252899 -1.0040921 -0.5023306 5
2.6724777 -1.1069765 -0.45209596 14
2.6898386 -1.1147177 -0.35281214 14
2.6671929 -1.1058784 -0.2492658 28
2.6550081 -1.1013694 -0.14813951 31
2.6533778 -1.1012359 -0.048983242 32
2.6581521 -1.1037613 0.7604323 32
2.6583736 -1.1043973 0.6552366 31
2.6505048 -1.1016707 0.54998964 27
2.6527624 -1.1031522 0.44847211 29
2.6562059 -1.1051278 0.3485463 34
2.6656466 -1.1096015 0.24926542 33
2.6580532 -1.106985 0.1488958 28
2.6518297 -1.1049364 0.04947757 28
nan nan nan 0
2.0311272 -0.84880596 -0.49939165 4
2.4217703 -1.0125518 -0.5023306 5
2.6685975 -1.1162984 -0.45209596 15
2.6905093 -1.1260161 -0.35342148 16
2.6633165 -1.1151819 -0.2492658 31
2.6557527 -1.1125597 -0.14840032 31
2.6495175 -1.1104912 -0.048983242 30
2.6587372 -1.1149009 0.76172554 32
2.6545024 -1.11367 0.6552366 32
2.6466429 -1.110916 0.54998964 26
2.6534491 -1.1143174 0.44925344 27
2.6569073 -1.1163154 0.34915566 33
2.6663489 -1.1208298 0.2497012 33
2.6541727 -1.1162566 0.1488958 29
2.6525645 -1.1161251 0.049564831 30
nan nan nan 0
2.036979 -0.86003464 -0.50164115 4
2.4180429 -1.0214212 -0.5023306 5
2.6690371 -1.1279943 -0.45287815 14
2.6863642 -1.1358697 -0.35342148 15
2.6637988 -1.1268766 -0.24970159 30
2.6562555 -1.1242322 -0.14866114 31
2.6500332 -1.122144 -0.049069632 31
2.6590803 -1.1265223 0.76301885 31
2.6548884 -1.1252931 0.65636045 32
2.6470723 -1.1225252 0.55094284 26
2.6493471 -1.1240354 0.44925344 28
2.6527979 -1.1260459 0.34915566 32
2.6622229 -1.130595 0.2497012 33
2.654659 -1.1279297 0.14915746 30
2.6484556 -1.1258397 0.049564831 28
1.7413226 -0.74201864 -0.49693277 3
2.0294826 -0.86522907 -0.50051636 4
2.4144626 -1.0298556 -0.5023306 5
2.6650834 -1.1373041 -0.45287815 14
2.6869469 -1.1471888 -0.35403085 15
2.6598489 -1.1361681 -0.24970159 30
2.6569064 -1.1354597 -0.14892195 31
2.6506968 -1.133353 -0.049156025 31
2.6551318 -1.1357974 0.76301885 32
2.6509445 -1.1345536 0.65636045 32
2.6431379 -1.1317583 0.55094284 26
2.6499465 -1.1352211 0.45003474 27
2.6534126 -1.1372541 0.349765 33
2.6628377 -1.1418439 0.25013697 33
2.6552947 -1.1391579 0.14941916 27
2.6491036 -1.1370496 0.049652096 28
1.7431583 -0.75000131 -0.49822688 3
2.030925 -0.87423432 -0.50164115 4
2.4108529 -1.0382773 -0.5023306 5
2.661097 -1.1466001 -0.45287815 14
2.6829262 -1.1565609 -0.35403085 15
2.6558669 -1.1454458 -0.24970159 28
2.6529269 -1.144727 -0.14892195 31
2.6513143 -1.1445801 -0.049242411 29
2.6555851 -1.1469737 0.76431209 32
2.6514401 -1.1457328 0.65748441 32
2.6436765 -1.1429255 0.55189604 26
2.6505005 -1.1464249 0.45081607 26
2.6494267 -1.1465093 0.349765 34
2.6588359 -1.151132 0.25013697 32
2.6558836 -1.1504043 0.14968082 30
2.6451187 -1.1462897 0.049652096 27
1.7626783 -0.76570278 -0.50469732 3
2.0233927 -0.87937629 -0.50051636 4
2.4027128 -1.0447292 -0.5013774 5
2.661607 -1.1578521 -0.45366031 14
2.6788728 -1.1659191 -0.35403085 15
2.656419 -1.1566981 -0.25013736 28
2.6534922 -1.1559746 -0.14918275 31
2.6518857 -1.1558255 -0.049328804 30
2.6559923 -1.158167 0.76560533 31
2.65189 -1.1569291 0.65860826 32
2.6396708 -1.1521467 0.55189604 25
2.6510086 -1.1576461 0.45159736 25
2.6499565 -1.1577374 0.35037434 34
2.6593659 -1.1624011 0.25057277 32
2.6518519 -1.159668 0.14968082 29
2.6456814 -1.1575197 0.049739353 28
1.7423028 -0.76409215 -0.49952096 3
2.0158498 -0.88447654 -0.49939165 4
2.3990514 -1.0531099 -0.5013774 5
2.6575491 -1.1671357 -0.45366031 13
2.6793299 -1.1772592 -0.35464019 16
2.6523652 -1.1659638 -0.25013736 29
2.649441 -1.16523 -0.14918275 31
2.647835 -1.1650752 -0.049328804 31
2.6563537 -1.169377 0.76689857 32
2.6522946 -1.1681427 0.65973222 30
2.6401246 -1.1633329 0.55284917 26
2.6514704 -1.168885 0.45237869 25
2.6458988 -1.1669804 0.35037434 33
2.655292 -1.171677 0.25057277 32
2.6523554 -1.1709343 0.14994252 30
2.6461976 -1.1687676 0.049826618 28
1.7528735 -0.77603471 -0.50340325 3
2.0127501 -0.8915078 -0.49939165 4
2.3998482 -1.0634663 -0.5023306 5
2.6579738 -1.1784068 -0.4544425 14
2.6752043 -1.1866046 -0.35464019 15
2.652832 -1.1772355 -0.25057316 28
2.6499212 -1.1764975 -0.14944357 30
2.6483207 -1.1763401 -0.049415193 32
2.6522558 -1.1786423 0.76689857 30
2.6482008 -1.1773939 0.65973222 31
2.6360478 -1.1725417 0.55284917 27
2.6473742 -1.1781332 0.45237869 26
2.6463428 -1.1782277 0.35098368 33
2.6557357 -1.1829652 0.25100854 30
2.652813 -1.1822181 0.15020418 28
2.6421015 -1.1779975 0.049826618 27
1.7457447 -0.78017813 -0.50210917 3
2.0051782 -0.89653951 -0.49826688 3
2.3961213 -1.0718368 -0.5023306 5
2.6583514 -1.189695 -0.45522466 13
2.6755755 -1.1979637 -0.35524952 15
2.6532521 -1.1885246 -0.25100893 30
2.6503546 -1.1877822 -0.14970437 31
2.6487603 -1.1876228 -0.049501583 30
2.6525323 -1.1898701 0.76819187 31
2.6485195 -1.1886253 0.66085607 31
2.6364164 -1.1837466 0.55380243 26
2.6477504 -1.1893908 0.45315999 25
2.6467404 -1.1894923 0.35159305 31
2.6561334 -1.1942708 0.25144431 30
2.6532238 -1.1935194 0.15046588 30
2.6425323 -1.1892645 0.049913879 28
1.7474132 -0.78825307 -0.50340325 3
2.0020363 -0.90353352 -0.49826688 3
2.3968389 -1.0822142 -0.50328374 5
2.6586831 -1.2010001 -0.45600685 14
2.6758997 -1.2093396 -0.35585886 15
2.6490874 -1.1977789 -0.25100893 28
2.6461923 -1.1970264 -0.14970437 31
2.6445985 -1.1968615 -0.049501583 30
2.6483626 -1.199122 0.76819187 31
2.6487923 -1.1998736 0.66198003 31
2.6322684 -1.1929421 0.55380243 25
2.6480803 -1.2006652 0.45394132 26
2.6425724 -1.1987239 0.35159305 32
2.6564839 -1.2055936 0.25188008 32
2.6535876 -1.2048378 0.15072754 28
2.6429169 -1.2005491 0.050001144 28
1.7446511 -0.79434788 -0.50340325 3
1.9988704 -0.91051638 -0.49826688 3
2.3930466 -1.0905741 -0.50328374 4
2.6544745 -1.2102733 -0.45600685 13
2.6716621 -1.218673 -0.35585886 15
2.6494217 -1.2090867 -0.2514447 28
2.6465402 -1.2083299 -0.14996518 30
2.6449516 -1.2081625 -0.049587972 31
2.6485536 -1.2103666 0.76948506 32
2.6445878 -1.2091123 0.66198003 31
2.6325517 -1.2041649 0.55475557 25
2.643873 -1.2099015 0.45394132 25
2.6428843 -1.2100068 0.35220239 32
2.6522593 -1.2148591 0.25188008 33
2.6493659 -1.2140932 0.15072754 27
2.63871 -1.2097673 0.050001144 27
1.7374791 -0.79841638 -0.50210917 3
1.9956797 -0.91748816 -0.49826688 4
2.3936844 -1.1009718 -0.504237 4
2.6547198 -1.2215961 -0.45678899 13
2.6719 -1.2300668 -0.35646823 15
2.649709 -1.2204113 -0.25188047 27
2.646841 -1.2196503 -0.15022598 30
2.6452584 -1.2194808 -0.049674366 29
2.6486986 -1.2216274 0.77077836 30
2.6447752 -1.2203776 0.66310394 30
2.6327887 -1.2154042 0.55570877 24
2.6441171 -1.2211937 0.45472261 24
2.6431494 -1.2213064 0.35281172 32
2.6525238 -1.2261999 0.25231588 29
2.6496437 -1.2254298 0.15098923 29
2.639008 -1.2210701 0.050088402 27
1.7348219 -0.80417365 -0.50210917 3
1.9926263 -0.924101 -0.49826688 4
2.3900204 -1.1089035 -0.504237 5
2.655134 -1.2324721 -0.45757118 13
2.6678061 -1.2389203 -0.35646823 14
2.6501648 -1.2312901 -0.25231627 27
2.642782 -1.2284207 -0.15022598 29
2.6457329 -1.2303541 -0.049760751 29
2.6446328 -1.230404 0.77077836 31
2.6451306 -1.2311971 0.66422778 32
2.6331933 -1.2262 0.55666196 24
2.640053 -1.2299552 0.45472261 25
2.6435828 -1.2321613 0.35342106 32
2.6529574 -1.2370943 0.25275165 30
2.6455655 -1.2342095 0.15098923 30
2.6394746 -1.2319291 0.050175667 27
1.7320043 -0.81022441 -0.50210917 3
1.9893886 -0.93105102 -0.49826688 3
2.3861349 -1.1172395 -0.504237 5
2.6552875 -1.2438276 -0.45835334 13
2.6679587 -1.250331 -0.35707757 15
2.6458507 -1.2405335 -0.25231627 28
2.6429987 -1.2397588 -0.1504868 30
2.641422 -1.2395818 -0.049760751 30
2.6446936 -1.2416805 0.7720716 30
2.6452265 -1.2424942 0.66535175 30
2.6333394 -1.2374717 0.55761516 23
2.640213 -1.2412643 0.45550394 25
2.6392655 -1.2413815 0.35342106 31
2.648623 -1.2463473 0.25275165 32
2.6457586 -1.2455636 0.1512509 29
2.6396809 -1.243265 0.050262928 27
1.7291654 -0.81626534 -0.50210917 3
1.9861264 -0.93798959 -0.49826688 4
2.3822205 -1.1255618 -0.504237 4
2.6553946 -1.2551993 -0.45913553 13
2.6680646 -1.2617581 -0.35768694 15
2.6460068 -1.2518917 -0.25275204 28
2.643168 -1.2511133 -0.1507476 31
2.6415973 -1.2509344 -0.049847145 29
2.6403434 -1.2509047 0.7720716 31
2.6452761 -1.2538069 0.66647559 30
2.6334386 -1.2487592 0.5585683 24
2.6403258 -1.2525896 0.45628521 25
2.6394 -1.2527148 0.35403043 32
2.6487558 -1.2577217 0.25318745 30
2.6459048 -1.2569339 0.15151259 30
2.6398401 -1.2546177 0.050350189 27
1.7263056 -0.82229626 -0.50210917 3
1.9784424 -0.94282097 -0.49714214 4
2.3738465 -1.1317582 -0.50328374 4
2.6509969 -1.2644607 -0.45913553 13
2.668123 -1.273201 -0.35829625 15
2.6461155 -1.2632664 -0.25318784 28
2.6432903 -1.2624842 -0.15100841 30
2.6417253 -1.262303 -0.049933534 30
2.6403184 -1.2621967 0.77336484 31
2.6452785 -1.2651352 0.66759956 30
2.6290636 -1.257944 0.5585683 24
2.6403921 -1.2639308 0.45706654 24
2.6394868 -1.2640637 0.35463977 32
2.6488414 -1.2691121 0.25362322 30
2.6460037 -1.2683204 0.15177426 29
2.6399524 -1.2659864 0.05043745 28
1.7234248 -0.82831722 -0.50210917 3
1.9751393 -0.94972128 -0.49714214 4
2.3698814 -1.1400375 -0.50328374 4
2.6510167 -1.2758482 -0.45991769 14
2.6636622 -1.2825067 -0.35829625 15
2.6461773 -1.2746569 -0.2536236 30
2.6433654 -1.2738708 -0.15126921 29
2.6418064 -1.2736878 -0.050019924 29
2.6402466 -1.2735038 0.77465808 31
2.6408463 -1.2743611 0.66759956 29
2.6290767 -1.2692474 0.55952156 24
2.6359642 -1.2731398 0.45706654 25
2.6395268 -1.2754288 0.35524914 31
2.6488798 -1.2805184 0.25405899 29
2.6460555 -1.2797229 0.15203595 29
2.6400175 -1.2773713 0.050524715 26
1.7205229 -0.834328 -0.50210917 3
1.9674286 -0.95448339 -0.49601737 4
2.3614719 -1.1461598 -0.5023306 4
2.6465468 -1.2850941 -0.45991769 13
2.6636331 -1.2939653 -0.35890561 16
2.6461916 -1.2860633 -0.25405937 27
2.643393 -1.2852736 -0.15153003 27
2.6373441 -1.2829016 -0.050019924 27
2.6401279 -1.2848257 0.77595139 32
2.6407621 -1.2857043 0.6687234 30
2.6246302 -1.2784169 0.55952156 24
2.6359432 -1.2844965 0.45784783 25
2.6350586 -1.2846347 0.35524914 33
2.6488705 -1.2919405 0.25449476 31
2.6460598 -1.2911413 0.15229762 27
2.6400349 -1.288772 0.050611973 25
1.7217913 -0.84275168 -0.50340325 3
1.963917 -0.96168798 -0.49601737 4
2.3572552 -1.1548074 -0.5023306 5
2.6462536 -1.296959 -0.46069989 13
2.6633286 -1.3059042 -0.35951498 15
2.6414604 -1.2957535 -0.25405937 27
2.6431472 -1.2971534 -0.15179083 31
2.6371119 -1.2947626 -0.050106313 27
2.6397362 -1.2966229 0.77724457 32
2.6404049 -1.2975234 0.66984737 31
2.6243315 -1.2901936 0.56047469 25
2.6356494 -1.2963289 0.45862916 24
2.6347854 -1.2964752 0.35585845 32
2.6485865 -1.3038403 0.25493056 32
2.6457891 -1.3030369 0.15255931 28
2.6397779 -1.300649 0.050699238 26
1.718839 -0.84875673 -0.50340325 4
1.9605482 -0.96853745 -0.49601737 4
2.35321 -1.1630287 -0.5023306 5
2.6461375 -1.3083773 -0.46148208 12
2.6632023 -1.3173933 -0.36012432 15
2.6413853 -1.3071753 -0.25449514 28
2.638603 -1.3063717 -0.15179083 28
2.6370561 -1.3061788 -0.050192706 30
2.6395218 -1.307974 0.77853787 31
2.6402245 -1.3088962 0.67097121 30
2.6242092 -1.3015271 0.56142789 23
2.6355319 -1.3077161 0.45941046 25
2.6346891 -1.3078711 0.35646781 30
2.6440191 -1.3130777 0.25493056 30
2.6412246 -1.3122646 0.15255931 28
2.6352189 -1.3098617 0.050699238 25
1.7203383 -0.8566047 -0.50469732 5
1.9574958 -0.97469199 -0.49601737 4
2.3495443 -1.1704158 -0.5023306 5
2.6420138 -1.3166839 -0.46148208 13
2.6634915 -1.3279679 -0.36073366 15
2.6417232 -1.3176903 -0.25493094 26
2.6389539 -1.3168842 -0.15205164 29
2.6374123 -1.3166898 -0.050279092 27
2.6353996 -1.3162597 0.77853787 33
2.6404579 -1.3193618 0.67209518 30
2.6244981 -1.3119597 0.56238109 24
2.6358278 -1.3181984 0.46019179 24
2.6350052 -1.3183621 0.35707715 31
2.644335 -1.3236071 0.25536633 31
2.6415534 -1.3227913 0.15282097 27
2.6355634 -1.3203672 0.050786499 25
1.7174883 -0.86230481 -0.50469732 6
1.9540815 -0.98151898 -0.49601737 4
2.3454447 -1.1786101 -0.5023306 5
2.641814 -1.3281163 -0.46226421 13
2.6632736 -1.339487 -0.361343 14
2.6415567 -1.3291423 -0.25536671 26
2.6388011 -1.3283329 -0.15231246 28
2.6328001 -1.3258882 -0.050279092 27
2.635102 -1.3276241 0.77983105 30
2.640187 -1.3307637 0.67321903 30
2.624285 -1.3233229 0.56333429 23
2.6356199 -1.3296157 0.46097311 24
2.6348181 -1.3297881 0.35768652 31
2.644145 -1.3350745 0.25580209 31
2.6413767 -1.3342553 0.15308267 28
2.6354005 -1.3318139 0.050873764 26
1.7143162 -0.86859387 -0.50469732 5
1.9504709 -0.9886744 -0.49601737 4
2.3454866 -1.1894186 -0.50328374 5
2.6413326 -1.3400245 -0.4630464 13
2.6583462 -1.3492393 -0.361343 14
2.6366675 -1.3388152 -0.25536671 28
2.6339147 -1.3379956 -0.15231246 27
2.6323798 -1.3377939 -0.050365485 29
2.6345239 -1.3394623 0.78112435 29
2.6352916 -1.3404316 0.67321903 26
2.6237915 -1.3351585 0.56428748 23
2.6351297 -1.3415072 0.46175441 25
2.6299262 -1.3394363 0.35768652 32
2.6392338 -1.3447568 0.25580209 29
2.6364686 -1.3439275 0.15308267 27
2.6349547 -1.3437352 0.050961021 26
1.7069732 -0.87237483 -0.50340325 5
1.947008 -0.99547684 -0.49601737 4
2.3413205 -1.1975986 -0.50328374 4
2.6410351 -1.3514858 -0.46382856 13
2.6580377 -1.360772 -0.36195236 14
2.6364114 -1.3502814 -0.25580251 28
2.633672 -1.3494586 -0.15257327 29
2.6321425 -1.349255 -0.050451875 26
2.63413 -1.3508543 0.7824176 32
2.6349316 -1.3518462 0.67434299 29
2.6234815 -1.3465505 0.56524068 23
2.6348243 -1.3529533 0.46253574 25
2.6296492 -1.3508759 0.35829583 31
2.6389539 -1.356238 0.25623786 30
2.6362021 -1.3554054 0.15334433 26
2.6302483 -1.3529248 0.050961021 25
1.7039177 -0.87832797 -0.50340325 4
1.9478513 -1.0045002 -0.49714214 4
2.3371258 -1.2057641 -0.50328374 4
2.6406898 -1.3629616 -0.46461076 13
2.657681 -1.3723189 -0.3625617 14
2.6361072 -1.3617619 -0.25623828 27
2.6333811 -1.360936 -0.15283407 27
2.6318579 -1.3607306 -0.050538264 29
2.6336887 -1.3622599 0.78371084 30
2.6345234 -1.3632747 0.67546684 31
2.6231241 -1.3579564 0.56619388 23
2.6344709 -1.3644134 0.46331704 23
2.629324 -1.3623298 0.3589052 29
2.6386259 -1.3677336 0.25667366 28
2.6358874 -1.3668979 0.15360603 27
2.6299474 -1.3644001 0.051048286 25
1.7008414 -0.88427037 -0.50340325 4
1.9443332 -1.0112933 -0.49714214 4
2.3372569 -1.2161804 -0.504237 4
2.6402965 -1.3744513 -0.46539292 13
2.6572762 -1.38388 -0.36317107 14
2.6401727 -1.3755585 -0.25710985 26
2.6330426 -1.3724278 -0.15309489 27
2.6315246 -1.3722208 -0.050624654 27
2.6331995 -1.3736788 0.78500408 30
2.6340683 -1.3747169 0.6765908 29
2.622719 -1.3693762 0.56714702 24
2.6296921 -1.3736012 0.46331704 24
2.6289511 -1.3737983 0.35951456 30
2.6338356 -1.3769358 0.25667366 29
2.6355243 -1.3784046 0.15386769 26
2.6295981 -1.3758895 0.051135547 26
1.6934671 -0.8879593 -0.50210917 4
1.9407912 -1.0180742 -0.49714214 4
2.3329973 -1.2243316 -0.504237 5
2.6398554 -1.385955 -0.46617511 13
2.6568229 -1.3954548 -0.36378038 14
2.6397643 -1.3870829 -0.25754562 26
2.6326556 -1.3839339 -0.15335569 29
2.6311433 -1.3837252 -0.050711047 26
2.6326628 -1.3851109 0.78629738 31
2.6335645 -1.3861722 0.67771465 29
2.6222661 -1.3808098 0.56810021 23
2.6292508 -1.3850739 0.46409836 23
2.62853 -1.3852804 0.3601239 29
2.6334193 -1.3884444 0.25710946 29
2.6351132 -1.3899255 0.15412939 27
2.6292007 -1.3873934 0.051222809 24
1.6903571 -0.89386517 -0.50210917 4
1.9372256 -1.0248426 -0.49714214 4
2.3287094 -1.2324678 -0.504237 4
2.6393657 -1.3974721 -0.46695724 13
2.6563213 -1.4070432 -0.36438975 14
2.6393077 -1.3986212 -0.25798139 24
2.6322203 -1.3954539 -0.1536165 28
2.6307137 -1.3952435 -0.050797433 27
2.6320782 -1.3965558 0.78759056 30
2.6287098 -1.3953567 0.67771465 28
2.6217649 -1.3922567 0.56905341 24
2.6287613 -1.3965603 0.46487963 22
2.6280606 -1.3967762 0.36073324 29
2.6329546 -1.3999667 0.25754523 28
2.634654 -1.4014603 0.15439107 25
2.6243417 -1.3965626 0.051222809 24
1.6872268 -0.89976019 -0.50210917 5
1.929338 -1.0293052 -0.49601737 4
2.324393 -1.240589 -0.504237 4
2.6388278 -1.4090028 -0.46773943 13
2.6557708 -1.4186453 -0.36499909 14
2.6388025 -1.4101732 -0.25841716 25
2.6317365 -1.4069878 -0.15387732 26
2.6302357 -1.4067756 -0.050883826 28
2.6314459 -1.4080137 0.78888386 30
2.6281185 -1.4068233 0.67883861 29
2.6212163 -1.4037172 0.57000661 23
2.6282234 -1.4080601 0.46566096 21
2.627543 -1.4082857 0.36134258 30
2.6324413 -1.4115027 0.257981 28
2.634146 -1.4130086 0.15465274 26
2.6238558 -1.4080787 0.05131007 26
1.6840756 -0.90564418 -0.50210917 5
1.9257332 -1.0360336 -0.49601737 4
2.3200486 -1.2486951 -0.504237 5
2.6382415 -1.4205467 -0.4685216 12
2.6508026 -1.4279069 -0.36499909 14
2.6382492 -1.4217389 -0.25885296 25
2.6312044 -1.4185351 -0.15413812 27
2.6297092 -1.4183216 -0.050970219 25
2.6307654 -1.419484 0.79017711 30
2.6274791 -1.4183029 0.67996246 28
2.6206188 -1.4151906 0.57095981 24
2.6276374 -1.4195731 0.46644226 23
2.6269772 -1.4198087 0.36195195 31
2.6318796 -1.4230521 0.25841677 28
2.6335893 -1.4245704 0.15491442 26
2.6233218 -1.4196084 0.051397335 24
1.6809042 -0.9115172 -0.50210917 6
1.9221051 -1.0427493 -0.49601737 4
2.3156757 -1.256786 -0.504237 6
2.6376071 -1.4321036 -0.46930379 12
2.6501632 -1.4395201 -0.36560845 14
2.6376464 -1.4333175 -0.25928873 25
2.6262367 -1.4277111 -0.15413812 27
2.6247423 -1.4274924 -0.050970219 26
2.6300371 -1.4309667 0.79147035 30
2.6267915 -1.4297951 0.68108642 28
2.6199739 -1.4266771 0.571913 22
2.6270032 -1.4310992 0.46722358 23
2.6263626 -1.4313446 0.36256129 30
2.6312695 -1.4346147 0.25885257 28
2.6329839 -1.4361457 0.1551761 24
2.6227388 -1.4311515 0.051484596 26
1.6777121 -0.91737914 -0.50210917 6
1.9184535 -1.0494523 -0.49601737 4
2.3155801 -1.2672178 -0.50519013 6
2.6369236 -1.4436734 -0.47008595 12
2.6494746 -1.451146 -0.36621779 14
2.6369953 -1.4449095 -0.25972453 27
2.6256156 -1.4392699 -0.15439893 27
2.6241267 -1.4390495 -0.051056605 29
2.6292605 -1.4424617 0.79276359 30
2.6303267 -1.4436439 0.68333423 27
2.6192803 -1.4381759 0.57286614 22
2.6263199 -1.442638 0.46800488 23
2.6256995 -1.4428937 0.36317062 28
2.6306107 -1.4461905 0.25928834 29
2.627955 -1.4453276 0.1551761 27
2.622107 -1.4427077 0.051571857 23
1.6744996 -0.92322981 -0.50210917 6
1.9147785 -1.0561426 -0.49601737 4
2.3154402 -1.2776644 -0.50614333 5
2.6318681 -1.4528693 -0.47008595 12
2.6487374 -1.4627848 -0.36682713 14
2.6362953 -1.4565141 -0.2601603 25
2.6249456 -1.4508415 -0.15465973 26
2.6234627 -1.4506198 -0.051142998 25
2.6284359 -1.4539686 0.79405689 30
2.6295342 -1.4551756 0.68445808 29
2.6185381 -1.4496876 0.57381934 22
2.6255884 -1.4541895 0.46878621 22
2.6249878 -1.4544556 0.36377996 30
2.6299031 -1.457779 0.25972411 28
2.6272607 -1.4569138 0.15543778 26
2.6214268 -1.4542769 0.051659122 26
1.675488 -0.93141592 -0.50340325 6
1.9153382 -1.0651879 -0.49714214 4
2.3152552 -1.2881253 -0.50709653 4
2.6310956 -1.464449 -0.47086814 11
2.6479511 -1.474436 -0.36743647 14
2.6355464 -1.4681315 -0.26059607 26
2.624227 -1.4624262 -0.15492055 27
2.6227496 -1.4622029 -0.051229388 26
2.6275625 -1.4654874 0.79535013 30
2.6286933 -1.4667195 0.68558204 27
2.6177478 -1.4612114 0.57477254 21
2.6248083 -1.4657536 0.46956751 22
2.6242273 -1.46603 0.36438933 28
2.6291463 -1.4693801 0.26015988 28
2.6265171 -1.4685123 0.15569946 25
2.6206975 -1.4658591 0.051746383 23
1.6722265 -0.93725878 -0.50340325 6
1.9116083 -1.0718672 -0.49714214 4
2.3150256 -1.2986006 -0.50804973 4
2.625968 -1.4736245 -0.47086814 10
2.6471155 -1.4860995 -0.36804584 15
2.6347489 -1.4797616 -0.26103184 25
2.6234593 -1.4740235 -0.15518135 25
2.6219876 -1.4737986 -0.051315777 25
2.626641 -1.4770176 0.79664338 28
2.6278038 -1.4782752 0.68670589 28
2.6169088 -1.4727476 0.57572573 21
2.6239791 -1.4773297 0.47034883 21
2.6234179 -1.4776168 0.36499867 28
2.6283407 -1.4809939 0.26059568 28
2.6257248 -1.4801236 0.15596114 24
2.6199195 -1.4774538 0.051833645 24
1.6689447 -0.9430902 -0.50340325 6
1.9036139 -1.0761359 -0.49601737 4
2.3104784 -1.3066735 -0.50804973 4
2.6251061 -1.4852135 -0.47165027 9
2.6462307 -1.4977751 -0.36865517 14
2.6339018 -1.4914039 -0.26146764 24
2.6226428 -1.4856331 -0.15544216 26
2.6211765 -1.4854069 -0.051402166 25
2.6256711 -1.4885594 0.79793668 29
2.6268654 -1.4898425 0.68782979 28
2.6117518 -1.4818733 0.57572573 23
2.6231012 -1.4889181 0.47113013 22
2.6225595 -1.4892159 0.36560804 29
2.6274858 -1.4926196 0.26103145 29
2.6248832 -1.491747 0.15622282 25
2.619092 -1.4890609 0.051920906 23
1.6614461 -0.94651949 -0.50210917 5
1.8998457 -1.0827742 -0.49601737 4
2.3101671 -1.3171617 -0.50900286 4
2.6241956 -1.4968146 -0.47243246 9
2.6452971 -1.5094627 -0.36926451 14
2.6330054 -1.5030581 -0.26190341 25
2.6217768 -1.497255 -0.15570298 26
2.6203165 -1.4970275 -0.05148856 25
2.6246519 -1.5001122 0.79922986 27
2.6258783 -1.5014211 0.6889537 27
2.6108236 -1.4934179 0.57667893 23
2.6221745 -1.5005182 0.47191146 22
2.6216521 -1.5008266 0.36621734 28
2.6265821 -1.5042577 0.26146722 28
2.6239924 -1.5033829 0.1564845 23
2.6182158 -1.5006802 0.052008171 23
1.658132 -0.95231324 -0.50210917 5
1.8918307 -1.0869722 -0.49489263 4
2.3098109 -1.3276637 -0.50995612 4
2.6232357 -1.5084274 -0.47321463 10
2.6443136 -1.5211619 -0.36987385 14
2.6277428 -1.5122398 -0.26190341 25
2.6208618 -1.5088888 -0.15596379 27
2.6194067 -1.50866 -0.051574945 24
2.6277695 -1.5140874 0.8018164 28
2.6248426 -1.5130112 0.6900776 27
2.6098471 -1.5049742 0.57763213 23
2.6211984 -1.5121298 0.47269273 21
2.6206956 -1.5124495 0.36682671 29
2.6256289 -1.5159075 0.26190299 29
2.6230524 -1.5150305 0.15674618 24
2.6172898 -1.5123112 0.052095428 23
1.6547978 -0.95809543 -0.50210917 5
1.8880248 -1.0935694 -0.49489263 4
2.3094091 -1.3381791 -0.51090926 4
2.6222267 -1.5200517 -0.47399682 9
2.6475737 -1.5353622 -0.37109256 13
2.6267564 -1.5239028 -0.2623392 23
2.6198974 -1.5205346 -0.15622459 24
2.618448 -1.5203044 -0.051661339 25
2.6266448 -1.5256767 0.80310965 29
2.6237576 -1.5246122 0.69120157 28
2.6088209 -1.5165418 0.57858527 22
2.6201735 -1.5237532 0.47347406 22
2.6196899 -1.5240837 0.36743605 27
2.6246264 -1.5275689 0.26233879 26
2.6220629 -1.5266899 0.15700787 23
2.6163146 -1.5239544 0.052182693 23
1.6472721 -0.96143138 -0.50081509 5
1.8841962 -1.1001532 -0.49489263 4
2.304724 -1.3462323 -0.51090926 4
2.6211689 -1.5316874 -0.47477898 9
2.6464827 -1.5470994 -0.37170193 13
2.6257205 -1.5355771 -0.26277497 23
2.6188836 -1.5321919 -0.15648541 27
2.6174397 -1.5319604 -0.051747728 24
2.6254711 -1.5372764 0.80440289 29
2.626828 -1.5386865 0.69344938 27
2.6077464 -1.5281209 0.57953846 22
2.6190989 -1.5353875 0.47425535 21
2.6186347 -1.5357295 0.36804542 27
2.6235743 -1.5392419 0.26277456 27
2.6253304 -1.5408882 0.15753123 24
2.6152902 -1.535609 0.052269954 22
1.643906 -0.96717554 -0.50081509 5
1.8845427 -1.1091945 -0.49601737 5
2.3000107 -1.354269 -0.51090926 4
2.6200612 -1.543334 -0.47556117 8
2.6453416 -1.5588471 -0.37231123 13
2.6246355 -1.5472628 -0.26321074 23
2.6178198 -1.5438606 -0.15674621 25
2.6206875 -1.5461684 -0.051920507 25
2.6242485 -1.5488867 0.80569619 28
2.6256359 -1.5503236 0.69457322 28
2.6108484 -1.5422066 0.58144486 22
2.6179752 -1.547033 0.47503668 19
2.6175299 -1.5473863 0.36865473 27
2.6224728 -1.550926 0.26321036 27
2.624233 -1.5525852 0.1577929 23
2.6142163 -1.5472752 0.052357219 20
1.64052 -0.97290796 -0.50081509 5
1.8806593 -1.1157662 -0.49601737 5
2.2952693 -1.3622894 -0.51090926 3
2.6189041 -1.5549916 -0.4763433 9
2.644151 -1.5706061 -0.3729206 13
2.6235006 -1.5589595 -0.26364651 23
2.6167073 -1.5555407 -0.15700702 26
2.6195714 -1.5578623 -0.0520069 23
2.6229768 -1.5605071 0.80698937 28
2.6243949 -1.5619712 0.69569719 28
2.6096663 -1.553822 0.58239806 22
2.616802 -1.5586894 0.47581798 22
2.6163762 -1.5590543 0.3692641 27
2.6213212 -1.5626211 0.26364613 26
2.623086 -1.5642936 0.15805459 22
2.6130927 -1.5589522 0.052444477 22
1.6371139 -0.97862852 -0.50081509 4
1.8809347 -1.1248246 -0.49714214 5
2.286288 -1.3677733 -0.50995612 4
2.617698 -1.5666598 -0.4771255 8
2.6429102 -1.5823758 -0.37352994 13
2.6223159 -1.5706671 -0.26408231 20
2.6198275 -1.5697981 -0.15752864 24
2.6184053 -1.569567 -0.052093286 24
2.6216557 -1.5721375 0.80828267 27
2.6231046 -1.5736288 0.69682103 27
2.6084352 -1.5654477 0.58335125 21
2.6155791 -1.5703561 0.47659931 21
2.6151724 -1.570733 0.36987343 28
2.6243899 -1.5768925 0.26451766 28
2.6218891 -1.5760128 0.15831625 20
2.6162033 -1.5732167 0.052619003 22
1.6336879 -0.98433721 -0.50081509 5
1.8769969 -1.1313834 -0.49714214 5
2.2772963 -1.373211 -0.50900286 4
2.616442 -1.5783386 -0.47790766 10
2.6416197 -1.5941557 -0.37413931 13
2.6168172 -1.5798111 -0.26408231 22
2.614332 -1.5789335 -0.15752864 24
2.6171894 -1.5812826 -0.052179679 25
2.6202853 -1.5837774 0.80957586 28
2.6217647 -1.5852965 0.697945 26
2.6071546 -1.5770838 0.58430439 22
2.6185322 -1.5845904 0.47816193 20
2.613919 -1.582422 0.3704828 27
2.6231301 -1.588624 0.26495346 27
2.6163719 -1.5851551 0.15831625 23
2.6106958 -1.5823394 0.052619003 22
1.63437 -0.99254078 -0.50210917 5
1.8688723 -1.1353989 -0.49601737 4
2.2682948 -1.3786027 -0.50804973 4
2.6151364 -1.5900278 -0.47868985 10
2.6402791 -1.6059459 -0.37474868 13
2.6325624 -1.6018819 -0.26626119 18
2.6215999 -1.5958383 -0.15831105 23
2.6201935 -1.5956091 -0.052352462 23
2.6188657 -1.5954273 0.81086916 28
2.616215 -1.5944384 0.697945 26
2.6016338 -1.5861748 0.58430439 22
2.6214175 -1.5988643 0.47972456 19
2.6126156 -1.5941215 0.37109211 27
2.6260717 -1.6029609 0.265825 26
2.6236069 -1.602085 0.15910131 22
2.6478183 -1.6175041 0.053491622 19
1.6308954 -0.99823976 -0.50210917 5
1.8648975 -1.1419154 -0.49601737 4
2.2592831 -1.3839481 -0.50709653 4
2.6137807 -1.6017268 -0.47947201 10
2.6388881 -1.6177464 -0.37535799 13
2.6651695 -1.6344979 -0.27018321 20
2.6500618 -1.6258692 -0.16039754 21
2.6572154 -1.6308964 -0.053216361 23
2.6173966 -1.6070861 0.8121624 27
2.6189363 -1.6086609 0.70019281 27
2.6128087 -1.6055253 0.58811718 19
2.6536856 -1.6312815 0.48675635 19
2.6197174 -1.6110305 0.37292019 26
2.6586423 -1.6356077 0.26974702 27
2.6562698 -1.6347872 0.16145642 22
2.6719558 -1.6450841 0.054102458 20
1.627401 -1.0039265 -0.50210917 5
1.8567544 -1.1458597 -0.49489263 4
2.2502623 -1.3892478 -0.50614333 4
2.6165774 -1.6160311 -0.48103639 8
2.6627781 -1.6452073 -0.37962344 11
2.7018173 -1.6699793 -0.27454099 19
2.6740985 -1.6534916 -0.1622232 24
2.6897707 -1.6638312 -0.053993873 23
2.6569488 -1.6441696 0.82638818 26
2.6588726 -1.6460019 0.71255571 25
2.6489174 -1.6404787 0.5976491 20
2.6773622 -1.6587412 0.4922255 19
2.6562603 -1.6463093 0.37901363 25
2.674083 -1.6580018 0.27192593 26
2.6802492 -1.6624727 0.16328818 21
2.6916845 -1.6702162 0.054626029 19
1.6197852 -1.0070511 -0.50081509 5
1.8527434 -1.152334 -0.49489263 4
2.2370644 -1.3919082 -0.504237 4
2.6318831 -1.638203 -0.48494723 5
2.6865084 -1.6728548 -0.38388884 9
2.7086549 -1.6873012 -0.27584836 22
2.7022119 -1.6839426 -0.16430967 23
2.7009158 -1.6837893 -0.054339435 24
2.688077 -1.6764369 0.83802748 25
2.6861794 -1.6759046 0.72154701 26
2.684813 -1.6757034 0.60718095 19
2.6966901 -1.6837704 0.49691334 18
2.6925883 -1.6818624 0.3851071 26
2.7020721 -1.6884421 0.27541214 24
2.7040677 -1.6903453 0.16511993 21
2.6900768 -1.6822525 0.05471329 19
1.6164367 -1.012417 -0.50081509 5
1.844985 -1.1555628 -0.49376786 4
2.2285211 -1.3963231 -0.50328374 3
2.6476457 -1.6595774 -0.4888581 9
2.7148757 -1.702378 -0.38876364 7
2.7117798 -1.7010962 -0.2767199 20
2.7053668 -1.6977315 -0.16483128 24
2.7040808 -1.6975822 -0.054512214 22
2.7073379 -1.7002858 0.84578699 27
2.7056534 -1.6998864 0.72829044 25
2.6878469 -1.6893535 0.60908735 20
2.7039297 -1.7001202 0.4992573 18
2.699894 -1.6982403 0.38693514 27
2.7009702 -1.6995753 0.27584794 24
2.7071953 -1.704152 0.16564329 19
2.6932392 -1.6960231 0.054887816 19
1.6130705 -1.0177717 -0.50081509 5
1.8409401 -1.1619959 -0.49376786 4
2.2194834 -1.4014729 -0.5023306 3
2.6585371 -1.6793588 -0.49198681 8
2.725698 -1.7224488 -0.39120105 8
2.7058251 -1.7105517 -0.2767199 20
2.7036448 -1.7098337 -0.1650921 22
2.7023633 -1.7096837 -0.054598603 22
2.7054672 -1.7123089 0.84708017 28
2.7038193 -1.7119268 0.72941428 24
2.68608 -1.7013519 0.61004049 19
2.7021503 -1.7121916 0.50003856 18
2.6981406 -1.7103109 0.38754448 25
2.7076406 -1.7169955 0.27715525 24
2.7054465 -1.7162662 0.16590497 20
2.6915233 -1.7080927 0.054975078 19
1.6093293 -1.0236771 -0.50081509 5
1.8366688 -1.1687355 -0.49376786 4
2.2060504 -1.4043268 -0.50042421 3
2.6523643 -1.6890917 -0.49198681 6
2.7193666 -1.7324274 -0.39120105 8
2.7079384 -1.7258115 -0.27759147 21
2.70578 -1.7251002 -0.16561371 23
2.700294 -1.7222652 -0.054684997 21
2.7032449 -1.7248113 0.84837347 26
2.7016335 -1.7244467 0.73053825 24
2.6881001 -1.7164686 0.61194688 18
2.7041805 -1.7274011 0.50160128 18
2.6960359 -1.7228611 0.38815385 25
2.7097228 -1.7322737 0.27802682 23
2.7033443 -1.7288609 0.16616665 21
2.6936672 -1.7233344 0.0551496 20
1.6057463 -1.0292884 -0.50081509 5
1.8325779 -1.1751395 -0.49376786 4
2.2011349 -1.4120189 -0.50042421 3
2.6506083 -1.7010069 -0.49276894 6
2.7174788 -1.7445903 -0.39181039 7
2.7060885 -1.737945 -0.27802724 19
2.7039428 -1.7372334 -0.16587453 22
2.6984711 -1.7343835 -0.054771382 22
2.7053328 -1.7394612 0.85095996 25
2.6996951 -1.7365022 0.73166209 25
2.6862195 -1.7284973 0.61290008 18
2.7022867 -1.739503 0.50238252 18
2.6983504 -1.7376353 0.38937253 24
2.7078469 -1.7444193 0.27846259 24
2.7014902 -1.7409915 0.16642833 19
2.6918368 -1.7354355 0.055236865 19
1.6062006 -1.0375077 -0.50210917 5
1.8284649 -1.1815293 -0.49376786 3
2.1920707 -1.4170289 -0.49947101 3
2.6446543 -1.7102489 -0.49276894 6
2.7155395 -1.7567612 -0.39241973 7
2.7041872 -1.7500867 -0.27846304 21
2.7062449 -1.7520885 -0.16639614 23
2.7007923 -1.7492275 -0.054944165 23
2.7032976 -1.75152 0.8522532 25
2.7017939 -1.7512151 0.7339099 24
2.6884062 -1.7432041 0.61480647 18
2.7003417 -1.7516128 0.50316387 19
2.6964314 -1.7497451 0.38998187 25
2.705919 -1.756573 0.27889836 23
2.7037716 -1.7558498 0.16695169 19
2.6941471 -1.7502682 0.055411387 19
1.6025691 -1.0431081 -0.50210917 5
1.8243294 -1.1879046 -0.49376786 4
2.1829984 -1.4219933 -0.49851784 4
2.6428061 -1.7221663 -0.49355114 7
2.7135477 -1.7689394 -0.39302906 8
2.702234 -1.7622362 -0.27889881 21
2.7042947 -1.764253 -0.16665696 23
2.6988568 -1.7613769 -0.055030555 21
2.7012117 -1.7635862 0.8535465 27
2.6997437 -1.7632999 0.73503381 23
2.686414 -1.7552626 0.61575967 18
2.7024786 -1.766432 0.50472647 18
2.6944611 -1.7618628 0.39059123 27
2.7039394 -1.7687345 0.27933416 22
2.7018042 -1.768011 0.16721338 19
2.6922038 -1.7623999 0.055498648 19
1.5989182 -1.0486957 -0.50210917 5
1.8201717 -1.1942655 -0.49376786 4
2.1780214 -1.4296046 -0.49851784 4
2.6367784 -1.7313811 -0.49355114 8
2.7115047 -1.7811255 -0.39363843 7
2.7002289 -1.7743934 -0.27933457 21
2.7022922 -1.7764245 -0.16691776 23
2.701046 -1.7762806 -0.055203337 21
2.699074 -1.775659 0.85483968 26
2.7017117 -1.7780697 0.73728162 24
2.6884696 -1.7700274 0.61766601 19
2.7004204 -1.7785711 0.50550777 19
2.6965828 -1.7767184 0.39180991 25
2.7019079 -1.7809033 0.27976996 23
2.6997848 -1.78018 0.16747504 19
2.6943817 -1.7772923 0.055673171 20
1.5912186 -1.0516078 -0.50081509 6
1.8159918 -1.2006118 -0.49376786 3
2.173018 -1.4371986 -0.49851784 4
2.6307189 -1.7405745 -0.49355114 8
2.7135475 -1.7960578 -0.39485711 8
2.7023249 -1.789308 -0.28020614 19
2.7044003 -1.7913615 -0.16743939 24
2.6989963 -1.7884597 -0.055289723 23
2.6968851 -1.7877382 0.85613298 27
2.699549 -1.7901822 0.73840553 26
2.6863649 -1.7821144 0.6186192 20
2.6983106 -1.7907175 0.50628912 18
2.694499 -1.7888654 0.39241928 26
2.7039733 -1.7958353 0.2806415 25
2.7018723 -1.7951195 0.16799842 19
2.6923249 -1.7894537 0.055760436 18
1.5875381 -1.0571557 -0.50081509 5
1.8117899 -1.2069435 -0.49376786 3
2.1720722 -1.4474969 -0.49947101 4
2.6246271 -1.7497468 -0.49355114 7
2.71139 -1.8082725 -0.39546645 7
2.700206 -1.8014946 -0.28064194 19
2.7022839 -1.8035624 -0.16770019 23
2.7010527 -1.8034222 -0.055462509 21
2.6986611 -1.8025064 0.85871947 26
2.6973345 -1.8023014 0.73952943 24
2.6842084 -1.7942084 0.6195724 20
2.6961486 -1.8028704 0.50707042 19
2.692363 -1.8010191 0.39302862 27
2.7018278 -1.8080331 0.28107727 24
2.6997387 -1.8073176 0.1682601 19
2.6902161 -1.8016226 0.055847697 20
1.5838383 -1.0626909 -0.50081509 5
1.8075658 -1.2132604 -0.49376786 3
2.1670063 -1.4550701 -0.49947101 4
2.6226025 -1.7616514 -0.4943333 6
2.7091811 -1.8204939 -0.39607581 7
2.7021689 -1.8164667 -0.28151348 19
2.7001154 -1.8157706 -0.167961 23
2.6988888 -1.81563 -0.055548895 22
2.6963594 -1.8146119 0.86001271 25
2.69911 -1.8171477 0.74177724 25
2.6860714 -1.8090507 0.6214788 18
2.6980305 -1.8177898 0.50863302 19
2.6901753 -1.8131801 0.39363798 25
2.6996303 -1.820238 0.28151307 24
2.7016928 -1.8223146 0.16878346 18
2.6921992 -1.8165948 0.056022223 18
1.5801191 -1.068213 -0.50081509 5
1.8073555 -1.2222921 -0.49489263 3
2.1659794 -1.4653758 -0.50042421 3
2.6205273 -1.7735633 -0.49511549 5
2.7110283 -1.8355042 -0.39729452 7
2.6999357 -1.8286811 -0.28194925 20
2.7020283 -1.8307865 -0.16848262 22
2.6966729 -1.8278447 -0.055635288 21
2.6940067 -1.8267238 0.86130601 26
2.6967824 -1.829293 0.74290115 23
2.6838017 -1.8211718 0.62243193 18
2.6957548 -1.8299704 0.50941437 18
2.6920407 -1.8281356 0.39485666 24
2.6973798 -1.8324493 0.28194883 23
2.699445 -1.8345407 0.16904514 20
2.6899755 -1.828792 0.056109484 17
1.5723891 -1.0710033 -0.49952096 5
1.8030779 -1.2285935 -0.49489263 4
2.160851 -1.4729276 -0.50042421 4
2.6184003 -1.7854819 -0.49589765 4
2.7087045 -1.8477528 -0.39790383 7
2.7017643 -1.8437097 -0.28282082 18
2.6997449 -1.8430221 -0.16874342 23
2.6944044 -1.8400661 -0.055721678 22
2.6955898 -1.8415655 0.8638925 26
2.6944029 -1.8414445 0.74402505 26
2.6814799 -1.8332994 0.62338513 18
2.6934271 -1.8421572 0.51019561 17
2.6897388 -1.8403238 0.395466 24
2.6991878 -1.8474804 0.28282037 24
2.7012646 -1.8495944 0.16956849 19
2.6877003 -1.8409957 0.056196745 18
1.5686411 -1.0764855 -0.49952096 5
1.7987784 -1.2348799 -0.49489263 4
2.1597424 -1.4832401 -0.5013774 3
2.6202929 -1.8002039 -0.49746197 5
2.7104177 -1.8628186 -0.39912254 7
2.6994169 -1.8559517 -0.28325659 18
2.6974092 -1.8552645 -0.16900423 23
2.6920838 -1.852294 -0.055808067 22
2.6931238 -1.8537022 0.8651858 26
2.6959841 -1.8563647 0.74627286 24
2.6831484 -1.8482169 0.62529153 18
2.6910467 -1.85435 0.51097697 18
2.6873844 -1.8525182 0.39607537 24
2.6968229 -1.8597189 0.28325617 23
2.6989019 -1.8618475 0.16983017 20
2.6894867 -1.8560454 0.056371272 18
1.5648739 -1.0819545 -0.49952096 5
1.7944568 -1.2411512 -0.49489263 3
2.1545517 -1.4907699 -0.5013774 3
2.6180537 -1.8121502 -0.49824417 5
2.7079792 -1.8750936 -0.3997319 7
2.7011111 -1.8710356 -0.28412816 18
2.6991248 -1.8703569 -0.16952586 22
2.6938188 -1.867376 -0.05598085 22
2.6906054 -1.8658439 0.86647898 25
2.6934907 -1.8685411 0.74739677 24
2.6807132 -1.8603698 0.62624466 17
2.6926711 -1.869365 0.51253957 17
2.6890538 -1.8675493 0.39729404 24
2.6944056 -1.8719633 0.28369194 23
2.6964865 -1.8741069 0.17009185 19
2.6870959 -1.868276 0.056458529 18
1.5610876 -1.0874103 -0.49952096 4
1.7901134 -1.2474076 -0.49489263 3
2.1493349 -1.4982816 -0.5013774 3
2.6157627 -1.8241026 -0.49902633 4
2.7054875 -1.8873743 -0.40034124 7
2.698648 -1.8833032 -0.28456393 18
2.6966739 -1.8826253 -0.16978666 23
2.6913826 -1.8796302 -0.056067236 22
2.6919947 -1.8807569 0.86906546 25
2.6949389 -1.8835139 0.74964464 24
2.6822481 -1.8753411 0.62815106 18
2.6901762 -1.8815831 0.51332086 17
2.6865847 -1.8797696 0.39790338 24
2.6960158 -1.8870696 0.28456348 23
2.6940181 -1.8863719 0.17035353 21
2.6887474 -1.8833805 0.056633055 18
1.5572823 -1.092853 -0.49952096 5
1.7857484 -1.2536486 -0.49489263 3
2.1440918 -1.5057751 -0.5013774 3
2.6134202 -1.8360611 -0.49980852 4
2.7029431 -1.8996601 -0.40095058 7
2.6961324 -1.8955766 -0.28499973 19
2.69417 -1.8948996 -0.17004748 22
2.688894 -1.8918903 -0.056153629 21
2.6893628 -1.8929222 0.87035877 26
2.6923313 -1.8957143 0.75076848 23
2.6796985 -1.8875189 0.62910426 17
2.6876287 -1.8938069 0.51410222 16
2.6881192 -1.8948544 0.39912206 25
2.6934831 -1.8993393 0.28499928 22
2.6955774 -1.9015206 0.17087689 18
2.6862414 -1.8956372 0.05672032 18
1.5536498 -1.098011 -0.49952096 4
1.7778224 -1.2564405 -0.49376786 3
2.1353428 -1.5096699 -0.50042421 4
2.6116712 -1.8471138 -0.50059068 4
2.7010131 -1.9110087 -0.40155992 7
2.6982954 -1.9097925 -0.28587127 18
2.6963539 -1.909125 -0.17056909 22
2.6910958 -1.9061074 -0.056326408 23
2.6912844 -1.9069463 0.87294525 26
2.6903374 -1.9069806 0.75189245 23
2.6817632 -1.9016063 0.63101065 18
2.6897223 -1.9079555 0.51566482 17
2.6902478 -1.9090341 0.40034077 24
2.6915643 -1.9106749 0.28543505 22
2.6936615 -1.9128706 0.17113857 18
2.6843483 -1.9069619 0.056807578 19
1.5500001 -1.103157 -0.49952096 4
1.7734257 -1.2626387 -0.49376786 3
2.13006 -1.5171145 -0.50042421 4
2.6052074 -1.8562192 -0.50059068 4
2.7024083 -1.9261861 -0.40277863 7
2.695668 -1.9220915 -0.28630704 19
2.6937385 -1.921425 -0.17082989 20
2.6884954 -1.9183931 -0.056412797 21
2.6885424 -1.919135 0.87423849 25
2.6915944 -1.9220226 0.75414026 22
2.6791027 -1.9138087 0.63196379 17
2.6870639 -1.9202042 0.51644611 18
2.6876047 -1.9212995 0.40095013 24
2.6929817 -1.9258536 0.28630662 22
2.6910286 -1.9251667 0.17140025 19
2.6858063 -1.9221394 0.056982104 18
1.5498708 -1.1116456 -0.50081509 4
1.7648278 -1.2662902 -0.49264312 3
2.1244853 -1.5249114 -0.50042421 3
2.5983868 -1.8657552 -0.50059068 4
2.6993611 -1.9389734 -0.40338799 7
2.6966949 -1.9377718 -0.28717861 19
2.6907325 -1.9341996 -0.17109071 21
2.6855052 -1.9311529 -0.056499191 21
2.689332 -1.934617 0.87682498 24
2.6884861 -1.9347206 0.7552641 21
2.6800373 -1.9293507 0.63387018 18
2.6880229 -1.9358119 0.51800871 17
2.6885982 -1.9369389 0.40216881 24
2.6899459 -1.9386233 0.28674239 23
2.688005 -1.9379371 0.17166193 19
2.6827979 -1.9348948 0.057069365 17
1.5459812 -1.1170489 -0.50081509 4
1.7603968 -1.2724427 -0.49264312 3
2.1191494 -1.5323179 -0.50042421 4
2.5918581 -1.8748139 -0.50059068 4
2.7006176 -1.9542027 -0.40460667 7
2.6939495 -1.950094 -0.28761441 18
2.6920526 -1.9494373 -0.17161232 23
2.6868451 -1.9463811 -0.05667197 22
2.6864736 -1.9468269 0.87811828 25
2.6896052 -1.9498127 0.75751191 21
2.6772597 -1.9415754 0.63482338 17
2.6852469 -1.9480833 0.51879007 17
2.6858368 -1.9492267 0.40277815 24
2.6912239 -1.9538536 0.28761396 21
2.6893039 -1.9531766 0.17218529 19
2.6800721 -1.9471862 0.057156626 17
1.5381676 -1.1195964 -0.49952096 4
1.7559446 -1.27858 -0.49264312 3
2.1137877 -1.5397058 -0.50042421 4
2.5852981 -1.8838499 -0.50059068 4
2.6977899 -1.9665409 -0.40521601 6
2.6951749 -1.9653553 -0.28848594 18
2.6892655 -1.9617651 -0.17187312 21
2.6840727 -1.9586949 -0.056758359 21
2.6874635 -1.9618883 0.88070476 24
2.6906521 -1.964936 0.75975972 21
2.6783926 -1.9566998 0.63672978 17
2.6864049 -1.9632726 0.52035266 16
2.6870289 -1.9644482 0.40399686 25
2.6884079 -1.9661763 0.28804973 23
2.6864996 -1.9655005 0.17244697 18
2.6813271 -1.9624348 0.057331149 17
1.5342501 -1.1249588 -0.49952096 4
1.7514708 -1.2847016 -0.49264312 3
2.1084003 -1.547075 -0.50042421 3
2.5787065 -1.8928626 -0.50059068 5
2.6989093 -1.9818208 -0.40643471 7
2.6923122 -1.9777 -0.28892171 18
2.6904483 -1.9770539 -0.17239475 21
2.6852751 -1.9739741 -0.056931138 21
2.688381 -1.9769801 0.8832913 24
2.6877015 -1.9772031 0.76088363 23
2.6754994 -1.9689468 0.63768297 17
2.6835127 -1.9755659 0.52113402 17
2.6841512 -1.9767586 0.40460619 25
2.6895485 -1.9814572 0.28892127 23
2.6876612 -1.9807907 0.17297032 19
2.6784844 -1.9747492 0.057418413 17
1.5341989 -1.1331768 -0.50081509 4
1.7469757 -1.2908075 -0.49264312 3
2.1029873 -1.5544251 -0.50042421 4
2.5720835 -1.9018525 -0.50059068 5
2.6959648 -1.9941808 -0.40704405 7
2.6934004 -1.9930115 -0.28979328 18
2.6875441 -1.9894041 -0.17265557 22
2.6823859 -1.9863105 -0.057017531 23
2.6853445 -1.9892269 0.88458449 24
2.688612 -1.9923744 0.76313144 24
2.6764963 -1.98412 0.63958937 18
2.6845338 -1.9908046 0.52269661 17
2.6852064 -1.9920297 0.4058249 24
2.6866155 -1.993802 0.28935707 22
2.6847396 -1.9931365 0.173232 19
2.6796019 -1.9900479 0.05759294 17
1.530234 -1.1385252 -0.50081509 4
1.7424593 -1.2968978 -0.49264312 3
2.0975482 -1.5617565 -0.50042421 3
2.5693896 -1.9137692 -0.50137287 4
2.6969464 -2.0095096 -0.40826276 7
2.6904209 -2.0053778 -0.29022908 17
2.6885893 -2.0047429 -0.17317718 20
2.6834507 -2.0016398 -0.05719031 22
2.6861265 -2.0043654 0.88717103 26
2.685545 -2.0046616 0.76425534 22
2.6734867 -1.9963874 0.64054251 17
2.6815248 -2.0031185 0.52347791 17
2.6822119 -2.0043614 0.40643427 23
2.6876185 -2.0091326 0.29022864 21
2.6857634 -2.0084765 0.17375536 18
2.6766419 -2.0023839 0.057680197 17
1.5301151 -1.1467563 -0.50210917 4
1.7379216 -1.3029722 -0.49264312 3
2.0881574 -1.5661237 -0.49947101 4
2.5666442 -1.9256903 -0.50215507 4
2.6938846 -2.0218906 -0.40887213 7
2.6913707 -2.0207384 -0.29110062 18
2.6855674 -2.0171139 -0.17343798 21
2.6844409 -2.0170009 -0.057363093 21
2.6829743 -2.0166316 0.88846427 22
2.6863194 -2.0198798 0.76650316 21
2.6704245 -2.0086579 0.64149576 18
2.6824088 -2.0184054 0.52504057 17
2.6791639 -2.0166962 0.40704358 24
2.6845679 -2.0214982 0.2906644 19
2.6827242 -2.0208437 0.17401704 18
2.6776214 -2.0177321 0.057854723 16
1.5261029 -1.1520903 -0.50210917 4
1.7372503 -1.3119665 -0.49376786 3
2.0787618 -1.5704448 -0.49851784 4
2.5638463 -1.9376153 -0.5029372 4
2.6907692 -2.0342746 -0.40948144 7
2.6882734 -2.0331254 -0.29153642 17
2.6864741 -2.0325017 -0.17395961 19
2.6853564 -2.032393 -0.057535872 20
2.68362 -2.0318155 0.89105082 23
2.6831362 -2.032186 0.76762706 19
2.671221 -2.0238955 0.6434021 17
2.6832182 -2.0337226 0.52660316 17
2.680017 -2.0320327 0.40826228 23
2.6814637 -2.0338666 0.29110017 21
2.6796317 -2.0332139 0.17427872 17
2.6785259 -2.0331118 0.058029246 17
1.5143833 -1.1515638 -0.49952096 4
1.7326602 -1.3180226 -0.49376786 3
2.0732672 -1.5776914 -0.49851784 4
2.5609968 -1.9495442 -0.50371939 4
2.6915483 -2.0496681 -0.41070014 7
2.6851223 -2.0455148 -0.29197219 17
2.6873059 -2.0479198 -0.17448123 20
2.6822214 -2.044785 -0.057622265 20
2.6803515 -2.0440996 0.892344 24
2.6837733 -2.0474498 0.76987487 20
2.6680417 -2.036185 0.6443553 17
2.6800287 -2.0460732 0.52738446 17
2.6768517 -2.0443878 0.40887165 22
2.6783059 -2.0462384 0.29153597 22
2.6764853 -2.0455873 0.17454042 17
2.6793559 -2.048522 0.058203775 17
1.5141884 -1.1597797 -0.50081509 3
1.7280489 -1.3240628 -0.49376786 3
2.0677474 -1.5849189 -0.49851784 4
2.5580947 -1.9614768 -0.50450158 4
2.6922529 -2.0650918 -0.41191885 8
2.6858692 -2.0609398 -0.29284373 17
2.6880627 -2.0633686 -0.17500284 20
2.6829977 -2.0602248 -0.057795044 18
2.6808608 -2.0593278 0.8949306 23
2.6843362 -2.0627427 0.77212268 21
2.6687007 -2.0514686 0.64626163 17
2.6806998 -2.0614371 0.52894711 16
2.6775663 -2.0597711 0.41009033 25
2.6750941 -2.0586126 0.29197174 23
2.6772416 -2.0610094 0.17506377 17
2.6801105 -2.0639627 0.058378298 18
nan nan nan 0
1.7234166 -1.3300867 -0.49376786 3
2.0622022 -1.592127 -0.49851784 4
2.555141 -1.973413 -0.50528377 3
2.6928821 -2.0805452 -0.41313753 7
2.6825998 -2.0733488 -0.29327953 17
2.6847937 -2.075793 -0.17526364 21
2.6836987 -2.0756948 -0.057967823 21
2.6774757 -2.0716286 0.89622378 23
2.6809723 -2.0750821 0.77324659 19
2.6692855 -2.0667815 0.64816803 17
2.677392 -2.0738058 0.52972841 17
2.678206 -2.0751841 0.41130903 20
2.6797025 -2.0770926 0.29327908 18
2.677923 -2.0764613 0.17558713 16
2.6768394 -2.0763695 0.058465559 16
nan nan nan 0
1.7226096 -1.3390846 -0.49489263 3
2.0527575 -1.5963025 -0.49756464 4
2.5521348 -1.9853524 -0.50606591 4
2.6934364 -2.0960281 -0.41435623 6
2.6832068 -2.0888195 -0.2941511 17
2.6854105 -2.0912879 -0.17578526 18
2.6843245 -2.0911949 -0.058140606 20
2.6778474 -2.0869002 0.89881027 22
2.6813972 -2.0904188 0.7754944 18
2.6697958 -2.0821235 0.65007442 17
2.6779244 -2.0892146 0.53129101 18
2.6748579 -2.0875735 0.41191834 22
