# .PCD v0.7 - Point Cloud Data file format
VERSION 0.7
FIELDS x y z intensity
SIZE 4 4 4 4
TYPE F F F F
COUNT 1 1 1 1
WIDTH 1370
HEIGHT 1
VIEWPOINT 0 0 0 1 0 0 0
POINTS 1370
DATA ascii
-3.0301869 1.4136431 0.173232 14
-3.0018833 1.4010768 0.057156626 13
-1.7626266 0.82454938 -0.51116782 2
-2.0379264 0.953767 -0.51063919 2
-2.4394772 1.1422153 -0.51567525 3
-2.9683347 1.3904693 -0.51310545 6
-3.0229633 1.4167026 -0.40521601 11
-2.9976211 1.4054642 -0.28630704 15
-3.0091648 1.4115173 -0.17161232 12
-2.9853745 1.4009936 -0.056326408 11
-2.9900796 1.4038386 0.87423849 14
-2.9936016 1.4061297 0.75414026 13
-2.9798355 1.4002986 0.63196379 14
-2.97541 1.3988529 0.51410222 12
-2.9895468 1.4061365 0.40095013 14
-2.9911489 1.4075277 0.28587085 13
-2.9981287 1.4114512 0.17166193 14
-2.9698381 1.3987659 0.056633055 13
-1.7553703 0.82863533 -0.50987375 2
-2.0345848 0.96087486 -0.51063919 2
-2.4443507 1.1549171 -0.51758158 3
-2.9634631 1.4008223 -0.51310545 7
-2.9910815 1.4145162 -0.40155992 9
-2.9701846 1.4052681 -0.28412816 16
-2.9771404 1.4091952 -0.17004748 12
-2.9533565 1.3985683 -0.055808067 11
-2.9633377 1.4039282 0.86777228 14
-2.9622593 1.4040505 0.74739677 14
-2.9483197 1.3980736 0.62624466 14
-2.9437373 1.3965299 0.50941437 13
-2.95772 1.403796 0.39729404 14
-2.9637201 1.4072775 0.28369194 13
-2.9661231 1.4090528 0.17009185 15
-2.9378459 1.3962485 0.056109484 13
-1.748107 0.83268076 -0.50857961 2
-2.0356159 0.97006673 -0.51176393 3
-2.4447353 1.165555 -0.51853484 3
-2.9585552 1.4111581 -0.51310545 9
-2.9592524 1.4121248 -0.39790383 9
-2.9382913 1.4027519 -0.28151348 15
-2.9496751 1.4088187 -0.16874342 12
-2.921392 1.3959365 -0.055289723 12
-2.9322734 1.4017648 0.86001271 14
-2.9353645 1.4038718 0.74177724 13
-2.9168563 1.3956456 0.6205256 14
-2.9165719 1.3961353 0.50550777 13
-2.9259465 1.4012505 0.39363798 14
-2.9318378 1.4047009 0.28107727 13
-2.9341707 1.4064486 0.16852178 14
-2.9014003 1.3913633 0.055498648 13
-1.7406906 0.8369894 -0.50728554 3
-2.0276568 0.97540933 -0.51063919 2
-2.4492924 1.1787646 -0.52044117 3
-2.935565 1.4134228 -0.5099768 16
-2.9272306 1.4100393 -0.39424777 9
-2.9062073 1.4005375 -0.27889881 14
-2.917505 1.4066095 -0.16717857 13
-2.8937416 1.395775 -0.054857776 11
-2.896667 1.3978093 0.85095996 14
-2.9038742 1.401912 0.73503381 13
-2.8852024 1.3935188 0.61480647 14
-2.8847554 1.3939239 0.50081992 12
-2.8939824 1.3990055 0.38998187 13
-2.899765 1.4024253 0.27846259 13
-2.9020278 1.4041448 0.16695169 14
-2.8692827 1.388919 0.054975078 13
-1.716032 0.83252007 -0.50081509 3
-2.0242398 0.98248118 -0.51063919 2
-2.4451628 1.187307 -0.52044117 3
-2.899519 1.4085559 -0.50450158 14
-2.8955097 1.407233 -0.39059168 10
-2.8699441 1.3954271 -0.27584836 12
-2.8856368 1.40368 -0.16561371 12
-2.8663759 1.3949296 -0.054425824 10
-2.865715 1.3952266 0.84320045 12
-2.8726823 1.3992391 0.72829044 12
-2.853847 1.3906809 0.60908735 11
-2.8576763 1.3931643 0.49691334 7
-2.8667791 1.3982214 0.38693514 13
-2.8679931 1.3994331 0.27584794 9
-2.8656995 1.3989333 0.16511993 13
-2.832969 1.3835751 0.054364245 6
-1.7304672 0.84699804 -0.50599146 2
-2.0207977 0.98954111 -0.51063919 2
-2.4410033 1.195835 -0.52044117 3
-2.8679776 1.4056282 -0.49980852 14
-2.8683002 1.4064072 -0.38754493 7
-2.8382242 1.3922746 -0.27323368 8
-2.8493419 1.3983454 -0.16378805 8
-2.843539 1.3961135 -0.054080263 6
-2.8348167 1.392445 0.83544099 6
-2.8459175 1.3985143 0.72267085 6
-2.8225465 1.3876411 0.60336822 6
-2.8306382 1.3922328 0.49300683 5
-2.8351641 1.3950734 0.38327909 6
-2.8362777 1.3962363 0.27323326 7
-2.8339231 1.3956916 0.16354986 8
-2.7967341 1.3779829 0.05375341 6
-1.7318304 0.85517168 -0.50728554 2
-2.0129633 0.99443108 -0.50951445 2
-2.4368143 1.2043484 -0.52044117 3
-2.8364925 1.4024978 -0.49511549 13
-2.8455806 1.4076093 -0.38510755 8
-2.7976332 1.3844993 -0.26974744 6
-2.8175948 1.3949901 -0.1622232 6
-2.8162494 1.3949361 -0.053648315 12
-2.812628 1.3937539 0.83026797 5
-2.8191929 1.3976198 0.71705133 5
-2.7781107 1.3778574 0.59478951 5
-2.8036413 1.3911295 0.48910025 16
-2.8080509 1.3939283 0.38023233 14
-2.7867754 1.3839734 0.26887548 5
-2.7932606 1.3878019 0.16145642 5
-2.7695231 1.3766109 0.053317096 8
-1.7331576 0.86336511 -0.50857961 2
-2.0051196 0.9992786 -0.50838971 2
-2.4282026 1.210657 -0.51948798 3
-2.8094838 1.401369 -0.49120462 9
-2.8273284 1.410886 -0.38327953 11
-2.7794139 1.3875819 -0.2684401 10
-2.7948399 1.3958925 -0.16117996 15
-2.7934749 1.3958199 -0.053302754 19
-2.7904651 1.3949249 0.82509488 17
-2.8012247 1.4009145 0.71367961 17
-2.7820635 1.3919389 0.59669584 16
-2.7855196 1.394276 0.48675635 9
-2.7854183 1.3948332 0.37779495 18
-2.7908342 1.3981546 0.26974702 17
-2.7883992 1.3975437 0.16145642 18
-2.7557633 1.3817884 0.053142574 8
-1.7344489 0.87157828 -0.50987375 2
-2.0016193 1.0062717 -0.50838971 2
-2.4195771 1.2169203 -0.51853484 3
-2.7825174 1.4000688 -0.48729378 7
-2.8090875 1.4140524 -0.38145146 13
-2.7701049 1.3950351 -0.26800433 9
-2.7765729 1.3989 -0.16039754 16
-2.7662642 1.3943117 -0.052870803 11
-2.7683287 1.3959582 0.81992191 11
-2.778918 1.4019064 0.70918405 11
-2.7771876 1.4016416 0.59669584 11
-2.7630019 1.3950872 0.4836311 6
-2.762814 1.3955975 0.37535757 11
-2.7681544 1.3989016 0.26800391 11
-2.7612236 1.3960041 0.16014802 11
-2.7420008 1.3868866 0.052968048 6
-1.7313958 0.87762731 -0.50987375 2
-1.9980946 1.0132525 -0.50838971 2
-2.4065599 1.2209173 -0.51662844 3
-2.7511911 1.3963625 -0.48260072 7
-2.7908597 1.4171088 -0.37962344 11
-2.7607775 1.4024401 -0.26756853 5
-2.7583187 1.4017968 -0.15961511 10
-2.7435551 1.3948964 -0.052525241 8
-2.7419143 1.3946645 0.81345564 7
-2.756639 1.4027598 0.70468843 8
-2.7722781 1.4113272 0.59669584 3
-2.7405126 1.3957582 0.48050588 3
-2.7490819 1.4007269 0.37413886 6
-2.754379 1.4040315 0.26713234 8
-2.7429895 1.398829 0.15936297 8
-2.7282369 1.3919057 0.052793525 5
-1.7240217 0.88146698 -0.50857961 2
-1.9945455 1.0202211 -0.50838971 2
-2.3979142 1.2270744 -0.51567525 3
-2.7243209 1.3947052 -0.47868985 6
-2.7638104 1.4155306 -0.37657669 7
-2.7647309 1.4166112 -0.2684401 11
-2.7400784 1.4045835 -0.15883268 5
-2.7208755 1.3953395 -0.052179679 6
-2.71984 1.3954083 0.80828267 6
-2.7343879 1.4034748 0.70019281 7
-2.7847998 1.4299638 0.60050863 3
-2.7180521 1.3962892 0.4773806 5
-2.7309337 1.403509 0.37231082 3
-2.7317421 1.4045272 0.26538923 6
-2.715889 1.3969756 0.15805459 7
-2.710026 1.3945581 0.052531742 60
-1.7209343 0.88747966 -0.50857961 2
-1.9953015 1.0294107 -0.50951445 2
-2.3848932 1.2309349 -0.51376885 4
-2.6974959 1.3928775 -0.47477898 6
-2.7368066 1.413781 -0.37352994 6
-2.7332196 1.4125323 -0.26582542 10
-2.717417 1.4049666 -0.15778944 11
-2.702667 1.3979384 -0.051920507 5
-2.6935048 1.3937951 0.8018164 6
-2.7035124 1.399572 0.69344938 6
-2.7405655 1.4193605 0.59192997 7
-2.6956217 1.3966805 0.47425535 15
-2.7304242 1.4153172 0.37292019 8
-2.7047138 1.4025892 0.26321036 6
-2.6888351 1.3949505 0.15674618 6
-2.6918299 1.3971004 0.052269954 57
-1.7178259 0.89348143 -0.50857961 2
-1.991696 1.0363693 -0.50951445 2
-2.3805819 1.2392522 -0.51376885 4
-2.6707172 1.3908795 -0.47086814 7
-2.7054479 1.4095672 -0.36987385 5
-2.7061872 1.4105531 -0.26364651 10
-2.6992142 1.4075177 -0.15700702 10
-2.6844738 1.4004271 -0.051661339 12
-2.6629324 1.3897808 0.79405689 6
-2.6770163 1.3977257 0.68782979 6
-2.709491 1.4152833 0.58621085 12
-2.6732223 1.3969326 0.47113013 8
-2.707875 1.4156426 0.3704828 15
-2.6777327 1.4004797 0.26103145 6
-2.6662529 1.3950684 0.15569946 6
-2.6647882 1.394902 0.051833645 56
-1.7145396 0.89977157 -0.50857961 2
-1.9878842 1.0436623 -0.50951445 2
-2.3760235 1.2479692 -0.51376885 3
-2.643743 1.3891733 -0.46695724 7
-2.6782994 1.4079279 -0.36682713 5
-2.6833651 1.4111885 -0.26190341 9
-2.6763616 1.4081017 -0.15596379 11
-2.6748989 1.4079282 -0.051574945 12
-2.6364527 1.3882798 0.78759056 6
-2.6460123 1.3939036 0.68108642 6
-2.6782322 1.4114741 0.58049166 12
-2.65061 1.3975078 0.46800488 8
-2.6675522 1.4070355 0.36560804 12
-2.6505554 1.3986617 0.25885257 6
-2.639044 1.3931762 0.15439107 5
-2.6375575 1.3929802 0.051397335 56
-1.715657 0.90801013 -0.50987375 2
-1.984229 1.0505949 -0.50951445 2
-2.3803277 1.2608504 -0.51567525 3
-2.625787 1.3914561 -0.46461076 6
-2.6514454 1.4056457 -0.36378038 6
-2.6608212 1.4112113 -0.2601603 9
-2.6493762 1.4057337 -0.15465973 11
-2.6434736 1.4031932 -0.051056605 13
-2.6187937 1.3906786 0.78371084 6
-2.6239204 1.3939884 0.6765908 7
-2.647284 1.406993 0.57477254 15
-2.6282737 1.3974776 0.46487963 12
-2.6363358 1.4023547 0.36195195 12
-2.6236715 1.3962055 0.25667366 7
-2.6165347 1.3929938 0.15334433 6
-2.6106138 1.390434 0.050961021 66
-1.7124771 0.9139933 -0.50987375 2
-1.9762523 1.0552202 -0.50838971 2
-2.3802414 1.2714643 -0.51662844 3
-2.5947804 1.3866477 -0.45991769 7
-2.62464 1.4031935 -0.36073366 6
-2.633918 1.4087449 -0.25798139 9
-2.6180377 1.4008391 -0.15309489 14
-2.6253371 1.4053342 -0.050797433 18
-2.5968924 1.390691 0.77853787 10
-2.5975657 1.3916349 0.67097121 10
-2.6164 1.4023131 0.56905341 15
-2.6103222 1.3996422 0.46253574 11
-2.605185 1.3974731 0.35829583 12
-2.6012263 1.3959343 0.25493056 6
-2.5940595 1.3926715 0.15229762 10
-2.5837269 1.3877051 0.050524715 46
-1.7092761 0.91996545 -0.50987375 2
-1.968267 1.0598024 -0.50726491 2
-2.3801098 1.2820927 -0.51758158 3
-2.572535 1.3863257 -0.45678899 5
-2.6022525 1.4029263 -0.35829625 6
-2.6114483 1.4084724 -0.25623828 10
-2.586766 1.3957429 -0.15153003 15
-2.5808225 1.3931177 -0.050019924 9
-2.5750229 1.3905674 0.77336484 8
-2.575546 1.3914306 0.66647559 7
-2.5812633 1.3951014 0.56238109 7
-2.5880439 1.3993498 0.45941046 10
-2.5784659 1.3947526 0.35524914 12
-2.5788147 1.3955233 0.25318745 6
-2.5716186 1.3922092 0.1512509 7
-2.5568874 1.3848114 0.050088402 35
-1.7102993 0.92823011 -0.51116782 3
-1.9602743 1.0643419 -0.50614017 3
-2.3713071 1.2880503 -0.51662844 3
-2.5850368 1.4047288 -0.45991769 5
-2.5798991 1.4025202 -0.35585886 6
-2.5846376 1.4056808 -0.25405937 10
-2.5555623 1.3904457 -0.14996518 7
-2.5452073 1.3853875 -0.049415193 9
-2.5489445 1.3879985 0.76689857 6
-2.5535595 1.3910896 0.66198003 7
-2.5505185 1.3900101 0.55666196 6
-2.5657995 1.398919 0.45628521 9
-2.5561545 1.3942392 0.35281172 12
-2.5564382 1.394973 0.25144431 6
-2.5448298 1.389215 0.14994252 7
-2.5344877 1.3841435 0.049739353 32
-1.7070487 0.93419451 -0.51116782 2
-1.9608202 1.0735176 -0.50726491 3
-2.3667965 1.29632 -0.51662844 3
-2.5844486 1.4161168 -0.46069989 6
-2.5575805 1.4019752 -0.35342148 6
-2.5578783 1.402719 -0.25188047 10
-2.5244269 1.3849478 -0.14840032 7
-2.5052953 1.3750209 -0.04872407 8
-2.5271494 1.3875892 0.76172554 6
-2.5273373 1.3882666 0.65636045 6
-2.5241432 1.3870854 0.55189604 6
-2.5435898 1.3983501 0.45315999 8
-2.5338783 1.3935871 0.35037434 13
-2.5340974 1.3942837 0.2497012 6
-2.5224679 1.3884586 0.1488958 6
-2.507745 1.3809248 0.049303047 31
-1.7037773 0.94014752 -0.51116782 2
-1.9741216 1.0897734 -0.51176393 3
-2.3579605 1.3022008 -0.51567525 3
-2.5708447 1.4203534 -0.45913553 8
-2.5352972 1.4012915 -0.3509841 6
-2.5355303 1.4019982 -0.25013736 11
-2.497731 1.3816664 -0.14709628 6
-2.4917321 1.3789163 -0.048551291 7
-2.5011628 1.3847054 0.75525928 6
-2.5054278 1.3876381 0.65186483 6
-2.4978192 1.3839937 0.54713005 7
-2.5214155 1.3976432 0.45003474 9
-2.5116379 1.3927965 0.34793696 13
-2.5117924 1.3934554 0.24795809 6
-2.4957769 1.3851402 0.14758739 6
-2.4854259 1.379963 0.048953995 32
-1.6962649 0.94374102 -0.50987375 2
-1.9873331 1.1061351 -0.51626295 2
-2.3534005 1.3104237 -0.51567525 3
-2.5572424 1.424512 -0.45757118 11
-2.5130503 1.4004695 -0.34854671 7
-2.5132189 1.4011384 -0.24839425 11
-2.4754496 1.380648 -0.14605305 6
-2.4694407 1.377862 -0.04820573 8
-2.4752276 1.3816572 0.74879307 6
-2.4835536 1.3868735 0.64736921 7
-2.4758332 1.3831291 0.54331732 6
-2.494967 1.3943896 0.44612822 9
-2.4894342 1.3918678 0.34549958 12
-2.4895246 1.3924887 0.24621499 6
-2.4691396 1.3816525 0.14627899 7
-2.463145 1.3788625 0.048604947 34
-1.6929603 0.94965625 -0.50987375 2
-1.9919572 1.1178341 -0.51851249 2
-2.3488119 1.3186307 -0.51567525 3
-2.5307252 1.4213383 -0.45366031 12
-2.4908402 1.3995094 -0.34610933 6
-2.4909444 1.40014 -0.24665113 11
-2.4575582 1.3819385 -0.14527062 6
-2.4515448 1.3791202 -0.047946557 8
-2.4535532 1.380814 0.74362004 6
-2.4617159 1.3859735 0.64287359 7
-2.4538836 1.3821279 0.53950459 8
-2.4728742 1.3933927 0.44300297 7
-2.4629447 1.3883641 0.34245285 13
-2.467294 1.3913833 0.24447185 6
-2.4512556 1.3829026 0.14549395 7
-2.4409022 1.3776234 0.048255898 44
-1.689635 0.95556003 -0.50987375 2
-1.9965236 1.1295785 -0.52076203 2
-2.3441947 1.3268214 -0.51567525 3
-2.5042617 1.4179971 -0.44974947 12
-2.4686675 1.3984115 -0.34367192 6
-2.4730411 1.4014592 -0.24534379 11
-2.4353445 1.3806583 -0.14422737 7
-2.4336703 1.3802705 -0.047687389 12
-2.4319153 1.3798362 0.73844707 10
-2.4399149 1.3849379 0.63837802 9
-2.4319715 1.3809905 0.5356918 9
-2.4465249 1.3898191 0.43909642 7
-2.4408247 1.3871447 0.34001544 13
-2.4451017 1.3901401 0.24272874 6
-2.4333925 1.3840448 0.14470892 9
-2.4230433 1.3787183 0.047994114 43
-1.6862892 0.96145219 -0.50987375 2
-1.9841048 1.1317132 -0.51851249 2
-2.3395491 1.3349962 -0.51567525 3
-2.4778526 1.4144884 -0.44583857 12
-2.4465334 1.397176 -0.34123453 6
-2.4508348 1.4001998 -0.24360067 12
-2.4131699 1.37924 -0.14318414 9
-2.4114778 1.3788314 -0.047341831 11
-2.4145064 1.3811222 0.73456728 10
-2.4181509 1.3837671 0.6338824 9
-2.4100974 1.379717 0.53187907 10
-2.4245164 1.3885335 0.43597117 8
-2.4187436 1.3857878 0.33757806 13
-2.4229486 1.3887588 0.24098562 7
-2.4155517 1.3850794 0.14392388 10
-2.4008701 1.3772178 0.04764507 38
-1.6829228 0.96733254 -0.50987375 2
-1.9716953 1.1337749 -0.51626295 2
-2.3306203 1.3407071 -0.51472205 3
-2.4557791 1.4132762 -0.44270989 12
-2.4244378 1.395803 -0.33879715 6
-2.4286671 1.3988023 -0.24185754 11
-2.3910351 1.3776838 -0.14214091 10
-2.3893251 1.3772541 -0.046996269 9
-2.3887506 1.3774784 0.72810096 7
-2.3964252 1.3824614 0.62938678 7
-2.388262 1.3783077 0.52806634 8
-2.3982701 1.3846416 0.43206459 8
-2.3967021 1.3842942 0.33514068 13
-2.3965223 1.3847482 0.23880674 7
-2.3890877 1.3810085 0.14261547 8
-2.3744094 1.3730767 0.047208756 35
-1.6837147 0.97562248 -0.51116782 3
-1.963511 1.1382073 -0.51513821 3
-2.3259261 1.3488343 -0.51472205 3
-2.4337442 1.4119271 -0.43958122 12
-2.4023819 1.394293 -0.33635977 6
-2.4065392 1.3972673 -0.24011444 11
-2.3689408 1.37599 -0.14109766 7
-2.3672132 1.3755392 -0.046650708 8
-2.3672254 1.376099 0.72292799 7
-2.3747387 1.381021 0.62489116 7
-2.366466 1.376763 0.52425355 7
-2.376349 1.3830678 0.42893937 8
-2.3747005 1.3826634 0.33270329 13
-2.3744578 1.383077 0.23706363 7
-2.366996 1.379284 0.14156875 7
-2.3523262 1.3712857 0.046859708 34
-1.6844692 0.98392975 -0.5124619 3
-1.9553194 1.1425962 -0.51401347 3
-2.3169663 1.354468 -0.51376885 3
-2.4117491 1.4104416 -0.43645251 13
-2.3803663 1.392646 -0.33392239 7
-2.3844521 1.395595 -0.23837131 10
-2.3425786 1.3716359 -0.13979362 6
-2.3451421 1.3736867 -0.046305142 8
-2.3457391 1.3745862 0.71775496 7
-2.353091 1.3794461 0.62039554 7
-2.3447101 1.3750831 0.52044082 7
-2.3544683 1.3813581 0.42581412 9
-2.3570194 1.383408 0.33087525 13
-2.3524344 1.3812689 0.23532051 6
-2.3406403 1.3748932 0.14026035 7
-2.3302846 1.3693575 0.046510659 33
-1.6851863 0.99225426 -0.51375604 3
-1.9471215 1.1469421 -0.51288873 3
-2.3122241 1.3625474 -0.51376885 3
-2.3940482 1.4113278 -0.43410599 12
-2.3583918 1.3908625 -0.331485 7
-2.3666964 1.3963168 -0.23706399 11
-2.3205762 1.3696527 -0.13875039 6
-2.3231137 1.3716972 -0.045959584 8
-2.3201339 1.3704839 0.71128875 7
-2.3314838 1.3777372 0.61589992 7
-2.3229952 1.3732681 0.51662809 7
-2.3326287 1.3795125 0.4226889 9
-2.3350914 1.3815191 0.32843786 13
-2.3304527 1.3793238 0.23357739 7
-2.3186409 1.3728794 0.13921364 7
-2.3082855 1.367292 0.046161614 33
-1.6817125 0.99813068 -0.51375604 3
-1.9431062 1.1537318 -0.51288873 3
-2.3074539 1.3706102 -0.51376885 4
-2.3721254 1.409585 -0.43097728 12
-2.3407247 1.3914785 -0.32965693 6
-2.3446834 1.3943857 -0.23532088 11
-2.2986166 1.3675328 -0.13770714 6
-2.3011274 1.3695706 -0.045614023 8
-2.302886 1.3711616 0.70740896 7
-2.3099174 1.3758943 0.6114043 7
-2.3013215 1.3713183 0.5128153 7
-2.3108311 1.3775316 0.41956365 9
-2.3132052 1.3794942 0.32600048 14
-2.3127911 1.3797944 0.23227006 7
-2.3009717 1.3732877 0.1384286 7
-2.2906215 1.3676525 0.045899823 44
-1.6699288 0.99903584 -0.51116782 3
-1.939067 1.1605074 -0.51288873 3
-2.2984443 1.3761351 -0.51281571 5
-2.3544807 1.4102439 -0.4286308 12
-2.3188252 1.3894376 -0.32721955 6
-2.3269849 1.3948787 -0.23401353 14
-2.2852645 1.3704123 -0.13718553 7
-2.2834721 1.3698794 -0.045354854 11
-2.2856619 1.3717357 0.70352924 10
-2.2925694 1.3764254 0.60803258 9
-2.27969 1.3692342 0.50900251 10
-2.293309 1.3779588 0.4172197 9
-2.2913623 1.3773335 0.3235631 13
-2.2951548 1.3801584 0.23096271 9
-2.2876067 1.3761632 0.13790524 9
-2.2729836 1.3679066 0.04563804 54
-1.6664313 1.0048589 -0.51116782 3
-1.9350044 1.167269 -0.51288873 3
-2.2978289 1.3866858 -0.51376885 7
-2.3368607 1.4107969 -0.42628425 13
-2.3012166 1.3898263 -0.3253915 7
-2.3135753 1.3978415 -0.23314197 14
-2.2676473 1.3706324 -0.13640311 10
-2.2658422 1.3700814 -0.045095682 14
-2.2684619 1.3722063 0.69964945 10
-2.2710779 1.3743302 0.60353696 10
-2.2623 1.3695577 0.50614297 9
-2.2715878 1.3757222 0.41409445 9
-2.2695625 1.3750371 0.32112572 14
-2.2775443 1.3804164 0.22965539 10
-2.2699804 1.3763739 0.1371202 11
-2.2510972 1.3654615 0.045288995 38
-1.6587864 1.0081613 -0.50987375 3
-1.9350805 1.1765472 -0.51401347 3
-2.2845876 1.3895969 -0.51186246 11
-2.3150465 1.4086772 -0.42315558 13
-2.2836339 1.3901093 -0.32356349 7
-2.2959189 1.3981366 -0.23183462 13
-2.2543204 1.3733441 -0.1358815 9
-2.2439704 1.3675756 -0.04475012 9
-2.2471628 1.3700593 0.69447643 7
-2.2537882 1.3746384 0.60016519 8
-2.240746 1.36722 0.50233024 8
-2.2541258 1.3759241 0.41175056 9
-2.2520423 1.3751918 0.31929767 14
-2.2599599 1.3805681 0.22834805 8
-2.2481201 1.3738743 0.13607349 8
-2.2292562 1.3628806 0.044939946 36
-1.6511388 1.0114225 -0.50857961 3
-1.9309618 1.1832947 -0.51401347 3
-2.2755384 1.3949978 -0.51090926 14
-2.2974858 1.4090042 -0.42080906 12
-2.2660775 1.3902864 -0.32173541 7
-2.2782893 1.398326 -0.2305273 11
-2.2324927 1.3707542 -0.13483825 8
-2.2264035 1.3675506 -0.044490952 9
-2.2259066 1.3677804 0.68930346 7
-2.232374 1.3722914 0.59566957 7
-2.2234168 1.3673199 0.49947065 7
-2.2324839 1.3734331 0.4086253 9
-2.2303226 1.3726399 0.31686029 14
-2.2381611 1.3780028 0.22660492 7
-2.226305 1.3712391 0.13502677 7
-2.2074604 1.3601637 0.044590894 35
-1.6517078 1.0197171 -0.50987375 3
-1.9268196 1.1900278 -0.51401347 3
-2.2456014 1.3874528 -0.50519013 11
-2.2799511 1.4092259 -0.41846254 13
-2.2443268 1.3877481 -0.31929803 7
-2.2564502 1.3957888 -0.22878417 11
-2.2064641 1.365401 -0.13353421 7
-2.2046137 1.3647882 -0.04414539 8
-2.2046938 1.3653702 0.68413043 7
-2.2110038 1.3698119 0.59117401 7
-2.2019424 1.3647299 0.49565789 6
-2.2150843 1.3734102 0.40628135 9
-2.2128656 1.3725694 0.31503224 13
-2.2164078 1.3753022 0.22486182 6
-2.2002933 1.365835 0.13371836 7
-2.1857111 1.3573115 0.044241846 33
-1.6481382 1.0254765 -0.50987375 3
-1.9226539 1.1967465 -0.51401347 3
-2.2199121 1.3823109 -0.50042421 10
-2.2624431 1.4093423 -0.416116 12
-2.2268336 1.3876998 -0.31747001 7
-2.2388833 1.3957516 -0.22747684 10
-2.1805005 1.3598833 -0.13223016 7
-2.1828701 1.3618904 -0.043799829 8
-2.1835253 1.3628286 0.67895746 7
-2.1896782 1.3672001 0.58667839 7
-2.1846764 1.364607 0.49279836 7
-2.1935241 1.3706658 0.40315613 9
-2.1912284 1.369763 0.31259486 14
-2.194701 1.3724666 0.22311871 6
-2.17858 1.3629143 0.13267164 8
-2.1640091 1.3543243 0.043892797 37
-1.6443685 1.0315104 -0.50987375 3
-1.9182547 1.2037853 -0.51401347 3
-2.1940453 1.3773893 -0.49565825 10
-2.2405338 1.4071194 -0.41298732 13
-2.2049236 1.3852916 -0.3150326 7
-2.2168841 1.393346 -0.22573371 11
-2.1585934 1.357235 -0.13118692 7
-2.1609371 1.3592349 -0.043454267 8
-2.1662517 1.3631055 0.67507768 7
-2.1681597 1.3648344 0.58218277 7
-2.1630468 1.362143 0.48898563 7
-2.1759503 1.3707992 0.40081221 10
-2.1735976 1.3698469 0.31076682 14
-2.1728017 1.3698753 0.22137558 7
-2.1566768 1.3602353 0.13162492 7
-2.1463468 1.3542438 0.043631013 35
-1.6407579 1.037244 -0.50987375 3
-1.914041 1.210474 -0.51401347 3
-2.1684849 1.3719186 -0.49089235 9
-2.2230899 1.4070088 -0.41064081 13
-2.1833026 1.3823608 -0.31259522 7
-2.1993833 1.39308 -0.22442639 11
-2.1411896 1.3567441 -0.1304045 7
-2.1435122 1.35874 -0.043195099 9
-2.145165 1.3603126 0.66990465 7
-2.1469264 1.361955 0.57768714 7
-2.1458461 1.3617952 0.48612604 7
-2.1586442 1.3704455 0.39846826 10
-2.1520457 1.3667836 0.30832943 14
-2.1511903 1.366767 0.21963248 7
-2.1434877 1.3623985 0.13110156 8
-2.1331692 1.3563628 0.043456491 37
-1.6371273 1.0429648 -0.50987375 3
-1.9180208 1.2223845 -0.51626295 3
-2.1471279 1.368925 -0.48707953 8
-2.2056739 1.4067931 -0.40829429 13
-2.1659131 1.3819653 -0.31076717 7
-2.1777124 1.3900288 -0.22268325 11
-2.1280239 1.3588355 -0.12988289 7
-2.1303301 1.3608316 -0.04302232 9
-2.1281941 1.3599901 0.66602492 8
-2.1339493 1.3641926 0.57543933 8
-2.1286745 1.3613439 0.48326644 9
-2.1413667 1.3699875 0.39612433 9
-2.1347218 1.3662615 0.30650139 14
-2.1338217 1.3662103 0.21832512 8
-2.1261053 1.3617932 0.13031653 8
-2.120003 1.3584064 0.043281965 49
-1.6334766 1.0486732 -0.50987375 3
-1.9178417 1.231705 -0.51738775 3
-2.1299481 1.3684523 -0.48422 8
-2.188287 1.4064735 -0.40594777 13
-2.1443787 1.3787816 -0.30832979 7
-2.16028 1.3895384 -0.22137593 11
-2.1148696 1.3608515 -0.12936127 9
-2.1171598 1.3628477 -0.042849541 15
-2.1112516 1.3595657 0.66214514 10
-2.1209829 1.3663561 0.57319152 10
-2.1115324 1.3607894 0.48040691 9
-2.1199687 1.3667501 0.39299908 9
-2.1132574 1.3629456 0.30406398 13
-2.1206689 1.3682497 0.21745357 9
-2.1129484 1.3637909 0.12979317 10
-2.1068487 1.3603748 0.043107443 50
-1.6298062 1.0543687 -0.50987375 4
-1.9339807 1.2516268 -0.52301151 3
-2.1086776 1.3652087 -0.48040724 8
-2.1667843 1.4033651 -0.4028191 13
-2.127058 1.3781626 -0.30650172 7
-2.1428769 1.3889431 -0.22006857 11
-2.0975378 1.3600757 -0.12857884 9
-2.1040013 1.3647885 -0.042676758 13
-2.0943382 1.3590397 0.65826535 11
-2.103941 1.365793 0.56981981 10
-2.0903037 1.3574588 0.47659415 11
-2.102761 1.3660705 0.39065516 10
-2.0960038 1.362201 0.30223596 14
-2.1033521 1.3674989 0.21614625 12
-2.0956178 1.3629909 0.12900813 12
-2.0895164 1.3595414 0.042845655 48
-1.62207 1.0574138 -0.50857961 4
-1.9214383 1.2530476 -0.52076203 3
-2.0915668 1.3645155 -0.47754765 8
-2.1453295 1.4001237 -0.39969036 13
-2.1097679 1.37744 -0.3046737 8
-2.1213343 1.3855196 -0.21832547 11
-2.0844173 1.3619268 -0.12805721 11
-2.0866706 1.3639187 -0.042417586 11
-2.0774543 1.3584124 0.65438563 8
-2.0910063 1.3677946 0.567572 8
-2.073231 1.3566841 0.47373459 8
-2.0855837 1.3652874 0.38831124 10
-2.0746291 1.3586335 0.29979858 14
-2.0902328 1.3693734 0.21527469 8
-2.082495 1.3648237 0.12848477 9
-2.0722156 1.3586038 0.042583872 40
-1.6183689 1.0630695 -0.50857961 4
-1.9089099 1.2543961 -0.51851249 3
-2.0744865 1.3637195 -0.47468811 8
-2.1239245 1.3967499 -0.39656168 13
-2.0925088 1.3766134 -0.30284566 8
-2.104003 1.3847014 -0.21701814 12
-2.0629687 1.3582116 -0.12701398 8
-2.0651965 1.3601952 -0.042072024 10
-2.0565677 1.3550265 0.64921266 8
-2.0699475 1.3643602 0.56307638 8
-2.05619 1.3558072 0.47087502 8
-2.0684378 1.3644012 0.38596731 9
-2.0574474 1.3576671 0.29797053 14
-2.0729692 1.3684289 0.21396735 8
-2.0652184 1.36383 0.12769973 8
-2.0507755 1.3548063 0.042234819 37
-1.6146482 1.0687122 -0.50857961 5
-1.9004575 1.2583622 -0.51738775 3
-2.0574377 1.3628211 -0.47182852 8
-2.0984528 1.390516 -0.39265084 14
-2.0752816 1.3756833 -0.30101761 8
-2.082552 1.3810259 -0.21527502 12
-2.0457325 1.3571235 -0.12623155 7
-2.0437744 1.3563381 -0.041726466 9
-2.0397537 1.3541828 0.64533287 8
-2.0529969 1.3634912 0.55970466 7
-2.0391798 1.3548276 0.46801546 7
-2.0513237 1.3634119 0.38362336 10
-2.0402977 1.3565972 0.29614249 11
-2.055738 1.3673809 0.21266001 7
-2.0479741 1.3627324 0.12691469 7
-2.0293877 1.350876 0.041885771 38
-1.610908 1.0743419 -0.50857961 5
-1.8960534 1.2649884 -0.51738775 3
-2.044503 1.364545 -0.46992216 9
-2.0771577 1.3868637 -0.38952214 11
-2.0580864 1.3746495 -0.29918957 7
-2.0652938 1.3799851 -0.21396768 12
-2.0243781 1.3531569 -0.12518832 7
-2.0265601 1.3551273 -0.041467294 9
-2.0189564 1.3505528 0.64015985 8
-2.0360775 1.3625203 0.55633295 8
-2.0222023 1.3537463 0.4651559 8
-2.0383453 1.3650682 0.38206074 10
-2.0231812 1.3554245 0.29431444 11
-2.0385394 1.3662292 0.21135268 7
-2.0266159 1.3587506 0.12586798 7
-2.0122046 1.3495976 0.041623987 37
-1.6071479 1.0799584 -0.50857961 5
-1.8875828 1.268881 -0.51626295 3
-2.0275085 1.3634564 -0.46706262 9
-2.0518165 1.3803232 -0.38561127 11
-2.0409238 1.3735127 -0.29736155 8
-2.043937 1.3760592 -0.21222456 12
-2.0030761 1.349058 -0.12414508 7
-2.0052333 1.3510196 -0.041121732 9
-2.0022144 1.3494939 0.63628012 8
-2.0151508 1.3587245 0.55183733 8
-2.0052567 1.3525625 0.46229634 8
-2.0212862 1.3638878 0.37971681 11
-2.0060976 1.3541487 0.2924864 11
-2.017246 1.3621867 0.20960957 8
-2.0094478 1.3574315 0.12508292 8
-1.9950547 1.3482157 0.0413622 38
-1.6033684 1.0855618 -0.50857961 5
-1.8791085 1.2727302 -0.51513821 3
-2.0105464 1.3622657 -0.46420303 9
-2.0306342 1.3763936 -0.38248259 10
-2.0237944 1.3722731 -0.29553348 8
-2.0267549 1.3747969 -0.2109172 12
-1.9900914 1.3504344 -0.12362346 7
-1.9880966 1.3495876 -0.040862564 9
-1.9815093 1.3456212 0.63110709 8
-1.9983058 1.3575372 0.54846561 7
-1.9883444 1.3512772 0.45943674 8
-2.0042608 1.3626055 0.37737289 10
-1.9890476 1.3527703 0.29065838 11
-2.0001242 1.3608141 0.20830221 8
-1.992314 1.3560092 0.12429789 8
-1.9779397 1.3467309 0.041100416 38
-1.5995693 1.0911521 -0.50857961 5
-1.8706301 1.2765356 -0.51401347 3
-1.9976714 1.3637408 -0.46229663 9
-2.0176609 1.3779033 -0.38091823 11
-2.0026011 1.3681313 -0.2930961 8
-2.0096066 1.3734317 -0.20960988 12
-1.9729999 1.3489188 -0.12284105 7
-1.970994 1.3480523 -0.040603392 9
-1.9648417 1.3443478 0.62722731 8
-1.9774727 1.3534967 0.54396999 8
-1.9714659 1.3498906 0.45657721 8
-1.987269 1.3612207 0.37502894 10
-1.972032 1.3512895 0.28883031 11
-1.9871451 1.3621552 0.20743066 8
-1.9752147 1.3544838 0.12351285 8
-1.9649816 1.347971 0.04092589 38
-1.5955594 1.0970075 -0.50857961 5
-1.861925 1.2806225 -0.51288873 3
-1.9805287 1.3627069 -0.45943707 9
-2.0003932 1.3768891 -0.37857169 11
-1.9853107 1.3670185 -0.29126805 8
-1.9922532 1.3723115 -0.20830254 12
-1.9598194 1.3504747 -0.12231942 7
-1.9536918 1.3467553 -0.040344223 9
-1.9479729 1.3433145 0.62334752 8
-1.9604676 1.3524357 0.54059827 8
-1.9543859 1.3487438 0.45371762 8
-1.9700742 1.3600781 0.37268505 11
-1.9548154 1.3500478 0.2870023 11
-1.9698451 1.3609356 0.20612334 8
-1.9579142 1.3531976 0.12272782 8
-1.9476916 1.3466347 0.040664103 38
-1.5956906 1.1053205 -0.50987375 6
-1.8494346 1.2815644 -0.51063919 3
-1.9676921 1.3640192 -0.45753068 11
-1.9834003 1.3754209 -0.3762252 11
-1.9682941 1.3654541 -0.28944001 7
-1.9669905 1.3650581 -0.20612365 15
-1.9468901 1.3516124 -0.12179781 7
-1.9366605 1.3450116 -0.040085051 9
-1.9313723 1.3418386 0.61946785 8
-1.9397321 1.3481487 0.53610265 8
-1.9335461 1.3443499 0.44990486 8
-1.9490974 1.355667 0.36955979 10
-1.9378699 1.3483598 0.28517425 11
-1.952818 1.3592665 0.20481598 8
-1.9408859 1.351464 0.12194277 8
-1.930669 1.3448583 0.040402319 38
-1.5918225 1.1108836 -0.50987375 7
-1.8409549 1.2852232 -0.50951445 3
-1.9548707 1.3652587 -0.45562431 13
-1.962394 1.3710226 -0.3730965 11
-1.9513125 1.3637874 -0.28761196 14
-1.9418025 1.3576453 -0.20394474 15
-1.9298851 1.3498145 -0.12101538 7
-1.9196653 1.3431655 -0.039825883 9
-1.914806 1.3402634 0.61558807 8
-1.9230415 1.3465279 0.53273094 8
-1.9167813 1.3426431 0.44704533 7
-1.9322199 1.3539599 0.36721584 11
-1.9209603 1.3465701 0.28334624 12
-1.9317487 1.3546357 0.20307288 8
-1.9198061 1.3467607 0.12089606 8
-1.9095979 1.340097 0.040053267 38
-1.5879351 1.1164334 -0.50987375 7
-1.8364575 1.2916416 -0.50951445 3
-1.9380505 1.3636011 -0.45276478 12
-1.9454811 1.369337 -0.37074998 11
-1.9343671 1.3620191 -0.28578395 12
-1.9126188 1.347205 -0.20133008 18
-1.9088351 1.3450385 -0.11997214 7
-1.9027066 1.3412172 -0.039566711 9
-1.8982745 1.338589 0.61170834 8
-1.9024049 1.3419987 0.52823532 8
-1.8960419 1.3380059 0.44323257 7
-1.9113438 1.3493038 0.36409062 10
-1.9000332 1.3418162 0.28090885 11
-1.9148039 1.3527484 0.20176555 8
-1.898783 1.3419268 0.11984934 9
-1.8926623 1.3380966 0.039791483 36
-1.5840284 1.1219696 -0.50987375 8
-1.8319376 1.2980442 -0.50951445 4
-1.9252701 1.3646809 -0.45085838 11
-1.9245754 1.3646933 -0.36762127 10
-1.9174573 1.3601489 -0.28395587 12
-1.8875936 1.3394603 -0.19915117 8
-1.8837703 1.3372416 -0.11866809 7
-1.8857852 1.3391671 -0.039307538 9
-1.881778 1.3368155 0.60782856 8
-1.885795 1.3401644 0.5248636 8
-1.8753581 1.3332402 0.43941984 8
-1.8905238 1.3445185 0.36096537 11
-1.8832064 1.3398094 0.27908078 11
-1.8897797 1.3449829 0.19958664 8
-1.8778169 1.3369626 0.11880261 8
-1.8757639 1.3359944 0.039529696 44
-1.5801023 1.127492 -0.50987375 7
-1.8313609 1.3072616 -0.51063919 4
-1.9085114 1.362836 -0.44799879 11
-1.9037262 1.3599207 -0.3644926 11
-1.9005848 1.3581777 -0.28212786 10
-1.8626463 1.3315578 -0.19697228 7
-1.8628451 1.3321911 -0.11762486 8
-1.8689014 1.3370153 -0.03904837 10
-1.8653173 1.3349435 0.60394883 9
-1.8652594 1.3353944 0.52036798 10
-1.8587215 1.3312043 0.43656024 12
-1.8697609 1.3396045 0.35784012 16
-1.8623832 1.3348107 0.2766434 12
-1.8729292 1.3428642 0.19827931 9
-1.8609664 1.3347788 0.11801757 9
-1.8589036 1.3337907 0.039267913 62
-1.5761571 1.1330007 -0.50987375 7
-1.8267865 1.3136462 -0.51063919 4
-1.8878047 1.3580244 -0.44418606 12
-1.8869425 1.3579041 -0.36214611 14
-1.8837494 1.3561053 -0.28029981 12
-1.849903 1.3322296 -0.19610073 17
-1.8460295 1.3299295 -0.11684243 9
-1.8520559 1.3347621 -0.038789198 24
-1.8528105 1.3357973 0.60136229 29
-1.8487321 1.3333474 0.51699626 28
-1.8461025 1.3319408 0.43465388 29
-1.8490553 1.3345619 0.3547149 29
-1.8496655 1.3354936 0.27542472 28
-1.8561169 1.3406442 0.19697198 25
-1.8482013 1.335418 0.11749421 20
-1.8420814 1.3314854 0.039006125 31
-1.5721924 1.1384956 -0.50987375 6
-1.82219 1.320015 -0.51063919 5
-1.8711298 1.3559654 -0.4413265 14
-1.8661977 1.3528881 -0.35901737 15
-1.8669516 1.3539319 -0.27847174 31
-1.8412097 1.3357539 -0.19566494 31
-1.8332938 1.3304996 -0.11632082 29
-1.8392943 1.3353447 -0.038616419 28
-1.8364127 1.333742 0.5974825 34
-1.8401248 1.3369287 0.51587236 31
-1.8374714 1.3354909 0.43370065 34
-1.8363971 1.3351998 0.35315228 25
-1.8329523 1.3331844 0.27359664 34
-1.8473982 1.3441845 0.1965362 28
-1.8354548 1.3359845 0.11697085 29
-1.8293397 1.332022 0.038831603 73
-1.5682088 1.1439766 -0.50987375 6
-1.817571 1.3263675 -0.51063919 5
-1.8505276 1.3509125 -0.43751371 17
-1.8494993 1.3506567 -0.35667089 16
-1.8501924 1.351658 -0.27664372 27
-1.8284929 1.3362949 -0.19479337 27
-1.8205767 1.3309972 -0.1157992 23
-1.8265513 1.3358544 -0.038443636 25
-1.8239498 1.3344406 0.59489602 28
-1.8275839 1.337589 0.51362455 29
-1.8288382 1.3389971 0.43274748 29
-1.8237567 1.3357657 0.35158965 27
-1.820281 1.3337083 0.27237797 29
-1.8346601 1.3447359 0.19566463 28
-1.8267534 1.3394308 0.11670918 28
-1.8166167 1.3324859 0.038657077 72
-1.564206 1.1494437 -0.50987375 6
-1.8168553 1.3355893 -0.51176393 6
-1.833938 1.3486402 -0.43465418 13
-1.8328394 1.3483251 -0.35432434 11
-1.837469 1.3522253 -0.27542502 21
-1.819806 1.3397166 -0.1943576 23
-1.8118987 1.3343829 -0.11553839 26
-1.8138274 1.3362916 -0.038270857 21
-1.8115046 1.3350682 0.59230953 22
-1.8150607 1.3381779 0.51137674 24
-1.8162527 1.3395461 0.43084112 21
-1.8111348 1.3362596 0.35002702 18
-1.8076285 1.33416 0.27115926 24
-1.8219407 1.3452146 0.19479308 25
-1.8140342 1.3398662 0.11618582 24
-1.8039131 1.3328773 0.038482554 66
-1.5601842 1.1548969 -0.50987375 6
-1.8121822 1.3419232 -0.51176393 7
-1.8173871 1.3462687 -0.43179458 12
-1.8162185 1.345894 -0.35197783 12
-1.8207773 1.3497647 -0.27359697 21
-1.8071166 1.3401266 -0.19348605 21
-1.7992095 1.3347496 -0.11501677 19
-1.7971084 1.3336772 -0.038011689 18
-1.7951993 1.3327463 0.58842975 19
-1.8025557 1.3386958 0.50912893 20
-1.7997459 1.3370965 0.42798153 17
-1.7985319 1.3366816 0.34846443 18
-1.7949953 1.3345397 0.26994058 19
-1.8092405 1.3456211 0.19392152 23
-1.801334 1.340229 0.11566246 19
-1.7872185 1.3302114 0.038220771 65
-1.5561434 1.1603359 -0.50987375 6
-1.8074869 1.3482407 -0.51176393 9
-1.8008753 1.3437983 -0.42893505 13
-1.799637 1.3433633 -0.34963131 12
-1.8081019 1.3501736 -0.27237827 18
-1.7904562 1.3374836 -0.19217871 20
-1.7865399 1.3350441 -0.11449515 18
-1.7844338 1.3339555 -0.03783891 18
-1.7789326 1.3303272 0.58455002 19
-1.7861683 1.3362243 0.50575721 20
-1.7832786 1.3345481 0.42512199 17
-1.7819946 1.3340725 0.34612048 17
-1.7823813 1.3348475 0.26872188 18
-1.7965597 1.3459551 0.19304997 22
-1.7886539 1.3405198 0.1151391 18
-1.7745645 1.3304442 0.038046245 65
-1.5520836 1.1657608 -0.50987375 5
-1.8027697 1.3545418 -0.51176393 12
-1.784403 1.341229 -0.42607546 12
-1.7870424 1.3437011 -0.34806696 12
-1.7954458 1.3505104 -0.27115959 17
-1.7778164 1.3377355 -0.19130714 20
-1.7699009 1.3322634 -0.11371273 17
-1.7717793 1.3341619 -0.037666127 17
-1.7665623 1.3307167 0.58196354 18
-1.7737112 1.3365872 0.5035094 21
-1.7707703 1.3348556 0.42321563 16
-1.7694407 1.3343376 0.34455785 17
-1.7697873 1.3350836 0.2675032 18
-1.7838987 1.3462174 0.19217841 22
-1.7759933 1.3407382 0.11461575 18
-1.7619306 1.3306047 0.037871718 64
-1.5518564 1.1740854 -0.51116782 6
-1.7824917 1.349066 -0.50726491 14
-1.7718838 1.341524 -0.42416909 13
-1.7705312 1.340986 -0.34572047 12
-1.7828096 1.3507754 -0.26994088 18
-1.7651969 1.3379158 -0.19043559 20
-1.757282 1.3323996 -0.1131911 18
-1.7591451 1.334296 -0.037493344 19
-1.7503636 1.3281165 0.57808375 18
-1.7612734 1.3368791 0.50126159 21
-1.7543727 1.3321238 0.42035604 17
-1.756907 1.3345317 0.34299523 17
-1.7572135 1.3352482 0.2662845 18
-1.771258 1.3464078 0.19130686 22
-1.7633533 1.3408849 0.11409239 19
-1.7493173 1.3306935 0.037697192 65
-1.5439073 1.1765678 -0.50987375 6
-1.7661488 1.3464191 -0.50389069 13
-1.7554817 1.3387717 -0.42130953 13
-1.7579868 1.3411674 -0.34415612 14
-1.7701933 1.3509687 -0.26872221 18
-1.7486385 1.3350015 -0.18912823 20
-1.7407156 1.3294338 -0.11240868 17
-1.7425593 1.3313234 -0.037234176 18
-1.738042 1.3283526 0.57549721 17
-1.7488552 1.3371006 0.49901381 19
-1.7419146 1.3322759 0.41844967 16
-1.7443935 1.3346543 0.3414326 18
-1.74466 1.3353412 0.26506582 20
-1.7586374 1.3465261 0.19043529 22
-1.750734 1.3409594 0.11356901 21
-1.732757 1.32767 0.037435409 65
-1.5397907 1.18195 -0.50987375 6
-1.7498457 1.3436743 -0.50051636 13
-1.743013 1.3389113 -0.41940317 13
-1.745463 1.3412777 -0.34259176 15
-1.7575977 1.3510904 -0.2675035 20
-1.736071 1.3350246 -0.18825668 19
-1.7281492 1.3294129 -0.11188706 19
-1.7299776 1.3313001 -0.037061393 17
-1.7219133 1.3255728 0.57161748 17
-1.7325969 1.3342789 0.49564207 20
-1.7294772 1.3323574 0.41654328 16
-1.7319005 1.3347059 0.33987001 19
-1.7321277 1.335363 0.26384711 16
-1.7460382 1.346573 0.18956374 20
-1.7341826 1.3379127 0.11278398 18
-1.7201966 1.3276014 0.037260886 66
-1.5316281 1.1846308 -0.50857961 6
-1.7372029 1.3441162 -0.49826688 13
-1.7303309 1.3392822 -0.4174968 13
-1.7288208 1.3385957 -0.34024525 18
-1.7447872 1.3514456 -0.26628482 18
-1.7232913 1.335277 -0.18738513 19
-1.7114257 1.326561 -0.11110463 17
-1.717185 1.3315051 -0.036888614 20
-1.7094104 1.3259544 0.569031 18
-1.7199967 1.3346468 0.49339426 23
-1.7168275 1.3326679 0.41463691 16
-1.7152948 1.3319579 0.33752605 19
-1.7193832 1.3356137 0.26262844 18
-1.7292916 1.3437946 0.1882564 21
-1.7213829 1.3381308 0.11226062 20
-1.7034798 1.3246907 0.036999099 65
-1.5274837 1.18997 -0.50857961 6
-1.724815 1.3441827 -0.49601737 13
-1.7179036 1.3392785 -0.41559041 14
-1.7163492 1.3385483 -0.33868089 16
-1.7322333 1.3514223 -0.26506612 20
-1.7107667 1.3351552 -0.18651357 22
-1.6989131 1.3263814 -0.11058301 18
-1.7046468 1.3313369 -0.036715835 16
-1.6971599 1.3259664 0.56644452 19
-1.7076501 1.3346422 0.49114645 20
-1.7044317 1.3326062 0.41273054 17
-1.7028548 1.3318522 0.33596343 17
-1.7068934 1.3354912 0.26140973 21
-1.7167456 1.3436828 0.18738484 22
-1.7088386 1.3379748 0.11173727 20
-1.6909698 1.3244689 0.036824573 65
-1.519521 1.1923132 -0.50728554 7
-1.712448 1.3441789 -0.49376786 14
-1.7054971 1.3392042 -0.41368398 13
-1.7038993 1.3384303 -0.33711654 19
-1.7197013 1.3513283 -0.26384741 21
-1.6982638 1.3349624 -0.185642 20
-1.6864228 1.3261306 -0.1100614 20
-1.6921307 1.3310972 -0.036543053 17
-1.6849298 1.3259088 0.56385797 18
-1.6914961 1.3315541 0.48777473 21
-1.6882011 1.3294376 0.40987095 17
-1.6865573 1.32862 0.33361951 19
-1.6944257 1.3352978 0.26019105 17
-1.70031 1.3404161 0.18607752 23
-1.6923958 1.334656 0.11095222 19
-1.6784908 1.3241655 0.03665005 66
-1.5153499 1.1976101 -0.50728554 7
-1.6962805 1.3410841 -0.49039361 15
-1.6931125 1.3390597 -0.41177762 14
-1.691471 1.3382415 -0.33555222 18
-1.707191 1.3511633 -0.26262873 21
-1.6857831 1.3346986 -0.18477045 23
-1.673955 1.325809 -0.10953978 18
-1.6796372 1.3307865 -0.036370274 18
-1.6727208 1.3257818 0.56127143 20
-1.6792024 1.3313965 0.48552692 22
-1.6758591 1.3292221 0.40796459 17
-1.6741718 1.3283598 0.33205691 17
-1.6819803 1.3350338 0.25897235 19
-1.687819 1.3401484 0.18520595 22
-1.6799068 1.3343441 0.11042886 23
-1.6660302 1.3237963 0.036475528 65
-1.5111603 1.2028923 -0.50728554 8
-1.6839664 1.3409274 -0.48814404 15
-1.6807497 1.3388453 -0.40987125 14
-1.6829273 1.34106 -0.33477002 22
-1.6908222 1.3478338 -0.26080069 21
-1.6733252 1.3343639 -0.1838989 22
-1.6615101 1.3254166 -0.10901816 21
-1.6671666 1.3304051 -0.036197495 18
-1.6605337 1.3255864 0.55868495 19
-1.6669308 1.3311695 0.48327911 22
-1.6635393 1.3289368 0.40605819 19
-1.6618088 1.3280295 0.33049428 20
-1.6656805 1.3316001 0.2571443 19
-1.6753509 1.3398101 0.1843344 22
-1.667441 1.3339616 0.1099055 25
-1.6535926 1.3233564 0.036301002 65
-1.5107203 1.2111809 -0.50857961 9
-1.6678737 1.337653 -0.48476982 16
-1.6684091 1.3385608 -0.40796486 14
-1.6705329 1.3407441 -0.33320567 19
-1.6783673 1.3475137 -0.25958198 18
-1.6608902 1.3339586 -0.18302734 22
-1.652981 1.328081 -0.10875736 17
-1.6547191 1.3299527 -0.036024712 17
-1.6483681 1.3253217 0.55609846 21
-1.654681 1.330873 0.4810313 22
-1.651242 1.3285817 0.40415183 20
-1.6494687 1.3276292 0.32893166 18
-1.6532915 1.3311816 0.2559256 20
-1.6629053 1.339401 0.18346284 20
-1.6588863 1.3366412 0.10964382 20
-1.6450711 1.3259833 0.036213744 65
-1.5064832 1.216447 -0.50857961 9
-1.6556146 1.3373443 -0.48252031 12
-1.6560912 1.338207 -0.40605849 14
-1.6581614 1.3403583 -0.33164132 20
-1.6659355 1.3471231 -0.25836328 18
-1.6484786 1.3334829 -0.18215577 20
-1.6405721 1.3275609 -0.10823574 20
-1.6422952 1.3294296 -0.035851933 19
-1.6362249 1.3249885 0.55351192 20
-1.6424538 1.3305072 0.47878349 23
-1.6389676 1.3281572 0.40224546 17
-1.6371515 1.3271588 0.32736903 17
-1.6409255 1.330693 0.25470692 19
-1.6543516 1.3420594 0.18302706 21
-1.6464564 1.3361311 0.10912047 26
-1.63267 1.3254157 0.036039218 63
-1.5022279 1.2216982 -0.50857961 8
-1.6395987 1.3338916 -0.479146 13
-1.6437961 1.3377831 -0.4041521 13
-1.6458132 1.3399024 -0.33007699 26
-1.653527 1.3466623 -0.2571446 18
-1.6399523 1.3360831 -0.18172 24
-1.6281869 1.3269705 -0.10771412 20
-1.6298951 1.3288363 -0.035679154 20
-1.624104 1.3245866 0.55092543 21
-1.6302494 1.3300726 0.47653568 21
-1.6267164 1.3276631 0.40033907 20
-1.6248579 1.3266188 0.32580641 17
-1.6285832 1.3301342 0.25348821 19
-1.6419425 1.3415231 0.1821555 24
-1.6340501 1.3355503 0.10859711 20
-1.6202928 1.3247778 0.035864696 64
-1.4979541 1.2269346 -0.50857961 8
-1.6273959 1.3334314 -0.47689649 13
-1.6315241 1.3372899 -0.40224573 14
-1.6334883 1.3393766 -0.32851264 24
-1.641142 1.3461313 -0.25592589 20
-1.6275772 1.3354801 -0.18084845 24
-1.6158259 1.3263099 -0.10719251 20
-1.6175196 1.3281727 -0.035506371 18
-1.608274 1.3210509 0.54704571 20
-1.6218324 1.332662 0.4754118 19
-1.6144886 1.3270998 0.3984327 21
-1.6125883 1.3260093 0.32424381 20
-1.6162649 1.3295056 0.25226954 21
-1.6295571 1.3409164 0.18128394 23
-1.6255231 1.3380727 0.10833542 23
-1.6079401 1.32407 0.035690166 68
-1.4936622 1.2321559 -0.50857961 8
-1.6152161 1.3329022 -0.47464699 13
-1.6192758 1.3367275 -0.40033937 15
-1.6211873 1.3387812 -0.32694829 27
-1.6287812 1.3455305 -0.25470722 20
-1.6152266 1.3348075 -0.1799769 25
-1.6034894 1.325579 -0.10667088 16
-1.6051682 1.3274386 -0.035333589 24
-1.59621 1.3204995 0.54445922 22
-1.6096638 1.3321029 0.47316399 23
-1.6022846 1.3264673 0.39652634 20
-1.6003426 1.3253304 0.32268119 23
-1.6039711 1.3288072 0.25105083 20
-1.6171964 1.3402399 0.18041238 22
-1.6131546 1.3373652 0.10781206 21
-1.5956123 1.3232919 0.035515644 68
-1.4893521 1.2373623 -0.50857961 9
-1.60306 1.3323044 -0.47239748 13
-1.6070515 1.336096 -0.39843297 14
-1.6089104 1.3381165 -0.32538396 24
-1.6164443 1.3448596 -0.25348851 19
-1.6029005 1.3340648 -0.17910534 22
-1.5911778 1.3247786 -0.10614926 17
-1.5928421 1.3266348 -0.03516081 21
-1.5841695 1.31988 0.54187268 21
-1.597519 1.3314749 0.47091618 24
-1.5901051 1.325766 0.39461994 19
-1.5919141 1.3277452 0.32189986 23
-1.5917016 1.3280393 0.24983214 20
-1.6086844 1.3426851 0.17997661 23
-1.6008108 1.3365877 0.1072887 18
-1.5833097 1.3224441 0.035341118 69
-1.4850239 1.2425535 -0.50857961 9
-1.590928 1.3316381 -0.47014797 12
-1.5986146 1.3385464 -0.3974798 14
-1.5928723 1.3342113 -0.32303745 24
-1.6079364 1.3473067 -0.25287917 23
-1.5867819 1.3300527 -0.17779799 24
-1.5788916 1.3239082 -0.10562764 24
-1.580541 1.3257611 -0.034988027 25
-1.5721527 1.3191925 0.5392862 19
-1.5853984 1.3307785 0.46866837 22
-1.5779498 1.3249958 0.39271358 20
-1.5797065 1.326941 0.32033724 22
-1.5794574 1.327202 0.24861345 22
-1.5963619 1.3418821 0.17910506 22
-1.5884924 1.3357403 0.10676534 23
-1.5710323 1.3215265 0.035166595 68
-1.4804596 1.247988 -0.50857961 8
-1.5823122 1.3343195 -0.46902326 13
-1.5861944 1.3380669 -0.39557344 15
-1.5804232 1.3336707 -0.32147309 27
-1.595403 1.3467885 -0.2516605 22
-1.5742853 1.3294322 -0.17692643 27
-1.5663999 1.3232417 -0.10510603 22
-1.5680346 1.3250917 -0.034815248 23
-1.5599302 1.3187096 0.53669971 20
-1.5730698 1.3302883 0.46642056 22
-1.5693355 1.3276002 0.39176041 18
-1.5672928 1.3263414 0.31877461 22
-1.5670069 1.3265691 0.24739476 21
-1.5838307 1.3412859 0.17823349 22
-1.5759662 1.3350984 0.10624199 23
-1.5585502 1.3208115 0.034992073 65
-1.4760944 1.2531482 -0.50857961 9
-1.570218 1.3335273 -0.46677375 14
-1.5740329 1.33724 -0.39366707 14
-1.5682319 1.332783 -0.31990871 26
-1.5831301 1.3459204 -0.25044179 22
-1.5620463 1.3284655 -0.17605488 23
-1.5541652 1.3222303 -0.1045844 24
-1.5595926 1.327317 -0.034728859 21
-1.5516399 1.3210158 0.53540641 19
-1.5609983 1.3294533 0.46417275 24
-1.5534831 1.3235208 0.38890082 19
-1.5588946 1.3286008 0.31799328 23
-1.5548137 1.3255913 0.24617606 19
-1.5715593 1.3403419 0.17736192 22
-1.5636994 1.3341099 0.10571863 25
-1.5501236 1.3230035 0.034904812 68
-1.4753819 1.2614316 -0.50987375 9
-1.5581489 1.3326671 -0.46452424 13
-1.5618964 1.3363444 -0.39176068 15
-1.5560665 1.3318268 -0.31834438 26
-1.5708828 1.344983 -0.24922307 20
-1.5498335 1.3274297 -0.17518331 27
-1.541957 1.3211499 -0.1040628 23
-1.5473583 1.3262463 -0.03455608 22
-1.539686 1.3201365 0.53281993 21
-1.5489521 1.3285503 0.46192494 25
-1.5451286 1.3257391 0.38794762 21
-1.5467525 1.3276013 0.31643066 22
-1.5426466 1.3245449 0.24495737 22
-1.5593141 1.3393286 0.17649037 26
-1.5514585 1.3330519 0.10519527 25
-1.537918 1.321884 0.034730289 68
-1.4709697 1.2665739 -0.50987375 8
-1.546105 1.3317389 -0.46227473 14
-1.5497851 1.3353801 -0.38985425 15
-1.5439267 1.3308017 -0.31678003 25
-1.5586613 1.3439766 -0.24800438 22
-1.537647 1.3263248 -0.17431176 26
-1.5297751 1.3200004 -0.10354118 22
-1.5351506 1.3251063 -0.034383301 23
-1.5277572 1.3191898 0.53023344 21
-1.5369309 1.3275794 0.4596771 24
-1.5330638 1.3247063 0.38604125 20
-1.5346364 1.3265331 0.31486806 22
-1.5305059 1.3234295 0.24373868 22
-1.5470953 1.3382463 0.17561881 26
-1.5392443 1.331925 0.10467191 25
-1.5257344 1.3207006 0.034555763 68
-1.4701885 1.2748649 -0.51116782 7
-1.5340863 1.3307427 -0.46002516 14
-1.5377002 1.334348 -0.38794789 15
-1.5318133 1.3297085 -0.31521568 26
-1.5464662 1.3429015 -0.24678569 22
-1.5292478 1.3284175 -0.17387597 25
-1.521389 1.322057 -0.10328037 23
-1.5229697 1.3238971 -0.034210518 22
-1.5158539 1.318176 0.5276469 21
-1.5286117 1.3297386 0.45855322 24
-1.5210251 1.3236054 0.38413486 21
-1.5262718 1.3286395 0.31408677 23
-1.5221343 1.3255048 0.24312933 24
-1.5349028 1.3370949 0.17474726 28
-1.5270569 1.330729 0.10414855 24
-1.5135783 1.3194482 0.034381237 68
-1.4657294 1.2799891 -0.51116782 7
-1.5220938 1.3296793 -0.45777565 13
-1.5293372 1.3364776 -0.38699472 15
-1.5197263 1.3285468 -0.31365135 26
-1.5380336 1.3450245 -0.24617635 23
-1.5171036 1.3271884 -0.17300442 27
-1.5092499 1.320783 -0.10275874 24
-1.5108161 1.3226192 -0.034037735 23
-1.5039763 1.3170953 0.52506042 20
-1.5166312 1.3286456 0.45630541 25
-1.5090127 1.3224368 0.38222849 22
-1.5141975 1.3274479 0.31252414 24
-1.5100359 1.3242657 0.24191064 25
-1.5227377 1.335875 0.1738757 29
-1.5148966 1.3294642 0.10362519 27
-1.5014496 1.3181272 0.034206714 69
-1.4612525 1.2850976 -0.51116782 7
-1.5101275 1.3285483 -0.45552614 14
-1.5172936 1.3353225 -0.38508835 15
-1.5076663 1.3273169 -0.31208703 27
-1.5258806 1.3438252 -0.24495766 23
-1.508724 1.3291831 -0.17256863 27
-1.5008844 1.3227417 -0.10249794 22
-1.50244 1.3245789 -0.033951346 23
-1.492125 1.3159478 0.52247393 20
-1.5046774 1.3274851 0.4540576 26
-1.4970273 1.3212006 0.38032213 22
-1.5021502 1.3261882 0.31096151 24
-1.5016843 1.3262434 0.24130128 22
-1.5143325 1.3378844 0.17343993 28
-1.5027639 1.3281308 0.10310183 28
-1.493094 1.3200488 0.034119453 68
-1.4567577 1.2901905 -0.51116782 7
-1.5018344 1.3305808 -0.4544014 14
-1.5089498 1.3373551 -0.38413513 15
-1.4993287 1.3292955 -0.31130484 28
-1.5137548 1.3425574 -0.24373896 22
-1.4966233 1.3278302 -0.17169708 28
-1.488789 1.321344 -0.10197632 24
-1.4903303 1.323177 -0.033778567 25
-1.4839112 1.317941 0.52118063 21
-1.49275 1.3262573 0.45180979 25
-1.4850689 1.3198968 0.37841576 23
-1.4901302 1.3248607 0.30939889 22
-1.4896293 1.324881 0.24008259 25
-1.5022105 1.3365403 0.17256837 29
-1.4943888 1.3300488 0.10284015 29
-1.4810094 1.318604 0.033944927 68
-1.4522452 1.2952678 -0.51116782 7
-1.4899101 1.3293283 -0.45215189 14
-1.4969486 1.3360775 -0.38222876 15
-1.487312 1.3279428 -0.30974048 28
-1.5016564 1.3412215 -0.24252027 25
-1.4845505 1.326409 -0.17082551 28
-1.4804447 1.3232052 -0.10171551 23
-1.478249 1.3217069 -0.033605788 25
-1.4721017 1.3166729 0.51859415 22
-1.4808497 1.3249626 0.44956198 26
-1.4767952 1.321799 0.37746257 23
-1.4818172 1.3267599 0.30861756 26
-1.477602 1.3234504 0.2388639 24
-1.4901166 1.3351282 0.17169681 31
-1.4823005 1.3285917 0.10231679 27
-1.4689534 1.3170909 0.033770405 69
-1.447715 1.3003291 -0.51116782 7
-1.478013 1.3280088 -0.44990239 14
-1.4849749 1.3347325 -0.3803224 15
-1.4789952 1.3298246 -0.30895832 29
-1.4895861 1.3398175 -0.24130157 24
-1.4762086 1.3282512 -0.17038974 29
-1.4683943 1.3216839 -0.10119389 23
-1.4661959 1.3201686 -0.033433005 24
-1.4603193 1.3153387 0.51600766 21
-1.4725962 1.3268623 0.44843808 26
-1.4648806 1.3203735 0.37555617 23
-1.4698415 1.3253101 0.30705497 24
-1.4656031 1.3219525 0.23764521 26
-1.4780507 1.333648 0.17082526 29
-1.4739475 1.3304124 0.10205511 30
-1.4606318 1.3188651 0.033683144 69
-1.4429393 1.3056265 -0.51116782 7
-1.4659119 1.3268783 -0.44765288 14
-1.4727961 1.3335774 -0.37841603 15
-1.4667909 1.3286057 -0.30739397 28
-1.4773102 1.3386035 -0.24008287 25
-1.4639494 1.3269626 -0.16951817 28
-1.4561423 1.3203489 -0.10067227 23
-1.4576447 1.3221748 -0.033346616 23
