# .PCD v0.7 - Point Cloud Data file format
VERSION 0.7
FIELDS x y z intensity
SIZE 4 4 4 4
TYPE F F F F
COUNT 1 1 1 1
WIDTH 1406
HEIGHT 1
VIEWPOINT 0 0 0 1 0 0 0
POINTS 1406
DATA ascii
0.88410032 2.1228709 -0.19784385 10
0.88084316 2.1140103 -0.11762486 9
0.87841672 2.1071508 -0.038789198 12
0.87739396 2.1036634 0.60006905 11
0.87967157 2.1080887 0.51812023 13
0.88269669 2.1142998 0.43751341 14
0.8865183 2.1224117 0.35784012 12
0.87967271 2.1049898 0.27542472 13
0.89090645 2.1308255 0.19871509 14
0.8857131 2.1173658 0.11827926 15
0.87942529 2.1013043 0.03909339 13
nan nan nan 0
0.83691067 1.9938542 -0.49039361 3
0.89662528 2.1350737 -0.44227967 11
0.89285022 2.1250455 -0.35901737 12
0.90138775 2.1443174 -0.28090915 12
0.89150512 2.119772 -0.19784385 11
0.89015371 2.1155252 -0.11788567 12
0.8877064 2.1086795 -0.038875591 12
0.88660651 2.1050391 0.60136229 12
0.88891667 2.1094949 0.51924407 13
0.89007151 2.1112056 0.43751341 13
0.89392149 2.1193042 0.35784012 14
0.88894463 2.1064785 0.27603403 14
0.89833897 2.1277027 0.19871509 14
0.89504153 2.1188607 0.11854094 16
0.88870096 2.1028266 0.039180648 14
nan nan nan 0
0.84576654 1.995406 -0.49151835 3
0.90598881 2.1364498 -0.44323289 13
0.90026259 2.1219158 -0.35901737 12
0.9088673 2.1411579 -0.28090915 13
0.90084606 2.1212316 -0.1982796 12
0.89753276 2.1124051 -0.11788567 13
0.89506167 2.1055679 -0.038875591 11
0.89583939 2.1063762 0.60265553 12
0.89818239 2.1108623 0.52036798 14
0.89743561 2.1080859 0.43751341 13
0.90324891 2.1207144 0.35862142 13
0.89629221 2.1033626 0.27603403 14
0.90771395 2.1291356 0.19915086 15
0.90243232 2.1157236 0.11854094 15
0.89603579 2.0997117 0.039180648 14
nan nan nan 0
0.85272664 1.9924415 -0.49151835 3
0.91344088 2.1332743 -0.44323289 12
0.9096086 2.1232998 -0.35979956 12
0.91829073 2.1425335 -0.28151849 14
0.90824509 2.1180742 -0.1982796 12
0.90490097 2.1092591 -0.11788567 13
0.90240604 2.1024308 -0.038875591 12
0.9031865 2.1032362 0.60265553 12
0.90746838 2.1121905 0.52149189 13
0.90478873 2.1049404 0.43751341 13
0.91259724 2.1220856 0.35940275 13
0.90559024 2.1047797 0.2766434 13
0.91514039 2.1259542 0.19915086 14
0.91178703 2.1171465 0.11880261 15
0.90533799 2.1011624 0.039267913 14
0.75434923 1.746543 -0.49952096 3
0.85967636 1.9894528 -0.49151835 3
0.92088187 2.1300728 -0.44323289 12
0.91701472 2.1201119 -0.35979956 12
0.92576402 2.1393151 -0.28151849 13
0.91563302 2.1148908 -0.1982796 12
0.9142428 2.1106696 -0.11814647 12
0.91172713 2.1038547 -0.038961977 12
0.912444 2.1045022 0.60394883 12
0.91677463 2.1134796 0.52261579 13
0.91408497 2.106272 0.43846661 13
0.91999912 2.1188872 0.35940275 13
0.91490906 2.1061575 0.27725273 14
0.92454118 2.127315 0.19958664 14
0.92116278 2.11853 0.11906429 16
0.91466105 2.1025736 0.039355174 14
0.76044118 1.7438993 -0.49952096 3
0.86466759 1.9819747 -0.49039361 3
0.92831159 2.1268454 -0.44323289 12
0.92638612 2.1214237 -0.36058176 12
0.93521279 2.1406181 -0.28212786 13
0.92500472 2.116246 -0.1987154 12
0.92160481 2.1074653 -0.11814647 13
0.92106932 2.1052396 -0.03904837 12
0.92172116 2.1057286 0.60524201 12
0.92414641 2.1102667 0.52261579 14
0.92143166 2.1030686 0.43846661 13
0.92738986 2.1156628 0.35940275 13
0.92225534 2.1029513 0.27725273 14
0.93396258 2.1286364 0.20002241 14
0.93055922 2.1198738 0.11932597 16
0.92400509 2.1039453 0.039442439 15
0.7645781 1.7368141 -0.49822688 4
0.87158078 1.9789444 -0.49039361 3
0.93770909 2.1280832 -0.44418606 12
0.93378562 2.1181772 -0.36058176 12
0.94468194 2.1418812 -0.2827372 13
0.93238616 2.1130042 -0.1987154 11
0.93097228 2.1088035 -0.11840729 12
0.92841232 2.1020117 -0.03904837 12
0.92906588 2.1024983 0.60524201 12
0.93347692 2.1114838 0.5237397 13
0.93075258 2.1043282 0.43941984 13
0.9367677 2.1169291 0.36018407 12
0.9315995 2.1042571 0.2778621 14
0.9434045 2.1299174 0.20045821 14
0.93795323 2.1166124 0.11932597 15
0.93336976 2.1052771 0.039529696 14
0.76897663 1.729587 -0.49693277 4
0.87684804 1.971285 -0.48926884 3
0.94550258 2.1246321 -0.44418606 12
0.94355148 2.119252 -0.36136392 12
0.95252591 2.1384044 -0.2827372 13
0.94215202 2.1141222 -0.19915117 12
0.94072849 2.1099374 -0.11866809 13
0.93814683 2.1031604 -0.039134759 12
0.93873411 2.1034899 0.60653532 12
0.94120961 2.1080482 0.5237397 13
0.94046086 2.1053841 0.440373 13
0.94452035 2.1134813 0.36018407 13
0.93930572 2.1008284 0.2778621 14
0.95120466 2.1264453 0.20045821 14
0.94774431 2.117718 0.11958765 15
0.94312268 2.106405 0.039616961 14
0.77500933 1.7268922 -0.49693277 4
0.88372374 1.9682122 -0.48926884 3
0.95492452 2.1257963 -0.44513926 12
0.95094329 2.1159453 -0.36136392 12
0.9620198 2.1395929 -0.28334656 13
0.95156938 2.1153634 -0.19958696 12
0.94808775 2.1066408 -0.11866809 12
0.9475351 2.1044314 -0.039221149 11
0.94805455 2.1046038 0.60782856 12
0.95056432 2.1091921 0.5248636 13
0.94780427 2.1020882 0.440373 13
0.95392263 2.1146729 0.36096537 13
0.94867456 2.1020601 0.27847141 13
0.96067131 2.1276517 0.200894 14
0.9571864 2.1189475 0.11984934 15
0.95046967 2.1031001 0.039616961 14
0.78103256 1.7241764 -0.49693277 3
0.8885777 1.9606781 -0.48814404 3
0.9643659 2.1269202 -0.44609243 12
0.96036369 2.1171105 -0.36214611 12
0.96948248 2.1362219 -0.28334656 13
0.96100676 2.116564 -0.20002273 12
0.95750064 2.1078646 -0.11892891 13
0.95487517 2.1011109 -0.039221149 12
0.95539522 2.1012816 0.60782856 12
0.95792091 2.1058609 0.5248636 14
0.95716935 2.1032348 0.4413262 13
0.96129847 2.1113303 0.36096537 13
0.95600635 2.0987358 0.27847141 13
0.97015792 2.1288178 0.20132977 14
0.96664846 2.1201365 0.12011101 15
0.95987982 2.1043177 0.039704222 14
0.78704631 1.7214396 -0.49693277 3
0.89541632 1.9575644 -0.48814404 4
0.97382683 2.1280041 -0.44704565 12
0.96980369 2.1182356 -0.36292824 12
0.97899997 2.1373363 -0.28395587 13
0.96838909 2.1131966 -0.20002273 11
0.96693361 2.1090484 -0.11918971 13
0.96428782 2.102309 -0.039307538 11
0.96473879 2.1023238 0.6091218 12
0.96729863 2.1069319 0.52598751 13
0.96655375 2.1043408 0.44227937 14
0.9707247 2.1124496 0.3617467 13
0.96539956 2.0998952 0.27908078 13
0.97758293 2.1254184 0.20132977 14
0.97404319 2.1167493 0.12011101 15
0.96931005 2.1054957 0.039791483 14
0.79507399 1.723067 -0.49822688 3
0.90224397 1.9544269 -0.48814404 3
0.98124897 2.1245918 -0.44704565 13
0.97719181 2.1148374 -0.36292824 11
0.98645473 2.1339059 -0.28395587 13
0.9778505 2.1143243 -0.20045851 12
0.97638643 2.1101921 -0.11945052 13
0.97372061 2.103467 -0.039393932 12
0.97410101 2.1033258 0.61041504 12
0.97669554 2.1079633 0.52711141 13
0.9738934 2.1009543 0.44227937 13
0.98017025 2.1135283 0.362528 12
0.97272366 2.0965126 0.27908078 14
0.98499608 2.1219931 0.20132977 14
0.98352921 2.1178651 0.1203727 15
0.97876 2.1066327 0.039878745 14
0.80108374 1.7202812 -0.49822688 3
0.90906072 1.9512656 -0.48814404 4
0.99073279 2.1256025 -0.44799879 13
0.986655 2.1158891 -0.36371043 12
0.99599564 2.1349473 -0.28456524 13
0.98733157 2.1154118 -0.20089431 12
0.98374641 2.106771 -0.11945052 13
0.98105705 2.1000555 -0.039393932 11
0.98143703 2.0999129 0.61041504 12
0.98611134 2.1089547 0.52823532 14
0.98330104 2.1019878 0.44323257 13
0.98963541 2.114567 0.36330932 13
0.98214036 2.0975986 0.27969012 13
0.99451017 2.1230524 0.20176555 14
0.99091595 2.114419 0.1203727 15
0.98610759 2.1032033 0.039878745 14
0.80708379 1.7174745 -0.49822688 3
0.91793919 1.9524894 -0.48926884 4
0.99814653 2.1221313 -0.44799879 13
0.99403489 2.1124322 -0.36371043 12
1.0055557 2.1359475 -0.28517458 13
0.99470967 2.1119523 -0.20089431 12
0.99322277 2.107841 -0.11971132 13
0.99051338 2.10114 -0.039480317 11
0.99082136 2.1008425 0.61170834 12
0.99346703 2.1054995 0.52823532 14
0.99063236 2.0985427 0.44323257 13
0.99701059 2.1110997 0.36330932 13
0.9894563 2.0941575 0.27969012 13
1.0040436 2.1240714 0.20220132 14
1.0004252 2.1154609 0.12063438 15
0.99558121 2.1042676 0.03996601 13
0.81307399 1.7146467 -0.49822688 3
0.92474902 1.9492732 -0.48926884 4
1.0076526 2.1230683 -0.44895202 14
1.0035207 2.1134105 -0.3644926 12
1.0151349 2.1369073 -0.28578395 13
1.0042138 2.1129661 -0.20133008 11
1.0005745 2.1043613 -0.11971132 12
0.99998915 2.1021841 -0.039566711 12
1.0002242 2.1017323 0.61300153 12
1.002905 2.1064179 0.52935922 14
1.0000622 2.0995033 0.44418573 13
1.0064981 2.1120646 0.36409062 13
0.998896 2.0951705 0.28029948 13
1.011452 2.1205537 0.20220132 14
1.0078034 2.1119559 0.12063438 15
1.0029204 2.1007795 0.03996601 13
0.81696969 1.7074416 -0.49693277 4
0.93154764 1.9460334 -0.48926884 4
1.0150574 2.1195381 -0.44895202 14
1.0108918 2.1098948 -0.3644926 12
1.022588 2.1333506 -0.28578395 13
1.0115833 2.109448 -0.20133008 12
1.0100738 2.1053576 -0.11997214 12
1.0073211 2.0986805 -0.039566711 11
1.0075545 2.0982282 0.61300153 12
1.0102516 2.1029041 0.52935922 14
1.0095111 2.1004233 0.44513896 13
1.0138644 2.1085384 0.36409062 12
1.0083549 2.0961432 0.28090885 13
1.0210079 2.1214983 0.20263711 14
1.0173357 2.1129241 0.12089606 15
1.0124168 2.1017697 0.040053267 14
0.82292479 1.7045795 -0.49693277 4
0.93833488 1.9427698 -0.48926884 4
1.0245852 2.1204014 -0.44990519 14
1.0204 2.1107996 -0.36527479 12
1.0321891 2.1342356 -0.28639328 13
1.0211099 2.1103878 -0.20176587 12
1.0195923 2.1063132 -0.12023295 12
1.0168196 2.0996509 -0.0396531 12
1.0169785 2.0990448 0.61429483 11
1.0197109 2.1037488 0.53048313 13
1.0189784 2.1013031 0.44609213 12
1.0233741 2.1094298 0.36487195 13
1.0178325 2.0970755 0.28151816 13
1.0305827 2.122402 0.20307288 14
1.0247049 2.10936 0.12089606 15
1.0219326 2.1027193 0.040140532 14
0.83098477 1.7060385 -0.49822688 3
0.94724494 1.9438623 -0.49039361 4
1.0341314 2.1212239 -0.45085838 14
1.0299267 2.1116633 -0.36605695 12
1.0396327 2.1306198 -0.28639328 13
1.0284704 2.1068106 -0.20176587 12
1.0269384 2.1027415 -0.12023295 13
1.0263373 2.1005807 -0.03973949 11
1.0242993 2.0954823 0.61429483 12
1.0270481 2.1001768 0.53048313 13
1.0263071 2.0977335 0.44609213 13
1.0307311 2.105845 0.36487195 13
1.0251465 2.0935097 0.28151816 13
1.0401764 2.1232648 0.20350866 14
1.0342592 2.110254 0.12115774 14
1.0314672 2.1036282 0.040227797 14
0.83693492 1.7031274 -0.49822688 3
0.95402449 1.940544 -0.49039361 3
1.0436958 2.1220055 -0.45181155 14
1.0372915 2.1080554 -0.36605695 11
1.0492556 2.1314304 -0.28700262 13
1.0380189 2.107676 -0.20220163 11
1.036479 2.1036229 -0.12049376 13
1.0358739 2.1014695 -0.039825883 11
1.0337437 2.0962257 0.61558807 11
1.0365286 2.1009483 0.53160703 13
1.0357957 2.0985396 0.44704533 12
1.0402622 2.1066623 0.36565322 12
1.034646 2.094368 0.28212753 12
1.0475817 2.1196208 0.20350866 14
1.0438321 2.1111066 0.12141941 14
1.0388039 2.1000149 0.040227797 13
0.84502 1.7045225 -0.49952096 3
0.96079242 1.9372021 -0.49039361 3
1.0532784 2.1227462 -0.45276478 14
1.0468396 2.1088452 -0.36683914 12
1.0566893 2.1277547 -0.28700262 13
1.0475861 2.1085007 -0.20263742 11
1.0438157 2.0999923 -0.12049376 12
1.043203 2.0978408 -0.039825883 12
1.0410547 2.0926044 0.61558807 12
1.043856 2.0973172 0.53160703 13
1.0453024 2.0993049 0.44799849 12
1.0498116 2.1074388 0.36643454 12
1.0441639 2.0951853 0.28273687 13
1.0571965 2.1204088 0.20394443 14
1.0534236 2.1119182 0.1216811 15
1.0483601 2.1008489 0.040315058 14
0.85096473 1.7015624 -0.49952096 3
0.96536875 1.9294792 -0.48926884 3
1.0628786 2.1234457 -0.45371795 13
1.0564055 2.1095939 -0.36762127 12
1.0663329 2.1284902 -0.28761196 12
1.0571715 2.1092837 -0.20307319 12
1.0533779 2.1007993 -0.12075458 13
1.0527611 2.0986552 -0.039912272 11
1.0505193 2.0932746 0.61688131 11
1.0533566 2.0980148 0.53273094 13
1.052624 2.0956433 0.44799849 12
1.0593789 2.1081738 0.36721584 12
1.0514711 2.0915277 0.28273687 13
1.0645916 2.1167057 0.20394443 13
1.0630335 2.1126888 0.12194277 14
1.0556871 2.0971766 0.040315058 14
0.85689908 1.6985817 -0.49952096 3
0.97209799 1.9260979 -0.48926884 3
1.0702844 2.1197226 -0.45371795 13
1.0637629 2.1058934 -0.36762127 12
1.0737562 2.1247551 -0.28761196 13
1.0645278 2.1055808 -0.20307319 11
1.0629581 2.1015651 -0.12101538 12
1.0600803 2.0949674 -0.039912272 11
1.0600011 2.0939038 0.61817455 12
1.0628749 2.0986714 0.53385484 13
1.0621512 2.0963347 0.44895169 12
1.0667313 2.1044631 0.36721584 12
1.0610101 2.0922709 0.28334624 13
1.0742276 2.117419 0.20438023 14
1.0726615 2.1134176 0.12220446 15
1.0652646 2.0979364 0.040402319 14
0.86063272 1.691276 -0.49822688 3
0.97660512 1.9183512 -0.48814404 3
1.0799048 2.1203477 -0.45467114 14
1.0733495 2.1065676 -0.36840346 11
1.0834203 2.1254153 -0.28822133 13
1.0741341 2.1062896 -0.20350897 11
1.0725567 2.1022899 -0.12127619 12
1.0696594 2.0957072 -0.039998662 10
1.0695003 2.0944924 0.61946785 11
1.0724106 2.0992873 0.53497875 13
1.0716959 2.0969846 0.44990486 12
1.0763191 2.1051242 0.36799717 12
1.0683072 2.0885546 0.28334624 13
1.0816122 2.113656 0.20438023 14
1.0800321 2.1096604 0.12220446 15
1.0748602 2.0986547 0.04048958 14
0.86653113 1.6882614 -0.49822688 3
0.98329544 1.9149306 -0.48814404 3
1.0872996 2.1165652 -0.45467114 14
1.0806962 2.102808 -0.36840346 11
1.0908327 2.1216207 -0.28822133 13
1.0837581 2.1069567 -0.20394474 11
1.0821732 2.102973 -0.12153699 12
1.0792565 2.0964053 -0.040085051 11
1.076805 2.0907466 0.61946785 12
1.0797319 2.0955312 0.53497875 13
1.0790092 2.093231 0.44990486 12
1.0836608 2.1013544 0.36799717 12
1.0778663 2.0892229 0.28395554 12
1.0912681 2.1142938 0.20481598 13
1.0896806 2.1103141 0.12246613 15
1.0821793 2.0948901 0.04048958 13
0.872419 1.6852263 -0.49822688 3
0.98997384 1.9114865 -0.48814404 4
1.096939 2.1171148 -0.45562431 14
1.0903025 2.1034071 -0.36918563 12
1.1005166 2.1222057 -0.28883067 12
1.0934001 2.1075821 -0.20438054 11
1.0895075 2.0991826 -0.12153699 12
1.0865678 2.0926254 -0.040085051 11
1.0863229 2.0912611 0.62076104 11
1.0892868 2.0960724 0.53610265 13
1.0863093 2.0894518 0.44990486 13
1.093268 2.1019399 0.36877847 12
1.0851524 2.0854475 0.28395554 13
1.0986418 2.1104717 0.20481598 14
1.0970402 2.1064975 0.12246613 14
1.0917952 2.0955334 0.040576845 13
0.8782962 1.6821709 -0.49822688 3
0.99664015 1.9080192 -0.48814404 4
1.1043224 2.1132729 -0.45562431 14
1.0976381 2.0995886 -0.36918563 12
1.1102178 2.1227489 -0.28944001 13
1.1030594 2.108166 -0.20481631 11
1.0991439 2.0997906 -0.12179781 12
1.0961851 2.0932486 -0.040171444 10
1.0936161 2.0874565 0.62076104 11
1.0965968 2.0922575 0.53610265 13
1.0958757 2.0899944 0.45085809 13
1.1005985 2.0981109 0.36877847 12
1.0947316 2.0860417 0.28456491 13
1.1083173 2.1110342 0.20525178 14
1.1067084 2.1070759 0.12272782 15
1.1014287 2.0961351 0.040664103 13
0.88641292 1.683368 -0.49952096 4
1.0032943 1.9045286 -0.48814404 4
1.1139809 2.1137474 -0.45657751 14
1.1072636 2.1001129 -0.36996782 11
1.119936 2.1232498 -0.29004934 13
1.1104115 2.1043026 -0.20481631 11
1.1087979 2.1003566 -0.12205861 12
1.1058197 2.0938299 -0.04025783 11
1.1031523 2.0878968 0.62205434 12
1.1061701 2.0927241 0.53722656 14
1.1031646 2.0861564 0.45085809 12
1.1102251 2.0986218 0.36955979 12
1.104328 2.0865939 0.28517425 13
1.1180102 2.1115544 0.20568755 14
1.1163939 2.1076121 0.12298949 15
1.1087389 2.0922778 0.040664103 13
0.8922835 1.6802635 -0.49952096 4
1.0076506 1.8967125 -0.48701933 4
1.123656 2.1141803 -0.45753068 15
1.116906 2.1005952 -0.37074998 12
1.1296715 2.1237092 -0.29065871 12
1.1200901 2.104811 -0.2052521 11
1.1184694 2.1008809 -0.12231942 12
1.115472 2.0943696 -0.040344223 11
1.112705 2.0882959 0.62334752 11
1.1157603 2.0931497 0.53835046 13
1.1127492 2.0866237 0.45181125 12
1.1198684 2.0990908 0.37034109 12
1.1139417 2.0871046 0.28578362 13
1.1253741 2.1076388 0.20568755 14
1.1237441 2.1037025 0.12298949 14
1.1183919 2.092804 0.040751368 13
0.90042335 1.6813962 -0.50081509 3
1.0142652 1.8931836 -0.48701933 4
1.1333477 2.1145713 -0.4584839 14
1.1265653 2.1010361 -0.37153217 11
1.1370776 2.1197529 -0.29065871 12
1.1297858 2.1052773 -0.20568787 11
1.125796 2.0969639 -0.12231942 12
1.1227758 2.0904632 -0.040344223 11
1.1199877 2.084399 0.62334752 12
1.1253667 2.0935333 0.53947437 13
1.1223509 2.0870495 0.45276445 12
1.1295285 2.0995181 0.37112242 12
1.1235721 2.0875733 0.28639293 12
1.1350856 2.1080835 0.20612334 14
1.1334485 2.1041629 0.12325118 14
1.1280618 2.0932877 0.040838629 13
0.90657997 1.6780849 -0.50081509 3
1.0188808 1.8851676 -0.48589453 4
1.1410904 2.1104031 -0.4584839 14
1.136608 2.1012366 -0.3723143 12
1.1472012 2.1199358 -0.29126805 12
1.1374944 2.1011221 -0.20568787 12
1.1358521 2.0972142 -0.12258023 12
1.1328118 2.0907292 -0.040430613 11
1.1299216 2.0845263 0.62464082 12
1.1330323 2.0893946 0.53947437 13
1.1299927 2.082922 0.45276445 12
1.1395718 2.0997045 0.37190372 12
1.133584 2.0878026 0.2870023 13
1.145182 2.1082859 0.20655911 13
1.143537 2.1043818 0.12351285 15
1.1381143 2.0935316 0.04092589 13
0.91012156 1.6706688 -0.49952096 3
1.025455 1.8815994 -0.48589453 3
1.1507996 2.1107166 -0.45943707 14
1.1463006 2.1015918 -0.3730965 11
1.1569713 2.1202748 -0.29187742 12
1.1472085 2.1015108 -0.20612365 11
1.1455591 2.0976188 -0.12284105 12
1.1424999 2.0911496 -0.040517002 11
1.1371911 2.0805695 0.62464082 11
1.1426561 2.0897017 0.54059827 13
1.1396123 2.083271 0.45371762 12
1.1468942 2.0957141 0.37190372 12
1.1408648 2.083833 0.2870023 13
1.1525344 2.1042757 0.20655911 14
1.1508757 2.1003771 0.12351285 15
1.145421 2.0895429 0.04092589 13
0.91362262 1.6632488 -0.49822688 3
1.0340346 1.8824587 -0.48701933 3
1.1601566 2.1111903 -0.46039027 12
1.1532633 2.0977788 -0.3730965 12
1.1663876 2.1207747 -0.29248673 12
1.154171 2.0976951 -0.20612365 11
1.1525087 2.0938084 -0.12284105 12
1.1494281 2.0873494 -0.040517002 11
1.1464145 2.0810173 0.62593406 12
1.1519312 2.0901678 0.54172218 13
1.1488842 2.0837789 0.45467082 13
1.1562227 2.0962236 0.37268505 13
1.1501665 2.0843832 0.28761163 12
1.1619133 2.1048028 0.20699489 14
1.1602484 2.1009202 0.12377454 14
1.1547556 2.090112 0.041013151 13
0.91679388 1.6559846 -0.49693277 3
1.0405992 1.8788377 -0.48701933 3
1.167519 2.1071277 -0.46039027 12
1.1629732 2.0980597 -0.37387866 12
1.1761901 2.1210306 -0.2930961 12
1.1639025 2.0980089 -0.20655942 11
1.1622334 2.0941384 -0.12310185 12
1.159134 2.0876951 -0.040603392 11
1.1560171 2.0812252 0.62722731 11
1.1615868 2.0903928 0.54284608 13
1.1585357 2.0840456 0.45562398 12
1.1659331 2.0964909 0.37346631 12
1.1574353 2.0803559 0.28761163 13
1.1716757 2.1050863 0.20743066 13
1.170004 2.1012199 0.12403621 14
1.1644772 2.0904357 0.041100416 13
0.92021477 1.6485572 -0.4956387 4
1.0491985 1.8796306 -0.48814404 3
1.176893 2.1075296 -0.46134344 10
1.1723328 2.0985031 -0.37466085 11
1.1856382 2.1214504 -0.29370543 12
1.1708534 2.0941377 -0.20655942 11
1.1691715 2.0902727 -0.12310185 12
1.1684921 2.0882027 -0.040689785 11
1.1652714 2.0815945 0.62852055 11
1.1708928 2.09078 0.54396999 13
1.1678394 2.0844746 0.45657721 12
1.1752937 2.096921 0.37424764 13
1.1667547 2.0808349 0.288221 12
1.1810868 2.1055336 0.20786645 13
1.179409 2.1016829 0.12429789 15
1.1714031 2.0865629 0.041100416 13
0.9280445 1.649706 -0.49693277 4
1.0557534 1.8759568 -0.48814404 3
1.1842425 2.1034088 -0.46134344 9
1.1820742 2.0987005 -0.37544301 11
1.1930362 2.1172988 -0.29370543 12
1.1806021 2.094377 -0.20699522 11
1.1789135 2.0905282 -0.12336266 12
1.175774 2.0841112 -0.040689785 11
1.1749045 2.0817206 0.62981385 11
1.1781839 2.0866802 0.54396999 13
1.1775224 2.0846589 0.45753035 12
1.1826061 2.0928059 0.37424764 12
1.1764534 2.0810695 0.28883031 13
1.1908813 2.1057334 0.20830221 14
1.1867381 2.097553 0.12429789 14
1.1811417 2.0868118 0.041187678 13
0.93408471 1.6462934 -0.49693277 3
1.062622 1.8720746 -0.48814404 4
1.1919439 2.0990541 -0.46134344 8
1.1921977 2.0986481 -0.3762252 11
1.2032406 2.1172268 -0.2943148 12
1.1907322 2.0943658 -0.20743097 11
1.1890363 2.0905335 -0.12362346 12
1.1858772 2.0841327 -0.040776171 12
1.1849158 2.081598 0.63110709 11
1.188235 2.0865817 0.54509389 13
1.185155 2.0803289 0.45753035 12
1.192714 2.0927477 0.37502894 12
1.1865312 2.0810549 0.28943968 12
1.2010592 2.1056814 0.208738 13
1.1968926 2.0975261 0.12455957 14
1.1887825 2.0824687 0.041187678 13
0.93982565 1.6430228 -0.49693277 4
1.0691502 1.868354 -0.48814404 3
1.2017024 2.0991406 -0.46229663 7
1.2019705 2.0987592 -0.37700737 12
1.2130909 2.1173198 -0.29492414 12
1.2005128 2.0945182 -0.20786677 11
1.1963264 2.0863702 -0.12362346 12
1.1956325 2.084317 -0.040862564 11
1.1945786 2.0816381 0.63240033 11
1.197937 2.0866466 0.5462178 12
1.1948543 2.0804358 0.45848358 12
1.2024722 2.092854 0.37581027 12
1.1962612 2.081203 0.29004902 12
1.2108849 2.105794 0.20917377 13
1.2066969 2.0976634 0.12482125 14
1.1985378 2.0826392 0.041274939 13
0.94796777 1.6439161 -0.49822688 3
1.0756655 1.8646107 -0.48814404 4
1.206569 2.0906818 -0.46134344 7
1.2117584 2.0988276 -0.37778956 11
1.2229564 2.1173697 -0.29553348 12
1.2103087 2.0946276 -0.20830254 11
1.2061008 2.0865047 -0.12388428 12
1.2054033 2.0844584 -0.040948953 11
1.2042562 2.0816362 0.63369364 11
1.2076539 2.086669 0.5473417 12
1.2045683 2.0804999 0.45943674 12
1.2122455 2.092917 0.37659156 12
1.2060069 2.0813086 0.29065838 12
1.2182281 2.1015544 0.20917377 13
1.2140117 2.0934386 0.12482125 14
1.2083089 2.082767 0.0413622 13
0.9537003 1.640597 -0.49822688 3
1.0821676 1.8608444 -0.48814404 4
1.2286689 2.111913 -0.46706262 5
1.2215614 2.0988531 -0.37857169 11
1.2328371 2.1173766 -0.29614282 12
1.22012 2.0946941 -0.20873833 11
1.2158906 2.0865958 -0.12414508 12
1.2126721 2.0802379 -0.040948953 12
1.2139482 2.0815921 0.63498682 12
1.2173855 2.0866492 0.54846561 13
1.2142975 2.0805218 0.46038994 12
1.2220339 2.0929377 0.37737289 12
1.2157676 2.0813715 0.29126769 13
1.2280695 2.1015899 0.20960957 13
1.2238318 2.0934987 0.12508292 13
1.2180957 2.0828521 0.041449465 13
0.95942128 1.6372579 -0.49822688 3
1.0861927 1.8528528 -0.48701933 3
1.2434824 2.1203129 -0.46992216 10
1.2313793 2.0988357 -0.37935388 11
1.2427328 2.1173403 -0.29675218 12
1.2299463 2.0947175 -0.2091741 11
1.2231667 2.082339 -0.12414508 12
1.222459 2.0803027 -0.041035343 10
1.2236547 2.0815058 0.63628012 11
1.2271317 2.0865865 0.54958951 12
1.2265303 2.0847311 0.46229634 13
1.2318373 2.0929153 0.37815419 12
1.2255436 2.0813913 0.29187706 13
1.237926 2.1015818 0.21004534 14
1.233667 2.0935159 0.12534462 14
1.2278976 2.0828938 0.041536722 13
0.96513057 1.633899 -0.49822688 3
1.0926538 1.8490499 -0.48701933 3
1.2658628 2.1413105 -0.47564128 9
1.2412119 2.0987754 -0.38013604 11
1.250116 2.1129897 -0.29675218 12
1.2397877 2.094698 -0.20960988 11
1.232972 2.0823534 -0.1244059 12
1.2322609 2.0803239 -0.041121732 11
1.2333753 2.0813766 0.63757336 11
1.2393768 2.0906725 0.55183733 13
1.2363036 2.0846586 0.46324947 12
1.2416552 2.09285 0.37893552 12
1.2353344 2.0813684 0.2924864 12
1.2477974 2.1015308 0.21048112 14
1.243517 2.0934896 0.12560628 14
1.2351607 2.0785952 0.041536722 14
0.970828 1.6305201 -0.49822688 3
1.0991015 1.8452246 -0.48701933 3
1.2733297 2.1368787 -0.47564128 8
1.2510592 2.0986719 -0.38091823 11
1.260026 2.1128752 -0.29736155 12
1.249644 2.0946352 -0.21004565 11
1.2427921 2.0823243 -0.1246667 12
1.2420781 2.0803022 -0.041208126 11
1.2431099 2.0812054 0.6388666 11
1.249166 2.0905156 0.55296123 13
1.2460912 2.0845435 0.4642027 12
1.2514876 2.0927415 0.37971681 12
1.2451402 2.0813024 0.29309577 13
1.2576834 2.1014364 0.21091689 13
1.2533821 2.09342 0.12586798 14
1.2449777 2.0785599 0.041623987 13
0.97651362 1.6271213 -0.49822688 3
1.1055359 1.8413767 -0.48701933 3
1.2807809 2.132421 -0.47564128 8
1.2583773 2.0942922 -0.38091823 11
1.2699503 2.1127176 -0.29797086 12
1.259515 2.0945292 -0.21048145 11
1.2526274 2.0822523 -0.12492751 12
1.2519097 2.0802374 -0.041294511 11
1.2528582 2.080991 0.64015985 11
1.2589693 2.0903158 0.55408514 13
1.2558932 2.0843854 0.4651559 12
1.2613345 2.0925901 0.38049814 12
1.2523977 2.0769434 0.29309577 13
1.2675841 2.1012986 0.21135268 14
1.2632618 2.0933073 0.12612964 15
1.2548094 2.078481 0.041711248 14
0.98218745 1.6237028 -0.49822688 3
1.1119567 1.8375065 -0.48701933 3
1.2882168 2.1279373 -0.47564128 7
1.2682384 2.0941112 -0.38170043 12
1.2798891 2.1125164 -0.29858023 12
1.2668185 2.0901196 -0.21048145 11
1.2624768 2.0821364 -0.12518832 12
1.2617564 2.0801291 -0.041380905 11
1.2626202 2.0807345 0.64145315 11
1.2687867 2.0900736 0.55520904 13
1.265709 2.0841839 0.46610907 12
1.2711957 2.0923951 0.38127947 12
1.2622174 2.0767996 0.29370511 12
1.2774988 2.1011169 0.21178845 14
1.2731559 2.0931511 0.12639134 14
1.2646557 2.0783591 0.04179851 13
0.98784924 1.6202644 -0.49822688 3
1.1158272 1.8294545 -0.48589453 4
1.2956368 2.1234276 -0.47564128 7
1.2781134 2.0938866 -0.38248259 12
1.2898415 2.1122711 -0.29918957 12
1.2767034 2.0899355 -0.2109172 11
1.2723409 2.0819774 -0.12544914 12
1.2716173 2.0799773 -0.041467294 11
1.2723956 2.0804346 0.64274633 11
1.2786173 2.0897877 0.55633295 12
1.2729765 2.0797532 0.46610907 12
1.2810707 2.0921569 0.38206074 12
1.2720515 2.0766132 0.29431444 12
1.2874279 2.1008918 0.21222423 13
1.2830641 2.0929508 0.126653 14
1.2745162 2.0781934 0.041885771 13
0.99097049 1.6126914 -0.49693277 3
1.1222063 1.8255485 -0.48589453 3
1.303041 2.118892 -0.47564128 6
1.2880024 2.0936184 -0.38326478 11
1.2998081 2.1119823 -0.29979894 12
1.2866023 2.0897076 -0.211353 11
1.2822193 2.081775 -0.12570994 12
1.2814925 2.079782 -0.041553684 11
1.2821844 2.080092 0.64403963 11
1.285904 2.0853117 0.55633295 13
1.2828056 2.0794744 0.46706229 12
1.2909596 2.0918751 0.38284209 12
1.2818993 2.0763829 0.29492378 13
1.2973709 2.1006231 0.21266001 13
1.2929866 2.0927072 0.12691469 14
1.2843914 2.0779846 0.041973036 13
0.99405092 1.6051164 -0.4956387 3
1.128572 1.8216201 -0.48589453 4
1.3104295 2.1143308 -0.47564128 6
1.297905 2.0933068 -0.38404691 11
1.3097882 2.1116498 -0.30040827 12
1.2938888 2.0852039 -0.211353 11
1.2921115 2.0815289 -0.12597075 11
1.2913817 2.0795431 -0.041640073 10
1.291986 2.0797062 0.64533287 11
1.295747 2.0849483 0.55745685 13
1.292648 2.0791523 0.46801546 13
1.3008618 2.0915494 0.38362336 12
1.2917612 2.0761094 0.29553315 13
1.3073276 2.1003103 0.21309578 13
1.302923 2.0924199 0.12717636 14
1.2916371 2.0734885 0.041973036 13
0.99709058 1.5975397 -0.49434459 3
1.1323434 1.8135371 -0.48476982 4
1.3152016 2.1055808 -0.47468811 6
1.307821 2.0929518 -0.3848291 11
1.3197819 2.1112731 -0.30101761 12
1.3038005 2.0848978 -0.21178877 11
1.3020178 2.081239 -0.12623155 12
1.301285 2.0792603 -0.041726466 11
1.3018007 2.0792773 0.64662611 11
1.3056031 2.0845416 0.55858076 12
1.3025038 2.0787868 0.46896866 12
1.3107777 2.0911806 0.38440469 12
1.3016367 2.0757921 0.29614249 13
1.3172982 2.0999537 0.21353158 13
1.312873 2.0920882 0.12743805 14
1.3015251 2.0732014 0.042060297 13
1.002661 1.5940495 -0.49434459 3
1.138667 1.8095734 -0.48476982 4
1.3225435 2.1009772 -0.47468811 5
1.3151189 2.0883739 -0.3848291 11
1.3297887 2.110852 -0.30162695 12
1.3137262 2.0845482 -0.21222456 11
1.3119377 2.0809052 -0.12649237 12
1.311202 2.078934 -0.041812852 11
1.311628 2.0788052 0.64791936 11
1.3154721 2.0840917 0.55970466 13
1.3123729 2.0783775 0.46992183 12
1.3207067 2.0907674 0.38518599 12
1.3115259 2.0754313 0.29675183 12
1.3272818 2.0995526 0.21396735 13
1.3228366 2.091713 0.12769973 13
1.3114268 2.07287 0.042147558 13
1.0082191 1.5905398 -0.49434459 3
1.1449766 1.8055878 -0.48476982 4
1.3298693 2.0963478 -0.47468811 5
1.3250467 2.08794 -0.38561127 11
1.3398088 2.1103873 -0.30223632 11
1.3236649 2.0841544 -0.21266034 11
1.3218712 2.0805275 -0.12675317 11
1.3184508 2.0743444 -0.041812852 10
1.3188764 2.0742142 0.64791936 11
1.3253536 2.0835977 0.56082857 13
1.3222548 2.077925 0.47087502 11
1.3306489 2.0903106 0.38596731 11
1.3214282 2.0750265 0.2973612 12
1.3346026 2.094907 0.21396735 14
1.3328136 2.0912933 0.12796141 14
1.3240296 2.0767105 0.042322084 13
1.013765 1.5870107 -0.49434459 3
1.1512723 1.80158 -0.48476982 4
1.3345348 2.0875571 -0.47373492 5
1.3349876 2.0874627 -0.38639346 11
1.3498418 2.1098781 -0.30284566 12
1.3336169 2.0837164 -0.21309611 11
1.3318179 2.0801058 -0.12701398 12
1.32838 2.0739393 -0.041899245 11
1.3287146 2.0736644 0.64921266 11
1.335248 2.0830603 0.56195247 13
1.3321494 2.0774283 0.47182819 12
1.3406038 2.0898099 0.38674861 11
1.3313438 2.0745778 0.29797053 13
1.3445979 2.0944271 0.21440314 13
1.3428038 2.0908296 0.12822309 14
1.3339728 2.0762823 0.042409342 13
1.0192986 1.5834624 -0.49434459 3
1.157554 1.7975503 -0.48476982 4
1.3418137 2.0828862 -0.47373492 5
1.3449411 2.0869408 -0.38717562 11
1.3598875 2.1093242 -0.30345502 12
1.343582 2.0832345 -0.21353191 11
1.3417779 2.0796402 -0.1272748 12
1.3383224 2.0734899 -0.041985635 11
1.3385648 2.0730712 0.65050584 11
1.3451546 2.0824795 0.56307638 13
1.3420569 2.0768883 0.47278142 12
1.3478906 2.0851176 0.38674861 11
1.3412722 2.0740855 0.2985799 13
1.354606 2.0939028 0.21483891 13
1.3528067 2.0903213 0.12848477 14
1.3439293 2.0758097 0.042496607 13
1.0248196 1.5798948 -0.49434459 3
1.1638216 1.7934988 -0.48476982 4
1.349076 2.0781896 -0.47373492 5
1.3549075 2.086375 -0.38795781 11
1.3672422 2.1045644 -0.30345502 12
1.35356 2.0827081 -0.21396768 11
1.3517505 2.0791297 -0.1275356 12
1.3482779 2.0729966 -0.042072024 11
1.3484271 2.0724344 0.65179914 11
1.3550735 2.0818546 0.56420028 12
1.3519766 2.076304 0.47373459 11
1.3578563 2.084538 0.38752994 12
1.3485039 2.0693908 0.2985799 13
1.3646272 2.0933344 0.21527469 13
1.3628227 2.0897689 0.12874645 14
1.3538984 2.0752928 0.042583872 12
1.0276859 1.5722651 -0.49305049 3
1.1700749 1.7894255 -0.48476982 4
1.3563221 2.0734677 -0.47373492 5
1.3648862 2.0857651 -0.38873994 10
1.3772982 2.1039312 -0.30406433 12
1.3635508 2.0821378 -0.21440347 10
1.3617361 2.0785754 -0.12779641 11
1.3582461 2.072459 -0.042158417 11
1.3583012 2.0717542 0.65309232 11
1.3650042 2.0811856 0.56532419 12
1.3619087 2.075676 0.47468778 11
1.3678343 2.0839143 0.38831124 12
1.358443 2.0688193 0.29918921 13
1.3746606 2.0927212 0.21571046 13
1.372851 2.0891719 0.12900813 14
1.3638805 2.0747316 0.042671129 13
1.0331678 1.5686682 -0.49305049 3
1.1763141 1.7853302 -0.48476982 3
1.3635516 2.0687206 -0.47373492 5
1.3748771 2.0851111 -0.38952214 11
1.3873667 2.1032536 -0.3046737 11
1.3735536 2.0815227 -0.21483923 10
1.3717343 2.0779762 -0.12805721 12
1.3682269 2.0718765 -0.042244807 11
1.368187 2.0710301 0.65438563 10
1.3722605 2.0764081 0.56532419 12
1.3718528 2.0750036 0.47564095 11
1.3778245 2.083246 0.38909256 12
1.3683947 2.0682037 0.29979858 12
1.3847064 2.0920637 0.21614625 13
1.3828919 2.0885301 0.12926981 14
1.3738751 2.074126 0.042758394 12
1.0386373 1.5650523 -0.49305049 3
1.1825389 1.7812132 -0.48476982 3
1.3707645 2.0639484 -0.47373492 4
1.3848799 2.0844126 -0.3903043 11
1.3974469 2.102531 -0.30528304 12
1.3835691 2.0808632 -0.21527502 11
1.3817446 2.077333 -0.12831803 12
1.3782202 2.0712502 -0.0423312 10
1.3780842 2.0702622 0.65567887 11
1.3822006 2.0756607 0.56644809 12
1.3818088 2.0742874 0.47659415 12
1.3878267 2.0825334 0.38987383 12
1.3783586 2.0675437 0.30040792 13
1.3947642 2.0913613 0.21658202 13
1.3929448 2.0878437 0.12953149 14
1.383882 2.0734758 0.042845655 13
1.044094 1.5614172 -0.49305049 3
1.1887493 1.7770745 -0.48476982 4
1.3779607 2.0591509 -0.47373492 5
1.3948947 2.0836694 -0.39108649 11
1.407539 2.1017637 -0.30589241 12
1.3935965 2.0801589 -0.21571079 10
1.3917675 2.0766449 -0.12857884 11
1.3910098 2.0747313 -0.042503979 11
1.3879927 2.0694504 0.65697211 11
1.3921522 2.0748689 0.567572 12
1.3917764 2.0735266 0.47754732 12
1.3978407 2.0817764 0.39065516 12
1.3883346 2.0668395 0.30101728 12
1.4048342 2.0906141 0.2170178 13
1.40301 2.0871127 0.12979317 14
1.3939012 2.0727811 0.04293292 13
1.0495379 1.5577632 -0.49305049 3
1.1922224 1.7688743 -0.48364502 3
1.3878841 2.0583982 -0.47468811 4
1.4049209 2.0828817 -0.39186865 10
1.4176428 2.1009514 -0.30650172 11
1.403636 2.0794103 -0.21614657 11
1.4018022 2.0759122 -0.12883966 11
1.4010419 2.0740058 -0.042590369 11
1.3979123 2.0685942 0.65826535 11
1.402115 2.074033 0.5686959 12
1.4017555 2.0727217 0.47850055 11
1.4078662 2.0809746 0.39143646 12
1.3983222 2.0660906 0.30162659 13
1.4149157 2.0898223 0.21745357 13
1.4130869 2.0863366 0.13005485 14
1.4039321 2.0720413 0.043020178 13
1.0549692 1.55409 -0.49305049 3
1.1983895 1.7647018 -0.48364502 3
1.3950609 2.0535412 -0.47468811 5
1.4149591 2.0820496 -0.39265084 11
1.427758 2.1000941 -0.30711108 12
1.4136871 2.0786169 -0.21658234 10
1.4118487 2.0751348 -0.12910046 11
1.411086 2.0732355 -0.042676758 10
1.4078428 2.0676947 0.65955865 10
1.4120888 2.073153 0.56981981 13
1.4117458 2.071872 0.47945368 12
1.4179034 2.0801284 0.39221779 12
1.4083216 2.0652971 0.30223596 13
1.4250089 2.0889854 0.21788937 13
1.4231755 2.0855157 0.13031653 14
1.4139751 2.0712571 0.043107443 12
1.0603875 1.5503981 -0.49305049 3
1.2017912 1.7564871 -0.48252031 4
1.4049928 2.0527091 -0.47564128 5
1.4277983 2.0852473 -0.39421517 11
1.4378846 2.0991919 -0.30772042 12
1.4265652 2.081887 -0.21745391 10
1.4219068 2.0743122 -0.12936127 12
1.4211416 2.0724204 -0.042763148 10
1.417784 2.0667505 0.66085184 10
1.4220737 2.0722284 0.57094371 12
1.4217476 2.0709782 0.48040691 12
1.4279515 2.0792372 0.39299908 12
1.4211427 2.0685494 0.30345467 12
1.4351132 2.0881033 0.21832512 13
1.4332753 2.0846496 0.1305782 13
1.4240295 2.0704277 0.043194704 13
1.0685333 1.5506641 -0.49434459 3
1.20515 1.7482702 -0.48139551 3
1.4149361 2.0518332 -0.47659451 5
1.4378728 2.0843155 -0.39499733 11
1.4480222 2.0982447 -0.30832979 12
1.4366536 2.0809939 -0.2178897 10
1.4319763 2.0734448 -0.12962207 12
1.4312087 2.0715601 -0.042849541 10
1.4277356 2.065762 0.66214514 10
1.43484 2.0752668 0.57319152 12
1.4317598 2.0700393 0.48136008 11
1.4380107 2.0783012 0.39378041 12
1.431179 2.0676565 0.30406398 12
1.4452289 2.0871761 0.21876092 13
1.4433867 2.0837386 0.13083988 13
1.4340954 2.0695536 0.043281965 13
1.0711854 1.5429574 -0.49305049 3
1.2084664 1.7400514 -0.4802708 3
1.4220897 2.0468817 -0.47659451 5
1.4479579 2.083339 -0.39577952 10
1.4581703 2.0972517 -0.30893913 12
1.4467529 2.0800555 -0.21832547 11
1.442057 2.0725322 -0.12988289 12
1.4412869 2.0706546 -0.042935926 10
1.4376979 2.0647297 0.66343844 10
1.44486 2.0742431 0.57431537 12
1.4445893 2.0730832 0.48326644 12
1.4480808 2.0773203 0.39456171 12
1.4412267 2.0667191 0.30467334 12
1.4553554 2.0862036 0.21919669 13
1.4535091 2.082782 0.13110156 13
1.4441725 2.068634 0.043369226 12
1.0765648 1.539209 -0.49305049 3
1.2145329 1.7358224 -0.4802708 3
1.4292259 2.0419052 -0.47659451 5
1.4580538 2.0823171 -0.39656168 11
1.4683297 2.0962138 -0.30954847 11
1.4597217 2.0831511 -0.21919702 10
1.4521489 2.0715747 -0.13014369 12
1.4513764 2.0697041 -0.04302232 10
1.4476701 2.0636523 0.66473162 10
1.4548904 2.073175 0.57543933 12
1.4546371 2.0720451 0.48421967 11
1.4581615 2.0762944 0.39534304 11
1.4512848 2.0657361 0.30528268 12
1.4654931 2.0851862 0.21963248 13
1.4607704 2.0776958 0.13110156 14
1.4542606 2.0676694 0.043456491 13
1.081931 1.5354416 -0.49305049 3
1.2233915 1.7355543 -0.48139551 3
1.4363449 2.0369036 -0.47659451 5
1.4681604 2.0812504 -0.39734387 10
1.4784992 2.0951304 -0.31015781 11
1.469857 2.0821121 -0.21963282 10
1.4622517 2.0705717 -0.1304045 12
1.4614767 2.0687084 -0.043108709 10
1.4576522 2.0625308 0.66602492 11
1.4649309 2.0720625 0.57656324 12
1.4646953 2.0709622 0.48517281 11
1.4682523 2.0752234 0.39612433 11
1.4613539 2.0647087 0.30589205 13
1.4756411 2.0841231 0.22006825 13
1.4709001 2.0766587 0.13136324 14
1.4643595 2.0666595 0.043543749 12
1.0872842 1.5316557 -0.49305049 3
1.2294422 1.7312733 -0.48139551 3
1.4434463 2.0318775 -0.47659451 5
1.4782771 2.0801382 -0.39812601 10
1.4915545 2.0980461 -0.31137651 11
1.4800026 2.0810277 -0.22006857 10
1.4723648 2.0695233 -0.1306653 11
1.4715879 2.0676672 -0.043195099 11
1.4704455 2.065299 0.66861141 10
1.4749811 2.0709043 0.57768714 12
1.4747635 2.0698342 0.48612604 11
1.478354 2.0741074 0.39690566 11
1.4714333 2.0636356 0.30650139 12
1.4857994 2.0830145 0.22050403 13
1.4810402 2.0755758 0.13162492 13
1.4744689 2.0656042 0.043631013 12
1.0926241 1.527851 -0.49305049 3
1.235478 1.7269713 -0.48139551 3
1.4505299 2.0268266 -0.47659451 5
1.4884039 2.0789812 -0.3989082 10
1.5017588 2.0968616 -0.31198588 12
1.4901587 2.0798979 -0.22050437 10
1.4824888 2.0684299 -0.13092612 11
1.4817094 2.0665808 -0.043281488 11
1.4804606 2.0640781 0.66990465 11
1.4850411 2.0697017 0.57881105 12
1.4848417 2.0686612 0.4870792 11
1.4913459 2.0769575 0.39846826 11
1.4815229 2.0625174 0.30711073 12
1.495968 2.0818603 0.2209398 13
1.4911907 2.0744479 0.1318866 13
1.4845891 2.0645037 0.043718275 12
1.0979506 1.5240277 -0.49305049 3
1.2414988 1.7226481 -0.48139551 3
1.4575962 2.0217509 -0.47659451 5
1.4985405 2.0777781 -0.39969036 11
1.5119725 2.0956314 -0.31259522 12
1.500325 2.0787227 -0.22094014 10
1.4926226 2.0672905 -0.13118692 11
1.4918413 2.0654488 -0.043367881 10
1.4904855 2.062813 0.67119795 10
1.4951109 2.0684538 0.57993495 12
1.4949297 2.0674431 0.4880324 11
1.5014811 2.0757403 0.39924955 11
1.4916228 2.0613539 0.30772007 12
1.5090674 2.0846953 0.22181135 13
1.5013515 2.0732744 0.13214828 13
1.4947193 2.0633576 0.04380554 12
1.1032637 1.5201859 -0.49305049 3
1.2475044 1.7183039 -0.48139551 4
1.4646444 2.0166507 -0.47659451 5
1.508687 2.07653 -0.40047255 10
1.5221962 2.0943551 -0.31320456 11
1.5105011 2.0775015 -0.22137593 10
1.502767 2.0661058 -0.13144773 11
1.5019833 2.064271 -0.043454267 10
1.500519 2.0615025 0.67249113 11
1.5051899 2.0671611 0.58105886 12
1.5050273 2.0661795 0.48898563 12
1.5116259 2.0744779 0.40003088 11
1.5017326 2.0601451 0.30832943 12
1.5192699 2.0834398 0.22224714 13
1.5144646 2.0760887 0.13267164 14
1.5048596 2.0621657 0.043892797 13
1.1057131 1.5124267 -0.49175641 3
1.2534949 1.713939 -0.48139551 4
1.4716749 2.0115259 -0.47659451 5
1.5217595 2.0792215 -0.40203691 11
1.5353612 2.0970376 -0.31442326 11
1.5206867 2.0762346 -0.2218117 10
1.5129209 2.0648754 -0.13170855 11
1.5150906 2.0670798 -0.04362705 10
1.5105621 2.0601473 0.67378443 11
1.5181596 2.0697515 0.58330667 12
1.515134 2.0648708 0.4899388 12
1.5217805 2.0731699 0.40081221 11
1.5118518 2.0588903 0.30893877 11
1.5294819 2.0821378 0.22268291 12
1.5246589 2.0748131 0.13293332 13
1.5150098 2.0609281 0.043980062 13
1.1109858 1.5085578 -0.49175641 3
1.25947 1.709553 -0.48139551 4
1.4786875 2.0063765 -0.47659451 5
1.5319388 2.0778718 -0.4028191 10
1.5456175 2.0956593 -0.3150326 11
1.5308821 2.0749218 -0.22224748 10
1.5230845 2.0635993 -0.13196936 11
1.5252662 2.0658002 -0.043713439 10
1.523483 2.0626318 0.67637092 11
1.5282704 2.0683577 0.58443058 12
1.5252501 2.0635166 0.49089199 11
1.5319439 2.0718162 0.40159351 11
1.524932 2.0615804 0.31015745 12
1.5397036 2.0807903 0.22311871 13
1.5348629 2.0734916 0.133195 13
1.5251695 2.0596447 0.044067323 12
1.1162448 1.5046706 -0.49175641 3
1.2654297 1.7051461 -0.48139551 4
1.4856821 2.0012028 -0.47659451 4
1.5421269 2.0764761 -0.40360126 10
1.5558829 2.0942347 -0.31564194 11
1.5410868 2.0735631 -0.22268325 10
1.5332577 2.0622771 -0.13223016 11
1.5354514 2.0644751 -0.043799829 11
1.5335568 2.0611763 0.67766416 10
1.5412989 2.0708272 0.58667839 12
1.5353751 2.0621166 0.49184516 12
1.5450667 2.0743773 0.40315613 11
1.5350841 2.0602243 0.31076682 12
1.5499343 2.0793967 0.22355449 13
1.5450761 2.0721242 0.13345668 13
1.5353388 2.0583158 0.044154584 13
1.1243813 1.5046338 -0.49305049 3
1.2713741 1.7007186 -0.48139551 4
1.4926585 1.9960045 -0.47659451 5
1.5523241 2.0750349 -0.40438342 10
1.5661572 2.0927644 -0.31625131 12
1.5513005 2.0721583 -0.22311905 10
1.5434402 2.060909 -0.13249098 12
1.5426484 2.0591025 -0.043799829 10
1.5436388 2.0596755 0.67895746 11
1.5514405 2.0693326 0.58780229 12
1.5455089 2.0606713 0.49279836 12
1.5552621 2.0729218 0.40393746 12
1.5452453 2.0588222 0.31137615 12
1.560174 2.0779572 0.22399026 12
1.5552984 2.0707107 0.13371836 13
1.5455173 2.0569406 0.044241846 12
1.1296266 1.5006996 -0.49305049 3
1.2773029 1.6962702 -0.48139551 4
1.5025698 1.9947023 -0.47754765 5
1.5655019 2.0774918 -0.40594777 11
1.5764399 2.0912476 -0.31686065 11
1.5615237 2.070708 -0.22355483 10
1.5536318 2.059495 -0.13275178 11
1.5528381 2.0576959 -0.043886222 11
1.5537291 2.0581291 0.68025064 11
1.5615906 2.0677922 0.5889262 12
1.5586098 2.0630968 0.49470475 11
1.5684439 2.0753603 0.40550008 12
1.5554154 2.0573747 0.31198549 12
1.573427 2.0804439 0.22486182 13
1.5685424 2.0732331 0.13424173 13
1.5587218 2.0595057 0.044416368 12
1.1406941 1.5044444 -0.4956387 3
1.2802721 1.6879197 -0.4802708 4
1.5095235 1.9894452 -0.47754765 4
1.5757298 2.075948 -0.40672994 10
1.5867316 2.0896845 -0.31747001 11
1.5717548 2.069211 -0.2239906 10
1.5668532 2.0620105 -0.13327339 11
1.5630366 2.0562427 -0.043972608 10
1.5638273 2.0565379 0.68154395 10
1.5717487 2.0662065 0.5900501 12
1.5687741 2.0615494 0.49565789 11
1.5786698 2.0738022 0.40628135 12
1.5686009 2.0598292 0.3132042 13
1.583698 2.0789013 0.2252976 13
1.5787961 2.0717165 0.13450339 13
1.5689324 2.058028 0.044503633 12
1.1342131 1.4851005 -0.4904623 3
1.2861562 1.6834404 -0.4802708 4
1.5194393 1.9880636 -0.47850087 4
1.5859661 2.0743582 -0.40751213 11
1.597031 2.0880749 -0.31807932 12
1.581995 2.067668 -0.22442639 11
1.5770762 2.0604939 -0.13353421 12
1.5762831 2.058713 -0.04414539 11
1.5768702 2.0587351 0.68413043 11
1.584878 2.0684421 0.59229791 12
1.5789468 2.0599563 0.49661112 11
1.5889044 2.0721984 0.40706271 11
1.578802 2.058279 0.31381357 12
1.5970094 2.081264 0.22616915 13
1.5890585 2.0701537 0.13476509 13
1.5821961 2.0604692 0.044678159 12
1.1364454 1.4773043 -0.48916823 3
1.2860823 1.6712188 -0.47802129 4
1.5293638 1.986637 -0.47945404 4
1.5962105 2.0727222 -0.40829429 11
1.6103673 2.0903504 -0.31929803 11
1.5952839 2.0700238 -0.22529794 10
1.5873079 2.0589309 -0.13379502 12
1.5865128 2.0571568 -0.04423178 11
1.5869973 2.0570426 0.68542367 11
1.5950652 2.0667541 0.59342182 12
1.5891273 2.0583174 0.49756429 12
1.6021652 2.0744565 0.4086253 11
1.5859772 2.0527556 0.31381357 13
1.6073108 2.0796175 0.22660492 13
1.5993292 2.0685444 0.13502677 13
1.5924375 2.0588882 0.04476542 12
1.1415952 1.4733284 -0.48916823 3
1.2978773 1.6744205 -0.4802708 4
1.5392969 1.9851652 -0.48040724 4
1.6064627 2.0710399 -0.40907648 10
1.6206967 2.0886374 -0.3199074 11
1.6024997 2.0644424 -0.22529794 10
1.5975475 2.0573213 -0.13405582 11
1.593684 2.0516064 -0.04423178 10
1.5971315 2.0553041 0.68671691 11
1.6052599 2.0650203 0.59454572 12
1.6023287 2.0605071 0.49947065 11
1.612429 2.0727491 0.4094066 10
1.5961807 2.0511234 0.31442288 12
1.6176199 2.0779247 0.22704072 12
1.6096079 2.0668886 0.13528845 14
1.6057591 2.0612044 0.044939946 13
nan nan nan 0
1.3037143 1.6698799 -0.4802708 3
1.5522592 1.9875166 -0.48231363 4
1.6167227 2.0693111 -0.40985861 11
1.6310333 2.0868771 -0.32051674 11
1.6158323 2.0666842 -0.22616951 11
1.6077956 2.0556655 -0.13431664 12
1.6039163 2.0499682 -0.044318173 10
1.6102499 2.0573232 0.68930346 10
1.6154618 2.0632403 0.59566957 12
1.6125379 2.0587654 0.50042385 11
1.6257463 2.074883 0.41096923 12
1.6063923 2.0494452 0.31503224 12
1.6279367 2.076185 0.22747648 13
1.6229762 2.0691149 0.13581181 13
1.6160306 2.0595195 0.045027204 11
nan nan nan 0
1.3095354 1.6653188 -0.4802708 4
1.5349103 1.9512243 -0.47468811 4
1.630044 2.0714169 -0.41142297 11
1.6444476 2.0889702 -0.32173541 9
1.6168731 2.0532048 -0.22529794 10
1.6149614 2.0500407 -0.13431664 11
1.607968 2.0404305 -0.04423178 12
1.6204115 2.0554826 0.69059664 11
1.628688 2.0652399 0.59791738 11
1.6227545 2.0569775 0.50137705 11
1.6360387 2.0730722 0.41175056 10
1.6104612 2.0399301 0.31442288 12
1.6413481 2.0783076 0.22834805 13
1.6332842 2.0673552 0.13607349 12
1.6263095 2.0577884 0.045114469 14
nan nan nan 0
nan nan nan 0
1.5782894 1.9920201 -0.48612636 3
1.6403322 2.0695846 -0.41220516 11
1.6578958 2.0909946 -0.32295412 11
1.6395067 2.0670605 -0.22747684 9
1.6221075 2.0443909 -0.13431664 11
1.6368369 2.0622153 -0.044836514 10
1.6305802 2.0535967 0.69188994 10
1.6389173 2.0633571 0.59904134 12
1.6329784 2.0551436 0.50233024 10
1.6494111 2.0750806 0.41331318 10
1.6237495 2.0420649 0.31564158 13
1.6485928 2.0725656 0.22834805 13
1.6435996 2.0655484 0.13633516 14
1.6334827 2.052099 0.045114469 11
nan nan nan 0
nan nan nan 0
1.6097254 2.0171905 -0.49375188 3
1.6506273 2.0677056 -0.41298732 11
1.6682814 2.0890727 -0.32356349 11
1.6591476 2.0768917 -0.22921994 11
1.6417027 2.0543189 -0.13535988 9
1.65339 2.0682034 -0.045095682 10
1.6467882 2.0592084 0.69576973 10
1.6552404 2.069037 0.602413 11
1.6493427 2.0609272 0.50518978 11
1.6659036 2.0808764 0.41565707 12
1.6370721 2.0441315 0.31686029 11
1.6558174 2.0667984 0.22834805 12
1.6632903 2.0753837 0.13738188 12
1.6593984 2.0697873 0.04563804 14
nan nan nan 0
nan nan nan 0
nan nan nan 0
1.6547405 2.0580826 -0.41220516 11
1.6848946 2.0948379 -0.3253915 11
1.6819994 2.0904913 -0.23139885 11
1.6676482 2.071914 -0.13692473 10
1.6794111 2.0857828 -0.045614023 9
1.6721443 2.0760162 0.70352924 10
1.6746799 2.0784216 0.60690868 10
1.6719278 2.0742648 0.50995576 12
1.6793569 2.0827374 0.4172197 19
1.6691234 2.0693069 0.32173505 12
1.6880447 2.0920172 0.23183426 12
1.6862053 2.0889916 0.13869028 15
1.6854573 2.0873194 0.046161614 26
nan nan nan 0
1.3541117 1.673383 -0.48814404 3
1.6083276 1.9868284 -0.48898596 3
1.6898851 2.0868349 -0.41924468 11
1.7015681 2.1005125 -0.32721955 13
1.7018304 2.1000867 -0.23314197 23
1.6937364 2.0893531 -0.13848959 15
1.7118721 2.1109717 -0.046305142 22
1.6945947 2.0889208 0.70999545 20
1.6972749 2.0914786 0.6125282 22
1.6915325 2.0836589 0.51376849 27
1.6928433 2.0845301 0.41878232 27
1.7044994 2.0981345 0.32721916 25
1.711044 2.1054394 0.23401317 29
1.7060859 2.0985904 0.139737 27
1.7148129 2.108573 0.046772443 70
nan nan nan 0
1.3599446 1.6686461 -0.48814404 4
1.5997454 1.9621812 -0.48422 4
1.7065232 2.0924044 -0.42159122 12
1.7214391 2.1099412 -0.32965693 13
1.7217486 2.1095691 -0.23488508 23
1.7231245 2.1105027 -0.14031525 29
1.7223929 2.1088552 -0.046391536 26
1.7202113 2.1054339 0.71775496 31
1.7168982 2.1006305 0.61702383 31
1.7174364 2.1005409 0.51948762 29
1.7094895 2.0900764 0.42112628 23
1.70867 2.088331 0.32660982 31
1.7341571 2.1187265 0.23619208 29
1.7323806 2.1158025 0.14130709 28
1.7221626 2.1025743 0.046772443 16
nan nan nan 0
1.3503059 1.6450602 -0.48252031 4
1.6065848 1.9565852 -0.48422 4
1.7294894 2.1055155 -0.42550209 15
1.7382457 2.1154227 -0.331485 16
1.7354276 2.1112416 -0.23575665 23
1.7273096 2.1006184 -0.14005443 27
1.7297437 2.1028302 -0.046391536 21
1.7214123 2.0919573 0.71516848 23
1.7273169 2.0983865 0.61814773 24
1.7216383 2.0907443 0.51853442 16
1.7230549 2.0917203 0.4226889 17
1.7317296 2.1015036 0.32965657 26
1.7415422 2.1126604 0.23619208 18
1.7365786 2.10589 0.14104539 27
1.7294915 2.0965502 0.046772443 23
nan nan nan 0
1.3436235 1.6253171 -0.47802129 4
1.6102767 1.9471825 -0.4832668 4
1.746272 2.1108809 -0.42784861 13
1.7582752 2.1246352 -0.33392239 15
1.7459631 2.1090081 -0.23619244 16
1.7378165 2.0984216 -0.14031525 22
1.7402629 2.1006291 -0.046477929 16
1.731786 2.0896547 0.71646172 19
1.7315214 2.088593 0.61702383 19
1.7320591 2.0884998 0.51948762 16
1.7366524 2.0932946 0.4242515 17
1.7390546 2.0954459 0.32965657 22
1.7520878 2.1104004 0.23662783 17
1.743919 2.0998154 0.14104539 18
1.739994 2.0943456 0.046859708 14
nan nan nan 0
nan nan nan 0
1.6421934 1.971722 -0.49089235 4
1.7599521 2.1123607 -0.42941296 16
1.775213 2.1299212 -0.3357504 17
1.7596937 2.1105521 -0.23706399 15
1.7483289 2.0961773 -0.14057605 14
1.7539903 2.1022189 -0.046650708 16
1.7390697 2.0835967 0.71646172 14
1.7388012 2.0825365 0.61702383 18
1.7393388 2.0824411 0.51948762 14
1.7502818 2.0947995 0.42581412 16
1.7495412 2.0931706 0.33026591 18
1.7626388 2.108093 0.23706363 12
1.7480347 2.0898852 0.14078373 17
1.7505025 2.0920935 0.046946973 15
nan nan nan 0
nan nan nan 0
1.6648377 1.9847801 -0.49565825 3
1.7736636 2.1137705 -0.43097728 17
1.7890183 2.131314 -0.33696911 17
1.7702532 2.108211 -0.23749976 16
1.7620583 2.0977082 -0.14109766 14
1.76775 2.1037385 -0.04682349 16
1.74944 2.0812109 0.71775496 12
1.7429247 2.0727253 0.61589992 14
1.7497568 2.0801129 0.52044082 12
1.7671225 2.1000133 0.42815807 11
1.763229 2.0946441 0.33148462 16
1.7764037 2.1095476 0.23793519 17
1.7553191 2.0837708 0.14078373 16
1.7642374 2.093616 0.047121495 11
nan nan nan 0
1.3794295 1.633491 -0.48476982 3
1.6812583 1.9902054 -0.49851784 4
