# .PCD v0.7 - Point Cloud Data file format
VERSION 0.7
FIELDS x y z intensity
SIZE 4 4 4 4
TYPE F F F F
COUNT 1 1 1 1
WIDTH 1338
HEIGHT 1
VIEWPOINT 0 0 0 1 0 0 0
POINTS 1338
DATA ascii
-1.1214075 2.2152033 0.042671129 12
-0.88827479 1.7584846 -0.51763833 3
-1.0075681 1.9955106 -0.50726491 5
-1.1362603 2.2513649 -0.48231363 15
-1.1271662 2.2343152 -0.3903043 11
-1.1389369 2.2586279 -0.30589241 13
-1.1269709 2.2358689 -0.21571079 13
-1.1225624 2.22809 -0.12831803 15
-1.121266 2.2264838 -0.042417586 12
-1.1269126 2.2386684 0.66085184 13
-1.1296428 2.2450681 0.57094371 10
-1.1331159 2.2529495 0.48231328 7
-1.1307306 2.2491848 0.39221779 7
-1.1157273 2.2203066 0.30040792 8
-1.1305553 2.2507935 0.2170178 11
-1.1261613 2.243022 0.12953149 13
-1.1114258 2.2146363 0.042583872 13
-0.87996858 1.7572562 -0.51634425 3
-1.0027771 2.0033724 -0.50838971 6
-1.1261984 2.2509279 -0.48136041 14
-1.1171511 2.2338192 -0.38952214 11
-1.1288267 2.2581506 -0.30528304 13
-1.1169331 2.2353334 -0.21527502 13
-1.112547 2.2275279 -0.12805721 14
-1.1112543 2.2259116 -0.0423312 11
-1.1190912 2.2425885 0.66085184 14
-1.1196246 2.244638 0.56981981 10
-1.1208645 2.2481058 0.48040691 8
-1.1206697 2.248698 0.39143646 6
-1.1057575 2.2197459 0.29979858 7
-1.1204714 2.2502673 0.21658202 11
-1.1183249 2.2469392 0.12953149 14
-1.1014618 2.2140265 0.042496607 13
-0.87382925 1.7603171 -0.51634425 4
-0.9957779 2.0068605 -0.50838971 6
-1.1161535 2.2504482 -0.48040724 13
-1.1071533 2.2332807 -0.38873994 11
-1.118734 2.2576306 -0.3046737 13
-1.1069127 2.2347553 -0.21483923 13
-1.1025492 2.226923 -0.12779641 14
-1.1012603 2.2252963 -0.042244807 12
-1.1091149 2.2421522 0.65955865 13
-1.1096231 2.2441649 0.5686959 11
-1.1108354 2.2476044 0.47945368 8
-1.1106262 2.2481685 0.39065516 6
-1.0958049 2.2191422 0.29918921 7
-1.1104052 2.2496984 0.21614625 11
-1.1082658 2.2463517 0.12926981 13
-1.0937268 2.2178578 0.042496607 12
-0.86767924 1.7633567 -0.51634425 3
-0.98876655 2.010324 -0.50838971 5
-1.1039602 2.2455211 -0.47850087 12
-1.097173 2.2326994 -0.38795781 11
-1.1086586 2.2570674 -0.30406433 14
-1.09691 2.2341344 -0.21440347 13
-1.0925692 2.2262754 -0.1275356 14
-1.0912843 2.2246387 -0.042158417 12
-1.0991551 2.2416732 0.65826535 14
-1.0996386 2.2436497 0.567572 11
-1.1008239 2.2470605 0.47850055 8
-1.1005998 2.247596 0.38987383 6
-1.0858704 2.2184966 0.2985799 7
-1.1003565 2.2490866 0.21571046 11
-1.0982242 2.2457209 0.12900813 13
-1.0837828 2.2171705 0.042409342 12
-0.86151874 1.7663747 -0.51634425 3
-0.98174322 2.0137634 -0.50838971 5
-1.0939651 2.2449484 -0.47754765 12
-1.0872101 2.2320759 -0.38717562 11
-1.0986009 2.2564616 -0.30345502 13
-1.086925 2.2334709 -0.21396768 13
-1.0826074 2.2255857 -0.1272748 14
-1.0813261 2.2239385 -0.042072024 12
-1.0892124 2.2411525 0.65697211 14
-1.0896713 2.2430923 0.56644809 11
-1.0908295 2.246474 0.47754732 8
-1.0905912 2.2469814 0.38909256 6
-1.0759536 2.2178082 0.29797053 6
-1.0903257 2.2484319 0.21527469 10
-1.0882006 2.2450476 0.12874645 13
-1.0738571 2.2164414 0.042322084 13
-0.85534763 1.7693712 -0.51634425 3
-0.97258812 2.0127912 -0.50726491 4
-1.0839874 2.244334 -0.47659451 13
-1.077265 2.2314103 -0.38639346 10
-1.0885607 2.2558134 -0.30284566 13
-1.0769583 2.232765 -0.21353191 13
-1.0726634 2.2248533 -0.12701398 14
-1.0713861 2.2231958 -0.041985635 11
-1.0792866 2.2405896 0.65567887 14
-1.0776075 2.2381029 0.56420028 12
-1.0808526 2.2458453 0.47659415 9
-1.0806003 2.2463243 0.38831124 6
-1.0660548 2.217078 0.2973612 6
-1.0803127 2.2477348 0.21483891 10
-1.076033 2.2398312 0.12822309 12
-1.0639496 2.2156696 0.042234819 12
-0.84916621 1.772346 -0.51634425 3
-0.96555626 2.0161738 -0.50726491 4
-1.0740272 2.2436767 -0.47564128 12
-1.0673379 2.2307022 -0.38561127 11
-1.0785387 2.2551224 -0.30223632 14
-1.0670096 2.2320168 -0.21309611 13
-1.0627379 2.2240787 -0.12675317 14
-1.0614647 2.2224109 -0.041899245 11
-1.0693781 2.2399848 0.65438563 15
-1.0676904 2.2374537 0.56307638 12
-1.0708934 2.2451744 0.47564095 9
-1.0706272 2.2456245 0.38752994 6
-1.0561744 2.2163057 0.29675183 6
-1.0703182 2.2469952 0.21440314 10
-1.0660614 2.2390652 0.12796141 13
-1.0519124 2.2103419 0.042060297 12
-0.84297436 1.7752995 -0.51634425 3
-0.9585126 2.019532 -0.50726491 5
-1.064085 2.2429776 -0.47468811 12
-1.057429 2.2299523 -0.3848291 12
-1.0685346 2.2543888 -0.30162695 13
-1.0570794 2.2312264 -0.21266034 13
-1.0528309 2.2232621 -0.12649237 14
-1.0515616 2.2215838 -0.041812852 12
-1.059487 2.2393379 0.65309232 14
-1.0577908 2.2367625 0.56195247 12
-1.0609522 2.2444613 0.47468778 9
-1.0606722 2.2448828 0.38674861 6
-1.0463122 2.2154913 0.29614249 6
-1.0603418 2.2462132 0.21396735 9
-1.0561084 2.2382569 0.12769973 13
-1.0420581 2.2094789 0.041973036 11
-0.83677226 1.7782311 -0.51634425 3
-0.95145732 2.0228655 -0.50726491 4
-1.0541607 2.2422364 -0.47373492 12
-1.047538 2.2291601 -0.38404691 11
-1.0606589 2.258105 -0.30162695 13
-1.0471677 2.2303939 -0.21222456 13
-1.0429426 2.2224033 -0.12623155 14
-1.0416775 2.220715 -0.041726466 12
-1.0496134 2.2386496 0.65179914 15
-1.047909 2.2360296 0.56082857 12
-1.0510291 2.2437062 0.47373459 10
-1.0507355 2.2440991 0.38596731 5
-1.0364687 2.2146354 0.29553315 5
-1.0503842 2.2453892 0.21353158 9
-1.046174 2.2374067 0.12743805 13
-1.0322224 2.2085736 0.041885771 12
-0.83056003 1.7811413 -0.51634425 3
-0.94439042 2.0261745 -0.50726491 4
-1.0442547 2.2414534 -0.47278175 13
-1.0376657 2.2283263 -0.38326478 10
-1.0506761 2.2572944 -0.30101761 13
-1.0372745 2.2295194 -0.21178877 12
-1.0351787 2.2260303 -0.12623155 14
-1.031812 2.219804 -0.041640073 11
-1.0397576 2.2379196 0.65050584 15
-1.0380454 2.2352555 0.55970466 13
-1.0411241 2.2429094 0.47278142 10
-1.0408171 2.243273 0.38518599 5
-1.026644 2.2137377 0.29492378 6
-1.04254 2.249042 0.21353158 9
-1.0362585 2.2365143 0.12717636 12
-1.0224059 2.2076268 0.04179851 13
-0.8243376 1.7840295 -0.51634425 3
-0.93935484 2.0338817 -0.50838971 4
-1.034367 2.2406285 -0.47182852 13
-1.0278121 2.2274508 -0.38248259 11
-1.0407116 2.2564416 -0.30040827 13
-1.0274004 2.2286034 -0.211353 12
-1.0253124 2.2250953 -0.12597075 14
-1.0219659 2.2188513 -0.041553684 11
-1.0299197 2.2371483 0.64921266 15
-1.0302367 2.2388651 0.55970466 13
-1.0312375 2.2420704 0.47182819 10
-1.0309175 2.2424059 0.38440469 5
-1.0168382 2.2127986 0.29431444 5
-1.0326039 2.2481413 0.21309578 9
-1.0284454 2.240118 0.12717636 13
-1.0126084 2.2066383 0.041711248 11
-0.81980294 1.7914306 -0.51763833 3
-0.93392038 2.0417411 -0.50951445 5
-1.0241067 2.2399406 -0.47087535 14
-1.0175885 2.2267113 -0.38170043 12
-1.0303725 2.2557268 -0.29979894 13
-1.0171565 2.2278228 -0.2109172 12
-1.0150771 2.2242959 -0.12570994 13
-1.0117518 2.218034 -0.041467294 11
-1.0177059 2.2321188 0.64662611 15
-1.0200034 2.2381928 0.55858076 13
-1.0209783 2.2413685 0.47087502 11
-1.0185989 2.23718 0.38284209 5
-1.0066653 2.2119935 0.29370511 5
-1.0243571 2.2519107 0.21309578 9
-1.0181613 2.239327 0.12691469 12
-1.0024457 2.2057841 0.041623987 12
-0.81354475 1.7942812 -0.51763833 3
-0.92678767 2.0449886 -0.50951445 6
-1.0142565 2.2390308 -0.46992216 13
-1.0077727 2.2257509 -0.38091823 11
-1.0224923 2.2593098 -0.29979894 13
-1.0073209 2.2268217 -0.21048145 12
-1.0052495 2.2232759 -0.12544914 14
-1.0019444 2.2169967 -0.041380905 11
-1.0079199 2.231256 0.64533287 12
-1.0101795 2.2372992 0.55745685 14
-1.0091102 2.2359712 0.46896866 12
-1.0087528 2.2362201 0.38206074 6
-0.99689811 2.2109699 0.29309577 5
-1.0144436 2.2509315 0.21266001 9
-1.0082875 2.2383149 0.126653 12
-0.99268132 2.2047141 0.041536722 11
-0.80727661 1.7971102 -0.51763833 3
-0.91764826 2.0437672 -0.50838971 6
-1.0044249 2.2380795 -0.46896899 12
-0.99797583 2.2247491 -0.38013604 11
-1.0125691 2.2583365 -0.29918957 14
-0.99750465 2.2257788 -0.21004565 12
-0.99544144 2.2222142 -0.12518832 13
-0.99215657 2.2159176 -0.041294511 11
-0.9981522 2.2303522 0.64403963 13
-1.0003743 2.2363644 0.55633295 14
-0.99929565 2.2349992 0.46801546 12
-0.99892575 2.2352188 0.38127947 6
-0.99727052 2.2325609 0.29553315 5
-1.0065802 2.2544589 0.21266001 9
-0.99843341 2.2372613 0.12639134 12
-0.98294896 2.2035973 0.041449465 11
-0.80099857 1.7999172 -0.51763833 3
-0.90852845 2.0425065 -0.50726491 5
-0.99461234 2.237087 -0.46801579 12
-0.98819846 2.2237062 -0.37935388 11
-1.0026654 2.2573223 -0.29858023 13
-0.98972911 2.2292471 -0.21004565 12
-0.9856531 2.2211118 -0.12492751 14
-0.9823885 2.2147975 -0.041208126 11
-0.98644572 2.2249923 0.64145315 11
-0.99058813 2.2353885 0.55520904 14
-0.98950011 2.2339859 0.46706229 13
-0.98911804 2.2341762 0.38049814 6
-0.99147952 2.2405667 0.29614249 12
-0.99668974 2.2534034 0.21222423 8
-0.98859894 2.236166 0.12612964 12
-0.97525096 2.207015 0.041449465 11
-0.79471081 1.8027022 -0.51763833 3
-0.90139329 2.0456653 -0.50726491 5
-0.98481905 2.2360535 -0.46706262 12
-0.98043036 2.2271423 -0.37935388 11
-0.99078226 2.2517235 -0.29736155 13
-0.9799363 2.2281289 -0.20960988 12
-0.97588456 2.2199674 -0.1246667 14
-0.97264034 2.2136362 -0.041121732 11
-0.97673088 2.2239995 0.64015985 12
-0.98082066 2.2343712 0.55408514 14
-0.97972393 2.2329316 0.46610907 12
-0.97932971 2.2330923 0.37971681 6
-0.98962963 2.2576497 0.29797053 12
-0.98681885 2.2523065 0.21178845 8
-0.9787842 2.2350292 0.12586798 11
-0.96553636 2.205826 0.0413622 11
-0.79034609 1.8098912 -0.5189324 3
-0.89229828 2.0443344 -0.50614017 6
-0.97504503 2.2349784 -0.4661094 12
-0.97067624 2.2260244 -0.37857169 11
-0.98093343 2.2506187 -0.29675218 13
-0.97016335 2.2269692 -0.2091741 12
-0.96613616 2.2187827 -0.1244059 13
-0.96291238 2.2124341 -0.041035343 11
-0.96703506 2.2229667 0.6388666 13
-0.97107261 2.2333136 0.55296123 14
-0.96801078 2.2273347 0.4642027 13
-0.96956116 2.2319677 0.37893552 6
-0.98174298 2.2610905 0.29797053 12
-0.97696793 2.2511683 0.21135268 7
-0.96898943 2.2338514 0.12560628 12
-0.95584214 2.2045965 0.041274939 11
-0.78594095 1.8170719 -0.52022654 3
-0.88515681 2.0474367 -0.50614017 10
-0.96529073 2.2338629 -0.46515623 12
-0.96094197 2.2248654 -0.37778956 11
-0.97110426 2.2494729 -0.29614282 13
-0.96041048 2.225769 -0.20873833 12
-0.95640773 2.2175565 -0.12414508 13
-0.95320457 2.2111907 -0.040948953 11
-0.95735824 2.2218928 0.63757336 12
-0.96134388 2.2322149 0.55183733 14
-0.95828938 2.2261918 0.46324947 14
-0.9598124 2.2308021 0.37815419 7
-0.97188377 2.2599447 0.2973612 11
-0.96910387 2.2545648 0.21135268 7
-0.95921504 2.2326329 0.12534462 11
-0.94616824 2.203326 0.041187678 11
-0.77959335 1.8198043 -0.52022654 3
-0.87800455 2.050514 -0.50614017 13
-0.95555598 2.2327063 -0.46420303 12
-0.95316988 2.2282062 -0.37778956 11
-0.96129519 2.2482858 -0.29553348 13
-0.95263523 2.2291079 -0.20873833 12
-0.94669986 2.2162898 -0.12388428 13
-0.94351745 2.2099073 -0.040862564 11
-0.94770098 2.2207789 0.63628012 13
-0.95163465 2.2310755 0.55071342 15
-0.94858772 2.2250082 0.46229634 10
-0.95008361 2.2295954 0.37737289 6
-0.96204448 2.2587576 0.29675183 12
-0.95927709 2.253351 0.21091689 7
-0.9494608 2.2313731 0.12508292 12
-0.93847144 2.2066152 0.041187678 11
-0.77323633 1.8225144 -0.52022654 3
-0.86703753 2.0445957 -0.50389069 15
-0.94584095 2.231509 -0.4632498 12
-0.94345969 2.2269726 -0.37700737 12
-0.95150626 2.2470577 -0.29492414 13
-0.94290698 2.2278326 -0.20830254 12
-0.93701231 2.214982 -0.12362346 13
-0.93579763 2.2131872 -0.040862564 10
-0.93806303 2.2196248 0.63498682 13
-0.94004935 2.2254078 0.54846561 15
-0.93890601 2.223784 0.46134311 11
-0.94037491 2.2283483 0.37659156 7
-0.95029658 2.2529566 0.29553315 11
-0.94947052 2.2520959 0.21048112 7
-0.94166607 2.2346735 0.12508292 11
-0.9288227 2.2052705 0.041100416 11
-0.76686984 1.8252025 -0.52022654 3
-0.85612255 2.0386262 -0.50164115 10
-0.93614614 2.2302713 -0.46229663 11
-0.93376982 2.2256985 -0.3762252 11
-0.94173765 2.2457888 -0.2943148 13
-0.93319935 2.2265167 -0.20786677 12
-0.92927486 2.2182393 -0.12362346 13
-0.9261356 2.2118287 -0.040776171 11
-0.93030941 2.2228856 0.63498682 13
-0.93039525 2.2241807 0.5473417 12
-0.92924458 2.2225196 0.46038994 11
-0.93068665 2.2270608 0.37581027 7
-0.94051373 2.2516809 0.29492378 12
-0.93968445 2.2507997 0.21004534 7
-0.93193704 2.2333388 0.12482125 10
-0.91919482 2.2038851 0.041013151 11
-0.76049399 1.8278682 -0.52022654 3
-0.84338915 2.0281067 -0.49826688 7
-0.92647147 2.2289929 -0.46134344 12
-0.92220587 2.2198234 -0.37466085 11
-0.93198943 2.2444789 -0.29370543 13
-0.92351216 2.2251599 -0.20743097 12
-0.91961294 2.2168577 -0.12336266 13
-0.91649455 2.2104301 -0.040689785 11
-0.9206953 2.2216575 0.63369364 13
-0.92076123 2.2229137 0.5462178 12
-0.91960323 2.2212145 0.45943674 11
-0.92101866 2.2257323 0.37502894 7
-0.92885464 2.2457778 0.29370511 10
-0.92991912 2.2494631 0.20960957 7
-0.92222869 2.2319636 0.12455957 11
-0.91149622 2.2070804 0.041013151 11
-0.75410891 1.8305116 -0.52022654 3
-0.83444971 2.0265338 -0.49714214 5
-0.91681719 2.2276745 -0.46039027 11
-0.9125728 2.2184615 -0.37387866 11
-0.92414904 2.2477186 -0.29370543 13
-0.91384608 2.223763 -0.20699522 12
-0.90997183 2.2154353 -0.12310185 13
-0.90877306 2.2136159 -0.040689785 11
-0.9111011 2.2203896 0.63240033 13
-0.91114759 2.2216067 0.54509389 12
-0.90998256 2.2198696 0.45848358 11
-0.91137147 2.224364 0.37424764 8
-0.91724831 2.2398217 0.2924864 10
-0.92017448 2.2480857 0.20917377 6
-0.91254151 2.2305479 0.12429789 9
-0.90189439 2.2056212 0.04092589 10
-0.74589062 1.8286607 -0.5189324 3
-0.83656669 2.0519907 -0.50276589 4
-0.90718341 2.2263157 -0.45943707 12
-0.90296066 2.2170601 -0.3730965 11
-0.91442639 2.2463343 -0.2930961 12
-0.90420091 2.2223256 -0.20655942 12
-0.90035212 2.213973 -0.12284105 13
-0.89915806 2.2121432 -0.040603392 10
-0.90152717 2.2190819 0.63110709 13
-0.90155405 2.2202592 0.54396999 12
-0.90038228 2.2184844 0.45753035 12
-0.90174496 2.2229552 0.37346631 8
-0.9056949 2.2338116 0.29126769 11
-0.91045094 2.2466679 0.208738 6
-0.90287536 2.2290919 0.12403621 9
-0.89418983 2.208756 0.04092589 10
-0.73769438 1.8267752 -0.51763833 3
-0.83304572 2.0639338 -0.50501537 4
-0.89757025 2.2249172 -0.4584839 11
-0.89336932 2.2156181 -0.3723143 11
-0.90472454 2.2449095 -0.29248673 13
-0.89457703 2.2208483 -0.20612365 12
-0.89261842 2.2171023 -0.12284105 13
-0.8914308 2.2152684 -0.040603392 10
-0.89197332 2.2177341 0.62981385 13
-0.8919813 2.2188725 0.54284608 12
-0.89080298 2.2170596 0.45657721 12
-0.89213955 2.2215066 0.37268505 8
-0.89604336 2.2323539 0.29065838 12
-0.90260303 2.2498324 0.208738 6
-0.89508891 2.2322299 0.12403621 10
-0.88461453 2.2072232 0.040838629 10
-0.7295205 1.8248545 -0.51634425 3
-0.83125925 2.0804017 -0.50838971 4
-0.88979834 2.2280366 -0.4584839 11
-0.8837992 2.2141366 -0.37153217 11
-0.89504385 2.2434447 -0.29187742 12
-0.88497442 2.2193308 -0.20568787 12
-0.88302523 2.2155662 -0.12258023 13
-0.88184255 2.2137222 -0.040517002 10
-0.88243991 2.2163467 0.62852055 13
-0.88242906 2.2174459 0.54172218 12
-0.88124454 2.2155948 0.45562398 12
-0.88255519 2.2200181 0.37190372 9
-0.88641292 2.2308559 0.29004902 11
-0.89290553 2.2483397 0.20830221 6
-0.88544935 2.2306998 0.12377454 9
-0.87506104 2.205651 0.040751368 9
-0.72314614 1.8273898 -0.51634425 3
-0.82757592 2.0923512 -0.51063919 4
-0.88021117 2.2265644 -0.45753068 11
-0.87606502 2.2172081 -0.37153217 11
-0.8853845 2.2419393 -0.29126805 12
-0.87722212 2.2224061 -0.20568787 12
-0.87528604 2.2186351 -0.12258023 13
-0.87227589 2.212136 -0.040430613 10
-0.87292713 2.2149203 0.62722731 13
-0.8728978 2.2159796 0.54059827 12
-0.87170714 2.2140901 0.45467082 12
-0.8748005 2.2230852 0.37190372 10
-0.87680405 2.2293184 0.28943968 12
-0.88322973 2.2468073 0.20786645 5
-0.87583143 2.2291296 0.12351285 9
-0.86552912 2.2040386 0.040664103 10
-0.71644354 1.8300281 -0.51634425 3
-0.81635106 2.0862966 -0.50838971 4
-0.87025678 2.2252045 -0.45657751 12
-0.86613476 2.2158048 -0.37074998 11
-0.87535548 2.2405469 -0.29065871 12
-0.86725891 2.2209666 -0.2052521 12
-0.86533308 2.2171767 -0.12231942 13
-0.86416221 2.2153182 -0.040430613 10
-0.86304867 2.2136047 0.62593406 14
-0.86476994 2.2191639 0.54059827 13
-0.8618049 2.2126966 0.45371762 12
-0.86485505 2.2216742 0.37112242 10
-0.86682779 2.2278919 0.28883031 13
-0.87318355 2.2453871 0.20743066 5
-0.86584651 2.2276709 0.12325118 9
-0.85744506 2.2071962 0.040664103 10
-0.71005118 1.8325177 -0.51634425 3
-0.80730402 2.0845902 -0.50726491 4
-0.86071223 2.2236512 -0.45562431 11
-0.85661304 2.2142088 -0.36996782 11
-0.86752915 2.2435889 -0.29065871 12
-0.859501 2.2239804 -0.2052521 12
-0.85758841 2.2201838 -0.12231942 13
-0.85462356 2.2136576 -0.040344223 10
-0.85531646 2.2166038 0.62593406 13
-0.85526526 2.2176232 0.53947437 12
-0.85407591 2.2156913 0.45371762 13
-0.85531926 2.2200713 0.37034109 10
-0.85726237 2.2262731 0.288221 13
-0.86355132 2.243773 0.20699489 5
-0.85806525 2.2306798 0.12325118 8
-0.84793514 2.205512 0.040576845 9
-0.70365024 1.8349851 -0.51634425 3
-0.79827911 2.0828466 -0.50614017 5
-0.85118937 2.222059 -0.45467114 11
-0.84711301 2.2125735 -0.36918563 11
-0.85791862 2.2419684 -0.29004934 13
-0.84995323 2.2223148 -0.20481631 12
-0.84805036 2.2184999 -0.12205861 13
-0.84689122 2.2166274 -0.040344223 9
-0.84585094 2.215064 0.62464082 13
-0.84751904 2.2205951 0.53947437 13
-0.84458715 2.2140732 0.45276445 12
-0.84580523 2.2184291 0.36955979 10
-0.84771883 2.2246144 0.28761163 13
-0.85394096 2.2421188 0.20655911 5
-0.84849709 2.2289948 0.12298949 9
-0.8402375 2.208456 0.040576845 10
-0.69724059 1.8374301 -0.51634425 3
-0.79100376 2.0856204 -0.50614017 5
-0.84168786 2.2204266 -0.45371795 11
-0.83938456 2.215517 -0.36918563 11
-0.84833014 2.2403085 -0.28944001 12
-0.84042776 2.2206097 -0.20438054 12
-0.84030128 2.2214465 -0.12205861 13
-0.83738065 2.2148938 -0.04025783 10
-0.83640659 2.213485 0.62334752 14
-0.83804125 2.2189825 0.53835046 13
-0.83512002 2.2124157 0.45181125 13
-0.83631295 2.216747 0.36877847 10
-0.83819741 2.2229164 0.2870023 14
-0.84435272 2.2404249 0.20612334 5
-0.84071124 2.2319431 0.12298949 8
-0.83076197 2.206697 0.04048958 9
-0.68912482 1.8353313 -0.51505011 3
-0.78371871 2.0883689 -0.50614017 6
-0.83393198 2.2233512 -0.45371795 11
-0.82991236 2.2138093 -0.36840346 11
-0.83876354 2.2386086 -0.28883067 13
-0.83267128 2.2235298 -0.20438054 12
-0.83079153 2.2196898 -0.12179781 13
-0.8278926 2.2131212 -0.040171444 9
-0.82867497 2.2163911 0.62334752 14
-0.82858497 2.2173302 0.53722656 13
-0.82567495 2.2107196 0.45085809 13
-0.82857001 2.2196527 0.36877847 10
-0.82869804 2.221179 0.28639293 14
-0.83478671 2.2386913 0.20568755 5
-0.83117139 2.2301853 0.12272782 8
-0.82305413 2.2095833 0.04048958 8
-0.6827141 1.8377256 -0.51505011 4
-0.77642417 2.0910919 -0.50614017 5
-0.82445836 2.2216473 -0.45276478 12
-0.82046217 2.2120624 -0.36762127 11
-0.82921922 2.2368696 -0.28822133 13
-0.82317406 2.2217522 -0.20394474 12
-0.82130432 2.2178938 -0.12153699 13
-0.8201623 2.2159977 -0.040171444 9
-0.81925762 2.2147405 0.62205434 13
-0.81915057 2.2156394 0.53610265 14
-0.81625175 2.2089839 0.44990486 13
-0.81910604 2.2178988 0.36799717 11
-0.81750268 2.2147467 0.28517425 10
-0.82696706 2.2415917 0.20568755 5
-0.8233816 2.233073 0.12272782 7
-0.81360757 2.207752 0.040402319 9
-0.6762951 1.8400975 -0.51505011 4
-0.76912022 2.0937893 -0.50614017 4
-0.81500667 2.2199037 -0.45181155 11
-0.81273568 2.2149129 -0.36762127 11
-0.82140607 2.2397506 -0.28822133 13
-0.81369948 2.2199354 -0.20350897 12
-0.81183988 2.2160587 -0.12127619 13
-0.8107031 2.2141523 -0.040085051 10
-0.8098619 2.2130511 0.62076104 14
-0.80973798 2.2139096 0.53497875 13
-0.80853599 2.2118196 0.44990486 14
-0.81135911 2.2207446 0.36799717 11
-0.80806452 2.2129254 0.28456491 12
-0.81742984 2.2397859 0.20525178 6
-0.81558174 2.2359335 0.12272782 8
-0.80418378 2.2058816 0.040315058 8
-0.66986787 1.8424472 -0.51505011 3
-0.76180685 2.0964613 -0.50614017 4
-0.80557728 2.2181218 -0.45085838 11
-0.80331433 2.2130945 -0.36683914 11
-0.81189036 2.2379389 -0.28761196 12
-0.80594552 2.2227621 -0.20350897 13
-0.80239815 2.2141845 -0.12101538 13
-0.80126697 2.2122684 -0.039998662 8
-0.80213201 2.2158644 0.62076104 14
-0.80200511 2.2167227 0.53497875 13
-0.79914141 2.2100129 0.44895169 14
-0.80192369 2.2189183 0.36721584 11
-0.79864907 2.2110648 0.28395554 12
-0.80960655 2.2426255 0.20525178 6
-0.80607718 2.2340701 0.12246613 7
-0.79478306 2.2039728 0.040227797 8
-0.66343248 1.8447741 -0.51505011 3
-0.75448418 2.0991077 -0.50614017 4
-0.79782969 2.2209203 -0.45085838 12
-0.79391551 2.2112372 -0.36605695 10
-0.80407363 2.2407594 -0.28761196 12
-0.79650009 2.2208731 -0.20307319 12
-0.79466432 2.2169721 -0.12101538 12
-0.79353976 2.2150519 -0.039998662 9
-0.79276413 2.2141037 0.61946785 14
-0.79262084 2.2149215 0.53385484 13
-0.79142207 2.2127891 0.44895169 14
-0.79417336 2.2217042 0.36721584 12
-0.78925657 2.209166 0.28334624 12
-0.80009842 2.240747 0.20481598 6
-0.79827392 2.2368701 0.12246613 7
-0.78708494 2.2067337 0.040227797 8
-0.65698892 1.8470787 -0.51505011 3
-0.74715233 2.1017284 -0.50614017 4
-0.78842908 2.2190666 -0.44990519 11
-0.78453946 2.2093413 -0.36527479 11
-0.79458714 2.2388756 -0.28700262 12
-0.78707784 2.2189457 -0.20263742 12
-0.78525245 2.2150264 -0.12075458 13
-0.78413337 2.2130959 -0.039912272 9
-0.78503066 2.2168574 0.61946785 14
-0.78325897 2.2130818 0.53273094 14
-0.78205633 2.2109106 0.44799849 14
-0.78476733 2.2198069 0.36643454 12
-0.77988696 2.2072279 0.28273687 13
-0.79061329 2.2388296 0.20438023 6
-0.78879917 2.2349346 0.12220446 7
-0.77771413 2.2047532 0.040140532 8
-0.65053743 1.8493607 -0.51505011 4
-0.73981136 2.1043236 -0.50614017 5
-0.78067833 2.2218051 -0.44990519 11
-0.77682263 2.2120664 -0.36527479 10
-0.78676718 2.2416356 -0.28700262 12
-0.77767879 2.2169793 -0.20220163 12
-0.77751577 2.2177536 -0.12075458 13
-0.77640343 2.2158196 -0.039912272 9
-0.77569121 2.2150257 0.61817455 13
-0.77552909 2.2158024 0.53273094 14
-0.77433407 2.2136271 0.44799849 14
-0.77701396 2.2225327 0.36643454 12
-0.77054054 2.2052519 0.28212753 13
-0.78115124 2.2368729 0.20394443 6
-0.7793476 2.2329602 0.12194277 6
-0.77001339 2.2074544 0.040140532 7
-0.64407802 1.8516203 -0.51505011 3
-0.73246139 2.1068935 -0.50614017 5
-0.77130711 2.2198803 -0.44895202 12
-0.76747626 2.2100992 -0.3644926 10
-0.77731037 2.2396796 -0.28639328 12
-0.76993531 2.2196805 -0.20220163 12
-0.76813412 2.2157366 -0.12049376 12
-0.76702744 2.2137926 -0.039825883 8
-0.76637429 2.213156 0.61688131 14
-0.76619643 2.213892 0.53160703 14
-0.7649979 2.211678 0.44704533 14
-0.76763755 2.2205639 0.36565322 12
-0.76283807 2.2079282 0.28212753 13
-0.77171266 2.2348781 0.20350866 7
-0.76991946 2.230947 0.1216811 6
-0.76067311 2.2054026 0.040053267 7
-0.63603991 1.8492904 -0.51375604 3
-0.72510248 2.1094375 -0.50614017 5
-0.76355356 2.2225592 -0.44895202 11
-0.7581532 2.2080939 -0.36371043 11
-0.76948768 2.2423794 -0.28639328 12
-0.76056665 2.217643 -0.20176587 12
-0.75877607 2.213681 -0.12023295 12
-0.75929517 2.2164564 -0.039825883 8
-0.75864422 2.2158179 0.61688131 14
-0.7584638 2.2165532 0.53160703 14
-0.75727302 2.214335 0.44704533 14
-0.75828445 2.2185566 0.36487195 13
-0.75352216 2.2058814 0.28151816 14
-0.76229745 2.2328444 0.20307288 7
-0.76212728 2.2336209 0.1216811 6
-0.75297022 2.2080443 0.040053267 7
-0.62958086 1.8514992 -0.51375604 4
-0.71773475 2.1119554 -0.50614017 4
-0.75421214 2.2205634 -0.44799879 11
-0.74885356 2.2060506 -0.36292824 11
-0.76006132 2.2403524 -0.28578395 12
-0.75282103 2.2202845 -0.20176587 11
-0.75104421 2.216316 -0.12023295 12
-0.74994993 2.2143583 -0.03973949 8
-0.74935639 2.2138774 0.61558807 14
-0.74916071 2.2145717 0.53048313 14
-0.74796695 2.2123151 0.44609213 15
-0.75053561 2.2211902 0.36487195 13
-0.74581754 2.2084982 0.28151816 14
-0.75449872 2.2354915 0.20307288 8
-0.75272995 2.2315364 0.12141941 6
-0.74366111 2.2059221 0.03996601 6
-0.62157518 1.8491076 -0.5124619 4
-0.71035832 2.1144481 -0.50614017 4
-0.74645638 2.2231824 -0.44799879 12
-0.74114841 2.2086513 -0.36292824 11
-0.75065839 2.2382865 -0.28517458 13
-0.74348319 2.2181759 -0.20133008 12
-0.74171722 2.2141895 -0.11997214 12
-0.74221581 2.2169626 -0.03973949 8
-0.7400915 2.2118995 0.61429483 14
-0.74142581 2.2171733 0.53048313 14
-0.74023998 2.2149124 0.44609213 14
-0.74121302 2.2191122 0.36409062 13
-0.73653251 2.2063808 0.28090885 14
-0.74511451 2.233387 0.20263711 8
-0.74493581 2.2341502 0.12141941 6
-0.73595649 2.2085044 0.03996601 6
-0.61663973 1.8558494 -0.51375604 3
-0.70297319 2.1169147 -0.50614017 4
-0.73714542 2.2211161 -0.44704565 12
-0.73187953 2.2065377 -0.36214611 11
-0.74127918 2.2361825 -0.28456524 13
-0.7341693 2.2160292 -0.20089431 12
-0.7339837 2.2167652 -0.11997214 12
-0.73290205 2.2147937 -0.0396531 7
-0.73084944 2.2098839 0.61300153 14
-0.732153 2.2151222 0.52935922 14
-0.73096442 2.2128222 0.44513896 15
-0.73346239 2.2216861 0.36409062 13
-0.72882634 2.2089384 0.28090885 14
-0.73575407 2.2312438 0.20220132 8
-0.73556989 2.2319949 0.12115774 6
-0.72667891 2.2063115 0.039878745 7
-0.61166465 1.862579 -0.51505011 3
-0.69557947 2.1193557 -0.50614017 4
-0.72938776 2.2236757 -0.44704565 12
-0.72417283 2.209079 -0.36214611 11
-0.73346895 2.2387564 -0.28456524 12
-0.72642946 2.2185786 -0.20089431 11
-0.72468841 2.2145681 -0.11971132 11
-0.72516656 2.2173383 -0.0396531 7
-0.72313106 2.2124214 0.61300153 13
-0.72290349 2.2130332 0.52823532 14
-0.72323579 2.2153602 0.44513896 15
-0.72417098 2.219538 0.36330932 13
-0.71957272 2.2067506 0.28029948 14
-0.72796112 2.2337985 0.20220132 9
-0.72622794 2.2298012 0.12089606 7
-0.71742576 2.2040811 0.039791483 6
-0.60665017 1.8692966 -0.51634425 3
-0.68667418 2.1171362 -0.50501537 4
-0.72010773 2.221539 -0.44609243 12
-0.7149353 2.2068949 -0.36136392 11
-0.72412109 2.2365813 -0.28395587 12
-0.71714729 2.2163615 -0.20045851 11
-0.71541733 2.2123332 -0.11945052 11
-0.7158848 2.2150993 -0.039566711 7
-0.71391934 2.210336 0.61170834 14
-0.71517414 2.215543 0.52823532 14
-0.71399128 2.2132001 0.44418573 15
-0.71490341 2.2173517 0.362528 14
-0.71186537 2.2092488 0.28029948 15
-0.71863246 2.2315845 0.20176555 9
-0.71844012 2.2323227 0.12089606 6
-0.70819688 2.2018127 0.039704222 6
-0.60012138 1.8714027 -0.51634425 3
-0.6792798 2.1195204 -0.50501537 4
-0.71234876 2.2240393 -0.44609243 12
-0.70722747 2.2093773 -0.36136392 10
-0.71630955 2.2390954 -0.28395587 12
-0.7078895 2.214107 -0.20002273 12
-0.70769048 2.214817 -0.11945052 11
-0.70662755 2.2128224 -0.039480317 6
-0.70473105 2.2082136 0.61041504 14
-0.70595568 2.2133844 0.52711141 15
-0.70477086 2.2110026 0.44323257 16
-0.70715904 2.2198339 0.362528 14
-0.70264375 2.2069914 0.27969012 15
-0.71083838 2.2340794 0.20176555 9
-0.70913029 2.2300584 0.12063438 6
-0.70050681 2.2042716 0.039704222 5
-0.59504408 1.8780903 -0.51763833 3
-0.67187715 2.1218786 -0.50501537 4
-0.70310032 2.2218328 -0.44513926 11
-0.69802189 2.207124 -0.36058176 10
-0.7069937 2.2368505 -0.28334656 12
-0.69865626 2.2118149 -0.19958696 11
-0.69845188 2.2125125 -0.11918971 11
-0.69889909 2.2152755 -0.039480317 6
-0.69701862 2.21066 0.61041504 15
-0.6982252 2.2158351 0.52711141 14
-0.69557434 2.2087674 0.44227937 15
-0.69792354 2.2175779 0.3617467 14
-0.69344664 2.2046967 0.27908078 15
-0.70154196 2.2317953 0.20132977 10
-0.69834864 2.2229927 0.12011101 7
-0.69131076 2.2019336 0.039616961 5
-0.58815652 1.8802586 -0.51763833 3
-0.66409558 2.1243269 -0.50501537 4
-0.6934883 2.2197096 -0.44418606 11
-0.68845576 2.2049534 -0.35979956 10
-0.69879049 2.2394266 -0.28334656 12
-0.69054484 2.2143607 -0.19958696 12
-0.68885219 2.2102904 -0.11892891 11
-0.68928832 2.2130494 -0.039393932 6
-0.6874761 2.2085884 0.6091218 14
-0.68865186 2.213727 0.52598751 15
-0.68747419 2.211302 0.44227937 16
-0.68832564 2.2154047 0.36096537 13
-0.68388963 2.2024839 0.27847141 15
-0.69188112 2.2295945 0.200894 10
-0.68871737 2.2207685 0.11984934 7
-0.6817556 2.1996772 0.039529696 5
-0.58158958 1.8823001 -0.51763833 3
-0.65667629 2.1266322 -0.50501537 4
-0.68428862 2.217427 -0.44323289 11
-0.68075484 2.2073429 -0.35979956 10
-0.68950737 2.2371094 -0.2827372 12
-0.68134487 2.2119975 -0.19915117 11
-0.67966372 2.2079093 -0.11866809 11
-0.68008912 2.2106633 -0.039307538 6
-0.67976254 2.2109747 0.6091218 14
-0.6809203 2.2161174 0.52598751 15
-0.67831039 2.2089963 0.4413262 16
-0.68058825 2.2177939 0.36096537 14
-0.67619735 2.2048576 0.27847141 15
-0.68409419 2.2319963 0.200894 10
-0.67949879 2.2183845 0.11958765 6
-0.67260349 2.1972654 0.039442439 5
-0.5750156 1.8843188 -0.51763833 3
-0.6492489 2.1289115 -0.50501537 4
-0.67511326 2.215107 -0.44227967 11
-0.67160678 2.2049818 -0.35901737 10
-0.68169421 2.2395027 -0.2827372 12
-0.67361933 2.2143624 -0.19915117 11
-0.67195243 2.2102683 -0.11866809 11
-0.67236835 2.2130239 -0.039307538 5
-0.67204064 2.2133341 0.6091218 14
-0.67176586 2.2138188 0.5248636 15
-0.67059541 2.2113507 0.4413262 16
-0.67141026 2.21543 0.36018407 15
-0.66705841 2.2024553 0.2778621 16
-0.67485589 2.2296031 0.20045821 11
-0.67175102 2.2207429 0.11958765 8
-0.66348928 2.1948125 0.039355174 5
-0.56982803 1.8909386 -0.5189324 3
-0.6418137 2.1311648 -0.50501537 4
-0.66737694 2.2174501 -0.44227967 11
-0.66248339 2.2025836 -0.35823521 11
-0.67244422 2.2371161 -0.28212786 13
-0.66445261 2.2119298 -0.1987154 11
-0.66279739 2.207818 -0.11840729 10
-0.66463935 2.2153575 -0.039307538 6
-0.6629234 2.2110398 0.60782856 14
-0.66263556 2.211483 0.5237397 15
-0.66146415 2.2089758 0.440373 16
-0.66367286 2.2177601 0.36018407 15
-0.65794438 2.2000155 0.27725273 12
-0.66706902 2.231945 0.20045821 11
-0.66256618 2.2182901 0.11932597 8
-0.65439403 2.1923249 0.039267913 5
-0.56046933 1.8836582 -0.51634425 3
-0.63298213 2.1287227 -0.50389069 4
-0.65823442 2.2150612 -0.4413265 11
-0.65338498 2.2001483 -0.35745302 9
-0.66463113 2.2394497 -0.28212786 12
-0.65672755 2.2142355 -0.1987154 11
-0.65366769 2.2053308 -0.11814647 9
-0.659742 2.2272508 -0.039480317 5
-0.65520132 2.2133403 0.60782856 15
-0.65491205 2.2137825 0.5237397 15
-0.65374941 2.211271 0.440373 16
-0.65592742 2.2200632 0.36018407 15
-0.65026087 2.2022986 0.27725273 12
-0.65786427 2.2294827 0.20002241 11
-0.65481883 2.2205894 0.11932597 8
-0.6467374 2.1945958 0.039267913 5
-0.54980719 1.8717015 -0.5124619 3
-0.62554765 2.130919 -0.50389069 4
-0.64911664 2.2126355 -0.4403733 11
-0.64570111 2.2024157 -0.35745302 10
-0.65541458 2.2369936 -0.28151849 13
-0.64759475 2.2117343 -0.1982796 11
-0.64596564 2.2075992 -0.11814647 10
-0.65336651 2.2343383 -0.039566711 13
-0.64611661 2.2109783 0.60653532 14
-0.64581478 2.2113786 0.52261579 15
-0.64465153 2.2088282 0.43941984 16
-0.64679116 2.2175984 0.35940275 15
-0.64118075 2.1997905 0.2766434 12
-0.64868492 2.2269831 0.19958664 11
-0.64706349 2.2228615 0.11932597 9
-0.6390729 2.19684 0.039267913 5
-0.54327041 1.8736093 -0.5124619 3
-0.61810553 2.1330898 -0.50389069 4
-0.64138919 2.2148879 -0.4403733 10
-0.63800925 2.2046564 -0.35745302 10
-0.64760202 2.2392678 -0.28151849 11
-0.63987041 2.2139814 -0.1982796 11
-0.63687021 2.2050433 -0.11788567 9
-0.64694959 2.2414086 -0.0396531 10
-0.63705629 2.2085793 0.60524201 15
-0.63809168 2.2136195 0.52261579 15
-0.63693738 2.2110651 0.43941984 16
-0.63904637 2.2198424 0.35940275 14
-0.63212603 2.1972461 0.27603403 12
-0.64090741 2.229234 0.19958664 10
-0.63930035 2.2251067 0.11932597 8
-0.63140064 2.1990573 0.039267913 5
nan nan nan 0
-0.6106559 2.1352344 -0.50389069 4
-0.63230509 2.2123938 -0.43942013 11
-0.62895346 2.2021213 -0.35667089 10
-0.63841951 2.2367425 -0.28090915 12
-0.63077205 2.2114117 -0.19784385 11
-0.62916929 2.207253 -0.11788567 9
-0.63912165 2.2436531 -0.0396531 8
-0.62934303 2.2107894 0.60524201 14
-0.62902766 2.2111473 0.52149189 14
-0.62787324 2.2085536 0.43846661 16
-0.62994403 2.2173088 0.35862142 14
-0.62309694 2.1946652 0.27542472 13
-0.63176239 2.2266657 0.19915086 10
-0.63016731 2.2225211 0.11906429 7
-0.62372065 2.2012479 0.039267913 5
nan nan nan 0
-0.6039449 2.1371422 -0.50389069 4
-0.62535155 2.2143693 -0.43942013 10
-0.62203223 2.2040865 -0.35667089 11
-0.63004225 2.2339606 -0.28029981 12
-0.62247038 2.2085881 -0.19740805 11
-0.62087828 2.2044127 -0.11762486 7
-0.63206989 2.2456501 -0.0396531 9
-0.62108684 2.2081065 0.60394883 14
-0.62207806 2.2131124 0.52149189 15
-0.61960429 2.2057896 0.43751341 15
-0.62164038 2.2145224 0.35784012 13
-0.61485875 2.1918335 0.27481535 12
-0.62476403 2.2286394 0.19915086 12
-0.623182 2.2244897 0.11906429 9
-0.61814988 2.2080107 0.039355174 4
-0.52168047 1.8697088 -0.50987375 5
-0.59648114 2.1392374 -0.50389069 4
-0.61630064 2.2118106 -0.43846694 11
-0.6143347 2.2062442 -0.35667089 10
-0.62224048 2.2361462 -0.28029981 11
-0.61342275 2.2059488 -0.19697228 11
-0.61317962 2.2065663 -0.11762486 8
-0.62288958 2.2430258 -0.039566711 8
-0.61208373 2.2056069 0.60265553 15
-0.61304706 2.2105756 0.52036798 15
-0.61190093 2.2079389 0.43751341 16
-0.61258835 2.2119193 0.35705879 16
-0.60588038 2.1891837 0.27420601 13
-0.61565316 2.226006 0.19871509 12
-0.61408311 2.2218387 0.11880261 8
-0.6104387 2.210155 0.039355174 5
-0.51577759 1.8763551 -0.51116782 4
-0.58697212 2.1368139 -0.50276589 4
-0.6078034 2.2141607 -0.43846694 11
-0.60585886 2.2085869 -0.35667089 10
-0.61233771 2.2337327 -0.27969044 12
-0.60494804 2.2082877 -0.19697228 11
-0.60338414 2.2040887 -0.11736406 8
-0.61295331 2.2405789 -0.039480317 8
-0.6036104 2.2079411 0.60265553 14
-0.60327059 2.2082133 0.51924407 15
-0.60212594 2.2055373 0.43656024 16
-0.60409069 2.2142551 0.35705879 14
-0.59616464 2.1867058 0.27359664 13
-0.60710132 2.2283535 0.19871509 12
-0.60423565 2.2193623 0.11854094 10
-0.59932297 2.2028346 0.039180648 5
nan nan nan 0
-0.57696158 2.1294451 -0.50051636 4
-0.59878802 2.2115312 -0.43751371 11
-0.59685594 2.2059212 -0.35588869 10
-0.60324144 2.231066 -0.27908111 12
-0.59593672 2.2055774 -0.1965365 11
-0.59568673 2.2061813 -0.11736406 8
-0.60512847 2.2427049 -0.039480317 8
-0.59464216 2.2053711 0.60136229 14
-0.59555882 2.2103057 0.51924407 15
-0.59442347 2.2076259 0.43656024 16
-0.59507459 2.2115815 0.35627753 15
-0.58852804 2.1887734 0.27359664 14
-0.59802669 2.2256486 0.19827931 11
-0.59519011 2.2166359 0.11827926 10
-0.58903229 2.1952581 0.039006125 5
-0.49642798 1.8565814 -0.50469732 4
-0.56700963 2.1220326 -0.49826688 4
-0.59106469 2.2136078 -0.43751371 10
-0.587879 2.2032197 -0.35510653 9
-0.59544992 2.2331581 -0.27908111 11
-0.58823413 2.2076442 -0.1965365 10
-0.58669734 2.2034221 -0.11710324 5
-0.5960108 2.2399726 -0.039393932 8
-0.58694029 2.2074335 0.60136229 14
-0.58658874 2.2076626 0.51812023 14
-0.58545417 2.2049429 0.43560702 16
-0.5860846 2.2088718 0.3554962 14
-0.58088422 2.1908145 0.27359664 12
-0.59025413 2.2277226 0.19827931 10
-0.58744907 2.2186999 0.11827926 10
-0.57881492 2.1876333 0.038831603 7
nan nan nan 0
-0.55835778 2.119288 -0.49714214 4
-0.58208454 2.2109108 -0.43656054 10
-0.5801847 2.2052584 -0.35510653 9
-0.58765113 2.2352231 -0.27908111 13
-0.5805245 2.2096841 -0.1965365 10
-0.57773453 2.2006273 -0.11684243 6
-0.58691961 2.2372036 -0.039307538 7
-0.57800657 2.2047968 0.60006905 14
-0.57764429 2.2049837 0.51699626 15
-0.5777539 2.2069733 0.43560702 16
-0.57837063 2.2109041 0.3554962 15
-0.57323325 2.1928289 0.27359664 13
-0.58247429 2.2297695 0.19827931 12
-0.57843959 2.2159057 0.11801757 12
-0.56991327 2.1848032 0.038744342 7
-0.49438915 1.9020708 -0.51634425 3
-0.55095667 2.1212242 -0.49714214 4
-0.57313037 2.2081785 -0.43560734 11
-0.57124358 2.2024899 -0.35432434 10
-0.57859999 2.2324564 -0.27847174 11
-0.57155883 2.2068751 -0.19610073 9
-0.57004941 2.2026305 -0.11684243 8
-0.57785505 2.2343988 -0.039221149 8
-0.57030684 2.2068009 0.60006905 14
-0.56994396 2.2069867 0.51699626 15
-0.56882018 2.2042241 0.43465388 16
-0.56941646 2.2081273 0.3547149 16
-0.56557542 2.1948164 0.27359664 14
-0.57344532 2.2269657 0.19784354 13
-0.56945682 2.2130756 0.1177559 12
-0.55979353 2.1770957 0.038569819 7
nan nan nan 0
-0.54596543 2.1325738 -0.49939165 4
-0.56420237 2.2054102 -0.43465418 11
-0.56232893 2.1996861 -0.35354218 11
-0.57080376 2.2344627 -0.27847174 12
-0.56385195 2.2088566 -0.19610073 9
-0.56112307 2.1997685 -0.11658162 5
-0.5688172 2.2315576 -0.039134759 9
-0.56140816 2.204098 0.5987758 14
-0.56103486 2.2042408 0.51587236 14
-0.56112254 2.2061961 0.43465388 15
-0.56170511 2.2101016 0.3547149 14
-0.55668902 2.1919672 0.27298734 13
-0.56566828 2.2289538 0.19784354 11
-0.56050086 2.2102098 0.11749421 9
-0.5521906 2.1790366 0.038569819 6
-0.47873372 1.8961105 -0.51375604 4
-0.53851801 2.1344666 -0.49939165 4
-0.55530071 2.2026069 -0.43370095 11
-0.55464715 2.2016356 -0.35354218 9
-0.5617891 2.2316291 -0.27786243 11
-0.55492306 2.2059808 -0.19566494 9
-0.55222386 2.1968715 -0.11632082 6
-0.56102407 2.2335296 -0.039134759 9
-0.55253506 2.2013595 0.5974825 15
-0.55333722 2.2061858 0.51587236 14
-0.55222481 2.2033803 0.43370065 15
-0.55278724 2.207258 0.35393357 16
-0.54903424 2.193897 0.27298734 13
-0.55667585 2.2260823 0.19740775 14
-0.55278236 2.212153 0.11749421 10
-0.54336995 2.1761005 0.038482554 7
-0.45695493 1.8368419 -0.49693277 5
-0.53223932 2.1410611 -0.50051636 4
-0.54760879 2.2045319 -0.43370095 10
-0.54576886 2.198765 -0.35275999 10
-0.55280107 2.2287595 -0.27725306 11
-0.54721934 2.2079046 -0.19566494 10
-0.54335153 2.1939387 -0.11606 5
-0.55202329 2.2306216 -0.03904837 8
-0.54484755 2.2032747 0.5974825 14
-0.54446405 2.2033744 0.51474845 15
-0.54453021 2.2052946 0.43370065 17
-0.54507911 2.2091742 0.35393357 15
-0.54137278 2.1958003 0.27298734 14
-0.54890203 2.2280118 0.19740775 13
-0.54386365 2.2092209 0.11723254 13
-0.5357706 2.177984 0.038482554 9
-0.4643352 1.8947155 -0.5124619 4
-0.52476239 2.142906 -0.50051636 4
-0.53874362 2.2016625 -0.43274778 11
-0.53809041 2.2006567 -0.35275999 10
-0.5450179 2.2306757 -0.27725306 12
-0.53950894 2.2098012 -0.19566494 9
-0.53450662 2.1909714 -0.1157992 6
-0.54304951 2.2276778 -0.038961977 11
-0.53601032 2.2004707 0.59618932 15
-0.53676957 2.2052615 0.51474845 14
-0.53566903 2.2024126 0.43274748 17
-0.53619814 2.2062647 0.35315228 15
-0.5337047 2.1976767 0.27298734 13
-0.53994691 2.2250741 0.19697198 14
-0.53614867 2.2111058 0.11723254 12
-0.52816474 2.1798408 0.038482554 9
nan nan nan 0
-0.51727903 2.1447246 -0.50051636 4
-0.52990508 2.1987579 -0.43179458 10
-0.52924925 2.1977205 -0.35197783 10
-0.53606701 2.2277396 -0.27664372 12
-0.53179204 2.2116711 -0.19566494 8
-0.52102304 2.1685486 -0.11449515 7
-0.53410321 2.224699 -0.038875591 10
-0.52832597 2.2023284 0.59618932 14
-0.52793276 2.2023838 0.51362455 15
-0.52797788 2.2042689 0.43274748 15
-0.52849352 2.208123 0.35315228 15
-0.52487582 2.1946995 0.27237797 14
-0.53101891 2.2221005 0.1965362 14
-0.52726752 2.2081072 0.11697085 13
-0.52055246 2.1816711 0.038482554 8
nan nan nan 0
-0.50978941 2.146517 -0.50051636 3
-0.52222675 2.2005939 -0.43179458 11
-0.52157456 2.1995544 -0.35197783 10
-0.52828753 2.2295973 -0.27664372 12
-0.52521622 2.2183609 -0.19610073 7
-0.5203473 2.1995082 -0.11606 6
-0.52518421 2.2216845 -0.038789198 11
-0.51952493 2.1994586 0.59489602 14
-0.51912266 2.1994715 0.51250064 15
-0.51915365 2.2013214 0.43179429 16
-0.51964968 2.2051473 0.35237095 16
-0.51607424 2.1916878 0.27176863 12
-0.52211833 2.2190924 0.19610043 15
-0.51955658 2.2099342 0.11697085 11
-0.51293385 2.183475 0.038482554 9
nan nan nan 0
-0.5011844 2.1435399 -0.49939165 4
-0.51454204 2.2024035 -0.43179458 10
-0.51277077 2.1965525 -0.35119566 10
-0.52050155 2.2314279 -0.27664372 12
-0.51746947 2.2201805 -0.19610073 6
-0.51719671 2.2207634 -0.11710324 4
-0.51742584 2.2235043 -0.038789198 11
-0.51184422 2.2012587 0.59489602 14
-0.51033926 2.1965244 0.51137674 16
-0.5114665 2.2031202 0.43179429 16
-0.51194912 2.2069478 0.35237095 16
-0.50842065 2.193476 0.27176863 14
-0.51324522 2.2160487 0.19566463 15
-0.51183933 2.2117343 0.11697085 14
-0.5041827 2.1803815 0.038395293 10
-0.42883864 1.8634375 -0.50210917 5
-0.49332461 2.1453624 -0.49939165 4
-0.50536734 2.1994913 -0.43084142 9
-0.50471658 2.1984169 -0.35119566 10
-0.51120985 2.2284834 -0.27603436 12
-0.50821579 2.2172072 -0.19566494 7
-0.52020103 2.2713161 -0.11971132 12
-0.50815761 2.2205126 -0.038702808 12
-0.5026961 2.1984115 0.59360272 14
-0.50228518 2.1983802 0.51137674 15
-0.50229573 2.2001948 0.43084112 17
-0.50275856 2.2039945 0.35158965 16
-0.49927485 2.190486 0.27115926 14
-0.5051195 2.2179151 0.19566463 15
-0.50262153 2.2087269 0.11670918 14
-0.49618781 2.1822147 0.038395293 10
nan nan nan 0
-0.4858329 2.1470714 -0.49939165 4
-0.49768659 2.201242 -0.43084142 10
-0.49595144 2.1953487 -0.3504135 10
-0.50342786 2.2302544 -0.27603436 11
-0.5004732 2.2189677 -0.19566494 7
-0.50348765 2.2341497 -0.11762486 9
-0.49930525 2.2173955 -0.038616419 13
-0.49501911 2.2001526 0.59360272 15
-0.49353978 2.1953666 0.51025283 15
-0.49353683 2.1971457 0.42988792 12
-0.49506208 2.2057362 0.35158965 16
-0.49053964 2.1873729 0.27054995 14
-0.49628538 2.2148042 0.19522887 16
-0.49490854 2.2104678 0.11670918 14
-0.48746949 2.1790562 0.038308028 11
-0.41476879 1.8616719 -0.50081509 5
-0.47833523 2.1487544 -0.49939165 4
-0.48999977 2.2029657 -0.43084142 10
-0.48828521 2.1970665 -0.3504135 10
-0.49456394 2.2271533 -0.27542502 12
-0.4916456 2.2158387 -0.19522917 7
-0.49568591 2.2358935 -0.11762486 10
-0.4904809 2.2142441 -0.038530029 13
-0.48733613 2.2018673 0.59360272 15
-0.48587352 2.1970763 0.51025283 15
-0.48480541 2.1940627 0.42893475 13
-0.48629493 2.2026281 0.35080832 16
-0.48183224 2.1842258 0.26994058 14
-0.48855123 2.2165229 0.19522887 16
-0.48611566 2.2073057 0.11644749 15
-0.47986671 2.180743 0.038308028 12
-0.4155044 1.8961323 -0.50987375 5
-0.47083178 2.1504109 -0.49939165 3
-0.481258 2.1998675 -0.42988822 10
-0.48061305 2.1987576 -0.3504135 10
-0.48678672 2.2288661 -0.27542502 11
-0.4828459 2.2126749 -0.19479337 6
-0.48681447 2.2327316 -0.11736406 10
-0.4816846 2.2110579 -0.038443636 14
-0.47861999 2.1988358 0.59230953 14
-0.4782013 2.1987588 0.51025283 15
-0.47714376 2.1957414 0.42893475 12
-0.47860336 2.2043123 0.35080832 16
-0.47420493 2.1858943 0.26994058 15
-0.47975597 2.213347 0.19479308 16
-0.47840774 2.2089891 0.11644749 15
-0.4711943 2.1775188 0.038220771 11
-0.40990043 1.9022924 -0.51116782 4
-0.46332258 2.1520412 -0.49939165 3
-0.4735761 2.201534 -0.42988822 10
-0.47189727 2.1955936 -0.34963131 10
-0.47900355 2.2305517 -0.27542502 12
-0.47511932 2.2143466 -0.19479337 6
-0.47901779 2.2344172 -0.11736406 11
-0.47291657 2.2078376 -0.03835725 11
-0.47094172 2.2004931 0.59230953 15
-0.47052333 2.2004147 0.51025283 15
-0.4684507 2.1925933 0.42798153 12
-0.46987492 2.2011397 0.35002702 16
-0.46553668 2.1826828 0.26933125 15
-0.47202703 2.215008 0.19479308 16
-0.46965423 2.2057621 0.11618582 15
-0.46359047 2.1791503 0.038220771 11
-0.40125602 1.894262 -0.50857961 4
-0.45580775 2.1536455 -0.49939165 3
-0.46588841 2.2031739 -0.42988822 10
-0.46423036 2.1972275 -0.34963131 10
-0.47121453 2.2322102 -0.27542502 11
-0.46635899 2.2111182 -0.1943576 6
-0.47018567 2.2311897 -0.11710324 11
-0.46417683 2.2045827 -0.038270857 12
-0.46226341 2.1973972 0.59101623 15
-0.46183735 2.1972754 0.50912893 16
-0.46079427 2.1942153 0.42798153 13
-0.46218866 2.2027664 0.35002702 16
-0.45791486 2.1842945 0.26933125 14
-0.46429235 2.2166421 0.19479308 16
-0.46195182 2.2073879 0.11618582 16
-0.45598096 2.1807551 0.038220771 12
-0.39661005 1.9051076 -0.51116782 4
-0.44828731 2.1552234 -0.49939165 4
-0.45719641 2.1999812 -0.42893505 10
-0.45655778 2.1988344 -0.34963131 10
-0.46341982 2.2338414 -0.27542502 11
-0.45863789 2.2127326 -0.1943576 6
-0.46138203 2.2279282 -0.11684243 11
-0.45647857 2.2061896 -0.038270857 12
-0.45459023 2.1989975 0.59101623 15
-0.45416462 2.1988742 0.50912893 15
-0.45313221 2.1958103 0.42798153 12
-0.4534995 2.1995296 0.3492457 16
-0.45028743 2.1858797 0.26933125 14
-0.4555479 2.2133708 0.19435731 16
-0.45424381 2.208987 0.11618582 16
-0.44836596 2.1823335 0.038220771 11
-0.38995758 1.9064804 -0.51116782 3
-0.44076148 2.156775 -0.49939165 3
-0.44951424 2.2015636 -0.42893505 10
-0.44789255 2.195576 -0.34884915 9
-0.45462829 2.2305825 -0.27481568 11
-0.44991729 2.209439 -0.19392182 6
-0.45260674 2.224632 -0.11658162 12
-0.44777897 2.2028708 -0.038184468 13
-0.44595027 2.1958375 0.58972305 14
-0.44551757 2.1956716 0.50800502 15
-0.44448951 2.1925685 0.42702836 12
-0.44581893 2.2010992 0.3492457 16
-0.44167018 2.1825738 0.26872188 15
-0.44781899 2.2149475 0.19435731 16
-0.44653022 2.2105591 0.11618582 16
-0.43975642 2.1789849 0.038133506 12
-0.38425162 1.9125651 -0.5124619 3
-0.43323022 2.1583004 -0.49939165 3
-0.44086149 2.198307 -0.42798182 10
-0.44022581 2.1971262 -0.34884915 9
-0.44683933 2.2321558 -0.27481568 11
-0.44220215 2.2109962 -0.19392182 5
-0.44386023 2.2213023 -0.11632082 12
-0.44008681 2.2044203 -0.038184468 13
-0.43828267 2.1973808 0.58972305 15
-0.43785053 2.1972134 0.50800502 15
-0.43683329 2.1941068 0.42702836 13
-0.43716949 2.1977983 0.34846443 16
-0.43404892 2.1841021 0.26872188 14
-0.44008467 2.2164972 0.19435731 16
-0.43783966 2.2072067 0.11592413 16
-0.43214768 2.1805065 0.038133506 12
-0.37663844 1.9091563 -0.51116782 3
-0.42569372 2.1597996 -0.49939165 3
-0.43318528 2.1998324 -0.42798182 10
-0.43160039 2.1938035 -0.34806696 9
-0.43808788 2.2288327 -0.27420634 11
-0.43448165 2.2125261 -0.19392182 5
-0.43514237 2.2179382 -0.11606 12
-0.4314276 2.2010372 -0.038098078 14
-0.42968148 2.1941574 0.58842975 14
-0.4292427 2.1939471 0.50688112 16
-0.42823014 2.1908009 0.42607516 13
-0.42854851 2.1944637 0.3476831 16
-0.4264223 2.1856041 0.26872188 14
-0.43139198 2.213131 0.19392152 16
-0.43013239 2.2087216 0.11592413 17
-0.42453364 2.1820018 0.038133506 13
-0.36997193 1.9104595 -0.51116782 3
-0.418152 2.1612723 -0.49939165 3
-0.42550382 2.2013311 -0.42798182 10
-0.42393997 2.195297 -0.34806696 9
-0.42936492 2.2254753 -0.27359697 10
-0.42581311 2.2091384 -0.19348605 5
-0.42645353 2.2145405 -0.1157992 13
-0.42374194 2.2025297 -0.038098078 13
-0.42201981 2.1956441 0.58842975 14
-0.42158175 2.1954319 0.50688112 15
-0.42058018 2.1922822 0.42607516 12
-0.4208858 2.1959462 0.3476831 13
-0.41785729 2.1822052 0.26811254 15
-0.42366409 2.2146232 0.19392152 16
-0.42148256 2.2053051 0.11566246 17
-0.41691446 2.1834702 0.038133506 13
-0.36330095 1.9117393 -0.51116782 3
-0.41060522 2.1627188 -0.49939165 4
-0.41781712 2.2028029 -0.42798182 10
-0.41535497 2.1919115 -0.34728479 9
-0.42159396 2.2269604 -0.27359697 10
-0.41809919 2.2106113 -0.19348605 5
-0.41779363 2.2111092 -0.11553839 11
-0.41512376 2.1990829 -0.038011689 14
-0.41345793 2.1923575 0.58713651 14
-0.41391569 2.1968904 0.50688112 16
-0.41201726 2.1889136 0.42512199 12
-0.4123053 2.192549 0.3469018 13
-0.4102374 2.1836507 0.26811254 14
-0.41501227 2.2111933 0.19348575 17
-0.41378203 2.2067628 0.11566246 16
-0.40836975 2.1799989 0.038046245 13
-0.35574043 1.9082479 -0.50987375 3
-0.40305343 2.1641388 -0.49939165 4
-0.40922752 2.1994224 -0.42702866 10
-0.40770122 2.1933479 -0.34728479 9
-0.41291177 2.2235394 -0.27298763 10
-0.41038018 2.2120574 -0.19348605 5
-0.409163 2.2076447 -0.11527758 11
-0.40744501 2.2005186 -0.038011689 13
-0.40580267 2.1937873 0.58713651 15
-0.40535924 2.1935306 0.50575721 15
-0.40437397 2.1903384 0.42512199 13
-0.40464935 2.1939747 0.3469018 13
-0.40171325 2.1801884 0.2675032 14
-0.40729123 2.2126286 0.19348575 16
-0.40517336 2.2032831 0.11540078 16
-0.40075767 2.181411 0.038046245 13
-0.34907719 1.9094781 -0.50987375 3
-0.3954967 2.1655326 -0.49939165 4
-0.40154761 2.2008376 -0.42702866 9
-0.39915699 2.1898994 -0.3465026 9
-0.40514764 2.224967 -0.27298763 9
-0.40176469 2.2085757 -0.19305027 5
-0.40056151 2.2041464 -0.11501677 11
-0.39886823 2.1970086 -0.037925296 14
-0.39814246 2.1951907 0.58713651 15
-0.39769992 2.1949322 0.50575721 16
-0.39585155 2.1869068 0.4241688 13
-0.39610967 2.1905138 0.34612048 12
-0.39410052 2.1815774 0.2675032 14
-0.39868057 2.2091346 0.19304997 17
-0.39748001 2.2046838 0.11540078 17
-0.3922545 2.1778765 0.037958983 13
-0.34207627 1.9107447 -0.50987375 3
-0.38755697 2.1669676 -0.49939165 4
-0.39347842 2.2022943 -0.42702866 9
-0.39112791 2.1913476 -0.3465026 9
-0.39611885 2.2215514 -0.27237827 10
-0.39366713 2.2100334 -0.19305027 6
-0.39248022 2.2055998 -0.11501677 12
-0.39081311 2.1984556 -0.037925296 14
-0.38924947 2.1918795 0.58584327 15
