# .PCD v0.7 - Point Cloud Data file format
VERSION 0.7
FIELDS x y z intensity
SIZE 4 4 4 4
TYPE F F F F
COUNT 1 1 1 1
WIDTH 1281
HEIGHT 1
VIEWPOINT 0 0 0 1 0 0 0
POINTS 1281
DATA ascii
-1.1134101 -1.0853939 0.29453519 30
-1.1132256 -1.0848353 0.23986228 30
-1.1116167 -1.0828892 0.18585074 29
-1.1229289 -1.093527 0.13378407 33
-1.1150643 -1.0854893 0.079550654 31
-1.1022496 -1.0726398 0.02617861 64
-1.1186508 -1.0867014 -0.40764016 14
-1.1074113 -1.0754073 -0.34754959 13
-1.1192026 -1.0864784 -0.29548857 29
-1.1119212 -1.079033 -0.23934492 31
-1.1281303 -1.0943805 -0.18828835 27
-1.1109135 -1.0773025 -0.13204116 31
-1.1101749 -1.0762103 -0.078764319 30
-1.1080871 -1.0738112 -0.02600345 29
-1.1132801 -1.0784668 0.40478793 31
-1.1124552 -1.0772916 0.34841052 30
-1.1136655 -1.0780869 0.29358199 30
-1.1134567 -1.0775084 0.23908097 30
-1.111823 -1.0755516 0.1852414 30
-1.1231585 -1.0861381 0.13334829 33
-1.1152567 -1.07812 0.079288974 31
-1.1023922 -1.0653117 0.026091347 66
-1.1154854 -1.0760838 -0.40505198 14
-1.1076516 -1.0681534 -0.34642482 13
-1.1194546 -1.0791585 -0.2945354 30
-1.1121249 -1.0717183 -0.23856275 32
-1.1247954 -1.0835499 -0.18706965 29
-1.1110795 -1.0699631 -0.13160537 33
-1.1103276 -1.0688655 -0.078503512 29
-1.1082264 -1.0664701 -0.025917061 31
-1.1135571 -1.0712258 0.40349469 29
-1.1126972 -1.0700247 0.34728661 31
-1.1138835 -1.0707914 0.29262879 31
-1.1136503 -1.0701932 0.23829965 31
-1.1119916 -1.0682262 0.18463205 29
-1.1233504 -1.0787607 0.1329125 34
-1.115411 -1.0707625 0.079027295 32
-1.102497 -1.0579957 0.026004085 67
-1.1155607 -1.0690371 -0.40375787 14
-1.1074842 -1.0612975 -0.34530008 13
-1.1192949 -1.0722409 -0.2935822 30
-1.1119196 -1.0648035 -0.23778059 33
-1.1246091 -1.0765791 -0.1864603 29
-1.1108366 -1.0630233 -0.1311696 33
-1.110072 -1.0619204 -0.078242704 29
-1.1079582 -1.0595281 -0.025830669 31
-1.1134256 -1.0643847 0.40220144 31
-1.1125309 -1.0631578 0.34616271 30
-1.1136928 -1.0638962 0.29167563 31
-1.1134354 -1.0632786 0.23751834 32
-1.1117524 -1.0613006 0.18402271 29
-1.1231303 -1.0717876 0.13247673 35
-1.1151567 -1.0638067 0.078765616 32
-1.1021975 -1.0510769 0.025916822 67
-1.1156015 -1.0620019 -0.40246379 15
-1.1076529 -1.0540668 -0.34417531 13
-1.1194746 -1.0649444 -0.292629 31
-1.1084723 -1.0541095 -0.23621623 33
-1.1247634 -1.0692277 -0.18585096 29
-1.1109298 -1.0557082 -0.13073382 32
-1.1065316 -1.0511612 -0.077721082 29
-1.1080248 -1.0522118 -0.02574428 30
-1.1136314 -1.0571663 0.4009082 31
-1.1127013 -1.0559142 0.3450388 32
-1.1138387 -1.0566242 0.29072243 31
-1.1135565 -1.0559872 0.23673703 32
-1.1118487 -1.0539992 0.18341336 31
-1.1196338 -1.0610083 0.13160518 33
-1.1152382 -1.0564736 0.078503937 32
-1.1022297 -1.0437856 0.025829561 67
-1.1159763 -1.0545888 -0.40116969 14
-1.1079674 -1.0466543 -0.34305057 12
-1.1198018 -1.0574641 -0.29167584 32
-1.1087373 -1.0466496 -0.23543407 33
-1.1250653 -1.061692 -0.18524161 29
-1.1111685 -1.0482113 -0.13029803 34
-1.1067443 -1.0436728 -0.077460274 30
-1.1082362 -1.0447143 -0.025657889 30
-1.1104686 -1.0464528 0.39832169 32
-1.1130176 -1.0484881 0.3439149 31
-1.1141307 -1.0491698 0.28976923 31
-1.1138235 -1.0485138 0.23595573 31
-1.1120902 -1.0465161 0.18280402 31
-1.1198871 -1.0534848 0.13116939 34
-1.1154655 -1.0489584 0.07824225 33
-1.1024055 -1.0363146 0.025742298 66
-1.1161289 -1.047382 -0.39987558 14
-1.1045077 -1.0361141 -0.34080106 14
-1.1199058 -1.0501914 -0.29072264 30
-1.1087811 -1.0393956 -0.23465189 32
-1.1251433 -1.0543649 -0.18463226 30
-1.1075505 -1.0375158 -0.12942648 33
-1.1067359 -1.0363902 -0.077199467 30
-1.1045768 -1.0340065 -0.02548511 31
-1.1105881 -1.03927 0.39702845 31
-1.1166707 -1.0445966 0.3439149 32
-1.1142012 -1.0419219 0.28881606 31
-1.113869 -1.0412469 0.23517442 32
-1.1121105 -1.0392393 0.18219467 31
-1.1199178 -1.0461689 0.13073361 33
-1.1154708 -1.0416504 0.07798057 32
-1.1023617 -1.0290487 0.025655035 67
-1.1162448 -1.040187 -0.3985815 15
-1.104553 -1.0289316 -0.33967629 14
-1.1163808 -1.0395859 -0.28881627 32
-1.1087879 -1.032154 -0.23386972 32
-1.1215507 -1.0436695 -0.18341357 30
-1.1075183 -1.0302508 -0.12899069 32
-1.1066904 -1.0291203 -0.076938659 31
-1.1045178 -1.0267408 -0.025398716 32
-1.1106709 -1.0320992 0.39573517 31
-1.1167406 -1.0373764 0.34279102 31
-1.1142347 -1.0346863 0.28786287 31
-1.1138773 -1.0339924 0.2343931 33
-1.1084558 -1.0285997 0.18097597 32
-1.1199111 -1.0388658 0.13029784 35
-1.1154389 -1.0343552 0.077718891 31
-1.1022807 -1.0217957 0.025567774 66
-1.1127794 -1.0297239 -0.39599332 14
-1.1045616 -1.0217615 -0.33855155 16
-1.1163992 -1.0323502 -0.28786308 31
-1.1087576 -1.0249251 -0.23308755 33
-1.1215421 -1.0363801 -0.18280423 31
-1.1074489 -1.0229988 -0.12855493 34
-1.1066076 -1.0218636 -0.076677844 32
-1.1044216 -1.0194881 -0.025312327 31
-1.1107173 -1.0249406 0.39444193 32
-1.1131928 -1.0268651 0.34054321 33
-1.110623 -1.0241358 0.2859565 32
-1.1138487 -1.0267508 0.23361179 30
-1.10839 -1.0213611 0.18036662 32
-1.119867 -1.0315757 0.12986206 33
-1.1153696 -1.027073 0.077457212 34
-1.1021626 -1.0145562 0.025480511 67
-1.1128107 -1.0225654 -0.39469922 15
-1.1009457 -1.0113082 -0.33630204 17
-1.1163807 -1.0251273 -0.28690988 33
-1.1086904 -1.017709 -0.23230538 33
-1.1214964 -1.0291034 -0.18219487 30
-1.1073425 -1.0157597 -0.12811914 33
-1.1064875 -1.0146199 -0.076417036 30
-1.1042883 -1.0122485 -0.025225937 33
-1.1107274 -1.0177943 0.39314869 32
-1.1131778 -1.0196822 0.33941931 33
-1.1105711 -1.0169381 0.2850033 31
-1.1137831 -1.019522 0.23283048 32
-1.1082872 -1.0141357 0.17975728 31
-1.1197857 -1.0242984 0.12942629 35
-1.1152631 -1.019804 0.077195533 34
-1.1020074 -1.0073298 0.025393249 68
-1.1128058 -1.0154194 -0.39340511 14
-1.1008697 -1.0041758 -0.33517727 22
-1.1163254 -1.0179169 -0.28595668 31
-1.1085864 -1.010506 -0.2315232 34
-1.1214135 -1.0218399 -0.18158554 31
-1.1035168 -1.0051799 -0.12724757 34
-1.1063305 -1.0073895 -0.076156229 32
-1.104118 -1.0050225 -0.025139546 31
-1.110701 -1.0106603 0.39185542 33
-1.1131263 -1.012512 0.3382954 33
-1.1104827 -1.0097532 0.28405011 31
-1.1136806 -1.0123061 0.23204918 31
-1.1081475 -1.0069234 0.17914791 31
-1.1196674 -1.0170344 0.1289905 34
-1.1151193 -1.0125481 0.076933846 34
-1.1018153 -1.0001169 0.025305986 67
-1.1129405 -1.0080917 -0.39211103 15
-1.1009314 -0.9968642 -0.33405253 20
-1.1164098 -1.0105247 -0.28500351 33
-1.1086208 -1.0031226 -0.23074104 34
-1.1214708 -1.0143938 -0.18097618 31
-1.1034989 -0.99778777 -0.1268118 34
-1.1063111 -0.99997967 -0.075895414 33
-1.1040848 -0.99761736 -0.025053157 31
-1.1108136 -1.0033451 0.39056218 32
-1.1132138 -1.0051603 0.33717149 32
-1.1105325 -1.0023875 0.28309694 33
-1.1137168 -1.004909 0.23126787 33
-1.1081454 -0.99953109 0.17853858 30
-1.1196883 -1.0095882 0.12855473 35
-1.1151142 -1.0051112 0.076672167 34
-1.1017594 -0.99272537 0.025218725 68
-1.1128619 -1.0009708 -0.39081693 15
-1.1007817 -0.98975766 -0.33292776 22
-1.11628 -1.0033405 -0.28405032 33
-1.1084421 -0.99594593 -0.22995885 34
-1.1213127 -1.0071567 -0.18036683 32
-1.1032689 -0.99060208 -0.12637602 34
-1.106079 -0.99277657 -0.075634606 33
-1.1038395 -0.99041867 -0.024966767 33
-1.1107137 -0.99623668 0.38926893 32
-1.1130881 -0.99801588 0.33604759 31
-1.1103697 -0.99522895 0.28214374 31
-1.1135397 -0.99771976 0.23048656 32
-1.107931 -0.99234587 0.17792922 31
-1.1194946 -1.002351 0.12811893 36
-1.1148953 -0.99788249 0.076410487 33
-1.1014968 -0.98553503 0.025131464 68
-1.1125736 -0.99405706 -0.38952285 15
-1.1002526 -0.98304862 -0.33180302 27
-1.1157657 -0.99655902 -0.28309712 31
-1.1041979 -0.98588067 -0.22839449 35
-1.1207688 -1.0003245 -0.17975749 31
-1.1063756 -0.98713112 -0.12637602 34
-1.1054661 -0.98597324 -0.075373799 32
-1.103214 -0.98361897 -0.024880376 33
-1.1102324 -0.98952872 0.38797569 32
-1.1125804 -0.99127311 0.33492368 31
-1.1098256 -0.98847127 0.28119054 31
-1.1129801 -0.99093246 0.22970523 33
-1.1073359 -0.98556089 0.17731988 31
-1.1189167 -0.99551815 0.12768316 35
-1.1142938 -0.99105668 0.076148808 34
-1.100847 -0.97875297 0.025044201 66
-1.1122518 -0.98715633 -0.38822874 15
-1.100033 -0.97596872 -0.33067822 30
-1.1155655 -0.98940146 -0.28214395 31
-1.1039373 -0.97874421 -0.22761233 36
-1.1205397 -0.99311447 -0.17914812 30
-1.1060863 -0.97996002 -0.12594023 35
-1.1051631 -0.97879791 -0.075112991 33
-1.1028976 -0.97644812 -0.024793986 33
-1.110063 -0.98244625 0.38668242 32
-1.1123848 -0.98415506 0.33379978 32
-1.1095924 -0.9813394 0.28023735 33
-1.1127323 -0.98377031 0.22892392 32
-1.1070509 -0.97840315 0.17671053 31
-1.118652 -0.98830837 0.12724738 36
-1.1140039 -0.98385578 0.075887129 35
-1.1042567 -0.97490442 0.025044201 67
-1.1122385 -0.97988051 -0.38693464 15
-1.0999466 -0.96871048 -0.32955348 29
-1.1155003 -0.98206264 -0.28119075 32
-1.1075171 -0.97469145 -0.22761233 36
-1.1204461 -0.98572284 -0.17853878 32
-1.1059303 -0.97261006 -0.12550446 34
-1.1049931 -0.97144383 -0.074852183 34
-1.1064692 -0.97239923 -0.024793986 34
-1.1100279 -0.97518343 0.38538918 31
-1.1123236 -0.97685641 0.33267587 33
-1.1094933 -0.97402775 0.27928415 34
-1.1126187 -0.97642773 0.2281426 33
-1.1068989 -0.97106618 0.17610119 31
-1.1185219 -0.98091757 0.12681161 37
-1.1138479 -0.97647458 0.075625449 34
-1.1040628 -0.96755558 0.02495694 68
-1.1120173 -0.97281212 -0.38564056 15
-1.0996541 -0.96165788 -0.32842872 29
-1.1152261 -0.97493237 -0.28023756 31
-1.1071941 -0.96756989 -0.22683015 35
-1.1201426 -0.97854078 -0.17792943 33
-1.1055669 -0.96546739 -0.12506868 36
-1.1046158 -0.96429712 -0.074591376 33
-1.1060901 -0.96524405 -0.024707597 35
-1.1097856 -0.96812773 0.38409594 33
-1.1120549 -0.96976566 0.33155197 33
-1.1091866 -0.96692359 0.27833098 33
-1.1160202 -0.97253805 0.2281426 33
-1.1065397 -0.96393669 0.17549184 32
-1.1219392 -0.97700721 0.12681161 36
-1.1134835 -0.96930218 0.07536377 35
-1.1036623 -0.96041405 0.024869677 67
-1.11176 -0.96575725 -0.38434646 16
-1.0993257 -0.95461917 -0.32730398 30
-1.1149158 -0.96781594 -0.27928436 32
-1.1068349 -0.96046245 -0.22604798 36
-1.1198026 -0.97137278 -0.17732009 33
-1.1014038 -0.95507598 -0.12419713 35
-1.107975 -0.96043539 -0.074591376 32
-1.1056745 -0.9581033 -0.024621205 34
-1.1095074 -0.96108568 0.38280267 32
-1.11175 -0.96268857 0.33042803 35
-1.1088439 -0.95983362 0.27737778 34
-1.1156738 -0.96540499 0.22736131 35
-1.1061444 -0.95682162 0.1748825 33
-1.121575 -0.969827 0.12637582 36
-1.1130828 -0.9621442 0.075102091 35
-1.0994425 -0.95001853 0.024695154 69
-1.1151245 -0.96187061 -0.38434646 16
-1.1026512 -0.95077604 -0.32730398 31
-1.1108518 -0.9575091 -0.27737799 31
-1.1064396 -0.95336944 -0.2252658 35
-1.1231866 -0.96745807 -0.17732009 32
-1.1009564 -0.94797546 -0.12376134 36
-1.1075366 -0.95330471 -0.074330568 34
-1.1052226 -0.95097721 -0.024534816 34
-1.1091938 -0.95405728 0.38150942 33
-1.1114094 -0.95562553 0.32930413 34
-1.1084654 -0.95275784 0.27642459 32
-1.1152911 -0.95828623 0.22657999 32
-1.1094776 -0.95295465 0.1748825 32
-1.1211745 -0.96266133 0.12594004 38
-1.1126455 -0.95500094 0.074840412 35
-1.098958 -0.94291967 0.024607891 67
-1.1148071 -0.95483053 -0.38305238 16
-1.1022626 -0.94375277 -0.32617921 32
-1.1104584 -0.95043415 -0.2764248 33
-1.1060083 -0.94629091 -0.22448364 36
-1.1227854 -0.96030587 -0.17671074 33
-1.1004729 -0.94088972 -0.12332556 36
-1.1070617 -0.94618869 -0.074069753 34
-1.1047345 -0.94386601 -0.024448426 35
-1.1088448 -0.94704294 0.38021615 34
-1.1110332 -0.94857675 0.32818022 36
-1.1080511 -0.94569635 0.27547142 34
-1.1148723 -0.95118189 0.22579868 33
-1.1090214 -0.94585568 0.17427315 32
-1.1207376 -0.95551026 0.12550427 36
-1.1121721 -0.94787234 0.074578732 36
-1.0984373 -0.93583572 0.02452063 68
-1.1144543 -0.94780439 -0.38175827 15
-1.1018385 -0.9367438 -0.32505447 31
-1.1100291 -0.9433735 -0.2754716 34
-1.1055411 -0.93922704 -0.22370146 36
-1.122348 -0.95316833 -0.17610139 32
-1.0999534 -0.93381906 -0.12288979 39
-1.1065508 -0.93908763 -0.073808946 35
-1.1042104 -0.93677002 -0.024362035 35
-1.1084602 -0.94004267 0.37892288 32
-1.1106212 -0.94154215 0.32705632 33
-1.1076008 -0.93864942 0.27451822 33
-1.1144176 -0.94409215 0.22501737 35
-1.1085291 -0.93877143 0.17366381 34
-1.1202644 -0.94837391 0.12506849 37
-1.1116625 -0.94075888 0.074317053 35
-1.0978806 -0.92876697 0.024433367 68
-1.114066 -0.94079238 -0.38046414 16
-1.1013789 -0.92974937 -0.3239297 32
-1.1095642 -0.93632752 -0.27451843 32
-1.1050383 -0.93217802 -0.22291929 36
-1.1218743 -0.94604546 -0.17549205 34
-1.099398 -0.92676342 -0.12245401 35
-1.1060038 -0.93200183 -0.073548138 34
-1.1036501 -0.92968905 -0.024275646 35
-1.1080402 -0.93305665 0.37762964 33
-1.1101738 -0.93452215 0.32593241 34
-1.1071149 -0.93161726 0.27356502 31
-1.1139271 -0.93701738 0.22423606 34
-1.108001 -0.93170232 0.17305446 33
-1.1197553 -0.94125271 0.12463271 38
-1.1111169 -0.93366051 0.074055374 35
-1.1011159 -0.92492896 0.024433367 68
-1.1136423 -0.93379468 -0.37917006 16
-1.1008838 -0.92276949 -0.32280496 31
-1.1090637 -0.92929643 -0.27356523 32
-1.1044996 -0.92514396 -0.22213712 37
-1.121365 -0.93893766 -0.1748827 34
-1.1026262 -0.92292011 -0.12245401 36
-1.1054209 -0.92493123 -0.073287331 35
-1.1030538 -0.92262346 -0.024189256 36
-1.1075853 -0.92608517 0.3763364 33
-1.1134292 -0.93064123 0.32593241 35
-1.1065937 -0.92459989 0.27261186 34
-1.1134007 -0.92995745 0.22345476 35
-1.107437 -0.92464834 0.17244512 34
-1.11921 -0.93414664 0.12419693 38
-1.1105353 -0.92657745 0.073793694 37
-1.1004987 -0.91787767 0.024346106 67
-1.1131835 -0.92681146 -0.37787595 15
-1.1003536 -0.91580456 -0.32168019 32
-1.1085277 -0.92228019 -0.27261204 35
-1.1039253 -0.91812509 -0.22135495 37
-1.1208194 -0.93184495 -0.17427336 34
-1.1020105 -0.91588199 -0.12201823 37
-1.104802 -0.91787618 -0.073026523 36
-1.1024218 -0.91557342 -0.024102865 34
-1.107095 -0.91912806 0.37504312 34
-1.1129217 -0.92363745 0.32480851 33
-1.1060369 -0.91759759 0.27165866 33
-1.1128386 -0.92291266 0.22267345 34
-1.1068373 -0.91760963 0.17183577 32
-1.1186287 -0.92705584 0.12376115 37
-1.1099178 -0.91950989 0.073532015 36
-1.0998455 -0.91084194 0.024258845 67
-1.1126895 -0.9198429 -0.37658185 16
-1.0997883 -0.9088546 -0.32055545 32
-1.1079562 -0.91527903 -0.27165884 34
-1.1033155 -0.91112155 -0.22057277 34
-1.1240654 -0.92792696 -0.17427336 35
-1.101359 -0.90885937 -0.12158245 38
-1.1041476 -0.9108367 -0.072765715 35
-1.1056111 -0.91171968 -0.024102865 34
-1.1065698 -0.91218579 0.37374988 33
-1.1123791 -0.91664869 0.3236846 34
-1.1092331 -0.91373122 0.27165866 34
-1.112241 -0.91588318 0.22189213 35
-1.1062021 -0.91058648 0.17122643 31
-1.1180118 -0.91998047 0.12332538 38
-1.1092646 -0.912458 0.073270336 36
-1.099157 -0.903822 0.024171581 68
-1.1121604 -0.91288906 -0.37528777 16
-1.1029541 -0.90501004 -0.32055545 31
-1.1073494 -0.90829313 -0.27070567 34
-1.1026704 -0.90413338 -0.21979061 35
-1.1234595 -0.92085153 -0.173664 34
-1.100672 -0.90185249 -0.12114667 36
-1.1034575 -0.903813 -0.0725049 36
-1.1049188 -0.90468776 -0.024016475 34
-1.1060096 -0.90525848 0.37245664 34
-1.1155721 -0.91276014 0.3236846 34
-1.1086166 -0.90674621 0.27070546 32
-1.111608 -0.90886921 0.22111082 35
-1.1055315 -0.90357894 0.17061707 33
-1.117359 -0.91292077 0.12288959 38
-1.1085757 -0.90542185 0.073008657 36
-1.0984327 -0.89681804 0.02408432 68
-1.1153402 -0.90900129 -0.37528777 15
-1.1023294 -0.89807737 -0.31943068 32
-1.1067072 -0.90132272 -0.26975247 34
-1.10199 -0.89716101 -0.21900843 35
-1.1228179 -0.91379178 -0.17305467 33
-1.0999496 -0.89486158 -0.12071089 39
-1.1027317 -0.89680523 -0.072244093 33
-1.1041909 -0.89767176 -0.023930086 34
-1.1091628 -0.90139228 0.37245664 34
-1.11497 -0.90578854 0.3225607 35
-1.1079648 -0.8997767 0.26975229 34
-1.1109396 -0.90187079 0.22032951 35
-1.1048251 -0.89658719 0.17000772 33
-1.1205389 -0.90901488 0.12288959 39
-1.1117295 -0.90154672 0.073008657 36
-1.0976729 -0.88983011 0.023997057 68
-1.1147521 -0.90206444 -0.37399366 16
-1.1016699 -0.89116007 -0.31830594 32
-1.1060302 -0.89436793 -0.26879928 34
-1.1051149 -0.89330888 -0.21900843 34
-1.1221408 -0.9067477 -0.17244531 35
-1.0991917 -0.88788664 -0.12027511 37
-1.1019706 -0.88981366 -0.071983285 34
-1.1034275 -0.89067191 -0.023843694 35
-1.1085438 -0.8944822 0.3711634 35
-1.1143328 -0.89883226 0.32143679 36
-1.1072779 -0.89282268 0.2687991 36
-1.1102359 -0.89488816 0.21954821 34
-1.1040838 -0.88961154 0.16939838 34
-1.1198261 -0.90197343 0.12245382 37
-1.1109805 -0.8945291 0.072746977 37
-1.0968779 -0.88285863 0.023909796 67
-1.1141292 -0.89514279 -0.37269959 15
-1.1009754 -0.88425839 -0.31718117 32
-1.105318 -0.88742876 -0.26784611 34
-1.104375 -0.88635474 -0.21822625 35
-1.1214281 -0.89971954 -0.17183596 35
-1.0983987 -0.88092798 -0.11983933 37
-1.1011742 -0.88283837 -0.071722478 35
-1.1026288 -0.88368839 -0.023757305 36
-1.10789 -0.88758737 0.36987013 35
-1.1136607 -0.89189142 0.32031292 35
-1.1065561 -0.8858847 0.2678459 34
-1.1133529 -0.89100724 0.21954821 35
-1.1033071 -0.88265181 0.16878903 35
-1.1190778 -0.89494818 0.12201804 39
-1.1101962 -0.88752776 0.072485298 37
-1.0960476 -0.87590337 0.023822535 67
-1.1134715 -0.88823652 -0.37140548 16
-1.1002463 -0.87737238 -0.31605643 31
-1.1084089 -0.88356507 -0.26784611 35
-1.1036 -0.87941676 -0.21744409 36
-1.1245619 -0.89579958 -0.17183596 35
-1.1014669 -0.87708855 -0.11983933 38
-1.1003426 -0.87587947 -0.07146167 35
-1.1057067 -0.87983412 -0.023757305 34
-1.1072016 -0.88070798 0.36857688 35
-1.1129538 -0.88496637 0.31918901 34
-1.1057993 -0.87896252 0.26689273 37
-1.1125897 -0.88404316 0.2187669 34
-1.1063814 -0.87879521 0.16878903 33
-1.118294 -0.88793904 0.12158226 39
-1.1093765 -0.88054287 0.072223619 37
-1.0951823 -0.86896485 0.023735272 69
-1.1165652 -0.8843444 -0.37140548 16
-1.1033022 -0.87352645 -0.31605643 32
-1.1076376 -0.87664449 -0.26689291 35
-1.1066631 -0.87555909 -0.21744409 34
-1.1237895 -0.88879019 -0.17122662 35
-1.1045219 -0.87323833 -0.11983933 38
-1.1033933 -0.87203324 -0.07146167 37
-1.1048485 -0.87287003 -0.023670916 35
-1.1102691 -0.87683773 0.36857688 35
-1.1122121 -0.87805712 0.31806511 36
-1.1088607 -0.87509722 0.26689273 36
-1.1156688 -0.88015407 0.2187669 34
-1.1055455 -0.87185478 0.16817969 34
-1.1213866 -0.8840301 0.12158226 39
-1.1124434 -0.87666506 0.072223619 37
-1.0982088 -0.86513668 0.023735272 68
-1.1158489 -0.87745607 -0.37011138 15
-1.1063447 -0.86966985 -0.31605643 31
-1.110691 -0.87277281 -0.26689291 35
-1.105829 -0.86864018 -0.21666192 36
-1.1268852 -0.88486207 -0.17122662 34
-1.1075633 -0.86937749 -0.11983933 38
-1.1064305 -0.86817634 -0.07146167 37
-1.1078886 -0.86900806 -0.023670916 37
-1.1095222 -0.86997664 0.36728364 36
-1.1152703 -0.87416941 0.31806511 37
-1.108045 -0.86819398 0.26593953 35
-1.1148465 -0.87320918 0.21798559 36
-1.1085821 -0.86799043 0.16817969 35
-1.1205434 -0.87704039 0.12114649 37
-1.1115643 -0.86969972 0.071961939 37
-1.101222 -0.86129797 0.023735272 68
-1.1189051 -0.87355572 -0.37011138 16
-1.1093737 -0.86580276 -0.31605643 29
-1.1137308 -0.86889046 -0.26689291 36
-1.1088544 -0.86477482 -0.21666192 34
-1.129967 -0.88092303 -0.17122662 33
-1.1105913 -0.86550611 -0.11983933 36
-1.1094543 -0.86430889 -0.07146167 37
-1.1109153 -0.86513555 -0.023670916 36
-1.1125523 -0.8660984 0.36728364 35
-1.1144699 -0.86727887 0.3169412 36
-1.1110688 -0.86432087 0.26593953 35
-1.1178877 -0.86931229 0.21798559 33
-1.1116052 -0.86411542 0.16817969 35
-1.123598 -0.87312353 0.12114649 37
-1.1145934 -0.86581427 0.071961939 35
-1.1042218 -0.8574487 0.023735272 66
-1.1219474 -0.8696447 -0.37011138 16
-1.1162401 -0.86490899 -0.31718117 28
-1.1167569 -0.86499751 -0.26689291 33
-1.1157711 -0.86392236 -0.21744409 35
-1.1330352 -0.87697339 -0.17122662 30
-1.1175451 -0.86467218 -0.12027511 36
-1.1124645 -0.8604309 -0.07146167 35
-1.1139284 -0.86125243 -0.023670916 33
-1.1193902 -0.86516321 0.36857688 33
-1.1213459 -0.86636215 0.31806511 34
-1.1179638 -0.86343753 0.26689273 34
-1.1248244 -0.86842281 0.2187669 33
-1.1185435 -0.86326206 0.16878903 33
-1.1305826 -0.8722387 0.12158226 36
-1.1215627 -0.8649677 0.072223619 34
-1.1111673 -0.85664129 0.023822535 65
-1.1288037 -0.86866844 -0.37140548 15
-1.1192524 -0.86100733 -0.31718117 30
-1.1236604 -0.86408615 -0.26784611 31
-1.1187799 -0.86002231 -0.21744409 33
-1.1400244 -0.87603688 -0.17183596 31
-1.1205566 -0.86076599 -0.12027511 34
-1.1194216 -0.85958344 -0.071722478 33
-1.1208936 -0.86040288 -0.023757305 31
-1.1224034 -0.86125052 0.36857688 31
-1.1243633 -0.86244261 0.31806511 33
-1.1209708 -0.85952979 0.26689273 32
-1.127849 -0.86449116 0.2187669 31
-1.12155 -0.85935235 0.16878903 32
-1.1336204 -0.86828685 0.12158226 35
-1.1285397 -0.86408293 0.072485298 33
-1.1141508 -0.85275745 0.023822535 65
-1.1318291 -0.86472291 -0.37140548 15
-1.126123 -0.86005211 -0.31830594 29
-1.1305712 -0.86313701 -0.26879928 30
-1.125701 -0.85910791 -0.21822625 31
-1.1470212 -0.87506223 -0.17244531 31
-1.1275151 -0.85986972 -0.12071089 33
-1.126386 -0.85869783 -0.071983285 33
-1.1278664 -0.85951513 -0.023843694 31
-1.1292449 -0.86025423 0.36987013 30
-1.131243 -0.86146438 0.31918901 31
-1.1278698 -0.8585847 0.2678459 30
-1.1347897 -0.86353964 0.21954821 32
-1.1284927 -0.85843676 0.16939838 31
-1.1406093 -0.86733955 0.12201804 34
-1.1355242 -0.86315995 0.072746977 33
-1.1211011 -0.8518877 0.023909796 64
-1.1386887 -0.86368549 -0.37269959 14
-1.1368824 -0.86200297 -0.32055545 29
-1.1374888 -0.86215013 -0.26975247 30
-1.1326292 -0.85815555 -0.21900843 31
-1.1540247 -0.87404931 -0.17305467 29
-1.1384521 -0.86194199 -0.12158245 34
-1.133358 -0.85777414 -0.072244093 31
-1.1348466 -0.85858923 -0.023930086 32
-1.1360931 -0.85922056 0.3711634 31
-1.1381295 -0.86044848 0.32031292 31
-1.1347758 -0.85760176 0.2687991 30
-1.1417377 -0.8625502 0.22032951 30
-1.1354426 -0.85748315 0.17000772 31
-1.1476052 -0.86635381 0.12245382 34
-1.1425158 -0.86219865 0.073008657 33
-1.1280589 -0.85097986 0.023997057 65
-1.1455547 -0.86261064 -0.37399366 14
-1.1437769 -0.86095917 -0.32168019 29
-1.1444134 -0.86112547 -0.27070567 29
-1.1395643 -0.85716528 -0.21979061 31
-1.1610352 -0.87299818 -0.173664 31
-1.1454355 -0.8609556 -0.12201823 33
-1.1403373 -0.85681212 -0.0725049 31
-1.141834 -0.85762501 -0.024016475 32
-1.1429478 -0.85814959 0.37245664 30
-1.1450227 -0.85939509 0.32143679 31
-1.1416886 -0.85658109 0.26975229 31
-1.1486925 -0.86152261 0.22111082 29
-1.1423997 -0.85649157 0.17061707 31
-1.1546081 -0.86532986 0.12288959 33
-1.1495146 -0.86119908 0.073270336 32
-1.1350241 -0.85003382 0.02408432 65
-1.152427 -0.86149836 -0.37528777 14
-1.1506778 -0.85987777 -0.32280496 30
-1.1552769 -0.86300039 -0.27261204 31
-1.1465064 -0.85613704 -0.22057277 31
-1.1680526 -0.87190872 -0.17427336 30
-1.1524258 -0.85993087 -0.12245401 33
-1.1473236 -0.85581189 -0.072765715 31
-1.1488284 -0.8566224 -0.024102865 32
-1.1498088 -0.85704118 0.37374988 29
-1.1558292 -0.86121488 0.3236846 31
-1.1486081 -0.85552263 0.27070546 30
-1.159615 -0.86340636 0.22267345 29
-1.1493634 -0.85546166 0.17122643 31
-1.1616179 -0.86426747 0.12332538 33
-1.1565201 -0.86016113 0.073532015 32
-1.146008 -0.85203212 0.024258845 63
-1.1631838 -0.86322677 -0.37787595 15
-1.1575849 -0.85875857 -0.3239297 29
-1.1622248 -0.8618862 -0.27356523 29
-1.1534551 -0.85507077 -0.22135495 31
-1.1750761 -0.87078089 -0.1748827 29
-1.159423 -0.85886782 -0.12288979 32
-1.1543167 -0.85477322 -0.073026523 32
-1.1558298 -0.8555814 -0.024189256 30
-1.1566759 -0.85589528 0.37504312 31
-1.1627452 -0.86007231 0.32480851 28
-1.1555339 -0.85442621 0.27165866 30
-1.1665933 -0.86228877 0.22345476 28
-1.1563338 -0.85439348 0.17183577 30
-1.1726408 -0.86612606 0.12419693 34
-1.1635326 -0.85908478 0.073793694 30
-1.1529976 -0.85099542 0.024346106 63
-1.1700783 -0.86202586 -0.37917006 14
-1.1644984 -0.85760158 -0.32505447 28
-1.1731316 -0.86364383 -0.2754716 28
-1.1604103 -0.85396624 -0.22213712 31
-1.1861037 -0.87255538 -0.17610139 30
-1.1664267 -0.85776633 -0.12332556 33
-1.1653396 -0.85665357 -0.073548138 31
-1.1668664 -0.85746217 -0.024362035 32
-1.1674415 -0.85757118 0.37762964 30
-1.1696675 -0.85889208 0.32593241 29
-1.166423 -0.85619617 0.27356502 28
-1.1735778 -0.86113304 0.22423606 29
-1.1633109 -0.85328722 0.17244512 29
-1.1796739 -0.86497277 0.12463271 33
-1.1745787 -0.86092162 0.074317053 30
-1.1599938 -0.84992027 0.024433367 62
-1.1769785 -0.86078733 -0.38046414 14
-1.1714177 -0.85640675 -0.32617921 28
-1.180102 -0.86243969 -0.2764248 28
-1.1713594 -0.85573685 -0.22370146 30
-1.19315 -0.87133664 -0.17671074 29
-1.1734368 -0.85662639 -0.12376134 32
-1.1723562 -0.855524 -0.073808946 30
-1.1738911 -0.8563301 -0.024448426 32
-1.1743304 -0.85633653 0.37892288 29
-1.1765954 -0.8576737 0.32705632 30
-1.1733713 -0.85500997 0.27451822 29
-1.1805683 -0.85993886 0.22501737 28
-1.1702942 -0.85214245 0.17305446 29
-1.1867131 -0.86378092 0.12506849 33
-1.181614 -0.85975397 0.074578732 31
-1.1669964 -0.84880644 0.02452063 63
-1.1877925 -0.86234856 -0.38305238 14
-1.1783429 -0.85517412 -0.32730398 26
-1.1870782 -0.86119735 -0.27737799 29
-1.1783372 -0.85454208 -0.22448364 29
-1.2002022 -0.87007922 -0.17732009 29
-1.1844863 -0.85837072 -0.1246329 32
-1.1793791 -0.85435575 -0.074069753 30
-1.1809223 -0.85515934 -0.024534816 30
-1.1812248 -0.85506421 0.38021615 28
-1.1835293 -0.8564176 0.32818022 28
-1.1803256 -0.85378563 0.27547142 28
-1.1875648 -0.85870641 0.22579868 27
-1.1772836 -0.85095936 0.17366381 30
-1.1937585 -0.8625505 0.12550427 33
-1.1886557 -0.85854775 0.074840412 31
-1.1780584 -0.85058063 0.024695154 63
-1.1947136 -0.86102092 -0.38434646 14
-1.1813209 -0.85105568 -0.32730398 23
-1.19406 -0.85991681 -0.27833116 28
-1.1893287 -0.85619432 -0.22604798 30
-1.2072603 -0.86878324 -0.17792943 29
-1.1915188 -0.85713959 -0.12506868 31
-1.186408 -0.85314888 -0.074330568 28
-1.1920187 -0.85686791 -0.024707597 32
-1.1881245 -0.85375428 0.38150942 30
-1.1904684 -0.85512346 0.32930413 30
-1.1872858 -0.85252315 0.27642459 27
-1.1945671 -0.85743564 0.22657999 29
-1.1883112 -0.85263103 0.1748825 28
-1.2008095 -0.86128122 0.12594004 31
-1.1957034 -0.8573029 0.075102091 31
-1.1850837 -0.84937561 0.024782415 63
-1.2016398 -0.85965538 -0.38564056 14
-1.1882472 -0.84976089 -0.32842872 21
-1.2010473 -0.85859793 -0.27928436 29
-1.1963282 -0.85490882 -0.22683015 30
-1.2143236 -0.86744851 -0.17853878 29
-1.198557 -0.85586977 -0.12550446 31
-1.1975069 -0.85480428 -0.074852183 30
-1.1990719 -0.85560554 -0.024793986 30
-1.1950296 -0.85240644 0.38280267 28
-1.1974131 -0.85379124 0.33042803 29
-1.1942512 -0.85122234 0.27737778 28
-1.205597 -0.85899204 0.2281426 29
-1.1953225 -0.85135686 0.17549184 28
-1.2078663 -0.85997343 0.12637582 32
-1.2027565 -0.85601908 0.07536377 30
-1.1921149 -0.84813184 0.024869677 62
-1.208571 -0.85825205 -0.38693464 14
-1.1912062 -0.84560788 -0.32842872 16
-1.20804 -0.85724068 -0.28023756 28
-1.2033331 -0.85358489 -0.22761233 30
-1.2213925 -0.86607504 -0.17914812 29
-1.2096647 -0.85744166 -0.12637602 30
-1.2045574 -0.85350579 -0.075112991 28
-1.2061309 -0.85430443 -0.024880376 31
-1.2019396 -0.85102081 0.38409594 29
-1.2043629 -0.85242105 0.33155197 28
-1.2012221 -0.84988344 0.27833098 29
-1.2126201 -0.85763013 0.22892392 27
-1.2023393 -0.85004413 0.17610119 27
-1.218996 -0.86150128 0.12724738 33
-1.2098155 -0.85469657 0.075625449 30
-1.1991516 -0.8468492 0.02495694 63
-1.215507 -0.85681069 -0.38822874 13
-1.2021157 -0.8470571 -0.33067822 14
-1.2190505 -0.85867178 -0.28214395 29
-1.2103431 -0.85222244 -0.22839449 30
-1.2325249 -0.86751914 -0.18036683 28
-1.2167239 -0.85608011 -0.1268118 30
-1.2116137 -0.85216844 -0.075373799 29
-1.2131952 -0.85296434 -0.024966767 30
-1.212806 -0.85237437 0.38668242 28
-1.2153041 -0.85381329 0.33379978 29
-1.2122149 -0.851327 0.28023735 30
-1.2196485 -0.85622972 0.22970523 27
-1.2093614 -0.84869277 0.17671053 28
-1.2260735 -0.86010158 0.12768316 31
-1.2209679 -0.85620195 0.076148808 30
-1.2102877 -0.84839737 0.025131464 62
-1.2224474 -0.8553313 -0.38952285 14
-1.2090575 -0.84564811 -0.33180302 12
-1.226063 -0.85722369 -0.28309712 29
-1.2214062 -0.85365045 -0.22995885 29
-1.2396138 -0.86605388 -0.18097618 29
-1.2237885 -0.85467976 -0.12724757 31
-1.218675 -0.85079217 -0.075634606 27
-1.2202649 -0.85158533 -0.025053157 30
-1.2197351 -0.85089916 0.38797569 27
-1.2222735 -0.85235274 0.33492368 29
-1.2192057 -0.84989733 0.28119054 28
-1.2307336 -0.8576141 0.23126787 27
-1.2163886 -0.84730268 0.17731988 27
-1.233156 -0.85866272 0.12811893 31
-1.2280471 -0.85478723 0.076410487 29
-1.2173455 -0.84702289 0.025218725 61
-1.2293925 -0.85381389 -0.39081693 13
-1.2200059 -0.84697926 -0.33405253 10
-1.2330803 -0.85573709 -0.28405032 28
-1.2284364 -0.85219675 -0.23074104 28
-1.2467073 -0.86454958 -0.18158554 29
-1.230858 -0.85324043 -0.12768336 30
-1.2257416 -0.84937692 -0.075895414 30
-1.2273395 -0.85016727 -0.025139546 28
-1.2266688 -0.8493858 0.38926893 27
-1.2332532 -0.85362673 0.33717149 28
-1.2302377 -0.85122186 0.28309694 28
-1.2377815 -0.85612214 0.23204918 27
-1.223421 -0.84587389 0.17792922 26
-1.2402434 -0.85718513 0.12855473 31
-1.2392396 -0.85617173 0.076933846 30
-1.2244083 -0.84560937 0.025305986 63
-1.2403183 -0.85499948 -0.39340511 13
-1.2349898 -0.85100853 -0.33742678 14
-1.2401021 -0.85421199 -0.28500351 29
-1.235471 -0.85070419 -0.2315232 28
-1.2538055 -0.86300617 -0.18219487 27
-1.242036 -0.85458565 -0.12855493 30
-1.2328131 -0.84792274 -0.076156229 28
-1.2385389 -0.85154259 -0.025312327 29
-1.237587 -0.85057008 0.39185542 27
-1.2402412 -0.85207552 0.3382954 28
-1.2412935 -0.85247976 0.2850033 28
-1.2448338 -0.85459137 0.23283048 27
-1.2345499 -0.8472144 0.17914791 28
-1.2473354 -0.85566831 0.1289905 30
-1.2463387 -0.85466468 0.077195533 28
-1.2314759 -0.84415668 0.025393249 64
-1.2472812 -0.853392 -0.39469922 13
-1.2500167 -0.85494339 -0.34080106 13
-1.2511799 -0.8554185 -0.28690988 27
-1.2425101 -0.84917283 -0.23230538 29
-1.2650058 -0.86422336 -0.18341357 26
-1.2491248 -0.85305399 -0.12899069 30
-1.2398893 -0.84642947 -0.076417036 29
-1.2456331 -0.85003203 -0.025398716 29
-1.2445384 -0.84896666 0.39314869 29
-1.2512584 -0.85323071 0.34054321 29
-1.2483174 -0.85090619 0.2859565 26
-1.2559717 -0.8558026 0.2343931 26
-1.2416015 -0.84569365 0.17975728 25
-1.2585491 -0.85691571 0.12986206 30
-1.25757 -0.85592782 0.077718891 29
-1.2385484 -0.84266508 0.025480511 63
-1.2542478 -0.85174614 -0.39599332 13
-1.2610551 -0.85604733 -0.34305057 13
-1.2582196 -0.85380179 -0.28786308 29
-1.2495537 -0.84760278 -0.23308755 28
-1.2721224 -0.86258751 -0.18402292 28
-1.260341 -0.85427785 -0.12986226 29
-1.2469699 -0.84489715 -0.076677844 30
-1.2527319 -0.84848225 -0.02548511 24
-1.2514938 -0.84732503 0.39444193 27
-1.2582639 -0.85158855 0.34166712 27
-1.2594106 -0.85204422 0.28786287 25
-1.2630423 -0.85417986 0.23517442 26
-1.2486572 -0.84413385 0.18036662 28
-1.2656596 -0.85530621 0.13029784 31
-1.2646875 -0.85432786 0.07798057 26
-1.2497685 -0.84393197 0.025655035 62
-1.2612182 -0.85006207 -0.3972874 13
-1.2680759 -0.85436243 -0.34417531 13
-1.2652634 -0.85214645 -0.28881627 25
-1.2566013 -0.84599382 -0.23386972 27
-1.28336 -0.86368334 -0.18524161 26
-1.2674481 -0.8526535 -0.13029803 28
-1.2581985 -0.84611201 -0.077199467 28
-1.2598349 -0.84689325 -0.025571499 28
-1.2584527 -0.84564513 0.39573517 27
-1.2693175 -0.85262448 0.3439149 27
-1.2664521 -0.85037911 0.28881606 28
-1.2742172 -0.85527045 0.23673703 27
-1.2598383 -0.84530026 0.18158531 29
-1.2727741 -0.85365748 0.13073361 26
-1.2718093 -0.85268861 0.07824225 28
-1.2568598 -0.84234768 0.025742298 62
-1.2722063 -0.85102504 -0.39987558 12
-1.2751004 -0.85263884 -0.34530008 14
-1.2723109 -0.8504523 -0.28976944 26
-1.2677591 -0.84708965 -0.23543407 27
-1.2904938 -0.86195481 -0.18585096 26
-1.2787017 -0.85375577 -0.1311696 27
-1.2652974 -0.84448683 -0.077460274 27
-1.2669423 -0.84526509 -0.025657889 26
-1.2694333 -0.84660691 0.39832169 26
-1.2763398 -0.85089111 0.3450388 26
-1.2734972 -0.84867507 0.28976923 26
-1.2813052 -0.85355544 0.23751834 27
-1.266912 -0.84364808 0.18219467 26
-1.2840389 -0.85472965 0.13160518 31
-1.283092 -0.85377616 0.078765616 28
-1.2639549 -0.84072399 0.025829561 63
-1.2791929 -0.84925038 -0.40116969 12
-1.2821281 -0.85087663 -0.34642482 14
-1.2793618 -0.84871924 -0.29072264 27
-1.2748239 -0.84538841 -0.23621623 28
-1.2976311 -0.86018687 -0.1864603 26
-1.2858262 -0.85203844 -0.13160537 27
-1.2765632 -0.8455798 -0.077981897 26
-1.2782216 -0.84635735 -0.025830669 25
-1.2764082 -0.84483629 0.39961493 25
-1.2874285 -0.85180736 0.34728661 26
-1.2805457 -0.84693217 0.29072243 24
-1.2883964 -0.85180122 0.23829965 25
-1.2781297 -0.84469312 0.18341336 26
-1.2911707 -0.85298783 0.13204095 32
-1.2902309 -0.85204363 0.079027295 28
-1.2752262 -0.84181523 0.026004085 62
-1.2902153 -0.85009432 -0.40375787 12
-1.2932277 -0.85175544 -0.34867433 15
-1.2905158 -0.84964645 -0.292629 26
-1.2860175 -0.84636319 -0.23778059 25
-1.3089179 -0.86110717 -0.18767899 26
-1.2929542 -0.85028172 -0.13204116 29
-1.2836794 -0.8438614 -0.078242704 26
-1.285346 -0.84463584 -0.025917061 27
-1.2874231 -0.84567904 0.40220144 26
-1.2944667 -0.84998238 0.34841052 27
-1.291701 -0.84784377 0.29262879 26
-1.29962 -0.85271722 0.23986228 24
-1.2852201 -0.84294808 0.18402271 27
-1.3024712 -0.85393769 0.1329125 29
-1.2973734 -0.8502717 0.079288974 26
-1.2865204 -0.84283793 0.02617861 63
-1.3012593 -0.85087168 -0.40634608 12
-1.3002709 -0.84990156 -0.3497991 15
-1.2975827 -0.84782124 -0.2935822 24
-1.2930988 -0.8445695 -0.23856275 25
-1.3160713 -0.85924596 -0.18828835 28
-1.3000855 -0.84848553 -0.13247694 28
-1.2907991 -0.84210366 -0.078503512 24
-1.2966615 -0.84560561 -0.02608984 26
-1.2944133 -0.84381753 0.40349469 25
-1.3015075 -0.84811854 0.34953442 26
-1.2987654 -0.84600872 0.29358199 26
-1.3108658 -0.85356504 0.24142489 26
-1.2964733 -0.84387124 0.1852414 26
-1.3096191 -0.85210252 0.13334829 30
-1.3045192 -0.84846014 0.079550654 27
-1.2936459 -0.8410669 0.026265871 62
-1.3082727 -0.84895325 -0.40764016 13
-1.3114042 -0.85066015 -0.35204861 15
-1.3046527 -0.84595704 -0.2945354 24
-1.304327 -0.84542263 -0.2401271 24
-1.3273923 -0.86004388 -0.18950704 24
-1.3114008 -0.84935766 -0.13334849 29
-1.3021137 -0.84302002 -0.079025127 27
-1.3079994 -0.84650671 -0.02626262 26
-1.3054614 -0.84454095 0.4060812 24
-1.3126423 -0.84886152 0.35178223 27
-1.3058325 -0.84413463 0.29453519 26
-1.3179852 -0.85166442 0.2422062 26
-1.3077484 -0.84472603 0.18646009 26
-1.3209544 -0.85292971 0.13421984 29
-1.3116682 -0.84660923 0.079812333 27
-1.3007746 -0.83925641 0.026353132 58
-1.3193494 -0.84961104 -0.41022834 12
-1.3184623 -0.84871423 -0.35317335 15
-1.3158526 -0.84670973 -0.29644176 25
-1.3114237 -0.84353608 -0.24090928 24
-1.3345608 -0.85808915 -0.19011639 25
-1.3185477 -0.84746796 -0.13378426 26
-1.3092493 -0.8411687 -0.079285935 26
-1.3151528 -0.84463733 -0.02634901 26
-1.3165302 -0.84519744 0.40866768 24
-1.3196977 -0.84690577 0.35290614 25
-1.3170338 -0.84487176 0.29644156 25
-1.3292645 -0.85239029 0.24376883 26
-1.3148671 -0.84283417 0.18706943 25
-1.3281176 -0.85100067 0.13465562 27
-1.3188199 -0.84471852 0.080074012 28
-1.3121167 -0.84010208 0.026527656 57
-1.3304462 -0.85020173 -0.41281655 13
-1.329628 -0.84935212 -0.35542285 16
-1.3229371 -0.84475297 -0.29739496 22
-1.3185228 -0.84161031 -0.24169144 26
-1.3459151 -0.85876423 -0.19133508 26
-1.3298969 -0.84821719 -0.13465583 27
-1.3163878 -0.8392778 -0.07954675 27
-1.3223088 -0.84272826 -0.026435401 27
-1.3276193 -0.84578687 0.4112542 25
-1.3308649 -0.8475281 0.35515395 25
-1.3241155 -0.8429051 0.29739475 24
-1.3363984 -0.85039634 0.24455012 23
-1.326176 -0.84356636 0.18828812 27
-1.3394866 -0.85170478 0.13552718 25
-1.3301885 -0.84546661 0.080597371 28
-1.3192608 -0.83819771 0.026614919 60
-1.3415635 -0.85072535 -0.41540477 13
-1.3366996 -0.84731394 -0.35654762 16
-1.33417 -0.84538412 -0.29930133 23
-1.3297966 -0.84228778 -0.24325579 24
-1.3530976 -0.85671562 -0.19194442 23
-1.3370585 -0.84623367 -0.1350916 28
-1.3277487 -0.84001672 -0.080068365 24
-1.3294678 -0.84077954 -0.026521791 25
-1.3346461 -0.84372842 0.41254744 23
-1.3379339 -0.84547997 0.35627785 27
-1.3353491 -0.84352052 0.29930112 25
-1.3477103 -0.85099983 0.24611275 26
-1.3333092 -0.84158087 0.18889748 24
-1.346664 -0.84968179 0.13596296 30
-1.337355 -0.84348196 0.08085905 25
-1.3264074 -0.8362537 0.026702181 61
-1.3486125 -0.84860945 -0.41669884 13
-1.3478968 -0.84783077 -0.35879713 16
-1.3412679 -0.84333444 -0.30025452 24
-1.3369097 -0.84026867 -0.24403796 25
-1.3644842 -0.85726738 -0.19316311 23
-1.3484404 -0.8468594 -0.13596317 27
-1.3391305 -0.84068662 -0.08058998 24
-1.3408636 -0.84144837 -0.026694572 24
-1.3457662 -0.84419769 0.41513398 22
-1.3491323 -0.84598112 0.35852566 24
-1.3424442 -0.84146094 0.30025432 25
-1.3548576 -0.84891248 0.24689406 25
-1.3446505 -0.84219015 0.19011617 23
-1.3580654 -0.85026228 0.13683452 29
-1.3487563 -0.84410644 0.081382409 25
-1.337795 -0.83692145 0.026876705 60
-1.3597597 -0.84901249 -0.41928706 13
-1.3549811 -0.84570009 -0.35992187 16
-1.3525321 -0.84384364 -0.30216089 23
-1.344025 -0.83821017 -0.24482013 24
-1.3716797 -0.85512477 -0.19377246 25
-1.3556157 -0.84478176 -0.13639894 26
-1.3462951 -0.83864713 -0.080850787 24
-1.3480363 -0.8394053 -0.026780961 26
-1.3569057 -0.84459949 0.4177205 25
-1.3562138 -0.84384054 0.35964957 24
-1.3495412 -0.83936203 0.30120748 23
-1.3662007 -0.84939295 0.24845667 24
-1.3517971 -0.84011084 0.19072551 24
-1.365256 -0.84814501 0.13727029 26
-1.3559363 -0.84202731 0.081644088 26
-1.3449556 -0.83488315 0.026963966 60
-1.3668206 -0.84680438 -0.42058113 12
-1.3662087 -0.84609538 -0.36217141 16
-1.3596427 -0.84170079 -0.30311409 23
-1.3553414 -0.83871084 -0.24638447 23
-1.3788768 -0.85294217 -0.19438182 25
-1.3670293 -0.84528375 -0.1372705 27
-1.3577091 -0.83919311 -0.08137241 25
-1.359464 -0.83995003 -0.026953742 26
-1.3639548 -0.84239572 0.41901374 26
-1.3674425 -0.84422016 0.36189741 25
-1.3608168 -0.83980167 0.30311388 24
-1.3733604 -0.84721178 0.24923798 24
-1.3589455 -0.83799195 0.19133486 27
-1.3766885 -0.84860146 0.13814184 29
-1.3673692 -0.84252769 0.082167447 27
-1.3563749 -0.83542675 0.02713849 62
-1.377997 -0.84708661 -0.42316931 12
-1.3733046 -0.84387183 -0.36329618 15
-1.3709372 -0.84208751 -0.30502045 22
-1.3624693 -0.83655876 -0.24716665 25
-1.3903049 -0.85331583 -0.19560052 24
-1.3742172 -0.84311152 -0.13770628 27
-1.3648866 -0.8370592 -0.081633218 24
-1.370912 -0.84042519 -0.027126521 27
-1.3751234 -0.84267676 0.42160022 24
-1.3786901 -0.84453154 0.36414522 24
-1.3679259 -0.83760947 0.30406705 24
-1.3805217 -0.84499091 0.25001928 25
-1.3703289 -0.83842337 0.19255355 23
-1.3838916 -0.84638965 0.13857763 29
-1.374562 -0.84035403 0.082429126 26
-1.3678143 -0.8359009 0.027313014 62
-1.3850688 -0.84478623 -0.42446342 14
-1.3845612 -0.84414518 -0.36554569 15
-1.382251 -0.84240568 -0.30692685 24
-1.373816 -0.83693635 -0.24873099 26
-1.3975139 -0.85103875 -0.19620986 25
-1.3856611 -0.84348935 -0.13857783 27
-1.3763312 -0.83748084 -0.082154833 25
-1.3823797 -0.84083062 -0.027299302 24
-1.3821833 -0.84038067 0.42289349 25
-1.3857931 -0.84224427 0.36526912 27
-1.3792311 -0.83792651 0.30597344 23
-1.3919052 -0.84529376 0.25158194 25
-1.3774893 -0.83621019 0.19316289 26
-1.3953542 -0.84672177 0.13944918 28
-1.3860252 -0.84072989 0.082952484 25
-1.3792734 -0.8363052 0.027487539 61
-1.392141 -0.84244663 -0.42575753 14
-1.391668 -0.84182858 -0.36667043 16
-1.3935834 -0.84265506 -0.30883324 25
-1.3851819 -0.83724481 -0.25029534 26
-1.4089712 -0.85128802 -0.19742855 26
-1.3971244 -0.8437975 -0.1394494 27
-1.3835207 -0.83525199 -0.08241564 26
-1.3895866 -0.83858311 -0.027385691 26
-1.3933796 -0.84054047 0.42547998 25
-1.3970691 -0.84243357 0.36751691 25
-1.390555 -0.83817464 0.30787984 24
-1.3990774 -0.84297872 0.25236323 26
-1.3889024 -0.83651769 0.19438158 24
-1.4068359 -0.84698421 0.14032075 29
-1.3975078 -0.84103602 0.083475843 27
-1.3907518 -0.83663952 0.027662061 62
-1.4033546 -0.84255397 -0.42834571 13
-1.4029527 -0.84197962 -0.36891994 15
-1.4007252 -0.84031039 -0.30978641 25
-1.3923315 -0.83494443 -0.25107753 25
-1.4161907 -0.84891623 -0.19803791 27
-1.4086066 -0.84403586 -0.14032097 29
-1.3949951 -0.835549 -0.082937263 23
-1.4010837 -0.83886361 -0.027558472 27
-1.4045938 -0.84063214 0.42806649 26
-1.4041821 -0.84005296 0.36864081 25
-1.4018973 -0.83835387 0.3097862 25
-1.4104892 -0.84315771 0.25392586 25
-1.3960739 -0.83420998 0.19499093 26
-1.4140601 -0.84462249 0.14075653 29
-1.4047222 -0.83871233 0.083737522 28
-1.4022495 -0.83690399 0.027836585 62
-1.4104364 -0.84012187 -0.42963982 13
-1.4142551 -0.84206212 -0.37116945 15
-1.4120855 -0.84043652 -0.3116928 26
-1.4037256 -0.83512908 -0.25264189 26
-1.4276763 -0.84904099 -0.1992566 26
-1.4201075 -0.84420425 -0.14119253 29
-1.4021958 -0.83322519 -0.083198071 26
-1.4125999 -0.83907402 -0.027731255 27
-1.4158256 -0.84065586 0.43065301 25
-1.4154854 -0.84011972 0.37088862 27
-1.4132578 -0.83846414 0.31169257 27
-1.4219193 -0.84326738 0.25548849 28
-1.4075155 -0.83439314 0.19620964 26
-1.42557 -0.84475982 0.14162809 27
-1.4162335 -0.83889335 0.084260888 27
-1.4137659 -0.83709842 0.028011112 64
-1.4216763 -0.84010738 -0.432228 13
-1.4213806 -0.839598 -0.37229422 16
-1.4234636 -0.84049338 -0.31359917 28
-1.4151381 -0.83524442 -0.25420621 28
-1.4391798 -0.84909576 -0.20047529 27
-1.4316266 -0.84430254 -0.14206408 30
-1.4136987 -0.83339703 -0.083719693 28
-1.4241343 -0.83921409 -0.027904034 27
-1.4229128 -0.83815986 0.43194625 26
-1.4268059 -0.84011757 0.37313643 27
-1.4246359 -0.83850509 0.31359896 27
-1.4333674 -0.84330732 0.25705111 28
-1.418975 -0.83450651 0.19742833 26
-1.4370979 -0.84482712 0.14249964 30
-1.427763 -0.8390041 0.084784247 28
-1.4253004 -0.83722234 0.028185636 65
-1.432933 -0.84002471 -0.43481618 13
-1.4327093 -0.83955765 -0.37454373 16
-1.4348593 -0.84048104 -0.31550553 28
-1.4265683 -0.83529013 -0.25577056 29
-1.446418 -0.84657371 -0.20108464 29
-1.4388641 -0.84181535 -0.14249986 33
-1.4252195 -0.83349872 -0.084241308 28
-1.431371 -0.83676088 -0.027990425 29
-1.4341701 -0.83806145 0.43453273 27
-1.4381435 -0.84004664 0.37538424 30
-1.4360316 -0.8384769 0.31550533 28
-1.4448328 -0.84327769 0.25861374 29
-1.4304525 -0.8345499 0.19864702 27
-1.4486437 -0.84482419 0.14337119 33
-1.4393103 -0.83904445 0.085307606 29
-1.4368529 -0.83727592 0.02836016 68
-1.4442066 -0.83987361 -0.43740436 13
-1.444055 -0.83944833 -0.37679324 16
-1.4462721 -0.84039938 -0.31741193 31
-1.4380161 -0.83526629 -0.25733492 33
-1.4579477 -0.84650332 -0.20230334 32
-1.4504098 -0.84178823 -0.14337142 36
-1.4367583 -0.83352989 -0.084762931 32
-1.4429322 -0.83677518 -0.028163204 33
-1.4454439 -0.83789462 0.43711925 31
-1.4494981 -0.83990675 0.37763205 34
-1.4474441 -0.83837926 0.31741169 31
-1.4563153 -0.84317815 0.26017633 37
-1.4419473 -0.83452332 0.19986571 31
-1.4602069 -0.84475082 0.14424275 37
-1.4508753 -0.83901435 0.085830964 36
-1.4484231 -0.83725905 0.028534682 72
-1.4554963 -0.83965397 -0.43999255 14
-1.4554173 -0.83926988 -0.37904274 16
-1.4577017 -0.84024823 -0.31931829 38
-1.4494809 -0.83517259 -0.25889924 37
-1.4694947 -0.84636271 -0.20352203 38
-1.4576561 -0.83920544 -0.1438072 54
-1.4483144 -0.83349073 -0.085284546 36
-1.4545113 -0.83671898 -0.028335985 46
-1.4567338 -0.83765924 0.43970576 39
-1.4608691 -0.8396979 0.37987986 39
-1.4588735 -0.83821213 0.31931809 39
-1.4678148 -0.8430087 0.26173896 53
-1.4534595 -0.8344267 0.20108441 36
-1.471787 -0.844607 0.14511432 54
-1.4624574 -0.83891374 0.086354323 50
-1.4600106 -0.83717161 0.028709207 81
-1.466802 -0.83936572 -0.44258076 15
-1.4667958 -0.8390224 -0.38129225 18
-1.4691477 -0.84002745 -0.32122469 60
-1.4609624 -0.83500892 -0.2604636 62
-1.4810582 -0.84615177 -0.20474072 58
-1.4692272 -0.83905238 -0.14467876 74
-1.4598879 -0.833381 -0.085806161 53
-1.4704492 -0.83906978 -0.028595155 76
-1.472235 -0.83974814 0.44358552 65
-1.4680237 -0.83700651 0.38100377 70
-1.4703193 -0.83797532 0.32122445 67
-1.4793305 -0.84276915 0.26330158 88
-1.4649882 -0.83425969 0.2023031 61
-1.4833837 -0.84439248 0.14598587 84
-1.4740564 -0.83874243 0.086877681 74
-1.4759605 -0.83948487 0.028970992 86
-1.4781233 -0.83900869 -0.44516894 19
-1.4697156 -0.83389717 -0.38129225 18
-1.4806099 -0.83973682 -0.32313105 86
-1.4724603 -0.83477521 -0.26202795 87
-1.4883205 -0.84342349 -0.20535007 84
-1.4764811 -0.83637381 -0.14511454 101
-1.4671329 -0.83074021 -0.086066969 79
-1.4820706 -0.83885676 -0.028767936 96
-1.4835646 -0.83936059 0.446172 96
-1.4794182 -0.8366738 0.38325158 91
-1.4775082 -0.8352533 0.32217765 95
-1.4865631 -0.84002978 0.26408288 99
-1.4765335 -0.83402234 0.20352179 91
-1.4906596 -0.84165835 0.14642164 104
-1.4856719 -0.83850026 0.08740104 101
-1.483236 -0.83678412 0.029058255 95
-1.4852514 -0.83621335 -0.44646302 22
-1.4726175 -0.82876188 -0.38129225 31
-1.4920877 -0.83937651 -0.32503742 101
-1.4796699 -0.8320508 -0.26281011 101
-1.4955817 -0.84065485 -0.20595942 101
-1.4793916 -0.83121479 -0.14511454 99
-1.4743774 -0.82805902 -0.086327784 100
-1.4849896 -0.83367831 -0.028767936 93
-1.4822736 -0.83181328 0.44487876 90
-1.4823296 -0.83150458 0.38325158 90
-1.4846959 -0.83249128 0.32313082 92
-1.4894862 -0.83483559 0.26408288 74
-1.4794357 -0.82886314 0.20352179 93
-1.4935884 -0.83644986 0.14642164 99
-1.4929466 -0.83574814 0.087662719 98
-1.4774226 -0.82671922 0.028883731 71
-1.4965948 -0.83573323 -0.44905126 29
-1.4755014 -0.82361639 -0.38129225 24
-1.4907224 -0.83177143 -0.32408425 84
-1.4825652 -0.82688075 -0.26281011 90
-1.4941723 -0.83301258 -0.20535007 89
-1.4822841 -0.82604569 -0.14511454 70
-1.4772589 -0.82290739 -0.086327784 92
-1.4791552 -0.8236255 -0.028595155 69
-1.4767277 -0.82193619 0.44229224 58
-1.4852232 -0.82632518 0.38325158 66
-1.4833032 -0.82491809 0.32217765 67
-1.4837584 -0.8248322 0.26252028 48
-1.4823201 -0.82369393 0.20352179 70
-1.4921447 -0.82881248 0.14598587 72
-1.4871241 -0.82568419 0.087139361 70
-1.471557 -0.81670505 0.028709207 47
-1.4826033 -0.8211441 -0.44387484 19
-1.4741051 -0.81610125 -0.38016751 22
-1.4850276 -0.82180959 -0.32217786 57
-1.4811212 -0.81931013 -0.26202795 66
-1.492728 -0.82539046 -0.20474072 58
-1.4807991 -0.81845695 -0.14467876 51
-1.4757519 -0.81533116 -0.086066969 62
-1.4776449 -0.8160404 -0.028508766 50
-1.4753594 -0.81444234 0.440999 41
-1.4838327 -0.81878191 0.38212767 45
-1.4818759 -0.81736481 0.32122445 42
-1.4823037 -0.81726336 0.26173896 38
-1.48084 -0.81611937 0.20291245 48
-1.4906659 -0.82119548 0.14555009 53
-1.4812496 -0.81567109 0.086616002 51
-1.4700193 -0.80915266 0.028621946 42
-1.4812274 -0.81363863 -0.44258076 16
-1.4769449 -0.8109507 -0.38016751 16
-1.4835844 -0.81425935 -0.32122469 45
-1.4796425 -0.81175977 -0.26124576 49
-1.4912486 -0.81778854 -0.20413138 43
-1.4749115 -0.80849457 -0.1438072 40
-1.47421 -0.8077755 -0.085806161 45
-1.4717152 -0.8060745 -0.028335985 41
-1.4739569 -0.80696791 0.43970576 40
-1.4824078 -0.81125844 0.38100377 41
-1.4804139 -0.80983156 0.32027125 37
-1.4764813 -0.80734551 0.26017633 38
-1.4793249 -0.80856502 0.2023031 41
-1.4891523 -0.81359893 0.14511432 45
-1.4797055 -0.80810237 0.086354323 40
-1.4640589 -0.79922563 0.028447421 36
-1.4755764 -0.80384243 -0.43999255 14
-1.4754881 -0.80346036 -0.37904274 14
-1.4821067 -0.80672914 -0.32027149 39
-1.4737911 -0.80186951 -0.25968143 42
-1.4897345 -0.81020713 -0.20352203 38
-1.4733484 -0.80096221 -0.14337142 40
-1.4726335 -0.80024052 -0.085545354 38
-1.4701269 -0.79854614 -0.028249595 40
-1.4725202 -0.79951334 0.43841249 36
-1.4809487 -0.80375499 0.37987986 40
-1.4789174 -0.80231845 0.31931809 37
-1.4749492 -0.79983252 0.25939503 35
-1.4777753 -0.80103135 0.20169376 38
-1.4876037 -0.806023 0.14467853 39
-1.4781266 -0.80055434 0.086092643 40
-1.4624434 -0.79173017 0.02836016 36
-1.4741241 -0.79639119 -0.43869847 13
-1.4739969 -0.79599011 -0.377918 14
-1.4805944 -0.79921919 -0.31931829 38
-1.4722351 -0.79437506 -0.25889924 40
-1.4925536 -0.80500203 -0.20352203 36
-1.471751 -0.79345065 -0.14293563 38
-1.4754179 -0.79509521 -0.085545354 37
-1.4685041 -0.79103869 -0.028163204 37
-1.4710494 -0.79207861 0.43711925 35
-1.4794551 -0.79627156 0.37875596 33
-1.4773865 -0.79482573 0.31836489 34
