# .PCD v0.7 - Point Cloud Data file format
VERSION 0.7
FIELDS x y z intensity
SIZE 4 4 4 4
TYPE F F F F
COUNT 1 1 1 1
WIDTH 1373
HEIGHT 1
VIEWPOINT 0 0 0 1 0 0 0
POINTS 1373
DATA ascii
-1.9153829 2.2778156 0.67771465 6
-1.9132614 2.276099 0.57000661 15
-1.911803 2.2751698 0.46409836 15
-1.9046736 2.267489 0.3589052 6
-1.9207966 2.2874939 0.257981 15
-1.91219 2.2780514 0.15386769 16
-1.8980274 2.2619805 0.050873764 12
-1.2309264 1.4695631 -0.50340325 3
-1.4101073 1.6840785 -0.49826688 3
-1.6596085 1.9827585 -0.49470508 9
-1.9038124 2.2753193 -0.46382856 9
-1.9094723 2.2828932 -0.36073366 8
-1.9096113 2.283869 -0.25710985 14
-1.9010276 2.2744095 -0.15283407 12
-1.8997023 2.2736301 -0.050538264 14
-1.9069906 2.2831631 0.78629738 11
-1.9042978 2.2807479 0.6765908 15
-1.8990145 2.2752273 0.56810021 10
-1.9006855 2.2780375 0.46331704 11
-1.8903896 2.2665014 0.35768652 17
-1.9096105 2.290359 0.25754523 15
-1.9010296 2.2808766 0.15360603 12
-1.8869199 2.2647512 0.050786499 12
-1.2255319 1.4740649 -0.50340325 3
-1.4039253 1.6892354 -0.49826688 3
-1.6554666 1.9926032 -0.49565825 10
-1.88915 2.2746837 -0.46226421 9
-1.8979224 2.2860582 -0.36012432 7
-1.8980467 2.28702 -0.25667405 15
-1.8894904 2.277519 -0.15257327 12
-1.8881649 2.2767296 -0.050451875 14
-1.8955269 2.2864187 0.78500408 12
-1.8897079 2.2802098 0.67434299 11
-1.8843999 2.2746127 0.56619388 10
-1.8860234 2.2773814 0.46175441 11
-1.8757404 2.2657695 0.35646781 12
-1.8948516 2.2896678 0.25667366 14
-1.8862915 2.2801344 0.15308267 12
-1.8722346 2.2639468 0.050611973 12
-1.220379 1.4783338 -0.50340325 3
-1.3980203 1.6941258 -0.49826688 3
-1.648501 1.9983696 -0.49565825 9
-1.8717724 2.269834 -0.45991769 8
-1.8836175 2.2850103 -0.35890561 8
-1.8837166 2.2859433 -0.25580251 15
-1.8751794 2.2763927 -0.15205164 12
-1.8738501 2.275588 -0.050279092 14
-1.8813951 2.2855635 0.7824176 12
-1.8786414 2.28303 0.67321903 10
-1.8702123 2.2735953 0.56428748 10
-1.8717891 2.2763219 0.46019179 11
-1.8646686 2.2684693 0.35585845 12
-1.8836854 2.2924197 0.25623786 15
-1.8751515 2.2828465 0.15282097 12
-1.8579702 2.2627454 0.05043745 11
-1.2152112 1.4825847 -0.50340325 3
-1.3951859 1.702764 -0.49939165 3
-1.6384053 2.0003147 -0.49470508 7
-1.8575809 2.2687118 -0.45835334 8
-1.8693434 2.2838907 -0.35768694 8
-1.8694174 2.2847948 -0.25493094 14
-1.8640606 2.2790594 -0.15179083 11
-1.8595668 2.274375 -0.050106313 14
-1.8672925 2.2846375 0.77983105 12
-1.8644953 2.282028 0.67097121 11
-1.856055 2.272507 0.56238109 11
-1.8575852 2.2751908 0.45862916 12
-1.8504628 2.2672749 0.35463977 11
-1.8693742 2.2912621 0.25536633 14
-1.8608599 2.2816393 0.15229762 12
-1.8437477 2.2614634 0.050262928 12
-1.2100285 1.4868176 -0.50340325 3
-1.3923081 1.7114027 -0.50051636 3
-1.631413 2.0060217 -0.49470508 6
-1.8403046 2.2636864 -0.45600685 7
-1.8550999 2.2826996 -0.35646823 7
-1.8551491 2.2835743 -0.25405937 15
-1.8497984 2.2778001 -0.15126921 12
-1.8453146 2.2730894 -0.049933534 14
-1.8532193 2.2836409 0.77724457 11
-1.8503793 2.2809551 0.6687234 10
-1.8419279 2.271347 0.56047469 11
-1.8434122 2.2739885 0.45706654 11
-1.8394129 2.2698648 0.35403043 11
-1.8550942 2.2900329 0.25449476 15
-1.8465995 2.2803602 0.15177426 12
-1.8295518 2.2601142 0.050088402 13
-1.2048312 1.4910322 -0.50340325 3
-1.3832645 1.7124627 -0.49939165 3
-1.6244007 2.0117042 -0.49470508 5
-1.8292898 2.2662537 -0.45522466 7
-1.8408877 2.2814367 -0.35524952 7
-1.8409123 2.2822821 -0.25318784 15
-1.8355678 2.2764692 -0.1507476 12
-1.8310941 2.2717323 -0.049760751 14
-1.8391759 2.2825742 0.77465808 11
-1.8362939 2.2798116 0.66647559 10
-1.8278316 2.2701166 0.5585683 10
-1.82927 2.2727149 0.45550394 11
-1.8252562 2.2685385 0.35281172 11
-1.8408457 2.2887316 0.25362322 14
-1.8323711 2.2790093 0.1512509 11
-1.8153874 2.2586935 0.049913879 12
-1.1996193 1.4952289 -0.50340325 3
-1.3742303 1.71348 -0.49826688 3
-1.6173687 2.0173621 -0.49470508 4
-1.8182795 2.2687719 -0.4544425 7
-1.826707 2.2801027 -0.35403085 7
-1.8267072 2.2809186 -0.25231627 15
-1.8213691 2.2750666 -0.15022598 12
-1.8200295 2.2742071 -0.049674366 15
-1.8251628 2.2814374 0.7720716 11
-1.8222388 2.2785978 0.66422778 10
-1.8137666 2.2688153 0.55666196 10
-1.8151594 2.2713704 0.45394132 11
-1.8111315 2.2671413 0.35159305 12
-1.8266289 2.2873592 0.25275165 15
-1.8181744 2.2775872 0.15072754 12
-1.8012557 2.2572014 0.049739353 12
-1.1913835 1.4956297 -0.50210917 3
-1.365206 1.7144556 -0.49714214 3
-1.6103169 2.0229957 -0.49470508 4
-1.810349 2.275105 -0.4544425 16
-1.8156474 2.2825811 -0.35342148 8
-1.815634 2.2833822 -0.25188047 14
-1.8072026 2.2735932 -0.14970437 12
-1.8058599 2.2727182 -0.049501583 14
-1.8111799 2.2802303 0.76948506 11
-1.8082148 2.2773135 0.66198003 11
-1.7997329 2.2674439 0.55475557 10
-1.8010807 2.2699552 0.45237869 11
-1.7970389 2.2656732 0.35037434 11
-1.8155388 2.2898183 0.25231588 15
-1.8040102 2.2760937 0.15020418 12
-1.7902611 2.259557 0.049652096 12
-1.1861554 1.4997791 -0.50210917 3
-1.3592131 1.7192105 -0.49714214 3
-1.6032455 2.0286043 -0.49470508 4
-1.7993349 2.2775354 -0.45366031 12
-1.801517 2.2811158 -0.35220277 8
-1.8014797 2.2818871 -0.25100893 15
-1.7930685 2.2720485 -0.14918275 12
-1.791723 2.2711582 -0.049328804 15
-1.8002186 2.2827466 0.76819187 10
-1.794222 2.2759595 0.65973222 10
-1.7857312 2.2660022 0.55284917 10
-1.7870338 2.2684696 0.45081607 11
-1.7829784 2.2641342 0.34915566 11
-1.8013729 2.2883143 0.25144431 15
-1.7898782 2.2745292 0.14968082 12
-1.7761811 2.2579341 0.04947757 13
-1.1809131 1.5039105 -0.50210917 3
-1.3562118 1.7277768 -0.49826688 3
-1.5961546 2.0341883 -0.49470508 5
-1.7883259 2.2799168 -0.45287815 12
-1.787419 2.2795796 -0.3509841 7
-1.7873579 2.2803211 -0.25013736 15
-1.7789676 2.2704329 -0.14866114 12
-1.7776188 2.2695272 -0.049156025 15
-1.7862843 2.2814107 0.76560533 10
-1.7832634 2.2783718 0.65860826 10
-1.774786 2.2683561 0.55189604 11
-1.7760619 2.2708035 0.45003474 12
-1.7689509 2.2625251 0.34793696 12
-1.7872398 2.2867393 0.25057277 15
-1.7757796 2.2728939 0.14915746 12
-1.7621343 2.2562404 0.049303047 12
-1.1756562 1.5080235 -0.50210917 3
-1.3531673 1.7363431 -0.49939165 3
-1.5890442 2.0397475 -0.49470508 6
-1.7773223 2.2822487 -0.45209596 13
-1.7733539 2.2779729 -0.34976539 8
-1.7732691 2.2786844 -0.2492658 14
-1.7679657 2.2726877 -0.14840032 12
-1.7666169 2.2717719 -0.049069632 14
-1.7723813 2.2800057 0.76301885 10
-1.7693207 2.2768886 0.65636045 10
-1.7608351 2.2667849 0.54998964 10
-1.7620667 2.2691879 0.44847211 11
-1.7549564 2.2608457 0.34671828 11
-1.7761929 2.2890286 0.25013697 15
-1.7647747 2.2751334 0.1488958 12
-1.7511843 2.2584267 0.049215782 12
-1.170385 1.5121181 -0.50210917 3
-1.3500792 1.7449089 -0.50051636 3
-1.5819145 2.0452819 -0.49470508 6
-1.7633036 2.2806251 -0.4505316 12
-1.7593218 2.2762961 -0.34854671 7
-1.7622589 2.2809188 -0.24883004 15
-1.7539175 2.2709415 -0.14787871 12
-1.752566 2.2700102 -0.048896853 14
-1.75851 2.2785313 0.7604323 9
-1.75541 2.2753358 0.65411264 10
-1.7469169 2.2651443 0.54808331 9
-1.7481045 2.2675025 0.44690952 11
-1.7409952 2.2590961 0.34549958 12
-1.7621123 2.2873232 0.24926542 15
-1.7507292 2.2733679 0.14837244 13
-1.7371911 2.256603 0.04904126 12
-1.1650996 1.5161943 -0.50210917 3
-1.3410124 1.7457477 -0.49939165 3
-1.5777547 2.0546842 -0.49565825 8
-1.749318 2.2789316 -0.44896728 12
-1.7453231 2.2745488 -0.34732801 8
-1.7482233 2.2791522 -0.24795848 15
-1.7429414 2.2730875 -0.14761789 12
-1.738549 2.2681787 -0.04872407 15
-1.7446704 2.276988 0.75784576 10
-1.741532 2.2737138 0.65186483 10
-1.7360153 2.2673309 0.54713005 10
-1.7341754 2.2657471 0.44534689 11
-1.7300832 2.2612181 0.34489024 11
-1.7480654 2.2855473 0.24839386 14
-1.7397501 2.2754984 0.14811075 12
-1.7262678 2.2586811 0.048953995 12
-1.1598001 1.520252 -0.50210917 3
-1.3349104 1.7504179 -0.49939165 3
-1.5705729 2.060179 -0.49565825 9
-1.7353657 2.277168 -0.44740292 12
-1.7313581 2.272732 -0.34610933 7
-1.7342215 2.2773151 -0.24708691 15
-1.7289474 2.2712119 -0.14709628 12
-1.7275934 2.2702551 -0.048637681 15
-1.7308633 2.2753761 0.75525928 9
-1.7276865 2.2720227 0.64961702 10
-1.7221498 2.2655623 0.54522371 10
-1.7202801 2.2639225 0.44378427 11
-1.7161757 2.2593396 0.34367153 12
-1.7340522 2.2837012 0.24752231 14
-1.7257589 2.2736032 0.14758739 12
-1.7123295 2.2567282 0.048779473 12
-1.1544863 1.5242912 -0.50210917 3
-1.3258513 1.7511827 -0.49826688 3
-1.5663342 2.0695629 -0.49661148 9
-1.7244269 2.2792735 -0.44662076 13
-1.7204207 2.2748036 -0.34549999 7
-1.7232575 2.2793815 -0.24665113 15
-1.7149878 2.2692659 -0.14657466 12
-1.7136312 2.2682939 -0.048464898 14
-1.7170889 2.2736957 0.75267279 9
-1.7138742 2.2702627 0.64736921 10
-1.7083179 2.2637239 0.54331732 10
-1.7093929 2.2659712 0.44300297 12
-1.7052907 2.261354 0.34306216 11
-1.7200735 2.2817855 0.24665076 15
-1.7148072 2.2756255 0.14732571 12
-1.7014337 2.2586985 0.048692212 12
-1.1488918 1.5285124 -0.50210917 3
-1.3223507 1.7599255 -0.49939165 3
-1.5587384 2.0752897 -0.49661148 8
-1.710131 2.2776802 -0.44505644 13
-1.7061136 2.2731557 -0.34428129 7
-1.7089132 2.2777138 -0.24577957 15
-1.7006671 2.2675474 -0.14605305 12
-1.7023072 2.2705595 -0.048378512 15
-1.7058473 2.276109 0.75137955 9
-1.7026207 2.2726302 0.64624536 10
-1.697067 2.2660413 0.54236418 10
-1.6951568 2.2643142 0.44144034 11
-1.6910439 2.2596424 0.34184349 11
-1.7057314 2.2800975 0.24577919 15
-1.7004744 2.2738976 0.14680235 12
-1.6871572 2.256911 0.048517689 12
-1.1464375 1.5363842 -0.50340325 3
-1.3191121 1.7684357 -0.50051636 3
-1.5544187 2.0846527 -0.49756464 7
-1.6992185 2.2796762 -0.44427425 13
-1.6922381 2.2711382 -0.34306258 8
-1.6950012 2.2756755 -0.24490802 15
-1.6897596 2.269465 -0.14579223 12
-1.6884013 2.2684672 -0.04820573 14
-1.6921257 2.2742996 0.74879307 9
-1.6888621 2.2707407 0.64399755 10
-1.6832899 2.2640736 0.54045779 10
-1.6813508 2.2622902 0.43987769 11
-1.6772268 2.2575641 0.34062478 12
-1.694792 2.2820389 0.2453434 14
-1.686574 2.2718017 0.14627899 12
-1.673305 2.2547617 0.048343163 12
-1.1410676 1.5403767 -0.50340325 3
-1.3129311 1.7730294 -0.50051636 3
-1.5471324 2.090066 -0.49756464 8
-1.6853758 2.2776542 -0.44270989 13
-1.6813488 2.2730415 -0.34245324 8
-1.6840858 2.2775733 -0.24447222 15
-1.6758915 2.2673187 -0.14527062 11
-1.674531 2.2663054 -0.048032951 14
-1.6813071 2.2763073 0.74749976 9
-1.6780316 2.2727027 0.64287359 10
-1.6724616 2.2659862 0.53950459 10
-1.6705116 2.2641714 0.43909642 11
-1.6663907 2.2594111 0.34001544 12
-1.6809044 2.2799227 0.24447185 14
-1.6727089 2.2696359 0.14575563 12
-1.6624643 2.2565598 0.048255898 12
-1.138545 1.5482413 -0.50469732 3
-1.3096197 1.7815272 -0.50164115 3
-1.5398272 2.0954537 -0.49756464 6
-1.6715677 2.2755632 -0.44114554 13
-1.6675295 2.2708964 -0.34123453 8
-1.6702307 2.2754073 -0.24360067 15
-1.6620589 2.2651036 -0.14474899 12
-1.6606961 2.2640748 -0.047860172 15
-1.667639 2.2743721 0.74491328 8
-1.6643276 2.2706871 0.64062583 10
-1.6587397 2.2638919 0.53759819 10
-1.6567616 2.2620201 0.4375338 11
-1.6526303 2.2572057 0.33879676 12
-1.667052 2.2777374 0.24360029 14
-1.661828 2.2714314 0.14549395 13
-1.6486748 2.2542787 0.048081376 13
-1.1331336 1.552206 -0.50469732 3
-1.303393 1.7860878 -0.50164115 3
-1.5325035 2.100816 -0.49756464 7
-1.6607046 2.2773941 -0.44036335 13
-1.6537458 2.2686827 -0.34001586 8
-1.6564111 2.2731726 -0.24272911 15
-1.6512023 2.2668552 -0.14448819 12
-1.6468976 2.261775 -0.047687389 15
-1.6568476 2.2762747 0.74362004 8
-1.6506586 2.2686038 0.63837802 9
-1.6450531 2.2617297 0.5356918 10
-1.6430475 2.2598009 0.43597117 10
-1.6389055 2.2549319 0.33757806 12
-1.6561633 2.2795129 0.24316452 14
-1.6480206 2.2691381 0.1449706 12
-1.6349218 2.251929 0.047906853 12
-1.1277086 1.556152 -0.50469732 3
-1.2971505 1.7906265 -0.50164115 3
-1.5222822 2.1021774 -0.49661148 12
-1.6469535 2.2751765 -0.43879902 14
-1.6429071 2.2704208 -0.33940649 8
-1.6455469 2.274905 -0.24229334 15
-1.6374279 2.2645128 -0.14396657 12
-1.6360638 2.263458 -0.047600996 14
-1.6432344 2.2742147 0.74103355 8
-1.6398768 2.2704024 0.63725412 9
-1.6314017 2.2594993 0.53378546 10
-1.6322588 2.2615178 0.43518984 11
-1.625217 2.2525899 0.33635938 11
-1.6423692 2.2772005 0.24229297 14
-1.6371697 2.2708268 0.14470892 12
-1.6241282 2.2535665 0.047819592 12
-1.1222697 1.560079 -0.50469732 3
-1.2908921 1.7951436 -0.50164115 3
-1.5120699 2.1034927 -0.49565825 15
-1.6332378 2.2728906 -0.43723467 13
-1.6291814 2.2680805 -0.33818778 8
-1.6317858 2.2725432 -0.24142179 15
-1.6236902 2.2621021 -0.14344496 11
-1.6223241 2.2610316 -0.047428217 15
-1.6296561 2.2720873 0.73844707 7
-1.626264 2.268194 0.63500631 9
-1.620645 2.2611904 0.53283226 10
-1.6186022 2.2591727 0.43362722 11
-1.6144544 2.2542143 0.33575001 11
-1.6315106 2.2788694 0.24185717 14
-1.6234214 2.2684069 0.14418554 12
-1.6104344 2.25109 0.04764507 12
-1.1168171 1.5639869 -0.50469732 3
-1.284618 1.7996386 -0.50164115 3
-1.4961654 2.0967717 -0.49279872 14
-1.6224264 2.2745574 -0.43645251 14
-1.6183732 2.2697129 -0.33757848 8
-1.620952 2.2741692 -0.24098599 15
-1.6128865 2.2636893 -0.14318414 12
-1.6115215 2.262609 -0.047341831 15
-1.6161125 2.2698932 0.73586053 7
-1.6155114 2.2698872 0.6338824 9
-1.6070516 2.2588351 0.53092587 10
-1.6078442 2.2607844 0.43284592 11
-1.6008248 2.2517467 0.33453134 11
-1.6177752 2.2764301 0.24098562 14
-1.6126015 2.2699893 0.14392388 12
-1.5967778 2.2485461 0.047470544 12
-1.111351 1.5678757 -0.50469732 3
-1.2811447 1.8080868 -0.50276589 3
-1.4831631 2.0939708 -0.49089235 12
-1.6087694 2.2721462 -0.43488818 13
-1.6075735 2.2712977 -0.33696911 8
-1.60725 2.2716811 -0.24011444 15
-1.5992086 2.2611523 -0.14266253 12
-1.5978417 2.2600563 -0.047169048 14
-1.6053916 2.2715762 0.73456728 7
-1.6019559 2.2675543 0.63163459 9
-1.5963256 2.2604218 0.52997267 9
-1.5970947 2.2623484 0.43206459 11
-1.5900937 2.2532661 0.333922 12
-1.6069479 2.2779934 0.24054985 14
-1.5989131 2.2674432 0.14340052 12
-1.5831586 2.245934 0.047296021 12
-1.1058713 1.5717456 -0.50469732 3
-1.2748256 1.8125477 -0.50276589 3
-1.4730217 2.0951202 -0.48993912 7
-1.5951492 2.2696671 -0.43332383 13
-1.5939296 2.2687736 -0.3357504 8
-1.5935854 2.2691252 -0.23924288 15
-1.5855678 2.2585473 -0.14214091 12
-1.5870709 2.2615278 -0.047082655 15
-1.591905 2.2692583 0.73198074 6
-1.5912335 2.2691431 0.63051063 9
-1.5827907 2.2579417 0.52806634 10
-1.5863538 2.263865 0.43128332 10
-1.5765244 2.2506735 0.33270329 12
-1.5961294 2.2795086 0.24011406 14
-1.5852618 2.2648294 0.14287716 12
-1.569577 2.2432542 0.047121495 12
-1.1031436 1.5795557 -0.50599146 3
-1.2684909 1.8169867 -0.50276589 3
-1.4516546 2.0801239 -0.48517317 5
-1.5843911 2.2711709 -0.43254164 13
-1.5831618 2.2702532 -0.33514106 8
-1.5828065 2.2705882 -0.23880711 15
-1.5748198 2.2599716 -0.1418801 12
-1.5734524 2.2588494 -0.046909876 15
-1.5812143 2.2708375 0.73068756 6
-1.5777365 2.2666864 0.62826282 8
-1.572096 2.259424 0.52711314 9
-1.5728018 2.2612803 0.4297207 11
-1.5658252 2.2520881 0.33209395 11
-1.5824772 2.276886 0.23924251 14
-1.5744975 2.2662485 0.14261547 12
-1.5560338 2.2405071 0.046946973 12
-1.0948718 1.5794277 -0.50469732 3
-1.2621406 1.8214035 -0.50276589 3
-1.44159 2.0811436 -0.48422 4
-1.5708311 2.2685676 -0.43097728 13
-1.5695785 2.2676044 -0.33392239 8
-1.5692027 2.2679069 -0.23793554 15
-1.5612407 2.257242 -0.14135848 11
-1.5598718 2.2561042 -0.046737097 14
-1.5705318 2.2723701 0.72939426 6
-1.5670452 2.2681715 0.62713897 8
-1.558621 2.2568204 0.52520674 9
-1.562093 2.262692 0.42893937 10
-1.555136 2.2534559 0.33148462 11
-1.5716914 2.278296 0.23880674 14
-1.5609081 2.2635098 0.14209211 12
-1.5453659 2.2418089 0.046859708 12
-1.0866141 1.5792611 -0.50340325 3
-1.2530144 1.8217841 -0.50164115 3
-1.4537821 2.114475 -0.49089235 6
-1.5601056 2.2699671 -0.43019515 12
-1.5588434 2.2689791 -0.33331302 8
-1.5584568 2.2692647 -0.23749976 15
-1.5476999 2.2544448 -0.14083686 12
-1.5491583 2.2574134 -0.046650708 14
-1.5598581 2.2738554 0.72810096 6
-1.5536077 2.2655916 0.62489116 8
-1.5451834 2.2541504 0.52330035 9
-1.5486021 2.2599833 0.42737675 11
-1.5416514 2.2506816 0.33026591 10
-1.5581011 2.2755487 0.23793519 14
-1.5501771 2.2648242 0.14183044 11
-1.5318853 2.2389376 0.046685185 13
-1.0810949 1.5830443 -0.50340325 3
-1.241154 1.8180996 -0.49939165 3
-1.457459 2.1357539 -0.49470508 5
-1.5466065 2.2672398 -0.4286308 12
-1.5453217 2.266206 -0.33209434 8
-1.5449152 2.2664595 -0.2366282 15
-1.5370094 2.2557073 -0.14057605 11
-1.5356402 2.2545435 -0.046477929 14
-1.5464747 2.271302 0.72551447 5
-1.5429484 2.2669733 0.6237672 8
-1.5345447 2.2554722 0.52234721 9
-1.5351495 2.2572081 0.42581412 11
-1.5282052 2.2478411 0.32904723 11
-1.5473487 2.276854 0.2374994 14
-1.5366505 2.261961 0.14130709 12
-1.5212466 2.2401392 0.04659792 12
nan nan nan 0
-1.2290177 1.814569 -0.49714214 3
-1.4606286 2.1573389 -0.49851784 5
-1.5355182 2.2688034 -0.42784861 12
-1.5342246 2.2677445 -0.331485 9
-1.5338074 2.2679806 -0.23619244 14
-1.5231385 2.2530522 -0.14005443 12
-1.5245675 2.2560146 -0.046391536 14
-1.535436 2.2729528 0.72422123 5
-1.5291761 2.2645378 0.62151939 8
-1.5207754 2.2529449 0.52044082 9
-1.5241036 2.2587256 0.42503282 11
-1.514406 2.245199 0.32782853 11
-1.5334239 2.27425 0.23662783 13
-1.5255588 2.2634373 0.14104539 11
-1.5074445 2.2374041 0.046423398 13
nan nan nan 0
-1.2118045 1.8026751 -0.49264312 3
-1.4476138 2.1542764 -0.49661148 5
-1.522082 2.2659504 -0.42628425 12
-1.5235327 2.268966 -0.33087564 7
-1.5203295 2.2650495 -0.23532088 14
-1.5124824 2.2542088 -0.13979362 12
-1.5111139 2.2530186 -0.046218757 15
-1.5248029 2.2742867 0.72292799 5
-1.5185498 2.2658145 0.62039554 8
-1.51017 2.2541621 0.51948762 10
-1.5107139 2.2558253 0.42347023 11
-1.5037987 2.2463472 0.32721916 12
-1.5227059 2.2754495 0.23619208 14
-1.5120963 2.2604485 0.14052203 12
-1.496841 2.2385006 0.046336137 11
nan nan nan 0
-1.2109122 1.8149996 -0.49489263 3
-1.4400853 2.1593163 -0.49661148 4
-1.5114237 2.2671409 -0.42550209 13
-1.5128511 2.2701406 -0.3302663 7
-1.5096521 2.2661972 -0.23488508 15
-1.4990695 2.2511623 -0.139272 13
-1.5004699 2.2541182 -0.046132363 15
-1.5115037 2.2715535 0.72034144 5
-1.5052347 2.2629886 0.61814773 7
-1.4968569 2.2512453 0.51758122 9
-1.5000967 2.2569718 0.4226889 10
-1.4904556 2.2433157 0.32600048 11
-1.5092424 2.2724524 0.23532051 13
-1.5014348 2.261553 0.14026035 11
-1.4862592 2.2395425 0.046248872 13
nan nan nan 0
-1.215328 1.8354638 -0.49939165 3
-1.4298298 2.1602368 -0.49565825 5
-1.4980506 2.2641656 -0.42393777 12
-1.4994425 2.2671289 -0.32904762 7
-1.4989856 2.2672982 -0.23444931 15
-1.4884495 2.2522161 -0.1390112 11
-1.4870812 2.2509997 -0.045959584 12
-1.5009038 2.2727854 0.71904826 5
-1.494642 2.2641625 0.61702383 7
-1.4862863 2.2523599 0.51662809 9
-1.4867705 2.2539494 0.42112628 10
-1.4771522 2.2402184 0.32478178 12
-1.4985595 2.2735476 0.23488472 14
-1.488037 2.2584412 0.139737 12
-1.4756831 2.2405422 0.046161614 10
nan nan nan 0
-1.2169398 1.851909 -0.50276589 3
-1.4249755 2.1693175 -0.49661148 4
-1.484717 2.2611251 -0.42237341 13
-1.4860731 2.2640517 -0.32782891 7
-1.4855969 2.2641873 -0.23357774 15
-1.4751017 2.2490475 -0.13848959 12
-1.4764737 2.2519963 -0.045873195 15
-1.4876661 2.2699313 0.71646172 5
-1.4840598 2.265291 0.61589992 7
-1.473037 2.2493219 0.51472169 9
-1.476189 2.2549937 0.42034498 10
-1.4638886 2.2370558 0.3235631 12
-1.4851608 2.2704282 0.23401317 15
-1.477412 2.2594428 0.13947532 11
-1.4651178 2.2414949 0.046074349 10
nan nan nan 0
-1.2211131 1.8724688 -0.50726491 3
-1.4173945 2.1742783 -0.49661148 5
-1.4741189 2.2621562 -0.42159122 13
-1.4727435 2.2609081 -0.32661018 10
-1.4749666 2.2651854 -0.23314197 14
-1.4645183 2.2499981 -0.13822877 12
-1.4631507 2.2487555 -0.045700416 14
-1.4744669 2.2670131 0.71387523 5
-1.470832 2.2622881 0.61365211 6
-1.4625016 2.2503345 0.51376849 8
-1.4629275 2.2518497 0.41878232 9
-1.4533679 2.2379899 0.32295373 12
-1.4745145 2.2714205 0.23357739 14
-1.4667981 2.2603974 0.13921364 12
-1.454564 2.2424014 0.045987088 12
nan nan nan 0
-1.2092755 1.8685397 -0.50501537 3
-1.412462 2.1833336 -0.49756464 4
-1.4608501 2.2589943 -0.42002687 12
-1.4594543 2.2577 -0.3253915 8
-1.4643471 2.2661366 -0.23270617 15
-1.4539461 2.2509022 -0.13796796 11
-1.4525803 2.2496493 -0.045614023 14
-1.4639252 2.2680879 0.71258199 5
-1.4576436 2.2592208 0.6114043 6
-1.449317 2.2471762 0.5118621 9
-1.4523822 2.2527921 0.41800103 10
-1.4428587 2.238878 0.32234439 12
-1.4638792 2.2723665 0.23314162 14
-1.4561955 2.2613056 0.13895196 11
-1.4413159 2.2390578 0.045812566 11
nan nan nan 0
-1.2001132 1.8686504 -0.50389069 3
-1.4048322 2.1882505 -0.49756464 5
-1.4502885 2.2599235 -0.41924468 12
-1.4488848 2.2586036 -0.32478216 7
-1.4537393 2.2670414 -0.23227042 15
-1.4433855 2.25176 -0.13770714 11
-1.4393246 2.2462876 -0.045441244 13
-1.4507892 2.2650499 0.70999545 5
-1.4444944 2.256089 0.60915649 6
-1.4361722 2.2439535 0.50995576 8
-1.4391867 2.2495279 0.4164384 10
-1.432361 2.2397201 0.32173505 9
-1.4532553 2.2732656 0.23270582 14
-1.4429158 2.2579601 0.1384286 9
-1.4281088 2.2356493 0.04563804 12
nan nan nan 0
-1.1909645 1.8687196 -0.50276589 3
-1.3971853 2.1931412 -0.49756464 4
-1.4397385 2.260807 -0.41846254 12
-1.438327 2.2594607 -0.32417279 8
-1.4404689 2.2636974 -0.23139885 14
-1.4328367 2.2525713 -0.13744634 11
-1.4287925 2.2470796 -0.045354854 14
-1.4402831 2.2660244 0.70870227 5
-1.4313849 2.252893 0.60690868 6
-1.4230677 2.2406662 0.50804937 8
-1.4286786 2.2503686 0.41565707 9
-1.4245342 2.2447062 0.32173505 11
-1.439975 2.2699125 0.23183426 12
-1.4323512 2.2587664 0.13816692 11
-1.4176197 2.2363982 0.045550779 12
nan nan nan 0
-1.1844342 1.8728656 -0.50276589 3
-1.3895212 2.198005 -0.49756464 5
-1.4291998 2.2616439 -0.41768035 12
-1.4304311 2.2644677 -0.32417279 7
-1.4298989 2.2645001 -0.23096307 15
-1.4196347 2.2491145 -0.13692473 11
-1.4182723 2.2478251 -0.045268461 13
-1.4297879 2.2669528 0.70740896 4
-1.4209137 2.2537544 0.60578477 6
-1.4152377 2.24562 0.50804937 9
-1.4181823 2.2511632 0.41487581 9
-1.4140456 2.2454658 0.32112572 11
-1.4293894 2.27071 0.23139849 13
-1.4191395 2.2553003 0.13764356 10
-1.4044811 2.2328696 0.045376252 11
nan nan nan 0
-1.1778895 1.8769885 -0.50276589 3
-1.3792322 2.198684 -0.49661148 4
-1.4160492 2.258251 -0.416116 13
-1.4198824 2.2652423 -0.32356349 8
-1.4166962 2.2610359 -0.23009151 15
-1.4091247 2.2498245 -0.13666391 12
-1.4077644 2.2485249 -0.045182075 14
-1.4193038 2.2678359 0.70611572 5
-1.413038 2.2587004 0.60578477 6
-1.4047879 2.2463849 0.50709617 8
-1.4103155 2.2560999 0.41487581 8
-1.4035687 2.2461791 0.32051635 9
-1.4188155 2.271461 0.23096271 12
-1.4059694 2.2517695 0.1371202 10
-1.3913844 2.2292767 0.04520173 11
nan nan nan 0
-1.1739057 1.8852245 -0.50389069 3
-1.3715489 2.203485 -0.49661148 5
-1.405549 2.2589874 -0.41533384 13
-1.4067245 2.2617564 -0.32234478 8
-1.4061651 2.2617373 -0.22965574 15
-1.3959914 2.2462478 -0.1361423 11
-1.3946308 2.2449322 -0.045009293 14
-1.4062829 2.26457 0.70352924 5
-1.405145 2.2636192 0.60578477 5
-1.396938 2.2512748 0.50709617 8
-1.3998286 2.2568123 0.41409445 10
-1.3904895 2.2426293 0.31929767 9
-1.4056299 2.2679322 0.23009115 13
-1.395471 2.252419 0.13685852 11
-1.3783299 2.2256196 0.045027204 11
nan nan nan 0
-1.1673179 1.8893107 -0.50389069 3
-1.363849 2.2082593 -0.49661148 5
-1.3924667 2.2554755 -0.41376951 13
-1.3962147 2.2624297 -0.32173541 9
-1.3930315 2.2581534 -0.22878417 15
-1.3855213 2.2468567 -0.1358815 10
-1.3841628 2.2455308 -0.044922903 15
-1.3958358 2.265353 0.70223594 5
-1.39979 2.2726586 0.60690868 5
-1.3864979 2.2519577 0.50614297 5
-1.389354 2.2574792 0.41331318 9
-1.3800523 2.2432425 0.31868833 10
-1.3950957 2.2685821 0.22965539 13
-1.3849852 2.2530227 0.13659684 12
-1.3653181 2.2218983 0.044852681 12
nan nan nan 0
-1.1607158 1.8933738 -0.50389069 3
-1.3535677 2.2088213 -0.49565825 5
-1.3820055 2.2561111 -0.41298732 12
-1.3831257 2.2588248 -0.32051674 8
-1.3825401 2.2587538 -0.22834839 14
-1.375064 2.2474203 -0.13562068 13
-1.3737078 2.2460842 -0.044836514 14
-1.3828813 2.26197 0.69964945 5
-1.3969296 2.2858453 0.60915649 4
-1.3760698 2.2525952 0.50518978 7
-1.3763179 2.2538853 0.41175056 10
-1.3670423 2.2395744 0.31746963 10
-1.3819796 2.2649343 0.22878383 14
-1.3719122 2.2493179 0.13607349 12
-1.3549516 2.2223825 0.04476542 11
-1.00903 1.6582581 -0.50987375 3
-1.1540997 1.897414 -0.50389069 3
-1.3458493 2.2135327 -0.49565825 5
-1.368992 2.2524812 -0.41142297 13
-1.3726557 2.259398 -0.3199074 9
-1.3694761 2.2550511 -0.22747684 15
-1.3646197 2.2479384 -0.13535988 12
-1.360672 2.2423177 -0.044663735 15
-1.3724722 2.2626541 0.69835621 6
-1.39652 2.3032057 0.6125282 11
-1.3656543 2.2531877 0.50423664 7
-1.3658829 2.254452 0.41096923 9
-1.3566455 2.2400875 0.31686029 11
-1.3714855 2.2654834 0.22834805 14
-1.3614674 2.2498212 0.13581181 11
-1.3445982 2.222821 0.044678159 11
nan nan nan 0
-1.1449522 1.8972596 -0.50276589 3
-1.3381144 2.2182171 -0.49565825 5
-1.3585709 2.2530174 -0.41064081 12
-1.3596367 2.2556748 -0.31868869 8
-1.3590257 2.2555516 -0.22704107 15
-1.3516122 2.2441335 -0.13483825 12
-1.350258 2.2427707 -0.044577342 14
-1.3595848 2.2591546 0.69576973 5
-1.3960063 2.3205912 0.61589992 10
-1.3552514 2.2537341 0.50328338 7
-1.3529164 2.2507408 0.4094066 9
-1.3437059 2.2363017 0.31564158 10
-1.3610044 2.2659869 0.22791228 14
-1.3510354 2.2502789 0.13555013 12
-1.3342582 2.2232144 0.044590894 12
-0.99246526 1.6569754 -0.50728554 3
-1.1383225 1.9012448 -0.50276589 3
-1.3303632 2.2228744 -0.49565825 5
-1.3481628 2.2535079 -0.40985861 13
-1.3492076 2.2561481 -0.31807932 9
-1.3485883 2.2560065 -0.22660528 15
-1.3412091 2.2445512 -0.13457744 12
-1.3398576 2.2431784 -0.044490952 14
-1.3492146 2.2597396 0.69447643 6
-1.3829036 2.3170826 0.61365211 10
-1.3423467 2.2500207 0.50137705 7
-1.3425221 2.2512078 0.4086253 9
-1.3333504 2.2367158 0.31503224 10
-1.3505367 2.2664452 0.22747648 14
-1.3406171 2.2506917 0.13528845 12
-1.3239322 2.2235627 0.044503633 12
-0.98174095 1.652126 -0.50469732 3
-1.129191 1.9010181 -0.50164115 3
-1.3225957 2.2275047 -0.49565825 5
-1.3377678 2.2539535 -0.40907648 12
-1.3362595 2.2523077 -0.31686065 9
-1.3356239 2.2521317 -0.22573371 15
-1.3282735 2.240629 -0.13405582 12
-1.3294705 2.2435408 -0.044404563 14
-1.3363955 2.2561245 0.69188994 6
-1.3723248 2.3177035 0.6125282 10
-1.3319844 2.250469 0.50042385 6
-1.3296264 2.2473798 0.40706271 9
-1.3204824 2.2328131 0.31381357 10
-1.3375475 2.2625699 0.22660492 14
-1.3302124 2.2510586 0.13502677 12
-1.3136199 2.223866 0.044416368 11
-0.97596806 1.6555429 -0.50469732 3
-1.1225483 1.9049482 -0.50164115 3
-1.3148123 2.2321079 -0.49565825 5
-1.3273861 2.2543538 -0.40829429 12
-1.3258723 2.2526815 -0.31625131 9
-1.3252285 2.2524869 -0.22529794 15
-1.3179131 2.240948 -0.13379502 12
-1.3190975 2.2438581 -0.044318173 14
-1.3260648 2.2566113 0.69059664 6
-1.3617587 2.318279 0.6114043 10
-1.3216356 2.2508721 0.49947065 6
-1.3192737 2.2477479 0.40628135 9
-1.3101689 2.2331283 0.3132042 10
-1.3271217 2.2629287 0.22616915 13
-1.317296 2.2470732 0.13450339 12
-1.3033216 2.2241249 0.044329111 11
-0.96774501 1.6547704 -0.50340325 3
-1.1158921 1.9088551 -0.50164115 3
-1.3070127 2.2366838 -0.49565825 6
-1.3170182 2.2547092 -0.40751213 12
-1.3154984 2.2530103 -0.31564194 8
-1.3148469 2.2527974 -0.22486216 15
-1.3075664 2.2412217 -0.13353421 12
-1.3062199 2.2398119 -0.04414539 14
-1.3157475 2.2570539 0.68930346 7
-1.351205 2.3188083 0.61028039 9
-1.3088297 2.2469895 0.49756429 6
-1.3089346 2.2480717 0.40550008 9
-1.2998697 2.2333989 0.31259486 10
-1.3167098 2.2632418 0.22573337 14
-1.3069344 2.2473414 0.13424173 12
-1.2930375 2.2243385 0.044241846 12
-0.9643864 1.662316 -0.50469732 3
-1.1092222 1.9127387 -0.50164115 3
-1.2991973 2.2412324 -0.49565825 6
-1.3066638 2.2550199 -0.40672994 13
-1.3051386 2.2532942 -0.3150326 9
-1.3044795 2.2530627 -0.22442639 15
-1.2972339 2.2414505 -0.13327339 12
-1.2958903 2.2400305 -0.044059001 15
-1.3054429 2.257452 0.68801016 7
-1.3406645 2.319293 0.60915649 10
-1.2985226 2.2472944 0.49661112 5
-1.2986094 2.2483506 0.40471876 8
-1.2871027 2.229327 0.31137615 9
-1.3063118 2.2635102 0.2252976 14
-1.2965864 2.2475646 0.13398004 11
-1.282768 2.224508 0.044154584 12
-0.95857799 1.6656722 -0.50469732 3
-1.1025386 1.9165988 -0.50164115 3
-1.2889194 2.2414992 -0.49470508 6
-1.2963234 2.2552857 -0.40594777 13
-1.2947928 2.2535331 -0.31442326 8
-1.2941262 2.2532833 -0.2239906 16
-1.286916 2.2416348 -0.13301259 12
-1.2830865 2.2358682 -0.043886222 14
-1.2927485 2.2536159 0.68542367 7
-1.3301369 2.3197322 0.60803258 10
-1.2882292 2.247555 0.49565789 6
-1.2882981 2.2485847 0.40393746 8
-1.2768469 2.2294998 0.31076682 10
-1.2934536 2.2594111 0.22442605 14
-1.2837732 2.2434094 0.13345668 12
-1.2725129 2.2246323 0.044067323 12
-0.95486021 1.6733692 -0.50599146 3
-1.0955065 1.920627 -0.50164115 3
-1.2806953 2.2462082 -0.49470508 6
-1.2856033 2.2557311 -0.40516558 13
-1.284068 2.2539515 -0.31381392 9
-1.283394 2.2536831 -0.22355483 16
-1.2737511 2.2376578 -0.13249098 12
-1.2724106 2.2362108 -0.043799829 13
-1.282092 2.2541406 0.68413043 7
-1.3192178 2.3203564 0.60690868 10
-1.2775578 2.2479944 0.49470475 5
-1.2776086 2.2489974 0.40315613 9
-1.2662162 2.2298493 0.31015745 10
-1.2827048 2.2598047 0.22399026 13
-1.273078 2.2437568 0.133195 11
-1.2618843 2.2249329 0.043980062 12
-0.94901323 1.676692 -0.50599146 3
-1.0863966 1.9201989 -0.50051636 4
-1.2728467 2.2506649 -0.49470508 7
-1.2728608 2.2516069 -0.40360126 12
-1.2713093 2.2497787 -0.31259522 9
-1.2730695 2.2538121 -0.22311905 16
-1.2634773 2.2377424 -0.13223016 12
-1.2621399 2.2362852 -0.043713439 13
-1.2718426 2.2543957 0.68283719 8
-1.308717 2.3207035 0.60578477 9
-1.2648826 2.2438886 0.49279836 5
-1.2649016 2.2448382 0.40159351 8
-1.2584249 2.2342556 0.31015745 9
-1.2748088 2.2642684 0.22399026 13
-1.2627892 2.2438354 0.13293332 11
-1.2516592 2.2249672 0.043892797 11
-0.94315475 1.6799945 -0.50599146 3
-1.0796871 1.9239794 -0.50051636 4
-1.2649827 2.2550943 -0.49470508 6
-1.2625784 2.251729 -0.4028191 13
-1.2634484 2.2542028 -0.31259522 9
-1.2627598 2.2538965 -0.22268325 16
-1.2532188 2.2377827 -0.13196936 13
-1.2518841 2.2363148 -0.04362705 14
-1.2616072 2.2546067 0.68154395 8
-1.2982299 2.3210056 0.60466087 10
-1.2546469 2.2440062 0.49184516 5
-1.2546488 2.2449291 0.40081221 8
-1.2481978 2.2343023 0.30954811 10
-1.2644688 2.2643557 0.22355449 14
-1.2500818 2.2395101 0.13240996 12
-1.2414491 2.2249572 0.04380554 12
-0.93728471 1.6832764 -0.50599146 3
-1.0729645 1.9277365 -0.50051636 3
-1.2571032 2.2594962 -0.49470508 7
-1.2523104 2.2518065 -0.40203691 13
-1.2531608 2.2542617 -0.31198588 9
-1.2500459 2.249583 -0.2218117 16
-1.2429751 2.2377782 -0.13170855 12
-1.2416435 2.2363005 -0.04354066 13
-1.2490418 2.2505507 0.67895746 8
-1.2877567 2.3212628 0.60353696 10
-1.2491865 2.2526643 0.49279836 5
-1.2444104 2.2449753 0.40003088 7
-1.2355807 2.2299638 0.30832943 10
-1.2517303 2.2600408 0.22268291 13
-1.2398384 2.2394917 0.13214828 13
-1.2312543 2.2249029 0.043718275 11
-0.93140322 1.6865379 -0.50599146 3
-1.0662291 1.9314702 -0.50051636 3
-1.2492085 2.2638705 -0.49470508 6
-1.2420573 2.2518399 -0.40125474 13
-1.240492 2.2499304 -0.31076717 8
-1.2397816 2.2495706 -0.22137593 16
-1.2327471 2.2377303 -0.13144773 12
-1.2314185 2.2362418 -0.043454267 14
-1.2388493 2.2506659 0.67766416 9
-1.2749488 2.3172064 0.60128915 10
-1.2460464 2.2656128 0.49470475 5
-1.2341872 2.2449777 0.39924955 8
-1.2253989 2.2299137 0.30772007 10
-1.2414356 2.260031 0.22224714 13
-1.2296103 2.239429 0.1318866 12
-1.2186698 2.220422 0.043543749 12
-0.92551047 1.6897788 -0.50599146 3
-1.0594804 1.9351802 -0.50051636 4
-1.2412984 2.2682173 -0.49470508 7
-1.2318193 2.2518291 -0.40047255 13
-1.2302498 2.2498925 -0.31015781 9
-1.2295327 2.2495136 -0.22094014 16
-1.2225343 2.2376375 -0.13118692 12
-1.2212088 2.2361391 -0.043367881 14
-1.2286712 2.250737 0.67637092 9
-1.2645189 2.3173659 0.60016519 10
-1.2451812 2.2828753 0.49756429 10
-1.2239794 2.2449362 0.39846826 7
-1.212858 2.2254627 0.30650139 9
-1.2311563 2.2599766 0.22181135 14
-1.2217858 2.2437074 0.1318866 11
-1.2085217 2.2202716 0.043456491 12
-0.91931093 1.6931597 -0.50599146 3
-1.0523806 1.9390504 -0.50051636 4
-1.2353171 2.2770658 -0.49565825 7
-1.2212034 2.2519875 -0.39969036 13
-1.2196302 2.2500236 -0.30954847 9
-1.2165337 2.2452462 -0.22006857 12
-1.2119468 2.2377131 -0.13092612 13
-1.2106246 2.2362037 -0.043281488 13
-1.2181149 2.2509775 0.67507768 9
-1.2490628 2.3091292 0.59679353 11
-1.2368057 2.2874236 0.49756429 10
-1.2133948 2.2450626 0.39768693 7
-1.2023343 2.2255268 0.30589205 9
-1.220498 2.2600908 0.22137558 13
-1.2111821 2.2437766 0.13162492 12
-1.1980019 2.2202864 0.043369226 12
-0.91339505 1.6963583 -0.50599146 3
-1.0479146 1.9470022 -0.50164115 4
-1.2273612 2.281364 -0.49565825 8
-1.2086571 2.2475379 -0.39812601 13
-1.209419 2.2498958 -0.30893913 9
-1.2063314 2.2450912 -0.21963282 12
-1.2017657 2.2375307 -0.1306653 12
-1.2004468 2.2360113 -0.043195099 14
-1.2079663 2.2509601 0.67378443 9
-1.2340856 2.3005953 0.59342182 12
-1.2288135 2.2917271 0.49756429 10
-1.2032177 2.2449317 0.39690566 7
-1.1898712 2.2209611 0.30467334 9
-1.2078984 2.2555556 0.22050403 14
-1.2009861 2.2435889 0.13136324 11
-1.1878799 2.2200501 0.043281965 11
-0.90519327 1.695276 -0.50469732 4
-1.0411119 1.9506482 -0.50164115 4
-1.2217008 2.2899652 -0.49661148 8
-1.1984807 2.2473857 -0.39734387 13
-1.1968892 2.2453451 -0.30772042 9
-1.1938027 2.2404969 -0.21876125 12
-1.1916008 2.2373052 -0.1304045 12
-1.190285 2.235775 -0.043108709 14
-1.1955637 2.2466354 0.67119795 10
-1.2191834 2.291985 0.5900501 10
-1.2185022 2.2916687 0.49661112 10
-1.1930562 2.2447569 0.39612433 6
-1.179783 2.2207181 0.30406398 9
-1.1976815 2.2553589 0.22006825 13
-1.1908062 2.2433569 0.13110156 12
-1.177786 2.2197638 0.043194704 11
-0.89927018 1.6984254 -0.50469732 4
-1.0365753 1.9585763 -0.50276589 3
-1.2136998 2.2942157 -0.49661148 9
-1.1883199 2.2471898 -0.39656168 13
-1.186725 2.2451217 -0.30711108 9
-1.1836476 2.2402461 -0.21832547 12
-1.181452 2.2370358 -0.13014369 12
-1.1778055 2.2310741 -0.042935926 14
-1.18546 2.2465234 0.66990465 10
-1.2043564 2.2832985 0.58667839 10
-1.2104954 2.295908 0.49661112 10
-1.1829109 2.244539 0.39534304 7
-1.169711 2.2204323 0.30345467 8
-1.1874809 2.2551188 0.21963248 13
-1.1783167 2.238663 0.1305782 11
-1.1677027 2.2194371 0.043107443 12
-0.89333606 1.7015541 -0.50469732 4
-1.0297323 1.9621826 -0.50276589 4
-1.2056841 2.2984383 -0.49661148 10
-1.175882 2.2425768 -0.39499733 13
-1.1765771 2.2448549 -0.30650172 10
-1.173509 2.2399521 -0.2178897 12
-1.1713197 2.2367227 -0.12988289 12
-1.1676922 2.2307429 -0.042849541 14
-1.1753719 2.2463684 0.66861141 10
-1.1918629 2.2788541 0.58443058 10
-1.2001997 2.2957697 0.49565789 10
-1.1727815 2.2442777 0.39456171 6
-1.1596555 2.220103 0.3028453 8
-1.1772964 2.2548344 0.21919669 13
-1.1681851 2.2383361 0.13031653 12
-1.1576359 2.2190673 0.043020178 12
-0.88962114 1.708946 -0.50599146 3
-1.0251257 1.9700871 -0.50389069 3
-1.1953887 2.2982783 -0.49565825 11
-1.1657687 2.2422862 -0.39421517 13
-1.1664455 2.2445447 -0.30589241 10
-1.1633868 2.2396145 -0.21745391 13
-1.161204 2.2363665 -0.12962207 12
-1.1575953 2.2303681 -0.042763148 14
-1.1652993 2.2461703 0.66731817 11
-1.1794152 2.2743504 0.58218277 10
-1.1899199 2.2955878 0.49470475 9
-1.1626685 2.2439725 0.39378041 6
-1.1496166 2.2197306 0.30223596 7
-1.1671286 2.2545071 0.21876092 13
-1.15807 2.2379653 0.13005485 12
-1.1475863 2.2186544 0.04293292 12
-0.88365042 1.712041 -0.50599146 4
-1.0182426 1.9736534 -0.50389069 4
-1.1828597 2.2937124 -0.49375188 13
-1.1556718 2.2419522 -0.39343297 14
-1.1563302 2.2441912 -0.30528304 9
-1.1510007 2.2348056 -0.21658234 12
-1.151105 2.2359667 -0.12936127 12
-1.1475153 2.2299502 -0.042676758 14
-1.1552423 2.2459292 0.66602492 11
-1.1692414 2.2741208 0.58105886 11
-1.1796559 2.2953618 0.49375153 10
-1.1525717 2.2436247 0.39299908 6
-1.1418612 2.2237301 0.30223596 8
-1.1569772 2.2541358 0.21832512 12
-1.1479716 2.2375517 0.12979317 11
-1.1375535 2.2181983 0.042845655 12
-0.87986892 1.7194144 -0.50728554 3
-1.0135655 1.9815329 -0.50501537 3
-1.1703771 2.2890868 -0.49184549 14
-1.1455915 2.241575 -0.39265084 13
-1.146232 2.2437947 -0.3046737 10
-1.1409277 2.2343736 -0.21614657 12
-1.1410232 2.2355237 -0.12910046 12
-1.1374524 2.2294888 -0.042590369 15
-1.1452013 2.2456455 0.66473162 12
-1.1568708 2.2695072 0.57881105 11
-1.1694082 2.2950923 0.49279836 10
-1.1424918 2.2432337 0.39221779 6
-1.1318403 2.2232795 0.30162659 7
-1.1468428 2.2537217 0.21788937 13
-1.1378903 2.2370946 0.12953149 11
-1.1275378 2.2176993 0.042758394 12
-0.87386173 1.7224752 -0.50728554 3
-1.0066426 1.9850589 -0.50501537 3
-1.1579412 2.2844024 -0.48993912 13
-1.1355278 2.2411549 -0.39186865 13
-1.1361504 2.2433546 -0.30406433 9
-1.1308715 2.2338984 -0.21571079 12
-1.1309583 2.2350378 -0.12883966 12
-1.1274067 2.2289848 -0.042503979 14
-1.1351764 2.2453191 0.66343844 12
-1.1467443 2.2691832 0.57768714 12
-1.1591767 2.2947791 0.49184516 10
-1.1324284 2.2427993 0.39143646 6
-1.1218369 2.2227867 0.30101728 7
-1.1367254 2.253264 0.21745357 12
-1.1278265 2.2365947 0.12926981 11
-1.1175395 2.2171574 0.042671129 12
-0.87001389 1.7298297 -0.50857961 3
-0.99970728 1.9885606 -0.50501537 3
-1.1433485 2.2752731 -0.48707953 14
-1.1254814 2.2406921 -0.39108649 13
-1.126086 2.2428718 -0.30345502 10
-1.1208328 2.2333808 -0.21527502 13
-1.1209108 2.2345088 -0.12857884 12
-1.1173784 2.2284374 -0.042417586 14
-1.1251677 2.2449498 0.66214514 12
-1.1366342 2.2688165 0.57656324 12
-1.1467638 2.2900338 0.4899388 10
-1.1223823 2.2423224 0.39065516 6
-1.1118505 2.2222507 0.30040792 7
-1.1266251 2.2527633 0.2170178 12
-1.1177797 2.2360518 0.12900813 11
-1.1075588 2.2165728 0.042583872 12
-0.86397034 1.732856 -0.50857961 4
-0.99275976 1.9920382 -0.50501537 4
-1.1310222 2.2704635 -0.48517317 16
-1.1154518 2.2401865 -0.3903043 14
-1.1160388 2.242346 -0.30284566 9
-1.1108114 2.2328198 -0.21483923 12
-1.1108809 2.233937 -0.12831803 12
-1.1095929 2.2323244 -0.042417586 14
-1.1151755 2.2445383 0.66085184 13
-1.1243734 2.2640429 0.57431537 13
-1.1365807 2.2896264 0.48898563 10
-1.1123531 2.2418025 0.38987383 5
-1.1018816 2.2216723 0.29979858 7
-1.1187546 2.2566822 0.2170178 12
-1.1077507 2.2354658 0.12874645 11
-1.0975959 2.2159455 0.042496607 12
-0.8579163 1.7358613 -0.50857961 4
-0.98580021 1.9954914 -0.50501537 4
-1.1187435 2.2655957 -0.4832668 13
-1.1054397 2.2396381 -0.38952214 13
-1.106009 2.2417777 -0.30223632 9
-1.1008077 2.2322166 -0.21440347 12
-1.1008685 2.2333224 -0.12805721 12
-1.0995843 2.2316995 -0.0423312 14
-1.1051999 2.2440846 0.65955865 12
-1.1143118 2.2635827 0.57319152 13
-1.1242474 2.2847719 0.4870792 11
-1.1023414 2.2412403 0.38909256 6
-1.0919302 2.2210512 0.29918921 6
-1.1086737 2.256103 0.21658202 12
-1.0977392 2.2348373 0.12848477 11
-1.0876508 2.2152758 0.042409342 12
-0.85185182 1.7388455 -0.50857961 4
-0.97668618 1.9945451 -0.50389069 4
-1.1065128 2.2606699 -0.48136041 14
-1.0954447 2.2390471 -0.38873994 13
-1.0959969 2.2411661 -0.30162695 9
-1.0908215 2.2315702 -0.21396768 12
-1.0908741 2.2326653 -0.12779641 12
-1.0895936 2.2310319 -0.042244807 13
-1.095241 2.2435882 0.65826535 13
-1.1021305 2.2587013 0.57094371 14
-1.1119618 2.2798591 0.48517281 12
-1.0945113 2.2450747 0.38909256 6
-1.0819968 2.2203882 0.2985799 6
-1.0986106 2.2554815 0.21614625 11
-1.0877459 2.2341664 0.12822309 11
-1.0777239 2.2145638 0.042322084 12
-0.84577692 1.7418083 -0.50857961 3
-0.96971792 1.9979422 -0.50389069 4
-1.09433 2.2556868 -0.47945404 15
-1.0854675 2.2384136 -0.38795781 14
-1.0860025 2.2405128 -0.30101761 10
-1.0808536 2.2308819 -0.21353191 12
-1.0808976 2.2319655 -0.1275356 12
-1.0796212 2.2303221 -0.042158417 14
-1.0831956 2.2387025 0.65567887 12
-1.0899971 2.2537627 0.5686959 11
-1.0997244 2.2748888 0.48326644 12
-1.0845191 2.2444348 0.38831124 5
-1.0720811 2.2196827 0.29797053 6
-1.0885652 2.254817 0.21571046 12
-1.0777705 2.2334528 0.12796141 11
-1.0678151 2.2138093 0.042234819 12
-0.8396917 1.74475 -0.50857961 4
-0.96273798 2.0013151 -0.50389069 4
-1.0843225 2.2550693 -0.47850087 16
-1.0776474 2.2421892 -0.38795781 13
-1.076026 2.2398164 -0.30040827 9
-1.0709035 2.2301512 -0.21309611 12
-1.0687788 2.226722 -0.12701398 12
-1.0696669 2.2295697 -0.042072024 14
-1.0732861 2.2381148 0.65438563 13
-1.0779115 2.2487671 0.56644809 11
-1.0854145 2.2654343 0.48040691 9
-1.0745449 2.2437525 0.38752994 6
-1.0621837 2.2189353 0.2973612 5
-1.0785381 2.2541101 0.21527469 11
-1.0678133 2.2326968 0.12769973 11
-1.0579247 2.2130129 0.042147558 12
-0.83359623 1.7476705 -0.50857961 3
-0.95784271 2.0090609 -0.50501537 4
-1.0743327 2.2544096 -0.47754765 16
-1.0676904 2.2414784 -0.38717562 13
-1.0660676 2.239078 -0.29979894 9
-1.060972 2.2293782 -0.21266034 12
-1.0588546 2.2259302 -0.12675317 12
-1.0597309 2.228775 -0.041985635 14
-1.0633937 2.2374854 0.65309232 13
-1.0679647 2.2481151 0.56532419 11
-1.0732894 2.2603416 0.47850055 11
-1.0645887 2.2430282 0.38674861 5
-1.0544317 2.2226295 0.2973612 5
-1.0685289 2.2533603 0.21483891 11
-1.0578747 2.2318983 0.12743805 10
-1.0480531 2.2121744 0.042060297 12
-0.82749069 1.7505697 -0.50857961 4
-0.9508239 2.012392 -0.50501537 4
-1.0643609 2.2537079 -0.47659451 17
-1.0577515 2.2407262 -0.38639346 14
-1.0561274 2.2382972 -0.29918957 9
-1.0510588 2.2285631 -0.21222456 12
-1.048949 2.225096 -0.12649237 12
-1.0498136 2.2279382 -0.041899245 14
-1.053519 2.2368143 0.65179914 13
-1.0580356 2.2474213 0.56420028 12
-1.061213 2.2551918 0.47659415 11
-1.0546505 2.2422616 0.38596731 5
-1.0466669 2.2262967 0.2973612 5
-1.0585383 2.2525685 0.21440314 11
-1.0479547 2.2310581 0.12717636 11
-1.0382003 2.2112939 0.041973036 12
-0.81932628 1.7490739 -0.50728554 3
-0.94379359 2.0156989 -0.50501537 3
-1.0544068 2.2529638 -0.47564128 13
-1.0478309 2.2399313 -0.38561127 14
-1.046206 2.2374749 -0.29858023 10
-1.0411642 2.2277055 -0.21178877 12
-1.0390623 2.2242203 -0.12623155 12
-1.0399151 2.2270594 -0.041812852 14
-1.0457046 2.240478 0.65179914 13
-1.0481244 2.2466857 0.56307638 12
-1.0512601 2.2544341 0.47564095 10
-1.0426446 2.2369771 0.38440469 5
-1.0430808 2.2389336 0.2985799 5
-1.0485662 2.2517343 0.21396735 11
-1.0401604 2.2347023 0.12717636 11
-1.0283661 2.2103717 0.041885771 12
-0.81321585 1.7519232 -0.50728554 3
-0.93675172 2.018981 -0.50501537 4
-1.0444711 2.252178 -0.47468811 14
-1.0379289 2.239095 -0.3848291 14
-1.0363029 2.2366102 -0.29797086 9
-1.0312885 2.2268066 -0.211353 12
-1.0291944 2.2233024 -0.12597075 12
-1.0300355 2.2261386 -0.041726466 14
-1.0358502 2.2397308 0.65050584 13
-1.0382313 2.2459083 0.56195247 13
-1.0392666 2.2491784 0.47373459 12
-1.0327588 2.2361193 0.38362336 5
-1.0352591 2.2425611 0.2985799 13
-1.0406998 2.2553809 0.21396735 10
-1.0302622 2.2337854 0.12691469 11
-1.0185513 2.209408 0.04179851 11
-0.80709559 1.7547512 -0.50728554 3
-0.92969841 2.0222385 -0.50501537 4
-1.0325042 2.2468903 -0.47278175 13
-1.0280453 2.2382166 -0.38404691 14
-1.0284894 2.2402141 -0.29797086 10
-1.0214317 2.2258658 -0.2109172 12
-1.0193455 2.2223427 -0.12570994 12
-1.0201751 2.2251761 -0.041640073 14
-1.0260136 2.2389424 0.64921266 14
-1.0263275 2.24066 0.55970466 13
-1.029366 2.2483299 0.47278142 12
-1.0228921 2.2352202 0.38284209 5
-1.0315534 2.255187 0.29979858 12
-1.0307497 2.2544701 0.21353158 10
-1.0203832 2.2328267 0.126653 11
-1.0108267 2.2129526 0.04179851 12
-0.80065864 1.7576976 -0.50728554 3
-0.92026168 2.0211987 -0.50389069 4
-1.022229 2.246192 -0.47182852 12
-1.0177902 2.2374744 -0.38326478 14
-1.0182177 2.2394509 -0.29736155 10
-1.0112059 2.2250602 -0.21048145 12
-1.0091283 2.221518 -0.12544914 12
-1.0099458 2.2243483 -0.041553684 14
-1.0158045 2.2382896 0.64791936 14
-1.0160955 2.2399695 0.55858076 13
-1.0190916 2.247617 0.47182819 12
-1.0146928 2.2389543 0.38284209 5
-1.0232809 2.2589529 0.29979858 13
-1.0204252 2.2536952 0.21309578 10
-1.010134 2.2320027 0.12639134 11
-1.0006547 2.2120848 0.041711248 12
-0.79650497 1.7648838 -0.50857961 4
-0.9132008 2.0243988 -0.50389069 4
-1.0123645 2.2452722 -0.47087535 12
-1.0079447 2.2365112 -0.38248259 14
-1.008356 2.2384667 -0.29675218 10
-1.0013878 2.2240345 -0.21004565 12
-0.99931848 2.2204735 -0.12518832 12
-1.0021752 2.2278602 -0.041553684 14
-1.0060047 2.237417 0.64662611 14
-1.0062732 2.239059 0.55745685 13
-1.0092287 2.2466836 0.47087502 13
-1.0048482 2.2379773 0.38206074 6
-1.0133574 2.257983 0.29918921 13
-1.0105134 2.2526987 0.21266001 9
-1.0023367 2.2355151 0.12639134 10
-0.99087644 2.2110054 0.041623987 12
-0.79033959 1.7676533 -0.50857961 4
-0.9061287 2.0275741 -0.50389069 4
-1.002519 2.2443106 -0.46992216 12
-0.99811834 2.2355065 -0.38170043 14
-0.99851358 2.2374408 -0.29614282 10
-0.99361843 2.2275164 -0.21004565 12
-0.98952824 2.219388 -0.12492751 12
-0.99235743 2.2267785 -0.041467294 14
-0.99622327 2.2365029 0.64533287 14
-0.99646962 2.238107 0.55633295 14
-0.9973889 2.2412243 0.46896866 13
-0.99502301 2.236959 0.38127947 5
-1.0054693 2.2615066 0.29918921 12
-1.0026438 2.2562122 0.21266001 9
-0.99250025 2.2344372 0.12612964 10
-0.98113 2.2098787 0.041536722 11
-0.78416443 1.7704014 -0.50857961 4
-0.89904571 2.0307248 -0.50389069 4
-0.99269259 2.2433078 -0.46896899 13
-0.99030888 2.2389772 -0.38170043 14
-0.98869079 2.2363737 -0.29553348 10
-0.9838236 2.2264152 -0.20960988 12
-0.97975761 2.2182608 -0.1246667 11
-0.98255956 2.2256556 -0.041380905 14
-0.98646045 2.2355478 0.64403963 15
-0.9866851 2.237114 0.55520904 14
-0.98757952 2.2402008 0.46801546 11
-0.9832257 2.2313797 0.37971681 6
-0.99556887 2.2604611 0.2985799 12
-0.99275529 2.2551396 0.21222423 9
-0.98268354 2.2333176 0.12586798 10
-0.97139752 2.2087138 0.041449465 12
-0.77797985 1.7731278 -0.50857961 4
-0.89195162 2.0338507 -0.50389069 4
-0.98288536 2.242264 -0.46801579 12
-0.98050541 2.2378969 -0.38091823 15
-0.97888756 2.2352655 -0.29492414 10
-0.97404861 2.2252727 -0.2091741 12
-0.97000712 2.217093 -0.1244059 12
-0.97278148 2.2244914 -0.041294511 14
-0.97671658 2.2345521 0.64274633 15
-0.97691947 2.2360797 0.55408514 14
-0.97582525 2.2346382 0.46610907 11
-0.97345519 2.2302721 0.37893552 6
-0.98568779 2.2593737 0.29797053 12
-0.98487729 2.2585912 0.21222423 9
-0.9728868 2.2321568 0.12560628 10
-0.96168506 2.2075078 0.0413622 11
-0.77178574 1.7758327 -0.50857961 4
-0.88484669 2.0369518 -0.50389069 4
-0.97309774 2.2411792 -0.46706262 12
-0.97072166 2.2367754 -0.38013604 14
-0.96910417 2.2341158 -0.2943148 9
-0.96627504 2.2286594 -0.2091741 12
-0.9602766 2.2158837 -0.12414508 12
-0.96302354 2.2232862 -0.041208126 14
-0.96699166 2.2335157 0.64145315 15
-0.96717334 2.2350051 0.55296123 14
-0.96607047 2.233526 0.4651559 12
-0.96370447 2.2291234 0.37815419 6
-0.97779512 2.2628005 0.29797053 11
-0.9750123 2.2574425 0.21178845 8
-0.96311021 2.2309554 0.12534462 10
-0.95199293 2.2062612 0.041274939 11
-0.76367265 1.7740798 -0.50728554 4
-0.87773103 2.0400281 -0.50389069 3
-0.96332943 2.2400529 -0.4661094 12
-0.96095771 2.2356133 -0.37935388 14
-0.95934069 2.2329252 -0.29370543 9
-0.95652437 2.227442 -0.20873833 12
-0.95056659 2.2146342 -0.12388428 12
-0.95328593 2.2220397 -0.041121732 13
-0.95728582 2.2324383 0.64015985 15
-0.95744646 2.2338893 0.55183733 14
-0.95633525 2.2323728 0.4642027 11
-0.95397353 2.2279339 0.37737289 6
-0.96793789 2.2616374 0.2973612 11
-0.96516752 2.2562528 0.21135268 8
-0.95335388 2.2297125 0.12508292 10
-0.9423213 2.2049739 0.041187678 11
-0.75747526 1.7767347 -0.50728554 4
-0.87060469 2.0430794 -0.50389069 3
-0.95358104 2.2388866 -0.46515623 12
-0.95314819 2.2389541 -0.37935388 14
-0.94959748 2.2316942 -0.2930961 9
-0.94679385 2.2261837 -0.20830254 11
-0.94283026 2.2179387 -0.12388428 11
-0.94356883 2.2207527 -0.041035343 13
-0.94759947 2.2313211 0.6388666 15
-0.9496429 2.2372179 0.55183733 14
-0.94661993 2.2311788 0.46324947 12
-0.94426268 2.2267036 0.37659156 7
-0.95616394 2.2558637 0.29614249 12
-0.95534277 2.2550218 0.21091689 8
-0.94556493 2.2330267 0.12508292 10
-0.93267024 2.2036459 0.041100416 11
-0.75126868 1.7793679 -0.50728554 4
-0.86346769 2.0461061 -0.50389069 4
-0.94385248 2.237679 -0.46420303 12
-0.94340849 2.2377169 -0.37857169 14
-0.93987441 2.2304218 -0.29248673 9
-0.9370839 2.2248845 -0.20786677 11
