# .PCD v0.7 - Point Cloud Data file format
VERSION 0.7
FIELDS x y z intensity
SIZE 4 4 4 4
TYPE F F F F
COUNT 1 1 1 1
WIDTH 1405
HEIGHT 1
VIEWPOINT 0 0 0 1 0 0 0
POINTS 1405
DATA ascii
0.25420475 -2.5879285 -0.49756464 4
0.27793798 -2.8346298 -0.44505644 7
0.28362364 -2.897824 -0.35281214 9
0.28414491 -2.9083862 -0.25231627 9
nan nan nan 0
0.33452949 -3.436496 -0.059004504 8
0.74454606 -7.6623106 2.0510981 7
0.74872816 -7.7193451 1.7802653 6
0.53060597 -5.4804726 1.0618517 11
0.21650529 -2.2402956 0.35002702 8
0.21191154 -2.1967659 0.2662845 9
0.2366399 -2.4575984 0.21266001 2
0.24107869 -2.5082855 0.13005485 7
nan nan nan 0
0.18185969 -1.9131813 -0.50469732 3
0.20839071 -2.1963594 -0.50051636 4
0.24563242 -2.5936868 -0.49851784 4
0.2657178 -2.8110001 -0.44114554 7
0.27257428 -2.8889151 -0.35159346 9
0.26651868 -2.8300157 -0.24534379 10
0.26526672 -2.8219979 -0.14605305 8
0.25761929 -2.745785 -0.046996269 8
0.71779507 -7.6648631 2.0510981 5
nan nan nan 0
0.51192826 -5.4871783 1.0628049 11
0.20868389 -2.2410376 0.35002702 8
0.20424211 -2.1974924 0.2662845 9
0.23312089 -2.5129659 0.21745357 2
0.23232166 -2.5091119 0.13005485 5
0.25654471 -2.7760019 0.047994114 58
0.17518033 -1.9138044 -0.50469732 3
0.2002795 -2.1922221 -0.49939165 4
0.23702295 -2.5994163 -0.49947101 5
0.25993225 -2.8561735 -0.44818512 7
0.26473302 -2.9145608 -0.35464019 10
0.27552617 -3.0392754 -0.26364651 12
0.25226489 -2.7880964 -0.14422737 10
0.24848273 -2.7516465 -0.047082655 8
0.69103533 -7.6673217 2.0510981 5
nan nan nan 0
0.49233246 -5.4840436 1.0618517 12
0.20085993 -2.2417524 0.35002702 8
0.19612816 -2.1932487 0.26567516 9
0.22921817 -2.5683382 0.22224714 2
0.22621976 -2.539748 0.13162492 4
0.24773842 -2.78684 0.048168641 56
0.16883296 -1.9143748 -0.50469732 3
0.19339144 -2.1928403 -0.49939165 5
0.22928584 -2.6050377 -0.50042421 5
0.25398296 -2.8914125 -0.45366031 9
0.25817573 -2.9450407 -0.35829625 13
0.27639556 -3.1592145 -0.27410525 13
0.25870571 -2.9629748 -0.15335569 9
0.29755571 -3.4148045 -0.058572553 13
0.66694438 -7.6694551 2.0510981 4
nan nan nan 0
0.47467792 -5.4806733 1.0608987 3
0.193391 -2.2374523 0.3492457 8
0.18923692 -2.1938543 0.26567516 8
0.22499312 -2.6137094 0.22616915 2
0.22336823 -2.6001444 0.13476509 5
nan nan nan 0
0.16248372 -1.9149241 -0.50469732 3
0.18573584 -2.1935022 -0.49939165 5
0.22101773 -2.6156039 -0.5023306 4
0.24720812 -2.931649 -0.45991769 10
0.25039089 -2.975596 -0.36195236 15
0.26286536 -3.130379 -0.27149057 10
0.26253778 -3.1330354 -0.1622232 13
0.27980179 -3.3460763 -0.057363093 10
0.64016891 -7.6717367 2.0510981 5
nan nan nan 0
0.25719735 -3.0952716 0.5957427 2
0.18557966 -2.2381136 0.3492457 8
0.18157779 -2.1945014 0.26567516 8
0.22119644 -2.6790116 0.23183426 2
0.22003067 -2.6705761 0.1384286 5
0.24645457 -2.9976838 0.051833645 50
0.1554641 -1.9155068 -0.50469732 3
0.17730172 -2.189312 -0.49826688 4
0.21103422 -2.6115041 -0.5013774 5
0.23765221 -2.9473031 -0.46226421 10
0.23868707 -2.9665999 -0.36073366 10
0.25059301 -3.1213915 -0.270619 11
0.24746445 -3.0891812 -0.15987591 10
0.24602634 -3.0779779 -0.05269802 10
0.61243027 -7.6788464 2.0523913 5
nan nan nan 0
0.24701643 -3.1108723 0.59860224 2
0.17698525 -2.2338555 0.34846443 8
0.17314221 -2.1902046 0.26506582 9
0.21764261 -2.7592533 0.23880674 2
0.21298334 -2.7062087 0.14026035 4
0.23977087 -3.0533895 0.052793525 55
0.14877678 -1.9160379 -0.50469732 3
0.16965851 -2.1899176 -0.49826688 4
0.20305189 -2.6269059 -0.504237 4
0.22736275 -2.9481146 -0.46226421 12
0.2279495 -2.962467 -0.36012432 10
0.24617735 -3.2066751 -0.27802724 13
0.23629837 -3.0850477 -0.15961511 10
0.24023277 -3.1436193 -0.053821094 9
0.58415365 -7.6616735 2.0472183 3
nan nan nan 0
0.23541307 -3.101927 0.59669584 2
0.16918656 -2.2344596 0.34846443 7
0.1654959 -2.1907957 0.26506582 9
0.21362469 -2.8344994 0.2453434 2
nan nan nan 0
nan nan nan 0
0.14208767 -1.9165455 -0.50469732 3
0.16201325 -2.1904964 -0.49826688 4
0.1967705 -2.6667585 -0.51186246 4
0.21670799 -2.9439654 -0.46148208 12
0.21760719 -2.9632444 -0.36012432 10
0.23716603 -3.2373211 -0.28064194 14
0.23171532 -3.1705122 -0.16404887 14
0.24670726 -3.3837676 -0.057967823 10
0.56055921 -7.7070203 2.0588577 10
nan nan nan 0
0.22387521 -3.0929389 0.59478951 2
0.16138582 -2.2350366 0.34846443 8
0.15784758 -2.19136 0.26506582 9
0.20908405 -2.9097502 0.25188008 2
nan nan nan 0
0.23734634 -3.3192742 0.057418413 52
0.13539679 -1.9170297 -0.50469732 3
0.154366 -2.1910484 -0.49826688 3
0.19158973 -2.7261839 -0.52330071 4
0.20643032 -2.9447038 -0.46148208 13
0.20691602 -2.9590356 -0.35951498 12
0.22517106 -3.2281916 -0.27977037 10
0.2223796 -3.1962075 -0.1653529 15
0.23074076 -3.3247609 -0.056931138 11
0.53398681 -7.713748 2.0601509 4
0.23957945 -3.4696531 0.79347688 2
0.21408924 -3.1083918 0.5976491 2
0.15324463 -2.2306595 0.3476831 7
0.15019736 -2.1918976 0.26506582 9
0.22507888 -3.2931044 0.28543505 6
0.22946142 -3.36586 0.17480208 10
0.22711508 -3.3400333 0.057767462 57
0.12870428 -1.9174907 -0.50469732 3
0.1470423 -2.1964352 -0.49939165 3
0.18763143 -2.8100917 -0.53950495 5
0.19615014 -2.9454064 -0.46148208 13
0.1965858 -2.9597397 -0.35951498 12
0.21390121 -3.2289579 -0.27977037 10
0.21089222 -3.191982 -0.1650921 10
0.22406439 -3.4003727 -0.058226991 10
0.50642407 -7.7059264 2.0575643 2
nan nan nan 0
0.20291747 -3.1042221 0.59669584 2
0.14545724 -2.2311809 0.3476831 7
0.1425453 -2.1924086 0.26506582 9
0.21938388 -3.3833401 0.29327908 7
0.22157761 -3.4264333 0.17794225 8
nan nan nan 0
0.12139697 -1.9082885 -0.50210917 3
0.13937442 -2.1969352 -0.49939165 3
0.18370944 -2.9038012 -0.55761552 6
0.18555658 -2.9411445 -0.46069989 14
0.18562993 -2.9505019 -0.35829625 13
0.20262873 -3.2296848 -0.27977037 10
0.19943704 -3.1877151 -0.16483128 9
0.21624033 -3.4659984 -0.059350066 13
nan nan nan 0
0.21535106 -3.4712412 0.79347688 2
nan nan nan 0
0.13766807 -2.2316749 0.3476831 8
0.13489148 -2.192893 0.26506582 9
0.26459795 -4.3137798 0.37476969 14
nan nan nan 0
0.22144279 -3.6309555 0.06282866 58
0.11415547 -1.8990587 -0.49952096 3
0.13170484 -2.1974082 -0.49939165 3
0.17884263 -2.9926169 -0.57477295 7
0.17646392 -2.9614928 -0.46382856 10
0.17650692 -2.970948 -0.36073366 10
0.19164833 -3.2353446 -0.28020614 10
0.18830863 -3.1883917 -0.16483128 9
0.20531592 -3.4866943 -0.059695628 13
nan nan nan 0
0.20294815 -3.467108 0.79235297 4
nan nan nan 0
0.12959038 -2.2272117 0.3469018 8
0.12723604 -2.1933503 0.26506582 9
nan nan nan 0
nan nan nan 0
0.20934084 -3.6416881 0.063003182 54
0.10670694 -1.88498 -0.4956387 3
0.12403364 -2.1978548 -0.49939165 3
0.17335796 -3.0814331 -0.59193039 7
0.16861409 -3.0064673 -0.47086814 8
0.16752045 -2.996321 -0.36378038 7
0.17979935 -3.2260473 -0.27933457 11
0.17745492 -3.1940155 -0.1650921 8
0.19369674 -3.4973731 -0.059868407 14
nan nan nan 0
nan nan nan 0
0.31880859 -5.811492 1.1228558 2
0.12181517 -2.2276506 0.3469018 8
0.11930895 -2.1888258 0.26445645 9
0.22366655 -4.1165767 0.35733855 10
0.21214691 -3.9171779 0.20358686 10
0.2025563 -3.7522202 0.064922951 61
0.10038261 -1.8901638 -0.49693277 3
0.11636095 -2.1982741 -0.49939165 3
0.16673817 -3.1604431 -0.60718137 5
0.16408287 -3.120465 -0.4888581 7
0.16199517 -3.0910501 -0.37535799 5
0.16853726 -3.2266552 -0.27933457 8
0.1668238 -3.2045884 -0.16561371 10
0.18045135 -3.4780576 -0.059522845 10
0.20125212 -3.8921044 1.0333085 2
0.17898916 -3.4733059 0.79347688 2
0.29801726 -5.8027658 1.1209494 2
0.11403848 -2.2280624 0.3469018 8
0.11166779 -2.189229 0.26445645 9
0.20095092 -3.953172 0.34295785 10
0.19922999 -3.9328551 0.2043719 10
0.19021353 -3.7678828 0.065184735 64
0.094262682 -1.9001501 -0.49952096 3
0.10868683 -2.198667 -0.49939165 3
0.15522218 -3.151201 -0.60527498 2
0.15948407 -3.2492638 -0.50919461 6
0.15944697 -3.2601283 -0.39607581 5
0.1611523 -3.3068249 -0.28630704 7
0.15781628 -3.250037 -0.167961 7
0.16806796 -3.4736731 -0.059436455 10
0.18766491 -3.8927832 1.0333085 2
nan nan nan 0
nan nan nan 0
0.10626039 -2.2284467 0.3469018 7
0.10402527 -2.1896052 0.26445645 9
0.18927009 -3.9986281 0.34687987 9
0.18761742 -3.9784148 0.20672701 9
0.17706002 -3.7685239 0.065184735 64
0.0878518 -1.905292 -0.50081509 3
0.1010114 -2.199033 -0.49939165 3
0.37576818 -8.2117958 -1.588966 11
0.14836596 -3.254734 -0.5099768 2
0.15279366 -3.3647749 -0.40887213 4
0.15388495 -3.4019094 -0.29458687 6
0.15253922 -3.3852477 -0.17500284 6
0.15549321 -3.4642501 -0.059263673 9
0.17385969 -3.8885894 1.0320153 2
nan nan nan 0
0.16875096 -3.804085 0.73204863 2
0.098481014 -2.2288041 0.3469018 7
0.096381493 -2.1899552 0.26445645 10
0.18490909 -4.2182169 0.36605412 11
0.17786719 -4.0738254 0.21169895 12
0.16390434 -3.7691188 0.065184735 63
0.081406169 -1.9104123 -0.50210917 3
0.093128145 -2.1945045 -0.49826688 3
0.34710136 -8.2130575 -1.588966 4
0.34238145 -8.1350317 -1.2835459 3
0.14416471 -3.4396632 -0.41801229 2
0.14844823 -3.5567014 -0.30809602 5
0.14362448 -3.4556038 -0.17865416 8
0.14443344 -3.4897466 -0.059695628 6
nan nan nan 0
nan nan nan 0
0.17230505 -4.2166042 0.81211638 7
0.09070044 -2.2291343 0.3469018 7
0.088736534 -2.1902783 0.26445645 9
0.1725928 -4.2785592 0.37128344 11
0.1646477 -4.0993667 0.21300732 12
0.15054689 -3.7646728 0.065097474 62
0.074925862 -1.9155108 -0.50340325 3
0.085467331 -2.1948161 -0.49826688 4
0.93198365 -24.041424 -4.664907 2
0.92604858 -23.996521 -3.7974498 2
0.29580399 -7.6999893 -0.94144171 32
0.13489009 -3.527334 -0.30548134 2
0.13479023 -3.5409071 -0.18308793 6
0.13584769 -3.5851474 -0.061337039 4
nan nan nan 0
nan nan nan 0
0.16876557 -4.5163784 0.87026095 12
0.082918756 -2.2294374 0.3469018 7
0.081090495 -2.1905746 0.26445645 10
0.16095783 -4.3687329 0.37912747 15
0.15033725 -4.099916 0.21300732 14
0.13758713 -3.7701712 0.065184735 58
0.068239018 -1.9157608 -0.50340325 3
0.077805467 -2.195101 -0.49826688 4
0.84753877 -24.029814 -4.6620474 2
nan nan nan 0
0.26857784 -7.6910553 -0.94022304 24
nan nan nan 0
0.12812243 -3.706033 -0.19169462 5
0.13244069 -3.8504033 -0.065915719 12
nan nan nan 0
nan nan nan 0
0.15565801 -4.5954275 0.88551193 11
0.075302377 -2.2346487 0.3476831 7
0.073443465 -2.1908443 0.26445645 10
0.14471103 -4.3393984 0.3765128 10
0.13470057 -4.060493 0.21091388 12
0.1278884 -3.8755555 0.067017235 50
0.061551351 -1.9159871 -0.50340325 3
0.070142664 -2.1953592 -0.49826688 3
0.76303035 -24.013 -4.6582346 2
0.7578761 -23.982656 -3.7943211 2
0.24188529 -7.6969061 -0.94083238 17
0.24017705 -7.6852727 -0.66935712 26
0.11565048 -3.7214296 -0.19247703 2
0.12424956 -4.0207357 -0.068852983 11
nan nan nan 0
0.1463825 -4.7911325 1.0969312 11
0.14542843 -4.7872782 0.92268622 15
0.067501538 -2.2348981 0.3476831 7
0.065795548 -2.1910875 0.26445645 11
0.12956282 -4.3398771 0.3765128 11
0.12067411 -4.0659299 0.21117558 12
nan nan nan 0
0.054862935 -1.9161905 -0.50340325 3
0.062340427 -2.190721 -0.49714214 3
0.67975968 -24.035145 -4.6620474 2
0.67374015 -23.970348 -3.7919745 2
0.21487802 -7.6927428 -0.94022304 18
0.21265793 -7.6611686 -0.66717821 19
0.66148651 -23.981476 -1.2511008 2
0.10939199 -3.9911609 -0.068334647 2
0.12463912 -4.5766168 1.2156571 2
0.135456 -5.0059052 1.146383 9
0.13518041 -5.0281768 0.96939254 9
0.059699878 -2.2351201 0.3476831 8
0.058146823 -2.1913037 0.26445645 10
0.11467556 -4.3502622 0.37738436 12
0.1077877 -4.1162405 0.21379238 7
0.1103185 -4.2411752 0.073387362 48
0.048508316 -1.9163618 -0.50340325 3
0.055457782 -2.1909063 -0.49714214 3
0.60338444 -24.002815 -4.655375 2
0.59855515 -23.977283 -3.7927566 2
0.19058657 -7.6884189 -0.9396137 16
0.18858865 -7.661799 -0.66717821 19
0.19978598 -8.1747141 -0.42511865 4
0.19896266 -8.1996174 -0.14107519 2
0.11677451 -4.8473792 1.2880793 3
0.12299038 -5.142684 1.1778524 11
0.12311112 -5.1855979 0.9998945 7
0.052677758 -2.2352965 0.3476831 8
0.05114631 -2.1865144 0.26384711 10
0.1013551 -4.3655396 0.3786917 7
nan nan nan 0
nan nan nan 0
0.042153165 -1.9165121 -0.50340325 3
0.047809754 -2.1910863 -0.49714214 3
0.51927662 -23.990053 -4.6525154 2
0.5145371 -23.964413 -3.7904103 2
0.16374782 -7.6890373 -0.9396137 18
0.16184284 -7.6624107 -0.66717821 18
0.17124969 -8.1753607 -0.42511865 3
0.17023562 -8.1952639 -0.1409888 2
0.11129159 -5.4030728 1.4368032 12
0.10991295 -5.3817625 1.2329236 13
0.10848708 -5.3577518 1.0332562 9
0.044775683 -2.2305295 0.3469018 7
0.043513641 -2.1866794 0.26384711 11
nan nan nan 0
nan nan nan 0
nan nan nan 0
0.035128511 -1.9166538 -0.50340325 3
0.039778698 -2.191247 -0.49714214 3
0.43125698 -23.986889 -4.6515622 2
0.42669967 -23.966139 -3.7904103 2
0.1354775 -7.6846232 -0.93900436 17
0.13367067 -7.6579723 -0.66674244 19
0.14128433 -8.1759338 -0.42511865 3
0.14011185 -8.190835 -0.14090241 2
0.09590286 -5.6642194 1.5066389 14
0.0940236 -5.6110835 1.2857472 9
0.090395413 -5.4513578 1.0513667 14
0.036600087 -2.2306786 0.3469018 8
0.035498768 -2.1868243 0.26384711 11
0.077711374 -4.8392839 0.42009068 7
nan nan nan 0
0.1278895 -8.1410112 0.14145175 23
0.028437931 -1.9167647 -0.50340325 3
0.032129578 -2.1913724 -0.49714214 3
0.34752446 -23.988249 -4.6515622 2
0.342969 -23.962545 -3.789628 2
0.10865234 -7.6850495 -0.93900436 17
0.10693854 -7.6583924 -0.66674244 21
0.11267529 -8.1713839 -0.42485785 2
0.11131546 -8.1762762 -0.14064324 2
0.079181075 -5.8915019 1.5674217 11
0.077990986 -5.8793163 1.3475621 10
0.071237586 -5.4418249 1.0494604 11
0.02881334 -2.2307928 0.3469018 7
0.02786511 -2.1869347 0.26384711 12
0.061256792 -4.8743906 0.42314115 2
nan nan nan 0
0.099471293 -8.141408 0.14145175 26
0.021747001 -1.9168522 -0.50340325 3
0.024480063 -2.1914711 -0.49714214 3
0.26378778 -23.989315 -4.6515622 2
0.25926858 -23.958658 -3.7888458 2
0.081773013 -7.6804199 -0.93839496 17
0.080205113 -7.6587186 -0.66674244 19
0.08420258 -8.1767206 -0.42511865 2
0.082723655 -8.1716175 -0.14055686 4
0.058663461 -5.8965721 1.568715 2
0.057705961 -5.9039125 1.3531816 2
0.052194517 -5.4371324 1.0485071 11
0.021026246 -2.2308798 0.3469018 7
0.020231113 -2.1870189 0.26384711 12
0.073579937 -8.1070929 0.70596147 13
nan nan nan 0
0.071095496 -8.1467047 0.14153901 25
0.015055803 -1.9169166 -0.50340325 3
0.016830252 -2.1915433 -0.49714214 3
0.18001097 -23.98518 -4.650609 2
0.17559947 -23.954477 -3.7880638 2
0.054962847 -7.6806583 -0.93839496 17
0.053435937 -7.6539717 -0.66630667 19
0.055659983 -8.1769648 -0.42511865 2
0.054198887 -8.1718569 -0.14055686 4
0.15457411 -23.935873 6.3990121 2
nan nan nan 0
0.034114558 -5.584528 1.0771028 6
0.013238895 -2.2309396 0.3469018 7
0.01259687 -2.1870761 0.26384711 12
0.04528046 -8.1072998 0.70596147 13
nan nan nan 0
0.042710111 -8.1569014 0.14171353 28
0.008364425 -1.9169574 -0.50340325 3
0.0091802357 -2.1915889 -0.49714214 3
0.096266277 -23.980755 -4.6496558 2
0.091943756 -23.945068 -3.7864993 2
0.028133823 -7.6758409 -0.93778563 18
0.026718266 -7.6541114 -0.66630667 18
0.027116708 -8.1771097 -0.42511865 2
0.025673453 -8.1719961 -0.14055686 4
0.071150355 -23.979736 6.4106512 2
nan nan nan 0
0.015031913 -5.7416778 1.1076049 12
0.0054513821 -2.2309721 0.3469018 8
0.0049624732 -2.1871068 0.26384711 12
0.016980426 -8.1074085 0.70596147 13
nan nan nan 0
0.014219502 -8.1470022 0.14153901 32
0.0016729439 -1.9169749 -0.50340325 3
0.0015301078 -2.1916075 -0.49714214 3
0.012559806 -23.985853 -4.650609 2
0.0083558597 -23.935366 -3.784935 2
0.0013399655 -7.6758924 -0.93778563 17
2.6873775e-07 -7.6541581 -0.66630667 20
-0.0014260242 -8.1721611 -0.42485785 2
-0.0028522916 -8.1720362 -0.14055686 7
-0.012554973 -23.979839 6.4106512 2
nan nan nan 0
-0.0050189397 -5.7515116 1.1095111 7
-0.0023361966 -2.2309775 0.3469018 8
-0.0026719843 -2.1871107 0.26384711 12
-0.011312862 -8.1024389 0.70552576 13
-0.012797177 -8.1471109 0.42496794 2
-0.01421893 -8.1470022 0.14153901 40
-0.0046721818 -1.9121403 -0.50210917 3
-0.0053431215 -2.1867294 -0.49601737 3
-0.062793903 -23.985773 -4.650609 2
-0.066811651 -23.925398 -3.7833705 2
-0.022759805 -7.6708961 -0.93717635 17
-0.024045937 -7.6541204 -0.66630667 19
-0.027083017 -8.1671228 -0.42459702 3
-0.028525444 -8.1719866 -0.14055686 5
-0.027897136 -7.6114111 2.0278194 2
-0.029460892 -7.6726904 1.7611591 3
-0.023048386 -5.7416511 1.1076049 7
-0.0093449969 -2.2309592 0.3469018 8
-0.0095429709 -2.1870916 0.26384711 12
-0.036744725 -8.0973816 0.70508999 14
-0.038556684 -8.181983 0.42679971 2
-0.039813377 -8.1469173 0.14153901 34
-0.011013042 -1.9121143 -0.50210917 3
-0.012976198 -2.1866975 -0.49601737 3
-0.14627963 -23.946142 -4.6429834 2
-0.15023337 -23.910206 -3.7810242 2
-0.04953609 -7.6707697 -0.93717635 17
-0.050763659 -7.6539898 -0.66630667 20
-0.055591431 -8.1669779 -0.42459702 3
-0.057050824 -8.1718369 -0.14055686 3
-0.054811362 -7.6595645 2.0407519 8
-0.056243401 -7.6725411 1.7611591 7
-0.043127187 -5.7464442 1.1085581 8
-0.017132441 -2.2309129 0.3469018 8
-0.017177287 -2.1870449 0.26384711 14
-0.064969644 -8.0922232 0.70465422 11
-0.067034975 -8.1718121 0.42627633 2
-0.068251185 -8.1467285 0.14153901 42
-0.018354934 -1.9120579 -0.50210917 3
-0.021372398 -2.1866314 -0.49601737 3
-0.081631407 -8.2052584 -1.5861064 2
-0.24219061 -23.924265 -3.7833705 2
-0.07898929 -7.6705236 -0.93717635 17
-0.080100261 -7.6487575 -0.6658709 21
-0.086896732 -8.1617126 -0.42433625 4
-0.088427924 -8.1715574 -0.14055686 4
nan nan nan 0
nan nan nan 0
-0.065191574 -5.7462358 1.1085581 9
-0.025698382 -2.2308307 0.3469018 8
-0.025574788 -2.1869628 0.26384711 14
-0.095981881 -8.0869341 0.70421839 10
-0.098051131 -8.1415377 0.42470625 2
-0.0995318 -8.1464071 0.14153901 34
-0.024965933 -1.907153 -0.50081509 3
-0.028940417 -2.1816723 -0.49489263 3
-0.10974492 -8.1656609 -1.578481 2
-0.3257004 -23.923273 -3.7833705 2
-0.10576393 -7.6702008 -0.93717635 17
-0.10679892 -7.6484318 -0.6658709 19
-0.1153859 -8.1613598 -0.42433625 3
-0.11695144 -8.1711998 -0.14055686 4
-0.3468748 -23.94352 6.4015985 3
-0.35111564 -23.947681 5.5161252 2
-0.085249282 -5.7459736 1.1085581 11
-0.033485278 -2.2307274 0.3469018 8
-0.033208556 -2.1868603 0.26384711 13
-0.12413347 -8.0815687 0.70378262 12
-0.12662493 -8.1511316 0.42522964 2
-0.12805265 -8.1510077 0.14162627 42
-0.031703062 -1.9118832 -0.50210917 3
-0.0365557 -2.1815581 -0.49489263 3
-0.40538821 -23.943157 -4.6429834 2
-0.40937513 -23.931866 -3.784935 2
-0.13245153 -7.6648231 -0.93656695 17
-0.13349627 -7.6480122 -0.6658709 19
-0.14387366 -8.1609068 -0.42433625 3
-0.14547354 -8.1707411 -0.14055686 6
-0.43019068 -23.927675 6.3977184 3
-0.43408751 -23.912209 5.5082579 2
-0.10530596 -5.7456412 1.1085581 13
-0.041271765 -2.230597 0.3469018 9
-0.040841922 -2.1867311 0.26384711 14
-0.15234265 -8.0810871 0.70378262 11
-0.1551719 -8.155632 0.42549133 3
-0.15649752 -8.1505117 0.14162627 43
-0.037988864 -1.8924463 -0.49693277 3
-0.044071902 -2.1765461 -0.49376786 3
-0.48846185 -23.917061 -4.6382174 2
-0.49311388 -23.940168 -3.7864993 2
-0.15920596 -7.6643138 -0.93656695 17
-0.16008769 -7.6425195 -0.66543514 19
-0.17235966 -8.1603556 -0.42433625 3
-0.17399386 -8.1701841 -0.14055686 11
-0.51308924 -23.897055 6.3899593 3
-0.51787037 -23.925161 5.5116296 2
-0.12525426 -5.7403307 1.1076049 15
-0.049057752 -2.2304392 0.3469018 8
-0.048474789 -2.1865752 0.26384711 14
-0.18054998 -8.0805054 0.70378262 11
-0.18397664 -8.1700153 0.42627633 3
-0.18494716 -8.1499157 0.14162627 49
-0.044480719 -1.8874738 -0.4956387 3
-0.051669199 -2.176379 -0.49376786 3
-0.57253176 -23.939743 -4.6429834 2
-0.57548827 -23.888929 -3.7786775 2
-0.18595843 -7.6637111 -0.93656695 17
-0.18676409 -7.6419144 -0.66543514 19
-0.20084357 -8.1597042 -0.42433625 4
-0.20251207 -8.1695271 -0.14055686 16
-0.59746659 -23.933744 6.4003053 3
-0.60101426 -23.908596 5.5082579 2
-0.14516678 -5.734952 1.1066515 10
-0.056843136 -2.2302544 0.3469018 8
-0.056107063 -2.1863925 0.26384711 14
-0.20875511 -8.0798264 0.70378262 11
-0.21288371 -8.1842985 0.42706138 2
-0.21339455 -8.1492205 0.14162627 50
nan nan nan 0
-0.059265859 -2.1761854 -0.49376786 4
nan nan nan 0
nan nan nan 0
-0.21270864 -7.6630154 -0.93656695 17
-0.2134382 -7.6412158 -0.66543514 21
-0.22932503 -8.1589527 -0.42433625 5
-0.23102781 -8.1687698 -0.14055686 4
-0.68059516 -23.91703 6.3964257 3
nan nan nan 0
-0.16518462 -5.7344103 1.1066515 10
-0.064627834 -2.2300425 0.3469018 9
-0.063738659 -2.1861835 0.26384711 13
-0.2369577 -8.0790482 0.70378262 12
nan nan nan 0
-0.24198765 -8.1534233 0.14171353 57
nan nan nan 0
-0.066861808 -2.1759651 -0.49376786 4
nan nan nan 0
nan nan nan 0
-0.23945627 -7.6622262 -0.93656695 15
-0.23995328 -7.6354451 -0.66499931 20
-0.25796136 -8.1630926 -0.42459702 8
-0.25954074 -8.1679144 -0.14055686 9
nan nan nan 0
nan nan nan 0
-0.18488353 -5.7239876 1.1047453 10
-0.072411738 -2.2298033 0.3469018 9
-0.071369469 -2.1859477 0.26384711 13
-0.26515737 -8.0781717 0.70378262 11
nan nan nan 0
-0.27044693 -8.1525288 0.14171353 60
nan nan nan 0
-0.07445693 -2.1757185 -0.49376786 4
nan nan nan 0
nan nan nan 0
-0.26620096 -7.6613441 -0.93656695 17
-0.26677832 -7.6395397 -0.66543514 19
-0.28592896 -8.1471729 -0.42381462 6
-0.28822666 -8.1719532 -0.14064324 13
-0.84583873 -23.863428 6.3834934 3
nan nan nan 0
-0.20486288 -5.7233071 1.1047453 10
-0.080194764 -2.2295368 0.3469018 10
-0.078999422 -2.1856852 0.26384711 14
-0.29317307 -8.0722189 0.70334685 11
nan nan nan 0
-0.29853654 -8.1415424 0.14153901 64
nan nan nan 0
-0.081473708 -2.1803427 -0.49489263 5
nan nan nan 0
nan nan nan 0
-0.28989258 -7.6505508 -0.93534821 19
-0.29077727 -7.6386638 -0.66543514 18
-0.31266743 -8.1761723 -0.42537948 8
-0.31370625 -8.1660128 -0.14055686 18
-0.9215486 -23.879957 6.3886657 2
nan nan nan 0
-0.22284213 -5.7226353 1.1047453 7
-0.087005615 -2.224339 0.34612048 9
-0.08567071 -2.1804671 0.26323774 13
-0.31892404 -8.081213 0.70421839 12
nan nan nan 0
-0.32451022 -8.1505556 0.14171353 73
nan nan nan 0
-0.08928293 -2.1849124 -0.49601737 5
nan nan nan 0
nan nan nan 0
-0.31700671 -7.6594095 -0.93656695 17
nan nan nan 0
-0.34016457 -8.1500864 -0.42407545 10
-0.3405343 -8.1249094 -0.13986574 11
nan nan nan 0
nan nan nan 0
-0.24281648 -5.7218227 1.1047453 8
-0.094559237 -2.2190878 0.34533918 10
-0.093069308 -2.1751969 0.26262844 13
-0.346917 -8.0750742 0.70378262 8
nan nan nan 0
nan nan nan 0
nan nan nan 0
-0.097290434 -2.1845706 -0.49601737 4
nan nan nan 0
nan nan nan 0
-0.34530112 -7.6631546 -0.93717635 16
nan nan nan 0
-0.37116641 -8.1737251 -0.42537948 11
-0.37008363 -8.1186123 -0.13977934 8
nan nan nan 0
nan nan nan 0
nan nan nan 0
-0.10246362 -2.2137928 0.34455785 10
-0.10081085 -2.1698835 0.26201907 14
nan nan nan 0
nan nan nan 0
nan nan nan 0
nan nan nan 0
-0.10491542 -2.1842177 -0.49601737 4
nan nan nan 0
nan nan nan 0
nan nan nan 0
nan nan nan 0
nan nan nan 0
nan nan nan 0
-0.24734437 -5.0214019 1.3359296 33
nan nan nan 0
nan nan nan 0
-0.10994504 -2.2084894 0.34377655 8
-0.10813693 -2.164562 0.26140973 11
nan nan nan 0
nan nan nan 0
-0.11862978 -2.349905 0.040402319 48
nan nan nan 0
-0.11278985 -2.1887038 -0.49714214 4
nan nan nan 0
nan nan nan 0
nan nan nan 0
nan nan nan 0
-0.13841264 -2.6410723 -0.1361423 5
nan nan nan 0
-0.26487082 -5.0205078 1.3359296 32
-0.27706441 -5.2342677 1.2003304 30
nan nan nan 0
-0.11739065 -2.2031605 0.34299523 8
-0.11542708 -2.1592157 0.26080036 13
nan nan nan 0
nan nan nan 0
nan nan nan 0
nan nan nan 0
-0.12016145 -2.1834319 -0.49601737 4
nan nan nan 0
nan nan nan 0
nan nan nan 0
-0.12796697 -2.2960486 -0.19784385 4
-0.14790958 -2.6455584 -0.13640311 6
nan nan nan 0
-0.28239405 -5.0195527 1.3359296 25
-0.29533374 -5.2332692 1.2003304 22
-0.12394477 -2.1894891 0.41844967 8
-0.12480043 -2.1978066 0.34221393 9
-0.12268124 -2.1538448 0.26019105 12
-0.12520622 -2.1914377 0.18869218 17
nan nan nan 0
-0.13216312 -2.2991095 0.039529696 52
nan nan nan 0
-0.12778232 -2.1829991 -0.49601737 4
-0.13169454 -2.2431233 -0.42893505 6
-0.13230272 -2.2467799 -0.3504135 6
-0.13245861 -2.2427568 -0.27115959 4
-0.13156286 -2.221004 -0.19130714 9
-0.13463768 -2.2662113 -0.11658162 7
-0.13489699 -2.2639017 -0.038530029 13
-0.2993376 -5.008894 1.333343 15
-0.31359947 -5.2322063 1.2003304 16
-0.13247029 -2.2037418 0.42130923 10
-0.13306582 -2.207217 0.34377655 8
-0.12989929 -2.1484497 0.25958169 13
-0.13225202 -2.1810436 0.18782063 12
-0.13598202 -2.2360971 0.11540078 9
-0.1362315 -2.2337646 0.038395293 64
nan nan nan 0
-0.13509999 -2.1776776 -0.49489263 4
-0.14043801 -2.2573462 -0.43179458 8
-0.14014463 -2.2463043 -0.3504135 11
-0.14090626 -2.252187 -0.27237827 7
-0.13962671 -2.2255025 -0.19174294 10
-0.14035274 -2.2308443 -0.11475597 13
-0.14311343 -2.2684064 -0.038616419 11
-0.31712502 -5.0126386 1.3346363 20
-0.33247828 -5.2408042 1.2025783 16
-0.14016199 -2.2032659 0.42130923 9
-0.13919765 -2.182096 0.33987001 9
-0.13708119 -2.1430309 0.25897235 12
-0.13986449 -2.1805687 0.18782063 12
-0.14346616 -2.2306261 0.1151391 10
-0.14241925 -2.2083311 0.037958983 58
nan nan nan 0
-0.14270069 -2.1771927 -0.49489263 3
-0.1505699 -2.2911267 -0.43846694 10
-0.15123193 -2.295079 -0.35823521 10
-0.15073003 -2.2813931 -0.27603436 7
-0.15496686 -2.3393135 -0.20176587 10
-0.14846988 -2.2353227 -0.11501677 11
-0.15568145 -2.3377278 -0.039825883 13
-0.33462048 -5.0115013 1.3346363 20
-0.35077009 -5.2396116 1.2025783 16
-0.14818068 -2.2076604 0.4222624 10
-0.14714536 -2.1865246 0.34065133 8
-0.14456095 -2.1425393 0.25897235 13
-0.14747524 -2.1800671 0.18782063 13
-0.15091376 -2.2251301 0.11487742 10
-0.1545359 -2.272661 0.03909339 59
nan nan nan 0
-0.149964 -2.1718209 -0.49376786 4
-0.15890546 -2.2954838 -0.43942013 5
-0.15650706 -2.2551243 -0.35197783 5
-0.15765929 -2.266001 -0.27420634 5
nan nan nan 0
-0.16497943 -2.3593168 -0.12153699 11
nan nan nan 0
-0.35211185 -5.0103025 1.3346363 19
-0.3690576 -5.2383556 1.2025783 17
-0.15554015 -2.2022336 0.42130923 9
-0.15477686 -2.1859977 0.34065133 7
-0.15203892 -2.1420217 0.25897235 12
-0.15437715 -2.1696024 0.18694907 13
-0.16116679 -2.2594531 0.11670918 10
-0.16852959 -2.3568783 0.040576845 61
nan nan nan 0
-0.15754415 -2.1712842 -0.49376786 3
nan nan nan 0
nan nan nan 0
nan nan nan 0
nan nan nan 0
nan nan nan 0
-0.18007207 -2.4462709 -0.041726466 7
-0.36959893 -5.0090432 1.3346363 19
-0.38734064 -5.2370353 1.2025783 17
-0.16286352 -2.1967826 0.42035604 7
nan nan nan 0
-0.15988366 -2.1464267 0.25958169 11
-0.16157867 -2.164083 0.18651327 12
-0.17166126 -2.2937312 0.11854094 10
-0.17862542 -2.3812017 0.041013151 48
nan nan nan 0
-0.16475289 -2.1658633 -0.49264312 3
-0.61934078 -8.1231899 -1.5746683 15
-0.61777902 -8.0840921 -1.2780707 15
-0.58583617 -7.6485271 -0.93717635 30
-0.58550602 -7.6267357 -0.6658709 32
-0.62351233 -8.1032686 -0.42251056 15
-0.62299073 -8.0780592 -0.13934739 18
-0.38708147 -5.0077224 1.3346363 20
-0.40561894 -5.235651 1.2025783 16
nan nan nan 0
-0.16965091 -2.17994 0.33987001 4
-0.16698922 -2.140908 0.25897235 11
-0.17068455 -2.1833689 0.1882564 10
-0.17927682 -2.2881403 0.11827926 10
-0.18771902 -2.3905315 0.041187678 40
nan nan nan 0
-0.17231217 -2.1652751 -0.49264312 4
-0.64418012 -8.0769434 -1.5660895 10
-0.64402658 -8.0572729 -1.2741597 8
-0.61253101 -7.6464353 -0.93717635 19
-0.61212474 -7.6246452 -0.6658709 22
-0.64778978 -8.0512733 -0.4199025 16
-0.64917558 -8.0509205 -0.13891543 15
-0.40455934 -5.006341 1.3346363 18
-0.42389232 -5.2342038 1.2025783 17
nan nan nan 0
-0.46432033 -5.7086396 0.90006948 34
-0.17486453 -2.1452579 0.25958169 5
-0.17830488 -2.1827598 0.1882564 7
-0.18807761 -2.2974534 0.11880261 6
nan nan nan 0
nan nan nan 0
-0.17946589 -2.1598051 -0.49151835 4
-0.6727773 -8.0795364 -1.5670427 25
-0.6709159 -8.0402126 -1.2718133 19
-0.63880473 -7.6393046 -0.93656695 19
-0.63915193 -7.6274257 -0.66630667 23
-0.67463648 -8.0340357 -0.41912007 20
-0.67559779 -8.0286779 -0.13856988 24
-0.42203227 -5.0048981 1.3346363 17
-0.44216049 -5.2326922 1.2025783 16
-0.46415454 -5.4815745 1.0608987 29
-0.48466197 -5.7119055 0.90085083 30
-0.18193139 -2.1396902 0.25897235 2
-0.68320715 -8.0186024 0.70073217 23
-0.68584722 -8.0330124 0.42051938 22
nan nan nan 0
-0.16258012 -1.8809848 -0.4956387 3
-0.18700391 -2.1591654 -0.49151835 3
nan nan nan 0
nan nan nan 0
-0.66546702 -7.6370282 -0.93656695 19
-0.66533947 -7.6201863 -0.6658709 24
nan nan nan 0
-0.66912895 -7.6328382 -0.13174506 12
-0.43950006 -5.0033946 1.3346363 17
-0.46042332 -5.2311168 1.2025783 16
-0.48242357 -5.4701424 1.0589921 17
-0.50372779 -5.7003393 0.89928818 20
-0.50542378 -5.708169 0.69892061 29
-0.67817956 -7.6440573 0.6680488 30
-0.67851347 -7.6326871 0.39958501 24
-0.67889667 -7.6219144 0.13290006 32
-0.16957767 -1.885216 -0.49693277 3
-0.19453967 -2.1584995 -0.49151835 3
-0.69031954 -7.6444616 -1.483162 28
-0.69009459 -7.6271095 -1.2068928 28
-0.69212109 -7.6346588 -0.93656695 19
-0.69193482 -7.6178169 -0.6658709 25
-0.69359905 -7.6213737 -0.39773375 30
-0.69576848 -7.6304564 -0.13174506 30
-0.45696247 -5.0018296 1.3346363 18
-0.47868049 -5.2294774 1.2025783 16
-0.50196326 -5.4733124 1.0599453 18
-0.52407449 -5.703464 0.90006948 22
-0.52443606 -5.6964869 0.69770199 27
-0.70348567 -7.6267638 0.66674143 27
-0.70469284 -7.6252995 0.39932331 27
-0.70503706 -7.6145205 0.1328128 54
-0.17570779 -1.8798039 -0.4956387 3
-0.20207305 -2.1578074 -0.49151835 3
-0.71608251 -7.6322322 -1.4812557 19
-0.71578962 -7.6148205 -1.2053286 20
-0.71923214 -7.6371374 -0.93717635 21
-0.71852171 -7.615355 -0.6658709 21
-0.71878862 -7.603992 -0.39695129 23
-0.72192812 -7.623004 -0.13165866 29
-0.47441933 -5.0002041 1.3346363 20
-0.49693188 -5.2277746 1.2025783 16
-0.52060032 -5.4666409 1.0589921 18
-0.54398012 -5.7016001 0.90006948 22
-0.54431731 -5.694622 0.69770199 29
-0.72962898 -7.6193037 0.66630566 20
-0.72987533 -7.607883 0.39853829 17
-0.73065579 -7.6020603 0.13263828 20
-0.18180221 -1.874372 -0.49434459 3
-0.21007518 -2.161938 -0.49264312 3
-0.74224401 -7.6248007 -1.4803025 21
-0.7428453 -7.6171908 -1.2061107 22
-0.74588639 -7.6345806 -0.93717635 22
-0.7450999 -7.6128011 -0.6658709 21
-0.74581438 -7.6064062 -0.39721212 23
-0.74706692 -7.6055121 -0.1313995 29
-0.49187043 -4.998518 1.3346363 17
-0.51517719 -5.2260084 1.2025783 16
-0.53967923 -5.4647903 1.0589921 18
-0.56387913 -5.6996665 0.90006948 21
-0.56468135 -5.6976256 0.69831133 28
-0.75572872 -7.6117535 0.66586989 20
-0.75692153 -7.6102571 0.39879999 17
-0.7576831 -7.6044383 0.13272555 20
-0.18930994 -1.8833369 -0.49693277 3
-0.21762048 -2.1611917 -0.49264312 4
-0.76934767 -7.6270471 -1.4812557 21
-0.76942974 -7.6145515 -1.2061107 21
-0.77253151 -7.6319304 -0.93717635 21
-0.77166903 -7.6101537 -0.6658709 19
-0.77236116 -7.6037569 -0.39721212 25
-0.77512872 -7.6177783 -0.13165866 29
-0.50931549 -4.9967704 1.3346363 17
-0.53341621 -5.2241783 1.2025783 16
-0.55875164 -5.4628735 1.0589921 17
-0.58377123 -5.6976638 0.90006948 22
-0.58456635 -5.6956196 0.69831133 27
-0.78280354 -7.6140242 0.66630566 22
-0.78348166 -7.6075687 0.39879999 17
-0.78422296 -7.6017475 0.13272555 20
-0.19588287 -1.8826646 -0.49693277 3
-0.2256681 -2.1652641 -0.49376786 3
-0.79596633 -7.6243153 -1.4812557 20
-0.79600483 -7.6118193 -1.2061107 23
-0.79916722 -7.6291871 -0.93717635 20
-0.79822874 -7.6074138 -0.6658709 19
-0.79942048 -7.6059804 -0.39747292 25
-0.80171502 -7.615026 -0.13165866 30
-0.52675438 -4.9949622 1.3346363 18
-0.55164874 -5.2222843 1.2025783 16
-0.57781726 -5.4608893 1.0589921 17
-0.60365623 -5.695591 0.90006948 22
-0.60444421 -5.6935444 0.69831133 28
-0.80937666 -7.6112452 0.66630566 24
-0.81003231 -7.6047878 0.39879999 17
-0.81128359 -7.6039343 0.1328128 20
-0.2024534 -1.8819693 -0.49693277 2
-0.23322491 -2.1644633 -0.49376786 3
-0.82257533 -7.62149 -1.4812557 18
-0.82257015 -7.608994 -1.2061107 22
-0.82579315 -7.6263514 -0.93717635 21
-0.82477868 -7.6045809 -0.6658709 20
-0.8259654 -7.6031437 -0.39747292 26
-0.82883227 -7.6171513 -0.13174506 29
-0.54418683 -4.993093 1.3346363 18
-0.56987458 -5.2203274 1.2025783 17
-0.59687579 -5.4588394 1.0589921 17
-0.6235339 -5.693449 0.90006948 21
-0.62431473 -5.6913996 0.69831133 27
-0.83593994 -7.6083736 0.66630566 21
-0.836573 -7.6019135 0.39879999 17
-0.83782136 -7.6010561 0.1328128 19
-0.20902146 -1.8812512 -0.49693277 3
-0.24077888 -2.163636 -0.49376786 3
-0.84971797 -7.6234508 -1.4822088 21
-0.84967333 -7.6109843 -1.2068928 22
-0.85240906 -7.6234221 -0.93717635 21
-0.8513186 -7.6016555 -0.6658709 19
-0.85250032 -7.600214 -0.39747292 25
-0.85541606 -7.6142116 -0.13174506 31
-0.56161267 -4.9911628 1.3346363 17
-0.58809346 -5.2183061 1.2025783 16
-0.61592704 -5.4567227 1.0589921 18
-0.64340389 -5.6912379 0.90006948 21
-0.64417756 -5.6891861 0.69831133 28
-0.86305428 -7.6103582 0.66674143 19
-0.86366707 -7.603909 0.39906165 16
-0.86434889 -7.5980854 0.1328128 20
-0.21613707 -1.8853084 -0.49822688 3
-0.24832991 -2.1627824 -0.49376786 3
-0.87632364 -7.6204381 -1.4822088 21
-0.87623549 -7.6079721 -1.2068928 22
-0.87958324 -7.62533 -0.93778563 21
-0.87841982 -7.6035857 -0.66630667 21
-0.87959874 -7.6021528 -0.39773375 24
-0.88198942 -7.6111794 -0.13174506 29
-0.57903165 -4.989172 1.3346363 17
-0.60630518 -5.2162213 1.2025783 16
-0.63497084 -5.4545393 1.0589921 17
-0.66383809 -5.6938629 0.90085083 23
-0.66403264 -5.6869025 0.69831133 28
-0.88961411 -7.6072989 0.66674143 21
-0.89020437 -7.6008477 0.39906165 17
-0.89144832 -7.599987 0.13290006 20
-0.22214988 -1.8797461 -0.49693277 3
-0.25587791 -2.1619022 -0.49376786 3
-0.90349627 -7.6222067 -1.483162 21
-0.90278697 -7.604867 -1.2068928 21
-0.90619522 -7.6222129 -0.93778563 20
-0.90495592 -7.6004729 -0.66630667 20
-0.9061299 -7.5990357 -0.39773375 23
-0.90855205 -7.6080542 -0.13174506 30
-0.59644359 -4.9871206 1.3346363 17
-0.62450945 -5.2140732 1.2025783 15
-0.65400684 -5.4522896 1.0589921 17
-0.68370938 -5.6915112 0.90085083 22
-0.68447232 -5.689477 0.69892061 27
-0.91675889 -7.6090927 0.6671772 22
-0.91732895 -7.6026506 0.39932331 17
-0.91797179 -7.5968289 0.13290006 19
-0.22871007 -1.8789592 -0.49693277 3
-0.26283333 -2.1561601 -0.49264312 3
-0.93009722 -7.6190066 -1.483162 20
-0.92932737 -7.6016693 -1.2068928 21
-0.93339932 -7.6239295 -0.93839496 22
-0.93148094 -7.5972681 -0.66630667 20
-0.93264991 -7.5958261 -0.39773375 24
-0.93571365 -7.6097984 -0.13183144 29
-0.61384827 -4.9850082 1.3346363 18
-0.64270616 -5.2118611 1.2025783 15
-0.67303491 -5.4499736 1.0589921 18
-0.70417839 -5.6939912 0.90163213 23
-0.70432812 -5.6870532 0.69892061 28
-0.94331402 -7.6058464 0.6671772 20
-0.94386154 -7.599402 0.39932331 17
-0.944484 -7.5935783 0.13290006 18
-0.23586775 -1.8829417 -0.49822688 2
-0.27035812 -2.1552296 -0.49264312 3
-0.9572987 -7.6205835 -1.4841152 21
-0.95647281 -7.6032782 -1.2076751 21
-0.96000606 -7.620625 -0.93839496 21
-0.9579947 -7.5939698 -0.66630667 21
-0.95978433 -7.5974779 -0.39799452 26
-0.96227115 -7.6064854 -0.13183144 30
-0.63124549 -4.9828353 1.3346363 18
-0.66089499 -5.2095861 1.2025783 16
-0.69205481 -5.4475913 1.0589921 17
-0.72404987 -5.6914983 0.90163213 23
-0.72417533 -5.6845598 0.69892061 28
-0.96985769 -7.6025071 0.6671772 23
-0.97038269 -7.5960612 0.39932331 17
-0.97098482 -7.5902352 0.13290006 19
-0.24243902 -1.8821068 -0.49822688 3
-0.27787966 -2.1542728 -0.49264312 3
-0.98389369 -7.6171956 -1.4841152 21
-0.98300737 -7.5998936 -1.2076751 20
-0.98723865 -7.622149 -0.93900436 22
-0.98513734 -7.5955191 -0.66674244 19
-0.98629868 -7.5940809 -0.39799452 24
-0.98881686 -7.6030803 -0.13183144 29
-0.64863491 -4.9806013 1.3346363 18
-0.67970592 -5.212079 1.2037022 16
-0.71106619 -5.4451423 1.0589921 17
-0.74391246 -5.6889362 0.90163213 22
-0.74401379 -5.6819973 0.69892061 27
-0.99638939 -7.5990753 0.6671772 22
-0.99754196 -7.5975785 0.39958501 17
-0.99812537 -7.5917563 0.13298734 20
-0.24837358 -1.8764613 -0.49693277 3
-0.28539777 -2.1532896 -0.49264312 3
-1.0104766 -7.6137147 -1.4841152 21
-1.0101806 -7.6013117 -1.2084572 23
-1.0138388 -7.6186566 -0.93900436 21
-1.0116447 -7.5920339 -0.66674244 21
-1.0128009 -7.5905919 -0.39799452 25
-1.0160125 -7.6045375 -0.13191783 29
-0.66601658 -4.9783068 1.3346363 17
-0.69789535 -5.2096744 1.2037022 16
-0.73006898 -5.442627 1.0589921 17
-0.76376599 -5.686305 0.90163213 22
-0.76450467 -5.6842842 0.69953001 28
-1.0235739 -7.6004877 0.66761297 25
-1.0240563 -7.5940504 0.39958501 17
-1.0246196 -7.5882258 0.13298734 19
-0.25459477 -1.8756273 -0.49693277 3
-0.29216108 -2.1523824 -0.49264312 3
-1.0343908 -7.6105027 -1.4841152 21
-1.0340557 -7.5981002 -1.2084572 22
-1.0377686 -7.6154337 -0.93900436 21
-1.0361642 -7.5937538 -0.66717821 20
-1.0366424 -7.5873728 -0.39799452 24
-1.0398979 -7.6013083 -0.13191783 29
-0.6823085 -4.9809752 1.3359296 18
-0.71425855 -5.2074566 1.2037022 16
-0.74716377 -5.4403067 1.0589921 18
-0.7822991 -5.6887703 0.90241349 22
-0.78235847 -5.6818542 0.69953001 27
-1.0474465 -7.5972342 0.66761297 21
-1.0479087 -7.5907955 0.39958501 17
-1.0491381 -7.589922 0.1330746 18
-0.26081318 -1.8747727 -0.49693277 3
-0.29967251 -2.1513495 -0.49264312 3
-1.0609502 -7.6068454 -1.4841152 21
-1.0612549 -7.5993357 -1.2092395 22
-1.0650324 -7.6166797 -0.9396137 21
-1.062665 -7.5900908 -0.66717821 21
-1.0638142 -7.5886531 -0.39825535 25
-1.06712 -7.6025834 -0.13200422 28
-0.69969118 -4.9785628 1.3359296 17
-0.73311043 -5.2097554 1.204826 16
-0.76683426 -5.4425254 1.0599453 18
-0.80215186 -5.6860051 0.90241349 23
-0.80218714 -5.6790886 0.69953001 27
-1.0739594 -7.5935316 0.66761297 22
-1.0750992 -7.5920353 0.3998467 17
-1.0756254 -7.5862136 0.1330746 19
-0.26768282 -1.8738042 -0.49693277 2
-0.30755562 -2.1502366 -0.49264312 3
-1.0888236 -7.6029062 -1.4841152 22
-1.0891007 -7.5953946 -1.2092395 21
-1.0929416 -7.6127253 -0.9396137 20
-1.0911857 -7.5910749 -0.66761404 20
-1.0916209 -7.584703 -0.39825535 25
-1.0949776 -7.5986209 -0.13200422 30
-0.71793383 -4.975965 1.3359296 18
-0.75220025 -5.2070332 1.204826 16
-0.78677702 -5.4396782 1.0599453 17
-0.82298672 -5.6830263 0.90241349 23
-0.82370877 -5.6810222 0.70013934 27
-1.1024995 -7.5944738 0.6680488 22
-1.1029183 -7.5880442 0.3998467 17
-1.1041429 -7.5871668 0.13316184 19
-0.27352229 -1.8680797 -0.4956387 3
-0.31505945 -2.1491499 -0.49264312 2
-1.1160688 -7.6039152 -1.4850684 15
-1.1163249 -7.5964327 -1.2100215 22
-1.1202308 -7.6137733 -0.94022304 21
-1.1176769 -7.5872197 -0.66761404 20
-1.1188183 -7.5857863 -0.39851615 26
-1.1222255 -7.5996981 -0.13209061 29
-0.73529881 -4.9734287 1.3359296 17
-0.77037156 -5.2043757 1.204826 16
-0.80647975 -5.4417543 1.0608987 18
-0.84281909 -5.680119 0.90241349 23
-0.84353423 -5.6781125 0.70013934 27
-1.129735 -7.5955057 0.66848451 23
-1.1301342 -7.5890865 0.40010837 18
-1.1306204 -7.5832663 0.13316184 20
-0.28004146 -1.8671135 -0.4956387 3
-0.3232829 -2.1528547 -0.49376786 2
-1.1426046 -7.5999732 -1.4850684 16
-1.1428345 -7.5924897 -1.2100215 21
-1.146801 -7.6098166 -0.94022304 22
-1.1448975 -7.5881972 -0.66804981 20
-1.1460367 -7.586772 -0.39877698 25
-1.1487465 -7.5957341 -0.13209061 29
-0.75337791 -4.9756069 1.3372228 17
-0.78853351 -5.2016554 1.204826 16
-0.82547015 -5.4389062 1.0608987 18
-0.86338317 -5.6820245 0.90319473 22
-0.86334944 -5.6751332 0.70013934 28
-1.1569915 -7.5964403 0.66892034 23
-1.1566181 -7.5850954 0.40010837 17
-1.1578386 -7.5842156 0.13324912 20
-0.2865572 -1.8661246 -0.4956387 3
-0.33079582 -2.1517131 -0.49376786 2
-1.169873 -7.6007891 -1.4860215 15
-1.1700824 -7.5933352 -1.2108037 22
-1.1733571 -7.6057673 -0.94022304 21
-1.1713783 -7.5841551 -0.66804981 19
-1.1725125 -7.5827255 -0.39877698 25
-1.1760184 -7.5966182 -0.132177 29
-0.77074146 -4.9729471 1.3372228 18
-0.80668586 -5.1988707 1.204826 16
-0.84445041 -5.4359913 1.0608987 17
-0.88321191 -5.6789761 0.90319473 22
-0.88391757 -5.6769886 0.70074868 27
-1.183501 -7.5923557 0.66892034 23
-1.1838579 -7.5859451 0.40037003 17
-1.1843054 -7.5801282 0.13324912 19
-0.2938191 -1.8698841 -0.49693277 2
-0.3390618 -2.1553581 -0.49489263 2
-1.1963975 -7.5966592 -1.4860215 15
-1.1973501 -7.5940828 -1.2115859 23
-1.200673 -7.6065273 -0.94083238 20
-1.1986222 -7.58494 -0.66848558 21
-1.1997541 -7.583518 -0.39903775 25
-1.2025284 -7.5924673 -0.132177 29
-0.78809559 -4.9702263 1.3372228 19
-0.82482839 -5.1960235 1.204826 16
-0.86419082 -5.4378576 1.0618517 17
-0.9030298 -5.6758585 0.90319473 23
-0.90372854 -5.6738687 0.70074868 28
-1.2107804 -7.5930967 0.66935611 24
-1.2103306 -7.5817666 0.40037003 17
-1.2115467 -7.5808845 0.13333638 21
-0.30034444 -1.868847 -0.49693277 2
-0.34735715 -2.1589713 -0.49601737 2
-1.2236881 -7.5972829 -1.4869747 15
-1.2238512 -7.5898571 -1.2115859 22
-1.2272174 -7.6022902 -0.94083238 20
-1.2250913 -7.5807099 -0.66848558 20
-1.2262182 -7.5792832 -0.39903775 25
-1.2298229 -7.5931578 -0.13226339 29
-0.80544007 -4.9674454 1.3372228 17
-0.84296089 -5.1931124 1.204826 16
-0.88316721 -5.4348083 1.0618517 18
-0.92362976 -5.6775465 0.90397602 22
-0.92432624 -5.6755772 0.70135802 30
-1.237278 -7.5888243 0.66935611 23
-1.2375929 -7.5824237 0.40063173 17
-1.2380016 -7.5766091 0.13333638 20
-0.30764908 -1.8725531 -0.49822688 3
-0.35489127 -2.1577456 -0.49601737 2
-1.2502002 -7.5929646 -1.4869747 16
-1.2511405 -7.5904117 -1.2123681 21
-1.2545547 -7.6028566 -0.94144171 21
-1.2523574 -7.5813017 -0.66892135 19
-1.2534822 -7.5798836 -0.39929858 25
-1.2571369 -7.593751 -0.13234979 28
-0.82277477 -4.9646034 1.3372228 18
-0.86188054 -5.1949449 1.20595 16
-0.902937 -5.4365339 1.0628049 17
-0.94344246 -5.6742878 0.90397602 22
-0.94413209 -5.6723166 0.70135802 29
-1.2645791 -7.5893726 0.66979188 22
-1.264053 -7.5780573 0.40063173 17
-1.2652646 -7.5771723 0.13342364 19
-0.31418362 -1.8714678 -0.49822688 3
-0.36242104 -2.1564937 -0.49601737 2
-1.2775114 -7.5933952 -1.487928 15
-1.2776283 -7.5859981 -1.2123681 22
-1.2810861 -7.5984306 -0.94144171 20
-1.2788134 -7.5768838 -0.66892135 20
-1.2799332 -7.5754623 -0.39929858 25
-1.2836366 -7.5893168 -0.13234979 29
-0.84090573 -4.9664626 1.338516 17
-0.880009 -5.191905 1.20595 16
-0.9219085 -5.4333487 1.0628049 18
-0.9640708 -5.6758294 0.90475738 23
-0.96475828 -5.6738787 0.70196736 29
-1.2910632 -7.5849123 0.66979188 22
-1.2913363 -7.5785208 0.40089342 17
-1.2917062 -7.57271 0.13342364 19
-0.32153058 -1.8751197 -0.49952096 3
-0.36994642 -2.1552155 -0.49601737 2
-1.3040094 -7.5888896 -1.487928 16
-1.3049378 -7.586359 -1.2131503 21
-1.308444 -7.5988035 -0.94205111 21
-1.3060999 -7.5772824 -0.66935712 19
-1.3072178 -7.5758686 -0.39955938 25
-1.3109714 -7.589716 -0.13243617 30
-0.85823679 -4.9634972 1.338516 18
-0.89812678 -5.1888013 1.20595 16
-0.94086879 -5.4300981 1.0628049 17
-0.98387724 -5.6724296 0.90475738 22
-0.98455793 -5.6704764 0.70196736 28
-1.3183845 -7.5852666 0.67022771 21
-1.3177825 -7.573967 0.40089342 17
-1.3189899 -7.5730796 0.1335109 20
-0.32807401 -1.8739859 -0.49952096 3
-0.37746724 -2.1539109 -0.49601737 2
-1.3313398 -7.5891266 -1.4888812 15
-1.3314111 -7.5817571 -1.2131503 21
-1.3349607 -7.5941901 -0.94205111 22
-1.3334048 -7.5775824 -0.66979295 20
-1.3336545 -7.5712595 -0.39955938 25
-1.3383243 -7.5900168 -0.13252255 28
-0.87555742 -4.9604712 1.338516 18
-0.91708136 -5.190433 1.2070739 16
-0.96067256 -5.4316139 1.0637581 17
-1.0045327 -5.6738238 0.90553868 21
-1.0043457 -5.6670051 0.70196736 29
-1.344854 -7.5806189 0.67022771 22
-1.3450856 -7.5742378 0.40115508 16
-1.3454168 -7.5684295 0.1335109 18
-0.33461344 -1.8728293 -0.49952096 2
-0.38584125 -2.1573763 -0.49714214 2
-1.3578227 -7.5844331 -1.4888812 16
-1.3587395 -7.5819254 -1.2139324 21
-1.3623375 -7.594368 -0.94266039 22
-1.3598474 -7.5728817 -0.66979295 21
-1.3609583 -7.5714726 -0.39982021 25
-1.3648103 -7.5852985 -0.13252255 29
-0.89286739 -4.9573846 1.338516 18
-0.93519384 -5.1872001 1.2070739 15
-0.97962654 -5.4282279 1.0637581 17
-1.0243319 -5.6702824 0.90553868 23
-1.0250041 -5.6683483 0.70257676 28
-1.3721942 -7.5807786 0.67066342 20
-1.3715163 -7.5694962 0.40115508 17
-1.3727194 -7.5686059 0.13359816 18
-0.34114879 -1.8716499 -0.49952096 3
-0.39424396 -2.1608088 -0.49826688 2
-1.3851708 -7.584475 -1.4898344 15
-1.385197 -7.5771356 -1.2139324 22
-1.3897318 -7.5944481 -0.94326979 21
-1.3871709 -7.5729885 -0.67022872 20
-1.3882799 -7.5715866 -0.40008101 24
-1.3921821 -7.5854058 -0.13260895 28
-0.91103911 -4.9589882 1.3398093 18
-0.95417595 -5.1886954 1.2081978 16
-0.99856865 -5.4247751 1.0637581 17
-1.0441186 -5.6666727 0.90553868 21
-1.0447841 -5.6647358 0.70257676 28
-1.3986477 -7.575943 0.67066342 21
-1.3988377 -7.569572 0.40141675 16
-1.3991306 -7.5637679 0.13359816 18
-0.34768 -1.8704476 -0.49952096 3
-0.40267539 -2.1642094 -0.49939165 2
-1.4116372 -7.5795941 -1.4898344 15
-1.4125428 -7.5771093 -1.2147146 21
-1.4171432 -7.5944295 -0.94387913 19
-1.4135971 -7.5681005 -0.67022872 20
-1.4147012 -7.5666943 -0.40008101 25
-1.4195714 -7.5854139 -0.13269535 28
-0.92834365 -4.9557776 1.3398093 18
-0.97228199 -5.1853328 1.2081978 16
-1.0174985 -5.4212565 1.0637581 17
-1.0648044 -5.6678462 0.90631998 21
-1.0654685 -5.6659317 0.70318609 30
-1.4260056 -7.5759096 0.67109919 22
-1.425252 -7.5646429 0.40141675 17
-1.426451 -7.5637512 0.13368542 18
-0.35420698 -1.8692226 -0.49952096 2
-0.41113526 -2.1675768 -0.50051636 2
-1.4390018 -7.579442 -1.4907875 15
-1.4399053 -7.5769839 -1.2154968 20
-1.4445715 -7.5943117 -0.94448847 21
-1.4409376 -7.5680127 -0.67066443 20
-1.4420401 -7.5666156 -0.40034181 25
-1.4460407 -7.5804129 -0.13269535 28
-0.94563693 -4.952507 1.3398093 17
-0.99037629 -5.1819077 1.2081978 16
-1.0373384 -5.4224925 1.0647113 17
-1.0845823 -5.6640949 0.90631998 22
-1.0852399 -5.662178 0.70318609 28
-1.4533802 -7.5757775 0.67153502 21
-1.4525905 -7.5645256 0.40167844 17
-1.4537883 -7.5636353 0.13377269 21
-0.35981387 -1.8632329 -0.49822688 3
-0.41647345 -2.1566346 -0.49826688 2
-1.4641281 -7.5746284 -1.4907875 15
-1.4659615 -7.5770159 -1.2162789 22
-1.4697472 -7.5894799 -0.94448847 20
-1.466974 -7.5680828 -0.67110026 22
-1.4680752 -7.5666938 -0.40060264 25
-1.4721235 -7.5804834 -0.13278173 28
-0.96297646 -4.9540854 1.3411026 17
-1.0075548 -5.1785946 1.2081978 16
-1.0553143 -5.419023 1.0647113 17
-1.1043041 -5.6653147 0.90710127 21
-1.1049607 -5.6634192 0.70379543 28
-1.4784944 -7.5709167 0.67153502 23
-1.4786253 -7.5645676 0.40194014 17
-1.479822 -7.5636783 0.13385995 21
-0.36599061 -1.8620294 -0.49822688 3
-0.4230586 -2.1503878 -0.49714214 2
-1.491508 -7.5742874 -1.4917407 14
-1.4933562 -7.5766973 -1.2170612 22
-1.497191 -7.5891719 -0.9450978 20
-1.4933826 -7.5629163 -0.67110026 19
-1.4954469 -7.5664215 -0.40086344 23
-1.4995455 -7.5802026 -0.13286813 29
-0.98026359 -4.9506941 1.3411026 18
-1.0265725 -5.1798258 1.2093217 15
-1.0751787 -5.4201198 1.0656645 18
-1.124073 -5.6614256 0.90710127 23
-1.124723 -5.6595278 0.70379543 28
-1.5058845 -7.5705948 0.67197078 23
-1.5059965 -7.5642571 0.4022018 17
-1.5071923 -7.5633698 0.13394721 20
-0.37248808 -1.8607407 -0.49822688 3
-0.42923087 -2.1441956 -0.49601737 2
-1.5175813 -7.5741124 -1.4926939 15
-1.5194443 -7.5765462 -1.2178433 19
-1.523326 -7.5890312 -0.94570714 20
-1.519435 -7.5628052 -0.67153603 21
-1.5205299 -7.5614204 -0.40086344 24
-1.5246741 -7.5751886 -0.13286813 29
-0.99667531 -4.9474163 1.3411026 18
-1.0437437 -5.176393 1.2093217 15
-1.0931466 -5.4165244 1.0656645 17
-1.1438186 -5.6625075 0.90788263 21
-1.1444678 -5.6606307 0.70440477 28
-1.5319691 -7.5704408 0.67240655 22
-1.5320635 -7.5641155 0.4024635 17
-1.5322649 -7.5583305 0.13394721 20
-0.37865645 -1.8594952 -0.49822688 2
-0.43671289 -2.1426842 -0.49601737 2
-1.5449917 -7.5735784 -1.4936471 15
-1.5468701 -7.5760345 -1.2186255 21
-1.5498074 -7.5836673 -0.94570714 20
-1.5468231 -7.562336 -0.6719718 19
-1.5479164 -7.5609589 -0.40112427 23
-1.5521104 -7.574717 -0.13295451 29
-1.0149094 -4.9486384 1.3423959 18
-1.062786 -5.1774907 1.2104456 16
-1.113035 -5.4174843 1.0666177 17
-1.1635776 -5.6584802 0.90788263 21
-1.1642202 -5.6566014 0.70440477 28
-1.5583856 -7.5650473 0.67240655 22
-1.559466 -7.5636115 0.40272516 17
-1.5596496 -7.5578318 0.13403447 19
-0.38546932 -1.8580948 -0.49822688 3
-0.4445633 -2.1410692 -0.49601737 2
-1.5737385 -7.5726705 -1.4946003 15
-1.5756329 -7.5751491 -1.2194076 21
-1.578604 -7.5827947 -0.94631654 18
-1.575546 -7.5614915 -0.67240757 19
-1.5766376 -7.5601225 -0.40138504 24
-1.5808843 -7.5738716 -0.1330409 29
-1.0330402 -4.9448853 1.3423959 17
-1.0817553 -5.1735606 1.2104456 16
-1.1328835 -5.4133682 1.0666177 17
-1.1853217 -5.6590118 0.90866393 20
-1.1859632 -5.6571541 0.70501411 28
-1.5871253 -7.5641594 0.67284232 22
-1.5882038 -7.5627317 0.40298685 17
