# .PCD v0.7 - Point Cloud Data file format
VERSION 0.7
FIELDS x y z intensity
SIZE 4 4 4 4
TYPE F F F F
COUNT 1 1 1 1
WIDTH 1375
HEIGHT 1
VIEWPOINT 0 0 0 1 0 0 0
POINTS 1375
DATA ascii
-2.8814046 -0.71681273 0.15360603 7
-2.9141088 -0.72440863 0.051746383 11
nan nan nan 0
-2.0990548 -0.51946372 -0.49039361 4
-2.5243442 -0.62424463 -0.49756464 6
-2.9328542 -0.72472191 -0.47243246 8
-2.9327693 -0.72415781 -0.36621779 6
nan nan nan 0
-2.9168615 -0.71914971 -0.15492055 11
nan nan nan 0
-2.944838 -0.72495693 0.8018164 10
nan nan nan 0
nan nan nan 0
-2.9771073 -0.7312479 0.47894323 12
nan nan nan 0
nan nan nan 0
nan nan nan 0
-2.9797447 -0.72969031 0.05288079 14
nan nan nan 0
-2.0961218 -0.51097959 -0.48926884 5
-2.5265076 -0.61542922 -0.49756464 6
-2.9593577 -0.72031951 -0.4763433 9
-2.9835007 -0.72564453 -0.37231123 9
-3.0041385 -0.73010868 -0.26713276 25
nan nan nan 0
-2.9909918 -0.72580802 -0.052525241 28
-3.0036767 -0.72833103 0.81733537 17
-2.9823685 -0.72261316 0.69906884 15
-2.9901013 -0.72393423 0.59002358 23
nan nan nan 0
-2.9603925 -0.71564758 0.3692641 18
-3.0099969 -0.72708303 0.26756814 27
-2.9882674 -0.72128212 0.15910131 26
-2.9968534 -0.72280097 0.053142574 13
nan nan nan 0
-2.0978928 -0.50365961 -0.48926884 4
-2.5286405 -0.6066063 -0.49756464 6
-2.9858661 -0.71574098 -0.4802542 9
-3.0149729 -0.72216177 -0.37596735 5
nan nan nan 0
-2.9946547 -0.7161898 -0.15883268 20
nan nan nan 0
-3.0249918 -0.72232884 0.82250839 7
nan nan nan 0
nan nan nan 0
nan nan nan 0
nan nan nan 0
nan nan nan 0
nan nan nan 0
nan nan nan 0
-1.8325839 -0.43354234 -0.49434459 2
-2.099638 -0.49633357 -0.48926884 5
-2.5307426 -0.59777606 -0.49756464 6
-3.0123782 -0.71098608 -0.48416507 6
-3.157552 -0.74466842 -0.39363843 9
nan nan nan 0
nan nan nan 0
-3.8135362 -0.89726633 -0.067038789 24
nan nan nan 0
nan nan nan 0
nan nan nan 0
-3.8404427 -0.90076798 0.61801648 16
nan nan nan 0
nan nan nan 0
nan nan nan 0
nan nan nan 0
-1.8293823 -0.42604733 -0.49305049 2
-2.1013579 -0.48900142 -0.48926884 5
-2.5328138 -0.58893847 -0.49756464 6
-3.0388932 -0.70605469 -0.48807591 4
nan nan nan 0
-3.8364825 -0.88995475 -0.34121525 15
-3.83623 -0.88919067 -0.20369184 23
-3.8263855 -0.88620514 -0.067211576 15
-3.8440118 -0.88958055 1.046241 16
nan nan nan 0
-3.8248577 -0.88374138 0.75492513 14
-3.8435638 -0.88735688 0.61801648 16
nan nan nan 0
-3.8377216 -0.88459718 0.34121475 15
-3.842299 -0.88494605 0.20463358 16
-3.8324797 -0.88198018 0.067977123 66
-1.8355659 -0.42073804 -0.49434459 2
-2.1078012 -0.48275104 -0.49039361 5
-2.5348542 -0.58009368 -0.49756464 6
-3.0750387 -0.70314848 -0.49355114 6
-3.8012972 -0.86851901 -0.47407228 5
-3.8444216 -0.87766612 -0.34165102 16
-3.8393106 -0.87579435 -0.20369184 15
-3.8197072 -0.8706212 -0.067038789 15
-3.8470938 -0.87615705 1.046241 16
-3.8425241 -0.87441093 0.90024787 16
-3.827919 -0.87038475 0.75492513 14
-3.8370059 -0.8717466 0.61645383 16
-3.8315437 -0.86980236 0.4777278 14
-3.8407862 -0.87119567 0.34121475 15
-3.8404951 -0.87042493 0.2043719 15
-3.835535 -0.86859697 0.067977123 66
-1.8323121 -0.41326553 -0.49305049 3
-2.1094735 -0.47539049 -0.49039361 5
-2.5368636 -0.57124186 -0.49756464 6
-3.1015642 -0.69783038 -0.49746197 4
-3.8091478 -0.85633326 -0.47468162 5
-3.8426023 -0.86314958 -0.34121525 16
-3.8374724 -0.86129379 -0.20343103 15
-3.8227229 -0.85728258 -0.067038789 15
-3.8454156 -0.86166674 1.0449479 15
-3.8407986 -0.85992825 0.89912397 16
-3.8213542 -0.85487443 0.75301874 14
-3.8303862 -0.85619301 0.61489123 17
-3.8297131 -0.85534078 0.47711846 13
-3.8292193 -0.85452884 0.33990738 14
-3.8435099 -0.85701382 0.2043719 16
-3.8385437 -0.85520315 0.067977123 66
-1.8337435 -0.40686706 -0.49305049 3
-2.11112 -0.46802416 -0.49039361 5
-2.5340502 -0.56132162 -0.49661148 6
-3.0943377 -0.68486524 -0.49589765 3
-3.8411875 -0.8494612 -0.47833771 5
-3.8407276 -0.84865642 -0.34077948 16
-3.8307037 -0.84574032 -0.2029094 15
-3.8208103 -0.84285671 -0.066952407 14
-3.8436832 -0.8471989 1.0436546 16
-3.8437767 -0.84651607 0.89912397 16
-3.8291087 -0.84258503 0.75397193 14
-3.8285282 -0.84175676 0.61410993 17
-3.8326755 -0.84196734 0.47711846 14
-3.837044 -0.84222507 0.34034318 15
-3.8416009 -0.84252256 0.20411022 15
-3.8317387 -0.83965874 0.067802593 67
-1.8351525 -0.40046361 -0.49305049 3
-2.1175005 -0.46168995 -0.49151835 4
-2.5359943 -0.55247271 -0.49661148 6
-3.0918844 -0.67300951 -0.49511549 3
-3.8295813 -0.83288372 -0.47650966 5
-3.8387995 -0.83418691 -0.34034371 15
-3.8336327 -0.83236355 -0.2029094 15
-3.8188434 -0.82845455 -0.06686601 15
-3.8418965 -0.8327536 1.0423613 16
-3.8419466 -0.83206242 0.89800006 16
-3.827229 -0.82817572 0.75301874 16
-3.826616 -0.82734394 0.61332864 17
-3.8210385 -0.82543999 0.47529042 13
-3.8350916 -0.82777524 0.33990738 16
-3.8396375 -0.82805514 0.20384854 15
-3.8297594 -0.82522529 0.067715332 66
-1.8365391 -0.39405531 -0.49305049 2
-2.1190991 -0.45429567 -0.49151835 4
-2.5331075 -0.54258895 -0.49565825 6
-3.0893855 -0.66117918 -0.4943333 3
-3.8130529 -0.81535995 -0.47407228 6
-3.8368168 -0.81974125 -0.33990791 15
-3.8316319 -0.81793422 -0.20264859 15
-3.816823 -0.81407648 -0.066779621 15
-3.8400567 -0.81833124 1.0410681 18
-3.8400624 -0.81763178 0.89687616 17
-3.8252959 -0.81378984 0.75206554 16
-3.8246498 -0.81295472 0.61254728 18
-3.8287511 -0.81312805 0.47589979 15
-3.8330855 -0.81334937 0.33947161 15
-3.83762 -0.81361163 0.20358686 15
-3.8277259 -0.81081593 0.067628071 65
-1.8379035 -0.3876422 -0.49305049 2
-2.120672 -0.44689587 -0.49151835 4
-2.5349863 -0.5337435 -0.49565825 5
-3.0916746 -0.65039116 -0.4943333 3
-3.8401589 -0.80714887 -0.47711903 6
-3.8347805 -0.80531961 -0.33947214 15
-3.8295767 -0.80352896 -0.20238778 15
-3.8147483 -0.79972255 -0.066693231 14
-3.8381624 -0.80393177 1.0397748 17
-3.8381243 -0.80322456 0.89575225 17
-3.8233087 -0.79942751 0.75111234 15
-3.8226304 -0.79858935 0.61176598 13
-3.8267081 -0.7987442 0.47529042 15
-3.8359013 -0.79996449 0.33947161 15
-3.8355486 -0.79919243 0.20332518 14
-3.8256385 -0.79643077 0.06754081 63
-1.8392454 -0.38122433 -0.49305049 3
-2.1174488 -0.4385027 -0.49039361 4
-2.5320275 -0.52389699 -0.49470508 6
-3.093926 -0.63959527 -0.4943333 4
-3.8040721 -0.78570867 -0.47224423 5
-3.83269 -0.79092211 -0.33903635 15
-3.8274682 -0.78914803 -0.20212698 15
-3.8175168 -0.78640175 -0.066693231 15
-3.8362145 -0.78955549 1.0384815 18
-3.8409047 -0.78982204 0.89575225 17
-3.8260758 -0.78607678 0.75111234 16
-3.8205566 -0.78424793 0.61098468 13
-3.8246117 -0.78438461 0.47468108 15
-3.8337905 -0.78556991 0.33903584 15
-3.8334231 -0.78479749 0.2030635 15
-3.8283949 -0.78307199 0.06754081 66
-1.8452975 -0.37576556 -0.49434459 3
-2.1189666 -0.43110877 -0.49039361 4
-2.5338409 -0.51505536 -0.49470508 5
-3.0961399 -0.62879157 -0.4943333 4
-3.6657465 -0.74380612 -0.45457318 4
-3.8354273 -0.77753866 -0.33903635 15
-3.8253055 -0.77479166 -0.20186616 14
-3.8153386 -0.77207977 -0.066606842 15
-3.8342128 -0.77520263 1.0371883 18
-3.8388627 -0.77544534 0.89462835 16
-3.8239856 -0.77174556 0.7501592 15
-3.8184302 -0.76993084 0.61020339 13
-3.8224611 -0.77004933 0.47407171 15
-3.8316264 -0.77119988 0.33860007 16
-3.8312442 -0.77042723 0.20280182 16
-3.8262041 -0.7687189 0.067453548 67
-1.8466624 -0.36899966 -0.49434459 3
-2.1205323 -0.42333949 -0.49039361 4
-2.5357115 -0.5057649 -0.49470508 6
-3.0935805 -0.61647433 -0.49355114 4
-3.5662367 -0.71001595 -0.44177687 3
-3.8333659 -0.76250416 -0.33860058 15
-3.8232222 -0.75979275 -0.20160536 13
-3.8181429 -0.75809067 -0.066606842 16
-3.8322911 -0.76020455 1.0358951 18
-3.8368998 -0.76042283 0.89350444 16
-3.8219736 -0.75677139 0.74920601 15
-3.8212264 -0.75593042 0.61020339 13
-3.8252578 -0.7560342 0.47407171 14
-3.8344271 -0.75715107 0.33860007 15
-3.8291433 -0.75541335 0.20254014 15
-3.8240907 -0.75372326 0.067366287 66
-1.8479391 -0.36255139 -0.49434459 3
-2.1172161 -0.4149977 -0.48926884 3
-2.5374615 -0.49691057 -0.49470508 6
-3.0957136 -0.60567194 -0.49355114 4
-3.5833051 -0.70041913 -0.44360489 4
-3.8311155 -0.74816388 -0.33816481 15
-3.825851 -0.74644262 -0.20160536 14
-3.8158588 -0.74380177 -0.066520452 16
-3.8349216 -0.74682283 1.0358951 17
-3.8347485 -0.74609452 0.89238054 17
-3.8245919 -0.74342561 0.74920601 15
-3.8189936 -0.74164575 0.60942203 14
-3.8230019 -0.74173164 0.47346237 15
-3.8321567 -0.74281394 0.33816427 15
-3.8317568 -0.74204254 0.20254014 15
-3.8217916 -0.73941398 0.067279026 66
-1.8491935 -0.35609865 -0.49434459 3
-2.1186519 -0.40760469 -0.48926884 3
-2.5440006 -0.48897657 -0.49565825 6
-3.0978088 -0.59486222 -0.49355114 4
-3.6052234 -0.69164693 -0.4460423 4
-3.8337038 -0.73478627 -0.33816481 15
-3.823529 -0.73214424 -0.20134455 15
-3.8135219 -0.72953808 -0.066434063 15
-3.832761 -0.73252517 1.0346018 17
-3.8373296 -0.73270422 0.89238054 16
-3.8223422 -0.72915107 0.74825281 15
-3.8167081 -0.72738588 0.60864073 14
-3.8206925 -0.72745419 0.47285303 15
-3.8298333 -0.72850198 0.3377285 16
-3.8294187 -0.72773051 0.20227847 15
-3.8194366 -0.72514302 0.067191757 65
-1.8504252 -0.34964159 -0.49434459 3
-2.1248491 -0.4011105 -0.49039361 3
-2.545692 -0.48009336 -0.49565825 6
-3.0998666 -0.58404517 -0.49355114 4
-3.6807723 -0.6928283 -0.45518249 3
-3.8313503 -0.72047913 -0.33772904 15
-3.8260615 -0.71879321 -0.20134455 15
-3.816045 -0.71622193 -0.066434063 15
-3.8305473 -0.71825176 1.0333085 17
-3.8350751 -0.71840787 0.89125663 16
-3.8248641 -0.71580416 0.74825281 16
-3.8143694 -0.7131511 0.60785943 13
-3.8232086 -0.71411306 0.47285303 15
-3.8323529 -0.7151289 0.3377285 16
-3.8319354 -0.71435893 0.20227847 15
-3.8219445 -0.71180624 0.067191757 65
-1.8516344 -0.34318027 -0.49434459 3
-2.1214457 -0.39280391 -0.48926884 3
-2.5473523 -0.47120434 -0.49565825 6
-3.1018863 -0.57322109 -0.49355114 4
-3.7466116 -0.69168854 -0.46310404 3
-3.8289437 -0.70619738 -0.33729324 15
-3.8236368 -0.70452857 -0.20108375 15
-3.8136053 -0.70199203 -0.066347674 15
-3.8330314 -0.7048763 1.0333085 17
-3.8327672 -0.70413619 0.89013267 17
-3.8225119 -0.70156246 0.74729961 16
-3.8119779 -0.69894141 0.60707814 14
-3.8207963 -0.6998691 0.4722437 15
-3.829926 -0.70085055 0.33729273 16
-3.8294938 -0.70008069 0.20201679 14
-3.81457 -0.69666445 0.067017235 65
-1.8528211 -0.33671477 -0.49434459 3
-2.1228039 -0.3853963 -0.48926884 3
-2.5489817 -0.46230954 -0.49565825 7
-3.0990088 -0.56150949 -0.49276894 4
-3.8124871 -0.69009739 -0.47102556 3
-3.8313851 -0.69282758 -0.33729324 15
-3.8211591 -0.69028974 -0.20082293 15
-3.8160322 -0.68867576 -0.066347674 15
-3.8307152 -0.69063526 1.0320153 17
-3.8304071 -0.68988949 0.88900882 15
-3.8201067 -0.68734592 0.74634641 16
-3.8143942 -0.68563086 0.60707814 13
-3.8183312 -0.68565059 0.47163433 14
-3.8323491 -0.68747735 0.33729273 15
-3.8368292 -0.68758982 0.20227847 14
-3.8218997 -0.68422592 0.067104504 62
-1.8587399 -0.33109212 -0.4956387 3
-2.1241364 -0.37798399 -0.48926884 3
-2.5554125 -0.45426822 -0.49661148 6
-3.10095 -0.55068851 -0.49276894 4
-3.8881691 -0.68978846 -0.48016575 6
-3.828876 -0.67858016 -0.33685747 14
-3.8284621 -0.67781764 -0.20108375 15
-3.8134902 -0.67448044 -0.066261277 14
-3.8331025 -0.67725933 1.0320153 17
-3.8279939 -0.67566782 0.88788486 16
-3.8224826 -0.67400706 0.74634641 15
-3.8167644 -0.67231196 0.60707814 10
-3.8109262 -0.67059785 0.47041565 14
-3.8347254 -0.67409575 0.33729273 14
-3.8244522 -0.67160171 0.20149343 13
-3.8193407 -0.670017 0.067017235 59
-1.8598844 -0.32460189 -0.4956387 3
-2.1254427 -0.37056705 -0.48926884 3
-2.5569828 -0.4453454 -0.49661148 6
-3.1077189 -0.54070741 -0.49355114 3
-3.9101107 -0.67961127 -0.48260313 18
-3.8263137 -0.66435862 -0.33642167 7
-3.8209653 -0.66274303 -0.20056213 13
-3.8158209 -0.66116476 -0.066261277 10
-3.8354433 -0.66387516 1.0320153 13
-3.8303292 -0.66230148 0.88788486 11
-3.8344855 -0.66233093 0.74825281 9
-3.8239546 -0.65982467 0.60785943 4
-3.8132439 -0.65729111 0.47041565 11
-3.841964 -0.66155124 0.3377285 7
-3.8366151 -0.65994072 0.20201679 7
-3.8265836 -0.65752757 0.067104504 32
-1.861006 -0.31810772 -0.4956387 2
-2.1267233 -0.36314562 -0.48926884 3
-2.56336 -0.43724242 -0.49756464 7
-3.1095874 -0.52985609 -0.49355114 3
-3.9271364 -0.66845655 -0.48443118 8
-3.897356 -0.66268766 -0.34252259 5
-3.8232555 -0.64940137 -0.20056213 5
-3.8575366 -0.65453148 -0.066952407 4
-3.8424993 -0.65129006 1.0333085 4
-3.8518326 -0.65218049 0.89238054 5
-3.8561325 -0.65221626 0.75206554 4
-3.9333649 -0.66457307 0.62504828 25
-3.8399825 -0.64810598 0.47346237 4
-3.8737197 -0.65310478 0.34034318 5
-3.8733621 -0.65234923 0.20384854 4
-3.9373145 -0.66241342 0.069024265 71
-1.8621051 -0.31160966 -0.4956387 3
-2.1231728 -0.35491648 -0.48814404 3
-2.5648706 -0.42829198 -0.49756464 7
-3.111418 -0.51899838 -0.49355114 3
-3.9490268 -0.65800691 -0.48686856 10
-3.9880867 -0.66379988 -0.35036662 13
-3.9338615 -0.65406877 -0.20629992 19
-3.9584317 -0.657444 -0.068680204 30
-3.9829264 -0.66079789 1.0708128 20
-3.9742477 -0.65864533 0.92047811 22
-3.9746032 -0.65799153 0.7749421 24
-4.0477257 -0.66937113 0.64301836 11
-3.9499416 -0.6524924 0.48686799 28
-4.0135827 -0.66228563 0.35254499 16
-3.9938552 -0.65831441 0.21012886 20
-4.0481248 -0.66653407 0.070944034 10
-1.8631815 -0.3051078 -0.4956387 3
-2.1243987 -0.34750307 -0.48814404 3
-2.5711942 -0.42012784 -0.49851784 8
-3.1132107 -0.50813437 -0.49355114 3
-3.9904838 -0.65060681 -0.49174336 4
-4.083787 -0.66508722 -0.35864642 11
-4.0396171 -0.65717 -0.21177691 12
-4.0791306 -0.66286737 -0.070753567 14
-4.0614877 -0.65927279 1.0915048 14
-4.0678983 -0.65958464 0.94183236 13
-4.0640883 -0.65823895 0.79209942 14
-4.1231656 -0.66706896 0.65473807 12
-4.0648761 -0.6569106 0.50088298 15
-4.1092987 -0.66335356 0.36082476 11
-4.0947185 -0.66026664 0.21536244 11
-4.1293964 -0.66511899 0.07234022 9
-1.8642352 -0.29860222 -0.4956387 3
-2.1255989 -0.34008542 -0.48814404 3
-2.5774918 -0.41192469 -0.49947101 8
-3.1100886 -0.49648559 -0.49276894 3
-4.041739 -0.64448828 -0.49783683 5
-4.184463 -0.66649789 -0.36736199 11
-4.1306481 -0.65718704 -0.21647148 11
-4.1752291 -0.66353279 -0.072394989 12
-4.1543965 -0.65947872 1.1160767 14
-4.1423545 -0.65682596 0.95869088 14
-4.1681666 -0.66017306 0.81211638 14
-4.2083936 -0.66579145 0.66802037 10
-4.1553788 -0.6566608 0.51185119 14
-4.2001505 -0.66298461 0.36866879 11
-4.1857781 -0.65996718 0.22007269 11
-4.225522 -0.66547775 0.073998198 9
-1.8652661 -0.29209301 -0.4956387 3
-2.1267731 -0.33266363 -0.48814404 3
-2.5789139 -0.40292507 -0.49947101 9
-3.1118026 -0.48562634 -0.49276894 3
-4.0341568 -0.62884724 -0.49661812 4
-4.2851982 -0.66721368 -0.37607762 10
-4.2266603 -0.65734369 -0.22142684 11
-4.2614999 -0.66200024 -0.073863626 11
-4.2330375 -0.6568222 1.1367687 12
-4.22647 -0.65504771 0.97779727 12
-4.2383533 -0.65613204 0.82546109 12
-4.2985425 -0.66468161 0.6820839 10
-4.2410231 -0.65502959 0.52221012 13
-4.2861252 -0.66122973 0.37607706 10
-4.2719498 -0.65827954 0.22452125 11
-4.2969937 -0.66137087 0.07521987 9
-1.8615003 -0.2848497 -0.49434459 3
-2.1279213 -0.32523778 -0.48814404 3
-2.5803046 -0.39392054 -0.49947101 11
-3.108597 -0.47401676 -0.49198681 3
-4.026515 -0.61326712 -0.49539945 3
-4.356441 -0.66273922 -0.38217852 9
-4.3079133 -0.65458751 -0.22559978 11
-4.3478093 -0.65987337 -0.075332254 12
-4.3117089 -0.65362453 1.1574607 12
-4.3058047 -0.65196073 0.99577975 12
-4.3279738 -0.65454477 0.84261847 14
-4.3789673 -0.66147506 0.69458485 10
-4.3168921 -0.65132755 0.53135031 14
-4.3672132 -0.65814042 0.38304949 11
-4.3532219 -0.6552549 0.22870812 11
-4.3833189 -0.65900284 0.076703325 10
-1.8624833 -0.27835011 -0.49434459 3
-2.1290436 -0.31780797 -0.48814404 3
-2.5816638 -0.38491115 -0.49947101 9
-3.1053481 -0.46243545 -0.49120462 3
-4.0335398 -0.59993827 -0.49600875 3
-4.4326315 -0.65850747 -0.38871521 10
-4.3891978 -0.651272 -0.22977272 12
-4.434155 -0.65715188 -0.076800883 13
-4.3856311 -0.64917833 1.1768595 13
-4.3899884 -0.64904028 1.0148861 12
-4.378788 -0.64660352 0.85215032 26
-4.4740782 -0.65987676 0.7094298 11
-4.3976951 -0.64782691 0.54109991 14
-4.453258 -0.65521789 0.39045775 11
-4.4345241 -0.65167075 0.23289499 11
-4.4597859 -0.65458798 0.07801225 10
-1.8634436 -0.27184713 -0.49434459 3
-2.1349609 -0.31107673 -0.48926884 3
-2.5829918 -0.37589714 -0.49947101 9
-3.1069434 -0.45159295 -0.49120462 3
-4.0356092 -0.58585501 -0.49600875 3
-4.5088444 -0.65375161 -0.3952519 9
-4.470511 -0.64739692 -0.23394568 12
-4.520534 -0.65383554 -0.078269519 14
-4.4739146 -0.64629543 1.2001381 14
-4.4742036 -0.64554 1.0339925 13
-4.4490328 -0.64111573 0.86549497 6
-4.5545654 -0.6555118 0.72193074 14
-4.4785256 -0.64377004 0.55084944 14
-4.5393357 -0.65170264 0.39786598 11
-4.5207958 -0.64823562 0.23734355 11
-4.5461726 -0.65106463 0.079495706 10
-1.8691626 -0.26602134 -0.4956387 3
-2.1360338 -0.30362242 -0.48926884 3
-2.5842881 -0.36687854 -0.49947101 6
-3.1133902 -0.4414382 -0.49198681 3
-4.0327163 -0.5710687 -0.49539945 3
-4.5900092 -0.64916921 -0.40222436 10
-4.5518498 -0.64296192 -0.23811863 13
-4.6069431 -0.64992398 -0.079738148 15
-4.5526652 -0.64145637 1.2208301 15
-4.5005522 -0.6333127 1.0396121 14
-4.5435934 -0.63856071 0.88360554 8
-4.5568261 -0.6396094 0.72193074 10
-4.5593801 -0.63915646 0.56059897 15
-4.6254416 -0.64759427 0.40527421 12
-4.6070971 -0.64420605 0.24179211 12
-4.6276369 -0.6462546 0.0808919 10
-1.8700798 -0.25949514 -0.4956387 3
-2.1370807 -0.29616442 -0.48926884 3
-2.5806913 -0.35718256 -0.49851784 7
-3.114912 -0.43056774 -0.49198681 3
-4.0346851 -0.55698842 -0.49539945 3
-4.6761303 -0.64470828 -0.40963262 9
-4.6332107 -0.63796681 -0.24229157 13
-4.6884255 -0.64473581 -0.081120394 14
-4.5596619 -0.62621778 1.2221234 13
-4.5461774 -0.62355751 1.0497272 12
-4.5409322 -0.62203068 0.8826524 6
-4.5639243 -0.62436873 0.7227121 8
-4.6402559 -0.63398623 0.5703485 16
-4.7115726 -0.64289242 0.41268241 12
-4.6934237 -0.63958162 0.24624066 12
-4.7140756 -0.64155781 0.082375355 10
-1.8709742 -0.25296575 -0.4956387 3
-2.1381013 -0.28870282 -0.48926884 3
-2.5819225 -0.34817207 -0.49851784 7
-3.1163962 -0.41969207 -0.49198681 3
-4.0316868 -0.5422399 -0.49479008 3
-4.7672119 -0.6403169 -0.41747665 9
-4.7096419 -0.63174754 -0.24620369 13
-4.7748828 -0.63965052 -0.082589023 13
-4.56182 -0.61029786 1.2221234 10
-4.5531549 -0.60832965 1.0508511 8
-4.5479407 -0.60682517 0.88360554 3
-4.6590862 -0.62082756 0.73755693 4
-4.7309895 -0.62956834 0.58131677 11
-4.7977266 -0.63759714 0.42009068 12
-4.7797732 -0.63436228 0.25068924 12
-4.8005362 -0.63626522 0.08385881 9
-1.8718457 -0.2464333 -0.4956387 3
-2.139096 -0.28123769 -0.48926884 3
-2.583122 -0.33915734 -0.49851784 7
-3.1178422 -0.40881124 -0.49198681 3
-4.033555 -0.52816337 -0.49479008 3
-4.8583188 -0.63529748 -0.42532068 8
-4.8058906 -0.62758857 -0.25115907 12
-4.8663173 -0.63461578 -0.084144048 15
-4.6645002 -0.60746884 1.2492816 4
-4.6905289 -0.61002618 1.0823205 4
-4.7885356 -0.62192255 0.9303118 13
-4.8522301 -0.62933385 0.76802808 16
-4.8168259 -0.62388712 0.59167564 9
-4.8839002 -0.63170809 0.42749891 11
-4.8710947 -0.62918741 0.25539947 11
-4.8870163 -0.63037682 0.085342258 9
-1.8726946 -0.23989783 -0.4956387 3
-2.140065 -0.27376914 -0.48926884 3
-2.58429 -0.33013853 -0.49851784 7
-3.1192503 -0.39792547 -0.49198681 3
-4.0304508 -0.51345325 -0.49418074 3
-4.9543886 -0.63027817 -0.43360049 9
-4.9021659 -0.62276524 -0.25611442 12
-4.9577742 -0.62895036 -0.085699081 13
-4.8870034 -0.6191057 1.3087713 11
-4.8569694 -0.61443955 1.1205331 12
-4.8831992 -0.61689186 0.94842237 13
-4.9180942 -0.62042803 0.77818513 12
-4.9076023 -0.61823434 0.60264385 10
-4.9750323 -0.62584674 0.43534294 11
-4.967391 -0.62400484 0.26037139 11
-4.9933553 -0.62638122 0.087174766 9
-1.8687279 -0.2327625 -0.49434459 3
-2.1458423 -0.2668986 -0.49039361 3
-2.5902975 -0.3217206 -0.49947101 6
-3.1206203 -0.38703483 -0.49198681 2
-4.0322185 -0.49938121 -0.49418074 3
-5.0504813 -0.62459576 -0.44188029 9
-4.998466 -0.61727732 -0.26106983 11
-5.0492492 -0.62265402 -0.0872541 13
-4.9850082 -0.61384881 1.3346363 12
-4.9896464 -0.61353588 1.1508787 12
-4.9730139 -0.61060965 0.96557975 9
-5.0280704 -0.61647898 0.79537386 13
-4.9983983 -0.61195546 0.61361212 10
-5.0760698 -0.62056565 0.44405851 11
-5.068666 -0.61876267 0.26560497 10
-5.0997238 -0.6216507 0.089007266 9
-1.869529 -0.22623801 -0.49434459 3
-2.1467609 -0.2594066 -0.49039361 3
-2.5914047 -0.31267682 -0.49947101 6
-3.1219521 -0.37613946 -0.49198681 2
-4.0290098 -0.48471031 -0.49357137 3
-5.1465936 -0.61825007 -0.45016012 8
-5.0997429 -0.61171907 -0.26628599 12
-5.1605949 -0.61810476 -0.089154683 13
-5.0782385 -0.60734153 1.3592081 11
-5.078836 -0.60651392 1.171109 12
-5.0677171 -0.604289 0.98369032 10
-5.1233673 -0.61001801 0.81021881 14
-5.0596399 -0.60153472 0.62092429 3
-5.182076 -0.61517382 0.45320985 11
-5.1650057 -0.61223316 0.27057689 10
-5.2061191 -0.61618513 0.090839773 10
-1.8703073 -0.21971075 -0.49434459 3
-2.1476533 -0.25191143 -0.49039361 3
-2.5924804 -0.30362922 -0.49947101 6
-3.1281512 -0.36581311 -0.49276894 2
-4.0257483 -0.47006795 -0.49296206 2
-5.2526169 -0.61239451 -0.45931149 8
-5.2010412 -0.6054613 -0.27150217 12
-5.2670035 -0.61220837 -0.090968877 14
-5.1858754 -0.60186118 1.3876597 11
-5.1873946 -0.60111988 1.1958348 13
-5.1673102 -0.59787852 1.0027541 10
-5.218678 -0.60289896 0.82506371 10
-5.1208692 -0.59069377 0.62823641 6
-5.2930536 -0.6096192 0.46279699 11
-5.2663202 -0.60560888 0.27581048 10
-5.3125367 -0.60998422 0.092672274 9
-1.871063 -0.21318083 -0.49434459 3
-2.1485195 -0.24441318 -0.49039361 3
-2.5935245 -0.29457796 -0.49947101 6
-3.1294091 -0.3548916 -0.49276894 2
-4.0224333 -0.45545423 -0.49235269 2
-5.3685603 -0.60692519 -0.46933439 11
-5.3073182 -0.59906363 -0.27697918 12
-5.3784003 -0.60613638 -0.092869461 13
-5.2935352 -0.59563661 1.4161112 12
-5.2911344 -0.59443128 1.2194368 12
-5.2766757 -0.59187442 1.0237242 11
-5.3189087 -0.59567159 0.84068996 9
-5.1623559 -0.5772267 0.63311118 5
-5.3991041 -0.60274458 0.47194836 11
-5.372613 -0.59883785 0.28130576 10
-5.4239426 -0.60360062 0.094592042 10
-1.8717958 -0.20664831 -0.49434459 3
-2.1493597 -0.23691195 -0.49039361 3
-2.5945368 -0.28552306 -0.49947101 5
-3.1257198 -0.34342644 -0.49198681 2
-4.0190654 -0.44086939 -0.49174336 2
-5.4399652 -0.59577346 -0.47543532 8
-5.4136128 -0.59193122 -0.28245616 12
-5.4947867 -0.59983647 -0.094856434 14
-5.4012141 -0.58866769 1.4445628 11
-5.3900466 -0.58649868 1.241915 13
-5.3909402 -0.58564389 1.0456475 12
-5.4289703 -0.58881664 0.85787874 9
-5.2284799 -0.56614852 0.6410327 4
-5.5051699 -0.59513682 0.48109969 11
-5.4987783 -0.59347498 0.28784776 10
-5.5403366 -0.59698212 0.096599065 10
-1.8725055 -0.20011325 -0.49434459 3
-2.1501734 -0.22940785 -0.49039361 3
-2.5955179 -0.2764647 -0.49947101 6
-3.1268997 -0.33251354 -0.49198681 2
-4.0255146 -0.42736149 -0.49235269 2
-5.4420118 -0.5767808 -0.47543532 5
-5.5348177 -0.58564019 -0.28871557 11
-5.6111941 -0.5927313 -0.096843414 14
-5.4656773 -0.57639527 1.4613751 6
-5.488966 -0.57788259 1.2643931 9
-5.4856987 -0.57657051 1.0637581 11
-5.5636067 -0.58377731 0.87897414 7
-5.3636894 -0.56185395 0.65748507 4
-5.6261082 -0.58835 0.49155837 11
-5.6249709 -0.58723855 0.29438975 10
-5.6617222 -0.59007645 0.098693348 9
-1.8683887 -0.19307932 -0.49305049 3
-2.1509612 -0.22190094 -0.49039361 4
-2.5915847 -0.26690015 -0.49851784 6
-3.1280413 -0.32159659 -0.49198681 2
-4.031919 -0.41381392 -0.49296206 2
-5.4539018 -0.55879647 -0.47630686 4
-5.6610103 -0.579018 -0.29523578 12
-5.7176704 -0.58380497 -0.098657608 13
-5.5157056 -0.56221062 1.4743075 4
-5.6121254 -0.57104897 1.2924907 9
-5.619523 -0.57081079 1.0894942 10
-5.6982718 -0.57780492 0.90006948 7
-5.5680552 -0.56361926 0.6824683 6
-5.7470655 -0.58072597 0.50201708 11
-5.7412486 -0.57912594 0.30040836 12
-5.7880998 -0.58283138 0.1008749 9
-1.8690512 -0.18655625 -0.49305049 2
-2.1517227 -0.21439134 -0.49039361 4
-2.5827322 -0.25688061 -0.49661148 4
-3.1291447 -0.31067574 -0.49198681 2
-4.0382771 -0.4002268 -0.49357137 2
-5.5004301 -0.54416883 -0.48022887 5
-5.7872224 -0.57152188 -0.30175602 11
-5.8589768 -0.5775755 -0.10107653 13
-5.5993471 -0.55099463 1.4962928 3
-5.730454 -0.56288612 1.3194644 9
-5.7582583 -0.56460255 1.1161835 10
-5.8231311 -0.56993729 0.91960222 7
-5.7675567 -0.56348175 0.70684212 17
-5.8779511 -0.57323146 0.51334733 10
-5.8575373 -0.57020861 0.30642703 11
-5.9294214 -0.57616156 0.10331824 9
-1.8696911 -0.1800309 -0.49305049 2
-2.152458 -0.20687911 -0.49039361 4
-2.5738413 -0.24692616 -0.49470508 3
-3.1351261 -0.30022183 -0.49276894 2
-4.04459 -0.38660038 -0.49418074 2
-5.502296 -0.52496547 -0.48022887 5
-5.9134498 -0.56315154 -0.30827624 11
-5.9953313 -0.56989348 -0.10340906 14
-5.7502933 -0.54558837 1.5363837 4
-5.8633428 -0.555282 1.3498098 9
-5.8970165 -0.55743259 1.1428728 10
-5.9725876 -0.56352443 0.94304156 7
-5.8534832 -0.55125606 0.71720105 12
-6.0088534 -0.56483012 0.52467757 10
-6.0036602 -0.56328487 0.31401575 10
-6.0757427 -0.56897819 0.10584884 9
-1.8654993 -0.17305726 -0.49175641 2
-2.1531668 -0.19936438 -0.49039361 3
-2.5649126 -0.23703691 -0.49279872 3
-3.1361549 -0.28927636 -0.49276894 2
-4.0459146 -0.37247974 -0.49418074 2
-5.5090551 -0.5062114 -0.48066467 5
-6.0396876 -0.55390674 -0.31479648 11
-6.1466374 -0.5626334 -0.10600077 13
-5.9493651 -0.54352903 1.589407 3
-6.0010991 -0.54719931 1.3812792 10
-6.0406814 -0.5497455 1.1705152 12
-6.0778036 -0.55205429 0.95944911 12
-5.9838762 -0.5424698 0.73304409 14
-6.1695309 -0.55821478 0.5386225 11
-6.1547775 -0.55579686 0.32186612 10
-6.2270632 -0.56122887 0.1084667 8
-1.866092 -0.16654441 -0.49175641 3
-2.1538496 -0.19184721 -0.49039361 3
-2.5559464 -0.22721304 -0.49089235 3
-3.1371458 -0.27832738 -0.49276894 2
-4.0471902 -0.3583546 -0.49418074 2
-5.5107884 -0.48697814 -0.48066467 5
-6.1709056 -0.54422605 -0.32157752 10
-6.292984 -0.55388552 -0.10850608 12
-6.1292453 -0.53839588 1.6372573 5
-6.1000414 -0.53475767 1.4037572 16
-6.0963497 -0.53336191 1.1810002 18
-6.1338115 -0.53556067 0.96804345 8
-6.0945015 -0.53105664 0.74644971 22
-6.3153472 -0.54918987 0.55126005 11
-6.3108878 -0.5476923 0.3299782 10
-6.3734217 -0.55199856 0.1109973 8
-1.8666898 -0.15970372 -0.49175641 2
-2.1545384 -0.18395166 -0.49039361 3
-2.5616524 -0.2182602 -0.49184549 2
-3.1381447 -0.26682732 -0.49276894 2
-4.0484767 -0.3435185 -0.49418074 2
-5.5125365 -0.46677682 -0.48066467 5
-6.2723675 -0.53001332 -0.32679367 6
-6.4394374 -0.54299879 -0.1110114 12
-6.3092532 -0.53091216 1.6851077 23
-6.3155785 -0.53033435 1.453209 7
nan nan nan 0
nan nan nan 0
-6.1705899 -0.51490575 0.7555899 6
-6.4662318 -0.53843921 0.56433344 10
-6.4671087 -0.53737575 0.33809027 10
-6.5248666 -0.54102838 0.11361516 8
-1.8720492 -0.15358166 -0.49305049 2
-2.1551673 -0.17642981 -0.49039361 3
-2.5672908 -0.20971663 -0.49279872 2
-3.1390569 -0.2558715 -0.49276894 2
-4.0496511 -0.3293846 -0.49418074 2
-5.5091672 -0.44712871 -0.48022887 4
-6.4483714 -0.52222246 -0.335922 6
-6.6007504 -0.53340328 -0.11377589 12
-6.4940081 -0.5236367 1.7342513 15
-6.5407834 -0.52625942 1.5049087 14
-6.5648036 -0.52703881 1.2715533 12
-6.5953078 -0.52832931 1.0407053 15
nan nan nan 0
-6.6269584 -0.52853668 0.57827836 10
-6.6182671 -0.52668107 0.34594065 10
-6.6861897 -0.53090531 0.11640755 9
-1.8773888 -0.14742413 -0.49434459 2
-2.1557701 -0.16890579 -0.49039361 3
-2.5729005 -0.2011364 -0.49375188 2
-3.139931 -0.24491259 -0.49276894 2
-4.0458283 -0.3148616 -0.49357137 2
-5.5106945 -0.4278954 -0.48022887 4
-6.5895462 -0.51050931 -0.34322464 6
-6.7620721 -0.52268803 -0.11654038 13
-6.6691561 -0.51433498 1.7808083 11
-6.5911579 -0.50716239 1.5161477 16
-6.5959663 -0.50637436 1.2772723 13
-6.5921879 -0.50492698 1.039924 6
-6.5946403 -0.50395709 0.80738437 14
-6.787693 -0.51751846 0.59222329 9
-6.7594709 -0.51418012 0.3532677 9
-6.8475184 -0.51967573 0.11919993 9
-1.8827082 -0.14123121 -0.4956387 3
-2.1563466 -0.16137972 -0.49039361 3
-2.5784817 -0.19251953 -0.49470508 2
-3.1407666 -0.2339507 -0.49276894 2
-4.0469027 -0.30073708 -0.49357137 2
-5.5071874 -0.40828863 -0.47979313 4
-6.7556148 -0.49965826 -0.35183135 6
-6.9333692 -0.51158863 -0.11947764 12
-6.8539505 -0.50452584 1.8299519 11
-6.5977464 -0.48450872 1.5172716 3
-6.6613312 -0.48800915 1.2896638 5
-6.8697352 -0.50207144 1.0836774 4
-6.6112075 -0.48201707 0.80921239 7
-6.958365 -0.50610703 0.60703975 10
-6.9554462 -0.50467443 0.36347321 9
-7.013835 -0.50768042 0.12207957 8
-1.8880069 -0.13500294 -0.49693277 3
-2.1568968 -0.15385167 -0.49039361 3
-2.579138 -0.18351777 -0.49470508 2
-3.1415644 -0.22298597 -0.49276894 2
-4.0479279 -0.28660893 -0.49357137 2
-5.5085793 -0.38906249 -0.47979313 4
-6.9366279 -0.48870665 -0.36122045 5
-7.1196303 -0.50035101 -0.12267408 11
-7.0243011 -0.49241945 1.8752158 12
-6.886148 -0.48152691 1.5835822 5
-6.9616747 -0.48558724 1.3478082 5
-7.1227059 -0.49557021 1.1235243 11
-6.9049487 -0.47920853 0.84516388 6
-7.0694089 -0.48938245 0.61662686 9
-7.1165671 -0.49139896 0.37184697 9
-7.2050862 -0.49624771 0.12539554 7
-1.8836482 -0.12808411 -0.4956387 3
-2.1574206 -0.14632177 -0.49039361 3
-2.5797629 -0.17451377 -0.49470508 2
-3.1423235 -0.21201849 -0.49276894 2
-4.0489035 -0.2724773 -0.49357137 2
-5.5099039 -0.36983159 -0.47979313 3
-7.1176453 -0.47649735 -0.37060961 6
-7.3009067 -0.48748598 -0.12578413 11
-7.2187438 -0.48073441 1.9269458 10
-7.067657 -0.46943375 1.6251665 5
-7.1396399 -0.47296327 1.3821231 5
-7.3116503 -0.4830763 1.153214 11
-7.0798988 -0.46652362 0.86649096 6
-7.1804199 -0.47188869 0.62621403 2
-7.3125548 -0.47929069 0.38205245 9
-7.4063182 -0.48413804 0.12888601 7
-1.8840839 -0.12150815 -0.4956387 3
-2.1627798 -0.13910274 -0.49151835 3
-2.575458 -0.16519348 -0.49375188 2
-3.1430445 -0.20104845 -0.49276894 2
-4.04983 -0.25834233 -0.49357137 2
-5.5111613 -0.35059619 -0.47979313 3
-7.2986593 -0.46303004 -0.37999871 6
-7.5021353 -0.47462401 -0.12923974 11
-7.3987284 -0.46678546 1.9747962 11
-7.2734747 -0.45760873 1.6723706 4
-7.3322959 -0.46002465 1.4192973 5
-7.5252366 -0.4708111 1.1868104 11
-7.2746549 -0.45385906 0.89025551 4
-7.3212214 -0.45548153 0.63841581 3
-7.5185094 -0.46643829 0.39278132 10
-7.6075516 -0.47062948 0.13237649 7
-1.8844966 -0.11493073 -0.4956387 3
-2.1681154 -0.13184813 -0.49264312 3
-2.576019 -0.15620244 -0.49375188 2
-3.1437271 -0.19007595 -0.49276894 2
-4.0556612 -0.24450286 -0.49418074 2
-5.5123515 -0.3313565 -0.47979313 3
-7.5045857 -0.44979843 -0.39069188 5
-7.7283115 -0.46185413 -0.1331273 11
-7.6076288 -0.45330945 2.030406 11
-7.5036106 -0.44579712 1.7251941 7
-7.5494442 -0.44719785 1.4612377 5
-7.7289629 -0.45647815 1.2188441 13
-7.5288568 -0.44334117 0.92133218 12
-7.4669666 -0.43838897 0.65105337 2
-7.7394147 -0.4530291 0.40429524 10
-7.8237495 -0.45659551 0.13612875 7
-1.8800646 -0.10807475 -0.49434459 3
-2.1734259 -0.12455793 -0.49376786 3
-2.581449 -0.14748949 -0.49470508 2
-3.1443713 -0.17910114 -0.49276894 2
-4.0614448 -0.23062584 -0.49479008 2
-5.5134745 -0.31211278 -0.47979313 3
-7.7304468 -0.43626004 -0.40242827 5
-7.9295311 -0.44610679 -0.1365829 11
-7.8406343 -0.43973279 2.0924821 15
-7.8261752 -0.43755168 1.7993718 25
-7.6587739 -0.42685163 1.4822078 3
-7.9326797 -0.44072857 1.2508779 8
-7.77316 -0.43050504 0.95119017 12
-7.7419882 -0.42742327 0.67502123 3
-7.9702868 -0.43863198 0.41633251 9
-8.079874 -0.44324848 0.14057912 7
-1.8804302 -0.10151144 -0.49434459 3
-2.1787126 -0.11723228 -0.49489263 3
-2.586849 -0.13874051 -0.49565825 2
-3.149909 -0.16838777 -0.49355114 2
-4.0622253 -0.21644732 -0.49479008 2
-5.5145302 -0.29286528 -0.47979313 3
-7.9513159 -0.42088622 -0.41390389 5
-8.185648 -0.43185744 -0.1409888 10
-8.0495176 -0.42326668 2.1480918 11
-8.1001148 -0.42450958 1.8623105 14
-7.9003968 -0.41266015 1.528914 4
-8.121582 -0.42279193 1.2805676 15
-8.0125074 -0.41571152 0.98043883 14
-8.1264563 -0.42020139 0.7085762 18
-8.2011499 -0.42262843 0.42836976 8
-8.3260136 -0.42760599 0.14485498 7
-1.8807732 -0.094946891 -0.49434459 3
-2.1742427 -0.10938164 -0.49376786 3
-2.5824156 -0.12946412 -0.49470508 2
-3.1455452 -0.1571451 -0.49276894 2
-4.0679121 -0.20251295 -0.49539945 1
-5.5155191 -0.27361417 -0.47979313 3
-8.2320147 -0.40693396 -0.42850921 10
-8.4417591 -0.41582531 -0.1453947 10
-8.3162689 -0.40818891 2.2192209 10
-8.3448591 -0.40813228 1.9185058 13
-8.2449636 -0.40180412 1.5956372 19
-8.5570917 -0.41551811 1.349323 10
-8.1378326 -0.39373592 0.99567252 20
-8.2522545 -0.3978284 0.71947068 9
-8.4868574 -0.40765357 0.44328555 8
-8.6370525 -0.41335705 0.1502652 9
-1.8810931 -0.088381194 -0.49434459 3
-2.1648781 -0.10133586 -0.49151835 3
-2.5632398 -0.11953444 -0.49089235 2
-3.1510079 -0.14639333 -0.49355114 2
-4.0735512 -0.18854149 -0.49600875 2
-5.5164409 -0.25435975 -0.47979313 3
-8.5176964 -0.39125609 -0.44337532 8
-8.7428007 -0.400067 -0.15057813 17
-8.6023092 -0.39213365 2.2955227 10
-8.6382551 -0.39226148 1.9859401 13
-8.7072248 -0.39387053 1.6852369 20
-8.7854347 -0.39587188 1.3852632 32
-8.6051836 -0.38624486 1.052951 13
-8.7710962 -0.39215797 0.76479161 27
-8.7625799 -0.39024475 0.45767793 18
-8.7932663 -0.39007369 0.15297033 30
-1.8862152 -0.082024232 -0.4956387 3
-2.1603515 -0.09356761 -0.49039361 3
-2.5587378 -0.1103748 -0.48993912 2
-3.1514997 -0.13539337 -0.49355114 2
-4.0841017 -0.17474529 -0.49722749 2
-5.5172949 -0.23510224 -0.47979313 3
-8.7784233 -0.3725301 -0.4569374 27
-8.8140707 -0.37250179 -0.15178758 27
-8.8497305 -0.3724615 2.3614786 13
-8.8926954 -0.37271503 2.0443833 12
-8.8017235 -0.36736324 1.7033474 30
-8.8607779 -0.36827883 1.3969828 12
-8.7849855 -0.3635928 1.0748875 34
-8.8221788 -0.36358976 0.76914942 25
-8.8087883 -0.36149791 0.46003306 23
-8.8844862 -0.36305118 0.15454105 29
-1.8864901 -0.075439617 -0.4956387 3
-2.1557968 -0.085832179 -0.48926884 3
-2.524776 -0.10008159 -0.4832668 2
-3.151953 -0.12439176 -0.49355114 2
-4.0598922 -0.15951388 -0.49418074 2
-5.5180821 -0.21584184 -0.47979313 3
-8.844532 -0.34441116 -0.46032789 17
-9.7145071 -0.37659046 -0.16733781 16
-9.0778112 -0.35032168 2.4222615 15
-9.2347336 -0.35476336 2.1230564 11
nan nan nan 0
-9.7453747 -0.37097344 1.5368375 24
nan nan nan 0
-9.7392426 -0.3673355 0.84933269 15
-9.733079 -0.36540189 0.50844383 13
-9.7349777 -0.36377171 0.1693756 49
-1.8915683 -0.06903021 -0.49693277 3
-2.1512146 -0.078129694 -0.48814404 3
-2.5643511 -0.092686191 -0.49089235 2
-3.1523678 -0.11338863 -0.49355114 2
-4.0802622 -0.14605133 -0.49661812 2
-5.513824 -0.19640152 -0.47935733 2
-8.910552 -0.3158353 -0.46371838 4
-9.7457409 -0.34373555 -0.16785616 20
-9.1175938 -0.3199873 2.4326074 16
-9.6059656 -0.33544838 2.2084732 10
-9.7409935 -0.33846149 1.8854064 14
-9.7416744 -0.33678287 1.5360562 15
-9.7395906 -0.33500892 1.1918821 26
-9.7504215 -0.33367771 0.85020429 17
-9.7542553 -0.33210447 0.50949049 15
-9.7411842 -0.32995731 0.16946286 49
-1.8966248 -0.06258627 -0.49822688 3
-2.1563435 -0.070779905 -0.48926884 3
-2.5695646 -0.083894543 -0.49184549 2
-3.1527445 -0.10238413 -0.49355114 2
nan nan nan 0
-5.5144758 -0.17715348 -0.47935733 2
-8.9914503 -0.28728098 -0.46789137 6
-9.7818575 -0.31082585 -0.16846089 16
-9.1090002 -0.2878539 2.4300208 11
-9.9382143 -0.31232166 2.2848988 9
-10.085529 -0.31518924 1.9521296 13
-10.122877 -0.31458795 1.596217 4
-9.7506218 -0.30131596 1.1931008 16
-9.8062916 -0.30132312 0.85499781 9
-9.7853003 -0.29896864 0.5110606 10
-10.236973 -0.3109802 0.17810179 10
-1.9016591 -0.056107864 -0.49952096 3
-2.1565773 -0.063252434 -0.48926884 3
-2.5845606 -0.075353704 -0.49470508 2
-3.1530828 -0.091378368 -0.49355114 2
nan nan nan 0
-5.5150609 -0.1579033 -0.47935733 2
-8.9824162 -0.25560915 -0.46736974 6
-10.442521 -0.29533476 -0.17986439 3
-9.1147776 -0.25619149 2.4313142 11
-10.377558 -0.28987214 2.3860502 12
-10.464361 -0.29046902 2.0255251 14
-10.731128 -0.29599953 1.6923182 12
-10.287388 -0.2819629 1.2589103 4
-10.514319 -0.28634632 0.9168784 4
-10.465104 -0.28317815 0.54664904 3
-10.802706 -0.29042658 0.1879624 60
-1.9018434 -0.049469497 -0.49952096 3
-2.1616554 -0.055850025 -0.49039361 3
-2.579901 -0.066205531 -0.49375188 2
-3.1533825 -0.080371499 -0.49355114 2
-4.0518012 -0.10256222 -0.49296206 2
-5.5155783 -0.13865118 -0.47935733 2
-8.9932365 -0.22450231 -0.46789137 7
-10.98824 -0.27238551 -0.18928093 16
-9.1059589 -0.22413573 2.4287276 6
-10.592812 -0.25888348 2.4355021 13
-10.902022 -0.26453656 2.110359 14
-11.186314 -0.26948133 1.7641988 12
-10.799324 -0.25827274 1.3216729 13
-11.018192 -0.26158297 0.96089202 13
-11.025106 -0.2598218 0.57595718 13
-11.258461 -0.26335505 0.19590324 56
-1.9068329 -0.042939249 -0.50081509 3
-2.1618373 -0.048304096 -0.49039361 3
-2.5752094 -0.057090804 -0.49279872 2
-3.1536438 -0.069363654 -0.49355114 2
-4.0372496 -0.088093385 -0.49113399 2
-5.5110488 -0.11928958 -0.47892153 2
-8.9939651 -0.19310869 -0.46789137 7
-11.463944 -0.24413964 -0.19748798 10
-9.1066856 -0.19234863 2.4287276 10
-10.603393 -0.22211017 2.4377496 15
-11.354346 -0.23585786 2.1980522 14
-11.666126 -0.24029733 1.8399858 10
-11.251676 -0.2297959 1.3771236 14
-11.502093 -0.23290192 1.0031625 12
-11.480231 -0.23045476 0.59977007 11
-11.769133 -0.23419926 0.20480397 53
-1.9069712 -0.036282901 -0.50081509 3
-2.1619928 -0.040757582 -0.49039361 3
-2.5704854 -0.048009638 -0.49184549 2
-3.1538668 -0.058354959 -0.49355114 2
nan nan nan 0
-5.5114317 -0.10005171 -0.47892153 2
-8.9796076 -0.16144346 -0.46710894 5
-11.949577 -0.21275397 -0.20586784 9
-9.1073017 -0.16055919 2.4287276 11
-10.608975 -0.1851811 2.4388735 15
-11.875302 -0.20521174 2.2990901 12
-12.210058 -0.20886484 1.92593 11
-11.738687 -0.19875216 1.4368395 12
-12.020784 -0.20142987 1.0484836 10
-11.985205 -0.19874126 0.62619972 8
-12.284731 -0.20156342 0.21379197 55
-1.9070863 -0.029626107 -0.50081509 4
-2.1621218 -0.033210572 -0.49039361 3
-2.5706375 -0.039036676 -0.49184549 2
-3.1540513 -0.047345556 -0.49355114 2
nan nan nan 0
-5.5167279 -0.080885634 -0.47935733 2
-8.9701309 -0.12995312 -0.46658731 4
-12.50011 -0.1789109 -0.21537077 9
-9.1078062 -0.1287678 2.4287276 11
-10.609557 -0.14814773 2.4388735 9
-12.425624 -0.1713375 2.4058473 12
-12.813164 -0.17444456 2.0212498 9
-12.270273 -0.16491142 1.5020396 11
-12.604137 -0.1671983 1.0994697 11
-12.569974 -0.16455084 0.65681624 10
-12.845227 -0.16591184 0.22356531 70
-1.9023488 -0.022910792 -0.49952096 4
-2.1670959 -0.025720971 -0.49151835 3
-2.5707581 -0.030063238 -0.49184549 2
-3.1591353 -0.036392458 -0.4943333 2
nan nan nan 0
-5.5169764 -0.061628167 -0.47935733 2
-8.9655371 -0.098585822 -0.46632648 4
-12.875581 -0.13933353 -0.22185004 20
-9.108201 -0.096974842 2.4287276 11
-10.595394 -0.11095951 2.4355021 8
-12.647008 -0.13023733 2.4487407 13
-13.519875 -0.13686609 2.1329772 8
-12.846422 -0.12780616 1.5727239 29
-12.91843 -0.12626764 1.1269237 10
-12.934954 -0.12417135 0.67591888 16
nan nan nan 0
-1.9024171 -0.016270217 -0.49952096 3
-2.1671724 -0.018156238 -0.49151835 3
-2.5708475 -0.021089436 -0.49184549 2
-3.1592431 -0.025364794 -0.4943333 2
nan nan nan 0
-5.5221386 -0.042408202 -0.47979313 3
-8.9558401 -0.067214713 -0.46580485 2
-13.76583 -0.10091158 -0.23722748 2
-9.1084833 -0.065180697 2.4287276 11
-10.590844 -0.073939987 2.4343781 10
-12.637569 -0.08602342 2.4468343 14
-14.216594 -0.094290398 2.2431419 8
-13.620959 -0.087962493 1.6677818 3
-13.939873 -0.087588929 1.2162584 3
nan nan nan 0
-14.385811 -0.085369125 0.250442 63
-1.9024624 -0.0096294433 -0.49952096 3
-2.1672227 -0.010591284 -0.49151835 3
-2.5758135 -0.012138505 -0.49279872 2
-3.1593122 -0.014336825 -0.4943333 2
nan nan nan 0
-5.5272336 -0.023152946 -0.48022887 2
-8.9560194 -0.035952587 -0.46580485 3
-14.415998 -0.05535474 -0.24845822 19
-9.1038265 -0.033368055 2.4274344 11
-10.581295 -0.036936577 2.4321303 9
-12.627975 -0.041876994 2.4449279 10
-14.92305 -0.046883345 2.3548694 7
-14.345739 -0.042565797 1.7567465 12
-14.468074 -0.040403605 1.2624509 7
-14.433446 -0.037787773 0.75442278 5
-14.830953 -0.036239967 0.25820833 24
-1.8976548 -0.002980965 -0.49822688 3
-2.1672463 -0.0030262009 -0.49151835 3
-2.5807486 -0.0031531618 -0.49375188 2
-3.1544049 -0.0033035078 -0.49355114 2
nan nan nan 0
-5.5223002 -0.003855681 -0.47979313 2
-8.9510994 -0.0046874131 -0.46554407 3
-15.340964 -0.0053560846 -0.26444039 2
-9.1038876 -0.0015895673 2.4274344 12
-10.576487 -7.4268161e-07 2.4310064 10
-12.608412 0.0021996975 2.4411151 7
-15.48612 0.0054045883 2.4439387 6
-15.110061 0.0079105487 1.8505858 12
-15.449378 0.010784618 1.3482993 2
-15.397166 0.013435485 0.80492699 2
-15.980813 0.01673395 0.27827862 43
-1.8928241 0.0036338328 -0.49693277 3
-2.1672437 0.0045389188 -0.49151835 3
-2.5807438 0.0058553512 -0.49375188 2
-3.1494586 0.0076953731 -0.49276894 2
nan nan nan 0
-5.5172992 0.015406858 -0.47935733 2
-8.9510612 0.026557781 -0.46554407 2
-16.31074 0.051240724 -0.28120008 12
-9.103838 0.030188939 2.4274344 11
-10.57155 0.036901079 2.4298823 10
-12.613235 0.046229243 2.4420683 10
-15.560084 0.059745636 2.4556582 9
-15.968486 0.064100832 1.9560028 12
-16.520147 0.069198675 1.4419918 7
-16.3557 0.071364507 0.85516953 5
-16.905506 0.076714091 0.29442206 43
-1.8879702 0.010214869 -0.4956387 2
-2.1720867 0.012131195 -0.49264312 3
-2.590524 0.014920329 -0.49565825 2
-3.1395361 0.01863038 -0.49120462 2
nan nan nan 0
-5.5122309 0.034634437 -0.47892153 2
-8.9509134 0.057802655 -0.46554407 2
-17.190311 0.11401092 -0.29640475 8
-9.1036768 0.061967079 2.4274344 12
-10.566484 0.073768429 2.4287584 10
-12.612997 0.090257369 2.4420683 11
-15.535089 0.1138791 2.4517517 7
-16.935871 0.12710348 2.0748255 13
-17.471142 0.13417014 1.5252255 6
-17.478777 0.13727957 0.91404748 8
-18.189896 0.14603971 0.3168484 47
-1.8830936 0.016762065 -0.49434459 2
-2.1720312 0.019713117 -0.49264312 3
-2.6051805 0.024099063 -0.49851784 2
-3.1394517 0.029589292 -0.49120462 2
-4.0727625 0.039096627 -0.49539945 2
-5.5070958 0.053826816 -0.47848576 2
-8.9556484 0.089096472 -0.46580485 2
-18.244596 0.18469343 -0.3146331 5
-9.1082344 0.093794197 2.4287276 12
-10.566162 0.1106519 2.4287584 10
-12.612605 0.13428439 2.4420683 11
-15.495091 0.16767848 2.4455013 8
-18.190819 0.20002526 2.2289901 16
-18.357124 0.20505829 1.6027941 8
-18.227114 0.20678765 0.9532994 5
nan nan nan 0
-1.8733653 0.023215493 -0.49175641 3
-2.1719491 0.027294802 -0.49264312 3
-2.5952647 0.033067625 -0.49661148 2
-3.1195772 0.040292721 -0.48807591 2
-4.0825257 0.053442899 -0.49661812 2
-5.5018935 0.072983772 -0.47804996 2
-8.9602766 0.12042408 -0.46606568 2
nan nan nan 0
-9.107851 0.12558728 2.4287276 11
-10.560842 0.14746599 2.4276347 10
-12.612061 0.17830978 2.4420683 11
-15.489474 0.22169474 2.44472 8
-19.266809 0.27912164 2.3612185 5
-20.069567 0.2942549 1.7527019 8
-20.058563 0.2975952 1.0493358 8
-20.947704 0.31444365 0.36501706 33
-1.8732728 0.029754618 -0.49175641 2
-2.1718407 0.034876153 -0.49264312 3
-2.5509646 0.041409593 -0.48803276 2
-3.1441064 0.051586915 -0.49198681 2
nan nan nan 0
-5.4966254 0.092105076 -0.47761422 2
-8.9598017 0.15170056 -0.46606568 2
-21.176996 0.36224997 -0.36534417 4
-9.1121874 0.15746231 2.4300208 11
-10.560262 0.1843293 2.4276347 10
-12.611361 0.22233301 2.4420683 11
-15.468855 0.27541012 2.4415948 8
nan nan nan 0
-21.607285 0.39224458 1.8873576 4
-21.530134 0.39460298 1.1265314 4
-22.665924 0.41937694 0.39503521 30
-1.8924659 0.036997914 -0.49693277 2
-2.1716981 0.042836111 -0.49264312 3
-2.5606103 0.050954372 -0.48993912 2
-3.1192091 0.062614724 -0.48807591 2
nan nan nan 0
-5.4962506 0.11225059 -0.47761422 2
-8.9342251 0.18402472 -0.46476164 2
-23.324741 0.48450932 -0.40249193 4
-9.1163769 0.19096023 2.4313142 12
-10.559516 0.22303337 2.4276347 10
-12.615369 0.26865897 2.4430215 11
-15.462804 0.33199844 2.4408135 7
nan nan nan 0
-23.532883 0.51348764 2.056004 3
-23.52532 0.51743054 1.2312033 3
-24.463518 0.5423376 0.42644954 26
-1.8923253 0.043603625 -0.49693277 3
-2.1715355 0.050416488 -0.49264312 3
nan nan nan 0
-3.1288455 0.07373511 -0.48964027 2
nan nan nan 0
-5.5008044 0.13155448 -0.47804996 2
-8.9335279 0.21520987 -0.46476164 3
-23.757715 0.57647538 -0.41000786 3
-9.1156549 0.22278117 2.4313142 11
-10.563542 0.26001146 2.4287584 10
-12.614354 0.31269318 2.4430215 11
-15.461551 0.38597167 2.4408135 8
-20.274824 0.50966775 2.4855254 5
nan nan nan 0
nan nan nan 0
-28.704433 0.73661697 0.50053501 45
nan nan nan 0
-2.1762161 0.05812633 -0.49376786 3
-2.5749118 0.069225147 -0.49279872 2
nan nan nan 0
nan nan nan 0
-5.505291 0.15089154 -0.47848576 2
nan nan nan 0
-23.735569 0.65884691 -0.40966231 3
-9.1196499 0.25473425 2.4326074 11
-10.562571 0.29688352 2.4287584 10
-12.613185 0.35672358 2.4430215 11
-15.469982 0.44022116 2.4423761 7
-20.243156 0.57958478 2.481869 6
nan nan nan 0
-28.776711 0.83396357 1.5067521 6
-29.85602 0.87045777 0.52069253 77
-1.8871473 0.056668412 -0.4956387 4
-2.1711307 0.065575317 -0.49264312 3
nan nan nan 0
nan nan nan 0
nan nan nan 0
-5.514688 0.17041537 -0.47935733 2
-8.9318075 0.27757192 -0.46476164 3
-23.718134 0.74122703 -0.40940315 3
-9.1187048 0.2865662 2.4326074 11
-10.566339 0.33390585 2.4298823 10
-12.61677 0.40090552 2.4439747 11
-15.478223 0.49453413 2.4439387 8
-20.226131 0.64976507 2.480041 7
nan nan nan 0
-29.906471 0.97119659 1.5661534 26
-29.857796 0.97483253 0.52077979 73
nan nan nan 0
-2.1708884 0.07315357 -0.49264312 3
nan nan nan 0
nan nan nan 0
nan nan nan 0
-5.4991255 0.1891505 -0.47804996 3
nan nan nan 0
-23.650452 0.8217575 -0.40828007 3
-9.1224756 0.31856322 2.4339006 11
-10.569979 0.37095812 2.4310064 10
-12.615293 0.44494385 2.4439747 11
-15.486274 0.54891014 2.4455013 7
-20.22374 0.7203635 2.480041 8
nan nan nan 0
-29.848009 1.0736094 1.563275 7
nan nan nan 0
-1.8818793 0.06966304 -0.49434459 3
-2.1706197 0.080730945 -0.49264312 3
nan nan nan 0
nan nan nan 0
nan nan nan 0
-5.4586124 0.20683607 -0.47456372 2
-8.9296532 0.33992043 -0.46476164 2
-23.622459 0.9033528 -0.40784812 3
-9.1213083 0.35040468 2.4339006 11
-10.578357 0.40822774 2.4332542 9
-12.618567 0.48916683 2.4449279 11
-15.494133 0.60334831 2.4470639 7
-20.216141 0.79075909 2.4794316 7
nan nan nan 0
nan nan nan 0
nan nan nan 0
nan nan nan 0
-2.1654568 0.088109262 -0.49151835 3
nan nan nan 0
nan nan nan 0
nan nan nan 0
-5.4727874 0.22650684 -0.47587109 2
-8.9184332 0.37067392 -0.46424001 3
-23.594189 0.98476267 -0.40741616 4
-9.124856 0.38244411 2.435194 9
-10.576868 0.44515064 2.4332542 10
-12.621687 0.53341812 2.4458811 10
-15.496866 0.65763867 2.4478452 7
-20.198383 0.86068797 2.4776037 8
nan nan nan 0
nan nan nan 0
-43.371307 1.8708771 0.75708532 6
-1.9006468 0.083648629 -0.49952096 4
-2.1651359 0.095667571 -0.49151835 3
nan nan nan 0
nan nan nan 0
nan nan nan 0
nan nan nan 0
nan nan nan 0
-23.585613 1.0668898 -0.40732977 3
-9.1234655 0.41429347 2.435194 7
-10.580116 0.48228991 2.4343781 5
-12.619748 0.57747281 2.4458811 9
-15.509276 0.7124086 2.4501891 8
-20.229958 0.93278831 2.481869 6
-28.493935 1.3188179 2.4922185 4
nan nan nan 0
-43.339546 2.0210955 0.75664902 15
-1.9099917 0.090740994 -0.50210917 4
-2.1647887 0.10322472 -0.49151835 3
nan nan nan 0
-3.0915809 0.14849906 -0.48416507 2
nan nan nan 0
-5.520824 0.26711541 -0.48022887 2
-8.9605141 0.4351064 -0.46658731 2
-23.496859 1.1450757 -0.40586114 3
-9.1219635 0.44613779 2.435194 11
-10.578368 0.51921844 2.4343781 10
-12.622558 0.62176192 2.4468343 7
-15.516561 0.7670294 2.4517517 6
-20.246407 1.0043819 2.4843066 7
-28.489157 1.4182723 2.4922185 4
nan nan nan 0
-43.372173 2.1743691 0.75734717 7
-1.8710766 0.095439337 -0.49175641 5
-2.1595502 0.1105316 -0.49039361 2
nan nan nan 0
-3.1699538 0.16335624 -0.49667984 2
nan nan nan 0
nan nan nan 0
-8.9539547 0.46612218 -0.46632648 3
-23.402853 1.2223942 -0.40430611 2
-9.1203508 0.47797668 2.435194 11
-10.576491 0.55614072 2.4343781 9
-12.620311 0.66581911 2.4468343 8
-15.503924 0.82066554 2.4501891 7
-20.267553 1.0763649 2.4873533 6
-28.489004 1.5179743 2.4926541 4
nan nan nan 0
-43.583965 2.3375335 0.76118666 4
-1.8900219 0.10302148 -0.49693277 4
-2.1591511 0.11806916 -0.49039361 2
nan nan nan 0
-3.1595025 0.17387772 -0.49511549 2
nan nan nan 0
-5.4690914 0.30289683 -0.47587109 2
-8.9323311 0.4962666 -0.46528327 2
-23.398445 1.304078 -0.40430611 2
-9.1186266 0.50980973 2.435194 11
-10.569622 0.59278339 2.4332542 9
-12.613009 0.7095924 2.4458811 9
-15.486175 0.87394458 2.4478452 7
-20.258718 1.1468247 2.4867437 7
