# .PCD v0.7 - Point Cloud Data file format
VERSION 0.7
FIELDS x y z intensity
SIZE 4 4 4 4
TYPE F F F F
COUNT 1 1 1 1
WIDTH 1515
HEIGHT 1
VIEWPOINT 0 0 0 1 0 0 0
POINTS 1515
DATA ascii
4.4602127 1.6818171 0.24781074 2
nan nan nan 0
1.8079656 0.6795699 -0.50728554 3
2.0652916 0.77588105 -0.50051636 3
2.4206479 0.90889782 -0.49470508 2
2.9671636 1.1135112 -0.49589765 2
3.8599892 1.4478004 -0.50149292 2
4.5132699 1.6919338 -0.41834819 2
nan nan nan 0
nan nan nan 0
5.0567966 1.8926717 1.4355099 17
4.5305896 1.69482 1.1070464 2
4.5275559 1.6927844 0.93126494 8
nan nan nan 0
4.5035772 1.6820276 0.58558214 2
nan nan nan 0
4.5128379 1.6836915 0.25042754 2
nan nan nan 0
1.8103268 0.67325473 -0.50728554 3
2.0679874 0.7686671 -0.50051636 2
2.4284067 0.90215188 -0.49565825 2
2.9710324 1.1031469 -0.49589765 2
3.8650196 1.4343177 -0.50149292 2
nan nan nan 0
nan nan nan 0
nan nan nan 0
5.104136 1.8901037 1.4471493 13
nan nan nan 0
nan nan nan 0
4.5336809 1.6761607 0.75865233 2
nan nan nan 0
nan nan nan 0
nan nan nan 0
nan nan nan 0
1.8081334 0.66526383 -0.50599146 3
2.0660856 0.75976247 -0.49939165 2
2.431541 0.89366966 -0.49565825 2
2.974865 1.0927694 -0.49589765 2
3.8700027 1.4208176 -0.50149292 2
nan nan nan 0
nan nan nan 0
4.6265178 1.6958132 -0.084489614 2
5.1424484 1.8839054 1.4562019 13
nan nan nan 0
nan nan nan 0
4.6322656 1.6942526 0.77427852 3
nan nan nan 0
4.6442485 1.6967974 0.42924201 8
nan nan nan 0
4.6006899 1.679063 0.084818684 32
1.8104445 0.65894818 -0.50599146 3
2.0687253 0.75254583 -0.49939165 2
2.4346457 0.8851766 -0.49565825 2
2.9786613 1.0823786 -0.49589765 2
3.8702741 1.405606 -0.50088358 2
4.6712022 1.6955644 -0.43142158 3
nan nan nan 0
4.6559091 1.688174 -0.084921569 3
5.1898608 1.8807534 1.4678413 14
4.6442862 1.6821257 1.1306484 2
4.6604147 1.6870474 0.95509464 2
4.6706595 1.6898339 0.77974766 3
nan nan nan 0
4.659512 1.6839616 0.43011358 2
4.6617146 1.6838378 0.25775456 2
4.6582475 1.6816664 0.085778572 46
1.8127337 0.65262455 -0.50599146 2
2.0713396 0.74532002 -0.49939165 3
2.4377205 0.87667274 -0.49565825 2
2.9870689 1.073645 -0.49667984 2
3.8751571 1.3920877 -0.50088358 2
4.6770926 1.6792485 -0.43142158 2
4.6934719 1.6842046 -0.25846171 12
4.7135367 1.6904759 -0.085871853 10
5.2418609 1.8789233 1.4807738 13
4.6959963 1.6823355 1.1418874 2
4.7124858 1.6873147 0.96462655 4
4.6997786 1.6818397 0.78365427 2
nan nan nan 0
nan nan nan 0
4.7004786 1.6793144 0.25958633 5
4.6782131 1.670439 0.086040355 22
1.8150008 0.64629292 -0.50599146 2
2.0739286 0.73808521 -0.49939165 3
2.4361417 0.86651331 -0.49470508 2
2.9907982 1.0632116 -0.49667984 2
3.879993 1.3785524 -0.50088358 2
4.7345576 1.6812469 -0.43621519 2
4.6710887 1.6577908 -0.25689685 2
4.7099862 1.6706702 -0.085699081 2
5.29391 1.8767526 1.4937063 13
4.7477632 1.6822045 1.1531265 2
4.7229733 1.6724933 0.96557975 2
nan nan nan 0
4.7427859 1.6776464 0.61300278 9
4.7462931 1.677955 0.43708605 2
4.7345591 1.6728771 0.26115641 4
nan nan nan 0
1.8172457 0.63995349 -0.50599146 2
2.0764923 0.73084134 -0.49939165 2
2.4391515 0.85800433 -0.49470508 3
2.9944913 1.0527653 -0.49667984 2
3.8847811 1.3650004 -0.50088358 2
4.7685952 1.6746122 -0.43882984 2
nan nan nan 0
nan nan nan 0
5.3414497 1.8726434 1.5053456 13
nan nan nan 0
nan nan nan 0
nan nan nan 0
4.7673507 1.6676352 0.61544013 2
nan nan nan 0
4.7875066 1.6728103 0.2637732 1
nan nan nan 0
1.8149074 0.63201791 -0.50469732 2
2.0790308 0.72358859 -0.49939165 2
2.4421318 0.84948486 -0.49470508 2
2.998148 1.0423061 -0.49667984 2
3.8895223 1.3514316 -0.50088358 2
4.8167596 1.6726623 -0.44275185 2
nan nan nan 0
nan nan nan 0
5.3935876 1.8698068 1.5182781 13
4.8330483 1.6745385 1.171109 3
4.8458486 1.6780262 0.98845625 2
nan nan nan 0
4.7872138 1.6558508 0.6172682 2
nan nan nan 0
4.8357916 1.6707637 0.26612833 7
nan nan nan 0
1.8171026 0.62567884 -0.50469732 2
2.0861504 0.7179122 -0.50051636 2
2.4497232 0.84255129 -0.49565825 2
3.0017679 1.0318342 -0.49667984 2
3.8942161 1.3378464 -0.50088358 2
4.855546 1.667161 -0.4458023 2
nan nan nan 0
nan nan nan 0
5.4457712 1.866629 1.5312107 13
4.8757367 1.6702894 1.1801002 11
4.884182 1.67223 0.99512857 2
4.891016 1.6736161 0.81178141 4
4.8258338 1.6503711 0.62153363 2
nan nan nan 0
4.879395 1.6667861 0.26822177 15
nan nan nan 0
1.8238474 0.62088859 -0.50599146 3
2.093256 0.71219516 -0.50164115 2
2.4526494 0.8339951 -0.49565825 2
3.0100272 1.0229388 -0.49746197 2
3.8988621 1.3242449 -0.50088358 2
4.8990688 1.6630105 -0.44928852 2
nan nan nan 0
4.9127641 1.6657472 -0.088981904 2
5.4979968 1.8631095 1.5441432 12
4.9184542 1.6657624 1.1890914 2
nan nan nan 0
4.9061847 1.6596984 0.81334406 2
4.873877 1.6478212 0.62701774 2
nan nan nan 0
4.8473377 1.6369632 0.26612833 2
nan nan nan 0
1.8260037 0.6145184 -0.50599146 3
2.1003466 0.70643699 -0.50276589 2
2.4601984 0.82699263 -0.49661148 2
3.0135796 1.0124258 -0.49746197 2
3.8987563 1.3090476 -0.50027424 2
4.9378996 1.6569918 -0.45233902 2
nan nan nan 0
nan nan nan 0
5.5502644 1.859248 1.5570757 12
nan nan nan 0
nan nan nan 0
nan nan nan 0
4.9454947 1.6528209 0.63554859 1
nan nan nan 0
nan nan nan 0
nan nan nan 0
1.8281376 0.60814071 -0.50599146 3
2.1027999 0.69910109 -0.50276589 2
2.4630702 0.81839997 -0.49661148 2
3.0170953 1.0019002 -0.49746197 2
3.9033017 1.2954304 -0.50027424 2
5.0003858 1.6585627 -0.45756835 3
nan nan nan 0
4.9812202 1.6502758 -0.090018585 2
5.6071563 1.8565619 1.5713015 12
nan nan nan 0
nan nan nan 0
5.0255008 1.6610532 0.83131415 2
4.9889326 1.6480007 0.64042342 2
nan nan nan 0
4.9582233 1.6359373 0.27162361 2
nan nan nan 0
1.8348372 0.60326403 -0.50728554 3
2.1052275 0.69175678 -0.50276589 2
2.4565854 0.80673444 -0.49470508 2
3.0252664 0.99290246 -0.49824417 2
3.9125156 1.2833443 -0.50088358 2
5.0629425 1.6597171 -0.4627977 4
nan nan nan 0
5.043963 1.6515456 -0.091055267 2
5.6640964 1.8535014 1.5855272 12
nan nan nan 0
nan nan nan 0
nan nan nan 0
5.0559845 1.650598 0.64834487 4
nan nan nan 0
5.0540996 1.6480306 0.2765955 2
nan nan nan 0
1.8415251 0.59834802 -0.50857961 2
2.1076293 0.6844039 -0.50276589 2
2.4547176 0.79663926 -0.49375188 2
3.0287139 0.98233628 -0.49824417 2
3.9216921 1.2712095 -0.50149292 2
5.1208286 1.6589197 -0.46759126 5
nan nan nan 0
5.0782361 1.6431631 -0.091573603 2
5.7210827 1.8500658 1.599753 11
nan nan nan 0
5.1041217 1.6485871 1.0342093 2
nan nan nan 0
5.085331 1.6405579 0.65139163 3
5.1326218 1.6548252 0.46846214 2
nan nan nan 0
5.1185789 1.6483253 0.093195841 23
1.8436025 0.59191626 -0.50857961 3
2.1100054 0.67704272 -0.50276589 2
2.4528096 0.78656703 -0.49279872 2
3.0321245 0.97175813 -0.49824417 2
3.9308319 1.2590262 -0.50210226 2
5.178771 1.6577384 -0.47238487 4
nan nan nan 0
nan nan nan 0
5.7735124 1.8447846 1.6126854 14
nan nan nan 0
5.1846609 1.6546372 1.0494604 11
nan nan nan 0
nan nan nan 0
5.1810808 1.650506 0.47238415 3
5.1606388 1.6430018 0.28182912 3
5.1862321 1.650153 0.094330251 33
1.8456573 0.58547729 -0.50857961 3
2.1123559 0.66967332 -0.50276589 2
2.4555404 0.77800035 -0.49279872 2
3.0354981 0.96116811 -0.49824417 2
3.9399347 1.2467947 -0.50271159 2
5.2367663 1.6561724 -0.47717842 3
nan nan nan 0
nan nan nan 0
5.7614937 1.8188043 1.6075125 5
nan nan nan 0
5.2325349 1.6498128 1.0580389 16
nan nan nan 0
5.1818643 1.6318479 0.66235983 2
5.2343225 1.6473637 0.47674191 4
5.2139735 1.6399592 0.28444591 2
5.2158065 1.6395354 0.094766557 32
1.8430811 0.57758689 -0.50728554 3
2.1146805 0.66229576 -0.50276589 2
2.4629254 0.77089036 -0.49375188 2
3.0388348 0.95056647 -0.49824417 3
3.9442627 1.2330341 -0.50271159 2
5.3090768 1.6586779 -0.48327935 2
nan nan nan 0
nan nan nan 0
5.8000836 1.8087469 1.6165653 11
nan nan nan 0
nan nan nan 0
5.2942109 1.6479503 0.87116098 2
nan nan nan 0
nan nan nan 0
nan nan nan 0
5.2644668 1.6346611 0.095551923 33
1.8450862 0.57114983 -0.50728554 2
2.1169796 0.65491009 -0.50276589 2
2.4656012 0.76228839 -0.49375188 2
3.0421343 0.93995309 -0.49824417 2
3.9485426 1.2192587 -0.50271159 2
5.3719482 1.6577607 -0.4885087 3
nan nan nan 0
nan nan nan 0
5.7971301 1.7856463 1.6139787 10
nan nan nan 0
5.3283687 1.639221 1.0751964 2
5.4651494 1.6802562 0.89850688 2
5.3022385 1.6291566 0.67637479 2
5.35045 1.642948 0.48632905 3
5.3303108 1.635746 0.29020289 3
nan nan nan 0
1.8470685 0.56470579 -0.50728554 2
2.1145937 0.64609295 -0.50164115 2
2.4729414 0.75511062 -0.49470508 2
3.0406733 0.9278869 -0.49746197 2
3.9527745 1.2054683 -0.50271159 2
5.4634643 1.6651375 -0.4963527 6
nan nan nan 0
5.7470069 1.7493623 -0.10314989 5
5.7940865 1.7625884 1.6113924 10
5.7887554 1.7598629 1.3868988 11
5.7661209 1.7518822 1.1628897 6
5.8064952 1.7630421 0.95397997 13
5.6640615 1.718715 0.72207582 3
5.7946815 1.7572461 0.52642071 8
5.7373843 1.7387772 0.31218395 4
5.7733498 1.7485766 0.10462717 66
1.8490285 0.5582549 -0.50728554 3
2.1215 0.64011496 -0.50276589 2
2.4755621 0.74647391 -0.49470508 2
3.0486221 0.91869235 -0.49824417 2
3.9569585 1.1916631 -0.50271159 2
5.531249 1.6647177 -0.50201786 7
5.803226 1.745469 -0.31453565 11
5.8057427 1.7451211 -0.10410019 19
5.7863264 1.7381837 1.6075125 10
5.7855301 1.7368438 1.3846508 12
5.8098111 1.7430277 1.1705152 16
5.7794995 1.7328345 0.94851071 11
5.8078899 1.7402418 0.73974687 18
5.8198667 1.7427236 0.52816379 13
5.8151717 1.7402118 0.31610918 12
5.7746286 1.726981 0.10453991 61
1.8509659 0.55179715 -0.50728554 3
2.1190526 0.63131469 -0.50164115 2
2.4828568 0.73922855 -0.49565825 2
3.0518105 0.90804499 -0.49824417 2
3.9610939 1.1778436 -0.50271159 2
5.541801 1.6468188 -0.50245363 6
5.8092833 1.7252012 -0.31453565 17
5.7782502 1.714888 -0.10349546 7
5.7923589 1.7179753 1.6075125 10
5.7915573 1.716638 1.3846508 10
5.7782106 1.7115848 1.1628897 8
5.8139262 1.7210606 0.95319861 5
5.7758584 1.7086952 0.7348721 11
5.8020315 1.7153368 0.52598488 5
5.8355765 1.7241468 0.3168942 10
5.8141842 1.7167231 0.10515074 45
1.8528807 0.54533279 -0.50728554 3
2.1212435 0.62391394 -0.50164115 2
2.4854221 0.73055726 -0.49565825 2
3.0549614 0.89738667 -0.49824417 2
3.9651814 1.1640096 -0.50271159 2
5.5522952 1.6288666 -0.50288939 7
5.8008957 1.7006984 -0.31375322 5
5.8369746 1.7101698 -0.10444576 5
5.8168607 1.7031744 1.6126854 5
5.8068671 1.6991477 1.3868988 5
5.8218384 1.7024254 1.1705152 5
5.8910031 1.7215346 0.96491826 4
5.8056064 1.6954794 0.73791885 5
5.8462353 1.7062374 0.52947116 4
5.8847003 1.7163489 0.31924933 6
5.8681364 1.7104067 0.10602336 43
1.854773 0.53886163 -0.50728554 2
2.1234086 0.61650562 -0.50164115 2
2.487957 0.72187704 -0.49565825 3
3.0628185 0.8880927 -0.49902633 2
3.9692204 1.1501614 -0.50271159 2
5.5579472 1.6094755 -0.50288939 8
5.8547606 1.6943195 -0.31636134 4
5.9053402 1.70784 -0.10556882 5
5.8645306 1.6949285 1.6243248 4
5.8829732 1.6991462 1.4037572 5
5.9031978 1.7038714 1.1857662 4
5.968154 1.7214915 0.97663796 5
5.8734808 1.6930732 0.74584037 5
5.9670277 1.7189108 0.53992981 5
5.9290419 1.7068477 0.32134277 4
5.9557452 1.7134094 0.10750682 44
1.8520002 0.53105277 -0.50599146 2
2.1255474 0.60908979 -0.50164115 2
2.4904618 0.71318805 -0.49565825 2
3.0658998 0.87739611 -0.49902633 2
3.977982 1.1376637 -0.50332099 2
5.558742 1.5886959 -0.50245363 6
5.9806695 1.7081544 -0.32288155 6
5.9689536 1.7036815 -0.10660551 4
5.9400806 1.6943192 1.6437236 4
5.9544649 1.6972983 1.419492 4
5.9987993 1.7088038 1.2038769 7
6.0406246 1.7195783 0.98757625 5
5.9366345 1.6888555 0.75315249 4
6.0304852 1.7144165 0.54515916 5
5.9974036 1.7038804 0.32474461 4
6.0193996 1.7089942 0.10855396 44
1.8538427 0.52458489 -0.50599146 3
2.1276608 0.60166651 -0.50164115 2
2.4929361 0.70449042 -0.49565825 2
3.0689437 0.86668873 -0.49902633 2
3.9819293 1.1237711 -0.50332099 2
5.5642538 1.5692827 -0.50245363 6
6.0442672 1.7035217 -0.32601127 6
6.0855403 1.7140079 -0.10859248 8
6.043592 1.7010546 1.670882 6
6.0447736 1.7002485 1.4397222 6
6.066155 1.7051201 1.2162682 7
6.0988908 1.7131733 0.9961707 5
6.0046086 1.6855588 0.76107401 4
6.0939837 1.7095 0.55038851 4
6.0610085 1.6991087 0.32788476 4
6.0975375 1.7082013 0.10986289 43
1.8510109 0.51681179 -0.50469732 3
2.1297479 0.5942359 -0.50164115 2
2.4953799 0.69578409 -0.49565825 2
3.0719504 0.8559708 -0.49902633 2
3.9858277 1.1098647 -0.50332099 2
5.5696979 1.5498503 -0.50245363 5
6.1175256 1.7011411 -0.32966256 6
6.1492872 1.708817 -0.10962916 7
6.1099916 1.6967484 1.6876941 6
6.1163964 1.6973773 1.4554569 6
6.1382871 1.7022985 1.2296129 6
6.1714616 1.7103388 1.007109 5
6.1156754 1.6937289 0.77447969 7
6.1479182 1.7015035 0.55474627 4
6.1390896 1.6979065 0.33180994 3
6.1516485 1.7002243 0.11073551 44
1.8528036 0.51034743 -0.50469732 3
2.1318092 0.58679813 -0.50164115 2
2.4977934 0.68706936 -0.49565825 2
3.0796814 0.84655142 -0.49980852 2
3.9896774 1.0959448 -0.50332099 2
5.5750737 1.5303988 -0.50245363 5
6.1908412 1.6982698 -0.33331391 6
6.2130709 1.7032019 -0.11066584 7
6.1717758 1.6907235 1.7032132 6
6.1739745 1.6901674 1.4678198 6
6.1962695 1.6951085 1.2400979 6
6.2250323 1.7018093 1.0149221 5
6.1885719 1.690681 0.78301048 8
6.2162867 1.6970866 0.56041139 4
6.1835155 1.6869801 0.33390337 4
nan nan nan 0
1.8499131 0.5026105 -0.50340325 3
2.1338446 0.57935315 -0.50164115 2
2.5001767 0.67834628 -0.49565825 2
3.0826178 0.83579618 -0.49980852 2
3.9934788 1.0820115 -0.50332099 2
5.5803819 1.510929 -0.50245363 4
6.2545695 1.6922987 -0.3364436 6
nan nan nan 0
6.2429171 1.6868073 1.7213187 6
6.2645016 1.6914662 1.4880501 6
nan nan nan 0
6.6028609 1.7803533 1.0758643 17
6.2615218 1.6871445 0.79154134 8
nan nan nan 0
nan nan nan 0
6.6026945 1.7753646 0.11867636 79
1.8516563 0.49615005 -0.50340325 2
2.1358538 0.57190108 -0.50164115 2
2.5025291 0.66961485 -0.49565825 2
3.0855162 0.82503074 -0.49980852 2
3.9972312 1.068065 -0.50332099 2
5.5856223 1.4914405 -0.50245363 5
6.3810487 1.7026379 -0.34296384 24
6.6064186 1.7615376 -0.11749066 22
6.7294707 1.7930903 1.8545238 23
6.7411685 1.7949471 1.6004406 27
6.7676582 1.8007355 1.3525742 28
6.5899439 1.7522181 1.0727391 14
6.6175032 1.7583091 0.83602363 24
6.637187 1.7622992 0.59745264 19
6.6343222 1.760299 0.35771626 17
6.6040196 1.7510251 0.1185891 54
1.8533767 0.48968357 -0.50340325 2
2.1378372 0.5644421 -0.50164115 2
2.5001056 0.65962327 -0.49470508 2
3.0883775 0.81425518 -0.49980852 2
4.0009351 1.0541056 -0.50332099 2
5.5907941 1.4719341 -0.50245363 5
6.3483229 1.6701901 -0.34087735 17
6.5883522 1.7321104 -0.11705872 12
6.8057585 1.7879977 1.8739225 22
6.7992291 1.7850139 1.6128036 21
6.8261266 1.7908018 1.3630592 21
6.5960202 1.7292041 1.0727391 12
6.5995975 1.7289108 0.83297694 18
6.6047497 1.7290289 0.59396642 15
6.611443 1.7295481 0.35614616 13
6.5810714 1.7203758 0.11806552 12
1.8550749 0.4832111 -0.50340325 2
2.1350794 0.55574894 -0.50051636 2
2.507143 0.6521278 -0.49565825 2
3.0864213 0.80222756 -0.49902633 2
4.0045905 1.0401332 -0.50332099 2
5.5958982 1.4524095 -0.50245363 5
6.3396139 1.6442592 -0.34009495 10
6.5846801 1.7065938 -0.11688594 12
6.8633895 1.7775505 1.8881482 16
6.8714519 1.7783589 1.6285383 15
6.88936 1.7817105 1.3744975 14
6.5924535 1.7036979 1.0711765 13
6.5911765 1.7021407 0.83114886 13
6.5914531 1.700985 0.59222329 11
6.6029348 1.702719 0.35536113 13
6.5676723 1.6924031 0.11771648 11
1.8567502 0.47673273 -0.50340325 2
2.1370063 0.54829276 -0.50051636 2
2.5094042 0.64337224 -0.49565825 2
3.0892029 0.79144901 -0.49902633 2
4.0081964 1.0261484 -0.50332099 2
5.6009336 1.4328674 -0.50245363 5
6.345315 1.6221199 -0.34009495 8
6.5905972 1.6835986 -0.11688594 12
6.9444294 1.7726957 1.9088403 16
6.9484305 1.7724253 1.6453968 14
6.9716368 1.7770489 1.3897486 14
6.5887885 1.6782374 1.0696138 12
6.5874596 1.6766746 0.82993019 13
6.5925226 1.6767383 0.59178752 10
6.6039991 1.6784301 0.35509944 13
6.5735397 1.6694674 0.11771648 12
1.858403 0.47024855 -0.50340325 3
2.1389072 0.54082984 -0.50051636 2
2.506876 0.63340652 -0.49470508 2
3.0919466 0.78066087 -0.49902633 2
4.011754 1.0121509 -0.50332099 2
5.6059012 1.4133078 -0.50245363 4
6.3654642 1.6036203 -0.34087735 9
6.5915852 1.6593624 -0.11679955 12
7.0255179 1.7672966 1.9295324 14
7.0301762 1.7671638 1.6633793 14
7.0539641 1.7718343 1.4049996 14
6.5850272 1.6528236 1.0680512 13
6.5884581 1.6524626 0.82932085 13
6.5935044 1.652505 0.59135169 10
6.6001301 1.6529415 0.35457608 14
6.5744772 1.6452975 0.11762921 11
1.8647194 0.46492702 -0.50469732 3
2.1407821 0.53336036 -0.50051636 2
2.5090718 0.62465203 -0.49470508 2
3.0946527 0.76986319 -0.49902633 2
4.0152626 0.99814111 -0.50332099 2
5.6108003 1.3937309 -0.50245363 4
6.3758693 1.5825937 -0.34113818 10
6.5876331 1.6339364 -0.11662677 14
7.1066523 1.7613524 1.9502244 14
7.1166978 1.7625239 1.6824857 14
7.1363387 1.7660663 1.4202505 13
6.5859623 1.628642 1.0672699 12
6.5845504 1.6270734 0.82810217 13
6.5943966 1.6282852 0.59091592 11
6.6010122 1.6286966 0.35431442 14
6.5753264 1.6211416 0.11754195 12
1.866331 0.45841512 -0.50469732 3
2.1426308 0.52588439 -0.50051636 2
2.50647 0.61472082 -0.49375188 2
3.1021178 0.76023161 -0.49980852 2
4.0139027 0.98293883 -0.50271159 2
5.6156311 1.374137 -0.50245363 4
6.4104567 1.567444 -0.34270301 13
6.5932965 1.6109313 -0.11662677 17
7.1925225 1.7560091 1.9722097 14
7.2032719 1.7573013 1.7015921 13
7.2187586 1.7597448 1.4355016 13
6.5820098 1.603305 1.0657073 5
6.5853686 1.6029056 0.82749283 12
6.60004 1.6052566 0.59091592 9
6.5969534 1.6032864 0.35379106 15
6.580945 1.5981795 0.11754195 21
1.8679197 0.45189762 -0.50469732 2
2.1444533 0.51840204 -0.50051636 2
2.5038292 0.6048153 -0.49279872 2
3.1047525 0.74939859 -0.49980852 2
4.0173092 0.96892166 -0.50271159 2
5.6155515 1.3533595 -0.50201786 4
6.4789963 1.5602551 -0.34609354 13
6.5891585 1.5855672 -0.11645398 31
7.2831359 1.7512163 1.9954882 14
7.2946324 1.7526339 1.7218224 13
7.3059931 1.7540147 1.4517058 13
6.5731597 1.5768638 1.0633633 3
6.571619 1.5752811 0.82505542 7
6.5959153 1.579888 0.59004438 9
6.5927982 1.5779246 0.3532677 15
6.5670352 1.5705467 0.1171929 30
1.874184 0.44649386 -0.50599146 2
2.14625 0.51091331 -0.50051636 3
2.5011501 0.59493583 -0.49184549 2
3.112154 0.73969835 -0.50059068 2
4.0254951 0.95603937 -0.50332099 2
5.6202412 1.3337493 -0.50201786 4
6.5815725 1.5606712 -0.35130972 18
nan nan nan 0
7.369103 1.7446995 2.0174735 15
7.3813057 1.7462281 1.7409288 13
7.3932743 1.747697 1.4679099 13
6.6266875 1.5652624 1.0711765 3
6.5625877 1.5489123 0.82322735 4
6.5916939 1.5545677 0.58917284 3
6.5691051 1.54803 0.35169759 6
6.5530133 1.5430307 0.11684385 14
1.880433 0.44105184 -0.50728554 2
2.1480203 0.50341839 -0.50051636 2
2.5032115 0.58620155 -0.49184549 2
3.1147172 0.72883034 -0.50059068 2
4.0288076 0.94198203 -0.50332099 2
5.6200123 1.3129896 -0.50158203 3
6.5772552 1.5354174 -0.35078812 4
6.5757241 1.5338498 -0.11602204 4
7.4598165 1.7386999 2.0407519 15
7.4727678 1.7403435 1.7611591 13
7.4853806 1.7419037 1.4850674 13
6.694644 1.5566617 1.0813335 2
6.6162939 1.5372264 0.82932085 4
6.7038231 1.5563297 0.59875995 7
6.5793333 1.5262185 0.35195929 2
6.6021905 1.5303065 0.11762921 34
1.8819611 0.43448523 -0.50728554 2
2.1497645 0.49591735 -0.50051636 2
2.5052426 0.57746017 -0.49184549 2
3.1172421 0.71795356 -0.50059068 2
4.0369072 0.92902601 -0.50393027 2
5.6245613 1.2933642 -0.50158203 3
6.5728421 1.5102129 -0.35026649 2
nan nan nan 0
7.5458689 1.7310082 2.0627372 15
7.5595279 1.7327526 1.7802653 14
7.5775342 1.7354882 1.5022247 13
6.7818766 1.5520123 1.0946157 2
nan nan nan 0
6.7529178 1.5429047 0.60268199 2
6.7111859 1.5321375 0.35876298 2
6.7780838 1.5461652 0.12068339 22
1.8834662 0.42791331 -0.50728554 2
2.1514823 0.48841023 -0.50051636 3
2.5120296 0.56979752 -0.49279872 2
3.1149132 0.70597643 -0.49980852 2
4.0449657 0.9160251 -0.50453967 2
5.6241837 1.2726237 -0.50114632 3
nan nan nan 0
nan nan nan 0
7.6366687 1.7237999 2.0860157 14
7.6510782 1.7256494 1.8004957 12
7.669734 1.7284504 1.5193821 13
6.8498864 1.5424334 1.1047728 2
6.8060074 1.5313048 0.85186666 2
6.8603153 1.5422658 0.61183333 9
6.833415 1.5349655 0.36504328 10
6.8273401 1.5323492 0.12146875 22
1.8848749 0.42166513 -0.50728554 2
2.1530063 0.48164874 -0.50051636 2
2.5185976 0.56297362 -0.49375188 2
3.1122959 0.69511068 -0.49902633 2
4.0478234 0.90331292 -0.50453967 2
5.6281543 1.2549485 -0.50114632 3
nan nan nan 0
nan nan nan 0
7.7269101 1.7186763 2.1092944 14
7.7468257 1.7216871 1.8218498 12
7.7613745 1.7234991 1.5365394 13
6.9511251 1.5423012 1.120399 2
nan nan nan 0
6.8943048 1.5271692 0.61444795 2
6.8430791 1.5145692 0.36530498 2
6.9590344 1.5389594 0.12373755 78
1.8815464 0.41437367 -0.50599146 2
2.1546743 0.47413045 -0.50051636 2
2.5253413 0.55523264 -0.49470508 2
3.1147034 0.68424255 -0.49902633 2
4.0558 0.89024192 -0.50514901 2
5.627635 1.2342279 -0.50071049 3
nan nan nan 0
nan nan nan 0
7.8225098 1.7113057 2.1338663 13
7.8479819 1.7154429 1.844328 12
7.8536582 1.7152475 1.5536969 12
7.0481415 1.5380331 1.1352439 2
6.990571 1.524192 0.8738032 5
nan nan nan 0
6.9800549 1.519347 0.3723703 5
6.939939 1.5093464 0.12330125 24
1.8830525 0.40747467 -0.50599146 2
2.1516361 0.46520048 -0.49939165 2
2.5321567 0.54700947 -0.49565825 2
3.1171904 0.672822 -0.49902633 2
4.0590353 0.87537068 -0.50514901 2
5.6321211 1.2135934 -0.50071049 3
nan nan nan 0
nan nan nan 0
7.9231691 1.7029212 2.1597311 13
7.9494853 1.7071258 1.866806 12
7.9462762 1.7049859 1.5708543 12
7.1647954 1.5360001 1.153214 10
7.0737534 1.515191 0.88355273 2
nan nan nan 0
7.0881143 1.5156796 0.37786558 2
7.0578685 1.507924 0.12530828 8
1.8844633 0.40089908 -0.50599146 2
2.1532469 0.45768702 -0.49939165 2
2.5388522 0.53918689 -0.49661148 2
3.1195199 0.66193688 -0.49902633 2
4.0620661 0.86119664 -0.50514901 2
5.6314497 1.192894 -0.50027472 2
nan nan nan 0
nan nan nan 0
8.0283022 1.6962206 2.1868896 12
8.0555029 1.7004988 1.8904082 11
8.0578365 1.6995225 1.5918244 11
7.2184377 1.5211644 1.1610272 2
nan nan nan 0
7.2318759 1.52136 0.64320934 2
7.1617713 1.505307 0.38152912 3
nan nan nan 0
1.8858513 0.39431864 -0.50599146 2
2.1548312 0.45016804 -0.49939165 2
2.5407188 0.53032136 -0.49661148 2
3.1218116 0.65104365 -0.49902633 2
4.0650477 0.84701216 -0.50514901 2
5.6355796 1.1732292 -0.50027472 2
nan nan nan 0
nan nan nan 0
8.1382113 1.6897882 2.2153411 12
8.1615696 1.6931523 1.91401 10
8.16465 1.692305 1.6118414 10
7.3252587 1.5169892 1.1774347 2
7.2639713 1.502975 0.90609854 2
7.3005543 1.5092156 0.64887446 3
7.2941198 1.5065581 0.38833275 5
7.2934432 1.5050911 0.12932232 23
1.8872162 0.3877334 -0.50599146 2
2.1563895 0.44264352 -0.49939165 2
2.5473626 0.52243549 -0.49756464 2
3.1240652 0.64014256 -0.49902633 2
4.0679793 0.83281738 -0.50514901 2
5.6396403 1.1535503 -0.50027472 2
nan nan nan 0
nan nan nan 0
8.2481737 1.6826091 2.2437928 12
8.2676821 1.6850858 1.9376122 11
8.2859383 1.6873003 1.6347179 11
7.4369774 1.5130713 1.1946235 2
7.3518491 1.4944154 0.91645741 2
nan nan nan 0
7.348269 1.4910169 0.39094958 2
nan nan nan 0
1.8932923 0.38209882 -0.50728554 2
2.1579216 0.43511364 -0.49939165 2
2.5491705 0.51354033 -0.49756464 2
3.1262805 0.6292336 -0.49902633 2
4.0659962 0.81763399 -0.50453967 2
5.6387496 1.132876 -0.49983895 2
nan nan nan 0
nan nan nan 0
8.3629179 1.6756312 2.2735374 12
8.3786125 1.6772549 1.962338 10
8.4024744 1.6805066 1.6566412 10
nan nan nan 0
7.493288 1.4959477 0.93351912 7
nan nan nan 0
nan nan nan 0
7.5244088 1.4980643 0.13324912 53
1.8946145 0.37548769 -0.50728554 2
2.164206 0.42852464 -0.50051636 2
2.5509477 0.50463897 -0.49756464 2
3.1333027 0.61927456 -0.49980852 2
4.0639567 0.80247462 -0.50393027 2
5.6426697 1.1131862 -0.49983895 2
nan nan nan 0
nan nan nan 0
8.4777136 1.6678727 2.3032823 13
8.4991503 1.6705494 1.9893117 11
8.5190659 1.6729195 1.6785645 11
7.6508999 1.5010478 1.2274386 2
7.5520344 1.4802827 0.94022191 9
nan nan nan 0
nan nan nan 0
7.603188 1.4861757 0.13455805 23
1.891173 0.3679496 -0.50599146 2
2.1656888 0.42096755 -0.50051636 2
2.5478756 0.49479574 -0.49661148 2
3.1354451 0.60833347 -0.49980852 2
4.0667334 0.78828388 -0.50393027 2
5.6465211 1.0934829 -0.49983895 2
nan nan nan 0
nan nan nan 0
8.5972977 1.6602488 2.3343203 12
8.6149588 1.6620996 2.0151615 9
8.6405239 1.665468 1.7014412 10
8.7763224 1.6900545 1.4079213 6
7.644876 1.4707885 0.95119017 2
nan nan nan 0
7.6822109 1.4751905 0.40795875 2
7.7310719 1.4831742 0.1367396 27
1.8924458 0.36134595 -0.50599146 2
2.167145 0.4134053 -0.50051636 2
2.5447655 0.48498005 -0.49565825 2
3.1375496 0.59738505 -0.49980852 2
4.0694599 0.7740835 -0.50393027 2
5.6503038 1.0737662 -0.49983895 3
nan nan nan 0
nan nan nan 0
8.7311668 1.6545076 2.3692381 12
8.7355957 1.6537676 2.0421352 11
8.7572088 1.6562759 1.7233645 12
8.845253 1.6713293 1.4180783 31
7.7718787 1.467108 0.96642387 2
7.8641977 1.4831138 0.69681019 5
7.7952633 1.4687046 0.41371572 2
7.8197222 1.4718995 0.13822305 40
1.8936956 0.35473788 -0.50599146 2
2.1685748 0.40583804 -0.50051636 2
2.5416183 0.47519219 -0.49470508 2
3.1347613 0.58552259 -0.49902633 2
4.0721374 0.75987369 -0.50393027 2
5.6540174 1.0540364 -0.49983895 2
nan nan nan 0
nan nan nan 0
8.836607 1.6425557 2.3963962 13
8.8610697 1.6455029 2.0702329 19
8.8594551 1.6436036 1.7424281 22
8.9675741 1.6620429 1.4368297 17
7.8940678 1.461655 0.98104823 2
7.9721823 1.4746795 0.70596147 3
7.9280028 1.4650763 0.42051938 5
7.9477162 1.4672849 0.14040461 22
1.8901722 0.34725282 -0.50469732 2
2.1699784 0.39826584 -0.50051636 2
2.5384338 0.46543217 -0.49375188 2
3.1367862 0.57457662 -0.49902633 2
4.0747647 0.74565464 -0.50393027 2
5.6625619 1.0351895 -0.50027472 2
nan nan nan 0
8.044239 1.4676892 -0.14064324 11
8.866045 1.6160308 2.4028628 12
8.9146919 1.6232902 2.0814719 11
9.0003529 1.6372653 1.7691175 7
9.1142321 1.6563381 1.4594878 10
7.9918966 1.4509339 0.99262571 2
8.0605984 1.4619538 0.71336973 2
8.0067654 1.4507467 0.42444459 3
8.0708532 1.4609039 0.1424989 45
1.8913728 0.34065276 -0.50469732 2
2.1713552 0.39068878 -0.50051636 2
2.5400429 0.45656857 -0.49375188 2
3.1387727 0.56362373 -0.49902633 2
4.0724583 0.73055029 -0.50332099 2
5.666141 1.0154172 -0.50027472 2
nan nan nan 0
8.0936041 1.447522 -0.14142075 2
8.8716316 1.5850726 2.4028628 13
9.102561 1.6246927 2.1241803 7
9.1509752 1.6316862 1.797713 6
9.2560949 1.6487631 1.4813644 9
nan nan nan 0
8.1980629 1.4573463 0.72513574 2
nan nan nan 0
8.2186518 1.458047 0.14502949 59
1.8877943 0.3332091 -0.50340325 2
2.1727057 0.38310695 -0.50051636 2
2.5464551 0.44855085 -0.49470508 2
3.1407208 0.55266398 -0.49902633 2
4.070096 0.71547115 -0.50271159 2
5.6745567 0.996494 -0.50071049 2
nan nan nan 0
nan nan nan 0
8.8771114 1.5540951 2.4028628 13
9.2617521 1.6197674 2.1601453 7
9.3016672 1.6250752 1.8263088 15
9.3931503 1.6393685 1.5024598 9
8.2413912 1.4368719 1.0224837 2
nan nan nan 0
nan nan nan 0
8.3024969 1.4430469 0.14642568 26
1.8888888 0.32694709 -0.50340325 2
2.1738987 0.37627932 -0.50051636 2
2.5478518 0.44054875 -0.49470508 2
3.1424417 0.54279435 -0.49902633 2
4.0674334 0.70183718 -0.50210226 2
5.6776595 0.97866201 -0.50071049 2
nan nan nan 0
nan nan nan 0
8.8771896 1.5253814 2.4015694 13
9.4108496 1.6153901 2.1938624 6
9.4470196 1.6199014 1.8539512 11
9.5345507 1.6331975 1.5243365 9
8.4072886 1.4385957 1.0425922 5
nan nan nan 0
nan nan nan 0
8.4252644 1.4371313 0.14851998 28
1.8899627 0.32068151 -0.50340325 2
2.1703956 0.36787459 -0.49939165 2
2.5542133 0.43247175 -0.49565825 2
3.1443172 0.53182191 -0.49902633 2
4.0600715 0.68598139 -0.50088358 2
5.6859527 0.95966625 -0.50114632 2
nan nan nan 0
8.5170174 1.4344316 -0.14859113 2
8.877697 1.4935837 2.4002762 13
9.5653753 1.6075618 2.2287035 7
9.5929937 1.6104819 1.8815937 12
9.676568 1.622776 1.5462132 10
8.51015 1.4256388 1.0547791 5
8.5710201 1.4342979 0.75694758 2
nan nan nan 0
8.5682964 1.4307679 0.15096331 36
1.8911253 0.31375229 -0.50340325 2
2.1717293 0.35991722 -0.49939165 2
2.5606239 0.42390889 -0.49661148 2
3.1462455 0.52029383 -0.49902633 2
4.0478687 0.66866928 -0.4990555 2
5.6894317 0.93881977 -0.50114632 2
nan nan nan 0
8.6208744 1.4194496 -0.15031895 2
8.883111 1.4610351 2.4002762 12
9.7106218 1.5953981 2.2612967 6
9.7296066 1.5967731 1.9073298 10
9.8237839 1.6104681 1.5688711 18
8.618165 1.4112799 1.0675755 2
8.7286043 1.4278008 0.77045679 3
nan nan nan 0
9.8563089 1.6087352 0.17365143 61
1.8922091 0.30714911 -0.50340325 3
2.1681633 0.35155448 -0.49826688 2
2.562088 0.41496804 -0.49661148 2
3.1480424 0.50930822 -0.49902633 2
4.0795736 0.65928602 -0.50271159 2
5.6975908 0.91974789 -0.50158203 2
8.8024454 1.4193804 -0.46371838 3
8.9712725 1.4449972 -0.15636626 27
8.8833885 1.4292512 2.3989828 12
9.8748732 1.5870035 2.2983856 16
9.8998938 1.589252 1.9397383 10
9.9073658 1.5886778 1.5813721 5
9.8481064 1.5774124 1.2199122 31
9.9385471 1.5901197 0.87722254 20
9.9285097 1.5867366 0.52492964 18
10.059334 1.6058439 0.1771419 58
1.8980396 0.30129942 -0.50469732 3
2.1741891 0.34474707 -0.49939165 2
2.5683684 0.40678996 -0.49756464 2
3.149801 0.49831641 -0.49902633 2
4.1014576 0.64814019 -0.50514901 2
5.7007666 0.899854 -0.50158203 2
9.0145016 1.4213076 -0.47467238 24
8.9910755 1.4160058 -0.15662542 15
8.8883238 1.3982337 2.3989828 12
10.005491 1.5721873 2.3276072 11
10.075094 1.5813223 1.9730997 9
10.117767 1.5862108 1.6141871 10
9.9859324 1.5637566 1.2363644 10
10.12612 1.5838989 0.89334637 7
10.086921 1.5759639 0.53304166 4
10.247639 1.5992421 0.18037061 60
1.8990798 0.29467219 -0.50469732 3
2.1753793 0.33715558 -0.49939165 2
2.5697727 0.3978222 -0.49756464 2
3.1466408 0.48656386 -0.49824417 2
4.1233134 0.63684946 -0.50758636 2
5.708796 0.88070863 -0.50201786 3
9.4339428 1.4537096 -0.49658033 8
9.1194906 1.4036252 -0.15878518 2
8.8931494 1.3671991 2.3989828 12
10.193911 1.5653518 2.3703156 11
10.250357 1.5721884 2.0064614 9
10.352679 1.5860332 1.6509087 14
10.182651 1.5581659 1.260129 11
10.289148 1.5726247 0.90729129 7
10.339158 1.5784215 0.54612565 11
10.406363 1.586823 0.18307573 58
1.9048718 0.28876522 -0.50599146 3
2.176543 0.32956007 -0.49939165 2
2.5662928 0.38811567 -0.49661148 2
3.1483202 0.47557706 -0.49824417 2
4.1058826 0.61949098 -0.50514901 2
5.7167606 0.86151814 -0.50245363 2
9.468585 1.4252294 -0.49814522 9
9.4110689 1.4148922 -0.16379581 5
8.8978682 1.3361479 2.3989828 12
10.329403 1.5492709 2.4006608 10
10.420823 1.5611228 2.0388699 9
10.533983 1.5761956 1.6790359 14
10.349998 1.5468192 1.2802374 11
10.471926 1.5631729 0.92297935 7
10.497701 1.5651474 0.55423778 9
10.57996 1.5755241 0.18604264 59
1.9058683 0.28211424 -0.50599146 3
2.17768 0.32196051 -0.49939165 2
2.567632 0.37915525 -0.49661148 2
3.1548467 0.46530503 -0.49902633 2
4.1080203 0.60515499 -0.50514901 2
5.7197332 0.84155762 -0.50245363 2
9.4685631 1.3914434 -0.49788439 7
10.682194 1.5678866 -0.18591172 17
8.9024782 1.3050804 2.3989828 12
10.34921 1.5153226 2.4040327 10
10.596191 1.5495963 2.0722313 9
10.725118 1.5665387 1.7087257 14
10.537033 1.5371883 1.3027833 10
10.630115 1.5488728 0.93648845 8
10.656274 1.5507851 0.56234986 11
10.768442 1.5651894 0.18927133 62
1.9116213 0.27615029 -0.50728554 3
2.1836123 0.31505269 -0.50051636 2
2.5640814 0.36949015 -0.49565825 2
3.1564517 0.45428973 -0.49902633 2
4.105195 0.59010553 -0.50453967 2
5.7275667 0.82229477 -0.50288939 2
9.4585342 1.3562572 -0.49710196 4
10.806372 1.5475984 -0.18798508 20
8.9117613 1.274681 2.4002762 11
10.349612 1.4784987 2.4029088 9
10.771605 1.5368643 2.105593 10
10.911421 1.5548695 1.7376342 14
10.724123 1.5262704 1.3253291 10
10.817918 1.537693 0.95261222 16
10.814874 1.5353345 0.57046187 30
10.887685 1.5437328 0.19127837 81
1.9125736 0.26947579 -0.50728554 3
2.1846988 0.30742854 -0.50051636 2
2.5653555 0.36053759 -0.49565825 2
3.1580181 0.4432689 -0.49902633 2
4.1023149 0.5750832 -0.50393027 2
5.730402 0.80229676 -0.50288939 2
9.5126619 1.3301473 -0.49971005 5
10.994902 1.5354511 -0.19118151 11
8.9209404 1.2442324 2.4015694 11
10.34506 1.4410186 2.4006608 9
10.942194 1.5222497 2.1380014 8
11.107553 1.5432779 1.7681053 12
10.852277 1.5058793 1.3405627 28
10.981103 1.5218021 0.9665572 9
10.973492 1.5187954 0.57857394 10
11.120806 1.5372064 0.19529241 34
1.9135026 0.26279801 -0.50728554 3
2.1857586 0.29980063 -0.50051636 2
2.5665984 0.35158062 -0.49565825 2
3.1595461 0.43224266 -0.49902633 2
4.1042976 0.5607599 -0.50393027 2
5.7331676 0.78228909 -0.50288939 2
9.5122995 1.2962594 -0.49944925 5
11.2132 1.526051 -0.19489628 9
8.9348001 1.214386 2.404156 11
10.340372 1.4035882 2.3984132 9
11.161448 1.513056 2.1799417 7
11.318418 1.5323232 1.8009202 13
11.088612 1.4992408 1.369202 8
11.198603 1.5121219 0.98529565 7
11.221197 1.5131786 0.59139633 8
11.324285 1.5250674 0.19878289 30
1.9144082 0.25611705 -0.50728554 3
2.1867917 0.29216909 -0.50051636 2
2.5678101 0.34261936 -0.49565825 2
3.1610358 0.42121112 -0.49902633 2
4.1062298 0.54642981 -0.50393027 2
5.7358632 0.76227188 -0.50288939 2
9.5217161 1.2637044 -0.49971005 4
11.377048 1.5079199 -0.19766077 4
8.9485607 1.1844578 2.4067423 11
10.335547 1.366208 2.3961654 8
11.375904 1.5017077 2.2209287 8
11.524442 1.5192695 1.832954 13
11.300429 1.4877315 1.3947946 7
11.44086 1.5041881 1.0062131 5
11.384831 1.4948003 0.59977007 4
11.636862 1.5258253 0.20419315 4
1.9152907 0.24943295 -0.50728554 3
2.1877985 0.28453398 -0.50051636 2
2.5689905 0.33365396 -0.49565825 2
3.1624868 0.41017449 -0.49902633 2
4.1130338 0.53273052 -0.50453967 2
5.7384892 0.74224532 -0.50288939 3
9.5112123 1.2285408 -0.49892762 4
12.577161 1.6223303 -0.21848081 34
8.9574318 1.1538314 2.4080355 11
10.335422 1.3295003 2.3950415 8
11.590414 1.4888803 2.2619159 8
11.73541 1.505424 1.865769 13
11.625516 1.4892646 1.4344021 3
12.577463 1.6089808 1.1060064 16
nan nan nan 0
12.584335 1.6053954 0.22077292 88
1.9161496 0.24274582 -0.50728554 3
2.1887782 0.2768954 -0.50051636 2
2.5750093 0.32529968 -0.49661148 2
3.1638992 0.39913288 -0.49902633 2
4.1148686 0.51837015 -0.50453967 2
5.7361031 0.72158802 -0.50245363 3
9.5055342 1.1940881 -0.49840599 4
12.572827 1.5771735 -0.21830802 31
8.9661961 1.1231574 2.4093289 10
10.339999 1.2934148 2.3950415 8
11.80984 1.4751816 2.3038561 8
11.95132 1.4907354 1.8993654 13
11.9212 1.4848657 1.4703535 5
12.57806 1.5644526 1.1055706 38
11.835992 1.4700569 0.62305951 25
11.776221 1.4605464 0.20646197 78
1.9169853 0.23605573 -0.50728554 3
2.1897314 0.26925346 -0.50051636 2
2.5761292 0.31630924 -0.49661148 2
3.1652732 0.38808638 -0.49902633 2
4.116653 0.50400341 -0.50453967 2
5.7385869 0.70156085 -0.50245363 2
9.499733 1.1596904 -0.49788439 3
nan nan nan 0
8.9700623 1.0918527 2.4093289 6
10.349288 1.2579014 2.3961654 9
12.014692 1.4581947 2.3429368 8
12.177073 1.4757458 1.9345244 12
11.832701 1.4319158 1.4587759 17
11.802134 1.4261267 1.0367175 5
11.796435 1.4233493 0.62070441 17
nan nan nan 0
1.9177976 0.22936277 -0.50728554 3
2.1906581 0.26160824 -0.50051636 2
2.5772176 0.30731496 -0.49661148 2
3.1666086 0.37703514 -0.49902633 2
4.1183872 0.48963055 -0.50453967 2
5.7360544 0.68093801 -0.50201786 2
9.5037231 1.1265231 -0.49788439 3
12.399842 1.4676198 -0.2151116 3
8.9690228 1.0599679 2.4080355 10
10.358455 1.222339 2.3972893 9
12.219566 1.4397954 2.3820176 9
12.427386 1.4620831 1.97359 13
11.896773 1.3975514 1.4660882 3
12.143441 1.4243795 1.0663505 2
nan nan nan 0
12.570665 1.4700431 0.22024935 42
1.9185865 0.22266701 -0.50728554 3
2.1915576 0.25395983 -0.50051636 2
2.5831501 0.29888105 -0.49756464 2
3.1679053 0.36597931 -0.49902633 2
4.1200709 0.4752517 -0.50453967 2
5.7383966 0.66091126 -0.50201786 2
9.507597 1.0933419 -0.49788439 3
12.63832 1.4511298 -0.21917193 24
8.9726677 1.0286536 2.4080355 10
10.367499 1.1867279 2.3984132 9
12.322048 1.4082789 2.4010813 7
12.648311 1.443331 2.0079675 11
12.532725 1.4279256 1.5440845 5
12.658092 1.4399712 1.1112357 7
12.644536 1.4361938 0.66492832 7
12.724742 1.4430542 0.22286721 61
1.9193522 0.21596853 -0.50728554 3
2.192431 0.2463083 -0.50051636 3
2.5890558 0.29040948 -0.49851784 3
3.1740713 0.35546866 -0.49980852 2
4.1217051 0.46086708 -0.50453967 2
5.7406688 0.64087653 -0.50201786 2
9.5113554 1.0601476 -0.49788439 4
12.797335 1.4241457 -0.22185004 12
8.9714031 0.99679351 2.4067423 10
10.376421 1.1510686 2.3995371 9
12.326889 1.3652585 2.4010813 7
12.928157 1.4295676 2.0517211 10
12.710279 1.4032297 1.5654116 20
12.875933 1.4192435 1.1299742 13
12.852963 1.4144412 0.67565715 10
12.993075 1.427565 0.22749211 61
1.9152932 0.20874417 -0.50599146 3
2.1981208 0.23918083 -0.50164115 3
2.594933 0.28190032 -0.49947101 3
3.1752927 0.34438691 -0.49980852 2
4.1232886 0.44647685 -0.50453967 2
5.7379189 0.62029856 -0.50158203 2
9.5100336 1.0264045 -0.49762359 3
13.090516 1.4105296 -0.22686067 12
8.970027 0.96495479 2.4054492 11
10.385219 1.1153613 2.4006608 9
12.312059 1.3201282 2.3972685 6
13.203147 1.413342 2.0946929 10
12.942095 1.3831128 1.5934416 12
13.133405 1.4012395 1.1521989 13
13.1309 1.3986545 0.69004953 10
13.291281 1.4133916 0.23264056 60
1.9160101 0.20205729 -0.50599146 2
2.1989424 0.2315065 -0.50164115 2
2.6007826 0.27335364 -0.50042421 3
3.1715641 0.33278561 -0.49902633 2
4.1297579 0.4325982 -0.50514901 2
5.7400489 0.60026574 -0.50158203 2
9.5135593 0.99320209 -0.49762359 3
13.368836 1.393329 -0.23161212 12
8.9685373 0.93313789 2.404156 11
10.393894 1.0796065 2.4017847 9
12.33612 1.2791679 2.4010813 6
13.48309 1.395722 2.1384463 10
13.243031 1.3685359 1.6300024 12
13.405768 1.3829886 1.1757309 13
13.408881 1.3809445 0.70444196 10
13.559703 1.3940856 0.23726544 62
1.9167038 0.19536792 -0.50599146 3
2.1997371 0.22382934 -0.50164115 2
2.6066041 0.26476955 -0.5013774 3
3.1727064 0.32171276 -0.49902633 2
4.1312428 0.41818002 -0.50514901 2
5.737154 0.57972485 -0.50114632 2
9.5120001 0.95948637 -0.49736276 3
13.657144 1.3752038 -0.23653635 11
8.9669333 0.90134311 2.4028628 11
10.412144 1.044778 2.4051566 9
12.335628 1.23561 2.4001281 5
13.787639 1.3786216 2.1861062 9
13.509451 1.3484243 1.6622977 13
13.668249 1.3618653 1.1983914 12
13.696833 1.362299 0.71935767 11
13.857999 1.3758862 0.24241391 59
1.917374 0.18867619 -0.50599146 2
2.1956563 0.21567319 -0.50051636 2
2.6075125 0.25566921 -0.5013774 3
3.17381 0.31063601 -0.49902633 2
4.127738 0.40327418 -0.50453967 2
5.7391424 0.55969489 -0.50114632 2
9.5103207 0.92579365 -0.49710196 2
13.955433 1.3560498 -0.24163339 11
8.9700251 0.8700372 2.4028628 11
10.425426 1.0093654 2.4074044 5
12.339865 1.1925431 2.4001281 6
14.102059 1.36036 2.2353289 9
13.810469 1.3297988 1.6988585 11
13.985281 1.3441678 1.2258455 11
13.989782 1.3421364 0.7345351 9
14.166283 1.3565739 0.2477369 57
1.9180211 0.18198216 -0.50599146 2
2.1963956 0.2080076 -0.50051636 2
2.6035025 0.24610381 -0.50042421 3
3.1699586 0.29909155 -0.49824417 2
4.1340618 0.38932854 -0.50514901 2
5.7361021 0.53919196 -0.50071049 2
9.518466 0.89305723 -0.49736276 3
14.273663 1.3366939 -0.24707596 10
8.9681988 0.8382712 2.4015694 11
10.45314 0.97523063 2.4130239 18
12.343953 1.1494617 2.4001281 6
14.411599 1.3394626 2.2837701 10
14.131282 1.3109214 1.7378567 10
14.32715 1.3265696 1.2554785 10
14.302643 1.3217827 0.75075924 9
14.48953 1.3365034 0.25332165 57
1.9186447 0.17528591 -0.50599146 2
2.1971085 0.20033948 -0.50051636 2
2.6043456 0.23701438 -0.50042421 3
3.1709833 0.28802451 -0.49824417 2
4.1304526 0.37444752 -0.50453967 2
5.7379494 0.51916599 -0.50071049 2
9.5264988 0.86027527 -0.49762359 2
14.591924 1.3151329 -0.25251853 9
8.9710703 0.80696124 2.4015694 11
10.43222 0.93655819 2.4074044 13
12.34789 1.1063663 2.4001281 6
14.726081 1.3168606 2.3329926 9
14.447187 1.2893791 1.7762456 11
14.664104 1.3061588 1.2846756 11
14.640396 1.3014716 0.76829177 9
14.827745 1.3155179 0.25916821 57
1.9192448 0.16858752 -0.50599146 2
2.1929414 0.19224349 -0.49939165 2
2.6002674 0.22749428 -0.49947101 2
3.1768889 0.27738351 -0.49902633 2
4.1317348 0.36002728 -0.50453967 2
5.7397265 0.49913365 -0.50071049 2
9.5344181 0.82744801 -0.49788439 2
14.969971 1.296542 -0.25899783 9
8.9738331 0.77564138 2.4015694 11
10.425715 0.89929986 2.4051566 12
12.351677 1.0632573 2.4001281 6
15.035658 1.2916563 2.381434 10
14.772999 1.2664948 1.8158531 10
15.001084 1.2834114 1.3138728 11
14.978179 1.2788184 0.78582436 8
15.170968 1.2926114 0.26510203 54
1.9198216 0.16188706 -0.50599146 2
2.1984534 0.18499602 -0.50051636 2
2.6010458 0.21841629 -0.49947101 2
3.1778381 0.26629239 -0.49902633 2
4.1329665 0.34560263 -0.50453967 2
5.7414341 0.47909519 -0.50071049 2
9.5422239 0.79457599 -0.49814522 3
15.328134 1.2736719 -0.2651315 8
8.9764853 0.74431217 2.4015694 11
10.41908 0.86209828 2.4029088 12
12.355313 1.0201355 2.4001281 6
15.118824 1.2456523 2.393935 8
15.123552 1.2433845 1.8585074 9
15.372831 1.2611778 1.3461205 10
15.350812 1.2566742 0.80518866 8
15.55407 1.2705808 0.27173394 53
1.920375 0.15518466 -0.50599146 3
2.1990857 0.17732085 -0.50051636 2
2.5969 0.20894198 -0.49851784 2
3.1787481 0.25519806 -0.49902633 2
4.1390944 0.33157006 -0.50514901 2
5.7430716 0.45905095 -0.50071049 3
9.5499163 0.7616595 -0.49840599 2
15.706248 1.2499028 -0.27161077 8
8.9790287 0.71297383 2.4015694 11
10.417169 0.82533884 2.4017847 12
12.353906 0.97661436 2.3991749 7
15.103387 1.1913168 2.3908095 7
15.498857 1.2197887 1.9042084 8
15.749566 1.2367542 1.3788038 10
15.728448 1.2323337 0.82481462 8
15.932212 1.245501 0.27827862 52
1.920905 0.14848036 -0.50599146 3
2.2045491 0.17001815 -0.50164115 2
2.5927196 0.19949925 -0.49756464 2
3.1796196 0.24410062 -0.49902633 2
4.1402264 0.31711993 -0.50514901 2
5.7446389 0.43900108 -0.50071049 2
9.5525169 0.72831935 -0.49840599 2
15.974712 1.2151672 -0.27618945 4
8.9814625 0.68162686 2.4015694 11
10.415129 0.78860331 2.4006608 12
12.362134 0.93385494 2.4001281 6
15.107453 1.1385889 2.3908095 7
15.874178 1.1935877 1.9499094 8
16.126312 1.2097154 1.4114872 8
16.111074 1.2057445 0.8447023 7
16.345263 1.2204022 0.2854341 50
1.9214115 0.14177424 -0.50599146 3
2.2051291 0.16232181 -0.50164115 2
2.5982955 0.19080725 -0.49851784 2
3.1804521 0.23300017 -0.49902633 2
4.1462579 0.30302766 -0.50575835 2
5.7461362 0.41894588 -0.50071049 2
9.5599813 0.69533271 -0.49866679 2
nan nan nan 0
8.9886045 0.65062022 2.4028628 11
10.417818 0.75224292 2.4006608 12
12.380004 0.89175516 2.4029877 4
15.101485 1.0851393 2.3892469 7
16.284149 1.1672646 1.9998759 7
16.552742 1.1836138 1.4485284 8
16.503664 1.1772093 0.86511326 7
16.75334 1.1920799 0.29250231 47
1.9218947 0.1350664 -0.50599146 2
2.2056823 0.15462348 -0.50164115 2
2.6038418 0.18207872 -0.49947101 2
3.181246 0.22189692 -0.49902633 2
4.1472907 0.28855267 -0.50575835 2
5.7376251 0.39819586 -0.49983895 2
9.5623493 0.66195786 -0.49866679 2
nan nan nan 0
8.9908209 0.61924016 2.4028628 11
10.415521 0.71553952 2.3995371 11
12.427114 0.85155547 2.4115663 16
15.095325 1.0317451 2.3876843 7
16.699076 1.1384311 2.0504515 7
16.994087 1.1555634 1.486877 7
16.951044 1.1496642 0.88840288 6
17.211292 1.1642972 0.30044317 46
1.9223545 0.12835692 -0.50599146 3
2.2062085 0.14692329 -0.50164115 2
2.6093593 0.17331381 -0.50042421 2
3.1820014 0.21079093 -0.49902633 2
4.1482725 0.27407417 -0.50575835 2
5.7340097 0.37783787 -0.49940318 2
9.5695848 0.62890249 -0.49892762 2
14.365284 0.9415524 -0.24811265 6
8.9977474 0.58816767 2.404156 11
10.417955 0.67917818 2.3995371 11
12.400622 0.80626082 2.4058473 12
15.108693 0.97968549 2.3892469 7
17.13876 1.1083163 2.104074 6
17.480173 1.127331 1.5291475 7
17.43829 1.1215736 0.91378576 6
17.704172 1.1355715 0.30899483 73
1.9276106 0.12195079 -0.50728554 3
2.206708 0.13922128 -0.50164115 2
2.6197455 0.16482078 -0.5023306 2
3.1827176 0.19968238 -0.49902633 2
4.1541567 0.25990218 -0.50636768 2
5.7253513 0.35719982 -0.49853161 2
9.571722 0.59549457 -0.49892762 2
14.373472 0.89171207 -0.24819903 6
9.0045662 0.55705428 2.4054492 11
10.420262 0.64280862 2.3995371 12
12.393562 0.76236695 2.4039409 12
15.121878 0.92754495 2.3908095 7
17.627964 1.0781749 2.16379 6
17.787277 1.0848029 1.5557301 7
17.771038 1.0806993 0.93105662 7
18.696062 1.1336772 0.32627273 116
1.9280045 0.11555794 -0.50728554 2
2.2022712 0.13199654 -0.50051636 2
2.634949 0.1574682 -0.50519013 2
3.1833293 0.18968262 -0.49902633 2
4.1499991 0.24655595 -0.50575835 2
5.7264452 0.33921134 -0.49853161 2
9.5735455 0.56542122 -0.49892762 2
14.371212 0.84625822 -0.24811265 7
9.0207357 0.52961206 2.4093289 11
10.427094 0.61035395 2.4006608 12
12.395897 0.72342771 2.4039409 13
15.134578 0.88060737 2.3923721 7
18.156433 1.0532548 2.2283809 6
18.77021 1.0855731 1.6415783 8
18.766335 1.0820626 0.98313093 10
18.714504 1.0757971 0.32653451 76
1.928377 0.10916381 -0.50728554 3
2.2027185 0.12430837 -0.50051636 2
2.6158803 0.14716677 -0.5013774 2
3.1839721 0.17856957 -0.49902633 2
4.1508346 0.23206824 -0.50575835 2
5.7325673 0.31949744 -0.49896741 2
9.5804462 0.53227687 -0.49918842 3
14.364095 0.79553527 -0.24793985 7
9.0321741 0.49865311 2.4119153 5
10.42916 0.57395285 2.4006608 12
12.393445 0.67988473 2.4029877 13
15.152354 0.82858151 2.3947163 7
18.680313 1.0182321 2.2923622 6
18.957912 1.0300449 1.6577023 7
18.894644 1.0233001 0.9896729 6
19.182398 1.0355265 0.33464986 24
1.9287821 0.10175858 -0.50728554 3
2.2031796 0.11584964 -0.50051636 2
2.6164262 0.13712145 -0.5013774 2
3.1797025 0.16608512 -0.49824417 2
4.1566505 0.21638651 -0.50636768 2
5.7387266 0.29774177 -0.49940318 3
9.5824194 0.49548677 -0.49918842 3
14.362051 0.74011809 -0.24785347 7
9.053318 0.46495938 2.4170885 18
10.436152 0.53415263 2.4017847 12
12.395965 0.63229239 2.4029877 13
15.155424 0.77039468 2.3947163 5
19.239199 0.97461838 2.3606091 6
nan nan nan 0
19.661421 0.98912674 1.0297099 9
19.72048 0.98864734 0.3439869 80
1.9291254 0.095025264 -0.50728554 3
2.2035706 0.1081584 -0.50051636 2
2.607084 0.12750804 -0.49947101 2
3.180263 0.15498488 -0.49824417 2
4.1772079 0.20283855 -0.50880504 2
5.7447062 0.27794877 -0.49983895 2
9.5840912 0.46203485 -0.49918842 3
14.359554 0.68974084 -0.24776709 6
9.0404119 0.43266192 2.4132087 14
10.44282 0.49795249 2.4029088 13
12.393193 0.58878559 2.4020345 13
15.148154 0.71702069 2.3931534 6
19.624187 0.92545599 2.4075286 7
nan nan nan 0
nan nan nan 0
20.043417 0.93470186 0.34957168 70
1.93427 0.088511549 -0.50857961 3
2.2039347 0.10046585 -0.50051636 2
2.6075132 0.11840685 -0.49947101 2
3.1758509 0.14365956 -0.49746197 2
4.1729331 0.18803276 -0.50819576 2
5.7456412 0.25789431 -0.49983895 2
9.5856457 0.4285773 -0.49918842 3
14.35688 0.63939005 -0.24768071 7
9.032217 0.40067428 2.4106221 14
10.449362 0.4617123 2.4040327 13
12.395172 0.54552168 2.4020345 13
15.140697 0.66370684 2.3915908 7
19.622343 0.85673279 2.4069195 5
20.067701 0.8726685 1.7540094 28
20.091867 0.87020606 1.0519527 32
20.066536 0.86559999 0.34992072 26
1.9345672 0.081759147 -0.50857961 3
2.204272 0.092772067 -0.50051636 2
2.6128144 0.10950974 -0.50042421 2
3.1763332 0.1325729 -0.49746197 2
nan nan nan 0
5.7514834 0.23804268 -0.50027472 2
9.5820942 0.39490893 -0.49892762 2
14.354029 0.58906627 -0.24759431 7
9.0239086 0.36874908 2.4080355 14
10.455778 0.42543247 2.4051566 12
12.397001 0.50225115 2.4020345 13
15.133052 0.61045378 2.3900285 7
19.684717 0.79062265 2.4142315 7
20.08058 0.80301189 1.7548809 25
20.084805 0.7996698 1.0514294 25
20.059443 0.7951535 0.3497462 26
1.9300017 0.075155519 -0.50728554 3
2.2094209 0.08603628 -0.50164115 2
2.6180503 0.10149094 -0.5013774 2
3.176734 0.12259353 -0.49746197 2
nan nan nan 0
5.752203 0.21997271 -0.50027472 2
9.5782967 0.36461404 -0.49866679 3
14.355809 0.54396892 -0.24759431 8
9.0153694 0.3400338 2.4054492 14
10.457063 0.39258263 2.4051566 9
12.398519 0.4633024 2.4020345 13
15.125025 0.56254184 2.3884656 7
19.672228 0.72822678 2.4124036 7
20.07305 0.73955619 1.7540094 26
20.062267 0.73565274 1.0501208 19
20.056847 0.73194873 0.34965894 25
1.9302404 0.068754986 -0.50728554 3
2.2048388 0.078150846 -0.50051636 2
2.6183887 0.09235163 -0.5013774 3
3.1771426 0.11150391 -0.49746197 2
nan nan nan 0
5.7529359 0.19989245 -0.50027472 2
9.5795116 0.33117735 -0.49866679 2
14.352624 0.49368265 -0.24750791 9
9.0116749 0.30839702 2.404156 14
10.4535 0.35591251 2.4040327 12
12.40006 0.4200207 2.4020345 12
15.117025 0.50940961 2.386903 7
19.679607 0.65971965 2.4130127 8
20.07053 0.66931766 1.7535735 28
20.064713 0.66561788 1.0501208 19
20.05928 0.66193283 0.34965894 25
1.93049 0.061342906 -0.50728554 2
2.2002532 0.069530457 -0.49939165 2
2.6187239 0.082297087 -0.5013774 2
3.1824834 0.099458024 -0.49824417 2
nan nan nan 0
5.7536607 0.17780134 -0.50027472 2
9.5757217 0.29423895 -0.49840599 2
14.354414 0.43856898 -0.24750791 8
9.0079651 0.27364582 2.4028628 15
