# .PCD v0.7 - Point Cloud Data file format
VERSION 0.7
FIELDS x y z intensity
SIZE 4 4 4 4
TYPE F F F F
COUNT 1 1 1 1
WIDTH 1335
HEIGHT 1
VIEWPOINT 0 0 0 1 0 0 0
POINTS 1335
DATA ascii
-0.7221688 2.219969 -0.20089431 12
-0.71734774 2.2064583 -0.11918971 10
-0.71936339 2.2139721 -0.039566711 7
-0.7188822 2.2138057 0.61300153 13
-0.71865344 2.214417 0.52823532 14
-0.71595269 2.207407 0.44323257 12
-0.71990842 2.2209241 0.36330932 14
-0.71380526 2.2034068 0.27969012 14
-0.7236712 2.2351918 0.20220132 11
-0.72040856 2.2264404 0.12063438 6
-0.71319288 2.2054543 0.039791483 6
-0.59829015 1.8567723 -0.5124619 4
-0.68223858 2.1185699 -0.50501537 5
-0.71695709 2.2277148 -0.44704565 12
-0.71182382 2.213089 -0.36214611 12
-0.71487904 2.2239194 -0.28212786 9
-0.71250379 2.2178588 -0.20045851 12
-0.70925587 2.2090726 -0.11918971 10
-0.71124393 2.2165937 -0.039566711 7
-0.70928848 2.2118266 0.61170834 13
-0.71053237 2.217036 0.52823532 14
-0.70785731 2.2100165 0.44323257 13
-0.71176356 2.2235479 0.36330932 15
-0.7057246 2.2060082 0.27969012 14
-0.71395707 2.2330847 0.20176555 11
-0.71072358 2.2243097 0.1203727 6
-0.70510471 2.2080536 0.039791483 5
-0.59180516 1.8588494 -0.5124619 4
-0.6748392 2.1209385 -0.50501537 5
-0.70768917 2.2255263 -0.44609243 12
-0.70409429 2.2155602 -0.36214611 12
-0.70711178 2.2264011 -0.28212786 9
-0.70475769 2.2203324 -0.20045851 12
-0.70003062 2.2067754 -0.11892891 10
-0.7019915 2.2142975 -0.039480317 7
-0.70010465 2.2096846 0.61041504 13
-0.70131838 2.2148581 0.52711141 13
-0.69865769 2.207794 0.44227937 12
-0.70250827 2.2213099 0.362528 14
-0.69652426 2.2037263 0.27908078 15
-0.7061578 2.2355633 0.20176555 11
-0.70145184 2.2220156 0.12011101 6
-0.69588232 2.2057357 0.039704222 6
-0.58531296 1.8609039 -0.5124619 4
-0.66743165 2.1232812 -0.50501537 5
-0.6999163 2.227983 -0.44609243 12
-0.6963563 2.2180045 -0.36214611 12
-0.69785017 2.2241209 -0.28151849 10
-0.69551259 2.2180262 -0.20002273 12
-0.69083011 2.2044408 -0.11866809 9
-0.69425792 2.2167344 -0.039480317 6
-0.69238716 2.212115 0.61041504 13
-0.69358283 2.2172925 0.52711141 14
-0.69094676 2.2102191 0.44227937 13
-0.69475019 2.2237487 0.362528 15
-0.68882757 2.2061443 0.27908078 14
-0.69686615 2.2332597 0.20132977 12
-0.69220483 2.2196839 0.11984934 6
-0.68669748 2.2033768 0.039616961 5
-0.57881361 1.8629357 -0.5124619 4
-0.66001594 2.125598 -0.50501537 5
-0.69068033 2.2257249 -0.44513926 12
-0.68714696 2.2157047 -0.36136392 12
-0.68861312 2.2218029 -0.28090915 9
-0.68776602 2.2204404 -0.20002273 12
-0.68313104 2.2068388 -0.11866809 9
-0.68503833 2.2143686 -0.039393932 6
-0.68323463 2.2099042 0.6091218 13
-0.6844005 2.215045 0.52598751 13
-0.68177944 2.2079282 0.4413262 13
-0.68698364 2.22616 0.362528 15
-0.67965996 2.2037926 0.27847141 15
-0.68906635 2.2356787 0.20132977 12
-0.68445253 2.2220867 0.11984934 7
-0.6775313 2.2009821 0.039529696 5
-0.57230723 1.8649447 -0.5124619 4
-0.65259218 2.1278889 -0.50501537 5
-0.68146849 2.2234292 -0.44418606 12
-0.67940849 2.2180898 -0.36136392 13
-0.67940068 2.2194476 -0.28029981 9
-0.678554 2.2180648 -0.19958696 12
-0.67396367 2.2044351 -0.11840729 9
-0.67584372 2.2119651 -0.039307538 6
-0.67551649 2.2122757 0.6091218 13
-0.67666441 2.2174206 0.52598751 14
-0.67406809 2.2102945 0.4413262 13
-0.67776901 2.2238207 0.3617467 15
-0.67196316 2.2061517 0.27847141 14
-0.67980778 2.2333055 0.200894 13
-0.67523849 2.2196851 0.11958765 7
-0.66839015 2.1985507 0.039442439 5
-0.56579387 1.8669312 -0.5124619 4
-0.6451605 2.1301539 -0.50501537 5
-0.67228121 2.2210968 -0.44323289 12
-0.67023194 2.2157209 -0.36058176 12
-0.67164922 2.2218056 -0.28029981 9
-0.66936684 2.2156515 -0.19915117 12
-0.66482145 2.2019942 -0.11814647 9
-0.66811836 2.2143109 -0.039307538 6
-0.66639566 2.2099957 0.60782856 14
-0.66751432 2.2151043 0.5248636 14
-0.6649332 2.2079339 0.440373 13
-0.67000228 2.2261732 0.3617467 15
-0.66282874 2.2037318 0.2778621 15
-0.67200798 2.2356648 0.200894 13
-0.66604978 2.2172468 0.11932597 7
-0.65927428 2.1960824 0.039355174 5
-0.56065822 1.8735217 -0.51375604 4
-0.637721 2.1323931 -0.50501537 5
-0.66311854 2.2187271 -0.44227967 12
-0.66249359 2.2180471 -0.36058176 12
-0.66247016 2.2193811 -0.27969044 9
-0.66162866 2.2179747 -0.19915117 12
-0.65713102 2.2043014 -0.11814647 9
-0.6589576 2.2118385 -0.039221149 5
-0.65867722 2.2123084 0.60782856 13
-0.65838861 2.2127512 0.5237397 14
-0.65582317 2.2055371 0.43941984 13
-0.66082054 2.2237639 0.36096537 15
-0.65371943 2.2012746 0.27725273 16
-0.66278273 2.2332218 0.20045821 12
-0.65830618 2.219558 0.11932597 8
-0.65018392 2.1935773 0.039267913 5
-0.55274659 1.8708355 -0.5124619 4
-0.63027364 2.1346061 -0.50501537 5
-0.65398055 2.2163208 -0.4413265 12
-0.65335023 2.2156091 -0.35979956 12
-0.6533162 2.2169199 -0.27908111 9
-0.6524753 2.2154922 -0.1987154 12
-0.64802271 2.2017915 -0.11788567 8
-0.65123278 2.2141252 -0.039221149 5
-0.64958888 2.2099607 0.60653532 13
-0.64928758 2.2103615 0.52261579 14
-0.6481204 2.2078128 0.43941984 13
-0.65166396 2.2213185 0.36018407 16
-0.64603156 2.2035429 0.27725273 15
-0.65498334 2.2355218 0.20045821 13
-0.64915133 2.2170506 0.11906429 7
-0.64111888 2.1910353 0.039180648 6
-0.54350817 1.8634807 -0.50987375 3
-0.62145543 2.1321161 -0.50389069 5
-0.64486748 2.2138777 -0.4403733 12
-0.64423209 2.2131348 -0.35901737 11
-0.64557374 2.2191868 -0.27908111 9
-0.64334732 2.2129734 -0.1982796 11
-0.64033312 2.2040403 -0.11788567 9
-0.64350009 2.2163849 -0.039221149 5
-0.64187068 2.2122145 0.60653532 13
-0.64156806 2.2126145 0.52261579 14
-0.63904363 2.2053473 0.43846661 14
-0.64115876 2.214092 0.35862142 11
-0.63695621 2.2010176 0.2766434 15
-0.64579213 2.2330093 0.20002241 14
-0.64140844 2.2193029 0.11906429 8
-0.63207966 2.188457 0.03909339 5
-0.53031969 1.8421608 -0.50340325 4
-0.61266214 2.1295903 -0.50276589 4
-0.63713574 2.2161152 -0.4403733 12
-0.63650286 2.2153699 -0.35901737 11
-0.63645381 2.2166567 -0.27847174 8
-0.63561863 2.2152057 -0.1982796 10
-0.63125938 2.2014623 -0.11762486 8
-0.63713664 2.2234232 -0.039307538 4
-0.632815 2.2097981 0.60524201 13
-0.63250017 2.2101564 0.52149189 14
-0.63134164 2.2075646 0.43846661 13
-0.63206911 2.2115684 0.35784012 13
-0.62926936 2.2032275 0.2766434 16
-0.63799351 2.23525 0.20002241 12
-0.63228804 2.2167265 0.11880261 6
-0.62306619 2.185842 0.039006125 5
-0.52520603 1.8486466 -0.50469732 4
-0.60522473 2.1317158 -0.50276589 5
-0.62805641 2.2136037 -0.43942013 11
-0.62741882 2.2128272 -0.35823521 11
-0.62735951 2.2140903 -0.27786243 10
-0.62652528 2.2126186 -0.19784385 11
-0.62357098 2.2036524 -0.11762486 7
-0.63345265 2.2400656 -0.039566711 11
-0.62378412 2.207346 0.60394883 14
-0.62478149 2.2123506 0.52149189 13
-0.62363195 2.2097549 0.43846661 13
-0.62300491 2.209008 0.35705879 11
-0.62157488 2.2054107 0.2766434 15
-0.63018715 2.2374635 0.20002241 12
-0.62319362 2.2141137 0.11854094 9
-0.61543238 2.1880038 0.039006125 5
-0.52005351 1.855119 -0.50599146 5
-0.59777999 2.1338155 -0.50276589 5
-0.62032562 2.2157826 -0.43942013 12
-0.61969084 2.2150037 -0.35823521 12
-0.61962706 2.2162666 -0.27786243 10
-0.61879802 2.214792 -0.19784385 11
-0.61587501 2.2058156 -0.11762486 6
-0.62966019 2.2567093 -0.039825883 11
-0.61607516 2.2095101 0.60394883 13
-0.61574733 2.2098248 0.52036798 14
-0.61459792 2.2071898 0.43751341 14
-0.61396635 2.2064114 0.35627753 12
-0.61254317 2.2027857 0.27603403 15
-0.6223731 2.2396495 0.20002241 13
-0.61546105 2.2162757 0.11854094 8
-0.60779107 2.1901386 0.039006125 5
-0.51357478 1.8569231 -0.50599146 4
-0.59032792 2.1358891 -0.50276589 5
-0.61128062 2.2132032 -0.43846694 11
-0.61195523 2.2171533 -0.35823521 11
-0.6118871 2.218416 -0.27786243 9
-0.6097396 2.2121365 -0.19740805 10
-0.60817152 2.2079518 -0.11762486 6
-0.62310576 2.2637134 -0.039912272 10
-0.60707784 2.2069902 0.60265553 13
-0.60802984 2.2119608 0.52036798 14
-0.60688967 2.2093215 0.43751341 14
-0.60495347 2.2037787 0.3554962 10
-0.60485035 2.2049105 0.27603403 14
-0.61455148 2.2418084 0.20002241 12
-0.60640192 2.2135949 0.11827926 10
-0.60014236 2.1922469 0.039006125 6
nan nan nan 0
-0.5828687 2.1379368 -0.50276589 5
-0.60355139 2.2153234 -0.43846694 12
-0.60291481 2.2145109 -0.35745302 10
-0.60413963 2.2205384 -0.27786243 9
-0.60201406 2.2142515 -0.19740805 10
-0.60438812 2.2245171 -0.11840729 5
-0.61389023 2.26105 -0.039825883 10
-0.59810561 2.2044344 0.60136229 13
-0.59903008 2.2093675 0.51924407 14
-0.5978905 2.2066894 0.43656024 15
-0.5959664 2.2011099 0.3547149 13
-0.59585392 2.2022178 0.27542472 14
-0.6054222 2.2391317 0.19958664 14
-0.59867132 2.2156982 0.11827926 9
-0.5911833 2.1895022 0.038918864 6
nan nan nan 0
-0.57540238 2.1399584 -0.50276589 5
-0.59454107 2.2126765 -0.43751371 11
-0.59518105 2.2166021 -0.35745302 12
-0.59509861 2.2178404 -0.27725306 10
-0.59299123 2.2115285 -0.19697228 9
-0.60695809 2.2651978 -0.12049376 12
-0.6047008 2.2583499 -0.03973949 9
-0.59040701 2.2065089 0.60136229 13
-0.59131426 2.2114449 0.51924407 13
-0.58891696 2.2040207 0.43560702 13
-0.58827955 2.203177 0.3547149 13
-0.58688366 2.1994891 0.27481535 17
-0.5963192 2.2364182 0.19915086 13
-0.58964783 2.2129495 0.11801757 9
-0.58225054 2.1867216 0.038831603 6
-0.49781704 1.8762035 -0.50987375 4
-0.56668049 2.1372449 -0.50164115 4
-0.58555669 2.2099938 -0.43656054 12
-0.5861761 2.2138922 -0.35667089 11
-0.58735329 2.2199042 -0.27725306 8
-0.5852679 2.2135849 -0.19697228 9
-0.59139448 2.2383373 -0.11892891 9
-0.59553778 2.2556131 -0.0396531 10
-0.58146912 2.203886 0.60006905 13
-0.58234924 2.2087846 0.51812023 14
-0.58121985 2.2060628 0.43560702 14
-0.57932806 2.2004411 0.35393357 12
-0.57793975 2.1967254 0.27420601 15
-0.5872426 2.233669 0.19871509 14
-0.58191961 2.2149944 0.11801757 10
-0.57461387 2.1887405 0.038831603 6
-0.49982089 1.9106365 -0.5189324 4
-0.55921662 2.13921 -0.50164115 5
-0.57659823 2.2072754 -0.43560734 10
-0.57719719 2.2111464 -0.35588869 11
-0.57834816 2.217139 -0.27664372 8
-0.57628107 2.2107944 -0.1965365 11
-0.5823189 2.2355559 -0.11866809 10
-0.58766061 2.2576783 -0.0396531 11
-0.57377255 2.2059026 0.60006905 13
-0.57340991 2.2060885 0.51699626 14
-0.57228184 2.2033279 0.43465388 14
-0.57164353 2.20245 0.35393357 13
-0.5690223 2.1939254 0.27359664 17
-0.57819235 2.2308836 0.19827931 14
-0.57293236 2.2121785 0.1177559 10
-0.56571776 2.1858933 0.038744342 7
nan nan nan 0
-0.55174601 2.141149 -0.50164115 5
-0.56888992 2.2092748 -0.43560734 11
-0.5682447 2.2083652 -0.35510653 12
-0.56936955 2.2143378 -0.27603436 11
-0.56856048 2.2127926 -0.1965365 11
-0.57327008 2.2327387 -0.11840729 10
-0.57853389 2.2548735 -0.039566711 11
-0.56486964 2.2032135 0.5987758 13
-0.56570578 2.2080767 0.51699626 14
-0.56458735 2.205312 0.43465388 14
-0.56272811 2.1996477 0.35315228 13
-0.5613606 2.1958983 0.27359664 17
-0.56916881 2.2280626 0.19784354 15
-0.56520694 2.2141647 0.1177559 10
-0.55808407 2.1878548 0.038744342 7
nan nan nan 0
-0.5430693 2.1383398 -0.50051636 5
-0.55996728 2.2064893 -0.43465418 10
-0.55931872 2.2055483 -0.35432434 12
-0.56163657 2.2163119 -0.27603436 7
-0.56083292 2.2147639 -0.1965365 9
-0.56424803 2.2298856 -0.11814647 9
-0.56943387 2.2520328 -0.039480317 11
-0.55717552 2.2051718 0.5987758 13
-0.55680197 2.2053139 0.51587236 15
-0.5568859 2.2072694 0.43465388 14
-0.5550465 2.2015986 0.35315228 10
-0.55247974 2.193032 0.27298734 15
-0.55895597 2.2203751 0.19697198 13
-0.55747467 2.2161243 0.1177559 11
-0.55044365 2.1897895 0.038744342 9
-0.47743914 1.906396 -0.51634425 3
-0.53560185 2.1402223 -0.50051636 5
-0.55226177 2.2084308 -0.43465418 10
-0.55161649 2.2074873 -0.35432434 12
-0.55269456 2.213444 -0.27542502 10
-0.55309856 2.2167079 -0.1965365 8
-0.55525285 2.2269967 -0.11788567 9
-0.56036079 2.2491558 -0.039393932 13
-0.54830778 2.2024162 0.5974825 14
-0.54910058 2.2072442 0.51587236 14
-0.54917771 2.2091999 0.43465388 14
-0.54616743 2.1987293 0.35237095 12
-0.5448212 2.1949472 0.27298734 16
-0.551202 2.2223127 0.19697198 12
-0.54853433 2.2132103 0.11749421 10
-0.54159468 2.1868448 0.038657077 8
-0.46846783 1.8986731 -0.51375604 3
-0.52929407 2.1468093 -0.50164115 5
-0.54337537 2.205579 -0.43370095 11
-0.54272711 2.2046041 -0.35354218 12
-0.54377931 2.2105405 -0.27481568 9
-0.54416841 2.213788 -0.19610073 8
-0.54747581 2.2289212 -0.11788567 9
-0.5501231 2.2413876 -0.039221149 12
-0.54061657 2.2043169 0.5974825 13
-0.5402329 2.2044156 0.51474845 15
-0.54029536 2.206336 0.43370065 14
-0.53848916 2.2006226 0.35237095 14
-0.53597736 2.1920149 0.27237797 18
-0.54225916 2.2193844 0.1965362 12
-0.5408054 2.2151115 0.11749421 12
-0.5339579 2.1887219 0.038657077 10
-0.46069676 1.8956035 -0.5124619 4
-0.52179712 2.1486437 -0.50164115 5
-0.5356732 2.2074625 -0.43370095 10
-0.53502828 2.2064853 -0.35354218 12
-0.53605974 2.2124252 -0.27481568 9
-0.53643757 2.2156739 -0.19610073 8
-0.53851801 2.2259655 -0.11762486 8
-0.53994644 2.2335758 -0.03904837 10
-0.53178477 2.2014959 0.59618932 13
-0.53253478 2.2062879 0.51474845 14
-0.53143972 2.2034369 0.43274748 15
-0.52964723 2.1976879 0.35158965 13
-0.52832258 2.1938725 0.27237797 17
-0.53450871 2.2212639 0.1965362 11
-0.53306997 2.2169857 0.11749421 12
-0.52514666 2.1857116 0.038569819 9
-0.43833861 1.8314426 -0.49434459 4
-0.51542687 2.1551902 -0.50276589 5
-0.52796447 2.2093189 -0.43370095 11
-0.52617592 2.2035358 -0.35275999 12
-0.52833372 2.2142828 -0.27481568 7
-0.52870017 2.2175331 -0.19610073 8
-0.53074461 2.2278318 -0.11762486 8
-0.52983111 2.2257204 -0.038875591 11
-0.52297914 2.1986399 0.59489602 13
-0.52370352 2.2033932 0.51362455 14
-0.52261084 2.2005031 0.43179429 14
-0.52197266 2.1995232 0.35158965 14
-0.51951629 2.1908746 0.27176863 20
-0.52560347 2.2182693 0.19610043 13
-0.52417767 2.2139745 0.11723254 13
-0.51636297 2.1826665 0.038482554 9
nan nan nan 0
-0.50790071 2.1569762 -0.50276589 5
-0.52024925 2.2111485 -0.43370095 11
-0.51848096 2.2053592 -0.35275999 11
-0.52060121 2.2161136 -0.27481568 9
-0.52095628 2.2193651 -0.19610073 8
-0.5218246 2.2248096 -0.11736406 8
-0.52091789 2.2226887 -0.038789198 11
-0.51530135 2.2004521 0.59489602 14
-0.51600903 2.2052078 0.51362455 14
-0.51492649 2.2023141 0.43179429 14
-0.51316816 2.1965227 0.35080832 13
-0.5107373 2.1878417 0.27115926 12
-0.51672554 2.2152398 0.19566463 13
-0.51644623 2.2157905 0.11723254 13
-0.5087409 2.1844559 0.038482554 11
-0.43830839 1.8909911 -0.50987375 3
-0.4999916 2.1588233 -0.50276589 5
-0.51103491 2.2082586 -0.43274778 11
-0.50928181 2.2024331 -0.35197783 12
-0.51247525 2.2180068 -0.27481568 9
-0.51169795 2.2164063 -0.19566494 7
-0.51366681 2.2267072 -0.11736406 8
-0.51164496 2.2197115 -0.038702808 12
-0.5061487 2.1976192 0.59360272 13
-0.50683045 2.2023363 0.51250064 14
-0.50575119 2.199403 0.43084112 14
-0.50511402 2.1983891 0.35080832 13
-0.50271505 2.1896989 0.27115926 13
-0.5086028 2.2171187 0.19566463 14
-0.5072059 2.2128017 0.11697085 13
-0.49961501 2.1814327 0.038395293 11
-0.43170494 1.8925095 -0.50987375 3
-0.49245283 2.1605554 -0.50276589 5
-0.50332355 2.2100291 -0.43274778 11
-0.50159079 2.2041976 -0.35197783 11
-0.50362957 2.2149432 -0.27420634 9
-0.50395811 2.218179 -0.19566494 8
-0.5047856 2.2236173 -0.11710324 8
-0.50389361 2.2214839 -0.038702808 12
-0.49847451 2.1993725 0.59360272 14
-0.49806365 2.1993403 0.51137674 15
-0.49807078 2.2011549 0.43084112 15
-0.49743718 2.2001386 0.35080832 13
-0.49397495 2.1865997 0.27054995 12
-0.49976376 2.2140219 0.19522887 13
-0.49838015 2.2096877 0.11670918 14
-0.49199086 2.1831648 0.038395293 11
-0.42826924 1.9081423 -0.51375604 3
-0.4849081 2.1622612 -0.50276589 5
-0.49453276 2.2069826 -0.43179458 11
-0.49281466 2.2011156 -0.35119566 12
-0.49589488 2.2166877 -0.27420634 9
-0.49621215 2.2199244 -0.19566494 8
-0.49593234 2.2204928 -0.11684243 8
-0.49504727 2.2183499 -0.038616419 12
-0.49079424 2.2010992 0.59360272 14
-0.49038354 2.2010655 0.51137674 15
-0.48931772 2.1980891 0.42988792 14
-0.4897542 2.2018619 0.35080832 13
-0.48633927 2.1883106 0.27054995 13
-0.49203232 2.2157528 0.19522887 13
-0.48958227 2.2065394 0.11644749 13
-0.48329163 2.1799867 0.038308028 11
-0.42577076 1.9284896 -0.5189324 3
-0.47630802 2.1591835 -0.50164115 5
-0.48576948 2.2039025 -0.43084142 11
-0.48512834 2.2028224 -0.35119566 11
-0.48708764 2.2135582 -0.27359697 9
-0.48846012 2.221643 -0.19566494 7
-0.48817834 2.2222106 -0.11684243 8
-0.48622897 2.2151816 -0.038530029 13
-0.48207334 2.1980813 0.59230953 14
-0.48165452 2.198005 0.51025283 15
-0.48164201 2.1997838 0.42988792 14
-0.48100987 2.1987333 0.35002702 12
-0.47869766 2.1899951 0.27054995 13
-0.48323211 2.2125905 0.19479308 14
-0.48187703 2.2082348 0.11644749 14
-0.4756791 2.1816602 0.038308028 12
-0.41596228 1.9158052 -0.51505011 3
-0.46876815 2.1608329 -0.50164115 5
-0.47703364 2.2007875 -0.42988822 11
-0.4774361 2.2045026 -0.35119566 11
-0.4793579 2.215245 -0.27359697 9
-0.47964963 2.2184663 -0.19522917 7
-0.47936401 2.2190204 -0.11658162 9
-0.47743875 2.2119787 -0.038443636 14
-0.47439766 2.1997507 0.59230953 14
-0.47397912 2.1996727 0.51025283 15
-0.47396037 2.2014515 0.42988792 14
-0.47333193 2.2003989 0.35002702 13
-0.47000745 2.1868007 0.26994058 13
-0.47550577 2.2142639 0.19479308 14
-0.47311845 2.2050216 0.11618582 14
-0.46806079 2.1833074 0.038308028 11
-0.4072558 1.907799 -0.5124619 3
-0.46223879 2.1672206 -0.50276589 5
-0.46934855 2.2024393 -0.42988822 11
-0.46973804 2.2061558 -0.35119566 11
-0.4705897 2.2120507 -0.27298763 8
-0.47190282 2.2201271 -0.19522917 7
-0.47161525 2.22068 -0.11658162 9
-0.46867695 2.2087414 -0.03835725 11
-0.46671623 2.2013931 0.59230953 13
-0.46528828 2.1965473 0.50912893 14
-0.46525672 2.1982911 0.42893475 15
-0.46462646 2.197206 0.3492457 13
-0.4623712 2.1884282 0.26994058 13
-0.46777365 2.2159102 0.19479308 14
-0.46541861 2.2066596 0.11618582 15
-0.46043676 2.1849279 0.038308028 12
-0.39761856 1.8950288 -0.50857961 3
-0.45467097 2.1688209 -0.50276589 5
-0.46065158 2.1992605 -0.42893505 11
-0.46102273 2.2029486 -0.3504135 11
-0.46286529 2.21368 -0.27298763 8
-0.46313164 2.2168849 -0.19479337 7
-0.46284059 2.2174251 -0.11632082 10
-0.45994347 2.2054698 -0.038270857 11
-0.45804387 2.1982806 0.59101623 14
-0.45761803 2.198158 0.50912893 14
-0.45758042 2.1999016 0.42893475 14
-0.45695397 2.1988144 0.3492457 13
-0.45372045 2.1851697 0.26933125 13
-0.4590241 2.2126527 0.19435731 14
-0.4566997 2.2033815 0.11592413 15
-0.4517934 2.1816266 0.038220771 12
-0.39100125 1.8964052 -0.50857961 3
-0.44709757 2.1703947 -0.50276589 5
-0.45297191 2.200855 -0.42893505 10
-0.45333022 2.2045443 -0.3504135 11
-0.45413658 2.2104211 -0.27237827 8
-0.45539042 2.2184882 -0.19479337 6
-0.45509753 2.2190273 -0.11632082 10
-0.45123869 2.2021646 -0.038184468 12
-0.45036763 2.1998661 0.59101623 13
-0.44994226 2.1997421 0.50912893 15
-0.44891575 2.1966763 0.42798153 15
-0.44828787 2.1955574 0.34846443 13
-0.44609001 2.1867399 0.26933125 13
-0.4512977 2.2142415 0.19435731 15
-0.44900566 2.2049623 0.11592413 15
-0.44417533 2.1831903 0.038220771 12
-0.38533792 1.902492 -0.50987375 3
-0.4385525 2.1671674 -0.50164115 4
-0.44528672 2.2024226 -0.42893505 10
-0.44563216 2.2061133 -0.3504135 11
-0.44641802 2.2119927 -0.27237827 8
-0.44665921 2.2151816 -0.1943576 6
-0.44636273 2.2157071 -0.11606 11
-0.44354895 2.2037263 -0.038184468 13
-0.44173375 2.1966896 0.58972305 14
-0.44130135 2.196523 0.50800502 14
-0.44124517 2.19823 0.42798153 14
-0.44062123 2.197109 0.34846443 13
-0.43747914 2.1834178 0.26872188 13
-0.44258806 2.2109191 0.19392152 14
-0.44130617 2.2065163 0.11592413 16
-0.43557227 2.1798251 0.038133506 12
-0.37963688 1.9085624 -0.51116782 3
-0.43098503 2.168685 -0.50164115 4
-0.43759611 2.2039635 -0.42893505 10
-0.43696773 2.2028112 -0.34963131 11
-0.438694 2.2135377 -0.27237827 8
-0.43892404 2.2167273 -0.1943576 6
-0.43862575 2.2172518 -0.11606 11
-0.43488446 2.2003567 -0.038098078 12
-0.4340632 2.1982181 0.58972305 13
-0.43363139 2.19805 0.50800502 14
-0.43262011 2.1949413 0.42702836 14
-0.43199503 2.1937881 0.3476831 13
-0.42889699 2.1800623 0.26811254 13
-0.43390724 2.2075632 0.19348575 15
-0.43263915 2.2031436 0.11566246 15
-0.4279606 2.1813323 0.038133506 12
-0.37297243 1.909876 -0.51116782 3
-0.42247927 2.1653943 -0.50051636 4
-0.4289611 2.20066 -0.42798182 11
-0.42927581 2.2043231 -0.34963131 11
-0.43001685 2.2101841 -0.27176896 8
-0.43118358 2.218246 -0.1943576 6
-0.42993161 2.2138679 -0.1157992 11
-0.42720115 2.2018614 -0.038098078 13
-0.42546821 2.1949785 0.58842975 13
-0.4259561 2.1995504 0.50800502 15
-0.4249557 2.1964381 0.42702836 14
-0.42433468 2.1952825 0.3476831 13
-0.42128453 2.1815462 0.26811254 13
-0.42619872 2.2090645 0.19348575 15
-0.4249461 2.2046404 0.11566246 16
-0.41939843 2.1779041 0.038046245 13
-0.36721256 1.9159095 -0.5124619 4
-0.41491809 2.1668558 -0.50051636 4
-0.42127678 2.2021439 -0.42798182 11
-0.42065164 2.2009575 -0.34884915 11
-0.42229924 2.2116716 -0.27176896 8
-0.42250443 2.2148445 -0.19392182 5
-0.42220113 2.2153552 -0.1157992 11
-0.41951263 2.2033391 -0.038098078 13
-0.4178037 2.1964502 0.58842975 13
-0.41736606 2.1962373 0.50688112 14
-0.41637054 2.1930857 0.42607516 14
-0.4166691 2.1967504 0.3476831 13
-0.41274297 2.1781273 0.2675032 13
-0.41755852 2.2056441 0.19304997 14
-0.41724789 2.2061102 0.11566246 15
-0.41179356 2.1793547 0.038046245 13
-0.36052254 1.9171797 -0.5124619 3
-0.40735182 2.1682911 -0.50051636 4
-0.41268188 2.198777 -0.42702866 11
-0.41296631 2.2024124 -0.34884915 10
-0.41457647 2.2131324 -0.27176896 7
-0.4147706 2.2163057 -0.19392182 5
-0.41354784 2.2119071 -0.11553839 12
-0.41181895 2.2047901 -0.038098078 14
-0.40924817 2.1931472 0.58713651 13
-0.40969723 2.1976807 0.50688112 14
-0.40871271 2.1945257 0.42607516 14
-0.40809515 2.1933365 0.3469018 13
-0.40513736 2.1795549 0.2675032 13
-0.40985683 2.2070882 0.19304997 15
-0.40863377 2.2026439 0.11540078 16
-0.40418372 2.180779 0.038046245 13
-0.35382816 1.9184264 -0.5124619 4
-0.3997806 2.1696997 -0.50051636 4
-0.4050042 2.2002041 -0.42702866 10
-0.40438271 2.1989834 -0.34806696 10
-0.40595195 2.2096848 -0.27115959 7
-0.40613258 2.2128413 -0.19348605 5
-0.40582433 2.2133372 -0.11553839 13
-0.40321955 2.2012968 -0.038011689 13
-0.40159014 2.1945624 0.58713651 13
-0.40114722 2.1943049 0.50575721 14
-0.40016809 2.1911106 0.42512199 14
-0.40043649 2.1947474 0.3469018 13
-0.39752683 2.1809559 0.2675032 13
-0.40125784 2.2036054 0.1926142 15
-0.40094262 2.2040567 0.11540078 16
-0.39656889 2.1821764 0.038046245 13
-0.34712943 1.9196498 -0.5124619 3
-0.39220449 2.171082 -0.50051636 4
-0.39644986 2.196774 -0.42607546 11
-0.39670438 2.2003815 -0.34806696 10
-0.39823624 2.2110884 -0.27115959 7
-0.39752376 2.209343 -0.19305027 6
-0.39721254 2.209826 -0.11527758 13
-0.39553317 2.2026908 -0.038011689 14
-0.39307442 2.1911969 0.58584327 14
-0.39348522 2.1956918 0.50575721 14
-0.39251727 2.1924942 0.42512199 14
-0.39277294 2.1961319 0.3469018 13
-0.38903859 2.1774447 0.26689386 13
-0.39356339 2.2049925 0.1926142 15
-0.39237013 2.2005274 0.1151391 15
-0.38894925 2.1835475 0.038046245 13
-0.3404265 1.9208498 -0.5124619 3
-0.38547298 2.1772351 -0.50164115 4
-0.38877925 2.1981447 -0.42607546 10
-0.38816193 2.1968899 -0.34728479 9
-0.39051566 2.2124648 -0.27115959 7
-0.38894442 2.205812 -0.1926145 6
-0.38863015 2.2062814 -0.11501677 14
-0.3869755 2.1991343 -0.037925296 14
-0.38542336 2.1925557 0.58584327 13
-0.38497576 2.1922534 0.50463331 15
-0.38486162 2.193851 0.42512199 14
-0.38510463 2.1974897 0.3469018 14
-0.38143554 2.1787894 0.26689386 13
-0.38586414 2.2063529 0.1926142 15
-0.38468647 2.2018838 0.1151391 16
-0.38132489 2.1848919 0.038046245 13
-0.33338395 1.9220847 -0.5124619 3
-0.37749046 2.1786335 -0.50164115 4
-0.38072008 2.1995547 -0.42607546 11
-0.38010731 2.1982977 -0.34728479 9
-0.38240397 2.2138815 -0.27115959 7
-0.38085711 2.2072227 -0.1926145 6
-0.379693 2.2027707 -0.11475597 12
-0.37891269 2.2005379 -0.037925296 14
-0.37738463 2.1939535 0.58584327 13
-0.37693816 2.1936495 0.50463331 15
-0.37598783 2.1904092 0.4241688 14
-0.37704784 2.1988864 0.3469018 13
-0.3734473 2.1801729 0.26689386 13
-0.37777486 2.2077525 0.1926142 14
-0.37661359 2.2032788 0.1151391 16
-0.37247282 2.1813467 0.037958983 14
-0.32667258 1.9232367 -0.5124619 3
-0.37069821 2.1847408 -0.50276589 4
-0.37303987 2.2008705 -0.42607546 11
-0.3716071 2.1947422 -0.3465026 9
-0.37384611 2.2103095 -0.27055025 6
-0.37232029 2.2036273 -0.19217871 6
-0.37117058 2.1991589 -0.11449515 12
-0.37039793 2.1969175 -0.03783891 14
-0.36892188 2.1904948 0.58455002 13
-0.36847031 2.1901476 0.5035094 14
-0.36833957 2.1917083 0.4241688 14
-0.3685523 2.1953185 0.34612048 13
-0.36501405 2.176569 0.2662845 13
-0.36924309 2.2041452 0.19217841 15
-0.36809629 2.1996553 0.11487742 16
-0.36484966 2.1826346 0.037958983 14
-0.31995726 1.9243653 -0.5124619 3
-0.3630698 2.1860216 -0.50276589 4
-0.36535513 2.2021589 -0.42607546 11
-0.36394379 2.1960258 -0.3465026 9
-0.36612844 2.211601 -0.27055025 6
-0.36462593 2.2049136 -0.19217871 6
-0.3634918 2.2004411 -0.11449515 12
-0.36272702 2.1981971 -0.03783891 14
-0.36127338 2.1917694 0.58455002 13
-0.36082304 2.1914206 0.5035094 14
-0.35989025 2.1881375 0.42321563 14
-0.36088696 2.1965914 0.34612048 13
-0.35741416 2.1778297 0.2662845 13
-0.36154693 2.2054205 0.19217841 15
-0.36041585 2.2009268 0.11487742 16
-0.35642815 2.1789601 0.037871718 14
-0.31323799 1.9254704 -0.5124619 3
-0.35543695 2.1872754 -0.50276589 4
-0.35766593 2.2034211 -0.42607546 10
-0.35627598 2.197283 -0.3465026 8
-0.35840628 2.2128656 -0.27055025 6
-0.35692713 2.2061729 -0.19217871 7
-0.35501203 2.1967673 -0.11423435 12
-0.35425493 2.1945145 -0.037752517 15
-0.35285157 2.1882486 0.58325672 13
-0.35239655 2.1878564 0.5023855 14
-0.35225004 2.1893804 0.42321563 14
-0.35321721 2.1978378 0.34612048 13
-0.34980994 2.179064 0.2662845 13
-0.35305777 2.2017512 0.19174264 15
-0.35273096 2.2021716 0.11487742 16
-0.34882 2.180191 0.037871718 14
-0.30727381 1.9313219 -0.51375604 3
-0.34703517 2.1836917 -0.50164115 4
-0.34997237 2.2046561 -0.42607546 10
-0.34860384 2.1985133 -0.3465026 8
-0.3499034 2.2092016 -0.26994088 6
-0.34922397 2.2074053 -0.19217871 6
-0.34734169 2.1979933 -0.11423435 13
-0.34659249 2.1957376 -0.037752517 15
-0.345211 2.189467 0.58325672 14
-0.34475735 2.1890731 0.5023855 14
-0.34384274 2.1857481 0.4222624 14
-0.34477663 2.1941788 0.34533918 13
-0.34143198 2.1753693 0.26567516 13
-0.34537008 2.2029703 0.19174264 15
-0.34426931 2.1984563 0.11461575 16
-0.340435 2.1764562 0.037784457 14
-0.30053037 1.9323827 -0.51375604 3
-0.33941057 2.1848898 -0.50164115 4
-0.34152195 2.201014 -0.42512229 10
-0.34017116 2.1948366 -0.34572047 8
-0.3421897 2.2104096 -0.26994088 6
-0.34075537 2.2036884 -0.19174294 7
-0.33890501 2.1942577 -0.11397354 14
-0.33892584 2.196934 -0.037752517 15
-0.33683071 2.1858854 0.58196354 14
-0.33711395 2.190263 0.5023855 14
-0.336211 2.1869349 0.4222624 14
-0.33711541 2.195369 0.34533918 13
-0.33383644 2.1765478 0.26567516 13
-0.33767816 2.2041624 0.19174264 15
-0.33659318 2.1996446 0.11461575 17
-0.33283567 2.1776314 0.037784457 15
-0.29378328 1.9334201 -0.51375604 3
-0.33178177 2.1860611 -0.50164115 4
-0.33383688 2.2021925 -0.42512229 10
-0.33250767 2.1960106 -0.34572047 7
-0.33521396 2.2164974 -0.27055025 6
-0.33306104 2.2048645 -0.19174294 7
-0.33124354 2.1954272 -0.11397354 14
-0.33125502 2.1981037 -0.037752517 15
-0.32919848 2.1870477 0.58196354 13
-0.32946646 2.1914265 0.5023855 15
-0.32784623 2.1832414 0.42130923 15
-0.3287175 2.1916482 0.34455785 13
-0.32623681 2.1776998 0.26567516 12
-0.32998213 2.2053275 0.19174264 15
-0.32891288 2.2008061 0.11461575 17
-0.3252323 2.1787798 0.037784457 14
-0.2870326 1.9344337 -0.51375604 3
-0.32414901 2.187206 -0.50164115 4
-0.32542905 2.1984892 -0.42416909 10
-0.32484013 2.1971579 -0.34572047 7
-0.32964984 2.2323825 -0.27237827 5
-0.3246358 2.2010858 -0.19130714 8
-0.32285035 2.1916301 -0.11371273 14
-0.32358018 2.1992466 -0.037752517 16
-0.32156226 2.1881835 0.58196354 14
-0.32181495 2.1925633 0.5023855 14
-0.3202233 2.1843724 0.42130923 15
-0.32106522 2.1927822 0.34455785 13
-0.31863326 2.1788254 0.26567516 13
-0.3215622 2.2015374 0.19130686 15
-0.32050785 2.197 0.11435406 17
-0.31762496 2.1799018 0.037784457 14
-0.28027841 1.9354239 -0.51375604 3
-0.31651226 2.1883242 -0.50164115 4
-0.31775293 2.1996117 -0.42416909 10
-0.31646338 2.1933904 -0.34493828 7
-0.32327098 2.2433436 -0.27359697 12
-0.31695056 2.2022057 -0.19130714 8
-0.31519818 2.1927438 -0.11371273 14
-0.3159014 2.2003627 -0.037752517 16
-0.31323656 2.1845117 0.58067024 13
-0.31415951 2.1936731 0.5023855 15
-0.31259647 2.1854768 0.42130923 14
-0.31271067 2.1890008 0.34377655 13
-0.31032479 2.1750112 0.26506582 13
-0.31387544 2.2026463 0.19130686 15
-0.31283695 2.1981053 0.11435406 16
-0.31001374 2.1809974 0.037784457 14
-0.2728453 1.9316081 -0.5124619 3
-0.30887163 2.1894157 -0.50164115 4
-0.30938813 2.1958475 -0.42321593 10
-0.30880511 2.1944818 -0.34493828 7
-0.31751034 2.2592018 -0.27542502 11
-0.30856919 2.1983662 -0.19087137 8
-0.30684894 2.1888859 -0.11345191 14
-0.30821878 2.201452 -0.037752517 16
-0.30560929 2.1855917 0.58067024 14
-0.30582643 2.1899314 0.50126159 14
-0.30496582 2.1865547 0.42130923 14
-0.30506772 2.1900792 0.34377655 14
-0.30273071 2.1760812 0.26506582 13
-0.30618489 2.2037284 0.19130686 16
-0.30516222 2.1991839 0.11435406 16
-0.30171245 2.177114 0.037697192 15
-0.26544228 1.9277643 -0.51116782 3
-0.30122724 2.1904805 -0.50164115 4
-0.3017213 2.196914 -0.42321593 10
-0.30047199 2.1906538 -0.34415612 7
-0.31029585 2.265213 -0.27603436 11
-0.30089357 2.1994298 -0.19087137 8
-0.29920644 2.1899436 -0.11345191 14
-0.29985651 2.1975613 -0.037666127 16
-0.29797828 2.1866453 0.58067024 14
-0.29818031 2.1909857 0.50126159 15
-0.29733148 2.1876061 0.42130923 14
-0.29742107 2.1911309 0.34377655 13
-0.29513291 2.1771245 0.26506582 13
-0.29849055 2.2047839 0.19130686 15
-0.2974838 2.2002358 0.11435406 17
-0.29411107 2.178154 0.037697192 15
-0.2580694 1.9238924 -0.50987375 3
-0.29357922 2.1915185 -0.50164115 3
-0.29339993 2.1930885 -0.4222627 9
-0.29282337 2.1916893 -0.34415612 6
-0.30238688 2.2662826 -0.27603436 11
-0.29255638 2.1955295 -0.19043559 9
-0.29156029 2.1909747 -0.11345191 15
-0.29218379 2.1985946 -0.037666127 16
-0.29034364 2.1876721 0.58067024 14
-0.2905305 2.1920133 0.50126159 14
-0.28904942 2.1837645 0.42035604 15
-0.28912359 2.1872594 0.34299523 13
-0.28688204 2.1732216 0.26445645 13
-0.29014164 2.2008743 0.19087109 15
-0.28980169 2.2012608 0.11435406 17
-0.28585449 2.1742108 0.037609935 14
-0.25135219 1.9247813 -0.50987375 3
-0.28529757 2.1876988 -0.50051636 4
-0.28574285 2.1940994 -0.4222627 9
-0.28326043 2.1780064 -0.34180957 5
-0.29447424 2.2673242 -0.27603436 11
-0.2848908 2.1965373 -0.19043559 11
-0.28391057 2.1919792 -0.11345191 15
-0.28386617 2.194643 -0.037579738 17
-0.28270549 2.1886723 0.58067024 15
-0.28225389 2.1881819 0.50013769 14
-0.28142488 2.1847603 0.42035604 15
-0.28148684 2.1882555 0.34299523 13
-0.27929434 2.1742096 0.26445645 13
-0.28245735 2.2018738 0.19087109 15
-0.28148168 2.1973064 0.11409239 16
-0.2782633 2.1751955 0.037609935 15
-0.24524058 1.9304382 -0.51116782 3
-0.27765936 2.1886814 -0.50051636 4
-0.27808225 2.1950834 -0.4222627 9
-0.27503625 2.1740825 -0.34102744 5
-0.28593603 2.2634146 -0.27542502 11
-0.27722168 2.1975183 -0.19043559 10
-0.27625743 2.1929567 -0.11345191 15
-0.27557975 2.1906605 -0.037493344 12
-0.2750639 2.1896455 0.58067024 14
-0.27461401 2.1891539 0.50013769 15
-0.27379695 2.1857293 0.42035604 15
-0.27384672 2.1892247 0.34299523 14
-0.27170324 2.1751714 0.26445645 13
-0.27476966 2.2028463 0.19087109 14
-0.27380994 2.1982756 0.11409239 16
-0.27066877 2.1761534 0.037609935 15
-0.23909254 1.9360757 -0.5124619 3
-0.27001774 2.1896372 -0.50051636 4
-0.27041829 2.1960409 -0.4222627 9
-0.27286988 2.2191429 -0.34806696 11
-0.27803347 2.2643991 -0.27542502 11
-0.2689431 2.1935289 -0.18999982 10
-0.26860088 2.1939077 -0.11345191 16
-0.26793122 2.1916091 -0.037493344 13
-0.26683366 2.1857982 0.579377 14
-0.26697075 2.190099 0.50013769 14
-0.26557261 2.1817997 0.41940287 14
-0.26620322 2.1901674 0.34299523 13
-0.26351088 2.17118 0.26384711 13
-0.26647934 2.1988468 0.19043529 15
-0.26613486 2.199218 0.11409239 17
-0.26307094 2.1770852 0.037609935 15
-0.23290813 1.9416939 -0.51375604 3
-0.26295224 2.1954041 -0.50164115 4
-0.26275104 2.1969714 -0.4222627 9
-0.26980668 2.259311 -0.35432434 11
-0.26953992 2.2604277 -0.27481568 11
-0.26128459 2.1944542 -0.18999982 11
-0.26035157 2.1898735 -0.1131911 16
-0.25969014 2.1875665 -0.037406955 12
-0.25920218 2.1867163 0.579377 14
-0.25932425 2.1910176 0.50013769 14
-0.2579551 2.1827135 0.41940287 14
-0.25797772 2.1861784 0.34221393 14
-0.25593045 2.1720865 0.26384711 13
-0.25880229 2.1997635 0.19043529 15
-0.25845653 2.2001336 0.11409239 16
-0.25546989 2.17799 0.037609935 16
-0.22668739 1.9472922 -0.51505011 3
-0.25528723 2.1963084 -0.50164115 4
-0.25451472 2.1929998 -0.42130953 9
-0.26078162 2.2504275 -0.35275999 10
-0.26107755 2.2564251 -0.27420634 11
-0.25362295 2.195353 -0.18999982 11
-0.2527059 2.190769 -0.1131911 16
-0.25205252 2.1884599 -0.037406955 13
-0.25156751 2.1876078 0.579377 14
-0.25111884 2.1870692 0.49901381 14
-0.25033441 2.1836004 0.41940287 14
-0.25034496 2.1870658 0.34221393 13
-0.24834689 2.1729667 0.26384711 13
-0.25112212 2.2006536 0.19043529 15
-0.25020981 2.1960611 0.1138307 17
-0.24786572 2.1788685 0.037609935 16
-0.21934699 1.9432726 -0.51375604 2
-0.24816471 2.2020271 -0.50276589 4
-0.24685818 2.1938748 -0.42130953 8
-0.25347593 2.2562318 -0.35354218 11
-0.25319958 2.2573228 -0.27420634 12
-0.2454038 2.1912744 -0.18956403 11
-0.24450234 2.1866758 -0.1129303 12
-0.24385716 2.1843579 -0.037320562 13
-0.2439298 2.1884725 0.579377 14
-0.24348301 2.1879325 0.49901381 15
-0.24216868 2.1795824 0.41844967 14
-0.24270916 2.1879263 0.34221393 13
-0.24076033 2.1738205 0.26384711 13
-0.24343887 2.2015169 0.19043529 14
-0.24254261 2.1969213 0.1138307 17
-0.24025853 2.1797206 0.037609935 15
-0.21256237 1.9440264 -0.51375604 3
-0.24047668 2.2028801 -0.50276589 4
-0.23919864 2.1947231 -0.42130953 8
-0.24506445 2.2521935 -0.35275999 11
-0.24478251 2.2532589 -0.27359697 12
-0.23775332 2.1921177 -0.18956403 12
-0.23686792 2.1875157 -0.1129303 13
-0.23623085 2.1851957 -0.037320562 13
-0.23628914 2.1893108 0.579377 15
-0.23584421 2.1887691 0.49901381 14
-0.23455904 2.1804147 0.41844967 14
-0.23507039 2.1887603 0.34221393 13
-0.2326417 2.1697128 0.26323774 14
-0.23575267 2.2023532 0.19043529 15
-0.23487243 2.1977546 0.1138307 17
-0.23211807 2.1755748 0.03752267 16
-0.20526695 1.9399536 -0.5124619 2
-0.23278575 2.203706 -0.50276589 3
-0.23153616 2.1955447 -0.42130953 7
-0.23668428 2.2481239 -0.35197783 11
-0.23639694 2.2491641 -0.27298763 12
-0.23009995 2.1929343 -0.18956403 12
-0.2287104 2.183363 -0.11266948 13
-0.22808169 2.1810348 -0.037234176 12
-0.22814406 2.1853185 0.57808375 13
-0.22820255 2.189579 0.49901381 14
-0.22694653 2.1812201 0.41844967 14
-0.22691855 2.1846552 0.3414326 13
-0.22506656 2.1705117 0.26323774 13
-0.22755073 2.1982083 0.18999954 15
-0.22719941 2.198561 0.1138307 16
-0.22452249 2.1763721 0.03752267 15
-0.19815528 1.9406929 -0.5124619 3
-0.22520125 2.2093916 -0.50389069 4
-0.22348754 2.1963787 -0.42130953 7
-0.2274448 2.23915 -0.3504135 13
-0.22815174 2.2500155 -0.27298763 13
-0.2220609 2.193763 -0.18956403 12
-0.22070643 2.1841867 -0.11266948 12
-0.22008628 2.1818562 -0.037234176 13
-0.22013295 2.1861401 0.57808375 14
-0.2201758 2.1904006 0.49901381 14
-0.21895045 2.1820371 0.41844967 15
-0.21890986 2.1854722 0.3414326 13
-0.21710972 2.1713221 0.26323774 13
-0.21949236 2.1990275 0.18999954 15
-0.21913975 2.199379 0.1138307 17
-0.21654418 2.1771803 0.03752267 15
-0.1913798 1.9413728 -0.5124619 3
-0.21748765 2.2101641 -0.50389069 4
-0.21581937 2.1971455 -0.42130953 7
-0.2186635 2.2301004 -0.34884915 10
-0.21981291 2.2458591 -0.27237827 13
-0.21440189 2.1945248 -0.18956403 12
-0.21259622 2.1799743 -0.11240868 13
-0.21246883 2.1826112 -0.037234176 13
-0.21250056 2.1868949 0.57808375 14
-0.21205819 2.1863065 0.49788988 15
-0.21133238 2.1827881 0.41844967 14
-0.21127979 2.186223 0.3414326 13
-0.20905258 2.1671271 0.26262844 13
-0.21133757 2.1948223 0.18956374 15
-0.21098343 2.1951599 0.11356901 17
-0.20846567 2.1729465 0.037435409 15
-0.18460196 1.942029 -0.5124619 3
-0.20931122 2.2060595 -0.50276589 4
-0.2081486 2.1978853 -0.42130953 7
-0.20994815 2.2210171 -0.34728479 11
-0.21150589 2.241672 -0.27176896 13
-0.20627323 2.1903007 -0.18912823 13
-0.20498541 2.1807032 -0.11240868 13
-0.20484881 2.1833396 -0.037234176 13
-0.20486557 2.1876235 0.57808375 14
-0.20442526 2.1870334 0.49788988 14
-0.20325582 2.1786256 0.4174965 15
-0.2031893 2.1820302 0.34065133 13
-0.20148662 2.1678436 0.26262844 13
-0.20367493 2.1955466 0.18956374 15
-0.20331961 2.195883 0.11356901 17
-0.2008794 2.173661 0.037435409 15
-0.1778219 1.9426615 -0.5124619 3
-0.20205262 2.2116287 -0.50389069 4
-0.20047529 2.1985986 -0.42130953 6
-0.20174651 2.2168183 -0.3465026 11
-0.20323078 2.2374542 -0.27115959 14
-0.1986264 2.1910074 -0.18912823 13
-0.19737208 2.1814053 -0.11240868 13
-0.19722629 2.1840413 -0.037234176 14
-0.19722809 2.1883252 0.57808375 14
-0.19635338 2.1828814 0.496766 15
-0.19564976 2.179322 0.4174965 15
-0.19557135 2.1827261 0.34065133 14
-0.19391821 2.1685338 0.26262844 13
-0.19600978 2.1962442 0.18956374 15
-0.1956533 2.1965795 0.11356901 17
-0.19329068 2.1743488 0.037435409 15
-0.17103967 1.9432704 -0.5124619 3
-0.19433136 2.2123203 -0.50389069 4
-0.19237088 2.1943953 -0.42035633 7
-0.19400714 2.217509 -0.3465026 11
-0.1949877 2.233206 -0.27055025 11
-0.19097714 2.1916873 -0.18912823 13
-0.18975635 2.182081 -0.11240868 13
-0.18960136 2.1847165 -0.037234176 14
-0.18917148 2.1841886 0.57679051 14
-0.1887325 2.1835537 0.496766 15
-0.18804131 2.1799915 0.4174965 15
-0.18795103 2.1833956 0.34065133 13
-0.18634744 2.1691976 0.26262844 13
-0.18834227 2.1969149 0.18956374 15
-0.18798462 2.1972489 0.11356901 16
-0.18569961 2.1750102 0.037435409 16
-0.16425534 1.9438555 -0.5124619 3
-0.18660775 2.2129853 -0.50389069 3
-0.18470983 2.1950536 -0.42035633 6
-0.18585217 2.2132518 -0.34572047 12
-0.18677676 2.2289279 -0.26994088 11
-0.18332557 2.1923406 -0.18912823 14
-0.18213832 2.1827302 -0.11240868 14
-0.18197411 2.185365 -0.037234176 14
-0.18154608 2.1848359 0.57679051 14
-0.18110932 2.1841991 0.496766 14
-0.18043058 2.1806345 0.4174965 15
-0.18032841 2.1840384 0.34065133 13
-0.17877439 2.1698346 0.26262844 13
-0.18067247 2.1975591 0.18956374 15
-0.17990538 2.1929154 0.11330734 16
-0.17810626 2.1756454 0.037435409 15
-0.15746902 1.9444172 -0.5124619 3
-0.17927425 2.2184789 -0.50501537 3
-0.17704654 2.1956849 -0.42035633 6
-0.17812534 2.213887 -0.34572047 13
-0.17859808 2.2246194 -0.26933157 11
-0.17527404 2.1880023 -0.18869248 14
-0.17412022 2.1783752 -0.11214787 13
-0.17434466 2.185987 -0.037234176 13
-0.1735353 2.1806412 0.57549721 14
-0.17348395 2.1848178 0.496766 14
-0.17281765 2.1812513 0.4174965 14
-0.17270359 2.1846545 0.34065133 14
-0.17119916 2.1704454 0.26262844 13
-0.17260964 2.1932106 0.18912795 15
-0.17224959 2.1935303 0.11330734 16
-0.17051077 2.1762538 0.037435409 15
-0.15105383 1.9497703 -0.51375604 2
-0.1719047 2.2239487 -0.50614017 3
-0.16900368 2.1913958 -0.41940317 6
-0.17001748 2.2095711 -0.34493828 13
-0.17045173 2.2202809 -0.26872221 12
-0.16763541 2.1886008 -0.18869248 13
-0.1665152 2.1789699 -0.11214787 13
-0.16633302 2.1815972 -0.037147783 13
-0.16592239 2.1812336 0.57549721 14
-0.16548775 2.1805518 0.49564207 14
-0.1652026 2.1818411 0.4174965 14
-0.16507669 2.1852438 0.34065133 13
-0.16324888 2.166081 0.26201907 13
-0.16495286 2.1937997 0.18912795 14
-0.1645917 2.194118 0.11330734 17
-0.16254009 2.1718502 0.037348147 15
-0.14389069 1.9454691 -0.5124619 2
-0.16414061 2.2245352 -0.50614017 3
-0.16135326 2.1919723 -0.41940317 6
-0.16230358 2.2101512 -0.34493828 14
-0.16270047 2.2208622 -0.26872221 12
-0.15999475 2.1891725 -0.18869248 14
-0.15890816 2.1795378 -0.11214787 13
-0.1587168 2.1821644 -0.037147783 14
-0.15795794 2.1769826 0.57420403 14
-0.1578752 2.1811161 0.49564207 14
-0.15723205 2.1775088 0.41654328 14
-0.15744774 2.185807 0.34065133 13
-0.15568686 2.1666377 0.26201907 13
-0.15729406 2.1943622 0.18912795 15
-0.15657565 2.1896987 0.11304566 16
-0.15495792 2.1724043 0.037348147 15
-0.13811713 1.9604126 -0.51634425 2
-0.15637453 2.2250948 -0.50614017 3
-0.15335763 2.1876259 -0.41844994 6
-0.15424325 2.2057779 -0.34415612 14
-0.15494722 2.2214167 -0.26872221 12
-0.15235214 2.1897178 -0.18869248 15
-0.15129919 2.1800792 -0.11214787 14
-0.15075342 2.1777179 -0.037061393 13
-0.15035789 2.1775208 0.57420403 13
-0.1502607 2.181654 0.49564207 14
-0.14963017 2.1780446 0.41654328 14
-0.14981689 2.1863432 0.34065133 14
-0.14812292 2.1671679 0.26201907 12
-0.14963336 2.1948979 0.18912795 16
-0.14893122 2.1902318 0.11304566 17
-0.14737387 2.1729321 0.037348147 16
-0.13129197 1.956041 -0.51505011 2
-0.14938344 2.225575 -0.50614017 3
-0.14648424 2.1880968 -0.41844994 6
-0.14698383 2.201324 -0.34337392 15
-0.14796768 2.2218926 -0.26872221 13
-0.14547218 2.1901855 -0.18869248 15
-0.14444953 2.1805437 -0.11214787 15
-0.14391118 2.1781809 -0.037061393 13
-0.14351627 2.1779823 0.57420403 13
-0.14308663 2.177254 0.49451819 14
-0.14246589 2.1736062 0.41559011 14
-0.14262541 2.1818748 0.33987001 14
-0.14131384 2.1676226 0.26201907 13
-0.14273715 2.1953571 0.18912795 15
-0.14204969 2.1906891 0.11304566 17
-0.14054669 2.1733844 0.037348147 15
nan nan nan 0
-0.14161381 2.2260828 -0.50614017 3
-0.13884546 2.1885948 -0.41844994 6
-0.13898709 2.1968954 -0.34259176 12
-0.14021093 2.2223954 -0.26872221 13
-0.13782614 2.19068 -0.18869248 14
-0.13683712 2.1810346 -0.11214787 14
-0.13630703 2.1786699 -0.037061393 14
-0.13591282 2.1784701 0.57420403 13
-0.13548572 2.1777401 0.49451819 14
-0.13487773 2.1740901 0.41559011 14
-0.13500838 2.1823592 0.33987001 13
-0.13374656 2.1681027 0.26201907 13
-0.13507305 2.195842 0.18912795 15
-0.13440189 2.1911716 0.11304566 16
-0.13295931 2.1738617 0.037348147 15
nan nan nan 0
-0.13306525 2.2266102 -0.50614017 3
-0.13044086 2.1891117 -0.41844994 6
-0.13055061 2.197413 -0.34259176 12
-0.13138309 2.2179637 -0.26811287 13
-0.12941353 2.1911931 -0.18869248 15
-0.12816806 2.1765594 -0.11188706 14
-0.12764755 2.1741865 -0.036975004 13
-0.12754712 2.1789758 0.57420403 13
-0.12712282 2.1782444 0.49451819 14
-0.12652884 2.174592 0.41559011 15
-0.12662774 2.1828616 0.33987001 13
-0.12513416 2.1636457 0.26140973 13
-0.12664066 2.1963444 0.18912795 15
-0.12570088 2.1866868 0.11278398 17
-0.12432528 2.1693652 0.037260886 15
nan nan nan 0
-0.12501845 2.2221966 -0.50501537 3
-0.1225238 2.1846533 -0.4174968 7
-0.12260373 2.1929243 -0.34180957 13
-0.12364015 2.2184088 -0.26811287 13
-0.12176406 2.1916316 -0.18869248 15
-0.12056967 2.1769936 -0.11188706 14
-0.12005743 2.1746187 -0.036975004 14
-0.1199403 2.1794078 0.57420403 14
-0.11951856 2.1786747 0.49451819 15
-0.11893734 2.1750205 0.41559011 14
-0.11873857 2.178359 0.33908868 13
-0.11758085 2.1640694 0.26140973 13
-0.11897321 2.1967731 0.18912795 15
-0.11806715 2.1871121 0.11278398 16
-0.11674536 2.1697862 0.037260886 16
nan nan nan 0
-0.11726078 2.2226195 -0.50501537 3
-0.11489718 2.1850677 -0.4174968 7
-0.11494825 2.1933389 -0.34180957 13
-0.11563683 2.2138708 -0.2675035 14
-0.11385413 2.1870689 -0.18825668 15
-0.11271109 2.1724148 -0.11162625 13
-0.11246587 2.1750245 -0.036975004 13
-0.11208344 2.1749895 0.57291073 14
-0.11191283 2.1790788 0.49451819 15
-0.11134437 2.1754224 0.41559011 14
-0.11113396 2.1787603 0.33908868 13
-0.11002612 2.1644666 0.26140973 13
-0.11105232 2.1922007 0.18869218 15
-0.11043198 2.187511 0.11278398 17
-0.10917735 2.1701803 0.037260886 15
-0.095600344 1.9339327 -0.50857961 2
-0.109262 2.2181497 -0.50389069 3
-0.10726918 2.1854553 -0.4174968 7
-0.10729137 2.1937268 -0.34180957 13
-0.10790827 2.2142608 -0.2675035 14
-0.10621915 2.187453 -0.18825668 15
-0.10512727 2.1727948 -0.11162625 14
-0.10487293 2.1754038 -0.036975004 13
-0.10449062 2.1753674 0.57291073 13
-0.10430575 2.179456 0.49451819 14
-0.10375005 2.1757977 0.41559011 14
-0.10352799 2.1791348 0.33908868 13
-0.10247006 2.1648376 0.26140973 13
-0.10339944 2.192575 0.18869218 15
-0.10279548 2.1878831 0.11278398 17
-0.10136758 2.1655543 0.037173621 15
-0.089292295 1.9439037 -0.51116782 2
-0.10151854 2.2185175 -0.50389069 3
-0.099639863 2.1858165 -0.4174968 7
-0.09963318 2.194088 -0.34180957 14
-0.10017841 2.2146242 -0.2675035 14
-0.098582864 2.1878104 -0.18825668 15
-0.097542152 2.1731486 -0.11162625 14
-0.097055428 2.1707625 -0.036888614 13
-0.096896537 2.175719 0.57291073 13
-0.09669739 2.1798069 0.49451819 15
-0.095937796 2.171243 0.41463691 14
-0.095920756 2.1794829 0.33908868 13
-0.094912738 2.1651821 0.26140973 13
-0.095745288 2.1929226 0.18869218 15
-0.095157713 2.1882286 0.11278398 17
-0.093807772 2.1658947 0.037173621 15
-0.081891954 1.9297276 -0.50728554 3
-0.093979552 2.2237256 -0.50501537 3
-0.092009328 2.186151 -0.4174968 7
-0.091973774 2.1944222 -0.34180957 14
-0.092447311 2.2149603 -0.2675035 14
-0.090945378 2.1881413 -0.18825668 16
-0.089955851 2.173476 -0.11162625 14
-0.089477465 2.1710882 -0.036888614 14
-0.089301266 2.176044 0.57291073 13
-0.088888936 2.1752632 0.49339426 15
-0.088358164 2.1715646 0.41463691 14
-0.088112444 2.17487 0.33830738 13
-0.087354265 2.1655002 0.26140973 14
-0.08808998 2.1932433 0.18869218 15
-0.087518789 2.1885474 0.11278398 17
-0.086246811 2.1662092 0.037173621 16
-0.075531304 1.9396536 -0.50987375 3
-0.086216733 2.2240403 -0.50501537 3
-0.084377676 2.1864588 -0.4174968 7
-0.084313251 2.19473 -0.34180957 14
-0.084525459 2.2103105 -0.26689416 15
-0.083306789 2.1884453 -0.18825668 15
-0.082368463 2.1737766 -0.11162625 14
-0.081898399 2.1713872 -0.036888614 13
-0.081704915 2.1763422 0.57291073 13
-0.081295311 2.1755602 0.49339426 14
-0.080777444 2.17186 0.41463691 15
-0.08052019 2.1751642 0.33830738 13
-0.079794727 2.165792 0.26140973 13
-0.080251068 2.1885595 0.1882564 15
-0.0798788 2.1888397 0.11278398 16
-0.078684807 2.166497 0.037173621 15
nan nan nan 0
-0.078624584 2.2291965 -0.50614017 3
-0.07657285 2.1818347 -0.41654357 7
-0.076479353 2.1900756 -0.34102744 14
-0.076809518 2.210592 -0.26689416 16
-0.07566718 2.1887228 -0.18825668 15
-0.074780062 2.1740508 -0.11162625 14
-0.074318349 2.1716599 -0.036888614 13
-0.07394322 2.1717875 0.57161748 14
-0.073700689 2.1758306 0.49339426 14
-0.073195748 2.1721287 0.41463691 14
-0.072926953 2.1754322 0.33830738 13
-0.072234213 2.1660573 0.26140973 13
-0.072611071 2.1888263 0.1882564 14
-0.072237834 2.189105 0.11278398 16
-0.070957847 2.1617622 0.037086364 15
nan nan nan 0
-0.070997477 2.2343266 -0.50726491 3
-0.068956353 2.1820886 -0.41654357 7
-0.068834104 2.1903291 -0.34102744 15
-0.068937622 2.2058864 -0.26628482 12
-0.068026654 2.1889734 -0.18825668 15
-0.067190751 2.1742988 -0.11162625 13
-0.066737384 2.171906 -0.036888614 13
-0.066361822 2.1720324 0.57161748 14
-0.065957233 2.1712048 0.49227038 15
-0.065613165 2.1723709 0.41463691 14
-0.065332837 2.1756735 0.33830738 13
-0.064524733 2.1613357 0.26080036 13
-0.064970203 2.1890664 0.1882564 15
-0.064448729 2.1843526 0.1125223 17
-0.063411459 2.1619966 0.037086364 15
nan nan nan 0
-0.063197792 2.2345607 -0.50726491 3
-0.061201125 2.1774099 -0.41559041 8
-0.061188005 2.1905563 -0.34102744 15
-0.061237223 2.2061136 -0.26628482 12
-0.060385298 2.1891978 -0.18825668 16
-0.059463818 2.1695287 -0.11136544 13
-0.059155613 2.1721258 -0.036888614 13
-0.058779608 2.1722507 0.57161748 13
-0.058377914 2.1714218 0.49227038 14
-0.058029771 2.1725867 0.41463691 15
-0.057737924 2.1758881 0.33830738 13
-0.056979872 2.1615479 0.26080036 13
-0.057328541 2.18928 0.1882564 15
-0.056823522 2.1845644 0.1125223 16
-0.055864289 2.162205 0.037086364 15
nan nan nan 0
-0.055397339 2.2347679 -0.50726491 3
-0.05360017 2.1776104 -0.41559041 8
-0.053541165 2.1907563 -0.34102744 15
-0.053415693 2.2013526 -0.26567549 12
-0.052743204 2.1893952 -0.18825668 16
-0.051890388 2.169723 -0.11136544 14
-0.051573116 2.1723192 -0.036888614 13
-0.051196679 2.1724427 0.57161748 14
-0.050797883 2.1716125 0.49227038 14
-0.05044568 2.172776 0.41463691 14
-0.050142303 2.1760767 0.33830738 13
