# .PCD v0.7 - Point Cloud Data file format
VERSION 0.7
FIELDS x y z intensity
SIZE 4 4 4 4
TYPE F F F F
COUNT 1 1 1 1
WIDTH 1368
HEIGHT 1
VIEWPOINT 0 0 0 1 0 0 0
POINTS 1368
DATA ascii
-0.47331157 -3.0787292 -0.48729378 4
-0.47917062 -3.1132224 -0.38206083 7
-0.43594104 -2.829071 -0.24708691 6
-0.41693601 -2.7026026 -0.14083686 2
nan nan nan 0
-0.7697435 -4.9779887 1.338516 18
-0.80561644 -5.2039671 1.20595 16
-0.84330457 -5.4411359 1.0618517 15
-0.33980587 -2.1899564 0.34455785 6
-0.33496693 -2.156287 0.26323774 10
nan nan nan 0
nan nan nan 0
nan nan nan 0
-0.29541045 -1.8843005 -0.50081509 3
-0.33755395 -2.1506631 -0.49376786 4
-0.48136556 -3.063442 -0.59478992 3
-0.44645116 -2.8380141 -0.44896728 3
-0.45915228 -2.9154384 -0.35768694 7
-0.44193488 -2.8029311 -0.24490802 10
-0.41858208 -2.6518095 -0.13822877 5
nan nan nan 0
-0.78711528 -4.9752712 1.338516 19
-0.82377684 -5.2011232 1.20595 15
-0.86306119 -5.4430065 1.0628049 15
-0.34744817 -2.1887569 0.34455785 6
-0.34249178 -2.1551044 0.26323774 9
nan nan nan 0
nan nan nan 0
nan nan nan 0
-0.3019861 -1.8832577 -0.50081509 3
-0.34583136 -2.1542823 -0.49489263 4
-0.44221127 -2.7515914 -0.53378582 3
-0.44066578 -2.7389235 -0.43332383 5
-0.46064535 -2.8599224 -0.3509841 8
-0.45092332 -2.7964537 -0.24447222 10
-0.43101898 -2.6700497 -0.139272 5
-0.4064793 -2.5152423 -0.043367881 4
-0.80447739 -4.9724932 1.338516 18
-0.84192705 -5.198216 1.20595 16
-0.88048446 -5.4302711 1.0608987 15
-0.35587761 -2.1924057 0.34533918 7
-0.35001239 -2.1538959 0.26323774 9
nan nan nan 0
nan nan nan 0
nan nan nan 0
-0.30933937 -1.8869582 -0.50210917 3
-0.35334909 -2.1530621 -0.49489263 4
-0.46136224 -2.8081517 -0.54522407 7
-0.45262814 -2.7519875 -0.43567032 7
-0.45772529 -2.7799485 -0.34123453 5
-0.46392241 -2.8145216 -0.24621536 9
-0.4411495 -2.6734555 -0.13953282 6
-0.41525665 -2.513808 -0.043367881 7
-0.82182974 -4.969655 1.338516 18
-0.86086291 -5.2000523 1.2070739 16
-0.90103918 -5.4368486 1.0628049 15
-0.36352834 -2.1911502 0.34533918 7
-0.35752875 -2.1526608 0.26323774 9
nan nan nan 0
nan nan nan 0
-0.39164981 -2.350487 0.04092589 37
-0.3159242 -1.885867 -0.50210917 3
-0.36166826 -2.15662 -0.49601737 4
-0.4622227 -2.753278 -0.53473902 5
-0.44668055 -2.6578581 -0.42080906 5
-0.45178252 -2.6853487 -0.32965693 5
-0.43982714 -2.6115012 -0.22834839 7
-0.44715843 -2.6522045 -0.13848959 6
-0.42236495 -2.5024841 -0.043195099 11
-0.83917207 -4.9667559 1.338516 18
-0.87900925 -5.1970158 1.2070739 16
-0.92083132 -5.4385099 1.0637581 12
-0.37117466 -2.189868 0.34533918 9
-0.36504075 -2.1513999 0.26323774 9
nan nan nan 0
nan nan nan 0
-0.39901328 -2.344177 0.040838629 45
-0.32331973 -1.8895133 -0.50340325 3
-0.36919406 -2.1553445 -0.49601737 4
-0.45358095 -2.6452184 -0.51376885 6
-0.44008154 -2.5638051 -0.40594777 7
-0.44014248 -2.5614791 -0.31442326 7
-0.43289706 -2.5166812 -0.22006857 9
-0.43692547 -2.5374496 -0.13249098 10
-0.43024844 -2.4960678 -0.043108709 14
-0.8565042 -4.9637961 1.338516 18
-0.89714485 -5.1939158 1.2070739 16
nan nan nan 0
-0.37713188 -2.1788263 0.34377655 8
-0.37170109 -2.1452229 0.26262844 10
nan nan nan 0
nan nan nan 0
-0.40804964 -2.3476956 0.04092589 49
-0.32991341 -1.888373 -0.50340325 3
-0.37671539 -2.1540425 -0.49601737 4
-0.4450371 -2.5420887 -0.49375188 7
-0.44306093 -2.5282028 -0.40047255 8
-0.44222099 -2.5208223 -0.30954847 7
-0.43995625 -2.505343 -0.21919702 7
-0.43972868 -2.5014844 -0.1306653 12
-0.43635958 -2.4797802 -0.042849541 9
-0.87466365 -4.9655333 1.3398093 19
-0.91526949 -5.190753 1.2070739 15
nan nan nan 0
-0.38301656 -2.1677701 0.34221393 6
-0.37832272 -2.1390254 0.26201907 8
nan nan nan 0
-0.39877862 -2.2501023 0.1177559 4
-0.41798869 -2.3561018 0.041100416 50
-0.33735085 -1.8919646 -0.50469732 3
-0.3842321 -2.1527145 -0.49601737 4
-0.43923211 -2.4583793 -0.47754765 5
-0.43362522 -2.4245536 -0.38404691 5
-0.43615007 -2.4362171 -0.29918957 5
-0.44166979 -2.4645691 -0.21571079 4
-0.44845784 -2.4999342 -0.1306653 7
-0.44678009 -2.4880829 -0.04302232 12
-0.89199126 -4.96245 1.3398093 18
-0.93424577 -5.1923208 1.2081978 16
nan nan nan 0
-0.38882869 -2.1566997 0.34065133 5
-0.38402423 -2.1279242 0.26080036 6
nan nan nan 0
-0.40485355 -2.2388699 0.11723254 5
-0.42621046 -2.3546281 0.041100416 50
-0.34481737 -1.8955271 -0.50599146 3
-0.39174414 -2.1513603 -0.49601737 4
-0.43108806 -2.3650849 -0.45943707 5
-0.41726682 -2.2869947 -0.36214611 4
-0.42146963 -2.3077486 -0.28334656 3
-0.40369156 -2.2082243 -0.19305027 3
-0.43920562 -2.400121 -0.12544914 3
-0.43474528 -2.3734071 -0.041035343 7
-0.9101792 -4.964057 1.3411026 18
-0.95236468 -5.1890283 1.2081978 16
-0.40068832 -2.1810355 0.42321563 7
-0.39546135 -2.1504719 0.33987001 5
-0.39055133 -2.12169 0.26019105 6
-0.40496927 -2.1978617 0.19217841 8
-0.4153831 -2.2521739 0.11801757 7
-0.41627488 -2.2548029 0.039355174 52
-0.35143188 -1.8943119 -0.50599146 2
-0.39836195 -2.14519 -0.49489263 4
-0.41243136 -2.2187965 -0.43084142 6
-0.41711721 -2.241828 -0.35510653 7
-0.41771024 -2.2428384 -0.27542502 6
-0.41048443 -2.2019053 -0.1926145 9
-0.40361607 -2.1629667 -0.1129303 3
-0.41365442 -2.2146184 -0.038270857 12
-0.9275015 -4.9608498 1.3411026 18
-0.97047198 -5.1856723 1.2081978 16
-0.40920284 -2.184448 0.4241688 8
-0.40296549 -2.1490784 0.33987001 6
-0.39612412 -2.1105587 0.25897235 6
-0.41263878 -2.1964345 0.19217841 9
-0.41955101 -2.2310817 0.11697085 8
-0.41489547 -2.2042065 0.038482554 63
-0.36252975 -1.9168011 -0.5124619 3
-0.40547347 -2.143857 -0.49489263 4
-0.42252579 -2.2318845 -0.43370095 8
-0.42362967 -2.2355802 -0.35432434 11
-0.42514545 -2.2414408 -0.27542502 7
-0.42057115 -2.2152123 -0.19392182 9
-0.41824415 -2.2008595 -0.11501677 11
-0.41725934 -2.1935899 -0.037925296 9
-0.94485044 -4.9624915 1.3423959 18
-0.98857504 -5.1872115 1.2093217 15
-0.41736424 -2.1879005 0.42512199 8
-0.4110162 -2.1525817 0.34065133 5
-0.40218917 -2.1043589 0.25836298 6
-0.41711253 -2.1803777 0.19087109 9
-0.42600816 -2.2247741 0.11670918 9
-0.42126158 -2.1979086 0.038395293 57
-0.36523107 -1.8966184 -0.50728554 3
-0.41203231 -2.1376448 -0.49376786 4
-0.43124378 -2.2352154 -0.43465418 6
-0.4314307 -2.2340879 -0.35432434 7
-0.43485057 -2.2496881 -0.27664372 6
-0.42546272 -2.1990602 -0.1926145 6
-0.42782268 -2.2091904 -0.11553839 10
-0.42491385 -2.1921201 -0.037925296 6
-0.96216708 -4.9591632 1.3423959 18
-1.0066758 -5.1837292 1.2093217 15
-0.42218921 -2.1719756 0.4222624 8
-0.4185276 -2.1511335 0.34065133 6
-0.40953231 -2.1029422 0.25836298 6
-0.42662683 -2.1886861 0.19174264 8
-0.43377149 -2.2232735 0.11670918 11
-1.4800564 -7.5789151 0.13412173 82
-0.37091947 -1.8905927 -0.50599146 3
-0.41911873 -2.1362665 -0.49376786 4
-1.4932166 -7.6039653 -1.4974599 30
nan nan nan 0
nan nan nan 0
-1.4932719 -7.5832458 -0.67284334 33
-0.43514627 -2.2077596 -0.11553839 6
-0.42540759 -2.1563659 -0.037320562 2
-0.97860694 -4.955945 1.3423959 18
-1.0238601 -5.1803627 1.2093217 14
-0.43129447 -2.1801937 0.4241688 8
-0.4246994 -2.1448894 0.33987001 6
-0.41746849 -2.1064408 0.25897235 6
-0.43291324 -2.1823735 0.19130686 7
-0.44697618 -2.2512081 0.11827926 12
-0.43036565 -2.16557 0.037871718 4
-0.37529582 -1.8798801 -0.50340325 3
-0.42657316 -2.1347904 -0.49376786 4
-1.5187877 -7.5938935 -1.4965067 26
-1.5197077 -7.5916033 -1.2201898 29
-1.5226269 -7.5992947 -0.94692588 26
-1.5207127 -7.5828705 -0.67327917 30
-1.5188731 -7.5668468 -0.40112427 36
-1.5249838 -7.5904236 -0.1331273 31
-0.99685252 -4.9572334 1.343689 18
-1.0419368 -5.1767569 1.2093217 15
-0.43890214 -2.1786749 0.4241688 8
-0.43120775 -2.1385524 0.33908868 6
-0.42481878 -2.1049707 0.25897235 5
-0.44151473 -2.1857316 0.19174264 7
-0.45977908 -2.2741046 0.11958765 10
-1.5345844 -7.5833645 0.13438351 30
-0.38122052 -1.8737592 -0.50210917 3
-0.4334226 -2.1284392 -0.49264312 4
-1.5446501 -7.5786572 -1.4946003 16
-1.5465349 -7.5811429 -1.2194076 21
-1.5504694 -7.5936623 -0.94692588 17
-1.5465004 -7.5674849 -0.67240757 19
-1.5495985 -7.5759044 -0.40190667 33
-1.5517912 -7.579886 -0.1330409 27
-1.015015 -4.9535465 1.343689 18
-1.0609035 -5.1729031 1.2093217 15
nan nan nan 0
nan nan nan 0
-0.43353057 -2.1082602 0.25958169 5
-0.45052698 -2.1889772 0.19217841 7
-0.46609619 -2.2626233 0.11906429 6
-1.55934 -7.5630002 0.13412173 20
-0.38677943 -1.8676877 -0.50081509 3
-0.4408496 -2.1269131 -0.49264312 4
-1.5730891 -7.5828309 -1.4965067 17
-1.5729886 -7.5756984 -1.2194076 18
-1.5779765 -7.5930629 -0.94753516 18
-1.5749352 -7.571795 -0.67327917 22
-1.5750163 -7.5655613 -0.40164587 23
-1.5782405 -7.5744228 -0.1330409 27
-1.0323 -4.9499731 1.343689 19
-1.0789539 -5.1691685 1.2093217 15
-0.45448104 -2.1754785 0.4241688 3
-1.1853676 -5.6690931 0.91022652 32
nan nan nan 0
nan nan nan 0
-1.5876129 -7.5730596 0.40351021 32
-1.5867569 -7.5624037 0.13420901 19
-0.39329654 -1.8663262 -0.50081509 3
-0.44827124 -2.1253614 -0.49264312 4
-1.5995486 -7.5772939 -1.4965067 16
-1.5994232 -7.5701613 -1.2194076 18
-1.6054984 -7.5923643 -0.94814456 20
-1.6013561 -7.5662508 -0.67327917 20
-1.6014154 -7.5600171 -0.40164587 23
-1.6057074 -7.5737581 -0.1331273 26
-1.0495722 -4.9463396 1.343689 18
-1.0969911 -5.1653709 1.2093217 16
-1.1509051 -5.4145837 1.0675709 30
-1.2051492 -5.6649208 0.91022652 27
-0.44513783 -2.0906205 0.25775367 2
-1.6150335 -7.5786228 0.67458546 34
-1.614038 -7.5674715 0.40351021 27
-1.6141884 -7.5617075 0.13429625 19
-0.39879647 -1.8602197 -0.49952096 3
-0.45568737 -2.1237836 -0.49264312 4
-1.6270192 -7.5764632 -1.4974599 17
-1.626876 -7.5693607 -1.2201898 19
-1.6319909 -7.5867138 -0.94814456 19
-1.6288059 -7.5654845 -0.67371494 21
-1.6288468 -7.5592623 -0.40190667 24
-1.633189 -7.5729942 -0.13321368 28
-1.0668318 -4.942646 1.343689 17
-1.1160436 -5.1662722 1.2104456 14
-1.1708356 -5.4153309 1.0685241 24
-1.2249161 -5.6606793 0.91022652 21
-1.2255573 -5.658864 0.70623285 28
-1.6414781 -7.5729389 0.67458546 32
-1.6404436 -7.5617914 0.40351021 17
-1.6416347 -7.5609126 0.13438351 20
-0.40528741 -1.8588163 -0.49952096 3
-0.46309799 -2.12218 -0.49264312 4
-1.6545032 -7.5755329 -1.498413 16
-1.6543427 -7.5684605 -1.2209719 19
-1.6595242 -7.5858188 -0.94875389 18
-1.6562697 -7.5646186 -0.67415071 20
-1.6562924 -7.5584078 -0.4021675 24
-1.6606845 -7.5721297 -0.13330007 28
-1.0851139 -4.9436092 1.3449823 18
-1.1340704 -5.1623449 1.2104456 15
-1.1876236 -5.4016228 1.0666177 14
-1.2446682 -5.6563692 0.91022652 22
-1.2453029 -5.6545515 0.70623285 27
-1.6679026 -7.567163 0.67458546 21
-1.6668292 -7.5560193 0.40351021 17
-1.669095 -7.5600181 0.13447079 20
-0.41072813 -1.8526751 -0.49822688 3
-0.47050297 -2.1205506 -0.49264312 4
-1.6820006 -7.5745029 -1.4993663 16
-1.6818228 -7.567461 -1.2217542 20
-1.6870711 -7.5848241 -0.94936323 18
-1.6837474 -7.5636525 -0.67458647 20
-1.6837518 -7.5574541 -0.40242827 23
-1.6881942 -7.571167 -0.13338646 28
-1.1023637 -4.9397917 1.3449823 17
-1.1531454 -5.1631098 1.2115695 15
-1.2054007 -5.3926539 1.0656645 14
-1.2654831 -5.6568093 0.91100788 21
-1.2661177 -5.6550131 0.70684212 28
-1.6953958 -7.5661554 0.67502123 22
-1.6953796 -7.5598989 0.40403357 16
-1.6965691 -7.5590234 0.13455805 18
-0.41719264 -1.8512301 -0.49822688 3
-0.4779022 -2.1188953 -0.49264312 4
-1.7095112 -7.5733733 -1.5003195 17
-1.7093163 -7.566361 -1.2225363 19
-1.7135367 -7.5788889 -0.94936323 17
-1.7112386 -7.5625873 -0.67502224 20
-1.7112248 -7.5563998 -0.4026891 24
-1.7146121 -7.5652275 -0.13338646 28
-1.1206684 -4.9406238 1.3462756 20
-1.1711611 -5.1590528 1.2115695 15
-1.2263923 -5.3979864 1.0675709 14
-1.2863164 -5.6571736 0.91178918 20
-1.2869508 -5.6553979 0.70745152 28
-1.7217963 -7.5601912 0.67502123 22
-1.7228678 -7.5588036 0.40429524 17
-1.7229447 -7.5530558 0.13455805 20
-0.42365211 -1.8497626 -0.49822688 3
-0.48529562 -2.1172142 -0.49264312 4
-1.7370342 -7.5721445 -1.5012727 16
-1.7368222 -7.5651612 -1.2233185 18
-1.7410928 -7.5776978 -0.94997257 18
-1.7387427 -7.5614223 -0.67545807 20
-1.7375911 -7.5503807 -0.4026891 24
-1.7421312 -7.5640683 -0.13347286 26
-1.1379076 -4.9366817 1.3462756 18
-1.1902574 -5.1596813 1.2126935 15
-1.2452273 -5.3936729 1.0675709 14
-1.3071674 -5.6574602 0.91257042 21
-1.306684 -5.6508713 0.70745152 28
-1.7492989 -7.5589876 0.675457 23
-1.7503692 -7.5576077 0.40455693 17
-1.750428 -7.5518646 0.1346453 21
-0.4301064 -1.8482724 -0.49822688 3
-0.49268314 -2.1155074 -0.49264312 3
-1.7645694 -7.5708141 -1.5022258 16
-1.7632191 -7.5590525 -1.2233185 17
-1.7686614 -7.576407 -0.95058191 17
-1.7662596 -7.5601568 -0.67589378 21
-1.7650732 -7.5491314 -0.4029499 23
-1.7696633 -7.562809 -0.13355924 28
-1.1562343 -4.9373827 1.3475689 17
-1.2082609 -5.1554947 1.2126935 15
-1.265168 -5.3940721 1.0685241 14
-1.3269078 -5.652863 0.91257042 19
-1.3275362 -5.6511068 0.70806086 27
-1.7768137 -7.5576839 0.67589277 23
-1.7778831 -7.5563121 0.40481859 18
-1.7779241 -7.5505748 0.13473257 21
-0.43655547 -1.8467599 -0.49822688 3
-0.50006461 -2.1137745 -0.49264312 4
-1.7921166 -7.5693851 -1.503179 16
-1.7907329 -7.5576568 -1.2241007 18
-1.7962424 -7.575016 -0.95119131 17
-1.7926387 -7.5539455 -0.67589378 19
-1.7925677 -7.5477829 -0.40321073 24
-1.7960516 -7.5565858 -0.13355924 27
-1.1734619 -4.9333167 1.3475689 18
-1.2273778 -5.1559854 1.2138174 15
-1.2851264 -5.3943973 1.0694772 14
-1.3477772 -5.6530008 0.91335177 22
-1.3484061 -5.6512661 0.7086702 28
-1.8043411 -7.5562801 0.67632854 22
-1.8042487 -7.5500603 0.40481859 17
-1.8054326 -7.5491853 0.13481984 20
-0.44267714 -1.8453021 -0.49822688 3
-0.50670278 -2.1121933 -0.49264312 3
-1.8170335 -7.5684905 -1.5041322 17
-1.8156208 -7.5567961 -1.2248828 18
-1.8211913 -7.5741606 -0.95180064 18
-1.8175265 -7.5531192 -0.67632961 19
-1.8174398 -7.546968 -0.40347153 23
-1.8209536 -7.5557652 -0.13364564 26
-1.1889546 -4.929606 1.3475689 17
-1.2447128 -5.1568394 1.2149411 15
-1.3020672 -5.3903332 1.0694772 14
-1.3666904 -5.6535392 0.91413307 22
-1.3673201 -5.651825 0.70927954 28
-1.828071 -7.5505748 0.67632854 22
-1.8291347 -7.5492072 0.40508029 17
-1.8303181 -7.5483346 0.1349071 21
-0.44879395 -1.843824 -0.49822688 3
-0.5140726 -2.1104116 -0.49264312 3
-1.8446038 -7.5668707 -1.5050853 16
-1.8431584 -7.5552101 -1.2256651 18
-1.848796 -7.5725789 -0.95240998 18
-1.845063 -7.5515676 -0.67676538 20
-1.8449584 -7.5454283 -0.40373233 23
-1.8485054 -7.5542192 -0.13373202 28
-1.2061548 -4.9254255 1.3475689 17
-1.2627059 -5.1524634 1.2149411 16
-1.3220441 -5.390523 1.0704304 14
-1.3875939 -5.6535306 0.91491443 22
-1.3870404 -5.647018 0.70927954 29
-1.8556052 -7.5489845 0.67676437 23
-1.856668 -7.5476251 0.40534195 17
-1.8578506 -7.5467539 0.13499436 19
-0.45554888 -1.8421667 -0.49822688 3
-0.52180415 -2.1085134 -0.49264312 3
-1.8735054 -7.5648232 -1.5060385 16
-1.8720251 -7.5531964 -1.2264472 18
-1.8777331 -7.5705686 -0.95301932 17
-1.8739283 -7.5495892 -0.67720115 19
-1.8726015 -7.5386157 -0.40373233 22
-1.8773867 -7.5522451 -0.13381842 28
-1.2253653 -4.9256582 1.3488621 18
-1.2827592 -5.1525288 1.2160652 15
-1.3417925 -5.3856406 1.0704304 14
-1.4083058 -5.6484065 0.91491443 22
-1.4089298 -5.6467113 0.70988888 27
-1.884468 -7.5469651 0.67720014 21
-1.8855295 -7.5456142 0.40560365 18
-1.8867111 -7.5447435 0.13508162 19
-0.46197647 -1.8405653 -0.49822688 3
-0.53034788 -2.1114037 -0.49376786 3
-1.9010967 -7.5629978 -1.5069917 16
-1.8995842 -7.5514054 -1.2272294 18
-1.9053595 -7.5687804 -0.95362866 18
-1.9014868 -7.5478315 -0.67763692 21
-1.9001255 -7.5368752 -0.40399316 23
-1.9049604 -7.5504928 -0.13390481 27
-1.2425516 -4.921351 1.3488621 17
-1.3007371 -5.1480198 1.2160652 15
-1.361787 -5.3856831 1.0713836 14
-1.4292251 -5.6482434 0.91569567 21
-1.4298502 -5.6465702 0.71049827 27
-1.9120238 -7.5451698 0.67763591 22
-1.9130845 -7.5438256 0.40586531 17
-1.9142655 -7.5429573 0.13516888 18
-0.46839842 -1.8389415 -0.49822688 3
-0.53771484 -2.1095397 -0.49376786 3
-1.9286981 -7.5610714 -1.5079449 16
-1.9271533 -7.5495138 -1.2280116 17
-1.9329962 -7.5668912 -0.95423806 17
-1.9290557 -7.5459738 -0.67807269 19
-1.9276601 -7.5350342 -0.40425396 23
-1.9325447 -7.5486407 -0.1339912 26
-1.2609215 -4.9216623 1.3501554 18
-1.3199091 -5.1481671 1.2171891 15
-1.381798 -5.3856511 1.0723369 14
-1.4501606 -5.6480036 0.91647702 21
-1.4507868 -5.6463513 0.71110761 26
-1.9395902 -7.5432739 0.67807168 21
-1.94065 -7.5419374 0.40612701 17
-1.9418304 -7.5410709 0.13525614 21
-0.47481471 -1.8372952 -0.49822688 3
-0.54629505 -2.1123667 -0.49489263 3
-1.9563091 -7.5590448 -1.5088981 16
-1.9559708 -7.5523019 -1.2295759 18
-1.9606429 -7.5649023 -0.9548474 17
-1.9566349 -7.5440159 -0.67850852 20
-1.9564592 -7.5379248 -0.40477556 22
-1.9601395 -7.5466871 -0.13407758 27
-1.2793086 -4.9219055 1.3514485 17
-1.3390981 -5.1482439 1.218313 15
-1.400589 -5.380795 1.0723369 14
-1.471112 -5.647687 0.91725832 21
-1.4704875 -5.6412525 0.71110761 27
-1.9671665 -7.5412774 0.67850745 21
-1.9682255 -7.5399485 0.4063887 18
-1.9681418 -7.5342469 0.13525614 21
-0.48122516 -1.8356266 -0.49822688 3
-0.55366528 -2.1104469 -0.49489263 3
-1.9839295 -7.5569172 -1.5098512 16
-1.9835759 -7.5502048 -1.230358 19
-1.988299 -7.5628114 -0.95545667 17
-1.9842238 -7.5419574 -0.67894429 20
-1.9840308 -7.5358787 -0.40503639 22
-1.9877442 -7.5446339 -0.13416398 27
-1.2964815 -4.9174099 1.3514485 17
-1.3570606 -5.143538 1.218313 15
-1.4206159 -5.3806186 1.07329 14
-1.4908172 -5.6425176 0.91725832 21
-1.4914386 -5.640883 0.71171689 28
-1.9960266 -7.5439944 0.67937899 22
-1.995811 -7.5378594 0.40665036 17
-1.9957094 -7.5321627 0.1353434 20
-0.48887077 -1.838603 -0.49952096 2
-0.56102872 -2.1085014 -0.49489263 3
-2.011559 -7.5546889 -1.5108045 16
-2.0111907 -7.5480075 -1.2311403 19
-2.0159647 -7.5606203 -0.95606607 18
-2.011822 -7.5397973 -0.67938006 20
-2.0116119 -7.5337315 -0.40529719 24
-2.0153582 -7.542479 -0.13425037 28
-1.3148861 -4.9175205 1.3527418 17
-1.376266 -5.143476 1.2194368 15
-1.4406587 -5.3803682 1.0742432 14
-1.5117824 -5.6420493 0.91803968 20
-1.5124052 -5.6404357 0.71232629 27
-2.0236387 -7.5417924 0.67981476 22
-2.0234056 -7.5356693 0.40691203 17
-2.0232868 -7.5299788 0.13543066 19
-0.49528569 -1.8368853 -0.49952096 3
-0.56838536 -2.1065302 -0.49489263 2
-2.0379176 -7.5476213 -1.5108045 16
-2.0388138 -7.5457077 -1.2319224 18
-2.0436394 -7.5583277 -0.95667541 17
-2.0407305 -7.542345 -0.6802516 18
-2.0392022 -7.5314827 -0.40555799 24
-2.0429814 -7.5402226 -0.13433675 28
-1.3320434 -4.9129004 1.3527418 17
-1.3954873 -5.1433425 1.2205608 15
-1.460717 -5.3800435 1.0751964 14
-1.5327623 -5.6415033 0.91882092 22
-1.5333868 -5.6399112 0.71293563 27
-2.0512598 -7.5394888 0.68025059 22
-2.0510094 -7.5333776 0.40717372 18
-2.050873 -7.5276937 0.13551793 19
-0.50169462 -1.8351454 -0.49952096 3
-0.57444948 -2.099834 -0.49376786 2
-2.0655472 -7.5451956 -1.5117577 16
-2.0664456 -7.5433078 -1.2327045 19
-2.0713224 -7.5559344 -0.95728481 17
-2.0683634 -7.5399795 -0.68068743 21
-2.0668015 -7.5291343 -0.40581879 22
-2.0706136 -7.5378666 -0.13442315 27
-1.3504646 -4.9128776 1.354035 18
-1.4134325 -5.1384401 1.2205608 15
-1.4794879 -5.3749118 1.0751964 14
-1.5537568 -5.6408796 0.91960222 22
-1.5530643 -5.6345243 0.71293563 28
-2.0802138 -7.5418863 0.68112212 21
-2.0786216 -7.5309858 0.40743542 18
-2.0784683 -7.5253081 0.13560519 20
-0.50938725 -1.8380371 -0.50081509 2
-0.58177578 -2.097816 -0.49376786 2
-2.0931849 -7.5426698 -1.5127109 16
-2.0940857 -7.5408068 -1.2334868 20
-2.0990133 -7.5534396 -0.95789409 17
-2.0960047 -7.5375118 -0.6811232 20
-2.094409 -7.5266843 -0.40607962 23
-2.0995951 -7.540225 -0.13459593 26
-1.3676054 -4.908134 1.354035 17
-1.4326689 -5.1381683 1.2216847 14
-1.49956 -5.3744426 1.0761496 14
-1.5747659 -5.6401787 0.92038357 20
-1.5740585 -5.6338482 0.71354496 26
-2.1078682 -7.5393753 0.68155789 22
-2.1075876 -7.5333009 0.40795875 17
-2.1060715 -7.5228209 0.13569245 21
-0.51580012 -1.8362478 -0.50081509 2
-0.589095 -2.0957725 -0.49376786 2
-2.1208301 -7.5400424 -1.5136641 15
-2.1217332 -7.5382056 -1.2342689 18
-2.128058 -7.5556202 -0.95911282 18
-2.1236539 -7.5349436 -0.68155897 20
-2.1220248 -7.5241337 -0.40634042 23
-2.1272602 -7.5376616 -0.13468231 26
-1.3860425 -4.9079785 1.3553283 18
-1.4505957 -5.1331358 1.2216847 15
-1.5196468 -5.3738985 1.0771028 14
-1.5957891 -5.6393995 0.92116487 20
-1.5950668 -5.6330943 0.7141543 27
-2.1355307 -7.5367646 0.68199366 22
-2.1352332 -7.5307021 0.40822044 17
-2.1336827 -7.5202327 0.13577971 20
-0.52352899 -1.8390813 -0.50210917 3
-0.59507239 -2.0890181 -0.49264312 2
-2.1484821 -7.5373125 -1.5146172 16
-2.1507428 -7.5402508 -1.2358333 18
-2.1557813 -7.5529184 -0.95972216 17
-2.1499429 -7.5274849 -0.68155897 21
-2.149648 -7.521481 -0.40660122 23
-2.1563079 -7.539803 -0.13485509 28
-1.4031662 -4.9031105 1.3553283 17
-1.4698462 -5.1327252 1.2228086 15
-1.539748 -5.3732791 1.078056 14
-1.6168258 -5.6385422 0.92194623 21
-1.616089 -5.6322627 0.71476364 27
-2.1632006 -7.5340519 0.68242949 22
-2.1628859 -7.5280018 0.40848213 18
-2.1626828 -7.5223484 0.13595425 20
-0.52860689 -1.832602 -0.50081509 2
-0.60236079 -2.0869284 -0.49264312 2
-2.1775031 -7.5391989 -1.5165237 17
-2.178421 -7.5374422 -1.2366154 18
-2.1848903 -7.5548816 -0.96094084 18
-2.1803598 -7.5342889 -0.68286633 23
-2.1772785 -7.5187273 -0.40686205 22
-2.1826136 -7.5322304 -0.13485509 28
-1.4216177 -4.9028211 1.3566216 16
-1.4891113 -5.1322417 1.2239324 15
-1.5598634 -5.3725853 1.0790092 14
-1.6378758 -5.6376061 0.92272747 21
-1.6371248 -5.6313529 0.71537304 27
-2.1894863 -7.5264549 0.68242949 23
-2.1919415 -7.529995 0.40900549 18
-2.1903257 -7.5195527 0.13604149 20
-0.53364593 -1.82611 -0.49952096 3
-0.60827446 -2.0801365 -0.49151835 2
-2.2065632 -7.5409732 -1.51843 18
-2.207494 -7.5392714 -1.2381798 22
-2.2112484 -7.5472093 -0.96094084 26
-2.2080472 -7.5314116 -0.68330204 26
-2.206322 -7.5206647 -0.40738368 25
-2.2131171 -7.5389557 -0.13511427 30
-1.4387231 -4.8978291 1.3566216 17
-1.5083911 -5.1316867 1.2250564 15
-1.5786078 -5.3671079 1.0790092 14
-1.6589391 -5.6365924 0.92350882 23
-1.658174 -5.6303644 0.71598238 28
-2.219969 -7.5330992 0.6837368 26
-2.219625 -7.5270867 0.40926716 21
-2.2208052 -7.5262465 0.13630329 26
-0.54001695 -1.824236 -0.49952096 2
-0.61414814 -2.0733297 -0.49039361 2
-2.2328727 -7.5332246 -1.51843 15
-2.232393 -7.5267854 -1.2373977 16
-2.2220476 -7.4871106 -0.95423806 8
-2.2201433 -7.4759097 -0.67894429 7
-2.2354052 -7.52249 -0.40790528 28
-2.2351449 -7.516809 -0.13485509 22
-1.4571882 -4.8974066 1.3579149 16
-1.5276852 -5.1310601 1.2261803 16
-1.5987343 -5.3662691 1.0799624 14
-1.6800153 -5.6355 0.92429012 21
-1.6792362 -5.6292973 0.71659166 27
-2.2476757 -7.5300775 0.68417257 15
-2.2458858 -7.5192924 0.40926716 18
-2.2298841 -7.4609699 0.13525614 8
-0.54499441 -1.8177139 -0.49822688 3
-0.61858165 -2.0618403 -0.48814404 2
-2.2252846 -7.4125595 -1.4955535 8
-2.227396 -7.4148941 -1.2201898 9
-2.2310259 -7.422277 -0.94692588 14
-2.2404869 -7.4490342 -0.67720115 34
-2.2458208 -7.4620461 -0.40503639 8
-2.2296546 -7.4036498 -0.13295451 17
-1.4742746 -4.8922901 1.3579149 16
-1.5455866 -5.1256962 1.2261803 15
-1.6188742 -5.365355 1.0809156 14
-1.7011039 -5.6343288 0.92507148 21
-1.7003109 -5.6281519 0.71720105 28
-2.2379138 -7.4029889 0.67327809 16
-2.2388687 -7.401484 0.40324852 12
-2.2501211 -7.434001 0.1349071 19
-0.55133611 -1.8158004 -0.49822688 3
-0.62860763 -2.0689917 -0.49039361 2
-2.2511456 -7.404747 -1.4955535 15
-2.2532654 -7.407074 -1.2201898 18
-2.2583663 -7.4191909 -0.94753516 17
-2.2592187 -7.4173446 -0.67502224 28
-2.2674873 -7.4398327 -0.40425396 21
-2.2584012 -7.4053855 -0.1331273 25
-1.4927526 -4.8917336 1.3592081 17
-1.5648921 -5.1249294 1.2273042 15
-1.639027 -5.3643651 1.0818686 14
-1.7222049 -5.6330795 0.92585272 23
-1.7213982 -5.6269283 0.71781039 27
-2.2637413 -7.3951316 0.67327809 19
-2.2661533 -7.3983979 0.40351021 18
-2.2672672 -7.3974228 0.13438351 19
-0.55909038 -1.8184812 -0.49952096 2
-0.64012343 -2.080754 -0.49376786 2
-2.2798674 -7.4062266 -1.4974599 16
-2.280561 -7.403883 -1.2209719 19
-2.2871737 -7.4207482 -0.94875389 17
-2.2821603 -7.3998933 -0.67415071 22
-2.2846091 -7.403245 -0.4026891 23
-2.2857122 -7.4022341 -0.13321368 28
-1.5112445 -4.8911076 1.3605013 16
-1.5827718 -5.1194358 1.2273042 15
-1.6577421 -5.3586106 1.0818686 14
-1.7418575 -5.6270337 0.92585272 22
-1.7424979 -5.6256256 0.71841973 28
-2.2924905 -7.3967004 0.67414963 21
-2.2919648 -7.3904424 0.40351021 19
-2.2930751 -7.3894634 0.13438351 23
-0.56543463 -1.8165184 -0.49952096 2
-0.65028024 -2.0878098 -0.49601737 2
-2.3086269 -7.4075947 -1.4993663 18
-2.3078616 -7.4005923 -1.2217542 21
-2.3160198 -7.422194 -0.94997257 22
-2.3094616 -7.3966365 -0.67458647 28
-2.3089483 -7.3904591 -0.40242827 26
-2.3145201 -7.4037533 -0.13338646 31
-1.5297505 -4.8904123 1.3617946 17
-1.6020875 -5.1185293 1.228428 15
-1.6779041 -5.3574758 1.0828218 14
-1.7629659 -5.6256318 0.92663407 23
-1.7636093 -5.6242447 0.71902913 28
-2.3242605 -7.4076629 0.67589277 28
-2.3237309 -7.4014525 0.40455693 24
-2.321852 -7.3909535 0.13455805 22
-0.57177204 -1.8145337 -0.49952096 2
-0.65902913 -2.0901737 -0.49714214 2
-2.335947 -7.4041724 -1.5003195 17
-2.3366537 -7.4019094 -1.2233185 20
-2.3389242 -7.4046001 -0.94875389 14
-2.3217564 -7.3457856 -0.67066443 8
-2.3362374 -7.387115 -0.4026891 29
-2.335825 -7.38133 -0.1331273 15
-1.5468121 -4.8850431 1.3617946 17
-1.6199449 -5.1129055 1.228428 15
-1.6980783 -5.3562651 1.0837752 13
-1.7840856 -5.6241512 0.92741537 22
-1.7862337 -5.6275144 0.72024781 28
-2.3395495 -7.3662734 0.67284232 10
-2.3419914 -7.3695035 0.40324852 11
-2.317338 -7.2875195 0.1328128 6
-0.57810247 -1.8125268 -0.49952096 2
-0.66483992 -2.0832191 -0.49601737 2
-2.3363953 -7.3164864 -1.4841152 6
-2.3339181 -7.3043294 -1.2084572 5
-2.3360419 -7.3065777 -0.93717635 5
-2.3109591 -7.2237778 -0.66020578 5
-2.3437421 -7.3218493 -0.39955938 7
-2.3249781 -7.2588673 -0.13105394 7
-1.5653286 -4.8842134 1.3630879 17
-1.6392701 -5.1118593 1.229552 14
-1.7182645 -5.354979 1.0847284 14
-1.8052163 -5.6225915 0.92819673 23
-1.8073843 -5.6259699 0.72085714 27
-2.3286648 -7.2442541 0.66238368 5
-2.3310087 -7.2472034 0.39696822 5
-2.3182571 -7.2032442 0.1314166 16
-0.58442581 -1.8104978 -0.49952096 2
-0.67210764 -2.0808856 -0.49601737 2
-2.3347511 -7.2242184 -1.4669578 12
-2.3366084 -7.2256546 -1.1967247 16
-2.3401432 -7.2322745 -0.92864543 15
-2.3192842 -7.1635404 -0.6554122 15
-2.3338926 -7.2043695 -0.39356077 5
-2.3163884 -7.1460829 -0.12915334 7
-1.5823681 -4.8787193 1.3630879 17
-1.6586077 -5.1107402 1.2306759 14
-1.7384621 -5.3536162 1.0856814 14
-1.8263577 -5.6209521 0.92897797 23
-1.8285459 -5.6243463 0.72146648 27
-2.3323658 -7.1697683 0.65628272 16
-2.3346555 -7.1725512 0.39330471 16
-2.3077791 -7.0857792 0.12940958 11
-0.59074205 -1.8084466 -0.49952096 2
-0.67936724 -2.078527 -0.49601737 2
-2.3263884 -7.1133909 -1.4459877 13
-2.3264906 -7.1095037 -1.1787347 11
-2.3267674 -7.1061535 -0.91341174 11
-2.3117092 -7.0559993 -0.64626086 15
-2.3325846 -7.1155186 -0.38912705 13
-2.3132725 -7.0524492 -0.12759832 6
-1.6008946 -4.8777552 1.3643812 16
-1.6779577 -5.1095486 1.2317998 14
-1.7586715 -5.3521786 1.0866346 14
-1.8490525 -5.6239262 0.93054062 23
-1.8497183 -5.6226435 0.72207582 27
-2.3231165 -7.0574956 0.64669561 12
-2.3268757 -7.064765 0.38780943 11
-2.3027685 -6.9874663 0.1277516 11
-0.60159814 -1.8201306 -0.50340325 2
-0.68661845 -2.0761428 -0.49601737 2
-2.3234489 -7.0213509 -1.4288303 13
-2.3233526 -7.0169525 -1.1646556 11
-2.3234653 -7.0131912 -0.90244347 11
-2.3049793 -6.9533277 -0.63754523 15
-2.3275406 -7.0172858 -0.38417166 13
-2.3079569 -6.9541812 -0.12595691 6
-1.6179112 -4.8721375 1.3643812 16
-1.6973191 -5.1082835 1.2329236 15
-1.7788918 -5.3506646 1.0875878 14
-1.8702314 -5.6221237 0.93132192 23
-1.8709011 -5.6208611 0.72268516 28
-2.3178337 -6.9595542 0.63841581 13
-2.3215296 -6.9665956 0.3828375 12
-2.2971005 -6.8892779 0.12609363 12
-0.59722626 -1.7859573 -0.49434459 2
-0.69540733 -2.0783536 -0.49714214 2
-2.3167791 -6.9201102 -1.4097666 13
-2.3164597 -6.9151464 -1.1490121 12
-2.3163886 -6.9109287 -0.89025652 12
-2.2975612 -6.8507895 -0.62882966 12
-2.3234284 -6.9239106 -0.37947708 14
-2.3019838 -6.8560367 -0.12431549 6
-1.6364464 -4.871038 1.3656744 16
-1.7151402 -5.1023278 1.2329236 14
-1.799123 -5.3490748 1.088541 13
-1.8914199 -5.6202416 0.93210322 24
-1.8920938 -5.6189995 0.72329456 27
-2.3134861 -6.866456 0.63057178 13
-2.3155267 -6.8685503 0.37786558 12
-2.2923729 -6.7959509 0.12452291 12
-0.60809976 -1.7975866 -0.49822688 2
-0.70578182 -2.0851431 -0.49939165 2
-2.3125799 -6.8283 -1.3926091 14
-2.3104696 -6.8181515 -1.1341509 12
-2.3086267 -6.8088031 -0.87806958 11
-2.2894559 -6.7483897 -0.62011403 12
-2.3170881 -6.8259225 -0.37452173 14
-2.2953539 -6.7580199 -0.12267408 6
-1.6549937 -4.8698692 1.3669676 17
-1.7345086 -5.1009221 1.2340477 14
-1.8193648 -5.3474088 1.0894942 14
-1.9126183 -5.6182799 0.93288451 24
-1.9132966 -5.6170583 0.72390389 26
-2.3085172 -6.7734747 0.62272781 13
-2.3104794 -6.7753587 0.37315536 13
-2.2886367 -6.7074738 0.12303945 12
-0.61124355 -1.7863139 -0.4956387 3
-0.69885331 -2.0411837 -0.48926884 2
-2.3093593 -6.7412481 -1.3764049 14
-2.3054321 -6.7259555 -1.1200716 13
-2.3050101 -6.7208996 -0.86771071 12
-2.2855139 -6.6602645 -0.61270583 12
-2.3117139 -6.7327862 -0.36982715 14
-2.2880678 -6.6601338 -0.12103266 7
-1.6719825 -4.8640623 1.3669676 17
-1.7538882 -5.0994434 1.2351716 14
-1.8396169 -5.3456669 1.0904474 14
-1.933826 -5.6162395 0.93366587 23
-1.9345084 -5.6150374 0.72451317 26
-2.3029277 -6.6806126 0.61488378 13
-2.3048105 -6.6822882 0.36844513 12
-2.2843111 -6.6191068 0.121556 12
nan nan nan 0
-0.7107566 -2.0525429 -0.49264312 2
-2.3039525 -6.6496654 -1.3592474 14
-2.2997799 -6.6338787 -1.1059926 12
-2.3008084 -6.6331053 -0.85735178 12
-2.2809851 -6.5722504 -0.60529757 13
-2.3057179 -6.6397719 -0.3651326 14
-2.2834089 -6.5718274 -0.11956403 6
-1.6905371 -4.8627586 1.3682609 17
-1.7716779 -5.0932903 1.2351716 15
-1.8598788 -5.3438482 1.0914006 14
-1.9550427 -5.6141191 0.93444717 21
-1.9557297 -5.6129365 0.72512257 26
-2.2983584 -6.5925765 0.60747552 13
-2.3001645 -6.5940547 0.36399657 13
-2.281044 -6.5355725 0.12015981 13
-0.62689036 -1.7911201 -0.49822688 2
nan nan nan 0
-2.2995579 -6.5628357 -1.3430433 14
-2.2935131 -6.541925 -1.0919135 12
-2.2960224 -6.5454226 -0.84699285 13
-2.2758701 -6.4843502 -0.5978893 13
-2.3007557 -6.5515943 -0.36069885 14
-2.2831333 -6.4977846 -0.11835457 15
-1.7091031 -4.8613849 1.3695542 16
-1.7910627 -5.0916715 1.2362955 14
-1.8801507 -5.3419538 1.0923538 14
-1.9762681 -5.611918 0.93522841 19
-1.9769597 -5.6107569 0.72573191 27
-2.2932026 -6.5046539 0.60006726 14
-2.2949314 -6.5059366 0.359548 13
-2.2772222 -6.4521427 0.11876362 13
nan nan nan 0
-0.72344232 -2.0429385 -0.49151835 2
-2.2945855 -6.4761181 -1.3268391 14
-2.2882829 -6.454751 -1.0786165 13
-2.2923114 -6.462533 -0.83724332 13
-2.2718353 -6.4012604 -0.59091681 13
-2.2952061 -6.463532 -0.3562651 15
-2.280695 -6.4191136 -0.11705872 14
-1.7276797 -4.8599396 1.3708473 17
-1.8104578 -5.0899782 1.2374194 15
-1.9004316 -5.339982 1.0933069 14
-1.997502 -5.6096377 0.93600976 17
-1.9981985 -5.6084967 0.72634125 27
-2.2874613 -6.4168491 0.59265906 14
-2.2907887 -6.4226394 0.35536113 12
-2.2728457 -6.3688202 0.11736742 13
nan nan nan 0
nan nan nan 0
-2.2906914 -6.3941374 -1.3115879 13
-2.2824721 -6.3676939 -1.0653195 13
-2.2880504 -6.3797503 -0.82749379 12
-2.2672486 -6.3182788 -0.58394438 14
-2.2907577 -6.3802896 -0.35209215 15
-2.2777357 -6.3405409 -0.11576287 14
-1.7462672 -4.8584247 1.3721406 17
-1.8298627 -5.088212 1.2385432 14
-1.9207219 -5.337934 1.0942601 14
-2.0187438 -5.6072774 0.93679106 15
-2.0194454 -5.6061563 0.72695059 26
-2.2845132 -6.3385372 0.58612239 13
-2.2860925 -6.3394504 0.35117427 15
-2.267916 -6.2856078 0.11597124 12
nan nan nan 0
nan nan nan 0
-2.2823801 -6.3084459 -1.2953838 13
-2.2755706 -6.2861953 -1.0528048 13
-2.2810411 -6.2978725 -0.81774426 13
-2.2616313 -6.240881 -0.57740772 13
-2.2835581 -6.297955 -0.34791923 15
-2.2720699 -6.2628603 -0.11446702 15
-1.7631698 -4.8574548 1.3734338 17
-1.8475021 -5.087018 1.2396672 15
-1.9391583 -5.3364868 1.0952133 14
-2.0380371 -5.6055493 0.93757242 14
-2.040441 -5.6091123 0.72816932 29
-2.2788608 -6.2611198 0.57958567 13
-2.2803683 -6.2618608 0.34724906 13
-2.2602677 -6.2032971 0.11457504 12
nan nan nan 0
nan nan nan 0
-2.277411 -6.2266855 -1.2801328 12
-2.2720423 -6.2086482 -1.0410722 12
-2.2757099 -6.2153091 -0.8079946 13
-2.2577014 -6.1627932 -0.570871 13
-2.2797518 -6.2196221 -0.34400707 16
-2.2680976 -6.1844873 -0.11317115 15
-1.7817783 -4.8558049 1.3747271 16
-1.8669268 -5.0851116 1.2407911 15
-1.9594669 -5.3342934 1.0961666 14
-2.0575919 -5.5984011 0.93757242 13
-2.0617206 -5.6066132 0.72877866 26
-2.2731838 -6.1783333 0.57261324 14
-2.2746136 -6.1788912 0.34306219 13
-2.2559896 -6.1250019 0.11326611 13
nan nan nan 0
nan nan nan 0
-2.2746747 -6.1492453 -1.2658349 12
-2.2690711 -6.1308084 -1.0293397 14
-2.2726243 -6.1371179 -0.79885441 13
-2.2560468 -6.0890875 -0.5647701 14
-2.2764988 -6.1409974 -0.34009495 14
-2.2646723 -6.1058245 -0.1118753 15
-1.8012444 -4.8537698 1.3760203 17
-1.8872482 -5.0828023 1.241915 15
-1.980714 -5.3316755 1.0971197 13
-2.0798178 -5.5954509 0.93835366 13
-2.085716 -5.6083217 0.72999734 25
-2.2697577 -6.0999365 0.56607658 14
-2.2711134 -6.1003222 0.33913699 14
-2.253993 -6.051106 0.11204445 14
nan nan nan 0
nan nan nan 0
-2.2703419 -6.0723062 -1.2515372 12
-2.2679641 -6.0627203 -1.0191714 14
-2.2679389 -6.0594301 -0.78971422 14
-2.2528324 -6.0158701 -0.55866915 14
-2.2716422 -6.0628772 -0.3361828 14
-2.2614036 -6.0323462 -0.11066584 16
-1.8198724 -4.8519745 1.3773136 17
-1.9066906 -5.0807447 1.2430388 15
-1.999313 -5.3247294 1.0971197 14
-2.1045473 -5.6020265 0.94069767 12
-2.1070259 -5.6056523 0.73060668 26
-2.2647367 -6.0220437 0.55953991 14
-2.266017 -6.0222583 0.33521178 15
-2.250442 -5.9776993 0.11082277 14
nan nan nan 0
nan nan nan 0
-2.2654998 -5.9954724 -1.2372392 10
-2.264663 -5.9900956 -1.0082209 14
-2.2644949 -5.9864922 -0.78118336 14
-2.2491345 -5.9427505 -0.55256826 14
-2.2680366 -5.9895358 -0.33253148 15
-2.2576501 -5.9589667 -0.10945638 15
-1.8385097 -4.8501091 1.3786069 16
-1.9261417 -5.0786133 1.2441628 15
-2.019629 -5.3223071 1.0980729 14
-2.1275949 -5.6038799 0.94226027 10
-2.130105 -5.607542 0.73182535 25
-2.2609694 -5.9489164 0.55343896 15
-2.2639534 -5.953639 0.33180994 14
-2.2464063 -5.9043927 0.1096011 13
nan nan nan 0
nan nan nan 0
-2.2619007 -5.9233332 -1.2238947 8
-2.2608833 -5.9175696 -0.99727052 14
-2.2623417 -5.9182882 -0.77326185 14
-2.2467337 -5.8743834 -0.54690313 14
-2.2657316 -5.920958 -0.32914096 15
-2.253412 -5.8856869 -0.10824692 15
-1.8554286 -4.8436618 1.3786069 16
-1.9456015 -5.0764089 1.2452867 15
-2.0399525 -5.3198085 1.0990261 14
-2.1506813 -5.6056414 0.94382292 10
-2.153223 -5.6093388 0.73304409 23
-2.2567196 -5.8758907 0.54733807 14
-2.2596478 -5.8804479 0.32814643 13
-2.2436807 -5.8358536 0.1084667 14
nan nan nan 0
nan nan nan 0
-2.2542913 -5.8421335 -1.2086436 7
-2.2584035 -5.84975 -0.98710227 13
-2.2597404 -5.8501735 -0.76534033 14
-2.2438831 -5.8061066 -0.54123801 15
-2.2611747 -5.8478131 -0.32548964 15
-2.2486901 -5.81251 -0.10703745 16
-1.8740684 -4.84166 1.3799002 17
-1.9650691 -5.0741301 1.2464106 14
-2.0602829 -5.3172317 1.0999793 14
-2.1738055 -5.6073089 0.94538546 11
-2.1745849 -5.6064153 0.73365343 28
-2.2519879 -5.802968 0.54123718 15
-2.2566659 -5.8120146 0.32474461 15
-2.238694 -5.7627473 0.10724504 13
nan nan nan 0
nan nan nan 0
-2.2532752 -5.7793527 -1.1972053 6
-2.2536831 -5.7774196 -0.97615182 14
-2.256691 -5.7821493 -0.75741881 13
-2.2405834 -5.7379212 -0.53557289 15
-2.257952 -5.7794232 -0.32209912 13
-2.2434852 -5.739439 -0.10582799 12
-1.8927165 -4.8395867 1.3811933 17
-1.9827691 -5.0672398 1.2464106 14
-2.0806203 -5.3145781 1.1009325 14
-2.1951668 -5.6042852 0.94616681 14
-2.1977632 -5.6080317 0.7348721 26
-2.2485929 -5.734787 0.53557205 15
-2.2532344 -5.7436748 0.32134277 14
-2.2350512 -5.6944003 0.10611062 14
nan nan nan 0
nan nan nan 0
-2.2500496 -5.7120843 -1.1848139 6
-2.2502968 -5.7097893 -0.96598357 14
-2.2550151 -5.7188354 -0.75010663 15
-2.2368352 -5.6698303 -0.52990776 14
-2.2542801 -5.7111278 -0.3187086 11
-2.2396343 -5.6711249 -0.10470492 11
-1.9113731 -4.8374419 1.3824866 17
-2.0022359 -5.0648179 1.2475344 14
-2.1027696 -5.3164115 1.1028389 14
-2.2147162 -5.5965886 0.94616681 18
-2.2209792 -5.6095538 0.73609084 31
-2.2447498 -5.6667018 0.52990693 15
-2.2493534 -5.6754303 0.31794092 16
-2.2328014 -5.6307974 0.10506348 15
nan nan nan 0
nan nan nan 0
-2.246382 -5.6449094 -1.1724225 4
-2.2482927 -5.646842 -0.95659751 14
-2.2510886 -5.6509943 -0.74218512 14
-2.2344835 -5.6064634 -0.52467841 14
-2.250159 -5.6429305 -0.31531811 12
-2.2371864 -5.6075525 -0.10366824 10
-1.930038 -4.8352265 1.3837799 17
-2.0217104 -5.0623226 1.2486584 14
-2.1231358 -5.3135967 1.1037921 14
-2.2214057 -5.5567236 0.94069767 10
-2.2423897 -5.6063752 0.73670018 33
-2.2423098 -5.6033387 0.52467757 16
-2.245024 -5.6072836 0.31453907 14
-2.228276 -5.5626397 0.10392907 14
nan nan nan 0
nan nan nan 0
-2.2642419 -5.6324797 -1.1714692 6
-2.2440341 -5.5793967 -0.94642925 14
-2.248569 -5.5878544 -0.73487294 14
-2.2298567 -5.5385623 -0.51901323 15
-2.2474551 -5.5794621 -0.31218836 12
-2.2343223 -5.5440674 -0.10263155 11
-1.9487104 -4.8329396 1.3850732 17
-2.0411916 -5.0597534 1.2497823 15
-2.145345 -5.3152566 1.1056983 15
-2.216749 -5.4894052 0.93054062 7
-2.2433553 -5.5524998 0.73060668 11
-2.239455 -5.540062 0.51944822 15
-2.2402461 -5.5392365 0.31113723 15
-2.2251775 -5.4992166 0.10288193 15
nan nan nan 0
nan nan nan 0
-2.2617297 -5.5699697 -1.160031 5
-2.2411909 -5.5166259 -0.93704319 13
-2.2437673 -5.5202045 -0.72695142 14
-2.22666 -5.4753766 -0.51378393 15
-2.2443357 -5.5160828 -0.30905867 13
-2.2310424 -5.48067 -0.10159487 10
-1.9673904 -4.8305807 1.3863664 17
-2.0606794 -5.0571089 1.2509062 15
-2.1657383 -5.3122807 1.1066515 14
-2.2135146 -5.4267597 0.92116487 16
-2.2383471 -5.4849024 0.72268516 9
-2.2380686 -5.4814854 0.51465464 14
-2.2369094 -5.475915 0.30799708 14
-2.221664 -5.435884 0.10183479 14
nan nan nan 0
nan nan nan 0
-2.2588091 -5.5075459 -1.1485927 3
-2.2379375 -5.4539442 -0.92765713 13
-2.2404058 -5.4572477 -0.71963924 14
-2.2230494 -5.4122815 -0.50855458 15
-2.2408018 -5.4527936 -0.30592895 12
-2.2273474 -5.4173641 -0.10055818 12
-1.9860777 -4.8281503 1.3876597 17
-2.0801737 -5.05439 1.25203 15
-2.1861374 -5.309227 1.1076049 15
-2.2117512 -5.3687706 0.91257042 13
-2.2328942 -5.417408 0.71476364 8
-2.2344019 -5.4183817 0.50942528 16
-2.2331579 -5.4126844 0.30485693 15
-2.2177355 -5.3726439 0.10078765 14
nan nan nan 0
nan nan nan 0
-2.2611153 -5.4588156 -1.1400141 2
-2.2342737 -5.3913531 -0.91827106 14
-2.2366323 -5.3943825 -0.71232712 14
-2.2190256 -5.3492785 -0.50332522 15
-2.2368536 -5.3895979 -0.30279925 11
-2.2232382 -5.3541517 -0.099521503 12
-2.0047719 -4.8256488 1.3889529 17
-2.1015439 -5.0560961 1.2542779 14
-2.2065415 -5.3060961 1.1085581 18
-2.2096105 -5.3108616 0.90397602 11
-2.228905 -5.3546014 0.70745152 9
-2.2322373 -5.3599696 0.50463176 15
-2.2309132 -5.354157 0.30197847 15
-2.2153163 -5.3141117 0.099827759 15
-0.73140055 -1.7510443 -0.49822688 3
-0.83906269 -2.0087979 -0.49376786 2
-0.99320334 -2.3766594 -0.49279872 4
-2.2283404 -5.3296328 -0.908885 14
-2.2305868 -5.3323898 -0.70501494 14
-2.2127438 -5.2871432 -0.49809581 15
-2.2306323 -5.3272748 -0.29966953 13
-2.2187994 -5.2964201 -0.098571219 12
-2.0217891 -4.823781 1.3902462 18
-2.119302 -5.0539622 1.2554018 15
-2.2175033 -5.2855592 1.1056983 12
-2.2052588 -5.2538033 0.89538169 12
-2.2245791 -5.2972407 0.70074868 9
-2.2278416 -5.3024168 0.49983817 16
-2.2245038 -5.2918863 0.29883832 15
-2.2087431 -5.2518268 0.098780617 15
-0.73532695 -1.744159 -0.49693277 3
-0.84417629 -2.001368 -0.49264312 2
-1.0014935 -2.373178 -0.49279872 4
-2.2238803 -5.2672272 -0.89949894 15
-2.2279441 -5.2742834 -0.69831216 14
-2.2098567 -5.2289181 -0.49330226 15
-2.2278242 -5.2688675 -0.29680064 12
-2.2158489 -5.2379971 -0.097620927 12
-2.0404978 -4.8211427 1.3915395 17
-2.1388304 -5.0510201 1.2565256 15
-2.2110491 -5.2190337 1.0933069 8
-2.2023845 -5.1960559 0.88678718 12
-2.2198064 -5.2346163 0.69343656 9
-2.2229919 -5.239584 0.49460882 16
-2.2215016 -5.23353 0.2959598 15
-2.2055662 -5.1934686 0.097820736 15
-0.73982221 -1.7370087 -0.4956387 3
-0.85723537 -2.0117061 -0.49601737 2
-1.0101849 -2.3694913 -0.49279872 5
-2.2199204 -5.2045307 -0.89011288 15
-2.2258339 -5.2158723 -0.69160926 14
-2.2074931 -5.1703939 -0.4885087 15
-2.2255447 -5.2101564 -0.29393175 13
-2.2134216 -5.1792722 -0.096670628 12
-2.0581543 -4.8136315 1.3915395 18
-2.159245 -5.047626 1.2576497 16
-2.2089198 -5.1612582 1.0828218 8
-2.2019749 -5.1425505 0.87897414 12
-2.2174807 -5.1762657 0.68673372 9
-2.2205968 -5.1810412 0.48981526 16
-2.2190225 -5.1748738 0.29308134 15
-2.2048762 -5.1394067 0.09694811 15
-0.74778897 -1.7388524 -0.49693277 2
-0.85847604 -1.9952761 -0.49264312 2
-1.0262125 -2.3839843 -0.49661148 6
-2.2165866 -5.1468573 -0.88150889 15
-2.2224257 -5.157937 -0.68490648 15
-2.2058096 -5.1169157 -0.48415089 15
-2.2219665 -5.1519217 -0.29106286 13
-2.2097001 -5.1210227 -0.095720343 12
-2.0768588 -4.8108521 1.3928326 17
-2.1787834 -5.0445309 1.2587736 17
-2.2055058 -5.1039543 1.0723369 8
-2.198355 -5.0849681 0.87037969 12
-2.2138643 -5.1183896 0.68003088 9
-2.2169087 -5.1229739 0.48502171 12
-2.2172346 -5.1212749 0.29046455 16
-2.2009451 -5.0812178 0.095988229 15
-0.75415719 -1.7361 -0.49693277 3
-0.86578327 -1.9921163 -0.49264312 2
-1.032986 -2.3757055 -0.49565825 6
-2.2137661 -5.0888848 -0.87290502 15
-2.2195306 -5.0997024 -0.6782037 15
-2.2026751 -5.0585618 -0.47935733 15
-2.2188976 -5.093389 -0.28819397 13
-2.2064826 -5.0624771 -0.094770044 12
-2.0964081 -4.8076348 1.3941259 18
-2.201154 -5.0454426 1.2610213 23
-2.2045631 -5.0508509 1.0628049 8
-2.1972139 -5.0316181 0.86256665 12
-2.2127409 -5.0647645 0.67393744 9
-2.213726 -5.0646095 0.48022813 11
-2.2139835 -5.0627904 0.28758606 16
-2.1995156 -5.0273161 0.095115609 15
-0.76021266 -1.7334569 -0.49693277 2
-0.87077427 -1.9846205 -0.49151835 2
-1.0432454 -2.3765798 -0.49661148 6
-2.2116582 -5.0359101 -0.86508328 15
-2.2153583 -5.041945 -0.6715008 14
-2.2002745 -5.0052438 -0.47499952 16
-2.2165613 -5.039906 -0.28558585 13
-2.2040064 -5.0089865 -0.093906142 12
-2.117069 -4.8091288 1.3967124 17
-2.2050064 -5.0065174 1.253154 11
-2.2004099 -4.9937181 1.0523199 8
-2.1948426 -4.9787283 0.85475349 12
-2.2083771 -5.0070615 0.6672346 9
-2.2092721 -5.0067244 0.47543457 12
-2.2114768 -5.0093527 0.28496927 11
-2.194839 -4.9693017 0.094155729 15
-0.76595688 -1.7309264 -0.49693277 2
-0.8770048 -1.9818751 -0.49151835 2
-1.0507065 -2.3732905 -0.49661148 7
-2.2054684 -4.9792686 -0.85647941 15
-2.211081 -4.9895883 -0.66540736 14
-2.1958003 -4.9527717 -0.47064176 16
-2.210114 -4.9827099 -0.28271696 13
-2.1994536 -4.9563417 -0.09304224 13
-2.1341267 -4.8068681 1.3980056 17
-2.202924 -4.9594922 1.2430388 10
-2.1961546 -4.941927 1.042788 8
-2.1904099 -4.9266825 0.84694046 12
-2.203927 -4.9547553 0.66114116 9
-2.2047386 -4.9542518 0.47107679 11
-2.2048633 -4.9522047 0.28209078 12
-2.1900918 -4.916718 0.093283102 15
-0.77366161 -1.7327869 -0.49822688 3
-0.88391751 -1.9788016 -0.49151835 2
-1.0589845 -2.3696086 -0.49661148 7
-2.2026784 -4.9264565 -0.84865761 16
-2.2061937 -4.9320083 -0.65870452 14
-2.1927285 -4.8996124 -0.46628395 16
-2.2070887 -4.9293919 -0.28010887 13
-2.1963038 -4.9030099 -0.092178345 13
-2.1548433 -4.8082047 1.4005922 21
-2.2002895 -4.9073162 1.2317998 9
-2.1933029 -4.8894472 1.0332562 8
-2.1873729 -4.8739495 0.8391273 12
-2.1988487 -4.8972316 0.65443832 9
-2.1995676 -4.8965464 0.46628323 11
-2.2016683 -4.8989348 0.27947399 11
-2.1867402 -4.8634477 0.09241049 15
-0.78000742 -1.7299397 -0.49822688 3
-0.89316761 -1.9799898 -0.49264312 2
-1.0676624 -2.3657112 -0.49661148 8
-2.2003977 -4.8733416 -0.84083593 15
-2.2038252 -4.8786621 -0.65261108 15
-2.1881073 -4.8416142 -0.46149039 12
-2.2045693 -4.875772 -0.27750078 13
-2.193655 -4.8493781 -0.091314435 13
-2.1724517 -4.8002744 1.4005922 23
-2.1981654 -4.8548355 1.2205608 8
-2.1909556 -4.8366661 1.0237242 8
-2.1848361 -4.8209176 0.83131415 11
-2.1962895 -4.8439407 0.64834487 9
-2.196923 -4.8430905 0.46192542 12
-2.1989741 -4.8453641 0.2768572 12
-2.1859496 -4.8144321 0.091625132 15
-0.78604132 -1.7272063 -0.49822688 2
-0.90007365 -1.97686 -0.49264312 2
-1.0759138 -2.3619699 -0.49661148 7
-2.1989641 -4.8251867 -0.83379638 15
-2.2023125 -4.8303003 -0.64712697 15
-2.1843226 -4.7886291 -0.45713258 12
-2.2008455 -4.8226218 -0.27489269 14
-2.1918821 -4.8007622 -0.090536922 12
-2.1891947 -4.7926621 1.4005922 27
-2.1948483 -4.8028207 1.2093217 9
-2.1874166 -4.7843494 1.0141923 8
-2.1831627 -4.7728424 0.82428241 12
-2.1945989 -4.7956319 0.64286077 8
-2.1930804 -4.7901034 0.45756766 11
-2.195081 -4.792263 0.2742404 12
-2.181915 -4.7613244 0.090752505 15
-0.79206556 -1.724452 -0.49822688 3
-0.90900284 -1.9781326 -0.49376786 2
-1.0841521 -2.3582001 -0.49661148 7
-2.1951575 -4.772615 -0.82597464 16
-2.1984143 -4.7774992 -0.64103347 15
-2.1801951 -4.7357292 -0.45277476 12
-2.1988664 -4.7740927 -0.2725454 13
-2.1877048 -4.7476783 -0.089673027 13
-2.187712 -4.7455149 1.3889529 12
-2.1932354 -4.7553124 1.1992066 9
-2.1855958 -4.7365751 1.0056137 8
-2.1791103 -4.7203541 0.81646931 12
-2.1905169 -4.7428875 0.63676727 8
-2.1888947 -4.7372026 0.45320985 12
-2.1929388 -4.7437806 0.27188528 12
-2.1796353 -4.7128425 0.089967147 15
-0.79808021 -1.7216767 -0.49822688 2
-0.91590226 -1.9749476 -0.49376786 2
-1.0923771 -2.3544011 -0.49661148 8
-2.1930902 -4.7246094 -0.81893504 16
-2.194175 -4.7247863 -0.63494003 15
-2.177824 -4.6874356 -0.44885278 11
-2.1944706 -4.7211084 -0.26993731 13
-2.1852918 -4.6992149 -0.088895515 13
-2.1838901 -4.6940584 1.3760203 9
-2.1892614 -4.7034574 1.1879675 9
-2.181396 -4.6844215 0.99608177 9
-2.1768041 -4.6724296 0.80943751 12
-2.1881905 -4.6947293 0.63128316 9
-2.1864717 -4.6889048 0.44928783 12
-2.1883748 -4.6908479 0.26926848 12
-2.1770437 -4.664434 0.089181788 16
-0.80408508 -1.7188804 -0.49822688 2
-0.92279053 -1.9717385 -0.49376786 2
-1.1005889 -2.3505738 -0.49661148 9
-2.1907151 -4.6766768 -0.81189555 12
-2.1917002 -4.6766543 -0.62945586 16
-2.1730278 -4.634706 -0.44449496 11
-2.1918528 -4.6727347 -0.26759005 13
-2.1825669 -4.6508269 -0.088118002 12
-2.1817887 -4.647059 1.3643812 9
-2.1870241 -4.6560984 1.1778524 9
-2.1789465 -4.6367974 0.98750305 8
-2.17419 -4.624579 0.80240571 13
-2.1834424 -4.6421547 0.62518972 9
-2.1837387 -4.6406813 0.44536582 12
-2.1855946 -4.6425219 0.26691335 12
-2.1741409 -4.6161022 0.088396437 16
-0.81008023 -1.7160633 -0.49822688 2
-0.92758721 -1.9641002 -0.49264312 2
-1.1066903 -2.3422797 -0.49565825 8
-2.1880322 -4.6288185 -0.804856 12
-2.1889167 -4.6285987 -0.62397176 11
-2.1700206 -4.5865703 -0.44057295 12
-2.1889241 -4.6244369 -0.26524276 13
-2.1773918 -4.5979972 -0.0872541 12
-2.1793854 -4.6001315 1.3527418 9
-2.1844833 -4.6088128 1.1677371 9
-2.1761916 -4.5892491 0.97892433 8
-2.1712685 -4.5768037 0.79537386 12
-2.1804821 -4.5941544 0.61970562 9
-2.1806958 -4.5925355 0.44144386 12
-2.1825037 -4.5942731 0.26455826 12
-2.1709278 -4.5678477 0.087611079 15
-0.81398851 -1.7088647 -0.49693277 2
-0.93443751 -1.9608505 -0.49264312 2
-1.1148596 -2.3384023 -0.49565825 7
-2.1850419 -4.5810361 -0.7978164 12
-2.1858246 -4.5806193 -0.6184876 12
-2.1667042 -4.5385122 -0.43665093 11
-2.1856854 -4.5762172 -0.26289546 13
-2.1740301 -4.5497723 -0.086476594 13
-2.1766818 -4.5532784 1.3411026 9
-2.1816392 -4.5616026 1.1576221 9
-2.1731312 -4.5417767 0.97034562 8
-2.1680405 -4.5291061 0.78834218 13
-2.1772134 -4.5462313 0.61422145 10
-2.1773436 -4.544467 0.43752185 12
-2.1791034 -4.546104 0.26220313 12
-2.1674042 -4.5196724 0.086825714 15
-0.81994861 -1.7060131 -0.49693277 2
-0.93916517 -1.9531858 -0.49151835 2
-1.1230154 -2.3344965 -0.49565825 6
-2.1817448 -4.5333314 -0.79077685 11
-2.1845775 -4.5371904 -0.61361283 12
-2.1630785 -4.4905338 -0.43272892 12
-2.1821365 -4.5280766 -0.2605482 13
-2.1703587 -4.5016274 -0.085699081 13
-2.1736774 -4.5065002 1.3294632 9
-2.1784921 -4.5144687 1.147507 9
-2.1697667 -4.4943824 0.96176702 9
