# .PCD v0.7 - Point Cloud Data file format
VERSION 0.7
FIELDS x y z intensity
SIZE 4 4 4 4
TYPE F F F F
COUNT 1 1 1 1
WIDTH 1374
HEIGHT 1
VIEWPOINT 0 0 0 1 0 0 0
POINTS 1374
DATA ascii
-2.287909 2.1787457 -0.4943333 12
-2.3381693 2.2273865 -0.39181039 11
-2.3138192 2.2049603 -0.27628413 17
-2.3081996 2.2003744 -0.16457048 23
-2.3069651 2.199966 -0.054425824 19
-2.3062453 2.2000482 0.84320045 19
-2.3116641 2.2059882 0.72829044 20
-2.2998698 2.1955004 0.61004049 17
-2.3099282 2.205873 0.4992573 16
-2.3063493 2.2032247 0.38693514 22
-2.3215418 2.218513 0.27759105 23
-2.3087137 2.2070253 0.16538161 17
-2.3111105 2.210089 0.0551496 39
-1.4087045 1.3494837 -0.5124619 3
-1.6175199 1.5500619 -0.50838971 3
-1.9374024 1.8572527 -0.51376885 3
-2.2802896 2.1867187 -0.4943333 13
-2.3375425 2.2424057 -0.39302906 11
-2.3132961 2.2199216 -0.27715567 18
-2.307709 2.2153337 -0.1650921 22
-2.3064835 2.2149308 -0.054598603 20
-2.3055177 2.214777 0.84578699 19
-2.3109753 2.2207956 0.73053825 20
-2.2992692 2.2103183 0.61194688 17
-2.3093338 2.2207689 0.50081992 16
-2.3022208 2.2147024 0.38754448 20
-2.3209617 2.233511 0.27846259 22
-2.3081899 2.2219965 0.16590497 17
-2.3105838 2.2250779 0.055324122 39
-1.4039854 1.3543928 -0.5124619 3
-1.6120993 1.5556988 -0.50838971 3
-1.9309075 1.8640043 -0.51376885 3
-2.2726426 2.1946652 -0.4943333 11
-2.3368397 2.2574477 -0.39424777 11
-2.3126967 2.2349055 -0.27802724 17
-2.307142 2.2303166 -0.16561371 22
-2.3059256 2.2299192 -0.054771382 20
-2.3047154 2.2295277 0.84837347 19
-2.3102114 2.235625 0.73278606 20
-2.298593 2.2251585 0.61385328 17
-2.3086631 2.2356877 0.50238252 16
-2.3016052 2.2296312 0.38876316 22
-2.3203051 2.2485316 0.27933416 22
-2.30759 2.2369909 0.16642833 17
-2.3099806 2.2400906 0.055498648 38
-1.395785 1.3559201 -0.51116782 3
-1.6031649 1.5579211 -0.50726491 3
-1.9208697 1.8673117 -0.51281571 3
-2.2649682 2.2025847 -0.4943333 10
-2.3360598 2.272512 -0.39546645 11
-2.3120208 2.2499123 -0.27889881 17
-2.3064985 2.2453225 -0.16613534 22
-2.3052907 2.2449303 -0.054944165 19
-2.3038383 2.2442994 0.85095996 19
-2.3093722 2.2504761 0.73503381 20
-2.2978411 2.240021 0.61575967 18
-2.3114524 2.2540767 0.50472647 18
-2.3009131 2.2445824 0.38998187 23
-2.3195717 2.2635748 0.2802057 23
-2.3104861 2.255496 0.16721338 17
-2.3093004 2.2551258 0.055673171 41
-1.3910433 1.3607839 -0.51116782 3
-1.597717 1.5635077 -0.50726491 3
-1.907325 1.8671384 -0.51090926 3
-2.2572658 2.2104776 -0.4943333 10
-2.3352032 2.2875981 -0.39668515 12
-2.3112681 2.2649417 -0.27977037 24
-2.3057783 2.2603507 -0.16665696 23
-2.3045793 2.259964 -0.055116944 22
-2.3028858 2.2590923 0.8535465 19
-2.3084574 2.2653484 0.73728162 21
-2.3005157 2.2583435 0.6186192 18
-2.3141408 2.2725122 0.50707042 20
-2.3001444 2.2595563 0.3912006 24
-2.3187616 2.2786403 0.28107727 27
-2.3097205 2.2705481 0.16773674 20
-2.312108 2.2736888 0.055934958 49
-1.3862848 1.3656313 -0.51116782 3
-1.5887797 1.5656558 -0.50614017 2
-1.8973005 1.8703389 -0.50995612 3
-2.2530525 2.2218111 -0.49511549 10
-2.33427 2.302706 -0.39790383 15
-2.3068933 2.2764943 -0.28020614 21
-2.3085344 2.2789092 -0.16743939 28
-2.307348 2.2785332 -0.055376116 24
-2.305294 2.2772999 0.85742623 24
-2.3074665 2.2802417 0.73952943 24
-2.3030906 2.2767119 0.6214788 24
-2.3167288 2.2909937 0.50941437 24
-2.2992995 2.2745519 0.39241928 27
-2.3214149 2.2972312 0.2823846 34
-2.3124263 2.2891352 0.16852178 26
-2.3112617 2.2887812 0.056109484 47
-1.3815095 1.3704619 -0.51116782 3
-1.5798466 1.5677603 -0.50501537 3
-1.8872768 1.8734924 -0.50900286 3
-2.2452834 2.2296622 -0.49511549 10
-2.3262177 2.3108401 -0.39790383 15
-2.2989328 2.284533 -0.28020614 11
-2.3076477 2.2939939 -0.167961 22
-2.3100147 2.2971487 -0.055635288 17
-2.304179 2.2921455 0.86001271 27
-2.3098531 2.2985921 0.74290115 28
-2.3090434 2.2985888 0.62529153 26
-2.3087177 2.2990668 0.50941437 14
-2.3054092 2.2965736 0.39485666 23
-2.31691 2.3088365 0.28282037 26
-2.3114941 2.3042433 0.16904514 18
-2.2890985 2.2827146 0.055760436 21
-1.3733003 1.3718628 -0.50987375 3
-1.5743645 1.5732654 -0.50501537 2
-1.8807256 1.8800688 -0.50900286 3
-2.2409782 2.240978 -0.49589765 11
-2.31112 2.3119266 -0.39668515 10
-2.2909441 2.2925439 -0.28020614 6
-2.2855105 2.2879047 -0.16691776 10
-2.2913847 2.2945857 -0.055376116 6
-2.2893395 2.2933381 0.85742623 10
-2.2983744 2.3031926 0.74177724 14
-2.2871401 2.2927351 0.6214788 11
-2.2902167 2.2966208 0.50707042 6
-2.2868676 2.2940629 0.39302862 10
-2.2982891 2.3063252 0.28151307 10
-2.292865 2.3016853 0.1682601 7
-2.2740614 2.2836068 0.05558591 12
-1.3685033 1.3766482 -0.50987375 2
-1.5654292 1.5752959 -0.50389069 2
-1.8706924 1.8831402 -0.50804973 3
-2.2331421 2.2487867 -0.49589765 11
-2.2960432 2.3129358 -0.39546645 7
-2.2794194 2.2969911 -0.27977037 15
-2.2704773 2.288779 -0.16639614 6
-2.2728004 2.2919209 -0.055116944 15
-2.2745197 2.2944553 0.85483968 12
-2.2800322 2.3008194 0.73840553 6
-2.2722144 2.2937307 0.6195724 6
-2.2787113 2.3010921 0.50628912 14
-2.2683718 2.291451 0.3912006 6
-2.2832172 2.3072526 0.2806415 6
-2.2777934 2.3025756 0.16773674 13
-2.2590458 2.2844212 0.055411387 29
-1.3636897 1.3814167 -0.50987375 3
-1.5564989 1.5772828 -0.50276589 2
-1.8641075 1.8896588 -0.50804973 3
-2.2287464 2.2600846 -0.49667984 10
-2.2775037 2.3103337 -0.39363843 7
-2.2678914 2.3013861 -0.27933457 14
-2.2554657 2.2895763 -0.16587453 16
-2.2577708 2.2927163 -0.054944165 13
-2.2631085 2.298939 0.8535465 10
-2.2651525 2.3018188 0.73615772 14
-2.2573097 2.2946501 0.61766601 14
-2.2637396 2.3019898 0.50472647 13
-2.2499223 2.288738 0.38937253 13
-2.2681673 2.3081033 0.27976996 15
-2.2592447 2.2998266 0.16695169 12
-2.2440522 2.2851589 0.055236865 29
-1.3588593 1.3861685 -0.50987375 2
-1.5475739 1.579227 -0.50164115 2
-1.8575001 1.8961543 -0.50804973 3
-2.2208438 2.2678504 -0.49667984 11
-2.2590103 2.3076305 -0.39181039 7
-2.2528765 2.3021684 -0.27846304 14
-2.2439685 2.2938662 -0.16561371 11
-2.2427635 2.2934349 -0.054771382 14
-2.2483175 2.2999175 0.85095996 10
-2.2502935 2.3027425 0.7339099 14
-2.2424266 2.2954936 0.61575967 14
-2.2487895 2.3028111 0.50316387 12
-2.2349861 2.2894754 0.38815385 13
-2.2531388 2.3088768 0.27889836 14
-2.2442298 2.3005505 0.16642833 12
-2.2325716 2.2893991 0.0551496 28
-1.3540124 1.3909034 -0.50987375 2
-1.5420518 1.5846195 -0.50164115 2
-1.85087 1.9026264 -0.50804973 3
-2.212914 2.275589 -0.49667984 11
-2.2440231 2.3083851 -0.39059168 7
-2.2413554 2.3064461 -0.27802724 14
-2.2289894 2.2945223 -0.1650921 10
-2.2277787 2.2940769 -0.054598603 14
-2.2335472 2.3008204 0.84837347 10
-2.235456 2.303591 0.73166209 14
-2.2275648 2.2962611 0.61385328 14
-2.2338612 2.3035562 0.50160128 12
-2.2200723 2.2901366 0.38693514 13
-2.238133 2.3095737 0.27802682 14
-2.2292373 2.3011978 0.16590497 12
-2.2176111 2.2899957 0.054975078 28
-1.3491489 1.3956212 -0.50987375 2
-1.5331255 1.586489 -0.50051636 2
-1.8442173 1.9090756 -0.50804973 3
-2.2049572 2.2832997 -0.49667984 11
-2.2256112 2.3054926 -0.38876364 8
-2.2263732 2.3070877 -0.27715567 14
-2.2140329 2.2951016 -0.16457048 11
-2.2128165 2.2946422 -0.054425824 14
-2.2154458 2.298171 0.84449369 10
-2.2206397 2.3043637 0.72941428 14
-2.2127252 2.296953 0.61194688 14
-2.2155297 2.3006678 0.4992573 13
-2.2051811 2.2907214 0.38571647 13
-2.2231498 2.3101943 0.27715525 14
-2.214268 2.3017683 0.16538161 12
-2.1992085 2.2869124 0.05471329 28
-1.344269 1.4003221 -0.50987375 3
-1.5309517 1.5953462 -0.50164115 2
-1.8375422 1.9155015 -0.50804973 4
-2.1969736 2.2909825 -0.49667984 12
-2.2106812 2.3060822 -0.38754493 8
-2.2079675 2.3040562 -0.27584836 14
-2.1991 2.2956047 -0.16404887 11
-2.1944203 2.2915201 -0.054166656 14
-2.2007303 2.2989125 0.8419072 10
-2.2058456 2.3050611 0.72716647 14
-2.1979079 2.297569 0.61004049 14
-2.200659 2.3012488 0.49769467 13
-2.1903129 2.2912304 0.38449776 13
-2.2081897 2.3107381 0.27628368 14
-2.1993215 2.3022625 0.16485825 12
-2.1843069 2.2873442 0.054538768 29
-1.3391275 1.4052397 -0.50987375 3
-1.5284543 1.6044741 -0.50276589 2
-1.8305091 1.9222237 -0.50804973 4
-2.1885619 2.2990193 -0.49667984 12
-2.1919508 2.3033843 -0.38571692 7
-2.1926417 2.3049157 -0.27497679 14
-2.1837895 2.2964125 -0.16352725 11
-2.1791179 2.2923012 -0.053993873 14
-2.1823084 2.2964599 0.83802748 10
-2.1906712 2.306066 0.72491866 14
-2.1793325 2.2949319 0.60718095 14
-2.1820092 2.2985539 0.49535075 13
-2.1716521 2.2884433 0.38266972 13
-2.1928494 2.3115888 0.27541214 14
-2.1805613 2.2994387 0.16407321 12
-2.1655905 2.2844503 0.05427698 29
-1.3342142 1.4099057 -0.50987375 3
-1.5261925 1.6133389 -0.50389069 2
-1.8237882 1.9286015 -0.50804973 4
-2.1771309 2.303056 -0.49589765 13
-2.1770802 2.3038075 -0.38449821 7
-2.1777418 2.3053136 -0.27410525 14
-2.1654756 2.2931304 -0.16274482 11
-2.1642396 2.292623 -0.053821094 14
-2.1676495 2.2970383 0.83544099 10
-2.1725786 2.3030667 0.72154701 14
-2.1645734 2.2953835 0.60527456 14
-2.1671975 2.2989695 0.49378812 13
-2.1568437 2.2887864 0.38145101 14
-2.174521 2.3083522 0.2741048 14
-2.1656754 2.2997661 0.16354986 12
-2.1473184 2.28108 0.054015197 30
-1.332592 1.4180738 -0.51116782 3
-1.523887 1.6222072 -0.50501537 2
-1.8204048 1.9385338 -0.50900286 3
-2.1623187 2.3034406 -0.4943333 15
-2.1588371 2.3005364 -0.38267016 7
-2.1594582 2.3020031 -0.27279788 14
-2.1506269 2.2933908 -0.1622232 11
-2.1493857 2.2928691 -0.053648315 14
-2.1497102 2.2940178 0.83156121 10
-2.1578643 2.303525 0.71929914 14
-2.149838 2.2957597 0.60336822 14
-2.1490343 2.2957044 0.4914442 13
-2.1386685 2.2854304 0.379623 13
-2.1596448 2.3086538 0.27323326 14
-2.147403 2.2963707 0.16276482 12
-2.1325197 2.2812531 0.053840671 12
-1.3276339 1.4227167 -0.51116782 3
-1.5215386 1.6310793 -0.50614017 3
-1.813627 1.9448764 -0.50900286 3
-2.1441629 2.3001375 -0.49198681 16
-2.144027 2.3007965 -0.38145146 7
-2.1446192 2.3022375 -0.27192634 14
-2.1324 2.2899215 -0.16144077 11
-2.13115 2.2893803 -0.053389143 14
-2.1351089 2.2944362 0.82897466 10
-2.1398556 2.3003418 0.71592742 14
-2.1351264 2.2960615 0.60146183 14
-2.1342828 2.2959578 0.48988158 13
-2.1239214 2.2856112 0.37840432 13
-2.1447928 2.3088794 0.2723617 14
-2.1325786 2.2965348 0.16224146 13
-2.1143403 2.2776911 0.053578883 11
-1.3226596 1.4273424 -0.51116782 3
-1.5158359 1.6363806 -0.50614017 2
-1.8068271 1.9511952 -0.50900286 4
-2.1294115 2.30036 -0.49042246 12
-2.1292415 2.3009818 -0.38023278 8
-2.1298051 2.3023968 -0.27105477 14
-2.1176136 2.2900193 -0.16091916 11
-2.1163585 2.2894633 -0.053216361 14
-2.1172531 2.2912333 0.82509488 10
-2.125201 2.3006396 0.71367961 13
-2.1204391 2.2962885 0.59955543 14
-2.119556 2.2961361 0.48831898 13
-2.1058333 2.2820694 0.37657624 13
-2.1265883 2.3053684 0.27105436 14
-2.1177797 2.2966235 0.1617181 12
-2.0996001 2.2777061 0.053404361 11
-1.3176692 1.4319507 -0.51116782 3
-1.5101146 1.6416619 -0.50614017 3
-1.800005 1.9574904 -0.50900286 4
-2.1113422 2.2968717 -0.48807591 15
-2.114481 2.3010919 -0.37901407 7
-2.1150162 2.3024807 -0.27018321 14
-2.1028526 2.2900414 -0.16039754 11
-2.1015925 2.2894711 -0.053043582 14
-2.1027114 2.2914927 0.82250839 10
-2.1105704 2.3008633 0.7114318 14
-2.1024587 2.2928233 0.59669584 14
-2.1015167 2.2925992 0.48597503 12
-2.0911493 2.2820885 0.37535757 14
-2.1117992 2.3054316 0.27018279 15
-2.1030059 2.2966368 0.16119474 12
-2.0848856 2.2776461 0.053229839 11
-1.3094049 1.4329761 -0.50987375 3
-1.5043749 1.6469231 -0.50614017 3
-1.7931612 1.9637618 -0.50900286 4
-2.0966532 2.2969327 -0.48651159 15
-2.0997455 2.3011267 -0.37779537 8
-2.0968957 2.2988095 -0.2688759 14
-2.0847528 2.2862988 -0.15961511 11
-2.0868523 2.2894037 -0.052870803 15
-2.0849409 2.2881086 0.81862867 9
-2.0926836 2.2974112 0.70806009 14
-2.0878332 2.2928898 0.59478951 14
-2.0868523 2.2926166 0.4844124 13
-2.0764904 2.282033 0.37413886 14
-2.0970356 2.3054199 0.26931125 15
-2.088258 2.2965753 0.16067138 12
-2.0701971 2.2775111 0.053055312 12
-1.3043947 1.437538 -0.50987375 3
-1.5018899 1.6557727 -0.50726491 3
-1.7862955 1.9700091 -0.50900286 4
-2.0819893 2.2969193 -0.48494723 19
-2.0850356 2.3010871 -0.37657669 7
-2.082171 2.298732 -0.26800433 14
-2.0700567 2.2861593 -0.1590935 11
-2.0721385 2.2892616 -0.05269802 15
-2.0704598 2.2882094 0.81604218 10
-2.078115 2.2974753 0.70581228 14
-2.0732329 2.2928824 0.59288311 14
-2.0722139 2.2925596 0.48284978 13
-2.0618577 2.2819028 0.37292019 14
-2.082298 2.3053334 0.26843968 14
-2.0735362 2.2964387 0.16014802 13
-2.0555353 2.2773015 0.05288079 12
-1.2993689 1.4420825 -0.50987375 3
-1.496101 1.6610051 -0.50726491 3
-1.7761239 1.972585 -0.50804973 4
-2.0640476 2.2931614 -0.48260072 13
-2.0670323 2.2972839 -0.37474868 8
-2.067472 2.2985792 -0.26713276 14
-2.055387 2.2859454 -0.15857187 12
-2.057451 2.2890444 -0.052525241 15
-2.0560038 2.2882373 0.81345564 10
-2.0603158 2.2938416 0.70244062 14
-2.0586581 2.2928009 0.59097672 14
-2.0543022 2.2887533 0.48050588 13
-2.0472515 2.2816987 0.37170148 14
-2.0675867 2.3051717 0.26756814 15
-2.0588412 2.2962275 0.15962467 12
-2.0375631 2.2732942 0.052619003 12
-1.2943271 1.4466094 -0.50987375 3
-1.4902939 1.6662173 -0.50726491 3
-1.7692273 1.9787728 -0.50804973 4
-2.0461571 2.2893059 -0.4802542 10
-2.0523877 2.2970836 -0.37352994 8
-2.0527999 2.298352 -0.26626119 15
-2.0407438 2.2856569 -0.15805025 11
-2.0427904 2.288753 -0.052352462 15
-2.041573 2.2881925 0.81086916 10
-2.0458102 2.2937477 0.70019281 14
-2.040843 2.2889824 0.58811718 14
-2.0397286 2.2885363 0.47894323 13
-2.0326715 2.28142 0.3704828 14
-2.0495889 2.3012164 0.26626077 15
-2.0441725 2.2959416 0.15910131 13
-2.0229683 2.2729242 0.052444477 12
-1.2892697 1.4511186 -0.50987375 3
-1.4844686 1.6714094 -0.50726491 3
-1.7623094 1.9849365 -0.50804973 4
-2.0315976 2.2890475 -0.47868985 8
-2.0377696 2.2968092 -0.37231123 8
-2.0381546 2.2980509 -0.26538962 15
-2.0261281 2.2852938 -0.15752864 11
-2.028157 2.2883871 -0.052179679 15
-2.0271673 2.288075 0.80828267 9
-2.0313306 2.2935803 0.697945 14
-2.0263333 2.2887425 0.58621085 14
-2.0251818 2.2882462 0.4773806 13
-2.0148304 2.2773509 0.36865473 14
-2.0349441 2.3008943 0.26538923 15
-2.0295315 2.2955818 0.15857795 13
-2.0084007 2.27248 0.052269954 12
-1.2873917 1.4592319 -0.51116782 3
-1.4786252 1.6765809 -0.50726491 3
-1.7553699 1.9910759 -0.50804973 4
-2.0137992 2.2850101 -0.4763433 9
-2.0231788 2.2964609 -0.37109256 8
-2.0235362 2.2976751 -0.26451808 15
-2.0115397 2.284857 -0.15700702 11
-2.0102484 2.284194 -0.051920507 15
-2.0127876 2.2878845 0.80569619 9
-2.01366 2.2896814 0.69457322 14
-2.0118501 2.288429 0.58430439 14
-2.0106616 2.2878823 0.47581798 13
-2.0003178 2.2769136 0.36743605 14
-2.0170398 2.296756 0.2640819 11
-2.0116234 2.2913949 0.1577929 13
-1.9938608 2.2719617 0.052095428 12
-1.2852166 1.4675739 -0.5124619 3
-1.4692614 1.6783235 -0.50614017 3
-1.7480605 1.9974964 -0.50804973 4
-1.9989074 2.2849419 -0.47477898 9
-2.0049472 2.2926536 -0.36926451 8
-2.0052667 2.2938263 -0.26321074 15
-1.9932946 2.2809348 -0.15622459 11
-1.9952847 2.2840166 -0.051747728 15
-1.998035 2.2879705 0.80310965 10
-1.9988461 2.2897058 0.69232541 14
-1.9937674 2.284693 0.58144486 14
-1.9957696 2.2877932 0.47425535 13
-1.9854355 2.2767491 0.36621734 14
-2.0020618 2.2966242 0.26321036 11
-1.9966507 2.291224 0.15726954 13
-1.9789529 2.2717154 0.051920906 12
-1.2800859 1.4720511 -0.5124619 3
-1.463394 1.6834421 -0.50614017 3
-1.7410773 2.0035861 -0.50804973 4
-1.9812036 2.2807209 -0.47243246 9
-1.9904245 2.2921438 -0.36804584 8
-1.9907171 2.2932892 -0.2623392 15
-1.9787754 2.2803364 -0.15570298 12
-1.9807482 2.2834146 -0.051574945 15
-1.9837078 2.2876332 0.80052316 10
-1.9844589 2.2893064 0.6900776 14
-1.9793516 2.28422 0.57953846 14
-1.9813044 2.2872801 0.47269273 13
-1.9709789 2.2761624 0.36499867 14
-1.9875132 2.2960668 0.26233879 11
-1.9821062 2.290628 0.15674618 14
-1.9644647 2.2710519 0.051746383 12
-1.2749397 1.4765105 -0.5124619 3
-1.4543254 1.6848519 -0.50501537 3
-1.7340728 2.0096514 -0.50804973 4
-1.9667792 2.2801437 -0.47086814 9
-1.9759296 2.2915609 -0.36682713 8
-1.9729438 2.2889056 -0.26103184 15
-1.9642847 2.2796643 -0.15518135 11
-1.9662403 2.2827394 -0.051402166 15
-1.9694074 2.2872233 0.79793668 10
-1.970099 2.2888343 0.68782979 14
-1.961762 2.2799532 0.57667893 15
-1.9668676 2.286694 0.47113013 13
-1.9565506 2.2755027 0.36377996 14
-1.9697459 2.2916582 0.26103145 12
-1.9675902 2.2899582 0.15622282 14
-1.9500155 2.2703059 0.051571857 12
-1.2697779 1.4809519 -0.5124619 3
-1.4452649 1.6862192 -0.50389069 3
-1.7270472 2.0156922 -0.50804973 4
-1.952383 2.2794938 -0.46930379 10
-1.9614633 2.2909048 -0.36560845 8
-1.9584641 2.2882099 -0.2601603 12
-1.949823 2.278919 -0.15465973 12
-1.9517612 2.2819905 -0.051229388 14
-1.9519956 2.2830708 0.79405689 10
-1.9557666 2.28829 0.68558204 14
-1.947415 2.2793238 0.57477254 10
-1.9524587 2.2860351 0.46956751 13
-1.9421508 2.2747698 0.36256129 14
-1.9552674 2.2909424 0.26015988 11
-1.9531032 2.2892158 0.15569946 14
-1.9355909 2.2694917 0.051397335 12
-1.2646006 1.4853753 -0.5124619 3
-1.4362125 1.6875436 -0.50276589 3
-1.7200007 2.0217083 -0.50804973 3
-1.9380153 2.2787712 -0.46773943 10
-1.9470257 2.2901754 -0.36438975 8
-1.9407881 2.2836463 -0.25885296 12
-1.9353905 2.2781005 -0.15413812 11
-1.9373114 2.2811685 -0.051056605 15
-1.9377625 2.2825069 0.79147035 10
-1.9446145 2.2913885 0.68445808 14
-1.9330962 2.2786219 0.57286614 11
-1.9380786 2.2853034 0.46800488 13
-1.9245712 2.270179 0.36073324 14
-1.9375978 2.2863538 0.25885257 11
-1.9386454 2.2883995 0.1551761 13
-1.9211954 2.2686043 0.051222809 12
-1.2594081 1.4897804 -0.5124619 3
-1.4334577 1.696268 -0.50389069 3
-1.7129332 2.0276999 -0.50804973 4
-1.9236767 2.277976 -0.46617511 9
-1.9326172 2.2893736 -0.36317107 9
-1.9263802 2.2827935 -0.25798139 12
-1.924207 2.2810259 -0.15387732 12
-1.9228911 2.2802734 -0.050883826 15
-1.9235574 2.2818716 0.78888386 10
-1.9303252 2.2907112 0.68221027 14
-1.9156439 2.2740941 0.57000661 10
-1.9237274 2.2844996 0.46644226 13
-1.910243 2.26929 0.35951456 14
-1.9231911 2.2854812 0.257981 11
-1.9242171 2.2875109 0.15465274 13
-1.90683 2.2676442 0.051048286 12
-1.2542001 1.4941676 -0.5124619 3
-1.4306594 1.7049931 -0.50501537 3
-1.7058446 2.0336668 -0.50804973 4
-1.9093673 2.2771087 -0.46461076 9
-1.9182382 2.2884991 -0.36195236 8
-1.9120021 2.2818682 -0.25710985 12
-1.9098206 2.2800732 -0.15335569 11
-1.908501 2.2793057 -0.050711047 15
-1.9093804 2.2811646 0.78629738 9
-1.9160644 2.2899621 0.67996246 14
-1.9013959 2.2732372 0.56810021 11
-1.9094058 2.2836232 0.46487963 13
-1.8959447 2.2683284 0.35829583 14
-1.9088142 2.2845356 0.25710946 11
-1.9130199 2.2903817 0.15439107 14
-1.8924946 2.2666113 0.050873764 12
-1.2489768 1.4985363 -0.5124619 3
-1.4278178 1.7137198 -0.50614017 3
-1.7018765 2.0433805 -0.50900286 4
-1.8950875 2.2761695 -0.4630464 9
-1.9070631 2.2913666 -0.361343 9
-1.8976536 2.28087 -0.25623828 12
-1.8954643 2.2790477 -0.15283407 12
-1.8941411 2.2782655 -0.050538264 15
-1.8952317 2.2803869 0.78371084 10
-1.9018325 2.2891417 0.67771465 14
-1.8871776 2.2723088 0.56619388 11
-1.8951137 2.282675 0.46331704 13
-1.8816764 2.2672949 0.35707715 14
-1.8944671 2.2835176 0.25623786 11
-1.8986382 2.2893581 0.15386769 13
-1.8781897 2.2655063 0.050699238 12
-1.2437383 1.502887 -0.5124619 3
-1.4249324 1.722447 -0.50726491 3
-1.6978616 2.053091 -0.50995612 4
-1.8808374 2.2751579 -0.46148208 9
-1.8927306 2.2903585 -0.36012432 9
-1.8833357 2.2798002 -0.25536671 12
-1.8811386 2.27795 -0.15231246 11
-1.8798116 2.2771525 -0.050365485 15
-1.881112 2.2795379 0.78112435 9
-1.8876296 2.2882495 0.67546684 14
-1.8729886 2.2713089 0.56428748 11
-1.8839928 2.2854655 0.46253574 13
-1.8705947 2.2700195 0.35646781 14
-1.8801507 2.2824278 0.25536633 11
-1.8842872 2.2882628 0.15334433 13
-1.8639158 2.2643292 0.050524715 12
-1.2384847 1.5072193 -0.5124619 4
-1.4220037 1.7311753 -0.50838971 3
-1.6906844 2.0590053 -0.50995612 4
-1.8666176 2.274075 -0.45991769 9
-1.8784282 2.2892783 -0.35890561 8
-1.8690486 2.2786579 -0.25449514 12
-1.8668437 2.2767801 -0.15179083 12
-1.8655131 2.2759676 -0.050192706 15
-1.8670213 2.2786188 0.77853787 9
-1.8734564 2.2872865 0.67321903 14
-1.8588301 2.2702377 0.56238109 11
-1.8697476 2.2843847 0.46097311 13
-1.8563741 2.2688534 0.35524914 14
-1.865865 2.2812655 0.25449476 12
-1.8699672 2.2870953 0.15282097 14
-1.8496732 2.2630801 0.050350189 12
-1.2301629 1.507791 -0.51116782 3
-1.4128728 1.7323529 -0.50726491 3
-1.6865885 2.0686984 -0.51090926 4
-1.8524284 2.2729208 -0.45835334 9
-1.8641565 2.2881262 -0.35768694 9
-1.8547921 2.2774439 -0.2536236 12
-1.8525798 2.2755384 -0.15126921 12
-1.851246 2.2747109 -0.050019924 15
-1.85296 2.2776287 0.77595139 9
-1.8593129 2.2862525 0.67097121 14
-1.8447015 2.2690949 0.56047469 10
-1.8555326 2.283232 0.45941046 13
-1.8421848 2.267616 0.35403043 14
-1.8547506 2.2838981 0.25405899 11
-1.8556783 2.2858555 0.15229762 14
-1.8354619 2.2617593 0.050175667 12
-1.2248923 1.512076 -0.51116782 3
-1.4037514 1.7334883 -0.50614017 3
-1.6793572 2.074573 -0.51090926 4
-1.8382701 2.2716949 -0.45678899 9
-1.8467947 2.2830443 -0.35585886 8
-1.8374355 2.2722852 -0.25231627 12
-1.8383476 2.274225 -0.1507476 11
-1.8370104 2.2733822 -0.049847145 15
-1.8389283 2.2765684 0.77336484 9
-1.8451993 2.2851474 0.6687234 14
-1.8336868 2.2717011 0.55952156 10
-1.841349 2.2820082 0.45784783 13
-1.8280265 2.2663069 0.35281172 13
-1.8405142 2.2826035 0.25318745 11
-1.8414208 2.284544 0.15177426 13
-1.8212824 2.2603667 0.050001144 12
-1.2165798 1.512579 -0.50987375 3
-1.394639 1.7345806 -0.50501537 3
-1.6721052 2.0804226 -0.51090926 4
-1.8241431 2.2703984 -0.45522466 8
-1.8325988 2.2817383 -0.35464019 9
-1.8232557 2.2709169 -0.2514447 12
-1.8241471 2.2728398 -0.15022598 12
-1.8228067 2.2719817 -0.049674366 16
-1.8249271 2.2754381 0.77077836 9
-1.8311164 2.2839723 0.66647559 14
-1.8196068 2.2704282 0.55761516 11
-1.8271964 2.2807136 0.45628521 13
-1.8170023 2.2688005 0.35220239 14
-1.8263091 2.2812374 0.25231588 11
-1.8271954 2.2831612 0.1512509 14
-1.8071351 2.258903 0.049826618 12
-1.2082785 1.5130426 -0.50857961 3
-1.3885757 1.7394383 -0.50501537 3
-1.6617714 2.0824101 -0.50995612 4
-1.8100474 2.269031 -0.45366031 8
-1.8184346 2.2803612 -0.35342148 9
-1.8091081 2.2694778 -0.25057316 13
-1.809979 2.2713835 -0.14970437 11
-1.8086354 2.2705104 -0.049501583 15
-1.8109558 2.2742379 0.76819187 9
-1.8170642 2.2827265 0.66422778 14
-1.8055582 2.2690842 0.55570877 11
-1.8130755 2.2793479 0.45472261 14
-1.8028941 2.2673602 0.35098368 13
-1.8121363 2.2798002 0.25144431 12
-1.8130019 2.2817066 0.15072754 13
-1.7930204 2.2573681 0.049652096 12
-1.2059903 1.5210353 -0.50987375 3
-1.3855218 1.7480929 -0.50614017 3
-1.6544925 2.0881982 -0.50995612 4
-1.7959837 2.2675927 -0.45209596 8
-1.8073832 2.282804 -0.35281214 9
-1.7949926 2.2679675 -0.24970159 13
-1.7958431 2.269856 -0.14918275 11
-1.7944963 2.2689674 -0.049328804 15
-1.8000106 2.2767563 0.76689857 9
-1.803043 2.2814102 0.66198003 13
-1.7915411 2.2676704 0.55380243 10
-1.7989864 2.2779114 0.45315999 13
-1.7888185 2.2658494 0.349765 14
-1.7979958 2.2782919 0.25057277 12
-1.7988412 2.2801812 0.15020418 14
-1.7789383 2.2557623 0.04947757 12
-1.2036608 1.5290308 -0.51116782 3
-1.3794112 1.7529187 -0.50614017 3
-1.6471931 2.0939608 -0.50995612 4
-1.7819523 2.2660842 -0.4505316 8
-1.7932699 2.281296 -0.35159346 9
-1.7839873 2.2703028 -0.2492658 12
-1.7817402 2.2682576 -0.14866114 12
-1.7803903 2.2673538 -0.049156025 15
-1.786088 2.2754273 0.76431209 8
-1.7920609 2.2838573 0.66085607 13
-1.7775559 2.266186 0.55189604 10
-1.7849294 2.2764044 0.45159736 13
-1.7747753 2.2642682 0.3485463 13
-1.783888 2.2767127 0.2497012 11
-1.784713 2.2785845 0.14968082 13
-1.7648896 2.2540858 0.049303047 12
-1.2042645 1.5408337 -0.51375604 3
-1.3762833 1.761562 -0.50726491 3
-1.6368526 2.0958292 -0.50900286 4
-1.767953 2.2645051 -0.44896728 8
-1.7791891 2.2797172 -0.35037476 8
-1.7699239 2.268662 -0.24839425 13
-1.7676703 2.2665884 -0.14813951 12
-1.7663172 2.2656691 -0.048983242 15
-1.7721965 2.2740288 0.76172554 8
-1.7780894 2.2824118 0.65860826 13
-1.7666188 2.2685044 0.55094284 10
-1.770905 2.2748272 0.45003474 13
-1.7607648 2.2626164 0.34732762 13
-1.7698133 2.2750628 0.24882965 11
-1.7706181 2.2769172 0.14915746 14
-1.750874 2.2523384 0.049128518 12
-1.1988788 1.5450279 -0.51375604 3
-1.3701259 1.7663553 -0.50726491 3
-1.6295269 2.1015303 -0.50900286 4
-1.7539868 2.2628562 -0.44740292 8
-1.7651412 2.2780678 -0.34915608 9
-1.7589442 2.2708886 -0.24795848 12
-1.7536337 2.2648489 -0.14761789 11
-1.7553378 2.2678676 -0.048896853 15
-1.7583368 2.2725611 0.75913906 8
-1.7641501 2.2808971 0.65636045 13
-1.7526851 2.2668912 0.54903644 11
-1.7569135 2.27318 0.44847211 13
-1.7467878 2.2608945 0.34610891 14
-1.7557716 2.2733424 0.24795809 11
-1.7565567 2.2751794 0.14863411 13
-1.739947 2.2544789 0.04904126 12
-1.1934782 1.5492034 -0.51375604 3
-1.3669244 1.7749873 -0.50838971 3
-1.6221812 2.1072056 -0.50900286 4
-1.7430657 2.2650516 -0.44662076 8
-1.7541525 2.280282 -0.34854671 9
-1.7449337 2.2691176 -0.24708691 12
-1.7396311 2.2630391 -0.14709628 11
-1.7413188 2.266053 -0.04872407 15
-1.7445089 2.2710247 0.75655258 8
-1.7502431 2.2793126 0.65411264 14
-1.7387841 2.2652085 0.54713005 10
-1.7429551 2.2714629 0.44690952 13
-1.7328445 2.2591028 0.34489024 14
-1.7447946 2.2755044 0.24752231 11
-1.7425289 2.273371 0.14811075 13
-1.7259855 2.2526021 0.048866734 12
-1.1821951 1.5456874 -0.51116782 3
-1.3607203 1.779748 -0.50838971 3
-1.6177964 2.116755 -0.50995612 4
-1.7291523 2.2632737 -0.44505644 9
-1.7401578 2.2785029 -0.34732801 9
-1.7309574 2.2672765 -0.24621536 13
-1.7286915 2.2651281 -0.14683546 11
-1.7273335 2.264168 -0.048551291 15
-1.7307132 2.2694192 0.75396603 7
-1.7363685 2.2776594 0.65186483 13
-1.7278916 2.2673604 0.54617691 10
-1.72903 2.269676 0.44534689 13
-1.7189348 2.2572412 0.34367153 14
-1.7308069 2.2736547 0.24665076 11
-1.7285353 2.271493 0.14758739 14
-1.7150853 2.2546344 0.048779473 12
-1.1765218 1.5500101 -0.51116782 3
-1.3541881 1.7847233 -0.50838971 3
-1.6100272 2.1226702 -0.50995612 5
-1.714878 2.2617259 -0.44349208 8
-1.7257996 2.2769558 -0.34610933 9
-1.7166194 2.2656651 -0.24534379 12
-1.7143483 2.2634881 -0.14631385 12
-1.7160057 2.2664981 -0.048464898 15
-1.719469 2.2718964 0.75267279 7
-1.7221297 2.2762375 0.64961702 13
-1.7136482 2.2658486 0.54427052 10
-1.7177216 2.2720587 0.44456559 13
-1.7046657 2.2556078 0.34245285 13
-1.716457 2.2720342 0.24577919 11
-1.7171893 2.2738285 0.14732571 13
-1.7007859 2.2529252 0.048604947 13
-1.1681976 1.5502503 -0.50987375 3
-1.34795 1.7894394 -0.50838971 3
-1.6026078 2.1282773 -0.50995612 5
-1.7010328 2.2598069 -0.44192773 8
-1.7118733 2.2750351 -0.34489062 9
-1.7057062 2.267663 -0.24490802 12
-1.7004354 2.261477 -0.14579223 12
-1.7020762 2.2644818 -0.048292119 15
-1.7057256 2.2701616 0.75008625 7
-1.7112478 2.2783396 0.64849317 13
-1.6998343 2.2639663 0.54236418 10
-1.703851 2.2701411 0.44300297 13
-1.6938033 2.2575746 0.34184349 13
-1.7055271 2.2740271 0.2453434 11
-1.7032511 2.2718186 0.14680235 14
-1.6899078 2.2548521 0.048517689 13
-1.1627791 1.5543185 -0.50987375 3
-1.3446131 1.798035 -0.50951445 3
-1.5951691 2.1338587 -0.50995612 5
-1.6872215 2.2578189 -0.44036335 8
-1.7009516 2.2770209 -0.34428129 9
-1.6918198 2.2656212 -0.24403645 13
-1.6895442 2.2633975 -0.14553143 12
-1.6911714 2.2664027 -0.04820573 15
-1.6920151 2.2683592 0.74749976 7
-1.6974598 2.2764874 0.64624536 13
-1.6860546 2.2620153 0.54045779 10
-1.6929657 2.2721148 0.44222164 13
-1.6799836 2.2555132 0.34062478 14
-1.6916295 2.2719762 0.24447185 11
-1.6923295 2.2737448 0.14654067 14
-1.6760638 2.2527115 0.048343163 12
-1.1573465 1.558368 -0.50987375 4
-1.3354247 1.7988062 -0.50838971 3
-1.5877109 2.1394136 -0.50995612 4
-1.6763878 2.2597284 -0.43958122 9
-1.6870806 2.2749717 -0.34306258 9
-1.6779685 2.26351 -0.2431649 12
-1.6756874 2.2612579 -0.1450098 12
-1.6772985 2.2642579 -0.048032951 15
-1.6783383 2.2664886 0.74491328 7
-1.6866044 2.2784827 0.6451214 13
-1.6723094 2.2599959 0.53855139 10
-1.6791505 2.2700696 0.44065902 12
-1.666199 2.2533829 0.3394061 14
-1.6777672 2.2698562 0.24360029 11
-1.6784478 2.2716064 0.14601731 15
-1.6652199 2.2545271 0.048255898 13
-1.1547656 1.5662857 -0.51116782 4
-1.3291374 1.8034568 -0.50838971 3
-1.5802332 2.1449428 -0.50995612 4
-1.6626327 2.2576137 -0.43801686 8
-1.676187 2.2768505 -0.34245324 9
-1.6671047 2.2653415 -0.24272911 12
-1.664825 2.2630713 -0.14474899 12
-1.6634612 2.2620442 -0.047860172 15
-1.6675558 2.2684417 0.74362004 6
-1.6728706 2.276504 0.64287359 12
-1.6615044 2.2618637 0.53759819 10
-1.6682931 2.2719364 0.43987769 13
-1.6553868 2.2551849 0.33879676 13
-1.6668869 2.2716832 0.24316452 11
-1.667555 2.2734253 0.14575563 14
-1.6514277 2.2522626 0.048081376 13
-1.1492913 1.5703071 -0.51116782 4
-1.3228341 1.8080853 -0.50838971 3
-1.5727363 2.1504459 -0.50995612 4
-1.6489128 2.2554302 -0.43645251 9
-1.6623727 2.2746742 -0.34123453 9
-1.6533105 2.263103 -0.24185754 13
-1.6510257 2.2608039 -0.14422737 12
-1.6526072 2.263799 -0.047773778 15
-1.6539332 2.2664459 0.74103355 6
-1.662043 2.2783937 0.64174974 12
-1.6478151 2.2597182 0.5356918 10
-1.6545342 2.2697642 0.43831509 13
-1.6416591 2.2529278 0.33757806 14
-1.6530819 2.2694359 0.24229297 11
-1.653731 2.2711596 0.14523228 14
-1.6406138 2.2539718 0.047994114 13
-1.1466416 1.5782166 -0.5124619 3
-1.3165146 1.8126918 -0.50838971 3
-1.5623366 2.1519506 -0.50900286 4
-1.6381291 2.2571754 -0.43567032 9
-1.6515082 2.2764459 -0.3406252 9
-1.6424767 2.2648282 -0.24142179 13
-1.6401932 2.2625105 -0.14396657 13
-1.6388278 2.2614577 -0.047600996 15
-1.6403449 2.2643826 0.73844707 6
-1.6483647 2.2762892 0.63950193 12
-1.6370389 2.2614801 0.5347386 10
-1.6408108 2.2675238 0.43675247 13
-1.6308764 2.2546237 0.33696872 14
-1.6422315 2.2711558 0.24185717 11
-1.6428679 2.2728715 0.1449706 13
-1.6268802 2.2515807 0.047819592 13
-1.1411257 1.5822095 -0.5124619 3
-1.3101791 1.8172764 -0.50838971 3
-1.5548153 2.1573911 -0.50900286 4
-1.6244668 2.2548661 -0.43410599 9
-1.6377513 2.2741425 -0.33940649 9
-1.6287405 2.2624629 -0.24055022 13
-1.6264528 2.2601168 -0.14344496 12
-1.6280047 2.2631063 -0.04751461 15
-1.6296107 2.2661734 0.73715377 6
-1.637565 2.2780733 0.63837802 12
-1.6234064 2.2592087 0.53283226 10
-1.6300046 2.2692266 0.43597117 13
-1.6172073 2.2522402 0.33575001 14
-1.6284845 2.2687814 0.24098562 11
-1.6291025 2.2704787 0.14444724 14
-1.6131835 2.249121 0.04764507 13
-1.1384072 1.5901102 -0.51375604 3
-1.3066629 1.8258003 -0.50951445 3
-1.5472752 2.1628053 -0.50900286 4
-1.6137134 2.2565057 -0.43332383 9
-1.6269172 2.2758086 -0.33879715 9
-1.6179372 2.264082 -0.24011444 13
-1.6156509 2.2617171 -0.14318414 13
-1.6142845 2.2606385 -0.047341831 15
-1.6160781 2.2639856 0.73456728 6
-1.6267732 2.2798097 0.63725412 12
-1.6126603 2.2608659 0.53187907 10
-1.6163393 2.2668605 0.43440855 13
-1.6035748 2.2497892 0.33453134 14
-1.6176648 2.2703955 0.24054985 11
-1.6182703 2.2720845 0.14418554 14
-1.6024231 2.2506659 0.047557805 13
-1.1300521 1.5901374 -0.5124619 4
-1.3031033 1.834322 -0.51063919 3
-1.5397161 2.1681931 -0.50900286 5
-1.6001096 2.254071 -0.43175948 9
-1.6132193 2.2733791 -0.33757848 9
-1.6042606 2.2615905 -0.23924288 13
-1.6019698 2.2591968 -0.14266253 12
-1.6034925 2.262181 -0.047255438 15
-1.6053733 2.2656724 0.73327404 5
-1.6131732 2.2775228 0.63500631 12
-1.5990859 2.2584698 0.52997267 9
-1.6055635 2.2684577 0.43362722 13
-1.5928454 2.2513218 0.333922 13
-1.6039776 2.2678952 0.23967829 11
-1.6045644 2.2695651 0.14366218 14
-1.5887866 2.2480805 0.047383279 13
-1.1272786 1.598019 -0.51375604 4
-1.2966924 1.8388596 -0.51063919 3
-1.5321383 2.1735547 -0.50900286 5
-1.5893871 2.2556057 -0.43097728 9
-1.6024159 2.2749393 -0.33696911 9
-1.5934887 2.2631042 -0.23880711 13
-1.5912001 2.2606919 -0.14240173 13
-1.5898328 2.259587 -0.047082655 15
-1.5918977 2.263361 0.73068756 5
-1.5996089 2.2751687 0.63275844 11
-1.5855482 2.2560065 0.52806634 9
-1.5919573 2.2659662 0.43206459 13
-1.5792729 2.2487457 0.33270329 14
-1.5931891 2.2694035 0.23924251 11
-1.5908959 2.266978 0.14313883 13
-1.5780586 2.2495201 0.047296021 13
-1.1161531 1.5940316 -0.51116782 4
-1.2930592 1.8473657 -0.51176393 3
-1.5217282 2.1748679 -0.50804973 5
-1.5786735 2.2570934 -0.43019515 8
-1.5887778 2.2723844 -0.3357504 9
-1.5798725 2.2604871 -0.23793554 13
-1.5775797 2.2580462 -0.1418801 12
-1.5790733 2.2610242 -0.046996269 15
-1.578458 2.2609837 0.72810096 5
-1.5888693 2.2767434 0.63163459 11
-1.5748552 2.2575016 0.52711314 10
-1.581213 2.2674584 0.43128332 13
-1.5685755 2.2501733 0.33209395 14
-1.5795624 2.2667775 0.23837095 11
-1.5801191 2.2684202 0.14287716 14
-1.5644833 2.2468097 0.047121495 12
-1.1133385 1.6018839 -0.5124619 3
-1.2866027 1.8518682 -0.51176393 3
-1.5141273 2.1801665 -0.50804973 4
-1.5679687 2.2585332 -0.42941296 9
-1.5751772 2.269762 -0.33453172 9
-1.569133 2.2618954 -0.23749976 13
-1.5668426 2.2594357 -0.14161928 12
-1.5654752 2.2583055 -0.04682349 15
-1.5733069 2.2704496 0.72939426 5
-1.5781379 2.2782702 0.63051063 11
-1.561377 2.2549143 0.52520674 9
-1.5676671 2.264843 0.4297207 12
-1.5578878 2.251554 0.33148462 14
-1.5659734 2.2640843 0.2374994 11
-1.566512 2.2657082 0.1423538 13
-1.5509462 2.2440319 0.046946973 12
-1.113225 1.6137114 -0.51505011 3
-1.2801307 1.8563478 -0.51176393 3
-1.5037218 2.1813972 -0.50709653 4
-1.554471 2.2558599 -0.42784861 8
-1.5616143 2.2670727 -0.33331302 9
-1.5584033 2.2632568 -0.23706399 13
-1.5532839 2.2566652 -0.14109766 11
-1.5547488 2.2596376 -0.046737097 15
-1.5571609 2.263989 0.72551447 4
-1.5646551 2.2757359 0.62826282 11
-1.5507165 2.2563059 0.52425355 10
-1.5569552 2.2662306 0.42893937 13
-1.5472093 2.2528872 0.33087525 14
-1.5552417 2.2654305 0.23706363 11
-1.5557684 2.2670455 0.14209211 13
-1.537442 2.2411907 0.046772443 13
nan nan nan 0
-1.2705674 1.8570067 -0.51063919 3
-1.4957165 2.1868939 -0.50709653 5
-1.5434054 2.2574656 -0.42706645 9
-1.5504944 2.2686839 -0.33270368 9
-1.5444779 2.2607276 -0.23619244 13
-1.5393708 2.2540965 -0.14057605 10
-1.540819 2.2570632 -0.046564315 15
-1.5679095 2.2976074 0.73456728 10
-1.5535581 2.2774305 0.62713897 10
-1.5396708 2.2579191 0.52330035 9
-1.5430753 2.2637603 0.42737675 13
-1.5333527 2.2503409 0.32965657 13
-1.54132 2.2628822 0.23619208 11
-1.5418284 2.2644777 0.14156875 13
-1.52641 2.2426741 0.046685185 13
-1.1070771 1.6296259 -0.51763833 4
-1.2613404 1.8573999 -0.50951445 3
-1.4880738 2.1921015 -0.50709653 5
-1.52997 2.2546666 -0.42550209 8
-1.5369941 2.2658684 -0.331485 9
-1.5337816 2.2619824 -0.23575665 12
-1.5286916 2.2553229 -0.14031525 11
-1.5301269 2.2582891 -0.046477929 15
-1.5707138 2.3190622 0.73974025 10
-1.5401361 2.274771 0.62489116 10
-1.5290289 2.2592151 0.52234721 9
-1.5323968 2.2650428 0.42659545 10
-1.5227081 2.2515686 0.32904723 13
-1.5278325 2.2599957 0.23532051 12
-1.5311189 2.2657092 0.14130709 11
-1.5129699 2.2397072 0.046510659 13
nan nan nan 0
-1.2548492 1.8617916 -0.50951445 3
-1.4776703 2.1932123 -0.50614333 5
-1.5193318 2.255897 -0.4247199 9
-1.5235322 2.2629862 -0.3302663 9
-1.5230957 2.2631903 -0.23532088 12
-1.5152353 2.2523592 -0.13979362 12
-1.5194448 2.2594678 -0.046391536 15
-1.5626093 2.3245308 0.73974025 9
-1.5294687 2.2760892 0.6237672 9
-1.5156597 2.2563896 0.52044082 9
-1.5189748 2.2621779 0.42503282 13
-1.509308 2.2486291 0.32782853 14
-1.5171589 2.2611785 0.23488472 11
-1.5176381 2.2627461 0.14078373 13
-1.5023642 2.2408187 0.046423398 13
nan nan nan 0
-1.2483426 1.8661604 -0.50951445 3
-1.4700056 2.1983569 -0.50614333 5
-1.5059594 2.2529755 -0.42315558 8
-1.5128665 2.2641642 -0.32965693 9
-1.5124197 2.2643511 -0.23488508 12
-1.5018187 2.2493293 -0.139272 11
-1.5087732 2.2605996 -0.046305142 14
-1.5518051 2.3259537 0.73844707 9
-1.516108 2.2733076 0.62151939 9
-1.5050516 2.2575827 0.51948762 9
-1.5083303 2.2633567 0.4242515 12
-1.498698 2.2497535 0.32721916 13
-1.5037351 2.2581689 0.23401317 11
-1.5069635 2.2638733 0.14052203 12
-1.4917637 2.2418873 0.046336137 12
nan nan nan 0
-1.2418209 1.8705066 -0.50951445 3
-1.4623231 2.2034748 -0.50614333 5
-1.4926257 2.2499881 -0.42159122 9
-1.4994684 2.2611594 -0.32843825 9
-1.4990022 2.2613134 -0.23401353 12
-1.4911999 2.2503958 -0.1390112 11
-1.4953517 2.2575171 -0.046132363 15
-1.5383437 2.323302 0.73586053 9
-1.5054743 2.2745233 0.62039554 9
-1.4917451 2.2546356 0.51758122 9
-1.4949719 2.2603695 0.4226889 12
-1.4853619 2.2466915 0.32600048 14
-1.4903511 2.2550933 0.23314162 11
-1.4935474 2.2607875 0.13999867 13
-1.4784193 2.2387376 0.046161614 13
nan nan nan 0
-1.2352841 1.87483 -0.50951445 3
-1.4546226 2.2085657 -0.50614333 5
-1.4793314 2.2469349 -0.42002687 9
-1.4888381 2.2622342 -0.32782891 9
-1.4883621 2.2623708 -0.23357774 12
-1.4778484 2.2472436 -0.13848959 12
-1.4847163 2.2585456 -0.046045974 15
-1.5275719 2.3246212 0.73456728 8
-1.4948509 2.2756925 0.61927158 9
-1.4811721 2.2557263 0.51662809 9
-1.4816526 2.2573168 0.42112628 11
-1.474788 2.2477136 0.32539111 14
-1.4797382 2.2561166 0.23270582 11
-1.4829088 2.2618115 0.139737 13
-1.4678551 2.2397032 0.046074349 13
nan nan nan 0
-1.2313986 1.8832083 -0.51063919 4
-1.4469043 2.21363 -0.50614333 6
-1.4687778 2.2479508 -0.41924468 8
-1.4755046 2.2591074 -0.32661018 9
-1.4750099 2.2592108 -0.23270617 13
-1.4672661 2.2482071 -0.13822877 12
-1.4713602 2.2553403 -0.045873195 15
-1.5141717 2.3218484 0.73198074 9
-1.4815767 2.2727337 0.61702383 8
-1.4706093 2.2567704 0.51567489 8
-1.4710686 2.258337 0.42034498 11
-1.4642251 2.2486889 0.32478178 13
-1.4664197 2.2529192 0.23183426 11
-1.4695585 2.2586038 0.13921364 12
-1.4545767 2.2364316 0.045899823 13
nan nan nan 0
-1.2248174 1.8874952 -0.51063919 3
-1.4391685 2.218667 -0.50614333 5
-1.4555485 2.244777 -0.41768035 8
-1.4649107 2.2600796 -0.32600087 9
-1.4644063 2.2601659 -0.23227042 13
-1.4539807 2.2449331 -0.13770714 13
-1.4607617 2.2562659 -0.045786802 14
-1.5034335 2.3230648 0.73068756 9
-1.470988 2.2738008 0.61589992 8
-1.4600575 2.2577686 0.51472169 8
-1.4578145 2.2551632 0.41878232 12
-1.4509798 2.24545 0.3235631 12
-1.4558439 2.2538404 0.23139849 12
-1.4589571 2.2595248 0.13895196 13
-1.4440503 2.2372952 0.045812566 12
-1.0407759 1.615587 -0.50469732 4
-1.2208589 1.8958548 -0.51176393 3
-1.4287583 2.2195497 -0.50519013 6
-1.4450315 2.2456913 -0.41689819 8
-1.4543279 2.2610054 -0.3253915 9
-1.4511203 2.2568843 -0.23139885 13
-1.4434358 2.2457945 -0.13744634 13
-1.4501747 2.2571454 -0.045700416 16
-1.4927053 2.3242345 0.72939426 8
-1.4577779 2.2707219 0.61365211 8
-1.4495165 2.2587206 0.51376849 7
-1.4472671 2.2560816 0.41800103 13
-1.437775 2.242146 0.32234439 14
-1.4452796 2.254715 0.23096271 11
-1.4456733 2.2561958 0.1384286 13
-1.4308392 2.2339029 0.04563804 12
-1.0403328 1.6273483 -0.50728554 5
-1.2194805 1.9083153 -0.51401347 3
-1.4210018 2.2245235 -0.50519013 5
-1.4318684 2.2423971 -0.41533384 9
-1.4437565 2.2618852 -0.32478216 10
-1.4405541 2.2577367 -0.23096307 12
-1.4329026 2.2466094 -0.13718553 12
-1.4369119 2.2537627 -0.045527633 14
-1.4819872 2.3253579 0.72810096 9
-1.447225 2.2716877 0.6125282 8
-1.4389868 2.2596266 0.5128153 8
-1.4340789 2.2527876 0.4164384 12
-1.4272755 2.2429643 0.32173505 13
-1.4347271 2.2555432 0.23052694 11
-1.4351097 2.2570148 0.13816692 13
-1.4203509 2.2346647 0.045550779 13
nan nan nan 0
-1.215421 1.916675 -0.51513821 3
-1.4132282 2.2294703 -0.50519013 6
-1.421389 2.2432103 -0.41455165 7
-1.4331967 2.2627184 -0.32417279 9
-1.4273354 2.2543347 -0.23009151 12
-1.4223814 2.2473783 -0.13692473 12
-1.4263632 2.2545402 -0.045441244 15
-1.4686981 2.3223529 0.72551447 8
-1.4340796 2.2684894 0.61028039 7
-1.4284683 2.2604864 0.5118621 7
-1.423569 2.2536044 0.41565707 11
-1.4141381 2.2395401 0.32051635 13
-1.4241863 2.2563257 0.23009115 11
-1.4245582 2.2577877 0.13790524 12
-1.407208 2.2311521 0.045376252 13
-1.0546755 1.6754441 -0.52022654 4
-1.2165071 1.9332763 -0.51851249 3
-1.4054372 2.2343898 -0.50519013 6
-1.4082927 2.2397966 -0.41298732 9
-1.4226489 2.2635059 -0.32356349 9
-1.4168078 2.2550857 -0.22965574 14
-1.4118723 2.2481012 -0.13666391 12
-1.4158267 2.2552714 -0.045354854 15
-1.4580154 2.3233743 0.72422123 9
-1.4235635 2.2693543 0.60915649 7
-1.4153539 2.2571421 0.50995576 8
-1.4130708 2.2543755 0.41487581 12
-1.401042 2.236052 0.31929767 12
-1.4110138 2.2528405 0.2292196 11
-1.4113691 2.2542822 0.13738188 13
-1.396759 2.2318127 0.045288995 13
-1.0382959 1.6629119 -0.51505011 4
-1.2016745 1.9253232 -0.51513821 3
-1.3972384 2.239526 -0.50519013 6
-1.3974607 2.2407529 -0.41220516 10
-1.4117177 2.2644935 -0.32295412 10
-1.4032643 2.2518089 -0.22878417 13
-1.4009831 2.2490227 -0.13640311 13
-1.4049085 2.2562017 -0.045268461 14
-1.4469376 2.3246021 0.72292799 8
-1.4100885 2.2662833 0.60690868 7
-1.4018871 2.2539785 0.50804937 7
-1.4021912 2.2553453 0.41409445 12
-1.392837 2.2411721 0.31929767 12
-1.4001188 2.2537663 0.22878383 10
-1.4004631 2.2551982 0.1371202 13
-1.3859332 2.2326696 0.04520173 12
nan nan nan 0
-1.1872511 1.9170804 -0.51176393 4
-1.3894125 2.2443895 -0.50519013 5
-1.3844332 2.2372186 -0.41064081 9
-1.3985831 2.2609665 -0.32173541 10
-1.3927758 2.2524569 -0.22834839 13
-1.3904988 2.2496521 -0.1361423 12
-1.3943967 2.256839 -0.045182075 14
-1.4337387 2.3214202 0.72034144 9
-1.3996097 2.2670457 0.60578477 6
-1.3888553 2.2505045 0.50614297 7
-1.3917173 2.2560232 0.41331318 11
-1.3824006 2.2417963 0.31868833 11
-1.3896295 2.2543993 0.22834805 11
-1.3899632 2.2558219 0.13685852 13
-1.3755039 2.2332408 0.045114469 13
nan nan nan 0
-1.1754509 1.9129113 -0.50951445 3
-1.3815696 2.2492259 -0.50519013 5
-1.3740314 2.237829 -0.40985861 10
-1.3880863 2.261605 -0.32112607 10
-1.3796951 2.2488136 -0.22747684 13
-1.3800271 2.2502356 -0.1358815 10
-1.3812846 2.2531683 -0.045009293 15
-1.4231031 2.3222926 0.71904826 9
-1.389143 2.2677631 0.60466087 7
-1.378428 2.2511528 0.50518978 7
-1.3812554 2.256655 0.41253185 11
-1.371977 2.2423749 0.31807896 13
-1.3791529 2.2549872 0.22791228 11
-1.379476 2.2563999 0.13659684 13
-1.3650987 2.2337592 0.045027204 10
-1.0157956 1.665447 -0.5124619 4
-1.158622 1.9003639 -0.50501537 4
-1.3737099 2.2540348 -0.50519013 6
-1.3636421 2.2383943 -0.40907648 8
-1.3776022 2.2621977 -0.32051674 10
-1.3692472 2.2493613 -0.22704107 14
-1.3669729 2.2465081 -0.13535988 12
-1.3708133 2.253705 -0.044922903 15
-1.4099697 2.3189924 0.71646172 9
-1.3786882 2.268435 0.60353696 6
-1.3654644 2.247561 0.50328338 7
-1.3708063 2.2572417 0.41175056 12
-1.3615661 2.242908 0.31746963 12
-1.3686891 2.2555292 0.22747648 10
-1.3690017 2.2569325 0.13633516 13
-1.3521091 2.2299612 0.044852681 13
-1.0149769 1.6772466 -0.51505011 4
-1.1595463 1.9169024 -0.50838971 3
-1.363294 2.2546163 -0.504237 6
-1.3507113 2.2346878 -0.40751213 9
-1.3645645 2.2584977 -0.31929803 10
-1.3588119 2.2498636 -0.22660528 13
-1.3565421 2.2469912 -0.13509907 12
-1.3603551 2.2541962 -0.044836514 16
-1.3993715 2.3197641 0.71516848 10
-1.3682454 2.2690611 0.602413 6
-1.3550769 2.2481103 0.50233024 8
-1.36037 2.2577829 0.41096923 11
-1.3486075 2.2391448 0.31625095 12
-1.3582385 2.256026 0.22704072 11
-1.3585405 2.2574193 0.13607349 13
-1.34174 2.2303836 0.04476542 12
-0.99917191 1.6642166 -0.50987375 4
-1.1603688 1.9334701 -0.51176393 3
-1.3554156 2.2593613 -0.504237 7
-1.3403628 2.2351537 -0.40672994 9
-1.3541211 2.2589905 -0.31868869 10
-1.34839 2.2503204 -0.22616951 14
-1.3435588 2.2431455 -0.13457744 12
-1.3473419 2.2503526 -0.044663735 15
-1.3863047 2.3163459 0.71258199 10
-1.3578154 2.2696426 0.60128915 6
-1.342183 2.2444015 0.50042385 7
-1.3499467 2.2582788 0.41018793 11
-1.3382375 2.2395785 0.31564158 12
-1.347801 2.2564771 0.22660492 11
-1.3455329 2.2535734 0.13555013 13
-1.3288219 2.2264678 0.044590894 13
-1.0032427 1.6842916 -0.51505011 4
-1.1585975 1.9458808 -0.51401347 3
-1.3475206 2.2640789 -0.504237 7
-1.3300276 2.2355747 -0.40594777 9
-1.3436908 2.259438 -0.31807932 10
-1.3354361 2.2464502 -0.22529794 14
-1.3331701 2.2435296 -0.13431664 13
-1.3369255 2.2507436 -0.044577342 16
-1.3732791 2.312865 0.70999545 11
-1.3449112 2.2659891 0.59904134 6
-1.331836 2.2448518 0.49947065 7
-1.3395365 2.2587292 0.4094066 11
-1.3253505 2.2356982 0.31442288 12
-1.337377 2.2568831 0.22616915 10
-1.3351136 2.2539606 0.13528845 13
-1.318495 2.2267909 0.044503633 12
-0.99244338 1.6794673 -0.5124619 4
-1.1592315 1.9624975 -0.51738775 3
-1.3421048 2.272995 -0.50519013 6
-1.3222158 2.2402039 -0.40594777 9
-1.333274 2.2598405 -0.31747001 10
-1.3250562 2.2468076 -0.22486216 14
-1.3227948 2.2438679 -0.13405582 13
-1.3239846 2.2467825 -0.044404563 16
-1.3578434 2.3051603 0.70611572 11
-1.3345213 2.2664716 0.59791738 6
-1.3215023 2.2452569 0.49851748 7
-1.3266354 2.2548783 0.40784398 11
-1.3150226 2.2360332 0.31381357 12
-1.3269664 2.2572434 0.22573337 11
-1.3247079 2.2543023 0.13502677 13
-1.308182 2.2270691 0.044416368 12
-0.98931181 1.6869154 -0.51375604 4
-1.1505957 1.9619269 -0.51626295 3
-1.3349574 2.2772002 -0.50519013 7
-1.3126746 2.2400858 -0.40516558 10
-1.3211514 2.2554536 -0.31625131 10
-1.3154744 2.2466612 -0.22442639 14
-1.3106945 2.2393937 -0.13353421 13
-1.3143952 2.2466159 -0.044318173 15
-1.3457184 2.3010762 0.70352924 12
-1.3249356 2.2664468 0.59679353 6
-1.3119656 2.2451596 0.49756429 6
-1.317054 2.2547708 0.40706271 11
-1.3054889 2.2358675 0.3132042 12
-1.3148471 2.2527976 0.22486182 10
-1.312587 2.2498271 0.13450339 13
-1.2986606 2.2268496 0.044329111 12
-0.98371243 1.6901867 -0.51375604 4
-1.1412905 1.9617205 -0.51513821 3
-1.329468 2.2860892 -0.50614333 8
-1.3023654 2.2403848 -0.40438342 10
-1.3107768 2.2557604 -0.31564194 10
-1.3051223 2.246932 -0.2239906 14
-1.3003623 2.2396371 -0.13327339 13
-1.301526 2.2425427 -0.04414539 16
-1.3304068 2.2932265 0.69964945 10
-1.314572 2.2668431 0.59566957 6
-1.301659 2.2454791 0.49661112 6
-1.3066993 2.2550812 0.40628135 10
-1.295189 2.2361166 0.31259486 12
-1.3044796 2.253063 0.22442605 11
-1.3022246 2.2500739 0.13424173 13
-1.2858728 2.2227147 0.044154584 12
-0.97992504 1.6979638 -0.51505011 4
-1.1316582 1.9616702 -0.51401347 3
-1.3210801 2.2909467 -0.50614333 8
-1.2892129 2.2365861 -0.4028191 9
-1.3000227 2.2562494 -0.3150326 10
-1.2943922 2.2473843 -0.22355483 14
-1.2871623 2.2357335 -0.13275178 13
-1.2908044 2.242965 -0.044059001 16
-1.317176 2.2897139 0.69706297 10
-1.3038262 2.2674227 0.59454572 6
-1.2934202 2.2502348 0.49661112 6
-1.295965 2.2555735 0.40550008 10
-1.284513 2.2365451 0.31198549 13
-1.2937329 2.2535093 0.22399026 10
-1.2914835 2.2505007 0.13398004 13
-1.2752298 2.2230761 0.044067323 12
-0.97399205 1.7013741 -0.51505011 3
-1.1223842 1.9613801 -0.51288873 3
-1.3130752 2.2955441 -0.50614333 9
-1.2789465 2.2367854 -0.40203691 10
-1.2872138 2.2521565 -0.31381392 10
-1.2840685 2.2475638 -0.22311905 13
-1.2768742 2.2358773 -0.13249098 13
-1.2804886 2.2431154 -0.043972608 16
-1.3043879 2.285908 0.69447643 10
-1.2934896 2.2677281 0.59342182 5
-1.2831265 2.2504721 0.49565789 5
-1.2856383 2.2557926 0.40471876 10
-1.2742416 2.2367032 0.31137615 12
-1.2809291 2.2493546 0.22311871 10
-1.2811499 2.2506557 0.13371836 13
-1.264984 2.2231722 0.043980062 12
-0.97013372 1.7091327 -0.51634425 4
-1.1151879 1.9654808 -0.51288873 3
-1.3046527 2.3003414 -0.50614333 10
-1.2683042 2.2371621 -0.40125474 10
-1.2765037 2.2525415 -0.31320456 10
-1.273367 2.247921 -0.22268325 14
-1.2662103 2.236197 -0.13223016 12
-1.2697961 2.243443 -0.043886222 15
-1.2912444 2.2822661 0.69188994 11
-1.2803724 2.2639718 0.59117401 5
-1.2700384 2.2466142 0.49375153 5
-1.2725025 2.2518904 0.40315613 10
-1.2635943 2.2370374 0.31076682 11
-1.2702272 2.249697 0.22268291 10
-1.2679838 2.2466395 0.133195 13
-1.2543765 2.2234364 0.043892797 13
-0.96416181 1.7125087 -0.51634425 3
-1.1059308 1.9651157 -0.51176393 3
-1.2966151 2.3048816 -0.50614333 12
-1.255646 2.2329662 -0.39969036 9
-1.2662015 2.2526574 -0.31259522 10
-1.2630727 2.2480099 -0.22224748 13
-1.2559518 2.2362499 -0.13196936 12
-1.2595099 2.2435024 -0.043799829 15
-1.2809061 2.2825472 0.69059664 11
-1.2700784 2.2641785 0.5900501 6
-1.2597882 2.2467527 0.49279836 5
-1.2622195 2.2520106 0.40237483 9
-1.2509266 2.2327754 0.30954811 11
-1.257499 2.2454255 0.22181135 10
-1.2576948 2.246695 0.13293332 13
-1.2441607 2.2234421 0.04380554 13
-0.95817816 1.7158638 -0.51634425 4
