# .PCD v0.7 - Point Cloud Data file format
VERSION 0.7
FIELDS x y z intensity
SIZE 4 4 4 4
TYPE F F F F
COUNT 1 1 1 1
WIDTH 1411
HEIGHT 1
VIEWPOINT 0 0 0 1 0 0 0
POINTS 1411
DATA ascii
-27.849655 3.6368091 2.4538698 3
-46.171322 6.037581 2.4383321 4
-43.609287 5.7102981 0.76703322 3
-1.8957437 0.24991587 -0.50210917 2
-2.1534386 0.28427017 -0.49264312 2
-2.558495 0.33819503 -0.49375188 4
-3.1320276 0.41456369 -0.4943333 2
-4.0622382 0.53841037 -0.49844614 2
-5.5779905 0.74029934 -0.48894444 2
-9.1057224 1.2101098 -0.4778021 2
-24.820713 3.3029704 -0.43203738 3
-9.0049744 1.1999198 2.4222615 12
-10.425628 1.3910749 2.4175196 11
-12.487633 1.6684234 2.439209 5
-15.25147 2.0403981 2.4283125 10
-19.840965 2.6579227 2.4532297 6
-27.871346 3.7386355 2.4569204 3
-46.159859 6.2000408 2.4388554 8
-43.95573 5.9117994 0.77349061 4
-1.8948599 0.25653175 -0.50210917 3
-2.1524334 0.29178533 -0.49264312 2
-2.5621626 0.34778398 -0.49470508 4
-3.1403482 0.42682418 -0.49589765 2
-4.0504994 0.55124849 -0.49722749 2
-5.580308 0.76043814 -0.48938024 2
-9.1014433 1.2418873 -0.4778021 2
-24.774359 3.3848536 -0.43143263 3
-8.9959459 1.2306911 2.4209681 12
-10.420709 1.4274586 2.4175196 10
-12.481733 1.7120031 2.439209 5
-15.244254 2.0936232 2.4283125 10
-19.821733 2.7258124 2.4520111 7
-27.843325 3.8338637 2.4556131 3
-46.137936 6.3611307 2.4388554 12
-43.979393 6.0713506 0.77427596 5
-1.8939528 0.26314446 -0.50210917 2
-2.1514015 0.29929698 -0.49264312 2
-2.5609331 0.35672548 -0.49470508 4
-3.1486213 0.43914777 -0.49746197 2
nan nan nan 0
-5.5776196 0.77991247 -0.48938024 2
-9.0970526 1.2736497 -0.4778021 2
-24.717836 3.4650655 -0.43065512 3
-8.9915953 1.2620853 2.4209681 12
-10.410837 1.4631469 2.4163957 10
-12.465961 1.7541943 2.4373026 5
-15.231963 2.1461339 2.4275312 9
-19.797356 2.7929068 2.4501832 7
-27.829771 3.9310317 2.4556131 3
-46.120396 6.5228429 2.4391172 5
-43.982685 6.2283354 0.77471226 11
-1.8930228 0.26975396 -0.50210917 3
-2.1503439 0.30680496 -0.49264312 2
-2.5596724 0.3656626 -0.49470508 4
-3.1519582 0.45083514 -0.49824417 2
-4.0662026 0.58232677 -0.49966487 2
-5.574863 0.79937726 -0.48938024 2
-9.0925512 1.3053967 -0.4778021 2
-24.730331 3.554882 -0.43108708 3
-8.9823542 1.2927762 2.4196749 12
-10.405666 1.4994787 2.4163957 9
-12.454903 1.7969971 2.4363494 5
-15.224379 2.1992903 2.4275312 9
-19.777662 2.8605745 2.4489644 8
-27.82081 4.0288658 2.456049 3
-46.097343 6.6837935 2.4391172 27
-44.049728 6.394753 0.77628303 12
-1.8968486 0.27705827 -0.50340325 3
-2.1492598 0.31430915 -0.49264312 2
-2.5583804 0.37459534 -0.49470508 3
-3.145479 0.46111846 -0.49746197 2
nan nan nan 0
-5.5720387 0.81883228 -0.48938024 2
-9.0829992 1.3364007 -0.47754127 2
-24.727663 3.6426427 -0.43125987 3
-8.977787 1.3241225 2.4196749 13
-10.395549 1.5350803 2.4152718 10
-12.438843 1.839026 2.4344428 5
-15.211723 2.2516968 2.4267499 8
-19.752831 2.9274116 2.4471364 8
-27.801651 4.1252227 2.4556131 3
-46.073734 6.8446627 2.4391172 6
-46.064411 6.8514948 0.81223494 24
-1.8910934 0.2829631 -0.50210917 3
-2.1481495 0.32180956 -0.49264312 2
-2.5570571 0.38352346 -0.49470508 3
-3.1389666 0.47136208 -0.49667984 2
-4.042408 0.60774857 -0.49722749 1
-5.5740724 0.83901876 -0.48981604 2
-9.0782785 1.3680981 -0.47754127 2
-24.744459 3.7334116 -0.43177822 2
-8.9683342 1.3547313 2.4183817 12
-10.390127 1.5713582 2.4152718 9
-12.432347 1.8824344 2.4344428 5
-15.203772 2.3047819 2.4267499 8
-19.752306 2.9978335 2.448355 7
-27.811703 4.2259851 2.4577918 3
-46.059433 7.0069499 2.4396405 5
-46.040215 7.012248 0.81223494 7
-1.890094 0.28956252 -0.50210917 3
-2.1518285 0.3300446 -0.49376786 2
-2.5557029 0.39244688 -0.49470508 3
-3.1324208 0.48156577 -0.49589765 2
-4.0304518 0.62034553 -0.49600875 2
-5.5711093 0.85847074 -0.48981604 3
-9.0734482 1.399779 -0.47754127 3
-24.775742 3.8266306 -0.43255574 2
-8.9635506 1.3860284 2.4183817 13
-10.384579 1.6076169 2.4152718 10
-12.430552 1.9265716 2.435396 5
-15.190753 2.3570817 2.4259686 9
-19.75643 3.0690489 2.4501832 7
-27.796782 4.3230405 2.4577918 3
-46.024826 7.1661482 2.4391172 4
-45.995701 7.169836 0.81188595 6
-1.8890718 0.29615843 -0.50210917 3
-2.1554763 0.33830932 -0.49489263 2
-2.5543175 0.40136558 -0.49470508 3
-3.1258426 0.49172968 -0.49511549 2
-4.0380669 0.63595486 -0.49722749 2
-5.568079 0.87791234 -0.48981604 3
-9.0635738 1.4306641 -0.47728047 2
-24.826427 3.9232352 -0.43367881 2
-8.9586582 1.4173086 2.4183817 12
-10.378903 1.643856 2.4152718 10
-12.423751 1.9699508 2.435396 5
-15.182433 2.4100931 2.4259686 9
-19.765202 3.1411085 2.4526205 8
-27.727413 4.4114337 2.4529984 3
-46.014324 7.3291178 2.4399021 4
nan nan nan 0
-1.8832579 0.30198601 -0.50081509 3
-2.1590924 0.34660345 -0.49601737 2
-2.5529008 0.41027936 -0.49470508 3
-3.1241071 0.50263792 -0.49511549 2
-4.0554204 0.65320313 -0.49966487 2
-5.5649805 0.89734316 -0.48981604 2
-9.0585251 1.462293 -0.47728047 2
-24.812582 4.0098715 -0.43367881 2
-8.9536552 1.4485716 2.4183817 12
-10.373102 1.6800752 2.4152718 10
-12.421644 2.0140913 2.4363494 5
-15.173927 2.4630747 2.4259686 9
-19.754118 3.210083 2.4526205 6
-27.657766 4.4993963 2.4482048 3
-45.963818 7.4856796 2.4385936 4
-43.477482 7.0885439 0.76825494 3
-1.8774261 0.30777666 -0.49952096 3
-2.162677 0.354927 -0.49714214 2
-2.5514531 0.41918817 -0.49470508 3
-3.1223335 0.51353997 -0.49511549 2
-4.0580125 0.66816151 -0.50027424 2
-5.5568995 0.91595304 -0.48938024 3
-9.0533657 1.4939044 -0.47728047 2
-24.778704 4.0931997 -0.43333325 2
-8.95331 1.4806048 2.4196749 12
-10.371982 1.7170696 2.4163957 9
-12.41938 2.0582411 2.4373026 5
-15.17011 2.516835 2.4267499 7
-19.737896 3.2782052 2.4520111 7
-27.646805 4.5967293 2.4486406 3
-45.873379 7.6354203 2.4351919 4
-31.66678 5.276475 0.55969864 24
-1.8763404 0.31432822 -0.49952096 3
-2.1614251 0.36247399 -0.49714214 2
-2.5499744 0.42809182 -0.49470508 3
-3.120522 0.52443588 -0.49511549 2
-4.065443 0.68396926 -0.50149292 2
-5.5536685 0.93534464 -0.48938024 4
-9.0480947 1.5254974 -0.47728047 2
-24.818489 4.1888208 -0.43428352 2
-8.9480877 1.5118487 2.4196749 11
-10.365925 1.7532641 2.4163957 10
-12.41696 2.1023998 2.4382558 5
-15.161231 2.5697732 2.4267499 10
-19.706762 3.3437626 2.4495738 7
-27.6355 4.6940403 2.4490762 3
nan nan nan 0
-31.549601 5.3702025 0.55795342 19
-1.8704715 0.32006142 -0.49822688 3
-2.1649482 0.37083906 -0.49826688 2
-2.5436268 0.43616074 -0.49375188 3
-3.1186724 0.53532529 -0.49511549 2
-4.0532489 0.69647527 -0.50027424 2
-5.5503697 0.95472485 -0.48938024 4
-9.0427151 1.5570718 -0.47728047 2
-24.79879 4.274579 -0.43419713 3
-8.9475155 1.5438952 2.4209681 12
-10.359741 1.7894372 2.4163957 10
-12.399872 2.1440578 2.4363494 4
-15.152169 2.6226802 2.4267499 10
-19.675411 3.4091425 2.4471364 9
-27.653303 4.7964368 2.452127 3
-29.796003 5.1734433 1.5829009 2
-29.806774 5.1806726 0.5274117 75
-1.8741002 0.32741979 -0.49952096 3
-2.1636405 0.37839389 -0.49826688 2
-2.5420887 0.44503701 -0.49375188 3
-3.1167846 0.54620826 -0.49511549 2
-4.0459051 0.70976198 -0.49966487 2
-5.5470033 0.97409344 -0.48938024 3
-9.0421429 1.5894918 -0.47754127 3
-24.759102 4.3567848 -0.43376517 3
-8.9468288 1.5759565 2.4222615 13
-10.358231 1.8264347 2.4175196 10
-12.382645 2.185622 2.4344428 11
-15.142922 2.675555 2.4267499 9
-19.658504 3.4769373 2.4465268 9
-27.685438 4.901619 2.4564846 3
-29.81218 5.2835183 1.5847327 13
-29.778664 5.282939 0.52723718 73
-1.872946 0.33395964 -0.49952096 2
-2.1575108 0.38508812 -0.49714214 2
-2.5356879 0.45304456 -0.49279872 3
-3.1148591 0.55708456 -0.49511549 2
-4.0385175 0.72300583 -0.4990555 2
-5.5484724 0.99432886 -0.48981604 4
-9.03654 1.6210451 -0.47754127 2
-24.753584 4.4449511 -0.43393797 3
-8.9460268 1.6080317 2.4235547 13
-10.351792 1.8625805 2.4175196 11
-12.355618 2.225352 2.4306302 17
-15.13349 2.7283974 2.4267499 9
-19.651133 3.5464184 2.4471364 9
-27.638748 4.9929161 2.4538698 3
-29.729683 5.3759999 1.5813309 7
-29.764963 5.3877449 0.52732444 74
-1.8717688 0.34049538 -0.49952096 3
-2.1561534 0.39261687 -0.49714214 2
-2.534091 0.46189302 -0.49279872 3
-3.1128955 0.56795406 -0.49511549 2
-4.0310874 0.73620701 -0.49844614 2
-5.5449677 1.0136906 -0.48981604 3
-9.0308266 1.6525786 -0.47754127 2
-24.74283 4.5322304 -0.43402433 4
-8.9451094 1.6401203 2.4248481 13
-10.345227 1.8987037 2.4175196 5
-12.333292 2.2658069 2.4277706 13
-15.123874 2.7812066 2.4267499 9
-19.643511 3.6158903 2.4477456 9
nan nan nan 0
-29.710735 5.4797435 1.5813309 7
-29.721394 5.4870729 0.52688813 31
-1.8753175 0.34790799 -0.50081509 2
-2.1547699 0.40014085 -0.49714214 2
-2.5324633 0.47073582 -0.49279872 3
-3.1060388 0.57791322 -0.4943333 2
-4.0138564 0.74754763 -0.49661812 2
-5.5413952 1.0330399 -0.48981604 3
-9.029911 1.685008 -0.4778021 2
nan nan nan 0
-8.9393301 1.6713346 2.4248481 12
-10.338536 1.9348036 2.4175196 11
-12.310835 2.306133 2.424911 13
-15.114074 2.8339818 2.4267499 9
-19.645405 3.6871836 2.4495738 8
-24.95974 4.6891241 2.2185495 3
-24.784286 4.6606412 1.3196511 4
-24.189713 4.5532036 0.42898014 34
-1.8788371 0.35534948 -0.50210917 3
-2.1533599 0.40765995 -0.49714214 2
-2.5308046 0.47957289 -0.49279872 3
-3.1040027 0.58875179 -0.4943333 2
-3.9868443 0.7569257 -0.49357137 2
-5.5426488 1.0533066 -0.49025181 3
-9.0288792 1.7174512 -0.4780629 2
-23.153791 4.4084444 -0.40663865 2
-8.9381866 1.7034329 2.4261413 6
-10.331719 1.97088 2.4175196 11
-12.293068 2.3472507 2.4230046 13
-15.104089 2.8867226 2.4267499 9
-19.666534 3.7622635 2.4538393 7
-23.29458 4.4605336 2.071692 4
-23.066219 4.42098 1.2288482 4
-22.514191 4.3192496 0.39948556 31
-1.8822643 0.36314827 -0.50340325 3
-2.1470675 0.41462588 -0.49601737 2
-2.5290301 0.48884556 -0.49279872 3
-3.1018238 0.6001246 -0.4943333 2
-4.0084043 0.77625084 -0.49661812 2
-5.5387511 1.0736144 -0.49025181 3
-9.0225248 1.7505322 -0.4780629 2
-21.522888 4.1797256 -0.37821627 3
-8.9318829 1.7361815 2.4261413 14
-10.324427 2.0087345 2.4175196 10
-12.284382 2.3922913 2.4230046 14
-15.093407 2.9420624 2.4267499 9
-19.662355 3.8362207 2.4550579 5
-21.747938 4.2470684 1.9352933 4
-21.85906 4.2727299 1.16526 3
-21.153908 4.1387286 0.37557578 36
-1.8809853 0.36971641 -0.50340325 3
-2.1456072 0.42211804 -0.49601737 2
-2.5273082 0.49767053 -0.49279872 4
-3.09971 0.61094832 -0.4943333 2
-4.0154085 0.7921592 -0.49783683 2
-5.5349698 1.0929416 -0.49025181 3
-9.0212574 1.7829843 -0.47832373 2
-20.340963 4.0239286 -0.35765541 5
-8.9257679 1.767349 2.4261413 13
-10.312572 2.0438139 2.4163957 10
-12.275956 2.4351573 2.4230046 13
-15.092733 2.9966538 2.4283125 10
nan nan nan 0
-20.531206 4.083909 1.8280917 5
-20.57568 4.096489 1.0974849 4
-20.006773 3.9868603 0.35541824 31
-1.884419 0.37722802 -0.50469732 3
-2.1441207 0.42960501 -0.49601737 2
-2.5255556 0.50648946 -0.49279872 3
-3.0975585 0.6217646 -0.4943333 2
-4.027215 0.80910325 -0.49966487 2
-5.5360041 1.1132376 -0.49068758 2
-9.0149784 1.8144634 -0.47832373 2
-19.439751 3.9162092 -0.34201881 3
-8.9148092 1.7975403 2.4248481 13
-10.300599 2.0788352 2.4152718 10
-12.267382 2.4779935 2.4230046 13
-15.096703 3.0522549 2.4306564 10
-19.639956 3.9743791 2.4556673 8
-19.335417 3.9162652 1.7226332 5
-19.377005 3.9282091 1.0341585 2
-18.385735 3.7305944 0.32679629 26
-1.8830906 0.38380355 -0.50469732 3
-2.1426079 0.43708679 -0.49601737 2
-2.5237722 0.51530218 -0.49279872 3
-3.0953693 0.63257331 -0.4943333 2
-4.0292282 0.82415044 -0.50027424 2
-5.5369644 1.1335542 -0.49112335 2
-9.0085897 1.8459204 -0.47832373 2
-18.270193 3.7470078 -0.32163072 6
-8.9084806 1.8286477 2.4248481 13
-10.293281 2.1147785 2.4152718 9
-12.258657 2.5207996 2.4230046 14
-15.100469 3.1079206 2.4330003 10
-18.751045 3.8626797 2.3459847 7
-18.350838 3.7835763 1.6359134 8
-18.27268 3.7707868 0.97580391 5
-17.829155 3.6825044 0.31711021 47
-1.8864684 0.39135548 -0.50599146 3
-2.1362994 0.44357282 -0.49489263 2
-2.5219581 0.52410865 -0.49279872 3
-3.0931425 0.64337432 -0.4943333 2
-4.0409026 0.84124452 -0.50210226 2
-5.5378504 1.1538908 -0.49155915 3
-9.0020914 1.8773551 -0.47832373 2
-17.253778 3.6013582 -0.30392072 5
-8.897316 1.8587455 2.4235547 13
-10.281068 2.1496987 2.4141479 9
-12.254587 2.5645804 2.4239578 14
-15.099195 3.1626368 2.4345629 9
-17.848587 3.7417691 2.2344742 9
-17.411301 3.6532691 1.5531154 6
-17.433577 3.6611199 0.93157995 6
-16.920893 3.5565379 0.30114123 49
-1.8850908 0.3979381 -0.50599146 3
-2.134738 0.45102721 -0.49489263 2
-2.5249155 0.53392422 -0.49375188 4
-3.0908778 0.65416747 -0.4943333 2
-4.0233765 0.85225946 -0.50027424 2
-5.5337887 1.1732146 -0.49155915 2
-9.0003681 1.9098033 -0.47858453 3
-16.532022 3.510973 -0.29139414 15
-8.8860483 1.8887872 2.4222615 12
-10.273501 2.1855733 2.4141479 9
-12.245561 2.6073413 2.4239578 13
-15.112214 3.2204702 2.4384696 12
-16.918095 3.6083972 2.1193078 10
-16.570333 3.5372484 1.4790329 7
-16.610123 3.5487733 0.8881411 8
-16.106627 3.4441402 0.28683028 52
-1.8789682 0.40350184 -0.50469732 3
-2.1283872 0.4574523 -0.49376786 2
-2.5230365 0.54273456 -0.49375188 4
-3.0885756 0.6649527 -0.4943333 2
-4.0058227 0.8631624 -0.49844614 2
-5.5345287 1.1935741 -0.49199495 2
-8.9936466 1.9412088 -0.47858453 3
-15.581453 3.3659818 -0.27480721 20
-8.8746805 1.9187731 2.4209681 12
-10.261047 2.2203908 2.4130239 9
-12.241181 2.6511092 2.424911 13
-15.120187 3.2773869 2.4415948 11
-16.15851 3.5054021 2.0254683 14
-15.63305 3.3942666 1.3962351 14
-15.646175 3.399976 0.83711362 12
-15.43991 3.357976 0.27513716 72
-1.8775483 0.4100582 -0.50469732 3
-2.1267774 0.46487898 -0.49376786 2
-2.5211265 0.55153829 -0.49375188 4
-3.0862355 0.67572975 -0.4943333 2
-3.9882421 0.87395316 -0.49661812 2
-5.5351939 1.213953 -0.49243072 3
-8.9916925 1.9736609 -0.4788453 3
-15.330351 3.36779 -0.27057409 5
-8.8679285 1.9497398 2.4209681 13
-10.253234 2.2561948 2.4130239 9
-12.236645 2.6948783 2.4258642 13
-14.86269 3.2759326 2.4017479 11
-15.428936 3.403564 1.9352851 16
-15.334138 3.3854589 1.370524 4
-15.229543 3.365154 0.81539416 6
-14.495765 3.2056706 0.25847012 58
-1.8761055 0.41660956 -0.50469732 3
-2.1346536 0.47441387 -0.49601737 2
-2.5191858 0.56033528 -0.49375188 4
-3.083858 0.68649858 -0.4943333 2
nan nan nan 0
-5.5309229 1.2332669 -0.49243072 3
-8.9896212 2.0061233 -0.47910613 3
-14.45491 3.2284052 -0.25528303 32
-8.8563557 1.9796292 2.4196749 13
-10.245296 2.2919717 2.4130239 9
-12.236744 2.7397206 2.4277706 12
-14.219865 3.1863337 2.2993963 11
-14.76323 3.3107948 1.8530233 10
-14.457136 3.2448008 1.2929555 22
-14.472324 3.2508631 0.77535713 18
-14.108919 3.1718197 0.25175095 53
-1.87464 0.42315587 -0.50469732 3
-2.1377368 0.48293594 -0.49714214 2
-2.5172145 0.56912547 -0.49375188 4
-3.0766263 0.6961692 -0.49355114 2
nan nan nan 0
-5.5265846 1.252566 -0.49243072 3
-8.982564 2.0374906 -0.47910613 5
-13.91703 3.1593163 -0.24595289 12
-8.849391 2.0105317 2.4196749 13
-10.237233 2.3277204 2.4130239 9
-12.227106 2.782418 2.4277706 8
-13.669346 3.1131258 2.2118895 12
-14.112883 3.2167299 1.7725896 12
-13.887255 3.1678529 1.2428409 6
-13.896211 3.1724477 0.74500233 8
-13.620144 3.1119237 0.24319926 41
-1.868444 0.42861712 -0.50340325 3
-2.1645279 0.49693581 -0.50389069 2
-2.5152128 0.57790875 -0.49375188 4
-3.0741775 0.70690435 -0.49355114 2
nan nan nan 0
-5.5221782 1.2718498 -0.49243072 2
-8.9705324 2.0677118 -0.4788453 5
-12.985238 2.9954903 -0.22962515 9
-8.8376122 2.040323 2.4183817 13
-10.229045 2.363441 2.4130239 9
-12.231667 2.8283992 2.4306302 13
-13.148386 3.0427952 2.1290708 11
-13.487555 3.1237657 1.6952025 11
-13.002693 3.0138614 1.1644007 4
-13.05331 3.0279946 0.7002551 4
-12.937176 3.0034344 0.23115711 72
-1.8669364 0.43513662 -0.50340325 3
-2.1485465 0.50116825 -0.50051636 2
-2.51318 0.58668494 -0.49375188 4
-3.0668821 0.71650743 -0.49276894 2
nan nan nan 0
-5.5128551 1.2899832 -0.49199495 2
-8.9632597 2.0990121 -0.4788453 5
-12.789742 2.9974511 -0.22634231 12
-8.8304367 2.0711596 2.4183817 13
-10.225476 2.4002461 2.4141479 10
-12.221719 2.8710785 2.4306302 13
-12.604052 2.9632158 2.0423453 13
-12.945177 3.0457993 1.6281743 14
-12.76422 3.005574 1.1439191 13
-12.8191 3.0208578 0.68821782 13
-12.48383 2.9441504 0.22321627 53
-1.8654062 0.44165078 -0.50340325 3
-2.1325624 0.50529534 -0.49714214 2
-2.5111167 0.59545404 -0.49375188 4
-3.0643623 0.7272085 -0.49276894 2
nan nan nan 0
-5.5083184 1.3092186 -0.49199495 2
-8.9510212 2.1291318 -0.47858453 5
-12.31232 2.9309366 -0.21804886 10
-8.8231525 2.1019709 2.4183817 13
-10.221774 2.4370546 2.4152718 11
-12.206847 2.9125836 2.429677 10
-12.146901 2.900521 1.9696833 13
-12.471093 2.9802346 1.5696771 15
-12.293436 2.940048 1.1025201 13
-12.356869 2.9574983 0.66388154 12
-12.06023 2.8887262 0.21579899 53
-1.8638531 0.44815955 -0.50340325 3
-2.1165755 0.50931686 -0.49376786 2
-2.5137949 0.60536498 -0.49470508 3
-3.0570042 0.73674369 -0.49198681 2
-3.9738894 0.95844853 -0.49722749 2
-5.4988728 1.3272697 -0.49155915 2
-8.9386806 2.1591914 -0.47832373 5
-11.898693 2.8763978 -0.21087848 10
-8.8204575 2.1338925 2.4196749 13
-10.21794 2.4738669 2.4163957 10
-11.91993 2.8881385 2.374392 11
-11.69035 2.8346725 1.8970214 15
-12.016919 2.9160795 1.5136173 12
-11.866834 2.8818526 1.0650431 12
-11.919502 2.8968458 0.64085376 11
-11.642034 2.8315637 0.20846899 55
-1.8622775 0.45466289 -0.50340325 3
-2.095854 0.51207674 -0.48926884 2
-2.5068986 0.61297029 -0.49375188 3
-3.054414 0.74741006 -0.49198681 2
-3.9946213 0.97821623 -0.50027424 2
-5.4942064 1.3464562 -0.49155915 2
-8.92624 2.1891904 -0.4780629 5
-11.490458 2.8202 -0.20379448 11
-8.8129549 2.1646686 2.4196749 13
-10.218706 2.5118454 2.4186435 7
-11.518947 2.8335876 2.2962306 13
-11.291956 2.7798395 1.8337353 14
-11.611537 2.8606632 1.4636507 11
-11.484318 2.8314471 1.0314882 13
-11.516648 2.8415504 0.6196577 12
-11.234093 2.7739146 0.2013135 55
-1.860679 0.46116072 -0.50340325 3
-2.117697 0.52525371 -0.49489263 2
-2.5047438 0.62171721 -0.49375188 3
-3.0517864 0.75806743 -0.49198681 2
-3.9767337 0.98856241 -0.49844614 2
-5.4894729 1.3656263 -0.49155915 2
-8.9185438 2.2203355 -0.4780629 5
-11.087614 2.7623966 -0.19679686 11
-8.8100309 2.1965868 2.4209681 13
-10.21933 2.5498588 2.4208913 11
-11.166115 2.7881646 2.2276011 14
-10.965961 2.7402198 1.7821689 13
-11.221138 2.8060653 1.4155123 13
-11.107135 2.7796166 0.99836904 15
-11.124018 2.7859046 0.59898502 13
-10.846099 2.7183144 0.19450705 57
-1.8637416 0.46883106 -0.50469732 3
-2.1205747 0.53383195 -0.49601737 2
-2.4977984 0.62925756 -0.49279872 3
-3.0443332 0.76750833 -0.49120462 2
-3.9973185 1.008508 -0.50149292 2
-5.4846725 1.3847798 -0.49155915 2
-8.9058971 2.2502303 -0.4778021 7
-10.709555 2.7079444 -0.19023122 12
-8.8069925 2.2285109 2.4222615 13
-10.219812 2.5879073 2.4231391 11
-10.818503 2.7415199 2.1599247 12
-10.621236 2.6935029 1.7274771 13
-10.874557 2.7597642 1.372858 13
-10.706321 2.719058 0.96307099 10
-10.770636 2.7373934 0.58040577 12
-10.51193 2.6735959 0.1886605 58
-1.8620938 0.4753339 -0.50469732 3
-2.128139 0.54364246 -0.49826688 2
-2.4955869 0.63797265 -0.49279872 3
-3.0416355 0.77813035 -0.49120462 2
nan nan nan 0
-5.4846306 1.4051527 -0.49199495 2
-8.8931513 2.2800639 -0.47754127 7
-10.38528 2.6645539 -0.18461585 13
-8.8038387 2.2604408 2.4235547 12
-10.220155 2.6259902 2.4253869 12
-10.499879 2.6998169 2.0979674 13
-10.305671 2.6517985 1.6774733 12
-10.538053 2.7135546 1.3314226 14
-10.402535 2.6805949 0.93648845 10
-10.451575 2.6951773 0.56365824 13
-10.197574 2.6315751 0.183163 58
-1.8604232 0.48183089 -0.50469732 3
-2.1309447 0.55229014 -0.49939165 2
-2.4933448 0.64668006 -0.49279872 3
-3.0389006 0.78874284 -0.49120462 2
-3.9805739 1.0338945 -0.50027424 2
-5.4796925 1.4242891 -0.49199495 3
-8.8803053 2.3098359 -0.47728047 6
-10.066281 2.6201928 -0.17908688 12
-8.8005676 2.2923756 2.4248481 10
-10.177924 2.6530468 2.4175196 6
-10.181681 2.6559241 2.03601 12
-9.9570827 2.5991929 1.6220003 13
-10.230817 2.6725559 1.293643 13
-10.046145 2.626188 0.90511245 11
-10.113624 2.6457136 0.54586399 11
-9.9174948 2.5962558 0.17827633 63
-1.85873 0.48832208 -0.50469732 3
-2.1290038 0.55972511 -0.49939165 2
-2.4910722 0.65537947 -0.49279872 3
-3.0409048 0.80060309 -0.49198681 2
-3.9817398 1.0490475 -0.50088358 2
-5.4746871 1.443408 -0.49199495 3
-8.8673611 2.3395462 -0.47701964 5
-9.8830624 2.6093719 -0.17597683 12
-8.7971821 2.3243151 2.4261413 12
-9.9001198 2.6175723 2.3534567 9
-9.8829021 2.6148653 1.9778657 14
-9.6424074 2.5530353 1.5719963 11
-9.9144049 2.626904 1.2546449 15
-9.8732204 2.6178362 0.89029592 7
-9.8485403 2.6131322 0.531995 17
-9.6281261 2.556448 0.17321514 44
-1.8570142 0.4948073 -0.50469732 3
-2.127037 0.56715328 -0.49939165 2
-2.4887693 0.66407096 -0.49279872 3
-3.0380917 0.81121296 -0.49198681 2
-3.9684641 1.0603776 -0.49966487 2
-5.4696155 1.4625095 -0.49199495 2
-8.8398466 2.3653221 -0.47597644 5
-9.555172 2.5585124 -0.17027508 4
-8.7983456 2.3575089 2.4287276 13
-9.6415148 2.5852389 2.29389 8
-9.5655746 2.5666664 1.9159086 14
-9.3663387 2.5149591 1.5282429 9
-9.6463671 2.5919547 1.2217401 3
-9.5273123 2.561748 0.8597914 4
-9.5355949 2.5657599 0.51550913 4
-9.3777781 2.5250511 0.16885203 47
-1.8552756 0.50128645 -0.50469732 3
-2.1250443 0.57457465 -0.49939165 2
-2.4864361 0.67275435 -0.49279872 3
-3.0400081 0.82310361 -0.49276894 2
-3.9551587 1.071628 -0.49844614 2
-5.4644771 1.4815931 -0.49199495 6
-8.8556309 2.4027019 -0.47728047 5
-9.1843376 2.4936073 -0.16379581 17
-8.7854023 2.3869402 2.4274344 14
-9.3456478 2.5409071 2.2253318 9
-9.2771244 2.5240159 1.8596704 14
-9.0048828 2.4516356 1.4704261 14
-9.3786983 2.5551672 1.1888354 11
-9.2636175 2.5255513 0.83669508 6
-9.2616405 2.5267491 0.50111675 5
-8.992732 2.4550722 0.16204558 81
-1.8534257 0.50808299 -0.50469732 2
-2.1229241 0.58235943 -0.49939165 2
-2.4839537 0.68186301 -0.49279872 3
-3.041733 0.83554846 -0.49355114 2
-3.9703457 1.0913788 -0.50088358 2
-5.4590101 1.5016116 -0.49199495 9
-8.8563938 2.4377935 -0.4778021 8
-8.9727068 2.4714944 -0.16016743 30
-8.7765942 2.4191241 2.4274344 14
-9.054471 2.497417 2.1578975 9
-9.0075836 2.486176 1.807245 15
-8.8768282 2.4517536 1.4508933 16
-9.0057316 2.4890485 1.1425251 25
-8.947051 2.4745107 0.80880529 31
-8.9924555 2.4887581 0.48698604 24
-8.843955 2.4493206 0.15951498 39
-1.8516411 0.51454955 -0.50469732 2
-2.125572 0.59107143 -0.50051636 2
-2.4862871 0.69184536 -0.49375188 3
-3.0387979 0.84616095 -0.49355114 2
nan nan nan 0
-5.4537354 1.5206579 -0.49199495 4
-8.7901163 2.4525902 -0.47467238 17
-8.7617912 2.4463351 -0.15653904 10
-8.7541418 2.4458468 2.4235547 9
-8.8392458 2.4712873 2.1084456 12
-8.7814178 2.4567723 1.7633984 13
-8.6066504 2.4094977 1.4079213 11
-8.7962809 2.4642417 1.1169325 17
-8.7321272 2.4479129 0.79006678 12
-8.7625666 2.4580956 0.47494879 9
-8.609129 2.4166813 0.15541367 37
-1.8498335 0.52100986 -0.50469732 2
-2.128185 0.59980911 -0.50164115 2
-2.4838569 0.70051992 -0.49375188 3
-3.0310729 0.85542178 -0.49276894 2
nan nan nan 0
-5.4483938 1.5396857 -0.49199495 3
-8.5700922 2.4234753 -0.46319681 7
-8.5078688 2.4074838 -0.15213312 9
-8.6293716 2.4434924 2.3912234 9
-8.6055651 2.4383736 2.0544982 12
-8.5461254 2.4231429 1.7176454 15
-8.3986435 2.38291 1.3751062 13
-8.5441494 2.4258051 1.0858558 12
-8.4983349 2.4144006 0.76958519 11
-8.5089874 2.4190319 0.46160311 9
-8.3842621 2.3851554 0.15148687 43
-1.8480036 0.52746379 -0.50469732 2
-2.1307626 0.60857207 -0.50276589 2
-2.4861159 0.71053463 -0.49470508 3
-3.0280683 0.86599702 -0.49276894 2
nan nan nan 0
-5.4429865 1.5586947 -0.49199495 3
-8.3311787 2.3873529 -0.45067793 8
-8.2975798 2.379292 -0.14850476 9
-8.3840218 2.4056625 2.3252676 10
-8.3862734 2.4078929 2.0039225 11
-8.3300476 2.3933229 1.6757051 14
-8.1909294 2.3549001 1.3422912 12
-8.3543968 2.403476 1.0627006 14
-8.2888193 2.3861763 0.75128251 13
-8.3037729 2.3920507 0.45087424 10
-8.1741333 2.3562508 0.14782189 41
-1.8461511 0.53391135 -0.50469732 2
-2.1333055 0.61736053 -0.50389069 2
-2.4836204 0.71920854 -0.49470508 4
-3.0202837 0.87518722 -0.49198681 2
nan nan nan 0
-5.4375124 1.5776848 -0.49199495 4
-8.1309881 2.3607311 -0.4402456 9
-8.092392 2.3510568 -0.14496274 10
-8.1761446 2.3769364 2.2696576 9
-8.1813364 2.3799944 1.9567186 10
-8.1095705 2.3606527 1.6328115 13
-7.9503245 2.3158023 1.3040071 12
-8.1363192 2.3715203 1.0358894 13
-8.0843878 2.3579144 0.7334156 12
-8.1084375 2.3664646 0.44066873 10
-7.9739065 2.3287115 0.14433138 40
-1.8442762 0.54035234 -0.50469732 3
-2.1311374 0.62480336 -0.50389069 2
-2.4810948 0.72787362 -0.49470508 4
-3.0172102 0.88572466 -0.49198681 2
nan nan nan 0
-5.431972 1.5966556 -0.49199495 4
-7.9262972 2.3313324 -0.42955241 8
-7.8827105 2.3200073 -0.14133435 10
-7.9778409 2.3495188 2.2166343 10
-7.9720244 2.3493178 1.9083905 11
-7.8894277 2.3264735 1.5899181 13
-7.7479887 2.2862353 1.2719731 12
-7.9280887 2.3408825 1.0102968 12
-7.8850346 2.3296664 0.71598446 12
-7.8942323 2.3338821 0.42941651 10
-7.7739744 2.299804 0.1408409 39
-1.8423789 0.54678679 -0.50469732 2
-2.1242731 0.63085169 -0.50276589 2
-2.478539 0.73652977 -0.49470508 4
-3.0141001 0.89625126 -0.49198681 2
nan nan nan 0
-5.4263654 1.615607 -0.49199495 5
-7.7410536 2.3062365 -0.4199025 9
-7.6973014 2.2946646 -0.13813792 10
-7.7937155 2.3248882 2.1674907 10
-7.7910404 2.3255708 1.866806 10
-7.6931372 2.2978101 1.5517905 15
-7.5980082 2.2708409 1.2485338 13
-7.7391915 2.3145084 0.98714161 13
-7.6955218 2.3029118 0.6994248 11
-7.7090549 2.3084276 0.41973433 10
-7.5839219 2.2723997 0.13752495 40
-1.8358338 0.55182427 -0.50340325 3
-2.1173928 0.63685977 -0.50164115 2
-2.4759529 0.74517709 -0.49470508 4
-3.015682 0.90819103 -0.49276894 2
nan nan nan 0
-5.4206929 1.6345388 -0.49199495 4
-7.5417418 2.2755494 -0.40947014 9
-7.507381 2.2666113 -0.13485509 12
-7.6237307 2.3031914 2.122227 9
-7.6009951 2.2977705 1.8229737 11
-7.5441279 2.2820168 1.5231949 10
-7.4340506 2.2501359 1.2227507 13
-7.5695772 2.2925992 0.96642387 13
-7.5205965 2.2791975 0.68417257 12
-7.5193763 2.2802608 0.40979052 9
-7.4085093 2.2480521 0.13447079 44
-1.8338964 0.55822915 -0.50340325 2
-2.1104963 0.64282733 -0.50051636 2
-2.4733367 0.75381517 -0.49470508 4
-3.0124934 0.9187122 -0.49276894 2
nan nan nan 0
-5.4149542 1.6534506 -0.49199495 4
-7.352293 2.2464178 -0.39955938 12
-7.3273144 2.2401841 -0.13174506 12
-7.4447575 2.2775109 2.0743766 10
-7.4252162 2.2729502 1.7825133 12
-7.3765512 2.2594614 1.4907864 11
-7.2703323 2.2283142 1.1969675 14
-7.3859773 2.2651691 0.94387805 14
-7.3459315 2.2542903 0.66892034 12
-7.3443093 2.2551951 0.40063173 12
-7.2381396 2.2239764 0.13150388 48
-1.8319366 0.56462729 -0.50340325 2
-2.1082394 0.65019041 -0.50051636 2
-2.4706903 0.76244414 -0.49470508 3
-3.0139868 0.93067926 -0.49355114 2
-3.9246218 1.2126216 -0.49966487 2
-5.4091496 1.6723423 -0.49199495 6
-7.2013021 2.2277977 -0.39173511 13
-7.1618528 2.2169631 -0.12889418 12
-7.2799001 2.2548971 2.030406 12
-7.2590117 2.2498157 1.7443005 14
-7.2186027 2.2386725 1.4602845 12
-7.1068587 2.2053781 1.1711842 15
-7.2263613 2.2438443 0.92437893 14
-7.1858044 2.232626 0.65497541 13
-7.183815 2.2333829 0.39225799 11
-7.0632558 2.1972542 0.12844969 11
-1.8299545 0.57101846 -0.50340325 2
-2.1013069 0.65609366 -0.49939165 2
-2.4633288 0.76960015 -0.49375188 3
-3.0107198 0.94119442 -0.49355114 2
-3.8824742 1.2144612 -0.49479008 2
-5.4032793 1.6912135 -0.49199495 5
-7.0552979 2.2096434 -0.38417166 12
-7.0109553 2.1970997 -0.12630247 14
-7.1337266 2.2369413 1.9916084 13
-7.1023593 2.228467 1.7083355 15
-7.0562072 2.2153389 1.4288293 13
-6.9483476 2.1828079 1.1461823 10
-7.0575175 2.2184567 0.90366113 15
-7.0354228 2.2128608 0.64190203 14
-7.0235648 2.2104785 0.38388422 13
-6.9172606 2.178349 0.1259191 13
-1.8279501 0.57740271 -0.50340325 3
-2.0943582 0.66195631 -0.49826688 2
-2.4606273 0.77819407 -0.49375188 3
-3.0074162 0.95169801 -0.49355114 2
-3.9065983 1.2369946 -0.49844614 2
-5.3973427 1.7100641 -0.49199495 5
-6.8904705 2.1844618 -0.37556496 13
-6.8602862 2.1762102 -0.12371076 13
-6.9647512 2.2106869 1.9463445 13
-6.9552331 2.2090018 1.6746184 15
-6.8987427 2.1923859 1.3983272 13
-6.808908 2.1651452 1.1243055 11
-6.9125862 2.1994421 0.88599008 15
-6.8900151 2.1935847 0.62926447 14
-6.8730783 2.1895139 0.37603384 13
-6.776247 2.1599696 0.12347577 12
-1.8305237 0.58525074 -0.50469732 3
-2.0920348 0.66926295 -0.49826688 3
-2.457896 0.78677851 -0.49375188 3
-3.0040758 0.96219003 -0.49355114 2
-3.8833525 1.2445651 -0.49600875 2
-5.3865976 1.7273729 -0.49155915 5
-6.7496796 2.1657851 -0.36826232 12
-6.7193699 2.1573532 -0.12129184 14
-6.8190408 2.1906669 1.9075471 13
-6.7990546 2.1855552 1.6386534 15
-6.7602162 2.1743724 1.3716379 13
-6.6743784 2.1480489 1.1032102 11
-6.7773228 2.1824856 0.86953771 15
-6.7400875 2.1717932 0.61619109 14
-6.7275786 2.1690586 0.36844513 12
-6.6211753 2.1360288 0.12077065 11
-1.8330648 0.59312367 -0.50599146 2
-2.0896859 0.67656142 -0.49826688 2
-2.4551346 0.79535341 -0.49375188 3
-3.0006988 0.97267038 -0.49355114 2
-3.8931468 1.2627065 -0.49783683 2
-5.3805351 1.746165 -0.49155915 5
-6.6043553 2.1446102 -0.36069885 12
-6.5644064 2.1329043 -0.11861374 14
-6.6735563 2.1696572 1.8687495 12
-6.6523919 2.1640601 1.6049362 14
-6.6172338 2.1539004 1.3439955 12
-6.5447493 2.1315699 1.0828961 11
-6.6375456 2.1630743 0.852476 16
-6.5998697 2.1520708 0.6039893 14
-6.5870533 2.1491637 0.36111808 12
-6.4996209 2.121892 0.11867636 12
-1.835573 0.60102153 -0.50728554 2
-2.0873115 0.68385166 -0.49826688 3
-2.4523432 0.80391848 -0.49375188 3
-2.9972851 0.9831388 -0.49355114 2
-3.8887155 1.2762885 -0.49783683 2
-5.3744068 1.7649361 -0.49155915 6
-6.4734936 2.1271238 -0.35391781 12
-6.4429417 2.118331 -0.11654038 14
-6.5466547 2.1536963 1.8351249 12
-6.5291028 2.1491849 1.5768386 14
-6.4884648 2.1370635 1.3192127 13
-6.4153171 2.1142123 1.062582 11
-6.5121269 2.1473768 0.83724236 12
-6.4787936 2.137639 0.5935306 14
-6.4609752 2.1330104 0.35457608 12
-6.3735008 2.1053655 0.1164948 13
-1.8380483 0.60894406 -0.50857961 3
-2.0895364 0.69266659 -0.49939165 2
-2.454181 0.81401914 -0.49470508 3
-2.998522 0.9951508 -0.4943333 2
-3.8842368 1.2898548 -0.49783683 2
-5.3682137 1.7836854 -0.49155915 7
-6.3428354 2.1087506 -0.34713677 13
-6.3216596 2.1029358 -0.11446702 14
-6.424531 2.1384017 1.8027936 13
-6.4060006 2.133476 1.548741 14
-6.3692079 2.1224575 1.2963361 12
-6.2907724 2.0975399 1.0430492 10
-6.3869004 2.1308305 0.82200867 10
-6.3437262 2.1176572 0.58176458 14
-6.3350911 2.1160035 0.34803408 14
-6.2475762 2.0879846 0.11431325 13
-1.8404909 0.61689126 -0.50987375 3
-2.0871058 0.69995618 -0.49939165 2
-2.4513247 0.82258093 -0.49470508 4
-2.9903488 1.0040398 -0.49355114 2
-3.8891187 1.3065662 -0.4990555 2
-5.3666759 1.8040003 -0.49199495 6
-6.2218523 2.0926752 -0.34087735 14
-6.2005653 2.0867202 -0.11239364 14
-6.298017 2.1207399 1.769169 11
-6.2830882 2.1169341 1.5206434 13
-6.2454829 2.1054778 1.2725064 12
-6.1664243 2.0800242 1.0235165 11
-6.2618699 2.1134367 0.80677503 11
-6.2183166 2.099946 0.5708701 14
-6.2188678 2.1013415 0.34201545 13
-6.1265883 2.071352 0.11221897 13
-1.8246047 0.6186595 -0.50599146 3
-2.0846498 0.7072373 -0.49939165 3
-2.4530859 0.83271021 -0.49565825 4
-2.9868257 1.0144719 -0.49355114 2
-3.8704383 1.3153434 -0.49722749 2
-5.3603463 1.8227224 -0.49199495 5
-6.0963321 2.074173 -0.33435714 12
-6.0796628 2.0696855 -0.11032028 14
-6.1717067 2.102222 1.7355446 11
-6.1603713 2.099561 1.4925457 14
-6.1219544 2.0876603 1.2486767 12
-6.0422769 2.0616665 1.0039837 12
-6.141737 2.0967999 0.79215074 12
-6.1025372 2.0846062 0.56084722 15
-6.1028247 2.0858941 0.33599684 14
-6.005795 2.0539007 0.11012468 13
-1.8360294 0.63004559 -0.50987375 3
-2.0820436 0.71487314 -0.49939165 2
-2.4500175 0.84169567 -0.49565825 4
-2.9830875 1.0254123 -0.49355114 2
-3.8749771 1.3327485 -0.49844614 2
-5.3583393 1.8439778 -0.49243072 5
-5.9989877 2.0656166 -0.32940179 18
-5.968051 2.0561295 -0.1084197 14
-6.0498056 2.0854771 1.7032132 13
-6.0374904 2.0824106 1.4644481 14
-5.9982677 2.0700538 1.224847 14
-5.9366493 2.0499485 0.98757625 13
-6.026125 2.082022 0.77813572 12
-5.9865804 2.0695291 0.55082428 15
-5.9913239 2.0723395 0.33023986 14
-5.9037404 2.0431991 0.10837944 14
-1.8155684 0.63011658 -0.50469732 2
-2.0795355 0.72213656 -0.49939165 2
-2.4517012 0.85185373 -0.49661148 4
nan nan nan 0
-3.8609271 1.3430057 -0.49722749 2
-5.3565741 1.8643076 -0.49286646 6
-5.8974309 2.0537024 -0.32418558 13
-5.8569779 2.0407612 -0.10651912 16
-5.923912 2.065243 1.6695887 14
-5.9197798 2.064961 1.4374745 16
-5.8890538 2.0553961 1.2038769 14
-5.8268833 2.0348382 0.97038746 12
-5.9157515 2.0670311 0.7647301 11
-5.8758783 2.0542495 0.54123718 15
-5.8803649 2.0569699 0.32448292 15
-5.7974796 2.0291193 0.10654694 14
nan nan nan 0
-2.077002 0.72939104 -0.49939165 2
-2.4533432 0.86203367 -0.49756464 4
-2.9805148 1.047851 -0.4943333 2
nan nan nan 0
-5.3500338 1.8829944 -0.49286646 5
-5.7960329 2.0411048 -0.3189694 11
-5.7508011 2.0263045 -0.10470492 10
-5.8073454 2.0473676 1.6385506 15
-5.80686 2.048336 1.4116246 12
-5.7800164 2.0400014 1.1829066 14
-5.7172966 2.0189872 0.95319861 12
-5.800878 2.0496416 0.75071514 12
-5.7653565 2.0382226 0.53165001 11
-5.7742949 2.0425167 0.31898764 15
-5.6961079 2.0159783 0.10480169 14
nan nan nan 0
-2.0744433 0.7366367 -0.49939165 2
-2.4549444 0.87223548 -0.49851784 4
nan nan nan 0
nan nan nan 0
-5.334043 1.8983179 -0.49199495 6
-5.6947951 2.0278246 -0.31375322 10
-5.6353788 2.007776 -0.10271794 10
-5.6909766 2.0287039 1.6075125 15
-5.6895413 2.0293114 1.3846508 12
-5.6804056 2.0271704 1.1638429 15
-5.6125431 2.0040569 0.93679106 12
-5.6861992 2.031476 0.73670018 12
-5.6503286 2.019773 0.52162713 12
-5.6683989 2.0273483 0.31349236 13
-5.5996046 2.0038457 0.10314371 14
-1.7497748 0.62788844 -0.48787412 3
-2.0672741 0.74222702 -0.49826688 2
-2.4518847 0.88079953 -0.49851784 4
-3.0103056 1.0819963 -0.50059068 2
nan nan nan 0
-5.3180108 1.9135528 -0.49112335 5
-5.5937223 2.0138633 -0.30853707 10
-5.548378 1.9986326 -0.10124931 10
-5.6020737 2.0190794 1.584234 15
-5.5999265 2.0194097 1.3644205 11
-5.580955 2.0136693 1.1447791 15
-5.5172563 1.9917744 0.92194623 12
-5.5857215 2.0175931 0.72451317 13
-5.5636091 2.0107038 0.51421893 12
-5.5673757 2.0131636 0.30825877 15
-5.5032568 1.9910643 0.10148574 15
nan nan nan 0
-2.0646706 0.74943864 -0.49826688 2
-2.4534087 0.89102829 -0.49947101 5
nan nan nan 0
nan nan nan 0
-5.2925749 1.9252932 -0.48938024 7
-5.4928174 1.9992213 -0.30332088 11
-5.4568138 1.987196 -0.099694289 10
-5.5042319 2.0055521 1.558369 14
-5.5058737 2.0072391 1.3430665 11
-5.4816694 1.9994991 1.1257154 14
-5.4267631 1.9805446 0.90788263 12
-5.4947352 2.0064383 0.71354496 13
-5.4723434 1.9993446 0.5063749 13
-5.4712119 2.0000134 0.30328685 15
-5.4070668 1.9776349 0.099827759 14
-1.8315008 0.67168415 -0.5124619 3
-2.062042 0.75664109 -0.49826688 2
-2.4502833 0.89958686 -0.49947101 5
-2.9748652 1.0927688 -0.49589765 2
nan nan nan 0
-5.2671223 1.9368796 -0.48763713 9
-5.396769 1.9856238 -0.2983655 12
-5.3653975 1.9751446 -0.098139264 11
-5.4065528 1.9913666 1.5325038 13
-5.4119744 1.9944364 1.3217121 10
-5.3871574 1.9863588 1.1076049 14
-5.3364167 1.9687076 0.89381903 12
-5.3992391 1.9929547 0.70196736 15
-5.3812261 1.987373 0.49853083 13
-5.3798919 1.9879472 0.29857662 15
-5.3157277 1.9652922 0.098257035 13
nan nan nan 0
-2.0593882 0.76383436 -0.49826688 2
-2.4471283 0.90813446 -0.49947101 5
-2.9478846 1.0945516 -0.49198681 3
nan nan nan 0
-5.2323165 1.944841 -0.48502246 16
-5.3055644 1.9731213 -0.29367092 11
-5.2694478 1.9607365 -0.096497856 10
-5.3180947 1.9798946 1.5092254 14
-5.318234 1.9810034 1.3003581 11
-5.2974043 1.9742974 1.0904474 15
-5.2508473 1.9579898 0.88053674 12
-5.3132057 1.9822991 0.69160849 14
-5.2902594 1.97479 0.4906868 13
-5.2887239 1.9752685 0.29386637 10
-5.2292252 1.9540867 0.096773595 14
nan nan nan 0
-2.0612714 0.7727285 -0.49939165 3
-2.439348 0.91494733 -0.49851784 5
-2.934799 1.1013647 -0.49042246 2
nan nan nan 0
-5.1369023 1.929811 -0.47674263 11
-5.2191882 1.9617635 -0.2892372 12
-5.1736646 1.9456829 -0.094856434 11
-5.2297835 1.9678296 1.4859468 14
-5.2292132 1.9686569 1.2801276 11
-5.2078018 1.9616339 1.07329 15
-5.1654186 1.946699 0.86725444 12
-5.2226696 1.9693162 0.68064028 13
-5.1994481 1.9615967 0.48284283 12
-5.197711 1.9619777 0.28915617 11
-5.1428666 1.9423012 0.095290139 15
-1.8017833 0.68227488 -0.50599146 2
-2.0676732 0.78337109 -0.50164115 3
-2.4361393 0.92345661 -0.49851784 4
-2.8755264 1.0905873 -0.48103639 2
nan nan nan 0
-5.0649419 1.9229791 -0.47064176 10
-5.132957 1.949827 -0.28480345 12
-5.0967445 1.9370891 -0.093560584 11
-5.1461363 1.9568893 1.4639615 13
-5.1448975 1.957446 1.2610213 10
-5.1229405 1.9501158 1.0570859 16
-5.0801339 1.934836 0.85397214 12
-5.1415648 1.9592603 0.67089075 12
-5.1134481 1.9495684 0.47543457 12
-5.1115222 1.9498559 0.28470761 11
-5.0613256 1.9317197 0.093893945 15
-1.7993908 0.68856013 -0.50599146 2
-2.0649261 0.79058385 -0.50164115 3
-2.4329011 0.93195474 -0.49851784 4
-2.9132042 1.1165243 -0.48807591 2
nan nan nan 0
-4.9791408 1.9103156 -0.4632335 9
-5.0515347 1.9391021 -0.2806305 12
-5.0199485 1.9279826 -0.092264727 11
-5.0626307 1.9453893 1.4419762 12
-5.0561786 1.9439226 1.2407911 9
-5.0336432 1.9362671 1.0399284 14
-4.9949961 1.9224019 0.84068996 11
-5.055963 1.946879 0.66053182 13
-5.0322447 1.9387546 0.46846214 12
-5.0254812 1.9371563 0.28025904 11
-4.9845858 1.9223918 0.092585012 15
nan nan nan 0
-2.084872 0.80657595 -0.50726491 3
-2.4296331 0.94044149 -0.49851784 4
-2.9231048 1.1320369 -0.49042246 3
nan nan nan 0
-4.9027796 1.9006779 -0.45669678 10
-4.9702506 1.9278328 -0.27645755 13
-4.9432788 1.9183636 -0.090968877 10
-4.9792686 1.9333304 1.4199909 12
-4.972158 1.9315683 1.2216847 9
-4.9445052 1.9218191 1.022771 13
-4.910008 1.9093972 0.82740766 12
-4.9705114 1.9339246 0.65017295 13
-4.955821 1.9292048 0.46192542 12
-4.9442458 1.9256924 0.27607217 11
-4.9033136 1.910743 0.091188818 14
nan nan nan 0
-2.0546787 0.8035652 -0.50051636 3
-2.4261699 0.94934016 -0.49851784 4
-2.9419289 1.1517446 -0.4943333 3
nan nan nan 0
-4.821579 1.8895557 -0.44972432 10
-4.8980703 1.9205186 -0.27280623 12
-4.8664055 1.9090829 -0.089673027 11
-4.8957181 1.9215682 1.3980056 12
-4.8879519 1.9195045 1.2025783 11
-4.8551989 1.9076204 1.0056137 14
-4.8340335 1.9002786 0.81568795 12
-4.8894958 1.9230665 0.64042342 13
-4.8745565 1.9181732 0.45495296 13
-4.8674641 1.9163632 0.27214697 11
-4.8265095 1.9012122 0.089879893 15
nan nan nan 0
-2.0699849 0.81789362 -0.50501537 2
-2.4228413 0.95780337 -0.49851784 4
-2.9470749 1.1656394 -0.49589765 2
nan nan nan 0
-4.7408547 1.8770369 -0.44275185 11
-4.821703 1.9100205 -0.26889408 14
-4.7899985 1.8984284 -0.08837717 11
-4.8171444 1.9101603 1.3773136 13
-4.8042345 1.9060113 1.1834719 11
-4.7846413 1.8992047 0.99226904 14
-4.7585225 1.8897988 0.80396837 12
-4.8089614 1.9108015 0.63067383 14
-4.7984023 1.9075758 0.44841629 13
-4.7957907 1.9075068 0.26848346 12
-4.7501664 1.8903276 0.088570952 15
nan nan nan 0
nan nan nan 0
-2.4194832 0.96625477 -0.49851784 5
-2.9246447 1.1685899 -0.49276894 3
nan nan nan 0
-4.6695271 1.8676771 -0.43665093 10
-4.74547 1.8990132 -0.26498196 12
-4.713726 1.8872645 -0.087081321 11
-4.7431951 1.9000236 1.3579149 13
-4.7342386 1.8973948 1.1677371 11
-4.7187586 1.8921467 0.97987759 15
-4.6831446 1.8788149 0.79224867 11
-4.7377844 1.9016957 0.62214297 13
-4.7270031 1.8983263 0.4423154 12
-4.719605 1.8963119 0.26455826 11
-4.6786036 1.8807862 0.087349296 14
nan nan nan 0
-2.0597064 0.83050305 -0.50389069 2
-2.4160955 0.97469449 -0.49851784 5
-2.9159682 1.1769434 -0.49198681 3
nan nan nan 0
-4.5983238 1.8578429 -0.43055004 10
-4.6740022 1.8893681 -0.2613306 12
-4.6422257 1.8774656 -0.085871853 10
-4.6738524 1.8912058 1.3398093 15
-4.6643629 1.8883135 1.1520026 12
-4.6484346 1.8828095 0.96653289 14
-4.6124797 1.8691835 0.78131032 11
-4.6667299 1.8921164 0.61361212 13
-4.6557293 1.8886023 0.43621451 12
-4.6481838 1.8864864 0.26089472 11
-4.60253 1.8688933 0.086040355 14
nan nan nan 0
nan nan nan 0
-2.4126785 0.98312229 -0.49851784 4
-2.9072692 1.1852506 -0.49120462 3
nan nan nan 0
-4.527246 1.8475347 -0.42444912 11
-4.5980382 1.8773605 -0.25741848 11
-4.5662241 1.8653007 -0.084576003 10
-4.6046305 1.8819275 1.3217037 14
-4.5946088 1.8787675 1.1362679 11
-4.5827775 1.8748635 0.9541415 13
-4.5419393 1.8590815 0.77037197 11
-4.5958009 1.8820645 0.60508126 13
-4.5845804 1.8784039 0.43011358 12
-4.5768909 1.8761861 0.25723121 11
-4.5312238 1.8583897 0.084818684 15
-1.7685022 0.72711903 -0.50210917 2
-2.0358362 0.83744872 -0.49939165 2
-2.4092319 0.99153811 -0.49851784 4
-2.9031143 1.1953917 -0.49120462 2
-3.793432 1.562765 -0.4990555 2
-4.4562974 1.8367528 -0.41834819 10
-4.5268312 1.866749 -0.25376716 12
-4.4996071 1.8564415 -0.083452933 11
-4.5355306 1.8721893 1.3035983 15
-4.5294814 1.8706175 1.1216571 11
-4.5126967 1.8646077 0.94079685 13
-4.4669628 1.8466237 0.75865233 12
-4.5250001 1.8715408 0.59655041 13
-4.5135608 1.8677322 0.42401269 13
-4.5057259 1.865411 0.2535677 12
-4.4600472 1.8474118 0.083597019 15
-1.7659533 0.73328781 -0.50210917 2
-2.0508966 0.85202628 -0.50389069 2
-2.4102883 1.0018257 -0.49947101 4
-2.8989236 1.2055181 -0.49120462 2
-3.792536 1.5779034 -0.49966487 2
-4.3900785 1.8274128 -0.41268307 10
-4.4557557 1.855664 -0.25011584 11
-4.4331083 1.8471404 -0.082329854 11
-4.4665561 1.861992 1.2854927 13
-4.4599719 1.8601609 1.1059225 11
-4.4427438 1.8538858 0.92745221 14
-4.4012446 1.8374708 0.74849528 11
-4.454329 1.860546 0.58801955 13
-4.4426727 1.856588 0.4179118 13
-4.4392996 1.8560886 0.25016585 12
-4.3936157 1.837889 0.082462616 15
-1.7811984 0.74691832 -0.50728554 3
-2.0613873 0.86483437 -0.50726491 2
-2.4067767 1.010233 -0.49947101 4
-2.8992512 1.2175421 -0.49198681 2
-3.7732794 1.5853654 -0.49783683 3
-4.3285718 1.8195635 -0.40745372 12
-4.3894162 1.8460418 -0.24672532 11
-4.3667302 1.8373979 -0.081206784 11
-4.3977084 1.8513361 1.2673873 13
-4.3905911 1.8492421 1.0901878 11
-4.3729219 1.8426989 0.91410762 14
-4.3356442 1.8278816 0.73833829 12
-4.383791 1.8490812 0.57948875 14
-4.3719177 1.8449718 0.41181087 13
-4.3729944 1.8463254 0.24676402 12
-4.3319111 1.8298705 0.081415474 15
-1.7607911 0.74559855 -0.50210917 3
-2.0269549 0.85872155 -0.49939165 2
-2.4032357 1.018628 -0.49947101 4
-2.8904371 1.2257268 -0.49120462 2
-3.7814279 1.6043417 -0.49966487 4
-4.2717586 1.8132536 -0.40266016 12
-4.3231983 1.8359789 -0.2433348 13
-4.3050761 1.8291698 -0.080170102 12
-4.3334355 1.8421122 1.2505749 14
-4.321341 1.8378615 1.0744531 10
-4.3077497 1.8329691 0.90171617 13
-4.2747102 1.8197917 0.72896254 12
-4.3179545 1.8390915 0.57156724 13
-4.305881 1.8348373 0.40614575 13
-4.3068118 1.8361223 0.2433622 12
-4.2703161 1.8214438 0.080368333 15
-1.7714999 0.75743651 -0.50599146 3
-2.0373826 0.87153995 -0.50276589 2
-2.3996654 1.0270107 -0.49947101 4
-2.8861411 1.235809 -0.49120462 2
-3.7986138 1.6273029 -0.50271159 3
-4.210465 1.8046072 -0.39743081 12
-4.2616944 1.8274447 -0.24020509 14
-4.2435331 1.8205339 -0.079133421 11
-4.2692814 1.8324625 1.2337626 14
-4.2611785 1.8298655 1.0609663 11
-4.2426987 1.8228068 0.88932467 15
-4.2184229 1.8132493 0.72036815 12
-4.2522407 1.828665 0.56364572 13
-4.244545 1.8262334 0.40091643 14
-4.2453408 1.8274539 0.24022202 12
-4.2088337 1.8126097 0.079321183 16
-1.7688452 0.76361555 -0.50599146 2
-2.0298557 0.87671477 -0.50164115 2
-2.396066 1.035381 -0.49947101 4
-2.8818095 1.245876 -0.49120462 2
-3.815685 1.6504034 -0.50575835 2
-4.1538558 1.7975334 -0.39263725 12
-4.204885 1.8204873 -0.23733619 12
-4.1821036 1.811491 -0.07809674 11
-4.2096796 1.8243082 1.2182436 13
-4.2011256 1.8214722 1.0474794 11
-4.1822753 1.8141665 0.87788641 14
-4.1577034 1.8043702 0.7109924 12
-4.1912055 1.8197788 0.55633354 14
-4.1878905 1.8192083 0.39612287 14
-4.1839833 1.8183792 0.23708187 13
-4.1474657 1.8033692 0.078274041 11
-1.7705963 0.77171493 -0.50728554 3
-2.026783 0.88379496 -0.50164115 2
-2.3969359 1.045701 -0.50042421 4
-2.8729172 1.2539523 -0.49042246 2
-3.8508322 1.6815865 -0.51124245 2
-4.092783 1.7880925 -0.38740784 12
-4.1481776 1.813156 -0.2344673 12
-4.12079 1.8020418 -0.077060059 10
-4.1546121 1.8176961 1.2040178 15
-4.1456466 1.8146359 1.0351164 11
-4.1264606 1.8070958 0.8674013 15
-4.1016221 1.7970716 0.702398 13
-4.13483 1.8124815 0.5496307 14
-4.1313372 1.81181 0.39132926 14
-4.1227422 1.8088988 0.2339417 13
-4.0816364 1.7917128 0.077139638 10
-1.7721761 0.78014523 -0.50857961 3
-2.0190713 0.8892538 -0.50051636 2
-2.3930871 1.0544792 -0.50042421 4
-2.8683019 1.2644736 -0.49042246 3
-3.7992365 1.6756625 -0.50514901 2
-4.0269608 1.7769406 -0.38174275 10
-4.0912576 1.8061656 -0.23159841 12
-4.0592809 1.7928953 -0.076023377 12
-4.0993266 1.8114377 1.189792 15
-4.0899515 1.8081483 1.0227535 11
-4.0704322 1.8003682 0.85691625 15
-4.04533 1.7901096 0.69380361 12
-4.0782423 1.8055251 0.54292792 14
-4.0700178 1.8027334 0.38609993 13
-4.0658698 1.8017451 0.23106325 13
-4.0247698 1.7843724 0.07617975 10
-1.7738556 0.78828782 -0.50987375 3
-2.015955 0.89629626 -0.50051636 2
-2.3893917 1.0628263 -0.50042421 4
-2.8638706 1.2744781 -0.49042246 2
-3.7978978 1.6909328 -0.50575835 2
-3.9752336 1.7707189 -0.37738496 11
-4.0301986 1.7960455 -0.2284687 12
-4.0027719 1.7846603 -0.075073078 11
-4.0444584 1.8040928 1.1755663 14
-4.0346751 1.8005733 1.0103905 11
-4.0148225 1.7925538 0.84643126 14
-3.9849467 1.780049 0.68442786 10
-4.0220761 1.7974766 0.53622508 14
-4.0136819 1.7945656 0.38130638 12
-4.0048609 1.7914603 0.22792308 13
-3.950067 1.7677848 0.074870817 6
-1.7712319 0.79416579 -0.50987375 2
-2.0131292 0.90262508 -0.50051636 2
-2.3860409 1.0703275 -0.50042421 4
-2.8598526 1.283469 -0.49042246 2
-3.7789843 1.6967573 -0.50393027 2
-3.9333022 1.7668706 -0.37389871 11
-3.9789922 1.7882296 -0.2258606 7
-3.9196329 1.7623749 -0.073604442 5
-3.9815092 1.7910316 1.158754 13
-3.9756846 1.7892457 0.99690366 8
-3.9644156 1.7850063 0.83689934 8
-3.9207983 1.7661905 0.67427087 5
-3.9666398 1.7876735 0.52952224 8
-3.9489944 1.7805504 0.37564126 7
-3.9309404 1.7732356 0.22399788 6
-3.8898165 1.7555019 0.073823676 8
-1.7729889 0.80202562 -0.51116782 3
-2.0099661 0.90964675 -0.50051636 2
-2.3822904 1.0786499 -0.50042421 4
-2.8508563 1.291406 -0.48964027 2
-3.7685187 1.7078897 -0.50332099 2
-3.8998919 1.7682484 -0.37128401 19
-3.8817813 1.7608536 -0.22064441 6
-3.9043527 1.7719142 -0.073431671 26
-3.9092665 1.7749672 1.1393552 6
-3.9161847 1.7789328 0.98341686 5
-3.8821959 1.7643108 0.8206951 8
-3.887635 1.7676014 0.66958296 9
-3.8790636 1.7645212 0.51855403 8
-3.9064865 1.7778184 0.37215504 12
-3.8929164 1.7724631 0.22216612 13
-3.8791153 1.7669969 0.073736414 11
-1.7655035 0.80682003 -0.50987375 3
-2.0108895 0.91938359 -0.50164115 2
-2.3825946 1.0898309 -0.5013774 4
-2.8458767 1.302343 -0.48964027 2
-3.7529087 1.7182153 -0.50210226 2
-3.8613739 1.76869 -0.36823359 7
-3.8704524 1.7736657 -0.2203836 13
-3.8657091 1.7723083 -0.072826929 14
-3.8936422 1.7859373 1.1367687 10
-3.891613 1.7858287 0.97892123 19
-3.8753927 1.7792042 0.8206951 10
-3.8538926 1.7701479 0.66489512 6
-3.8542223 1.7711141 0.51611668 8
-3.8770034 1.7824022 0.36997613 10
-3.8770096 1.7832249 0.22164278 10
-3.8359702 1.7651598 0.073038317 5
-1.7626765 0.81297785 -0.50987375 3
-2.007668 0.92639732 -0.50164115 2
-2.3787758 1.0981411 -0.5013774 4
-2.8413134 1.312269 -0.48964027 2
-3.7423828 1.7292233 -0.50149292 2
-3.8235278 1.7675273 -0.36518314 4
-3.832514 1.7724934 -0.21855795 5
-3.8322763 1.7731955 -0.072308592 5
-3.8479373 1.7812573 1.1251295 5
-3.8588295 1.7871172 0.97217774 7
-3.8335311 1.7762135 0.81306958 5
-3.820806 1.7711277 0.66020721 3
-3.825506 1.7741175 0.51306993 2
-3.8436477 1.7833462 0.36736143 4
-3.8390584 1.7820312 0.21981101 4
-3.8252482 1.7764397 0.072951056 53
-1.7554493 0.81708777 -0.50857961 3
-2.0044219 0.93339974 -0.50164115 2
-2.374928 1.1064378 -0.5013774 4
-2.8322392 1.3200928 -0.4888581 3
-3.7183328 1.7338866 -0.4990555 3
-3.785737 1.7661225 -0.36213264 8
-3.7946303 1.7710778 -0.21673228 8
-3.7943552 1.7717558 -0.071703866 11
-3.8241923 1.7865012 1.1199565 4
-3.8260853 1.7881991 0.96543437 4
-3.8139689 1.7833472 0.81021005 8
-3.8011808 1.7781764 0.65786332 8
-3.8282788 1.7916672 0.5142886 17
-3.8148448 1.7861917 0.36518258 8
-3.8192496 1.7890669 0.21902597 7
-3.7601788 1.7621963 0.071816646 50
