# .PCD v0.7 - Point Cloud Data file format
VERSION 0.7
FIELDS x y z intensity
SIZE 4 4 4 4
TYPE F F F F
COUNT 1 1 1 1
WIDTH 1375
HEIGHT 1
VIEWPOINT 0 0 0 1 0 0 0
POINTS 1375
DATA ascii
-3.6937373 1.785622 0.64301836 6
-3.7023852 1.7905998 0.50027364 16
-3.7379737 1.8086168 0.35995322 8
-3.7512028 1.8158257 0.21640916 10
-3.6564336 1.770739 0.070245937 15
-1.7549909 0.85179907 -0.5124619 3
-1.9977732 0.97006625 -0.50389069 2
-2.3610718 1.1469839 -0.5023306 4
-2.83709 1.3788407 -0.49355114 3
-3.6495326 1.7744794 -0.49357137 8
-3.6714692 1.7859378 -0.35385287 10
-3.6890585 1.7952904 -0.21229851 7
-3.6482327 1.77621 -0.069457717 8
-3.7208755 1.8123808 1.0979711 9
-3.6914439 1.7988423 0.93846059 6
-3.6786349 1.7933952 0.78733355 6
-3.6430943 1.7768555 0.63520533 6
-3.6425915 1.7773973 0.4929615 6
-3.6913526 1.801988 0.35603121 8
-3.6954885 1.8048056 0.21353069 8
-3.6008205 1.7593501 0.069286048 13
-1.7563444 0.860044 -0.51375604 3
-1.9943748 0.97703397 -0.50389069 2
-2.3570538 1.1552186 -0.5023306 4
-2.8366938 1.3909097 -0.4943333 5
-3.6076717 1.7697227 -0.4886966 5
-3.624969 1.7789928 -0.34993085 9
-3.6334662 1.7839499 -0.20942962 6
-3.5836773 1.7602808 -0.068334647 7
-3.6711788 1.8040565 1.0850385 9
-3.6414206 1.790222 0.9272216 5
-3.6239038 1.7823957 0.77684844 6
-3.5881269 1.765577 0.62661088 7
-3.5784826 1.7616073 0.48503998 5
-3.644824 1.795056 0.35210919 8
-3.6398976 1.7934191 0.21065222 8
-3.5498166 1.7498053 0.068413429 23
-1.7576616 0.8683086 -0.51505011 3
-1.9909521 0.98398966 -0.50389069 2
-2.3574066 1.1656147 -0.50328374 4
-2.8318212 1.4008031 -0.4943333 4
-3.5614417 1.7624946 -0.4832125 5
-3.5830262 1.773955 -0.34644461 8
-3.5779984 1.7722435 -0.20656073 6
-3.5461545 1.7572414 -0.067729913 14
-3.6259139 1.7975532 1.0733994 9
-3.587137 1.7791095 0.91485858 8
-3.5692954 1.7710369 0.76636338 11
-3.54213 1.7583282 0.61957908 9
-3.5411983 1.7586362 0.48077455 9
-3.6028497 1.7900376 0.34862298 8
-3.5799596 1.779444 0.20751205 14
-3.5078766 1.7443781 0.067715332 18
-1.7632651 0.87874711 -0.51763833 3
-1.9875053 0.99093336 -0.50389069 2
-2.3533237 1.1738366 -0.50328374 4
-2.8313332 1.4128846 -0.49511549 4
-3.5197465 1.7571822 -0.47833771 4
-3.5367072 1.7664207 -0.34252259 9
-3.5271242 1.7624037 -0.20395264 7
-3.5086975 1.7539618 -0.067125186 7
-3.5807395 1.790756 1.0617601 9
-3.5416913 1.7720006 0.90474349 9
-3.5235889 1.7637124 0.75778466 7
-3.496228 1.7507802 0.61254728 6
-3.5039785 1.7554264 0.47650909 8
-3.5565026 1.7825164 0.34470096 8
-3.5246282 1.7673109 0.20463358 7
-3.4660177 1.7386796 0.067017235 14
-1.7515569 0.88055813 -0.51505011 3
-1.9840341 0.99786502 -0.50389069 2
-2.3492117 1.182044 -0.50328374 4
-2.8263841 1.4227592 -0.49511549 5
-3.4825644 1.7538325 -0.47407228 6
-3.4949334 1.7608262 -0.33903635 9
-3.4763625 1.7522306 -0.20134455 6
-3.4668431 1.7481912 -0.066434063 7
-3.5356565 1.7836652 1.0501208 9
-3.4963386 1.7645959 0.89462835 6
-3.477978 1.7560909 0.74920601 6
-3.4548309 1.7451602 0.60629684 6
-3.4579661 1.7475016 0.47102499 6
-3.5146976 1.7769413 0.34121475 9
-3.4605145 1.7503061 0.20123175 6
-3.4287028 1.7349677 0.066406399 15
-1.7398576 0.88229817 -0.5124619 3
-1.9805388 1.0047845 -0.50389069 2
-2.3450713 1.190237 -0.50328374 4
-2.8214004 1.4326165 -0.49511549 5
-3.4498739 1.7524924 -0.47041619 6
-3.4532423 1.7549617 -0.33555013 9
-3.4390686 1.7485139 -0.19951887 6
-3.4250717 1.7421501 -0.06574294 13
-3.4906678 1.7762821 1.0384815 9
-3.4554231 1.7591066 0.88563704 6
-3.436837 1.7504001 0.74158049 8
-3.4135156 1.7392727 0.60004634 12
-3.4208951 1.7437849 0.46675956 6
-3.4774122 1.7733589 0.33816427 9
-3.4276969 1.7487599 0.19966166 9
-3.3870034 1.7287437 0.065708302 31
-1.7323127 0.88646901 -0.51116782 3
-1.9768429 1.0120368 -0.50389069 2
-2.3406932 1.1988242 -0.50328374 4
-2.8205254 1.4451996 -0.49589765 6
-3.4125133 1.7492782 -0.46615076 6
-3.4113297 1.7494234 -0.33206388 9
-3.4015384 1.7451521 -0.19769323 14
-3.3830829 1.7364295 -0.065051816 12
-3.4411685 1.7670019 1.0255491 17
-3.4099495 1.7517235 0.87552196 12
-3.395474 1.7450364 0.73395497 12
-3.3763733 1.7359648 0.59457713 7
-3.3835886 1.7404213 0.46249413 12
-3.4354577 1.7678596 0.33467805 9
-3.3901892 1.7453132 0.1978299 10
-3.3450894 1.722834 0.065010212 16
-1.7206244 0.8880803 -0.50857961 3
-1.9776268 1.0211662 -0.50501537 2
-2.3321335 1.2047347 -0.5023306 4
-2.8154638 1.4550363 -0.49589765 6
-3.3799362 1.7475041 -0.46249467 6
-3.3698087 1.7430134 -0.32857767 9
-3.3643837 1.7409517 -0.19586755 8
-3.3414838 1.7298414 -0.064360693 8
-3.3920918 1.7567911 1.0126165 8
-3.3692074 1.7456849 0.86653072 7
-3.3545008 1.7388077 0.72632951 7
-3.3352199 1.729552 0.58832669 6
-3.3466566 1.7362241 0.45822871 7
-3.3983185 1.7637788 0.33162761 8
-3.3486249 1.738729 0.19573647 7
-3.3035612 1.7160698 0.064312115 15
-1.7175139 0.894081 -0.50857961 3
-1.9740502 1.0280632 -0.50501537 2
-2.327914 1.212868 -0.5023306 4
-2.8147469 1.4671379 -0.49667984 7
-3.3474133 1.745524 -0.45883858 5
-3.3283746 1.736335 -0.32509142 9
-3.3272998 1.7365133 -0.19404191 6
-3.2999728 1.7229842 -0.063669577 7
-3.3431287 1.7462595 0.99968398 6
-3.3285489 1.7393833 0.85753942 6
-3.3136127 1.7323146 0.71870399 7
-3.2985294 1.7251623 0.58285755 6
-3.3097954 1.7317903 0.45396328 6
-3.3568377 1.7571507 0.32814136 9
-3.3115718 1.7341925 0.19390471 6
-3.2665558 1.7113451 0.063701279 14
-1.7143825 0.90007073 -0.50857961 3
-1.9704494 1.0349476 -0.50501537 2
-2.3193212 1.2187035 -0.5013774 4
-2.8096085 1.4769542 -0.49667984 7
-3.3149459 1.7433383 -0.45518249 6
-3.2914364 1.7317082 -0.32204098 9
-3.2858698 1.7295117 -0.19195542 5
-3.262974 1.7181878 -0.063064843 11
-3.2985539 1.7376587 0.98804474 6
-3.287976 1.7328196 0.84854823 6
-3.2728114 1.7255573 0.71107846 7
-3.26191 1.7205373 0.57738835 11
-3.2686169 1.7248043 0.44908851 6
-3.3154449 1.7502546 0.32465515 9
-3.2745917 1.7294186 0.19207294 8
-3.2252004 1.7040535 0.063003182 27
-1.7154986 0.90830958 -0.50987375 3
-1.9711303 1.0441 -0.50614017 2
-2.3150527 1.226792 -0.5013774 3
-2.8044357 1.4867526 -0.49667984 8
-3.2825346 1.7409474 -0.45152643 8
-3.2501719 1.7245102 -0.31855473 10
-3.2445297 1.7222424 -0.18986896 10
-3.2216339 1.7108098 -0.06237372 11
-3.2583461 1.7310343 0.97769868 11
-3.2517927 1.7282804 0.8406809 11
-3.2364316 1.7208409 0.70440614 11
-3.2253633 1.715678 0.57191914 8
-3.2231474 1.7152209 0.44360438 6
-3.2741416 1.7430912 0.3211689 9
-3.2332788 1.7220609 0.18997951 10
-3.1839366 1.6964943 0.062305089 18
-1.7165779 0.91656703 -0.51116782 2
-1.9631763 1.0486786 -0.50501537 2
-2.3107564 1.2348655 -0.5013774 4
-2.8035841 1.4988612 -0.49746197 7
-3.2545567 1.7406921 -0.44847968 8
-3.2133899 1.7193954 -0.31550428 10
-3.1944766 1.7099928 -0.18726087 8
-3.1803858 1.7031641 -0.061682601 8
-3.2182248 1.7241505 0.96735269 9
-3.2113867 1.7212085 0.83168966 8
-3.1957996 1.7135723 0.69678068 8
-3.1845391 1.7082502 0.5656687 7
-3.1777849 1.7053415 0.43812028 6
-3.2373173 1.738017 0.31811845 10
-3.1964562 1.7167985 0.18814775 7
-3.142765 1.6886681 0.061606992 15
-1.7133679 0.92255342 -0.51116782 2
-1.9552147 1.0532147 -0.50389069 2
-2.3107526 1.2452526 -0.5023306 4
-2.7983351 1.5086384 -0.49746197 5
-3.2222533 1.7379072 -0.44482359 8
-3.1679163 1.7093145 -0.31158224 9
-3.1489429 1.6997868 -0.18491358 7
-3.1436296 1.6976272 -0.061077867 8
-3.1781914 1.717008 0.95700663 7
-3.1753561 1.7161922 0.82382232 7
-3.1552579 1.7060413 0.68915516 7
-3.1438065 1.7005587 0.5594182 6
-3.1368954 1.6975281 0.43324548 7
-3.1961887 1.7303358 0.31463224 10
-3.1553192 1.7089223 0.18605432 6
-3.1016874 1.6805755 0.060908895 15
-1.7143816 0.9308331 -0.5124619 3
-1.9429644 1.0553825 -0.50164115 2
-2.3107047 1.2556546 -0.50328374 4
-2.793052 1.5183972 -0.49746197 5
-3.1856499 1.7325472 -0.44055817 8
-3.1225531 1.6989375 -0.30766025 9
-3.0991344 1.6868969 -0.18230549 7
-3.09817 1.6870729 -0.060300358 7
-3.1340067 1.7072967 0.9453674 7
-3.1351225 1.7086142 0.81483108 7
-3.1104989 1.6958987 0.68057644 6
-3.0901599 1.6855093 0.55082375 6
-3.0917437 1.6870735 0.42776138 6
-3.1682696 1.7295489 0.31245336 9
-3.1098948 1.698387 0.18369921 6
-3.0563178 1.6698198 0.060123537 14
-1.7111219 0.93681169 -0.5124619 2
-1.9392686 1.0621582 -0.50164115 2
-2.310612 1.2660713 -0.504237 4
-2.7920651 1.5305114 -0.49824417 5
-3.149123 1.7269527 -0.43629274 8
-3.0773008 1.6882647 -0.30373824 14
-3.0407002 1.6688755 -0.17917578 12
-3.0572047 1.6786282 -0.059609234 8
-3.085696 1.694973 0.93243486 7
-3.0821712 1.6937371 0.80246812 6
-3.0615482 1.6831001 0.67104459 6
-3.0409844 1.6724863 0.54301065 6
-3.0467036 1.6763242 0.42227724 6
-3.114213 1.7141768 0.30765978 10
-3.060209 1.6851469 0.18108241 7
-3.0023038 1.6539437 0.059163652 16
-1.7036133 0.94044483 -0.51116782 2
-1.9440786 1.0736315 -0.50389069 2
-2.3061786 1.2741293 -0.504237 5
-2.7867057 1.5402482 -0.49824417 5
-3.0866163 1.7067159 -0.42837122 9
-3.0190861 1.6700639 -0.29850888 14
-3.0173807 1.6698085 -0.17813255 13
-3.0163369 1.6699185 -0.058918115 9
-3.0375092 1.6823328 0.91950232 7
-3.0336242 1.6808729 0.79122907 7
-3.0170183 1.6723603 0.66246587 7
-2.9876194 1.6567459 0.53441626 13
-2.9974368 1.6628741 0.4161838 6
-3.0603034 1.6984489 0.30286619 11
-3.0106535 1.6715809 0.1784656 8
-2.9702904 1.6498486 0.058640081 39
-1.7003201 0.94638586 -0.51116782 2
-1.9403191 1.0804111 -0.50389069 3
-2.3060045 1.28456 -0.50519013 5
-2.7813122 1.5499662 -0.49824417 7
-3.0329592 1.6908976 -0.42166841 15
-2.9871373 1.6660349 -0.29589421 30
-2.9853716 1.6657335 -0.1765677 17
-2.9755678 1.6609442 -0.058226991 32
-2.9852324 1.6670225 0.9052766 11
-2.9809515 1.6653144 0.77886611 15
-2.9597476 1.6541467 0.65102762 27
-2.9645758 1.6575242 0.53129101 32
-2.9569645 1.653946 0.41130903 17
-2.976115 1.6653398 0.29502219 35
-2.969945 1.662568 0.17637217 28
-2.9470661 1.6504359 0.058291033 27
-1.6927944 0.94995177 -0.50987375 3
-1.9450322 1.0919474 -0.50614017 2
-2.2972271 1.2901982 -0.504237 5
-2.7758849 1.5596654 -0.49824417 8
-2.9794507 1.6747255 -0.41496557 10
-2.9509125 1.6593622 -0.29284373 18
-2.9577794 1.6639034 -0.17526364 30
-2.9436116 1.6566095 -0.057708651 20
-2.9625607 1.6679547 0.90010357 34
-2.9623852 1.6685369 0.7754944 34
-2.9411271 1.6572396 0.64816803 26
-2.9372613 1.6557369 0.52738446 18
-2.9425273 1.6593821 0.41009033 30
-2.970284 1.6757182 0.29502219 28
-2.9467301 1.6631081 0.17532544 19
-2.9195206 1.6484233 0.057854723 58
-1.6894681 0.95585489 -0.50987375 3
-1.9412087 1.0987301 -0.50614017 3
-2.2927096 1.2982092 -0.504237 6
-2.7704237 1.5693456 -0.49824417 9
-2.947681 1.670435 -0.41130951 11
-2.9191036 1.6549135 -0.29022908 12
-2.925894 1.659438 -0.1736988 13
-2.9117224 1.6520722 -0.05719031 12
-2.9357185 1.6663647 0.8936373 19
-2.931123 1.6644328 0.76875097 16
-2.9139855 1.6553738 0.6434021 12
-2.9057021 1.6513391 0.52269661 11
-2.9151461 1.6573794 0.40704358 13
-2.9341087 1.668838 0.29197174 16
-2.9192076 1.6610372 0.17401704 14
-2.8920257 1.6462387 0.057418413 53
-1.6861213 0.96174645 -0.50987375 3
-1.93313 1.1030849 -0.50501537 2
-2.2839015 1.3037709 -0.50328374 6
-2.7649288 1.5790066 -0.49824417 7
-2.9202867 1.6684048 -0.40826276 10
-2.8873625 1.6502633 -0.28761441 11
-2.8940756 1.6547704 -0.17213394 12
-2.8799009 1.6473325 -0.05667197 10
-2.9005396 1.6598101 0.88458449 12
-2.9041543 1.6625515 0.76313144 13
-2.886893 1.653339 0.63863617 9
-2.8784947 1.6491963 0.51879007 10
-2.887815 1.6552057 0.40399686 10
-2.9023395 1.6642039 0.28935707 14
-2.8917363 1.6587946 0.17270865 12
-2.8602455 1.6413941 0.056894843 52
-1.6825851 0.96791995 -0.50987375 2
-1.9248517 1.1077328 -0.50389069 3
-2.2748537 1.3096842 -0.5023306 5
-2.7591231 1.5891299 -0.49824417 6
-2.8883519 1.6642313 -0.40460667 10
-2.855402 1.64591 -0.28499973 11
-2.8620379 1.6504005 -0.17056909 11
-2.8478618 1.6428883 -0.056153629 10
-2.8693376 1.6559448 0.87682498 11
-2.8727255 1.6585685 0.75638807 11
-2.8553123 1.6491797 0.63291705 8
-2.8467741 1.6449107 0.51410222 10
-2.8602462 1.653361 0.40095013 9
-2.8703489 1.6598693 0.28674239 12
-2.859705 1.6543802 0.17113857 12
-2.828249 1.6368414 0.056371272 52
-1.6750182 0.9713645 -0.50857961 3
-1.9209733 1.1144451 -0.50389069 2
-2.2702682 1.3176169 -0.5023306 5
-2.7535589 1.5987514 -0.49824417 8
-2.8610682 1.6618403 -0.40155992 11
-2.8281059 1.6433544 -0.28282082 11
-2.830359 1.6453246 -0.16900423 10
-2.8205016 1.6402529 -0.055721678 10
-2.8384912 1.6513778 0.86906546 11
-2.8458645 1.6563323 0.75076848 10
-2.8240881 1.6443181 0.62719792 8
-2.8154104 1.6399236 0.50941437 10
-2.8287303 1.6483434 0.39729404 9
-2.8387184 1.6548275 0.28412771 13
-2.8323464 1.6517752 0.16983017 11
-2.7966063 1.6315942 0.055847697 52
-1.6716173 0.97720551 -0.50857961 2
-1.9170715 1.1211438 -0.50389069 2
-2.265655 1.3255335 -0.5023306 5
-2.7479615 1.6083533 -0.49824417 9
-2.8295543 1.6567718 -0.39790383 10
-2.7965648 1.6381111 -0.28020614 11
-2.7987502 1.6400474 -0.16743939 10
-2.7888818 1.6349187 -0.055203337 10
-2.8077121 1.646616 0.86130601 11
-2.8148522 1.6514637 0.74402505 11
-2.7971656 1.6417433 0.62243193 9
-2.7883751 1.6372383 0.50550777 10
-2.7972846 1.6431262 0.39363798 10
-2.8114526 1.6521087 0.28194883 12
-2.8007367 1.646469 0.1682601 11
-2.769351 1.6286689 0.055411387 52
-1.668196 0.98303455 -0.50857961 3
-1.9131463 1.1278287 -0.50389069 3
-2.2610142 1.333434 -0.5023306 5
-2.7380772 1.6154262 -0.49746197 10
-2.8023849 1.6540262 -0.39485711 11
-2.7693839 1.6352004 -0.27802724 11
-2.7715123 1.6371094 -0.16613534 10
-2.7616384 1.6319271 -0.054771382 10
-2.7811587 1.6441172 0.85483968 12
-2.7839091 1.6463989 0.73728162 11
-2.766072 1.6365018 0.61671281 9
-2.7571435 1.6318691 0.50081992 10
-2.7701805 1.6402383 0.39059123 10
-2.7799554 1.6466813 0.27933416 12
-2.7691987 1.6409627 0.16669002 11
-2.7378466 1.6230299 0.054887816 54
-1.6647544 0.98885167 -0.50857961 3
-1.9133856 1.1369886 -0.50501537 2
-2.256346 1.3413184 -0.5023306 5
-2.7324216 1.6249741 -0.49746197 12
-2.7710042 1.6485738 -0.39120105 11
-2.737978 1.6295725 -0.27541256 12
-2.7400391 1.631447 -0.16457048 11
-2.7301545 1.6262071 -0.054253042 10
-2.7505083 1.6389811 0.84708017 12
-2.7572205 1.6436331 0.73166209 12
-2.7392647 1.6335773 0.61194688 9
-2.7302246 1.628832 0.49691334 10
-2.7388694 1.6346378 0.38693514 10
-2.7528069 1.6436077 0.27715525 12
-2.7420204 1.6378168 0.16538161 11
-2.7107072 1.6197554 0.054451503 52
-1.6612926 0.99465674 -0.50857961 3
-1.9094052 1.1436607 -0.50501537 3
-2.2558606 1.3517091 -0.50328374 5
-2.722497 1.631963 -0.49667984 16
-2.743952 1.645475 -0.3881543 11
-2.7109165 1.6263078 -0.27323368 12
-2.7129207 1.6281543 -0.16326644 10
-2.7030311 1.6228607 -0.053821094 10
-2.7240684 1.6361381 0.84061396 12
-2.7305856 1.6407011 0.72604263 11
-2.7125118 1.6304857 0.60718095 9
-2.7033608 1.6256273 0.49300683 10
-2.7118838 1.631397 0.38388839 10
-2.7214463 1.6377964 0.27454057 13
-2.7106204 1.6319258 0.16381153 11
-2.6836245 1.6163113 0.054015197 53
-1.6619455 1.0029451 -0.50987375 3
-1.9054015 1.1503187 -0.50501537 3
-2.2511284 1.3595754 -0.50328374 5
-2.6829691 1.6210259 -0.49042246 15
-2.7169557 1.6422075 -0.38510755 13
-2.6796491 1.6202971 -0.270619 12
-2.6858592 1.6246923 -0.16196239 11
-2.6716874 1.6167567 -0.053302754 10
-2.6976817 1.6331304 0.83414769 12
-2.704005 1.6376033 0.72042304 12
-2.6858141 1.6272272 0.60241497 9
-2.6765528 1.622255 0.48910025 11
-2.6849549 1.6279883 0.3808417 9
-2.6944191 1.63437 0.2723617 13
-2.6835639 1.6284263 0.16250314 12
-2.6565988 1.6126978 0.053578883 54
-1.6584344 1.0087402 -0.50987375 2
-1.9013745 1.1569629 -0.50501537 3
-2.2505615 1.3699771 -0.504237 5
-2.6562049 1.6175385 -0.48651159 17
-2.6942537 1.6413537 -0.38267016 12
-2.6527102 1.6166799 -0.2684401 12
-2.658855 1.6210614 -0.16065834 11
-2.6446872 1.6130568 -0.052870803 11
-2.6713498 1.6299585 0.82768142 12
-2.6774795 1.6343402 0.71480352 12
-2.6591725 1.6238025 0.5976491 9
-2.6498017 1.6187154 0.48519373 10
-2.6580827 1.6244112 0.37779495 10
-2.6674492 1.6307747 0.27018279 14
-2.656565 1.6247575 0.16119474 13
-2.6296313 1.6089156 0.053142574 54
-1.6549032 1.0145231 -0.50987375 3
-1.8931714 1.161046 -0.50389069 3
-2.2457657 1.3778247 -0.504237 5
-2.625289 1.6113009 -0.48181856 11
-2.6673622 1.6377648 -0.37962344 12
-2.6258295 1.6128948 -0.26626119 13
-2.6361632 1.6198761 -0.15961511 11
-2.6177459 1.6091883 -0.052438848 10
-2.6450734 1.6266233 0.82121515 12
-2.6510098 1.6309119 0.70918405 12
-2.6325877 1.6202117 0.59288311 10
-2.6231081 1.6150091 0.48128715 11
-2.6312687 1.6206667 0.37474823 10
-2.6405375 1.6270113 0.26800391 14
-2.6296246 1.6209205 0.15988633 13
-2.6027231 1.6049652 0.052706264 53
-1.647243 1.017755 -0.50857961 2
-1.9015393 1.1753315 -0.50726491 3
-2.2409425 1.3856555 -0.504237 5
-2.598649 1.6074653 -0.47790766 9
-2.6447489 1.6366199 -0.37718606 11
-2.5990078 1.6089419 -0.26408231 13
-2.6092675 1.6159234 -0.15831105 10
-2.5951138 1.6077846 -0.052093286 10
-2.6188526 1.6231244 0.81474888 12
-2.6245971 1.6273189 0.70356447 12
-2.6060607 1.6164557 0.58811718 10
-2.6006694 1.6137401 0.47816193 11
-2.6045134 1.6167551 0.37170148 10
-2.6179161 1.6257077 0.26626077 14
-2.6027441 1.6169157 0.15857795 12
-2.5758743 1.6008464 0.052269954 54
-1.6436805 1.0234988 -0.50857961 3
-1.9181012 1.1948416 -0.51288873 2
-2.2360921 1.3934695 -0.504237 6
-2.5720682 1.6034638 -0.47399682 10
-2.6179652 1.6327109 -0.37413931 11
-2.5764718 1.6074581 -0.2623392 13
-2.582432 1.6118028 -0.15700702 11
-2.5682831 1.6035949 -0.051661339 10
-2.5967851 1.622021 0.80957586 13
-2.5982423 1.6235617 0.697945 12
-2.5795922 1.6125338 0.58335125 10
-2.5740843 1.6097157 0.47425535 11
-2.5778177 1.6126763 0.36865473 11
-2.5911143 1.621624 0.2640819 14
-2.5801558 1.6153924 0.15753123 13
-2.5533235 1.5992136 0.051920906 54
-1.6400976 1.0292301 -0.50857961 3
-1.9304231 1.2118912 -0.51738775 3
-2.2312143 1.4012663 -0.504237 7
-2.5455472 1.599296 -0.47008595 10
-2.5912414 1.6286352 -0.37109256 11
-2.5497615 1.6031854 -0.2601603 13
-2.5598836 1.6101732 -0.15596379 11
-2.5457449 1.6019001 -0.051315777 11
-2.5706704 1.6182108 0.80310965 13
-2.5760684 1.6222366 0.69344938 12
-2.5573361 1.6110636 0.57953846 10
-2.5517373 1.6081586 0.47113013 11
-2.5553803 1.6110777 0.36621734 11
-2.5685859 1.6200299 0.26233879 14
-2.5533867 1.6110668 0.15622282 13
-2.5265882 1.5947747 0.051484596 55
-1.6405768 1.0375303 -0.50987375 3
-1.9467665 1.2316458 -0.52301151 3
-2.2263093 1.4090463 -0.504237 7
-2.5190871 1.5949631 -0.46617511 9
-2.5645781 1.6243929 -0.36804584 11
-2.5273199 1.6014118 -0.25841716 13
-2.5331609 1.6057326 -0.15465973 12
-2.5190279 1.5973902 -0.050883826 11
-2.5446141 1.6142379 0.79664338 13
-2.5498221 1.618166 0.68782979 12
-2.530978 1.6068269 0.57477254 10
-2.525264 1.6038178 0.46722358 11
-2.5287974 1.6066812 0.36317062 11
-2.5461004 1.6182986 0.26059568 14
-2.5308936 1.6092534 0.1551761 13
-2.5041327 1.5928516 0.051135547 54
-1.6369452 1.0432507 -0.50987375 3
-1.9342395 1.2331957 -0.52076203 2
-2.2213771 1.4168088 -0.504237 7
-2.4885254 1.5878087 -0.46148208 9
-2.5379763 1.6199844 -0.36499909 10
-2.5049224 1.5995015 -0.25667405 14
-2.5107086 1.6038133 -0.1536165 12
-2.4965866 1.5954057 -0.050538264 12
-2.5226862 1.6127045 0.79147035 13
-2.5277402 1.616557 0.68333423 13
-2.5088155 1.6050711 0.57095981 10
-2.5030117 1.601974 0.46409836 11
-2.5022764 1.6021188 0.3601239 11
-2.5194643 1.6137437 0.25841677 14
-2.5084443 1.6073027 0.15412939 13
-2.4817224 1.5907917 0.050786499 55
-1.6332936 1.0489582 -0.50987375 3
-1.9299231 1.2399399 -0.52076203 3
-2.216418 1.4245542 -0.504237 6
-2.462198 1.5831313 -0.45757118 9
-2.5114369 1.6154102 -0.36195236 12
-2.482569 1.5974543 -0.25493094 14
-2.4841025 1.5990541 -0.15231246 12
-2.4741895 1.5932839 -0.050192706 11
-2.4967401 1.6084223 0.78500408 13
-2.5016053 1.6121743 0.67771465 12
-2.4825711 1.600521 0.56619388 10
-2.4808037 1.5999945 0.46097311 11
-2.4799883 1.6000814 0.35768652 12
-2.4928908 1.6090226 0.25623786 14
-2.4860396 1.6052152 0.15308267 14
-2.459357 1.5885946 0.05043745 57
-1.6296221 1.054653 -0.50987375 3
-1.9255831 1.2466689 -0.52076203 3
-2.211432 1.4322823 -0.504237 6
-2.4442232 1.5836604 -0.45522466 11
-2.4849603 1.6106704 -0.35890561 16
-2.4560812 1.5925608 -0.25275204 15
-2.4617491 1.5968463 -0.15126921 12
-2.4476445 1.588304 -0.049760751 12
-2.474906 1.6066084 0.77983105 13
-2.4796185 1.6102829 0.67321903 13
-2.4522731 1.593133 0.56047469 10
-2.454499 1.5951885 0.45706654 11
-2.4535842 1.595203 0.35463977 11
-2.4663818 1.6041358 0.25405899 14
-2.4636803 1.6029907 0.15203595 14
-2.4328477 1.583534 0.050001144 60
-1.6259307 1.0603352 -0.50987375 3
-1.9293804 1.2587069 -0.52301151 3
-2.206419 1.4399929 -0.504237 6
-2.4304101 1.5867829 -0.45366031 15
-2.4543929 1.6030521 -0.35524952 15
-2.4421673 1.5956752 -0.25188047 23
-2.431083 1.5890383 -0.14970437 13
-2.4253488 1.5858946 -0.049415193 18
-2.4490733 1.6020179 0.77336484 13
-2.4576752 1.6082573 0.6687234 12
-2.4384837 1.5963066 0.5585683 10
-2.4323897 1.5929239 0.45394132 15
-2.431396 1.5928797 0.35220239 11
-2.4399374 1.5990838 0.25188008 18
-2.4413669 1.60063 0.15098923 15
-2.4273052 1.5920165 0.050001144 72
-1.6222197 1.0660042 -0.50987375 3
-1.9290458 1.2681102 -0.52413625 3
-2.2054799 1.4503828 -0.50519013 7
-2.4331076 1.6006855 -0.45522466 17
-2.4570735 1.6170665 -0.35646823 16
-2.428262 1.5987124 -0.25100893 24
-2.4213514 1.5947684 -0.14944357 21
-2.4239731 1.5971016 -0.049501583 24
-2.4273357 1.5999248 0.76819187 15
-2.4357769 1.6060987 0.66422778 18
-2.4083135 1.5885931 0.55284917 17
-2.4185708 1.5959649 0.45237869 19
-2.4175377 1.595889 0.35098368 19
-2.4343405 1.607591 0.25188008 27
-2.4232666 1.6008856 0.15020418 24
-2.4217334 1.6004798 0.050001144 75
-1.6183015 1.0719428 -0.50987375 3
-1.9365685 1.2832452 -0.52751052 3
-2.2001491 1.4584566 -0.50519013 7
-2.4313402 1.6123217 -0.45600685 18
-2.4511302 1.6260611 -0.35646823 13
-2.4306865 1.6131101 -0.25188047 26
-2.4196496 1.6063939 -0.14970437 27
-2.4222672 1.6087408 -0.049587972 28
-2.4214554 1.6088108 0.76819187 27
-2.4217587 1.6096216 0.66198003 26
-2.4065623 1.600127 0.55380243 20
-2.4168169 1.6075537 0.45315999 25
-2.4116721 1.604739 0.35098368 27
-2.428432 1.6165026 0.25188008 28
-2.4215388 1.612524 0.15046588 30
-2.4158509 1.6093451 0.050001144 23
-1.61455 1.0775852 -0.50987375 3
-1.9401808 1.2954078 -0.52976006 3
-2.1950448 1.4661276 -0.50519013 7
-2.4298034 1.6235425 -0.45678899 13
-2.4495647 1.637365 -0.35707757 14
-2.4291818 1.6243538 -0.25231627 25
-2.4181781 1.6176066 -0.14996518 28
-2.4207916 1.6199667 -0.049674366 29
-2.4158249 1.6172535 0.76819187 31
-2.4201736 1.6207767 0.66310394 31
-2.4091177 1.6139816 0.55570877 25
-2.4152932 1.6187296 0.45394132 28
-2.4143002 1.6186748 0.35220239 28
-2.4227746 1.6249695 0.25188008 30
-2.4200413 1.6237489 0.15072754 24
-2.4102149 1.6177737 0.050001144 24
-1.6107787 1.0832144 -0.50987375 3
-1.9073514 1.2831368 -0.52188677 3
-2.1899135 1.4737808 -0.50519013 6
-2.4282181 1.6347723 -0.45757118 13
-2.4438343 1.6459056 -0.35707757 14
-2.4276276 1.6356064 -0.25275204 27
-2.4166572 1.6288284 -0.15022598 29
-2.4192672 1.6312017 -0.049760751 29
-2.4101648 1.6256764 0.76819187 27
-2.4145014 1.6292145 0.66310394 27
-2.4075372 1.6251271 0.55666196 28
-2.4096282 1.6271507 0.45394132 22
-2.4127474 1.6298703 0.35281172 31
-2.4212146 1.6362056 0.25231588 31
-2.4184954 1.6349829 0.15098923 26
-2.4086978 1.6289722 0.050088402 23
-1.610986 1.0915396 -0.51116782 3
-1.8867297 1.2788531 -0.51738775 3
-2.1847558 1.4814161 -0.50519013 6
-2.4265838 1.6460105 -0.45835334 13
-2.4421809 1.6572129 -0.35768694 14
-2.4260247 1.646868 -0.25318784 26
-2.4150877 1.6400596 -0.1504868 23
-2.4176941 1.642446 -0.049847145 29
-2.4044755 1.6340796 0.76819187 27
-2.4128284 1.640372 0.66422778 28
-2.4059086 1.6362814 0.55761516 27
-2.4080167 1.63833 0.45472261 22
-2.4111459 1.6410748 0.35342106 30
-2.4196057 1.6474507 0.25275165 31
-2.4169004 1.646226 0.1512509 24
-2.402997 1.6373701 0.050088402 23
-1.6071659 1.0971563 -0.51116782 3
-1.8701844 1.2771885 -0.51401347 3
-2.1795714 1.4890333 -0.50519013 6
-2.4249008 1.6572574 -0.45913553 13
-2.4404778 1.6685286 -0.35829625 14
-2.4243724 1.6581384 -0.2536236 27
-2.4134688 1.6512992 -0.1507476 24
-2.4119461 1.6508753 -0.049847145 27
-2.4027419 1.6451913 0.76948506 25
-2.407088 1.6487843 0.66422778 27
-2.4042311 1.647444 0.5585683 27
-2.4063566 1.6495178 0.45550394 22
-2.4094961 1.652288 0.35403043 29
-2.4179478 1.6587043 0.25318745 31
-2.4152563 1.657478 0.15151259 28
-2.4013886 1.6485777 0.050175667 22
-1.6033264 1.1027597 -0.51116782 3
-1.8737419 1.289232 -0.51626295 3
-2.1743603 1.4966323 -0.50519013 6
-2.419101 1.6657119 -0.45913553 13
-2.4387257 1.6798525 -0.35890561 13
-2.4226713 1.6694171 -0.25405937 27
-2.4118013 1.6625478 -0.15100841 24
-2.4102843 1.6621227 -0.049933534 25
-2.4009602 1.6563113 0.77077836 27
-2.4053278 1.6599438 0.66535175 28
-2.4025049 1.6586149 0.55952156 27
-2.4046476 1.6607139 0.45628521 23
-2.4037137 1.6606886 0.35403043 29
-2.4162405 1.6699663 0.25362322 30
-2.4135628 1.6687382 0.15177426 25
-2.4038424 1.6626376 0.050350189 24
-1.6034369 1.1111006 -0.5124619 3
-1.8732343 1.2985404 -0.51738775 3
-2.1691229 1.5042132 -0.50519013 6
-2.4173293 1.6769607 -0.45991769 13
-2.4328473 1.6883547 -0.35890561 13
-2.4209208 1.6807042 -0.25449514 25
-2.4100842 1.6738045 -0.15126921 24
-2.4085734 1.6733785 -0.050019924 25
-2.3991299 1.6674385 0.7720716 29
-2.4035192 1.6711112 0.66647559 27
-2.4007301 1.6697937 0.56047469 25
-2.40289 1.6719184 0.45706654 22
-2.4019752 1.671904 0.35463977 30
-2.4144843 1.6812366 0.25405899 30
-2.4118202 1.6800069 0.15203595 24
-2.4021256 1.6738765 0.05043745 24
-1.5995487 1.1166908 -0.5124619 3
-1.8726844 1.3078607 -0.51851249 3
-2.1638591 1.5117757 -0.50519013 6
-2.4155087 1.6882176 -0.46069989 13
-2.4310062 1.6996806 -0.35951498 14
-2.419121 1.6919994 -0.25493094 26
-2.408318 1.6850697 -0.15153003 24
-2.4068131 1.6846424 -0.050106313 25
-2.3972514 1.6785731 0.77336484 27
-2.4016616 1.682286 0.66759956 28
-2.3989065 1.6809803 0.56142789 26
-2.401083 1.6831304 0.45784783 21
-2.4001877 1.6831278 0.35524914 29
-2.4126785 1.692515 0.25449476 30
-2.4100285 1.6912837 0.15229762 25
-2.4003599 1.6851239 0.050524715 24
-1.595641 1.1222674 -0.5124619 3
-1.8720921 1.3171932 -0.51963723 3
-2.1585689 1.5193198 -0.50519013 6
-2.4136393 1.6994823 -0.46148208 13
-2.4291158 1.7110138 -0.36012432 13
-2.4172716 1.7033025 -0.25536671 26
-2.4065025 1.6963427 -0.15179083 24
-2.400918 1.6930335 -0.050106313 25
-2.395324 1.6897149 0.77465808 28
-2.3997552 1.6934682 0.6687234 28
-2.3970342 1.6921747 0.56238109 27
-2.3992276 1.6943505 0.45862916 22
-2.3983512 1.6943592 0.35585845 30
-2.4108238 1.7038014 0.25493056 30
-2.4081872 1.7025684 0.15255931 26
-2.402626 1.6992657 0.050699238 24
-1.5877731 1.1250381 -0.51116782 3
-1.8674828 1.3237199 -0.51963723 3
-2.1532524 1.5268453 -0.50519013 5
-2.41172 1.7107543 -0.46226421 12
-2.4271755 1.7223545 -0.36073366 13
-2.4153731 1.7146132 -0.25580251 25
-2.4046378 1.7076237 -0.15205164 24
-2.4031444 1.7071943 -0.050279092 24
-2.3933482 1.7008637 0.77595139 27
-2.3978004 1.7046577 0.66984737 27
-2.3951125 1.7033761 0.56333429 26
-2.3973224 1.7055779 0.45941046 21
-2.3964658 1.7055984 0.35646781 30
-2.4089191 1.7150953 0.25536633 30
-2.4062963 1.7138609 0.15282097 24
-2.4007511 1.710543 0.050786499 24
-1.5838364 1.1305737 -0.51116782 3
-1.8628509 1.3302306 -0.51963723 3
-2.1479094 1.5343522 -0.50519013 6
-2.4097519 1.7220336 -0.4630464 12
-2.4251859 1.7337027 -0.361343 14
-2.4134247 1.7259314 -0.25623828 27
-2.4027233 1.7189122 -0.15231246 23
-2.3971705 1.7155726 -0.050279092 26
-2.3913236 1.7120192 0.77724457 26
-2.3957963 1.7158538 0.67097121 27
-2.393142 1.7145849 0.56428748 26
-2.3953681 1.7168127 0.46019179 21
-2.3985636 1.7197367 0.35768652 30
-2.4110126 1.7292994 0.25623786 30
-2.404356 1.7251608 0.15308267 25
-2.3988271 1.7218281 0.050873764 24
-1.5798802 1.1360954 -0.51116782 3
-1.862151 1.3395699 -0.52076203 3
-2.1425405 1.5418404 -0.50519013 6
-2.4077337 1.73332 -0.46382856 13
-2.4231465 1.7450578 -0.36195236 13
-2.4114268 1.737257 -0.25667405 25
-2.4007595 1.7302084 -0.15257327 22
-2.3992779 1.7297771 -0.050451875 24
-2.3892505 1.7231814 0.77853787 26
-2.3937433 1.727057 0.67209518 28
-2.3911223 1.7258005 0.56524068 26
-2.3933651 1.7280549 0.46097311 21
-2.396569 1.7310045 0.35829583 30
-2.4089987 1.7406223 0.25667366 30
-2.4023662 1.7364681 0.15334433 25
-2.3968534 1.7331202 0.050961021 23
-1.5759051 1.1416034 -0.51116782 3
-1.8574637 1.3460619 -0.52076203 3
-2.1371453 1.54931 -0.50519013 6
-2.4056666 1.7446134 -0.46461076 12
-2.4210572 1.7564195 -0.3625617 13
-2.4093792 1.7485895 -0.25710985 27
-2.3987458 1.7415116 -0.15283407 23
-2.3972704 1.7410794 -0.050538264 24
-2.3871281 1.7343497 0.77983105 25
-2.3916411 1.7382667 0.67321903 27
-2.3890536 1.7370231 0.56619388 26
-2.3913121 1.7393034 0.46175441 20
-2.3945251 1.7422793 0.3589052 27
-2.4069357 1.7519521 0.25710946 29
-2.4003267 1.7477825 0.15360603 25
-2.390789 1.7414762 0.050961021 21
-1.5758117 1.1499443 -0.5124619 3
-1.8527538 1.3525375 -0.52076203 3
-2.1356883 1.5596554 -0.50614333 6
-2.4035497 1.7559131 -0.46539292 11
-2.4189184 1.7677883 -0.36317107 14
-2.4072819 1.7599288 -0.25754562 24
-2.3966825 1.7528217 -0.15309489 24
-2.3952129 1.7523887 -0.050624654 24
-2.3849571 1.7455244 0.78112435 27
-2.3934209 1.7523605 0.67546684 25
-2.3869355 1.7482522 0.56714702 26
-2.38921 1.7505589 0.46253574 21
-2.3884287 1.7506272 0.3589052 28
-2.4048223 1.7632884 0.25754523 31
-2.3982372 1.7591038 0.15386769 24
-2.3887262 1.7527688 0.051048286 23
-1.5756795 1.1582985 -0.51375604 3
-1.8480211 1.3589965 -0.52076203 3
-2.1302309 1.5671009 -0.50614333 6
-2.4013834 1.7672197 -0.46617511 12
-2.4167292 1.7791632 -0.36378038 13
-2.4091451 1.7742283 -0.25841716 26
-2.3945694 1.7641386 -0.15335569 23
-2.3931057 1.763705 -0.050711047 25
-2.3827372 1.756705 0.7824176 28
-2.3912108 1.7635964 0.6765908 27
-2.384768 1.7594875 0.56810021 24
-2.3870583 1.7618209 0.46331704 21
-2.3862958 1.7619016 0.35951456 28
-2.4026594 1.7746313 0.257981 29
-2.3960981 1.7704315 0.15412939 23
-2.3866134 1.7640675 0.051135547 22
-1.575508 1.1666657 -0.51505011 3
-1.8432661 1.3654391 -0.52076203 3
-2.124748 1.5745271 -0.50614333 6
-2.3991671 1.7785323 -0.46695724 12
-2.4144902 1.7905445 -0.36438975 13
-2.4069378 1.7855949 -0.25885296 26
-2.3924065 1.7754622 -0.1536165 22
-2.3909488 1.7750275 -0.050797433 25
-2.3804679 1.7678912 0.78371084 26
-2.3889508 1.7748381 0.67771465 28
-2.3864908 1.7736568 0.57000661 25
-2.3848572 1.7730891 0.46409836 21
-2.3841131 1.7731822 0.3601239 28
-2.39645 1.7830075 0.257981 29
-2.3939095 1.7817663 0.15439107 22
-2.3844509 1.7753732 0.051222809 23
-1.5791684 1.1779335 -0.51763833 3
-1.834584 1.3689514 -0.51963723 3
-2.123172 1.5848703 -0.50709653 7
-2.3969011 1.7898507 -0.46773943 11
-2.4122014 1.8019316 -0.36499909 12
-2.4086702 1.799949 -0.25972453 24
-2.3901937 1.786792 -0.15387732 23
-2.3887417 1.7863566 -0.050883826 24
-2.3781497 1.779083 0.78500408 26
-2.3866415 1.7860855 0.67883861 27
-2.3842139 1.784918 0.57095981 24
-2.3826063 1.7843635 0.46487963 22
-2.381881 1.784469 0.36073324 27
-2.3941972 1.7943488 0.25841677 27
-2.39167 1.7931068 0.15465274 21
-2.3862381 1.7896849 0.051397335 20
-1.5634637 1.1747352 -0.51375604 3
-1.8297943 1.3753469 -0.51963723 3
-2.1176267 1.5922719 -0.50709653 7
-2.3945854 1.8011751 -0.4685216 11
-2.4138277 1.8163086 -0.36621779 13
-2.4063518 1.8113412 -0.2601603 26
-2.3879309 1.7981281 -0.15413812 22
-2.3864849 1.7976921 -0.050970219 23
-2.3757825 1.7902803 0.78629738 26
-2.3842828 1.7973382 0.67996246 25
-2.3818879 1.7961849 0.571913 24
-2.380306 1.7956437 0.46566096 22
-2.3835602 1.7987514 0.36195195 29
-2.39587 1.8086973 0.25928834 29
-2.3893809 1.8044535 0.15491442 23
-2.3839655 1.8010172 0.051484596 19
-1.5437454 1.1687964 -0.50857961 3
-1.8247411 1.3820442 -0.51963723 3
-2.115689 1.6029869 -0.50804973 7
-2.3919036 1.8129227 -0.46930379 11
-2.411109 1.8281419 -0.36682713 13
-2.4036655 1.8231589 -0.26059607 23
-2.3853023 1.8098865 -0.15439893 20
-2.3838618 1.8094494 -0.051056605 23
-2.3768981 1.8048174 0.78888386 26
-2.3815591 1.8090121 0.68108642 26
-2.3831046 1.810842 0.57381934 24
-2.37764 1.8073443 0.46644226 21
-2.3809013 1.8104793 0.36256129 26
-2.3931892 1.8204824 0.25972411 29
-2.3867247 1.8162225 0.1551761 23
-2.381326 1.8127706 0.051571857 22
-1.5396562 1.174178 -0.50857961 3
-1.8199058 1.3884054 -0.51963723 3
-2.1100807 1.6103624 -0.50804973 7
-2.3934112 1.8272544 -0.47086814 11
-2.4126008 1.8425715 -0.36804584 13
-2.4012449 1.8345623 -0.26103184 24
-2.3869042 1.8242657 -0.15492055 23
-2.3815029 1.8207961 -0.051142998 23
-2.3744199 1.8160375 0.79017711 23
-2.3790991 1.8202746 0.68221027 27
-2.3806667 1.8221328 0.57477254 24
-2.3752379 1.8186353 0.46722358 20
-2.382447 1.8248147 0.36377996 26
-2.3907735 1.8318543 0.26015988 28
-2.3843334 1.8275803 0.15543778 22
-2.378947 1.8241193 0.051659122 21
nan nan nan 0
-1.8111852 1.3917811 -0.51851249 3
-2.1044464 1.617718 -0.50804973 7
-2.390933 1.8386083 -0.47165027 10
-2.4100878 1.8540077 -0.36865517 13
-2.3987739 1.8459709 -0.26146764 26
-2.3844786 1.8356324 -0.15518135 20
-2.3790934 1.8321482 -0.051229388 20
-2.3718925 1.8272623 0.79147035 25
-2.37659 1.8315423 0.68333423 26
-2.3781791 1.8334286 0.57572573 24
-2.372786 1.8299311 0.46800488 20
-2.379992 1.8361511 0.36438933 27
-2.3922508 1.846275 0.26103145 28
-2.3818915 1.8389434 0.15569946 20
-2.3765256 1.8354628 0.051746383 20
nan nan nan 0
-1.8063159 1.3980948 -0.51851249 3
-2.0987868 1.6250541 -0.50804973 7
-2.3845005 1.846943 -0.47165027 10
-2.4075246 1.8654488 -0.36926451 12
-2.3962524 1.8573842 -0.26190341 22
-2.3820024 1.8470043 -0.15544216 21
-2.3766336 1.8435059 -0.051315777 22
-2.3693154 1.8384914 0.79276359 25
-2.3778794 1.8458018 0.68558204 27
-2.3756411 1.8447291 0.57667893 25
-2.3741841 1.8442618 0.46956751 22
-2.3814056 1.8505381 0.36560804 25
-2.3897243 1.8576714 0.26146722 22
-2.3793995 1.8503116 0.15596114 25
-2.3740504 1.8468169 0.051833645 21
nan nan nan 0
-1.7937402 1.3984005 -0.51626295 3
-2.0931015 1.6323704 -0.50804973 8
-2.3819325 1.8582928 -0.47243246 10
-2.4049106 1.8768947 -0.36987385 13
-2.3936803 1.8688025 -0.2623392 21
-2.3794758 1.8583813 -0.15570298 21
-2.3741238 1.8548683 -0.051402166 24
-2.3704946 1.8526994 0.79535013 24
-2.3752599 1.8570918 0.68670589 25
-2.3730538 1.8560343 0.57763213 25
-2.3716214 1.8555814 0.47034883 22
-2.3788393 1.8618981 0.36621734 27
-2.3871472 1.8690723 0.26190299 24
-2.376857 1.8616849 0.15622282 22
-2.3715243 1.8581759 0.051920906 20
-1.5611025 1.2253809 -0.52152056 3
-1.7811843 1.3986359 -0.51401347 3
-2.0873909 1.6396668 -0.50804973 8
-2.3831975 1.8726987 -0.47399682 9
-2.4061472 1.8914118 -0.37109256 13
-2.391058 1.8802254 -0.26277497 20
-2.3768988 1.869763 -0.15596379 21
-2.3715634 1.866236 -0.05148856 19
-2.3678081 1.86395 0.79664338 25
-2.3764184 1.8714001 0.6889537 24
-2.3704162 1.8673438 0.57858527 25
-2.3728876 1.869962 0.47191146 18
-2.3762231 1.8732629 0.36682671 25
-2.3845196 1.880478 0.26233879 27
-2.3742645 1.8730631 0.1564845 20
-2.368948 1.8695399 0.052008171 21
-1.5568155 1.2308227 -0.52152056 3
-1.7724704 1.4018228 -0.51288873 3
-2.0816545 1.646943 -0.50804973 8
-2.3805184 1.884071 -0.47477898 10
-2.4034214 1.9028801 -0.37170193 13
-2.3883848 1.8916532 -0.26321074 23
-2.3742714 1.8811493 -0.15622459 22
-2.37287 1.8807132 -0.051661339 22
-2.3650718 1.8752047 0.79793668 25
-2.3736887 1.8827116 0.6900776 24
-2.3677287 1.8786576 0.57953846 25
-2.3740823 1.8843741 0.47347406 18
-2.3735561 1.8846319 0.36743605 25
-2.3818409 1.891888 0.26277456 27
-2.3716211 1.8844455 0.15674618 20
-2.3702347 1.8840191 0.052182693 18
nan nan nan 0
-1.7485129 1.3928239 -0.50726491 3
-2.0758929 1.6541992 -0.50804973 7
-2.377789 1.8954471 -0.47556117 11
-2.4006443 1.9143518 -0.37231123 12
-2.3856611 1.9030846 -0.26364651 24
-2.3715932 1.8925401 -0.15648541 20
-2.3701978 1.8921037 -0.051747728 23
-2.3622856 1.8864627 0.79922986 23
-2.370909 1.8940269 0.69120157 26
-2.3649907 1.8899751 0.58049166 24
-2.3713474 1.8957335 0.47425535 15
-2.3708389 1.8960053 0.36804542 25
-2.3791122 1.9033023 0.26321036 28
-2.3728256 1.8989525 0.15726954 20
-2.3675463 1.8954055 0.052269954 21
-1.5067412 1.2084229 -0.50728554 4
-1.7664405 1.4172113 -0.51401347 3
-2.066278 1.6583631 -0.50709653 7
-2.3788598 1.9099194 -0.4771255 11
-2.4016862 1.9289354 -0.37352994 13
-2.3828864 1.9145205 -0.26408231 23
-2.3688643 1.9039348 -0.15674621 21
-2.3713708 1.9066306 -0.051920507 21
-2.3632133 1.9007512 0.8018164 22
-2.3680789 1.9053454 0.69232541 25
-2.3622026 1.9012966 0.58144486 22
-2.3685625 1.9070969 0.47503668 19
-2.3680708 1.9073825 0.36865473 26
-2.3763323 1.9147205 0.26364613 26
-2.37007 1.9103571 0.15753123 23
-2.3609159 1.9036582 0.052269954 18
-1.4912428 1.2045708 -0.50340325 4
-1.7614827 1.4233688 -0.51401347 3
-2.0604765 1.6655657 -0.50709653 7
-2.3760185 1.9213166 -0.47790766 11
-2.3987966 1.9404281 -0.37413931 12
-2.3800609 1.9259597 -0.26451808 22
-2.3660851 1.915334 -0.15700702 20
-2.3685863 1.918043 -0.0520069 22
-2.3603175 1.912029 0.80310965 23
-2.3651991 1.9166676 0.69344938 25
-2.3593643 1.9126215 0.58239806 22
-2.3657267 1.9184635 0.47581798 18
-2.3652527 1.9187635 0.3692641 26
-2.373502 1.9261427 0.2640819 26
-2.3711402 1.9249123 0.15805459 20
-2.3581374 1.9150395 0.052357219 18
nan nan nan 0
-1.7867328 1.4541105 -0.52301151 3
-2.0546501 1.672748 -0.50709653 6
-2.3731267 1.9327174 -0.47868985 11
-2.3958561 1.9519243 -0.37474868 13
-2.3771846 1.9374027 -0.26495388 24
-2.3671248 1.9298919 -0.15752864 19
-2.3696249 1.9326185 -0.052179679 21
-2.3573709 1.9233097 0.80440289 22
-2.3660431 1.931073 0.69569719 27
-2.3602779 1.927054 0.58430439 23
-2.3628404 1.9298338 0.47659931 18
-2.3623838 1.9301481 0.36987343 25
-2.3744774 1.9407202 0.26495346 30
-2.3721378 1.9394987 0.15857795 18
-2.3553078 1.9264243 0.052444477 20
nan nan nan 0
-1.7439671 1.4294547 -0.51176393 3
-2.0525944 1.683022 -0.50804973 8
-2.3701837 1.944121 -0.47947201 9
-2.3928647 1.9634235 -0.37535799 12
-2.3742573 1.9488492 -0.26538962 22
-2.3642328 1.9413114 -0.15778944 19
-2.3667274 1.9440514 -0.052266069 19
-2.3543746 1.934593 0.80569619 24
-2.3630517 1.942414 0.69682103 25
-2.3573279 1.9383986 0.58525759 24
-2.3637178 1.9443445 0.47816193 21
-2.363296 1.9446892 0.37109211 26
-2.3715341 1.9521624 0.26538923 27
-2.3730621 1.9541152 0.15910131 17
-2.3524277 1.9378126 0.052531742 21
-1.4969566 1.2357519 -0.50987375 4
-1.742473 1.4389393 -0.51288873 3
-2.046412 1.6905339 -0.50804973 9
-2.3668494 1.9559412 -0.4802542 9
-2.3894773 1.9753426 -0.37596735 12
-2.3747754 1.9638866 -0.26626119 21
-2.3647962 1.9563293 -0.15831105 23
-2.3634374 1.9559002 -0.052352462 21
-2.3547089 1.9493693 0.80828267 24
-2.359669 1.9541695 0.697945 27
-2.3577671 1.9532883 0.58716398 20
-2.360378 1.9561461 0.47894323 18
-2.3599732 1.9565055 0.37170148 22
-2.3720312 1.9672008 0.26626077 26
-2.3697269 1.9659879 0.15936297 18
-2.3530035 1.9528069 0.052706264 18
nan nan nan 0
nan nan nan 0
-2.0404985 1.6976669 -0.50804973 9
-2.3638034 1.9673504 -0.48103639 10
-2.3863811 1.9868468 -0.37657669 13
-2.3717332 1.975352 -0.26669699 22
-2.3617895 1.9677684 -0.15857187 23
-2.360436 1.9673388 -0.052438848 18
-2.3515995 1.9606695 0.80957586 23
-2.3565745 1.9655148 0.69906884 25
-2.3547032 1.9646511 0.58811718 22
-2.3611186 1.9707028 0.48050588 17
-2.3569384 1.967912 0.37231082 21
-2.3689728 1.9786618 0.26669657 22
-2.3705132 1.9806507 0.15988633 16
-2.3538396 1.9674259 0.05288079 19
-1.4845899 1.2430718 -0.50857961 2
nan nan nan 0
-2.0345602 1.7047793 -0.50804973 8
-2.3607063 1.978762 -0.48181856 10
-2.3832343 1.9983535 -0.37718606 13
-2.3724558 1.9900209 -0.26756853 20
-2.3625562 1.9824196 -0.1590935 18
-2.3573837 1.9787805 -0.052525241 23
-2.3521388 1.975078 0.8121624 22
-2.3534298 1.9768624 0.70019281 24
-2.3553464 1.9791738 0.59002358 23
-2.3580055 1.9821103 0.48128715 16
-2.3576517 1.9825152 0.37352949 24
-2.3696752 1.9933317 0.26756814 23
-2.3674054 1.9921283 0.16014802 22
-2.3507864 1.9788445 0.052968048 16
nan nan nan 0
nan nan nan 0
-2.0285969 1.7118708 -0.50804973 7
-2.3575583 1.990176 -0.48260072 12
-2.3800356 2.0098619 -0.37779537 13
-2.3693001 2.0015047 -0.26800433 22
-2.3594356 1.9938773 -0.1593543 18
-2.3542798 1.9902247 -0.052611627 21
-2.3489182 1.9863952 0.81345564 22
-2.3502345 1.9882121 0.70131665 26
-2.3521702 1.990554 0.59097672 19
-2.3586106 1.9967109 0.48284978 16
-2.3545041 1.99394 0.37413886 24
-2.3665032 2.004811 0.26800391 27
-2.3642464 2.0036082 0.16040969 20
-2.3514915 1.9935039 0.053142574 19
nan nan nan 0
-1.7259251 1.466282 -0.51401347 3
-2.022609 1.7189415 -0.50804973 6
-2.3581219 2.0047905 -0.48416507 11
-2.3805664 2.0245881 -0.37901407 12
-2.3698866 2.0162179 -0.2688759 22
-2.3600662 2.0085733 -0.15987591 20
-2.351125 2.0016713 -0.05269802 20
-2.3456471 1.9977142 0.81474888 23
-2.350697 2.002723 0.70356447 25
-2.3526788 2.00512 0.59288311 22
-2.3553848 2.008136 0.4836311 19
-2.3513057 2.0053673 0.37474823 23
-2.3632798 2.0162923 0.26843968 26
-2.3610363 2.01509 0.16067138 19
-2.3483207 2.0049462 0.053229839 21
nan nan nan 0
-1.7133926 1.4659631 -0.51176393 3
-2.0165966 1.7259914 -0.50804973 5
-2.3511095 2.0130098 -0.48416507 12
-2.3772538 2.0361135 -0.37962344 12
-2.3666165 2.027719 -0.26931167 23
-2.3568318 2.0200489 -0.16013673 19
-2.3517137 2.0163743 -0.052870803 20
-2.3459916 2.0121784 0.81733537 22
-2.3473897 2.0140891 0.70468843 22
-2.34939 2.0165172 0.59383631 22
-2.3521075 2.0195627 0.4844124 18
-2.3480558 2.0167961 0.37535757 24
-2.3600054 2.0277755 0.26887548 26
-2.3577745 2.0265741 0.16093306 20
-2.3488891 2.0196497 0.053404361 19
-1.4780673 1.2731346 -0.5124619 3
-1.7156465 1.4782953 -0.51401347 3
-2.0105593 1.7330199 -0.50804973 4
-2.3478086 2.0244293 -0.48494723 13
-2.3738899 2.0476408 -0.38023278 12
-2.3632953 2.0392218 -0.26974744 22
-2.3535461 2.0315263 -0.16039754 19
-2.3484447 2.0278382 -0.052957188 20
-2.3426087 2.0235126 0.81862867 23
-2.3440313 2.025456 0.70581228 23
-2.3497632 2.0311251 0.5957427 21
-2.3487792 2.0309911 0.48519373 18
-2.3447552 2.0282266 0.37596691 25
-2.3566792 2.0392604 0.26931125 25
-2.354461 2.0380597 0.16119474 22
-2.3456039 2.0311091 0.053491622 18
-1.4663177 1.2719568 -0.50987375 3
-1.6810389 1.4587309 -0.50501537 3
-2.0044978 1.7400277 -0.50804973 4
-2.3444564 2.0358505 -0.48572943 11
-2.3742208 2.0624237 -0.38145146 12
-2.3599224 2.0507259 -0.27018321 22
-2.3502088 2.043005 -0.16065834 19
-2.348897 2.0425847 -0.053129975 20
-2.3428192 2.0380175 0.82121515 22
-2.3442976 2.0400224 0.70806009 22
-2.3463609 2.0425377 0.59669584 24
-2.3453996 2.0424206 0.48597503 18
-2.3414028 2.0396588 0.37657624 25
-2.3570569 2.054019 0.27018279 24
-2.3510966 2.0495472 0.16145642 20
-2.3422678 2.0425704 0.053578883 18
-1.4873292 1.2993094 -0.5189324 3
-1.6869422 1.4742076 -0.50838971 3
-2.0021069 1.7502444 -0.50900286 4
-2.3410532 2.0472724 -0.48651159 11
-2.3707426 2.0739665 -0.38206083 13
-2.3602464 2.0655117 -0.27105477 22
-2.3468201 2.0544853 -0.16091916 17
-2.3455136 2.0540648 -0.053216361 20
-2.3393235 2.0493655 0.82250839 20
-2.3408263 2.0514042 0.70918405 24
-2.3429077 2.0539513 0.5976491 23
-2.3419693 2.0538516 0.48675635 18
-2.3379996 2.0510921 0.37718561 24
-2.3536167 2.0655198 0.27061859 24
-2.3514326 2.0643299 0.16197978 20
-2.3426363 2.0573316 0.05375341 18
-1.457402 1.2821625 -0.50987375 3
-1.6891005 1.4865245 -0.51063919 3
-1.9959852 1.7572223 -0.50900286 4
-2.3338926 2.0554318 -0.48651159 9
-2.3709364 2.0887907 -0.38327953 12
-2.3567588 2.0770311 -0.27149057 21
-2.3471251 2.0692689 -0.16144077 19
-2.3420789 2.0655465 -0.053302754 19
-2.3357775 2.060714 0.8238017 23
-2.3409572 2.0660105 0.7114318 24
-2.3394034 2.0653656 0.59860224 22
-2.3421888 2.0685523 0.48831898 17
-2.338264 2.0658126 0.37840432 24
-2.3501244 2.0770214 0.27105436 25
-2.3479531 2.0758324 0.16224146 21
-2.3391852 2.0688083 0.053840671 17
-1.4635361 1.2971058 -0.51375604 3
-1.687286 1.4959372 -0.51176393 3
-1.9895313 1.7645262 -0.50900286 4
-2.3300376 2.0672498 -0.48729378 7
-2.366976 2.1007607 -0.38388884 13
-2.35658 2.0922692 -0.27236211 20
-2.3432584 2.0811732 -0.16170157 21
-2.3382297 2.0774372 -0.053389143 19
-2.3354292 2.0756783 0.82638818 22
-2.3370101 2.0778136 0.71255571 23
-2.3354855 2.077188 0.59955543 21
-2.3382812 2.0804055 0.48910025 17
-2.3343837 2.0776682 0.37901363 23
-2.3462162 2.0889332 0.27149016 26
-2.3477864 2.0910661 0.16276482 19
-2.3390524 2.0840192 0.054015197 18
-1.4553962 1.2989905 -0.5124619 3
-1.6893222 1.5083072 -0.51401347 3
-1.9870205 1.7747298 -0.50995612 4
-2.337538 2.088532 -0.49042246 6
-2.3633287 2.1123173 -0.38449821 13
-2.3529754 2.1038024 -0.27279788 21
-2.3397012 2.0926688 -0.16196239 19
-2.3384151 2.0922532 -0.053561922 20
-2.3317683 2.087039 0.82768142 20
-2.3370025 2.0924587 0.71480352 23
-2.3355327 2.0918772 0.60146183 22
-2.3383613 2.0951462 0.49066287 18
-2.3345082 2.0924287 0.38023233 25
-2.3463271 2.1037605 0.2723617 26
-2.3441901 2.1025827 0.1630265 20
-2.33548 2.095515 0.054102458 19
-1.450853 1.3040628 -0.5124619 3
-1.6804243 1.5109377 -0.51288873 3
-1.9844629 1.7849374 -0.51090926 3
-2.3375754 2.1032851 -0.49198681 11
-2.3633182 2.1271942 -0.38571692 13
-2.3530204 2.1186688 -0.27366945 22
-2.3360922 2.1041651 -0.1622232 20
-2.3348114 2.1037495 -0.053648315 22
-2.3316443 2.1016331 0.83026797 21
-2.3333025 2.1038661 0.71592742 20
-2.331861 2.1033044 0.60241497 21
-2.3347001 2.1066043 0.4914442 16
-2.3308742 2.1038902 0.3808417 24
-2.3426661 2.1152761 0.27279747 25
-2.3405416 2.1140993 0.16328818 20
-2.3318651 2.1070013 0.054189719 18
-1.4462922 1.3091193 -0.5124619 3
-1.6715283 1.5135241 -0.51176393 3
-1.9782201 1.7918535 -0.51090926 3
-2.3411982 2.1213796 -0.4943333 9
-2.3595555 2.1387637 -0.38632622 11
-2.3493006 2.1302152 -0.27410525 20
-2.3361299 2.1190159 -0.16274482 19
-2.3348584 2.1186056 -0.053821094 22
-2.3278701 2.1130054 0.83156121 20
-2.3331585 2.1185484 0.71817523 20
-2.3317714 2.1180315 0.60432136 21
-2.3346426 2.1213834 0.49300683 17
-2.3308606 2.1186898 0.38206038 23
-2.3426387 2.1301427 0.27366903 24
-2.3405352 2.1289761 0.16381153 20
-2.3318911 2.1218572 0.054364245 18
-1.4417136 1.31416 -0.5124619 3
-1.6626353 1.5160671 -0.51063919 3
-1.9755795 1.8020557 -0.51186246 3
-2.3374269 2.1328678 -0.49511549 8
-2.359406 2.1536784 -0.38754493 11
-2.3455286 2.1417615 -0.27454099 20
-2.3324056 2.1305254 -0.16300564 18
-2.3311393 2.1301153 -0.053907484 20
-2.32761 2.1276357 0.83414769 20
-2.3329401 2.133255 0.72042304 21
-2.3279855 2.1294711 0.60527456 22
-2.3308668 2.1328537 0.49378812 16
-2.3307722 2.1335149 0.38327909 25
-2.3388624 2.1416707 0.2741048 24
-2.3367712 2.140506 0.16407321 18
-2.328156 2.1333616 0.054451503 18
-1.4371176 1.3191844 -0.5124619 3
-1.6573331 1.5218616 -0.51063919 3
-1.9692771 1.8089408 -0.51186246 3
-2.3299675 2.1410141 -0.49511549 8
-2.3591814 2.1686182 -0.38876364 12
-2.3417048 2.1533074 -0.27497679 19
-2.3286295 2.1420343 -0.16326644 19
-2.3310473 2.1450095 -0.054080263 20
-2.3272762 2.1422899 0.83673418 19
-2.3290637 2.144686 0.72154701 21
-2.3277583 2.1442351 0.60718095 22
-2.3306711 2.1476703 0.49535075 16
-2.3269596 2.1450012 0.38388839 23
-2.338696 2.1565752 0.27497637 23
-2.3329554 2.152035 0.16433489 19
-2.328043 2.1482558 0.054626029 18
-1.4325039 1.3241929 -0.5124619 3
-1.6484337 1.5243298 -0.50951445 3
-1.9665539 1.8191369 -0.51281571 3
-2.32248 2.1491342 -0.49511549 8
-2.3588808 2.1835825 -0.38998231 12
-2.3414834 2.168237 -0.27584836 21
-2.3284643 2.1569362 -0.16378805 19
-2.3272126 2.1565313 -0.054166656 22
-2.3233261 2.1536839 0.83802748 20
-2.3287077 2.1594284 0.72379482 22
-2.3238575 2.1556854 0.60813409 22
-2.3267803 2.159152 0.49613208 18
-2.3267324 2.1598635 0.3851071 23
-2.3348038 2.1681149 0.27541214 23
-2.3327458 2.1669621 0.16485825 18
-2.3241923 2.1597724 0.05471329 18
-1.4278729 1.3291852 -0.5124619 3
-1.6431026 1.5300745 -0.50951445 3
-1.960192 1.8259904 -0.51281571 3
-2.3149638 2.157228 -0.49511549 8
-2.3585045 2.1985712 -0.39120105 12
-2.3375432 2.1797941 -0.27628413 21
-2.3245721 2.1684568 -0.16404887 20
-2.3269806 2.1714633 -0.054339435 20
-2.3228555 2.1683724 0.84061396 20
-2.3282776 2.1741943 0.72604263 23
