# .PCD v0.7 - Point Cloud Data file format
VERSION 0.7
FIELDS x y z intensity
SIZE 4 4 4 4
TYPE F F F F
COUNT 1 1 1 1
WIDTH 1366
HEIGHT 1
VIEWPOINT 0 0 0 1 0 0 0
POINTS 1366
DATA ascii
0.10048456 2.1710374 0.41463691 14
0.10101629 2.1743088 0.33830738 15
0.10095824 2.1649086 0.26140973 16
0.10240071 2.1876349 0.1882564 13
0.10185765 2.1679323 0.11173727 16
0.10141657 2.150538 0.036911838 14
nan nan nan 0
0.1071732 2.2231288 -0.50501537 5
0.10598016 2.1904323 -0.41844994 14
0.10556707 2.1740336 -0.33868089 16
0.10694156 2.1944335 -0.26506612 15
0.1062523 2.1724906 -0.18694936 15
0.10639889 2.1677339 -0.11136544 16
0.10616668 2.1553202 -0.036629442 13
0.10728899 2.1703956 0.57161748 14
0.1076262 2.1695385 0.49227038 15
0.10781823 2.165771 0.41368371 15
0.10860543 2.173943 0.33830738 16
0.10826608 2.1595867 0.26080036 14
0.11003635 2.1872642 0.1882564 13
0.10917278 2.1625767 0.11147558 16
0.10892272 2.1501708 0.036911838 13
nan nan nan 0
0.11468116 2.217876 -0.50389069 5
0.11362555 2.1900489 -0.41844994 14
0.11315522 2.1736519 -0.33868089 15
0.1146009 2.1940467 -0.26506612 14
0.11383505 2.1721067 -0.18694936 14
0.11396504 2.1673491 -0.11136544 16
0.1136895 2.1549366 -0.036629442 12
0.11486444 2.1700079 0.57161748 15
0.11519865 2.1691496 0.49227038 15
0.11537752 2.1653814 0.41368371 14
0.11619325 2.1735506 0.33830738 15
0.11580378 2.1591954 0.26080036 16
0.11767066 2.1868668 0.1882564 15
0.11672091 2.1621826 0.11147558 16
0.11642756 2.1497774 0.036911838 14
nan nan nan 0
0.12242229 2.2174623 -0.50389069 6
0.12126955 2.1896391 -0.41844994 14
0.12046804 2.1683125 -0.3378987 15
0.12225886 2.1936336 -0.26506612 15
0.12141643 2.1716959 -0.18694936 15
0.12125021 2.1619527 -0.11110463 16
0.12121094 2.1545267 -0.036629442 14
0.12243848 2.1695938 0.57161748 14
0.12276969 2.1687343 0.49227038 16
0.12293541 2.1649654 0.41368371 14
0.1234988 2.1682012 0.33752605 15
0.12334008 2.1587782 0.26080036 15
0.12501855 2.1814702 0.18782063 14
0.12426763 2.161762 0.11147558 15
0.12393097 2.149358 0.036911838 13
nan nan nan 0
0.13016194 2.2170215 -0.50389069 6
0.12891208 2.1892023 -0.41844994 14
0.12803613 2.1678791 -0.3378987 15
0.12991533 2.1931934 -0.26506612 14
0.12899633 2.1712589 -0.18694936 15
0.12849911 2.156532 -0.11084383 17
0.12873091 2.1540904 -0.036629442 13
0.13001102 2.1691532 0.57161748 15
0.13033924 2.1682925 0.49227038 15
0.13049181 2.1645231 0.41368371 14
0.13106649 2.1677568 0.33752605 15
0.13057449 2.1533809 0.26019105 15
0.13263254 2.1810205 0.18782063 14
0.13181283 2.161315 0.11147558 15
0.13143288 2.1489122 0.036911838 15
nan nan nan 0
0.13789999 2.2165534 -0.50389069 7
0.13655303 2.1887391 -0.41844994 13
0.13560265 2.167419 -0.3378987 16
0.1375702 2.1927264 -0.26506612 15
0.13657464 2.1707954 -0.18694936 16
0.13602602 2.1560705 -0.11084383 17
0.13624929 2.1536279 -0.036629442 13
0.13758199 2.1686862 0.57161748 15
0.13759787 2.1629622 0.49114645 15
0.13804661 2.1640544 0.41368371 15
0.13863257 2.1672862 0.33752605 16
0.1380904 2.1529119 0.26019105 16
0.14024492 2.1805441 0.18782063 15
0.13967778 2.1658247 0.11173727 13
0.13861054 2.1434515 0.036824573 15
nan nan nan 0
0.14563636 2.2160587 -0.50389069 7
0.14419232 2.1882491 -0.41844994 15
0.14316754 2.1669323 -0.3378987 16
0.14522341 2.1922328 -0.26506612 14
0.14382118 2.1653354 -0.18651357 15
0.14355128 2.1555824 -0.11084383 17
0.14376603 2.1531391 -0.036629442 13
0.14515129 2.1681926 0.57161748 14
0.1451472 2.1624687 0.49114645 16
0.14559972 2.1635594 0.41368371 14
0.14619698 2.1667891 0.33752605 14
0.14560463 2.1524167 0.26019105 16
0.14785558 2.1800413 0.18782063 15
0.14723706 2.1653237 0.11173727 16
0.14609174 2.1429546 0.036824573 14
nan nan nan 0
0.15370739 2.2203968 -0.50501537 7
0.15182987 2.1877325 -0.41844994 15
0.15073067 2.1664193 -0.3378987 15
0.15287486 2.1917126 -0.26506612 15
0.15137874 2.1648202 -0.18651357 15
0.15107478 2.1550682 -0.11084383 17
0.15128101 2.1526241 -0.036629442 12
0.1527188 2.1676729 0.57161748 14
0.15269473 2.1619489 0.49114645 15
0.15315107 2.163038 0.41368371 14
0.15375958 2.1662655 0.33752605 16
0.15311708 2.1518953 0.26019105 16
0.15546444 2.179512 0.18782063 14
0.15479456 2.1647966 0.11173727 14
0.15321374 2.1374452 0.036737315 15
nan nan nan 0
0.16145709 2.2198467 -0.50501537 8
0.15946555 2.1871891 -0.41844994 14
0.15829195 2.16588 -0.3378987 16
0.16052441 2.1911657 -0.26506612 14
0.15893444 2.1642787 -0.18651357 15
0.15859646 2.1545277 -0.11084383 17
0.15879416 2.1520832 -0.036629442 11
0.16028446 2.1671267 0.57161748 15
0.16024041 2.1614027 0.49114645 14
0.16070054 2.1624901 0.41368371 14
0.16132033 2.1657157 0.33752605 16
0.16062765 2.1513479 0.26019105 14
0.16307141 2.178956 0.18782063 13
0.16235015 2.1642432 0.11173727 15
0.16067389 2.1368973 0.036737315 14
nan nan nan 0
0.16920482 2.2192695 -0.50501537 8
0.16672529 2.181725 -0.4174968 14
0.16547418 2.1603904 -0.33711654 16
0.16817205 2.1905918 -0.26506612 15
0.16648822 2.1637106 -0.18651357 16
0.16611621 2.1539609 -0.11084383 17
0.16630535 2.1515157 -0.036629442 13
0.1674751 2.1617384 0.57032424 15
0.16778414 2.16083 0.49114645 16
0.16824806 2.161916 0.41368371 13
0.16887909 2.1651392 0.33752605 15
0.16813628 2.150774 0.26019105 14
0.1706764 2.1783736 0.18782063 13
0.16990378 2.1636631 0.11173727 13
0.16813207 2.1363235 0.036737315 14
nan nan nan 0
0.17695048 2.2186654 -0.50501537 9
0.17433992 2.1811299 -0.4174968 15
0.17301434 2.1597996 -0.33711654 15
0.17581761 2.1899915 -0.26506612 14
0.17403997 2.1631162 -0.18651357 14
0.1732326 2.148391 -0.11058301 16
0.17381454 2.1509221 -0.036629442 14
0.17501995 2.1611407 0.57032424 15
0.17532581 2.1602311 0.49114645 14
0.17579354 2.1613157 0.41368371 14
0.17643581 2.1645367 0.33752605 16
0.17564286 2.1501739 0.26019105 16
0.1782793 2.1777644 0.18782063 15
0.17704707 2.1580806 0.11147558 15
0.17558821 2.1357236 0.036737315 14
nan nan nan 0
0.18469399 2.2180343 -0.50501537 9
0.18154426 2.1756167 -0.41654357 15
0.18055239 2.1591825 -0.33711654 17
0.18304662 2.1844192 -0.26445675 15
0.1815896 2.1624956 -0.18651357 15
0.18073083 2.1477733 -0.11058301 17
0.18132161 2.1503022 -0.036629442 13
0.18256268 2.1605165 0.57032424 15
0.18286537 2.159606 0.49114645 15
0.1829219 2.1557984 0.41273054 14
0.18399037 2.1639075 0.33752605 15
0.1831473 2.1495478 0.26019105 15
0.18588004 2.177129 0.18782063 14
0.1845791 2.1574492 0.11147558 15
0.1830422 2.1350975 0.036737315 14
nan nan nan 0
0.19243526 2.2173762 -0.50501537 10
0.18913747 2.1749697 -0.41654357 15
0.18808824 2.1585391 -0.33711654 16
0.19067056 2.1837668 -0.26445675 14
0.189137 2.1618485 -0.18651357 16
0.18822686 2.1471291 -0.11058301 17
0.18882644 2.1496561 -0.036629442 13
0.19010319 2.1598661 0.57032424 15
0.19040269 2.1589546 0.49114645 15
0.19044591 2.1551466 0.41273054 15
0.19154271 2.1632521 0.33752605 16
0.19064951 2.1488955 0.26019105 15
0.19303744 2.1715052 0.18738484 14
0.19210888 2.1567919 0.11147558 15
0.19049397 2.1344457 0.036737315 14
0.17467533 1.9380977 -0.51116782 3
0.20017417 2.2166908 -0.50501537 10
0.19628611 2.1694081 -0.41559041 15
0.19517593 2.152951 -0.33633435 16
0.19829215 2.1830881 -0.26445675 15
0.19668213 2.1611753 -0.18651357 15
0.19572058 2.1464591 -0.11058301 17
0.196329 2.148984 -0.036629442 14
0.19764136 2.1591892 0.57032424 14
0.19749275 2.1534252 0.49002257 15
0.19796763 2.1544688 0.41273054 14
0.1990927 2.1625702 0.33752605 15
0.1981494 2.148217 0.26019105 16
0.20061624 2.1708181 0.18738484 15
0.19963634 2.1561081 0.11147558 15
0.19794342 2.1337678 0.036737315 14
0.18143949 1.9374763 -0.51116782 3
0.20791064 2.2159786 -0.50501537 11
0.20385757 2.1687098 -0.41559041 15
0.20268995 2.1522565 -0.33633435 15
0.20591135 2.1823826 -0.26445675 15
0.20422482 2.1604755 -0.18651357 15
0.20321193 2.1457627 -0.11058301 17
0.20382915 2.1482854 -0.036629442 13
0.20517713 2.1584861 0.57032424 15
0.2050084 2.1527228 0.49002257 15
0.20502074 2.1488783 0.41177732 15
0.20664026 2.1618621 0.33752605 15
0.20564686 2.1475122 0.26019105 16
0.20819259 2.1701047 0.18738484 14
0.20668365 2.1504281 0.11121391 15
0.20539045 2.1330638 0.036737315 14
0.18866853 1.9416382 -0.5124619 3
0.21517259 2.2103906 -0.50389069 12
0.21142653 2.167985 -0.41559041 15
0.21020149 2.151536 -0.33633435 16
0.21352804 2.1816504 -0.26445675 15
0.21176505 2.1597493 -0.18651357 15
0.21118893 2.1500096 -0.11084383 17
0.21083726 2.1425858 -0.036543053 13
0.21271041 2.157757 0.57032424 15
0.21252155 2.151994 0.49002257 15
0.21252048 2.1481497 0.41177732 15
0.21369827 2.1562135 0.33674476 16
0.21314181 2.1467812 0.26019105 16
0.21576639 2.1693647 0.18738484 14
0.21418878 2.1496935 0.11121391 15
0.21283498 2.1323338 0.036737315 13
0.19544497 1.9409678 -0.5124619 3
0.22288698 2.209626 -0.50389069 12
0.21899293 2.1672337 -0.41559041 15
0.21820782 2.1557026 -0.33711654 16
0.22114213 2.1808918 -0.26445675 15
0.21930268 2.1589971 -0.18651357 16
0.21869257 2.1492596 -0.11084383 17
0.21831499 2.1418369 -0.036543053 13
0.22024108 2.1570013 0.57032424 14
0.22003213 2.1512392 0.49002257 15
0.22001764 2.1473947 0.41177732 14
0.22122356 2.1554544 0.33674476 16
0.22063419 2.146024 0.26019105 16
0.22282732 2.1636438 0.18694907 14
0.22169131 2.1489327 0.11121391 14
0.22027691 2.131578 0.036737315 14
0.20121773 1.9306664 -0.50987375 3
0.23059866 2.2088346 -0.50389069 12
0.22655664 2.166456 -0.41559041 15
0.2257313 2.1549277 -0.33711654 16
0.22875351 2.1801066 -0.26445675 15
0.22683765 2.1582184 -0.18651357 16
0.22619355 2.148483 -0.11084383 16
0.22579008 2.1410618 -0.036543053 13
0.22726171 2.1514161 0.569031 14
0.22754 2.1504579 0.49002257 15
0.22751211 2.1466136 0.41177732 14
0.22874615 2.154669 0.33674476 16
0.22812387 2.1452408 0.26019105 15
0.23037848 2.1628528 0.18694907 14
0.22919114 2.1481459 0.11121391 16
0.22771616 2.130796 0.036737315 14
0.20743838 1.9251505 -0.50857961 3
0.23830752 2.2080164 -0.50389069 12
0.23411761 2.165652 -0.41559041 16
0.23325202 2.1541266 -0.33711654 15
0.235827 2.1743612 -0.26384741 15
0.23436987 2.1574135 -0.18651357 16
0.23315166 2.1427164 -0.11058301 17
0.2332624 2.1402605 -0.036543053 13
0.23477016 2.15061 0.569031 14
0.23504512 2.1496506 0.49002257 15
0.23500378 2.1458063 0.41177732 15
0.23626594 2.1538575 0.33674476 16
0.23506875 2.1394982 0.25958169 16
0.23792684 2.1620355 0.18694907 14
0.23668815 2.1473327 0.11121391 15
0.23515265 2.1299882 0.036737315 14
0.21362299 1.9196146 -0.50728554 3
0.24601348 2.207171 -0.50389069 12
0.24167572 2.1648216 -0.41559041 15
0.24076992 2.1532993 -0.33711654 16
0.2434155 2.1735246 -0.26384741 15
0.24189921 2.1565821 -0.18651357 15
0.24062972 2.1418896 -0.11058301 16
0.24073188 2.1394331 -0.036543053 13
0.24173488 2.1449778 0.5677377 14
0.24254736 2.1488171 0.49002257 15
0.24249262 2.144973 0.41177732 15
0.24322721 2.1481121 0.33596343 16
0.24253555 2.1386647 0.25958169 16
0.2454723 2.1611917 0.18694907 15
0.24418232 2.1464934 0.11121391 15
0.24258627 2.1291544 0.036737315 14
0.2208733 1.9236553 -0.50857961 4
0.25371644 2.2062988 -0.50389069 13
0.24923088 2.1639647 -0.41559041 15
0.24771896 2.1475396 -0.33633435 15
0.25100103 2.1726618 -0.26384741 15
0.24942562 2.1557248 -0.18651357 15
0.24810484 2.1410365 -0.11058301 17
0.24819842 2.1385798 -0.036543053 14
0.24922076 2.1441209 0.5677377 15
0.25004667 2.1479573 0.49002257 15
0.2499785 2.1441135 0.41177732 15
0.25072402 2.1472499 0.33596343 15
0.2499994 2.137805 0.25958169 15
0.25301477 2.1603217 0.18694907 14
0.25167349 2.145628 0.11121391 15
0.25001693 2.1282947 0.036737315 14
0.22815442 1.9276688 -0.50987375 4
0.26084283 2.2005615 -0.50276589 13
0.25678301 2.1630816 -0.41559041 15
0.25521374 2.1466618 -0.33633435 15
0.25858349 2.1717722 -0.26384741 14
0.25694898 2.1548409 -0.18651357 16
0.25498486 2.1351993 -0.11032221 17
0.25566196 2.1377006 -0.036543053 14
0.25670362 2.1432378 0.5677377 14
0.25754291 2.1470714 0.49002257 15
0.25746131 2.1432278 0.41177732 15
0.25821781 2.1463618 0.33596343 15
0.25746021 2.1369193 0.25958169 15
0.26055416 2.1594255 0.18694907 14
0.25916159 2.1447363 0.11121391 15
0.25744453 2.127409 0.036737315 14
0.23488186 1.9268606 -0.50987375 4
0.26852262 2.1996377 -0.50276589 13
0.264332 2.1621721 -0.41559041 15
0.26270545 2.1457579 -0.33633435 16
0.26616284 2.1708565 -0.26384741 15
0.26446921 2.1539307 -0.18651357 15
0.26243654 2.1342964 -0.11032221 17
0.26312238 2.136795 -0.036543053 13
0.26418334 2.1423287 0.5677377 14
0.26443887 2.1413238 0.48889863 15
0.26433858 2.137445 0.41082415 14
0.26570845 2.1454473 0.33596343 16
0.26491788 2.1360075 0.25958169 16
0.26870427 2.1634455 0.18738484 15
0.26603022 2.1388636 0.11095222 15
0.264869 2.1264973 0.036737315 14
0.24160643 1.9260291 -0.50987375 4
0.27619916 2.1986868 -0.50276589 12
0.2718778 2.1612363 -0.41559041 15
0.27019393 2.1448278 -0.33633435 15
0.27373889 2.1699142 -0.26384741 15
0.27136198 2.1480529 -0.1860778 16
0.26988503 2.1333673 -0.11032221 17
0.27057958 2.1358635 -0.036543053 13
0.27165988 2.1413934 0.5677377 15
0.27191186 2.1403878 0.48889863 15
0.27179804 2.1365092 0.41082415 14
0.27319583 2.1445067 0.33596343 15
0.27237234 2.1350698 0.25958169 16
0.27625448 2.1624944 0.18738484 15
0.27349463 2.137922 0.11095222 15
0.27165502 2.1206012 0.03665005 14
0.24832805 1.9251739 -0.50987375 3
0.28387231 2.1977093 -0.50276589 13
0.27942026 2.160274 -0.41559041 15
0.27767915 2.1438718 -0.33633435 16
0.28131166 2.1689453 -0.26384741 14
0.27885842 2.1470928 -0.1860778 15
0.27733022 2.1324122 -0.11032221 16
0.27803347 2.1349061 -0.036543053 13
0.27913305 2.1404321 0.5677377 15
0.27938154 2.1394255 0.48889863 15
0.2792542 2.1355474 0.41082415 14
0.28067988 2.1435401 0.33596343 15
0.27982348 2.1341062 0.25958169 16
0.28380132 2.1615169 0.18738484 14
0.28095573 2.1369543 0.11095222 15
0.27905566 2.1196399 0.03665005 14
0.25504664 1.9242953 -0.50987375 4
0.29154202 2.1967049 -0.50276589 12
0.28695932 2.1592855 -0.41559041 15
0.28516096 2.1428893 -0.33633435 16
0.28888097 2.1679502 -0.26384741 14
0.28635147 2.1461062 -0.1860778 15
0.28477204 2.1314311 -0.11032221 16
0.28548399 2.1339226 -0.036543053 13
0.28660288 2.1394448 0.5677377 14
0.28749561 2.1432662 0.49002257 15
0.28736037 2.1394243 0.41177732 15
0.28816053 2.1425471 0.33596343 16
0.28660884 2.1281981 0.25897235 16
0.2913447 2.1605132 0.18738484 14
0.28841335 2.1359606 0.11095222 16
0.28645286 2.1186528 0.03665005 13
0.26176214 1.9233932 -0.50987375 4
0.29920819 2.1956739 -0.50276589 13
0.29449487 2.1582708 -0.41559041 15
0.29263929 2.141881 -0.33633435 15
0.29644677 2.1669288 -0.26384741 15
0.29384103 2.1450937 -0.1860778 15
0.2922104 2.130424 -0.11032221 16
0.29293105 2.1329129 -0.036543053 13
0.29406917 2.1384313 0.5677377 15
0.29497525 2.1422496 0.49002257 15
0.2948266 2.1384079 0.41177732 15
0.29563767 2.1415281 0.33596343 15
0.29403588 2.1271849 0.25897235 16
0.29888448 2.159483 0.18738484 15
0.2958675 2.1349409 0.11095222 16
0.29384661 2.11764 0.03665005 14
0.26880994 1.9224211 -0.50987375 4
0.30725372 2.1945627 -0.50276589 12
0.30240336 2.157177 -0.41559041 16
0.30048773 2.1407938 -0.33633435 15
0.30438694 2.1658275 -0.26384741 14
0.30170122 2.1440022 -0.1860778 15
0.30001679 2.1293387 -0.11032221 16
0.3000482 2.1268747 -0.036456663 13
0.30190495 2.1373391 0.5677377 14
0.30282503 2.1411543 0.49002257 15
0.30266228 2.1373131 0.41177732 14
0.30348477 2.1404302 0.33596343 15
0.30183044 2.1260929 0.25897235 15
0.30609646 2.1534417 0.18694907 14
0.30369046 2.133842 0.11095222 15
0.30160618 2.1165488 0.03665005 15
0.27551883 1.921471 -0.50987375 4
0.31491229 2.1934767 -0.50276589 12
0.30993149 2.1561081 -0.41559041 15
0.30795863 2.1397319 -0.33633435 16
0.31194529 2.1647518 -0.26384741 14
0.30918333 2.142936 -0.1860778 15
0.30744776 2.1282787 -0.11032221 16
0.30747056 2.1258144 -0.036456663 13
0.30936381 2.1362722 0.5677377 14
0.31029719 2.140084 0.49002257 15
0.31012103 2.1362436 0.41177732 14
0.31095442 2.1393578 0.33596343 15
0.30925006 2.1250265 0.25897235 16
0.31361151 2.1523602 0.18694907 14
0.31113711 2.1327691 0.11095222 15
0.30899248 2.115483 0.03665005 13
0.28222433 1.9204975 -0.50987375 4
0.32256705 2.192364 -0.50276589 12
0.31674045 2.150157 -0.41463721 15
0.31542584 2.138644 -0.33633435 15
0.31877476 2.15874 -0.26323807 15
0.31666172 2.1418438 -0.1860778 16
0.31487495 2.1271923 -0.11032221 17
0.31488916 2.124728 -0.036456663 13
0.31681892 2.1351793 0.5677377 14
0.31776556 2.138988 0.49002257 15
0.31757605 2.135148 0.41177732 14
0.31842026 2.1382594 0.33596343 15
0.31666592 2.123934 0.25897235 16
0.32038736 2.1463261 0.18651327 14
0.31857997 2.13167 0.11095222 15
0.31637499 2.1143918 0.03665005 14
0.28964525 1.9242766 -0.51116782 4
0.33094388 2.1960423 -0.50389069 13
0.32424396 2.1490381 -0.41463721 15
0.32288918 2.1375299 -0.33633435 15
0.32630825 2.1576142 -0.26323807 14
0.32413623 2.1407254 -0.1860778 15
0.32229835 2.1260803 -0.11032221 16
0.32230392 2.123616 -0.036456663 13
0.32427013 2.1340604 0.5677377 14
0.32449731 2.1330488 0.48889863 14
0.3242881 2.1291742 0.41082415 14
0.32588223 2.1371348 0.33596343 15
0.32482678 2.1277213 0.25958169 15
0.32787749 2.1451945 0.18651327 15
0.32601896 2.1305449 0.11095222 16
0.32375368 2.1132746 0.03665005 13
0.29636049 1.9232538 -0.51116782 4
0.33860752 2.1948738 -0.50389069 13
0.33174354 2.1478932 -0.41463721 15
0.33034855 2.1363897 -0.33633435 15
0.33383772 2.156462 -0.26323807 15
0.33160675 2.1395807 -0.1860778 15
0.32971776 2.1249423 -0.11032221 16
0.32971478 2.122478 -0.036456663 13
0.33171743 2.1329155 0.5677377 15
0.33194107 2.1319029 0.48889863 15
0.33171836 2.1280291 0.41082415 14
0.33334026 2.1359844 0.33596343 15
0.33225194 2.1265743 0.25958169 16
0.3353636 2.1440368 0.18651327 14
0.33422646 2.1343269 0.11121391 15
0.33112842 2.1121316 0.03665005 13
0.30307207 1.9222076 -0.51116782 4
0.34626696 2.1936786 -0.50389069 13
0.33923903 2.1467223 -0.41463721 16
0.33780393 2.1352236 -0.33633435 16
0.34136313 2.1552837 -0.26323807 14
0.33907324 2.1384103 -0.1860778 16
0.3371332 2.1237786 -0.11032221 17
0.33633697 2.1163769 -0.036370274 13
0.33916068 2.1317446 0.5677377 14
0.3393808 2.1307313 0.48889863 14
0.33914453 2.1268582 0.41082415 14
0.34079421 2.1348078 0.33596343 15
0.33967307 2.1254017 0.25958169 15
0.34363261 2.1477716 0.18694907 14
0.3416746 2.1331472 0.11121391 15
0.3384991 2.1109629 0.03665005 14
0.30978 1.9211379 -0.51116782 4
0.35392222 2.1924565 -0.50389069 13
0.34673044 2.145525 -0.41463721 15
0.3452552 2.1340315 -0.33633435 15
0.34967789 2.158978 -0.26384741 15
0.34653565 2.1372137 -0.1860778 15
0.34454453 2.1225886 -0.11032221 16
0.34372243 2.11519 -0.036370274 13
0.34659979 2.1305478 0.5677377 14
0.34681636 2.1295338 0.48889863 15
0.34656659 2.1256616 0.41082415 14
0.34824401 2.1336052 0.33596343 16
0.34709001 2.124203 0.25958169 15
0.35112762 2.1465592 0.18694907 14
0.34911862 2.1319418 0.11121391 15
0.34586567 2.1097684 0.03665005 13
0.31648412 1.9200449 -0.51116782 4
0.36077997 2.1864007 -0.50276589 12
0.35421762 2.1443017 -0.41463721 15
0.35270226 2.1328132 -0.33633435 16
0.35721201 2.1577442 -0.26384741 15
0.3539938 2.1359909 -0.1860778 15
0.35195166 2.1213732 -0.11032221 16
0.35192281 2.1189089 -0.036456663 13
0.35403469 2.1293249 0.5677377 14
0.35424772 2.1283102 0.48889863 15
0.35398442 2.1244388 0.41082415 14
0.35568953 2.1323764 0.33596343 15
0.35450274 2.1229784 0.25958169 16
0.35861838 2.1453204 0.18694907 15
0.35655832 2.1307101 0.11121391 15
0.35322803 2.1085482 0.03665005 14
0.3239865 1.923691 -0.5124619 4
0.36840969 2.185128 -0.50276589 12
0.36170048 2.1430521 -0.41463721 15
0.36014503 2.1315691 -0.33633435 15
0.36474174 2.1564841 -0.26384741 15
0.36144763 2.1347423 -0.1860778 16
0.3593545 2.1201317 -0.11032221 16
0.35931703 2.1176677 -0.036456663 13
0.3606565 2.1233146 0.56644452 14
0.36167473 2.1270607 0.48889863 15
0.36139792 2.1231904 0.41082415 14
0.36313075 2.1311219 0.33596343 15
0.36107674 2.1168363 0.25897235 15
0.36610472 2.1440554 0.18694907 15
0.36399373 2.1294525 0.11121391 15
0.36058611 2.1073024 0.03665005 14
0.33069947 1.9225484 -0.5124619 4
0.376035 2.1838286 -0.50276589 12
0.36917892 2.1417763 -0.41463721 15
0.36758339 2.1302991 -0.33633435 16
0.37226707 2.1551979 -0.26384741 14
0.36889711 2.1334677 -0.1860778 15
0.36675292 2.1188643 -0.11032221 16
0.36670691 2.1164005 -0.036456663 13
0.36806604 2.1220429 0.56644452 14
0.36909735 2.1257851 0.48889863 14
0.36880705 2.1219158 0.41082415 14
0.37056756 2.1298413 0.33596343 15
0.3684637 2.1155632 0.25897235 16
0.37358665 2.1427643 0.18694907 14
0.37142467 2.1281688 0.11121391 15
0.36793977 2.1060309 0.03665005 14
0.33824378 1.9261394 -0.51375604 4
0.3836557 2.1825027 -0.50276589 13
0.37665284 2.1404748 -0.41463721 15
0.37416062 2.1241395 -0.33555222 16
0.37978786 2.1538854 -0.26384741 14
0.37634203 2.1321669 -0.1860778 15
0.37414691 2.1175714 -0.11032221 17
0.37409225 2.1151075 -0.036456663 13
0.37547112 2.1207452 0.56644452 14
0.37651548 2.1244838 0.48889863 15
0.37621167 2.1206155 0.41082415 15
0.37799981 2.128535 0.33596343 15
0.37584615 2.114264 0.25897235 16
0.38106403 2.1414473 0.18694907 14
0.37797549 2.1219435 0.11095222 15
0.37528896 2.1047337 0.03665005 14
0.34496519 1.9249469 -0.51375604 4
0.39127171 2.1811502 -0.50276589 13
0.38412222 2.139147 -0.41463721 15
0.38157296 2.1228204 -0.33555222 15
0.38730401 2.1525464 -0.26384741 15
0.38378239 2.1308403 -0.1860778 16
0.38153633 2.1162524 -0.11032221 16
0.38147312 2.1137888 -0.036456663 13
0.38287163 2.1194215 0.56644452 15
0.38392901 2.1231565 0.48889863 15
0.38361171 2.1192894 0.41082415 14
0.3854275 2.1272025 0.33596343 15
0.38322404 2.1129391 0.25897235 16
0.38853675 2.1401041 0.18694907 14
0.38627294 2.125524 0.11121391 15
0.38263354 2.1034107 0.03665005 14
0.35255089 1.9284818 -0.51505011 4
0.39888296 2.1797712 -0.50276589 13
0.39158687 2.1377931 -0.41463721 15
0.38898066 2.1214757 -0.33555222 15
0.39481544 2.1511812 -0.26384741 14
0.39121807 2.1294878 -0.1860778 15
0.38892108 2.1149075 -0.11032221 16
0.38884929 2.1124442 -0.036456663 13
0.39026746 2.118072 0.56644452 14
0.3922216 2.126595 0.49002257 15
0.3910071 2.1179376 0.41082415 15
0.39285046 2.1258442 0.33596343 15
0.39059722 2.1115887 0.25897235 16
0.39600474 2.1387348 0.18694907 15
0.39369005 2.1241627 0.11121391 15
0.38997349 2.1020622 0.03665005 13
0.36016554 1.9319873 -0.51634425 4
0.40648934 2.1783655 -0.50276589 13
0.39904681 2.1364131 -0.41463721 15
0.39638361 2.1201048 -0.33555222 16
0.40140909 2.1449118 -0.26323807 15
0.39864901 2.128109 -0.1860778 15
0.39630115 2.1135371 -0.11032221 16
0.39622071 2.111074 -0.036456663 13
0.3976585 2.1166968 0.56644452 15
0.39964241 2.1252129 0.49002257 15
0.39839765 2.1165597 0.41082415 14
0.40026867 2.12446 0.33596343 15
0.39796567 2.1102123 0.25897235 16
0.40346789 2.1373396 0.18694907 15
0.40110233 2.1227756 0.11121391 15
0.39730868 2.1006885 0.03665005 14
0.36690724 1.9307182 -0.51634425 4
0.41409075 2.1769333 -0.50276589 13
0.40650186 2.1350071 -0.41463721 15
0.40378177 2.1187081 -0.33555222 16
0.40889379 2.1434977 -0.26323807 14
0.40607503 2.1267045 -0.1860778 15
0.40367636 2.1121409 -0.11032221 16
0.40358731 2.109678 -0.036456663 13
0.40504476 2.1152959 0.56644452 15
0.40705836 2.123805 0.49002257 15
0.40578339 2.1151562 0.41082415 14
0.40768197 2.1230497 0.33596343 15
0.40532926 2.1088102 0.25897235 16
0.41092616 2.1359181 0.18694907 15
0.40850979 2.1213624 0.11121391 15
0.40463901 2.0992887 0.03665005 13
0.37456271 1.9341674 -0.51763833 4
0.42168716 2.1754746 -0.50276589 12
0.41395193 2.1335752 -0.41463721 15
0.41117495 2.117286 -0.33555222 15
0.41637352 2.1420574 -0.26323807 14
0.41349614 2.1252742 -0.1860778 15
0.41104662 2.110719 -0.11032221 16
0.41094899 2.1082566 -0.036456663 12
0.41242605 2.1138692 0.56644452 14
0.41446933 2.1223712 0.49002257 15
0.41316423 2.1137266 0.41082415 14
0.41509032 2.1216137 0.33596343 15
0.41364157 2.1122525 0.25958169 16
0.4183794 2.1344707 0.18694907 14
0.41591221 2.1199236 0.11121391 15
0.41196445 2.0978634 0.03665005 14
0.38131192 1.9328481 -0.51763833 3
0.42927843 2.1739893 -0.50276589 12
0.42139697 2.1321173 -0.41463721 15
0.41952154 2.1206822 -0.33633435 15
0.42384812 2.1405909 -0.26323807 15
0.42091224 2.1238177 -0.1860778 15
0.41841191 2.1092713 -0.11032221 16
0.41830572 2.1068091 -0.036456663 13
0.41980231 2.1124167 0.56644452 14
0.4218753 2.1209114 0.49002257 15
0.42149839 2.1170855 0.41177732 15
0.42249361 2.1201518 0.33596343 15
0.42101219 2.1107957 0.25958169 16
0.42582753 2.1329973 0.18694907 14
0.42330962 2.1184587 0.11121391 15
0.41928482 2.0964127 0.03665005 14
0.38805649 1.9315053 -0.51763833 4
0.43686447 2.1724777 -0.50276589 13
0.42883688 2.1306334 -0.41463721 15
0.42692155 2.1192048 -0.33633435 16
0.4313176 2.1390984 -0.26323807 14
0.42832318 2.1223357 -0.1860778 15
0.4257721 2.1077979 -0.11032221 17
0.42565727 2.1053362 -0.036456663 13
0.4281314 2.1156721 0.5677377 14
0.42830884 2.1146505 0.48889863 15
0.42888582 2.1156013 0.41177732 14
0.42989174 2.1186643 0.33596343 15
0.42739001 2.10445 0.25897235 15
0.43327051 2.1314979 0.18694907 14
0.43070182 2.1169684 0.11121391 15
0.42660016 2.0949364 0.03665005 13
0.39479631 1.9301389 -0.51763833 3
0.44444513 2.1709394 -0.50276589 12
0.43627158 2.1291234 -0.41463721 15
0.43431634 2.1177018 -0.33633435 16
0.43977979 2.1424413 -0.26384741 15
0.43572891 2.1208274 -0.1860778 15
0.43312711 2.1062987 -0.11032221 17
0.43300369 2.1038375 -0.036456663 13
0.43551382 2.1141648 0.5677377 14
0.43568775 2.1131427 0.48889863 15
0.43626803 2.1140914 0.41177732 14
0.43728465 2.1171508 0.33596343 15
0.43473333 2.1029456 0.25897235 16
0.44070816 2.1299725 0.18694907 14
0.4380888 2.1154521 0.11121391 16
0.43391022 2.0934343 0.03665005 14
0.40153137 1.9287491 -0.51763833 4
0.45202044 2.1693747 -0.50276589 13
0.44470304 2.1323929 -0.41559041 15
0.44170582 2.1161728 -0.33633435 15
0.44725561 2.140893 -0.26384741 15
0.4431293 2.1192937 -0.1860778 15
0.4404768 2.104774 -0.11032221 16
0.44034481 2.1023133 -0.036456663 13
0.442891 2.1126318 0.5677377 14
0.44306132 2.111609 0.48889863 14
0.44263616 2.1077521 0.41082415 14
0.44467223 2.1156113 0.33596343 15
0.44309291 2.1062713 0.25958169 15
0.44814047 2.1284213 0.18694907 14
0.44547042 2.11391 0.11121391 15
0.44121504 2.091907 0.03665005 13
0.40826151 1.9273357 -0.51763833 4
0.45959023 2.1677837 -0.50276589 13
0.45214379 2.1308274 -0.41559041 15
0.44908997 2.1146181 -0.33633435 15
0.45472598 2.1393187 -0.26384741 14
0.45052433 2.117734 -0.1860778 15
0.448861 2.1081073 -0.11058301 16
0.44768059 2.1007633 -0.036456663 13
0.45026278 2.1110728 0.5677377 14
0.45042953 2.1100495 0.48889863 15
0.4499909 2.106194 0.41082415 14
0.45205435 2.1140463 0.33596343 16
0.45044249 2.1047118 0.25958169 15
0.45556733 2.1268439 0.18694907 14
0.45179999 2.1074598 0.11095222 15
0.44851446 2.0903542 0.03665005 14
0.4149867 1.9258989 -0.51763833 3
0.46715438 2.1661663 -0.50276589 13
0.45957899 2.1292362 -0.41559041 16
0.45646861 2.1130376 -0.33633435 15
0.46219084 2.1377184 -0.26384741 15
0.45791385 2.1161485 -0.1860778 15
0.45621693 2.1065278 -0.11058301 16
0.45501086 2.0991879 -0.036456663 13
0.45762902 2.1094882 0.5677377 15
0.45779222 2.1084642 0.48889863 14
0.45734015 2.1046104 0.41082415 14
0.45943099 2.1124554 0.33596343 15
0.45778653 2.1031265 0.25958169 15
0.46298862 2.1252408 0.18694907 13
0.45915365 2.1058698 0.11095222 15
0.45580843 2.0887756 0.03665005 13
0.42204267 1.9243649 -0.51763833 4
0.47509065 2.1644397 -0.50276589 13
0.46737996 2.1275375 -0.41559041 16
0.46421024 2.1113503 -0.33633435 15
0.47002286 2.1360099 -0.26384741 14
0.4667381 2.1193202 -0.18651357 15
0.46393469 2.1048415 -0.11058301 17
0.46270174 2.097506 -0.036456663 13
0.46535763 2.1077969 0.5677377 15
0.46551707 2.1067722 0.48889863 15
0.46505085 2.1029201 0.41082415 14
0.46823773 2.1155796 0.33674476 15
0.4654918 2.1014347 0.25958169 15
0.47077489 2.1235294 0.18694907 14
0.46686894 2.1041727 0.11095222 16
0.46346113 2.0870912 0.03665005 14
0.4277063 1.9181662 -0.51634425 4
0.48264307 2.1627679 -0.50276589 13
0.4748036 2.1258931 -0.41559041 15
0.47157741 2.1097171 -0.33633435 15
0.47747606 2.1343565 -0.26384741 15
0.47304481 2.1128175 -0.1860778 15
0.47127914 2.1032093 -0.11058301 16
0.47111458 2.1007564 -0.036543053 13
0.47271237 2.1061597 0.5677377 14
0.47286823 2.1051345 0.48889863 15
0.47238857 2.101284 0.41082415 14
0.47561964 2.1139321 0.33674476 15
0.47282434 2.099797 0.25958169 15
0.47818455 2.1218731 0.18694907 15
0.47421107 2.1025302 0.11095222 15
0.47075009 2.0854592 0.03665005 14
0.43439934 1.9166615 -0.51634425 4
0.49018961 2.1610701 -0.50276589 12
0.48222145 2.1242228 -0.41559041 15
0.47893882 2.1080582 -0.33633435 16
0.48492345 2.1326766 -0.26384741 14
0.48041704 2.1111534 -0.1860778 15
0.47861785 2.1015513 -0.11058301 16
0.47844473 2.0990992 -0.036543053 13
0.48006135 2.1044967 0.5677377 14
0.48021364 2.103471 0.48889863 15
0.47972056 2.0996222 0.41082415 14
0.48299572 2.1122591 0.33674476 15
0.48015112 2.0981336 0.25958169 15
0.48558834 2.1201913 0.18694907 14
0.48154736 2.1008623 0.11095222 14
0.47802034 2.0838046 0.03665005 14
0.44217107 1.9198399 -0.51763833 4
0.49882448 2.1640935 -0.50389069 12
0.48963344 2.1225266 -0.41559041 15
0.48629436 2.1063733 -0.33633435 15
0.49236494 2.130971 -0.26384741 14
0.48778343 2.1094635 -0.1860778 15
0.48482493 2.0950031 -0.11032221 16
0.485769 2.0974162 -0.036543053 12
0.4874045 2.1028082 0.5677377 15
0.48755318 2.1017818 0.48889863 15
0.48704669 2.097935 0.41082415 14
0.49036595 2.1105602 0.33674476 15
0.48747203 2.0964448 0.25958169 15
0.49298626 2.1184833 0.18694907 14
0.4888778 2.0991685 0.11095222 15
0.48529124 2.0821233 0.03665005 13
0.44886985 1.9182848 -0.51763833 4
0.50637555 2.162339 -0.50389069 12
0.49703947 2.1208043 -0.41559041 15
0.49364403 2.1046631 -0.33633435 16
0.49980038 2.1292393 -0.26384741 14
0.49514386 2.107748 -0.1860778 15
0.4921349 2.0932982 -0.11032221 16
0.49308741 2.0957077 -0.036543053 13
0.49474171 2.1010938 0.5677377 14
0.49600437 2.1048098 0.49002257 15
0.49549356 2.1009994 0.41177732 14
0.4977302 2.1088357 0.33674476 16
0.49478707 2.0947304 0.25958169 15
0.50037813 2.1167495 0.18694907 14
0.49620229 2.0974493 0.11095222 16
0.49255627 2.0804167 0.03665005 14
0.45556319 1.9167062 -0.51763833 4
0.51392043 2.1605582 -0.50389069 12
0.50443941 2.1190565 -0.41559041 16
0.50098765 2.1029272 -0.33633435 15
0.5072298 2.1274817 -0.26384741 14
0.50249827 2.1060066 -0.1860778 15
0.49943888 2.0915675 -0.11032221 16
0.49923778 2.0891113 -0.036456663 13
0.50207287 2.099354 0.5677377 15
0.50334853 2.1030655 0.49002257 15
0.50282437 2.099257 0.41177732 15
0.50508839 2.1070855 0.33674476 15
0.502096 2.0929906 0.25958169 15
0.50776392 2.11499 0.18694907 14
0.50468725 2.1005595 0.11121391 15
0.49981529 2.0786846 0.03665005 14
0.46225098 1.9151043 -0.51763833 4
0.52145904 2.1587512 -0.50389069 11
0.51183319 2.1172829 -0.41559041 15
0.50832522 2.1011655 -0.33633435 15
0.5158208 2.1305215 -0.26445675 15
0.50984651 2.1042399 -0.1860778 15
0.50673676 2.0898113 -0.11032221 16
0.50652713 2.0873559 -0.036456663 12
0.50939792 2.0975888 0.5677377 14
0.51068652 2.1012957 0.49002257 15
0.51014906 2.0974889 0.41177732 14
0.51244038 2.1053095 0.33674476 15
0.50939882 2.0912251 0.25958169 15
0.51514351 2.1132047 0.18694907 14
0.51201648 2.0987849 0.11121391 15
0.50706822 2.0769274 0.03665005 14
0.47008264 1.9181697 -0.5189324 4
0.52899128 2.1569178 -0.50389069 11
0.51922077 2.1154833 -0.41559041 16
0.51683456 2.1041744 -0.33711654 16
0.52325457 2.1287079 -0.26445675 15
0.51718861 2.1024473 -0.1860778 15
0.51402849 2.0880299 -0.11032221 16
0.51381028 2.0855751 -0.036456663 13
0.51671678 2.0957978 0.5677377 14
0.51918536 2.1042302 0.49114645 14
0.51746756 2.0956955 0.41177732 14
0.51978618 2.103508 0.33674476 15
0.5166955 2.0894344 0.25958169 16
0.52251685 2.1113937 0.18694907 14
0.51933944 2.0969849 0.11121391 15
0.51551759 2.0799971 0.036737315 14
0.47677547 1.9165171 -0.5189324 4
0.53769404 2.1597855 -0.50501537 11
0.52660203 2.113658 -0.41559041 15
0.52417636 2.1023574 -0.33711654 15
0.53068191 2.1268685 -0.26445675 14
0.52573103 2.1054618 -0.18651357 15
0.52131397 2.0862229 -0.11032221 17
0.5223 2.088619 -0.036543053 13
0.52402931 2.0939815 0.5677377 14
0.52652735 2.1024051 0.49114645 14
0.5247798 2.0938764 0.41177732 14
0.5271256 2.1016808 0.33674476 15
0.5239858 2.0876181 0.25958169 15
0.52988374 2.1095569 0.18694907 14
0.52665615 2.0951593 0.11121391 15
0.52277499 2.0781848 0.036737315 13
0.48346245 1.9148413 -0.5189324 4
0.54522979 2.1578953 -0.50501537 10
0.53397691 2.1118069 -0.41559041 15
0.53151178 2.1005149 -0.33711654 15
0.53810287 2.1250031 -0.26445675 14
0.53307724 2.1036136 -0.18651357 15
0.528593 2.0843904 -0.11032221 16
0.52958745 2.0867829 -0.036543053 12
0.53133553 2.0921395 0.5677377 14
0.53386289 2.1005545 0.49114645 15
0.53208554 2.0920317 0.41177732 14
0.53445864 2.0998278 0.33674476 16
0.53126979 2.0857763 0.25958169 15
0.53724426 2.1076944 0.18694907 15
0.53396642 2.0933082 0.11121391 15
0.53002602 2.0763474 0.036737315 14
0.49014354 1.9131421 -0.5189324 3
0.55275893 2.1559789 -0.50501537 11
0.54256499 2.1146841 -0.41654357 15
0.53884071 2.0986469 -0.33711654 16
0.54551721 2.123112 -0.26445675 14
0.54041696 2.1017401 -0.18651357 15
0.53586572 2.0825326 -0.11032221 16
0.53686845 2.0849218 -0.036543053 13
0.53863519 2.0902719 0.5677377 14
0.54119194 2.0986781 0.49114645 15
0.53938484 2.0901618 0.41177732 14
0.54178512 2.0979495 0.33674476 15
0.53978902 2.0887141 0.26019105 15
0.54459822 2.1058061 0.18694907 14
0.5412702 2.0914314 0.11121391 15
0.53727055 2.0744846 0.036737315 14
0.49681869 1.9114194 -0.5189324 4
0.5602814 2.1540363 -0.50501537 11
0.54994327 2.1127775 -0.41654357 15
0.54616308 2.0967531 -0.33711654 16
0.55292499 2.1211948 -0.26445675 14
0.54775017 2.0998409 -0.18651357 15
0.54313183 2.0806494 -0.11032221 16
0.5454064 2.0878718 -0.036629442 12
0.54592836 2.0883791 0.5677377 15
0.54851437 2.0967762 0.49114645 15
0.54667765 2.0882661 0.41177732 15
0.54910505 2.0960455 0.33674476 15
0.5470767 2.086817 0.26019105 16
0.55320948 2.1087101 0.18738484 14
0.54856735 2.0895293 0.11121391 15
0.54450864 2.0725965 0.036737315 13
0.50348771 1.9096736 -0.5189324 4
0.56779695 2.1520674 -0.50501537 11
0.55731493 2.1108449 -0.41654357 15
0.55347878 2.0948339 -0.33711654 15
0.56032592 2.1192517 -0.26445675 14
0.5550766 2.0979161 -0.18651357 15
0.55166936 2.0835676 -0.11058301 17
0.55269116 2.0859551 -0.036629442 13
0.55445266 2.0911293 0.569031 14
0.55583012 2.0948486 0.49114645 14
0.55396372 2.0863452 0.41177732 15
0.55768645 2.0988889 0.33752605 16
0.55435777 2.0848947 0.26019105 16
0.56056684 2.1067662 0.18738484 14
0.55585784 2.0876019 0.11121391 15
0.55174005 2.0706832 0.036737315 14
0.51015067 1.9079044 -0.5189324 4
0.57530558 2.1500723 -0.50501537 11
0.5646798 2.1088867 -0.41654357 15
0.56206584 2.0976593 -0.3378987 15
0.56772006 2.1172829 -0.26445675 14
0.56239635 2.0959656 -0.18651357 15
0.55893904 2.0816293 -0.11058301 16
0.55996913 2.0840132 -0.036629442 13
0.56174868 2.0891812 0.569031 14
0.56313914 2.0928957 0.49114645 14
0.56124306 2.0843987 0.41177732 14
0.56500947 2.0969293 0.33752605 15
0.56163198 2.082947 0.26019105 15
0.56791741 2.1047964 0.18738484 14
0.56314147 2.0856488 0.11121391 15
0.55896467 2.0687447 0.036737315 13
0.51647466 1.9062023 -0.5189324 4
0.58205736 2.1482544 -0.50501537 10
0.57130224 2.1071024 -0.41654357 15
0.56865311 2.0958831 -0.3378987 15
0.57436889 2.115489 -0.26445675 14
0.56897819 2.0941887 -0.18651357 15
0.56547588 2.0798631 -0.11058301 16
0.56651348 2.0822439 -0.036629442 13
0.56830925 2.0874062 0.569031 14
0.56971139 2.0911162 0.49114645 15
0.56778854 2.0826254 0.41177732 14
0.57159442 2.0951438 0.33752605 15
0.56817299 2.0811722 0.26019105 16
0.57452708 2.1030021 0.18738484 14
0.569691 2.0838692 0.11121391 15
0.5654611 2.0669785 0.036737315 14
0.52151459 1.8998218 -0.51763833 4
0.5895527 2.1462097 -0.50501537 10
0.57865393 2.1050951 -0.41654357 15
0.57596558 2.0938854 -0.3378987 15
0.58174986 2.113471 -0.26445675 14
0.57628483 2.0921896 -0.18651357 16
0.57273251 2.0778763 -0.11058301 17
0.57377839 2.0802536 -0.036629442 13
0.57559216 2.0854096 0.569031 15
0.57700723 2.0891149 0.49114645 15
0.57505482 2.0806305 0.41177732 14
0.57890439 2.0931361 0.33752605 15
0.57543415 2.0791764 0.26019105 15
0.58186442 2.1009839 0.18738484 14
0.57829505 2.0866797 0.11147558 15
0.5740087 2.0698094 0.036824573 14
0.52880555 1.8978053 -0.51763833 4
0.59778911 2.1439302 -0.50501537 9
0.58673257 2.1028578 -0.41654357 15
0.58400124 2.0916584 -0.3378987 16
0.58986068 2.1112218 -0.26445675 14
0.58431399 2.0899615 -0.18651357 15
0.58070672 2.0756619 -0.11058301 16
0.58176178 2.0780351 -0.036629442 13
0.58489823 2.0878351 0.57032424 14
0.58502465 2.0868838 0.49114645 14
0.58303964 2.0784073 0.41177732 14
0.58693713 2.0908978 0.33752605 15
0.58341342 2.0769515 0.26019105 15
0.58992732 2.0987341 0.18738484 14
0.586303 2.0844438 0.11147558 15
0.58195198 2.06759 0.036824573 14
0.53542691 1.8959478 -0.51763833 4
0.60526925 2.1418302 -0.50501537 9
0.59406936 2.1007969 -0.41654357 15
0.59129894 2.0896072 -0.3378987 15
0.59722662 2.1091499 -0.26445675 14
0.59160572 2.0879092 -0.18651357 15
0.58931065 2.0784264 -0.11084383 16
0.58901191 2.0759919 -0.036629442 12
0.59218258 2.0857806 0.57032424 14
0.59230566 2.0848291 0.49114645 15
0.59163326 2.0810807 0.41273054 15
0.59423214 2.0888362 0.33752605 15
0.59065974 2.0749023 0.26019105 16
0.59724963 2.096662 0.18738484 15
0.59357554 2.0823846 0.11147558 15
0.58917201 2.0655444 0.036824573 14
0.54204178 1.8940674 -0.51763833 4
0.61274189 2.1397045 -0.50501537 9
0.60139889 2.0987103 -0.41654357 15
0.59858942 2.0875304 -0.3378987 15
0.60595405 2.1118226 -0.26506612 14
0.5988903 2.0858314 -0.18651357 15
0.59656215 2.0763564 -0.11084383 17
0.59625489 2.0739231 -0.036629442 13
0.59945971 2.0837007 0.57032424 14
0.59957945 2.0827489 0.49114645 15
0.598894 2.0790029 0.41273054 14
0.60151994 2.0867491 0.33752605 15
0.59927428 2.0775962 0.26080036 16
0.60456473 2.0945644 0.18738484 15
0.60084081 2.0802999 0.11147558 15
0.59637213 2.063477 0.036824573 13
0.54864997 1.8921638 -0.51763833 4
0.62020713 2.1375525 -0.50501537 9
0.60872114 2.0965984 -0.41654357 15
0.60587263 2.0854282 -0.3378987 15
0.61332196 2.1096945 -0.26506612 14
0.60616761 2.0837281 -0.18651357 14
0.60380638 2.0742614 -0.11084383 16
0.60349053 2.0718291 -0.036629442 13
0.60808104 2.0862324 0.57161748 14
0.60684592 2.0806432 0.49114645 15
0.60614741 2.0768998 0.41273054 14
0.60880041 2.0846367 0.33752605 15
0.6065228 2.0754917 0.26080036 15
0.6132704 2.0972221 0.18782063 14
0.60809869 2.0781898 0.11147558 15
0.60357141 2.0613828 0.036824573 14
0.55389029 1.8856032 -0.51634425 4
0.6276648 2.1353745 -0.50501537 10
0.61742085 2.0991697 -0.4174968 15
0.61314851 2.0833006 -0.3378987 15
0.62068248 2.1075406 -0.26506612 14
0.61484545 2.0863774 -0.18694936 15
0.61104321 2.0721412 -0.11084383 17
0.61213386 2.0745049 -0.036715835 13
0.61535966 2.0840971 0.57161748 15
0.61410505 2.0785122 0.49114645 14
0.61339343 2.0747712 0.41273054 14
0.61747438 2.0872347 0.33830738 15
0.61376393 2.0733619 0.26080036 15
0.62058735 2.0950687 0.18782063 13
0.61534923 2.0760543 0.11147558 15
0.61076331 2.0592632 0.036824573 13
0.56046891 1.8836583 -0.51634425 4
0.63511479 2.1331706 -0.50501537 10
0.62474459 2.0970018 -0.4174968 15
0.62182766 2.0858803 -0.33868089 15
0.62945402 2.1101172 -0.26567549 14
0.62212449 2.0842185 -0.18694936 15
0.61970156 2.07478 -0.11110463 17
0.61937147 2.0723555 -0.036715835 13
0.62263077 2.0819366 0.57161748 14
0.6227535 2.0810235 0.49227038 15
0.62063205 2.0726173 0.41273054 14
0.62475646 2.0850666 0.33830738 15
0.62099755 2.0712068 0.26080036 16
0.62932801 2.0976603 0.1882564 15
0.62402797 2.0786762 0.11173727 15
0.61938608 2.0619068 0.036911838 13
0.56704074 1.8816904 -0.51634425 3
0.64255714 2.1309407 -0.50501537 10
0.63347852 2.0995073 -0.41844994 16
0.62910497 2.0836971 -0.33868089 15
0.63681585 2.1079071 -0.26567549 14
0.63083726 2.0868018 -0.18738513 15
0.62694013 2.0726039 -0.11110463 17
0.62660152 2.0701809 -0.036715835 13
0.62989426 2.0797505 0.57161748 14
0.63001376 2.0788372 0.49227038 15
0.62786305 2.0704381 0.41273054 14
0.63346487 2.0875988 0.33908868 16
0.62822366 2.0690265 0.26080036 16
0.63664639 2.0954509 0.1882564 15
0.63128012 2.0764852 0.11173727 16
0.6265797 2.0597322 0.036911838 14
0.57219595 1.8750802 -0.51505011 3
0.64999157 2.1286848 -0.50501537 10
0.64223754 2.1019773 -0.41940317 15
0.63637465 2.0814884 -0.33868089 15
0.64562172 2.1104169 -0.26628482 15
0.64103371 2.0941129 -0.18825668 16
0.63563341 2.0751772 -0.11136544 16
0.63528895 2.0727608 -0.036802221 13
0.6385662 2.0821564 0.57291073 14
0.63869578 2.0812831 0.49339426 15
0.63652712 2.0729258 0.41368371 14
0.64219862 2.0900958 0.33987001 16
0.63690048 2.0715644 0.26140973 15
0.64688629 2.1027374 0.18912795 14
0.63999361 2.0790412 0.11199894 15
0.63818049 2.0718653 0.037173621 14
0.58016342 1.8776858 -0.51634425 4
0.65741813 2.1264029 -0.50501537 9
0.65102148 2.1044118 -0.42035633 16
0.64509672 2.0839717 -0.33946306 15
0.65592116 2.1176314 -0.2675035 15
0.65128869 2.1013777 -0.18912823 18
0.64583135 2.082484 -0.11188706 17
0.64548361 2.0800798 -0.036975004 13
0.64869499 2.0891399 0.57549721 14
0.648848 2.088346 0.49564207 15
0.6466735 2.0800657 0.41559011 15
0.65242445 2.0972726 0.3414326 26
0.64707768 2.0788059 0.26262844 16
0.65570343 2.1052225 0.18956374 18
0.65170395 2.0910959 0.11278398 16
0.65136212 2.0887156 0.03752267 26
0.58671427 1.8756492 -0.51634425 4
0.66483665 2.1240952 -0.50501537 9
0.6612972 2.1114941 -0.4222627 17
0.65384406 2.0864198 -0.34024525 16
0.66479409 2.1200645 -0.26811287 23
0.66160238 2.108597 -0.18999982 29
0.65608793 2.089745 -0.11240868 24
0.6572355 2.0921223 -0.037234176 29
0.66032845 2.1006856 0.579377 26
0.65905738 2.0953636 0.49788988 28
0.65835077 2.0918412 0.41844967 28
0.6627081 2.1044037 0.34299523 22
0.65880454 2.0907342 0.26445645 32
0.6660437 2.1124215 0.19043529 29
0.66200382 2.0983317 0.11330734 30
0.66466892 2.1054983 0.037871718 71
0.59471583 1.8781942 -0.51763833 4
0.67077565 2.1171174 -0.50389069 7
0.670147 2.1138518 -0.42321593 17
0.66709596 2.1029537 -0.34337392 19
0.67519319 2.1271913 -0.26933157 25
0.67197418 2.1157694 -0.19087137 33
0.66791534 2.1017179 -0.1131911 27
0.67059416 2.1088722 -0.037579738 29
0.67351496 2.1167779 0.58455002 27
0.66932362 2.1023352 0.50013769 27
0.66862833 2.0988839 0.42035604 26
0.67304945 2.1114881 0.34455785 35
0.67062265 2.1026061 0.2662845 29
0.67644215 2.1195741 0.19130686 31
0.67236215 2.1055212 0.1138307 33
0.67810088 2.1222138 0.038220771 79
0.60274231 1.8807058 -0.5189324 4
0.67816168 2.114763 -0.50389069 6
0.68052089 2.1208467 -0.42512229 21
0.67896163 2.1147187 -0.34572047 18
0.68565017 2.1342711 -0.27055025 36
0.6824041 2.1228945 -0.19174294 39
0.67830545 2.1088805 -0.11371273 32
0.68254614 2.1207952 -0.03783891 37
0.68534118 2.128206 0.58842975 37
0.67964643 2.1092603 0.5023855 37
0.68046921 2.1105516 0.42321563 36
0.68344843 2.1185257 0.34612048 36
0.68100697 2.1096978 0.2675032 38
0.68689853 2.1266797 0.19217841 48
0.68431425 2.1174147 0.11461575 39
0.6839664 2.1150768 0.038133506 38
0.61079365 1.8831847 -0.52022654 4
0.68553942 2.1123829 -0.50389069 6
0.68943578 2.1231267 -0.42607546 16
0.69091737 2.1264257 -0.34806696 20
0.69616485 2.141304 -0.27176896 39
0.69135112 2.1252365 -0.19217871 39
0.6887536 2.1159959 -0.11423435 40
0.68839681 2.1136463 -0.037752517 42
0.69126928 2.1212087 0.58713651 37
0.69002587 2.1161392 0.50463331 39
0.68935472 2.1128297 0.4241688 37
0.69237202 2.1208224 0.3469018 38
0.68990809 2.1120255 0.26811254 40
0.69586539 2.1290035 0.1926142 45
0.69325328 2.1197591 0.11487742 42
0.69134521 2.1126766 0.038133506 39
0.61736345 1.881041 -0.52022654 4
0.69290888 2.109977 -0.50389069 5
0.69837493 2.1253703 -0.42702866 16
0.69679332 2.1193099 -0.34728479 21
0.70518589 2.143575 -0.27237827 44
0.6987654 2.1228101 -0.19217871 48
0.69769764 2.1183214 -0.11449515 43
0.69577056 2.1112304 -0.037752517 48
0.69715691 2.1141958 0.58584327 39
0.69893491 2.1183443 0.50575721 40
0.69826442 2.1150715 0.42512199 37
0.69977087 2.1183925 0.3469018 38
0.69727623 2.1096044 0.26811254 39
0.70329273 2.1265616 0.1926142 50
0.7022171 2.1220665 0.1151391 53
0.69714439 2.105505 0.038046245 43
0.62392569 1.8788747 -0.52022654 4
0.70180595 2.1121686 -0.50501537 5
0.70578957 2.1229196 -0.42702866 17
0.70418692 2.1168647 -0.34728479 26
0.71266413 2.1411004 -0.27237827 53
0.70459723 2.1156323 -0.19174294 42
0.70508772 2.1158731 -0.11449515 49
0.70313591 2.1087887 -0.037752517 50
0.70300412 2.107168 0.58455002 45
0.70632499 2.1158917 0.50575721 48
0.70408809 2.1079659 0.4241688 42
0.70559567 2.1112528 0.34612048 38
0.70306194 2.1024508 0.2675032 43
0.709131 2.11937 0.19217841 55
0.70803499 2.1148677 0.11487742 56
0.70290172 2.0983181 0.037958983 36
0.63048041 1.8766854 -0.52022654 4
0.70917451 2.1097059 -0.50501537 5
0.71319562 2.1204431 -0.42702866 16
0.7099967 2.1097133 -0.3465026 23
0.71854991 2.1338966 -0.27176896 35
0.71038747 2.1084394 -0.19130714 32
0.71087414 2.1086674 -0.11423435 39
0.71049267 2.1063216 -0.037752517 34
0.71035522 2.104701 0.58455002 37
0.71370661 2.1134133 0.50575721 38
0.71144199 2.1054952 0.4241688 33
0.71296102 2.108777 0.34612048 29
0.71039659 2.0999839 0.2675032 37
0.71652466 2.1168818 0.19217841 38
0.71541291 2.1123831 0.11487742 37
0.71022189 2.0958517 0.037958983 30
0.63547337 1.8699001 -0.5189324 4
0.71653444 2.1072178 -0.50501537 5
0.72059304 2.1179404 -0.42702866 15
0.71735662 2.1072221 -0.3465026 18
0.72599423 2.1313753 -0.27176896 28
0.71613616 2.1012323 -0.19087137 27
0.71661878 2.1014473 -0.11397354 32
0.7162264 2.0990973 -0.037666127 27
0.71613711 2.0976377 0.58325672 29
0.71950448 2.1062987 0.50463331 29
0.7171998 2.0983543 0.42321563 28
0.71871972 2.1016028 0.34533918 23
0.71772259 2.0974913 0.2675032 31
0.72390956 2.1143677 0.19217841 33
0.72278219 2.1098731 0.11487742 32
0.7159124 2.0886304 0.037871718 23
0.64356673 1.872238 -0.52022654 4
0.72388566 2.1047037 -0.50501537 5
0.72957879 2.1200535 -0.42798182 15
0.72470784 2.1047051 -0.3465026 20
0.73181307 2.1241357 -0.27115959 23
0.72346652 2.0987198 -0.19087137 24
0.72394979 2.098933 -0.11397354 25
0.72191828 2.0918586 -0.037579738 20
0.72187853 2.09056 0.58196354 21
0.72685248 2.1037743 0.50463331 25
0.72291636 2.0911992 0.4222624 21
0.72605127 2.099081 0.34533918 22
0.72341675 2.0902836 0.26689386 23
0.73128569 2.1118279 0.19217841 27
0.73014259 2.1073372 0.11487742 25
0.72319871 2.0861187 0.037871718 21
0.65168399 1.8745419 -0.52152056 4
0.73122799 2.102164 -0.50501537 5
0.73697472 2.1174939 -0.42798182 20
0.73367429 2.1068263 -0.34728479 20
0.73922324 2.1215684 -0.27115959 25
0.73078793 2.0961816 -0.19087137 25
0.72962749 2.0916786 -0.11371273 21
0.72921586 2.0893257 -0.037579738 25
0.72917157 2.0880272 0.58196354 19
0.7325846 2.0966251 0.5035094 22
0.73021162 2.0886631 0.4222624 24
0.733374 2.096534 0.34533918 22
0.73070878 2.0877457 0.26689386 22
0.73865288 2.1092625 0.19217841 29
0.73749411 2.1047757 0.11487742 28
0.73047626 2.0835817 0.037871718 24
0.65982521 1.876812 -0.52281469 4
0.73856145 2.0995986 -0.50501537 5
0.74599129 2.1195383 -0.42893505 18
0.74102402 2.1042526 -0.34728479 19
0.74662441 2.1189752 -0.27115959 21
0.73975664 2.0983155 -0.19130714 22
0.73692441 2.089119 -0.11371273 25
0.73484069 2.0820534 -0.037493344 18
0.73645568 2.0854695 0.58196354 21
0.73989868 2.0940549 0.5035094 22
0.73913395 2.090729 0.42321563 19
0.74068779 2.0939612 0.34533918 20
0.73799187 2.0851822 0.26689386 22
0.74601114 2.1066711 0.19217841 23
0.74483669 2.1021886 0.11487742 23
0.73941535 2.0857313 0.037958983 20
0.6728434 1.8927 -0.52799106 4
0.74588597 2.097008 -0.50501537 5
0.75338525 2.1169214 -0.42893505 24
0.75002128 2.1063051 -0.34806696 21
0.75401646 2.1163561 -0.27115959 25
0.74874914 2.1004124 -0.19174294 25
0.74588972 2.0912368 -0.11397354 21
0.74210399 2.0794756 -0.037493344 24
0.74535489 2.0874343 0.58325672 20
0.74720377 2.0914598 0.5035094 21
0.74642748 2.0881362 0.42321563 21
0.7496556 2.0960131 0.34612048 23
0.74693817 2.087266 0.2675032 22
0.75336021 2.1040542 0.19217841 27
0.75385416 2.1042764 0.1151391 26
0.74669141 2.0831375 0.037958983 22
