# .PCD v0.7 - Point Cloud Data file format
VERSION 0.7
FIELDS x y z intensity
SIZE 4 4 4 4
TYPE F F F F
COUNT 1 1 1 1
WIDTH 1331
HEIGHT 1
VIEWPOINT 0 0 0 1 0 0 0
POINTS 1331
DATA ascii
0.89079607 -2.0874324 -0.51513821 4
0.90468454 -2.1210032 -0.4403733 11
0.89621794 -2.10217 -0.35588869 11
0.90212899 -2.117059 -0.27786243 20
0.89916366 -2.1111219 -0.19740805 18
0.89118451 -2.093401 -0.11684243 17
0.89188212 -2.096055 -0.038702808 18
0.89016891 -2.0930424 0.5987758 17
0.89172775 -2.0977244 0.51699626 18
0.89020586 -2.0951595 0.43465388 17
0.89137566 -2.0989308 0.3547149 18
0.8875376 -2.0909073 0.27420601 17
0.89621508 -2.1123753 0.19740775 22
0.89020193 -2.0992212 0.11749421 18
0.88895196 -2.0972919 0.03909339 17
0.77288985 -1.8279061 -0.52152056 4
0.88350415 -2.0905292 -0.51513821 4
0.90109527 -2.1331911 -0.44227967 11
0.89463723 -2.1189344 -0.35823521 10
0.89859259 -2.1293397 -0.27908111 20
0.89566058 -2.1234264 -0.1982796 19
0.88775116 -2.105701 -0.11736406 17
0.88844275 -2.1083694 -0.038875591 19
0.88660681 -2.1050391 0.60136229 18
0.89007092 -2.1142952 0.52036798 20
0.88669419 -2.1073027 0.43656024 16
0.88978744 -2.1156867 0.35705879 17
0.8860029 -2.1077175 0.27603403 18
0.89269489 -2.124675 0.19827931 22
0.88866889 -2.116127 0.11827926 19
0.88549536 -2.1096015 0.039267913 16
0.7646392 -1.826138 -0.52022654 3
0.87620139 -2.0936003 -0.51513821 4
0.89743173 -2.1453795 -0.44418606 11
0.89104521 -2.1311567 -0.35979956 10
0.89689499 -2.1462004 -0.28090915 18
0.89208257 -2.1357324 -0.19915117 18
0.88616651 -2.1226103 -0.11814647 18
0.88685328 -2.1252985 -0.039134759 17
0.88297194 -2.1170366 0.60394883 17
0.88643456 -2.1263833 0.52261579 19
0.88499641 -2.1239772 0.43941984 17
0.88619417 -2.1278977 0.35862142 18
0.88245445 -2.1199605 0.27725273 17
0.89101303 -2.1415746 0.19958664 22
0.88511121 -2.1284368 0.11880261 18
0.88388228 -2.1265285 0.039529696 15
0.75826013 -1.828796 -0.52022654 3
0.86702275 -2.0921452 -0.51401347 4
0.89557248 -2.1621032 -0.44704565 11
0.88926792 -2.1479428 -0.36214611 10
0.89698809 -2.1676605 -0.28334656 22
0.88842946 -2.1480389 -0.20002273 17
0.88447464 -2.139534 -0.11892891 16
0.88324744 -2.1376221 -0.039307538 19
0.88110751 -2.133498 0.60782856 17
0.88272458 -2.1384716 0.5248636 19
0.88132095 -2.1361279 0.4413262 17
0.88252658 -2.1401095 0.36018407 18
0.88072252 -2.1367929 0.27908078 17
0.88732678 -2.153883 0.20045821 21
0.88337958 -2.1453645 0.11958765 19
0.88025928 -2.1388469 0.039704222 16
0.75187188 -1.8314316 -0.52022654 4
0.8615641 -2.0996664 -0.51513821 4
0.89174491 -2.1742985 -0.44895202 10
0.88551098 -2.1601725 -0.36371043 11
0.89506066 -2.1845548 -0.28517458 19
0.88470131 -2.1603458 -0.20089431 17
0.8807838 -2.1518505 -0.11945052 17
0.88145924 -2.1545732 -0.039566711 17
0.87731099 -2.1455019 0.61041504 17
0.88078421 -2.1550694 0.52823532 18
0.8775714 -2.148279 0.44323257 16
0.88065112 -2.1568935 0.362528 16
0.87700856 -2.1490438 0.28029948 17
0.88544649 -2.1708033 0.20176555 20
0.88154054 -2.1623061 0.1203727 18
0.87844735 -2.1557956 0.03996601 16
0.7454744 -1.8340451 -0.52022654 3
0.85422963 -2.1026609 -0.51513821 3
0.88968951 -2.191041 -0.45181155 11
0.88167953 -2.1724024 -0.36527479 10
0.89302617 -2.2014623 -0.28700262 18
0.88276953 -2.1772687 -0.20220163 17
0.87889308 -2.1687949 -0.12023295 17
0.87956345 -2.1715379 -0.039825883 17
0.87525368 -2.1619818 0.61429483 16
0.8769111 -2.1671634 0.53048313 17
0.87374759 -2.1604297 0.44513896 15
0.87681848 -2.1691115 0.36409062 16
0.87507892 -2.1658962 0.28212753 17
0.88159382 -2.1831181 0.20263711 20
0.87772506 -2.1746309 0.12089606 18
0.87652797 -2.1727574 0.040227797 16
0.74087077 -1.8411164 -0.52152056 3
0.84688485 -2.1056299 -0.51513821 3
0.8875283 -2.2077959 -0.45467114 10
0.87777346 -2.1846316 -0.36683914 10
0.88903511 -2.2137766 -0.28822133 17
0.8788749 -2.1895819 -0.20307319 17
0.87503558 -2.181118 -0.12075458 17
0.87569928 -2.1838751 -0.039998662 16
0.87129521 -2.1739905 0.61688131 16
0.87296438 -2.1792567 0.53273094 18
0.87167406 -2.1771362 0.44799849 17
0.87474602 -2.1859143 0.36643454 16
0.87119925 -2.1781533 0.28334624 16
0.87766588 -2.1954322 0.20350866 20
0.87568682 -2.1915913 0.1216811 17
0.87264645 -2.1850891 0.040402319 16
0.73622686 -1.848178 -0.52281469 3
0.84133166 -2.1130993 -0.51626295 3
0.8834458 -2.2200012 -0.45657751 11
0.8756178 -2.2014484 -0.36918563 10
0.88680214 -2.2307014 -0.29004934 17
0.87674439 -2.2065234 -0.20438054 18
0.87294567 -2.198081 -0.12153699 15
0.87360388 -2.2008581 -0.04025783 16
0.86904454 -2.1904867 0.62076104 17
0.86894387 -2.1913486 0.53497875 19
0.86768609 -2.1892917 0.44990486 15
0.87256682 -2.2027287 0.36877847 16
0.86724454 -2.1904094 0.28456491 17
0.87549549 -2.2123768 0.20481598 21
0.8717044 -2.2039211 0.12220446 18
0.87052751 -2.2020693 0.040664103 15
0.72977102 -1.8507367 -0.52281469 3
0.83573687 -2.1205561 -0.51738775 3
0.8810879 -2.2367718 -0.45943707 10
0.87154621 -2.2136817 -0.37074998 9
0.88264465 -2.2430196 -0.29126805 17
0.87450612 -2.2234764 -0.20568787 16
0.86892116 -2.2104087 -0.12205861 16
0.86957246 -2.2132001 -0.040430613 16
0.86492395 -2.2024982 0.62334752 16
0.86662954 -2.207974 0.53835046 19
0.86541635 -2.2060151 0.45276445 15
0.86847806 -2.2149568 0.37034109 16
0.86502558 -2.2072849 0.28639293 17
0.87140071 -2.2246952 0.20568755 20
0.8676464 -2.2162495 0.12272782 17
0.86647886 -2.2144055 0.040838629 15
0.72506219 -1.8577719 -0.52410877 3
0.82832968 -2.1234603 -0.51738775 3
0.87862366 -2.2535529 -0.46229663 10
0.86919302 -2.2305148 -0.3730965 10
0.88021296 -2.2599599 -0.2930961 17
0.87216014 -2.2404404 -0.20699522 17
0.86482114 -2.2227352 -0.12258023 16
0.86546552 -2.2255409 -0.040603392 15
0.86247981 -2.2190094 0.62722731 15
0.86244541 -2.2200685 0.54059827 17
0.86126375 -2.2181735 0.45467082 15
0.86610138 -2.231787 0.37268505 16
0.86090481 -2.2195449 0.28761163 16
0.86903119 -2.2416563 0.20699489 20
0.86351305 -2.2285764 0.12325118 18
0.86416012 -2.2314024 0.041100416 14
0.71857297 -1.8602915 -0.52410877 3
0.82091236 -2.1263387 -0.51738775 3
0.87428582 -2.2657647 -0.46420303 10
0.86495584 -2.2427506 -0.37466085 10
0.87588876 -2.27228 -0.2943148 17
0.86970627 -2.2574151 -0.20830254 17
0.86243993 -2.2397196 -0.12336266 16
0.86307871 -2.2425454 -0.040862564 16
0.85819668 -2.2310219 0.62981385 16
0.8599357 -2.2367079 0.54396999 17
0.85879731 -2.2349112 0.45753035 15
0.86361754 -2.2486272 0.37502894 16
0.85848743 -2.2364359 0.28943968 16
0.8647694 -2.2539768 0.20786645 19
0.86109185 -2.2455633 0.12403621 18
0.85994405 -2.2437413 0.041274939 14
0.71207494 -1.8627884 -0.52410877 3
0.81348509 -2.1291914 -0.51738775 3
0.87162453 -2.2825587 -0.46706262 10
0.86240464 -2.2595975 -0.37700737 10
0.87325799 -2.2892337 -0.29614282 17
0.86714458 -2.2743998 -0.20960988 17
0.85817266 -2.2520483 -0.12388428 16
0.85880411 -2.2548881 -0.041035343 16
0.85555857 -2.2475457 0.63369364 15
0.85732043 -2.2533569 0.5473417 16
0.8562246 -2.2516592 0.46038994 14
0.8610267 -2.2654774 0.37737289 14
0.85420007 -2.2486975 0.29065838 16
0.86220014 -2.2709517 0.20917377 18
0.85679102 -2.2578921 0.12455957 17
0.85742515 -2.2607524 0.041536722 14
0.70556825 -1.8652626 -0.52410877 3
0.80604786 -2.1320181 -0.51738775 3
0.86885637 -2.2993615 -0.46992216 10
0.85974634 -2.276454 -0.37935388 10
0.87051952 -2.3061972 -0.29797086 17
0.86271662 -2.2867334 -0.21048145 16
0.8555913 -2.2690461 -0.1246667 15
0.85621691 -2.2719064 -0.041294511 15
0.85111296 -2.2595582 0.63628012 15
0.8545993 -2.2700148 0.55071342 16
0.85354525 -2.2684155 0.46324947 14
0.85659027 -2.2777143 0.37893552 15
0.85158378 -2.2656016 0.2924864 15
0.85952288 -2.2879357 0.21048112 18
0.85416985 -2.2748926 0.12534462 16
0.85304129 -2.2730925 0.041711248 15
0.6973601 -1.8631911 -0.52281469 3
0.79689372 -2.1302555 -0.51626295 3
0.8642627 -2.3115754 -0.47182852 10
0.85698086 -2.2933195 -0.38170043 10
0.86767322 -2.323169 -0.29979894 17
0.85995489 -2.30373 -0.21178877 16
0.85115647 -2.2813752 -0.12518832 15
0.85352135 -2.2889338 -0.041553684 15
0.84828055 -2.2760925 0.64015985 14
0.85177213 -2.2866807 0.55408514 15
0.85075927 -2.2851808 0.46610907 14
0.85380119 -2.2945759 0.38127947 15
0.84885973 -2.2825148 0.29431444 16
0.85673749 -2.3049288 0.21178845 18
0.8497014 -2.2872217 0.12586798 16
0.85032207 -2.2901165 0.041973036 15
0.69085205 -1.8656139 -0.52281469 3
0.78945291 -2.1330242 -0.51626295 3
0.86129719 -2.3283885 -0.47468811 10
0.85410798 -2.3101926 -0.38404691 10
0.86471885 -2.3401487 -0.30162695 17
0.85535949 -2.3160632 -0.21266034 16
0.8483749 -2.2983851 -0.12597075 14
0.85071725 -2.30597 -0.041812852 16
0.84534311 -2.2926347 0.64403963 14
0.8488391 -2.3033547 0.55745685 16
0.84786665 -2.301954 0.46896866 14
0.85090464 -2.311446 0.38362336 14
0.84602797 -2.2994363 0.29614249 16
0.85384393 -2.3219302 0.21309578 18
0.84687984 -2.3042333 0.126653 16
0.84749413 -2.3071485 0.042234819 15
0.68433565 -1.8680141 -0.52281469 3
0.78032744 -2.1311922 -0.51513821 3
0.85822463 -2.3452086 -0.47754765 10
0.85112774 -2.3270741 -0.38639346 10
0.86165661 -2.3571362 -0.30345502 17
0.85239756 -2.33307 -0.21396768 15
0.84548491 -2.3154035 -0.12675317 14
0.84780461 -2.3230143 -0.042072024 15
0.8423003 -2.3091836 0.64791936 15
0.84579986 -2.3200355 0.56082857 16
0.84486717 -2.3187346 0.47182819 13
0.84790069 -2.3283234 0.38596731 16
0.84308839 -2.316366 0.29797053 15
0.850842 -2.3389392 0.21440314 17
0.84394974 -2.3212535 0.12743805 16
0.8445577 -2.3241887 0.042496607 14
0.6761654 -1.8658509 -0.52152056 4
0.77122432 -2.1293223 -0.51401347 3
0.85504514 -2.362036 -0.48040724 9
0.84803993 -2.3439622 -0.38873994 10
0.85679859 -2.3694637 -0.3046737 17
0.84763443 -2.3454003 -0.21483923 16
0.84248644 -2.3324294 -0.1275356 13
0.84478325 -2.3400662 -0.0423312 15
0.83915234 -2.3257394 0.65179914 14
0.84265459 -2.3367233 0.56420028 15
0.84176087 -2.3355224 0.47468778 13
0.84478927 -2.3452079 0.38831124 14
0.8400408 -2.333303 0.29979858 15
0.84604532 -2.3512685 0.21527469 17
0.84091115 -2.3382812 0.12822309 15
0.84151256 -2.3412364 0.042758394 14
0.66997427 -1.8680829 -0.52152056 4
0.76453108 -2.1317346 -0.51401347 3
0.85258883 -2.3785715 -0.4832668 10
0.84400302 -2.3559132 -0.3903043 10
0.85436916 -2.3861604 -0.30650172 16
0.84529668 -2.3621206 -0.21614657 15
0.84019941 -2.3491693 -0.12831803 15
0.84247577 -2.3568311 -0.042590369 15
0.83671659 -2.3420091 0.65567887 14
0.84022439 -2.3531239 0.567572 15
0.83936864 -2.3520236 0.47754732 14
0.84239471 -2.361805 0.39065516 14
0.83770549 -2.3499541 0.30162659 16
0.84366947 -2.367991 0.21658202 17
0.84026098 -2.3597267 0.12926981 14
0.83918172 -2.3579979 0.043020178 13
0.66216052 -1.8657429 -0.52022654 4
0.75708526 -2.1343904 -0.51401347 3
0.847561 -2.3907857 -0.48517317 9
0.84072214 -2.3728096 -0.39265084 10
0.85100448 -2.4031625 -0.30832979 15
0.84203178 -2.3791437 -0.21745391 15
0.83698952 -2.36621 -0.12910046 14
0.83924288 -2.3738978 -0.042849541 14
0.83336353 -2.3585775 0.65955865 15
0.83687228 -2.3698246 0.57094371 16
0.83605427 -2.3688247 0.48040691 13
0.83907384 -2.3787029 0.39299908 15
0.83444774 -2.3669052 0.30345467 14
0.84036446 -2.3850152 0.21788937 16
0.83699441 -2.3767743 0.13005485 14
0.83592486 -2.3750603 0.043281965 13
0.65531778 -1.8681574 -0.52022654 4
0.7508691 -2.1417487 -0.51513821 4
0.8436619 -2.4077725 -0.48803276 9
0.83691639 -2.3898578 -0.39499733 10
0.84546959 -2.4156334 -0.30954847 15
0.83824009 -2.3963189 -0.21876125 15
0.83325481 -2.3834021 -0.12988289 14
0.83548343 -2.3911161 -0.043108709 13
0.82949042 -2.3752956 0.66343844 15
0.8329972 -2.3866756 0.57431537 15
0.8322162 -2.3857763 0.48326644 13
0.83522713 -2.3957524 0.39534304 13
0.83066565 -2.3840067 0.30528268 15
0.8365314 -2.4021907 0.21919669 17
0.8348425 -2.3986888 0.13110156 14
0.83214152 -2.3922729 0.043543749 12
0.64879268 -1.8704334 -0.52022654 4
0.74338847 -2.1443565 -0.51513821 4
0.84007269 -2.4246163 -0.49089235 10
0.833417 -2.4067643 -0.39734387 10
0.84190148 -2.4326394 -0.31137651 15
0.83475482 -2.413352 -0.22006857 15
0.82982427 -2.4004533 -0.1306653 13
0.83202946 -2.4081936 -0.043367881 13
0.82592332 -2.3918726 0.66731817 13
0.82942933 -2.4033854 0.57768714 15
0.82868451 -2.4025869 0.48612604 13
0.83168763 -2.4126601 0.39768693 13
0.82880497 -2.4056602 0.30772007 14
0.83462769 -2.4239347 0.2209398 16
0.83296359 -2.4204738 0.13214828 21
0.82866371 -2.4093456 0.04380554 12
0.64069289 -1.8681183 -0.5189324 3
0.73589873 -2.1469383 -0.51513821 3
0.83637619 -2.4414644 -0.49375188 10
0.83140928 -2.4283473 -0.40047255 10
0.83822501 -2.4496498 -0.31320456 15
0.83116102 -2.4303904 -0.22137593 14
0.82628489 -2.4175103 -0.13144773 13
0.8284663 -2.4252753 -0.04362705 14
0.82381099 -2.4130242 0.67249113 13
0.82732809 -2.42471 0.58218277 15
0.82504547 -2.4194019 0.48898563 12
0.82963359 -2.434247 0.40081221 13
0.825203 -2.4226317 0.30954811 14
0.83097714 -2.4409792 0.22224714 15
0.83094263 -2.4422748 0.133195 16
0.8266862 -2.4311559 0.044154584 12
0.63416803 -1.8703433 -0.5189324 3
0.72996354 -2.154108 -0.51626295 3
0.83257234 -2.4583156 -0.49661148 11
0.82767779 -2.4452684 -0.4028191 10
0.83443993 -2.4666641 -0.3150326 15
0.8274582 -2.4474325 -0.22268325 14
0.82263631 -2.4345708 -0.13223016 13
0.82479405 -2.4423623 -0.043886222 13
0.82001656 -2.4296138 0.67637092 13
0.82353091 -2.4414327 0.58555448 14
0.82129914 -2.4362204 0.49184516 14
0.82586193 -2.4511681 0.40315613 13
0.82149261 -2.4396069 0.31137615 15
0.82721764 -2.4580274 0.22355449 16
0.82877964 -2.4640913 0.13424173 16
0.82297349 -2.4482424 0.044416368 12
0.62763542 -1.8725455 -0.5189324 4
0.72243983 -2.1566429 -0.51626295 3
0.8271026 -2.4705157 -0.49851784 10
0.825405 -2.4668756 -0.40594777 9
0.83212018 -2.4883881 -0.31747001 15
0.82364655 -2.4644785 -0.2239906 14
0.81887883 -2.4516358 -0.13301259 13
0.82259548 -2.4641943 -0.04423178 13
0.81764477 -2.4507878 0.68154395 12
0.81962687 -2.458158 0.5889262 14
0.81744534 -2.4530423 0.49470475 12
0.82354265 -2.4727781 0.40628135 13
0.81924105 -2.4612949 0.31381357 14
0.82492149 -2.4798052 0.2252976 16
0.82647431 -2.4859219 0.13528845 16
0.81915158 -2.4653332 0.044678159 12
0.62109518 -1.874725 -0.5189324 4
0.71490735 -2.1591516 -0.51626295 3
0.82309967 -2.4873669 -0.5013774 8
0.82144082 -2.4838073 -0.40829429 9
0.82810122 -2.5054133 -0.31929803 15
0.82128823 -2.4862568 -0.22573371 14
0.81657726 -2.4734449 -0.13405582 13
0.81868809 -2.4812934 -0.044490952 14
0.81362253 -2.4673877 0.68542367 13
0.81714118 -2.4795132 0.59342182 14
0.81348401 -2.4698663 0.49756429 12
0.82108259 -2.4944017 0.4094066 13
0.81529707 -2.478282 0.31564158 14
0.8224833 -2.5015967 0.22704072 15
0.82246786 -2.5030222 0.13607349 16
0.8152203 -2.4824266 0.044939946 12
0.61454743 -1.8768816 -0.5189324 4
0.70736623 -2.1616337 -0.51626295 3
0.81746358 -2.4995556 -0.50328374 6
0.81736857 -2.5007422 -0.41064081 9
0.8239736 -2.5224409 -0.32112607 14
0.81724203 -2.5033138 -0.22704107 14
0.81258482 -2.4905214 -0.13483825 13
0.81467128 -2.498395 -0.04475012 12
0.81099075 -2.4885812 0.69059664 13
0.81300741 -2.4962482 0.59679353 13
0.80941522 -2.4866927 0.50042385 12
0.81848139 -2.5160379 0.41253185 11
0.81124449 -2.4952717 0.31746963 14
0.8199029 -2.5234013 0.22878383 22
0.81989425 -2.5248742 0.1371202 16
0.81272286 -2.5042775 0.045288995 11
0.60650533 -1.8744204 -0.51763833 4
0.69981635 -2.1640899 -0.51626295 3
0.81175232 -2.5117342 -0.50519013 5
0.81318796 -2.517678 -0.41298732 9
0.8212617 -2.5441928 -0.32356349 14
0.81461596 -2.5251129 -0.22878417 13
0.80848289 -2.5075994 -0.13562068 12
0.81207824 -2.5202565 -0.045095682 13
0.80674052 -2.5051892 0.69447643 13
0.80876672 -2.512984 0.60016519 13
0.80523878 -2.5035205 0.50328338 12
0.81573921 -2.5376861 0.41565707 17
0.80860108 -2.5169878 0.31990701 12
0.81718016 -2.5452178 0.23052694 15
0.81565243 -2.5419838 0.13790524 15
0.80855608 -2.5213807 0.045550779 12
0.59995872 -1.876526 -0.51763833 4
0.692258 -2.1665194 -0.51626295 3
0.80596602 -2.5239041 -0.50709653 4
0.80889899 -2.534615 -0.41533384 9
0.81689972 -2.5612283 -0.3253915 14
0.81184769 -2.5469239 -0.2305273 12
0.80578721 -2.5294366 -0.13666391 13
0.80782586 -2.5373671 -0.045354854 13
0.80384856 -2.5264001 0.69964945 12
0.80589545 -2.534364 0.60466087 14
0.80244124 -2.525027 0.50709617 12
0.81285572 -2.5593455 0.41878232 17
0.80431443 -2.5339854 0.32173505 13
0.81280899 -2.5622983 0.23183426 16
0.81130105 -2.5590944 0.13869028 15
0.80578971 -2.5432503 0.045899823 12
0.59195006 -1.8740034 -0.51634425 4
0.68469119 -2.1689227 -0.51626295 3
0.80158132 -2.5407445 -0.50995612 5
0.8059867 -2.556263 -0.41846254 8
0.8139205 -2.5829976 -0.32782891 14
0.81043303 -2.5734968 -0.23270617 16
0.80144989 -2.5465226 -0.13744634 12
0.80496371 -2.559247 -0.045700416 12
0.79936999 -2.5430133 0.70352924 12
0.8014245 -2.5511057 0.60803258 14
0.79803312 -2.5418618 0.50995576 10
0.80983102 -2.5810161 0.4219076 17
0.8014037 -2.5557189 0.32417244 12
0.80981803 -2.5841322 0.23357739 15
0.80684024 -2.5762057 0.13947532 15
0.80138713 -2.5603609 0.046161614 12
0.58396631 -1.871448 -0.51505011 3
0.6771161 -2.1712997 -0.51626295 3
0.79562849 -2.5528994 -0.51186246 5
0.80293304 -2.5779209 -0.42159122 9
0.80932403 -2.6000383 -0.32965693 13
0.80736315 -2.595335 -0.23444931 16
0.7984854 -2.568377 -0.13848959 11
0.8004753 -2.5763636 -0.045959584 13
0.79621732 -2.5642385 0.70870227 12
0.79829037 -2.5725002 0.6125282 12
0.79497105 -2.5633841 0.51376849 11
0.80666471 -2.6026959 0.42503282 17
0.79688281 -2.5727224 0.32600048 13
0.80521154 -2.6012177 0.23488472 15
0.80374545 -2.5980868 0.14052203 14
0.79835153 -2.5822473 0.046510659 11
0.57743019 -1.8734751 -0.51505011 4
0.66809863 -2.1689942 -0.51513821 3
0.78815639 -2.5603521 -0.51281571 4
0.79828584 -2.5948684 -0.42393777 9
0.80607688 -2.6218216 -0.33209434 14
0.80415052 -2.6171825 -0.23619244 16
0.79391223 -2.5854681 -0.139272 11
0.79734379 -2.5982592 -0.046305142 12
0.79292619 -2.5854726 0.71387523 12
0.79501659 -2.5939038 0.61702383 14
0.79176825 -2.5849156 0.51758122 10
0.80335695 -2.6243849 0.42815807 16
0.79370463 -2.594471 0.32843786 13
0.80195183 -2.6230659 0.23662783 16
0.79904866 -2.6152024 0.14130709 14
0.79517281 -2.6041436 0.046859708 11
0.56948066 -1.8708589 -0.51375604 3
0.66052336 -2.171313 -0.51513821 3
0.78064197 -2.5677838 -0.51376885 4
0.79496568 -2.61654 -0.42706645 9
0.80124569 -2.6388655 -0.33392239 13
0.80079526 -2.639039 -0.23793554 16
0.78922963 -2.6025589 -0.14005443 10
0.79406923 -2.6201644 -0.046650708 12
0.78809637 -2.602092 0.71775496 12
0.79160309 -2.6153157 0.62151939 14
0.78842497 -2.606456 0.52139401 11
0.79847831 -2.6413548 0.430502 17
0.78894907 -2.6114779 0.33026591 12
0.79710978 -2.6401548 0.23793519 15
0.79568434 -2.6370969 0.1423538 15
0.79185081 -2.6260488 0.047208756 12
0.56294668 -1.8728354 -0.51375604 3
0.65153837 -2.1689394 -0.51401347 3
0.7730853 -2.5751941 -0.51472205 4
0.79150385 -2.6382196 -0.43019515 9
0.79773051 -2.660661 -0.33635977 15
0.79729718 -2.6609037 -0.23967867 14
0.7844373 -2.619648 -0.14083686 10
0.7906512 -2.6420777 -0.046996269 10
0.78454411 -2.6233366 0.72292799 13
0.78665465 -2.6320672 0.62489116 14
0.78494066 -2.6280041 0.52520674 10
0.79490364 -2.6630552 0.43362722 16
0.78550303 -2.6332386 0.33270329 12
0.79358113 -2.6620147 0.23967829 15
0.7921769 -2.6589994 0.14340052 13
0.78838563 -2.6479623 0.047557805 11
0.55640584 -1.8747891 -0.51375604 3
0.6439634 -2.1712003 -0.51401347 3
0.76409149 -2.577877 -0.51472205 4
0.78790021 -2.6599066 -0.43332383 9
0.79266417 -2.677705 -0.33818778 13
0.79365605 -2.682776 -0.24142179 15
0.78095078 -2.6415234 -0.1418801 11
0.78708994 -2.6639988 -0.047341831 10
0.78085297 -2.6445878 0.72810096 12
0.78297752 -2.6534884 0.62938678 12
0.78270388 -2.6542675 0.52997267 11
0.79118705 -2.6847622 0.43675247 16
0.78191459 -2.6550066 0.33514068 11
0.78850299 -2.6791031 0.24098562 16
0.78852624 -2.6809094 0.14444724 14
0.78477693 -2.6698837 0.047906853 9
0.54850024 -1.872085 -0.5124619 4
0.63501161 -2.1687598 -0.51288873 3
0.75646681 -2.5852392 -0.51567525 3
0.78415489 -2.6816003 -0.43645251 9
0.78748858 -2.6947463 -0.34001586 12
0.78987181 -2.7046552 -0.2431649 15
0.77732104 -2.6634064 -0.14292334 12
0.78338516 -2.6859272 -0.047687389 11
0.77702308 -2.6658452 0.73327404 12
0.77779788 -2.670238 0.63275844 13
0.77892137 -2.6758342 0.53378546 10
0.78732854 -2.7064757 0.43987769 16
0.77679831 -2.6720161 0.33696872 12
0.78470498 -2.7009721 0.24272874 15
0.78333986 -2.6980307 0.14523228 12
0.78102481 -2.6918116 0.048255898 10
0.54196203 -1.8739882 -0.5124619 4
0.62743735 -2.170963 -0.51288873 3
0.74743801 -2.5878642 -0.51567525 3
0.77889812 -2.6985552 -0.43879902 9
0.7822035 -2.7117836 -0.34184387 9
0.78456485 -2.7217538 -0.24447222 14
0.77493006 -2.6900935 -0.14422737 9
0.77953684 -2.7078621 -0.048032951 10
0.77305418 -2.6871076 0.73844707 12
0.77385712 -2.6916666 0.63725412 12
0.77635318 -2.7021244 0.53855139 16
0.78332806 -2.7281947 0.44300297 15
0.77294135 -2.6937921 0.3394061 12
0.78076386 -2.7228467 0.24447185 14
0.779419 -2.7199485 0.14627899 13
0.77575278 -2.7089396 0.048517689 11
0.53939402 -1.8898011 -0.51634425 4
0.61851913 -2.1684549 -0.51176393 4
0.7384001 -2.5904574 -0.51567525 3
0.77488542 -2.7202561 -0.44192773 9
0.77545035 -2.7240438 -0.34306258 8
0.78051108 -2.7436397 -0.24621536 15
0.77236229 -2.7167966 -0.14553143 10
0.7755447 -2.7298024 -0.048378512 12
0.76894623 -2.7083745 0.74362004 11
0.76977605 -2.7130997 0.64174974 12
0.77227187 -2.7237065 0.54236418 16
0.77783912 -2.7451668 0.44534689 15
0.76894194 -2.7155738 0.34184349 12
0.77667958 -2.7447271 0.24621499 14
0.773996 -2.7370667 0.14706403 15
0.77173018 -2.7308745 0.048866734 10
0.53410345 -1.8963212 -0.51763833 4
0.610946 -2.1706007 -0.51176393 3
0.72935325 -2.5930192 -0.51567525 3
0.76939416 -2.7372067 -0.44427425 8
0.76862115 -2.7362897 -0.34428129 7
0.77631396 -2.7655299 -0.24795848 15
0.76961732 -2.7435141 -0.14683546 8
0.77140903 -2.7517478 -0.04872407 8
0.766002 -2.7342961 0.75008625 11
0.76686811 -2.7392282 0.64736921 12
0.76937163 -2.7500193 0.54713005 15
0.7735709 -2.76689 0.44847211 15
0.76479983 -2.7373605 0.3442809 12
0.77245182 -2.7666111 0.24795809 13
0.76980478 -2.7589896 0.14811075 13
0.76622105 -2.747998 0.049128518 8
0.5352394 -1.9260937 -0.5254029 3
0.60336548 -2.17272 -0.51176393 3
0.72160995 -2.6002789 -0.51662844 3
0.76511383 -2.7589109 -0.44740292 7
0.77099359 -2.7819982 -0.34976539 13
0.77197343 -2.7874238 -0.24970159 14
0.76669538 -2.7702453 -0.14813951 24
0.76579678 -2.7688787 -0.048983242 11
0.76288623 -2.7602301 0.75655258 10
0.76378727 -2.7653694 0.65298879 19
0.76499128 -2.7716138 0.55094284 14
0.76916045 -2.7886167 0.45159736 16
0.76051497 -2.7591507 0.34671828 11
0.76940346 -2.7933013 0.25013697 14
0.76546985 -2.7809162 0.14915746 12
0.76060176 -2.7651167 0.049390309 11
0.51702112 -1.8860304 -0.51375604 4
0.59577757 -2.174813 -0.51176393 3
0.71252894 -2.6027818 -0.51662844 3
0.76069123 -2.7806187 -0.4505316 8
0.76782137 -2.8086078 -0.35281214 10
0.76617676 -2.8045161 -0.25100893 14
0.76228088 -2.7921724 -0.14918275 13
0.76139021 -2.790827 -0.049328804 10
0.75959855 -2.7861748 0.76301885 14
0.76053298 -2.791522 0.65860826 13
0.76046938 -2.793211 0.55475557 15
0.76590419 -2.8151114 0.45550394 16
0.75608701 -2.7809439 0.34915566 12
0.76487213 -2.8151968 0.25188008 13
0.76099128 -2.8028464 0.15020418 13
0.7561813 -2.7870543 0.049739353 11
0.50161046 -1.855188 -0.50469732 4
0.5869118 -2.1721764 -0.51063919 3
0.70343918 -2.6052532 -0.51662844 4
0.7561264 -2.8023286 -0.45366031 7
0.76576471 -2.8400207 -0.35646823 9
0.7615661 -2.8264112 -0.25275204 13
0.75902086 -2.8189237 -0.1504868 15
0.75813848 -2.8176053 -0.049760751 10
0.75613904 -2.8121305 0.76948506 14
0.75710547 -2.8176858 0.66422778 13
0.75707883 -2.8195503 0.55952156 15
0.76119244 -2.8368473 0.45862916 13
0.7528016 -2.8075333 0.35220239 10
0.76148647 -2.8419058 0.25405899 11
0.75636882 -2.8247786 0.1512509 12
0.75032479 -2.8041649 0.050001144 12
0.50043607 -1.8755066 -0.50987375 5
0.58008474 -2.1740093 -0.51063919 4
0.69525111 -2.6074502 -0.51662844 4
0.75240487 -2.8237779 -0.45678899 7
0.76450032 -2.8711863 -0.36012432 10
0.75652522 -2.8432305 -0.25405937 13
0.75529343 -2.8405964 -0.15153003 14
0.75441813 -2.8392997 -0.050106313 9
0.75349808 -2.8378327 0.77595139 14
0.75324762 -2.8388867 0.6687234 13
0.75324905 -2.8408926 0.56333429 14
0.75860077 -2.8630939 0.46253574 13
0.74905854 -2.8290739 0.35463977 11
0.75765085 -2.8635454 0.25580209 13
0.75387239 -2.8512771 0.15255931 12
0.74534255 -2.8210082 0.050262928 10
0.49913251 -1.8958378 -0.51505011 3
0.57249248 -2.1760211 -0.51063919 3
0.68489707 -2.6051142 -0.51567525 3
0.74630803 -2.8407166 -0.45913553 7
0.75951397 -2.8930376 -0.3625617 10
0.75165176 -2.8651257 -0.25580251 15
0.75043821 -2.8625355 -0.15257327 13
0.75083715 -2.866096 -0.050538264 9
0.74970341 -2.8638074 0.7824176 14
0.74949867 -2.8650661 0.67434299 13
0.74953485 -2.8672483 0.56810021 13
0.75484312 -2.8896153 0.46644226 15
0.7441926 -2.8508787 0.35707715 9
0.75393677 -2.8902709 0.257981 12
0.74895287 -2.8732181 0.15360603 11
0.73675108 -2.8284307 0.050350189 10
0.49945557 -1.9257041 -0.52281469 3
0.56451315 -2.1781046 -0.51063919 4
0.67411369 -2.6028554 -0.51472205 3
0.74207789 -2.8673375 -0.4630464 6
0.75511825 -2.9198253 -0.36560845 11
0.74488443 -2.8823292 -0.25710985 13
0.74493551 -2.8846049 -0.1536165 14
0.74532396 -2.8881912 -0.050883826 7
0.74523222 -2.8899205 0.78888386 14
0.7438556 -2.8866656 0.67883861 13
0.74391669 -2.8889892 0.571913 14
0.74916983 -2.9114938 0.46956751 14
0.73868209 -2.8728127 0.35951456 11
0.7495361 -2.9171362 0.26015988 10
0.74462569 -2.9001253 0.15491442 12
0.73631877 -2.8698511 0.051048286 8
0.49033824 -1.9180776 -0.52022654 4
0.55811244 -2.184782 -0.51176393 3
0.66502392 -2.6051927 -0.51472205 3
0.736947 -2.8890512 -0.46617511 7
0.74982464 -2.941679 -0.36804584 11
0.73850697 -2.8993919 -0.25841716 9
0.73978829 -2.9065435 -0.15465973 14
0.7401669 -2.9101555 -0.051229388 12
0.74108845 -2.9159093 0.79535013 14
0.73977107 -2.9128551 0.68445808 12
0.73986441 -2.9153554 0.57667893 14
0.74507219 -2.9380267 0.47347406 15
0.73474491 -2.8994269 0.36256129 10
0.74423969 -2.939049 0.26190299 11
0.74062204 -2.9269094 0.15622282 11
0.73364961 -2.901484 0.051571857 10
0.47892055 -1.9010442 -0.51505011 4
0.55167216 -2.1914415 -0.51288873 4
0.65592605 -2.6074982 -0.51472205 4
0.73167348 -2.9107637 -0.46930379 7
0.74438775 -2.9635313 -0.37048322 10
0.72474396 -2.887459 -0.25710985 6
0.73449701 -2.9284809 -0.15570298 15
0.73608083 -2.9369678 -0.051661339 10
0.73677224 -2.9419041 0.8018164 14
0.73551273 -2.9390514 0.6900776 12
0.73563725 -2.9417286 0.58144486 14
0.73960102 -2.9597743 0.47659931 14
0.72942865 -2.9212337 0.36499867 10
0.73879933 -2.9609601 0.26364613 13
0.73523259 -2.9488566 0.15726954 12
0.73197711 -2.937984 0.052182693 8
0.46297386 -1.8652053 -0.50469732 5
0.54401922 -2.1933539 -0.51288873 4
0.64563942 -2.6050076 -0.51376885 4
0.72744447 -2.9372678 -0.47321463 6
0.73880732 -2.9853814 -0.3729206 9
0.73020482 -2.9528303 -0.26277497 10
0.72906142 -2.9504163 -0.15674621 14
0.73061812 -2.9589334 -0.0520069 8
0.73228359 -2.9679043 0.80828267 14
0.73108041 -2.9652529 0.69569719 13
0.7300607 -2.963342 0.58525759 14
0.73516762 -2.9863153 0.48050588 14
0.72515452 -2.9478576 0.36804542 10
0.73321503 -2.9828691 0.26538923 12
0.73088986 -2.9756498 0.15857795 12
0.72886699 -2.9696519 0.052706264 8
0.46104869 -1.8855757 -0.50987375 4
0.53635967 -2.1952395 -0.51288873 3
0.63770646 -2.6120138 -0.51472205 4
0.72303933 -2.963778 -0.4771255 6
0.73425871 -3.0120497 -0.37596735 9
0.72814494 -2.9892378 -0.26582542 10
0.7246626 -2.977201 -0.15805025 13
0.72501087 -2.9808962 -0.052352462 10
0.72762233 -2.9939084 0.81474888 14
0.72647405 -2.9914589 0.70131665 13
0.72549963 -2.9897218 0.59002358 14
0.72939414 -3.0080612 0.4836311 14
0.7195347 -2.9696634 0.3704828 10
0.72865885 -3.0096159 0.26756814 13
0.72519481 -2.9975958 0.15962467 12
0.72436994 -2.9964743 0.053142574 8
0.45672548 -1.8965644 -0.5124619 4
0.52755374 -2.1923616 -0.51176393 3
0.62858492 -2.614224 -0.51472205 4
0.71845794 -2.9902928 -0.48103639 6
0.7283743 -3.0338969 -0.37840474 9
0.7281636 -3.0353529 -0.26974744 10
0.7189216 -2.999135 -0.1590935 13
0.71925932 -3.0028558 -0.05269802 9
0.72278839 -3.0199161 0.82121515 14
0.72169358 -3.0176685 0.70693624 13
0.72076327 -3.0161054 0.59478951 14
0.72462463 -3.0346065 0.48753765 14
0.71492314 -2.9962933 0.37352949 10
0.72276962 -3.0315218 0.26931125 12
0.72051257 -3.024395 0.16093306 11
0.7208522 -3.0281649 0.053666148 19
0.45121682 -1.9028466 -0.51375604 4
0.51989776 -2.1941898 -0.51176393 3
0.61945575 -2.6164021 -0.51472205 3
0.71483701 -3.0216172 -0.48572943 7
0.72348791 -3.0605688 -0.38145146 9
0.72557896 -3.0718093 -0.27279788 10
0.71418321 -3.0259247 -0.16039754 14
0.71451062 -3.0296772 -0.053129975 9
0.71778154 -3.0459259 0.82768142 14
0.71673894 -3.0438809 0.71255571 13
0.71585149 -3.0424922 0.59955543 14
0.7196787 -3.0611548 0.4914442 14
0.70899951 -3.0180953 0.37596691 9
0.71787447 -3.0582721 0.27149016 12
0.71565199 -3.0511975 0.16224146 11
0.71598119 -3.0549994 0.054102458 33
0.4456698 -1.909113 -0.51505011 4
0.51112878 -2.191247 -0.51063919 3
0.61143321 -2.6233287 -0.51567525 3
0.71212626 -3.0577621 -0.49120462 7
0.71842426 -3.0872438 -0.38449821 9
0.71936435 -3.0937295 -0.27454099 10
0.70700639 -3.04299 -0.16117996 13
0.70958334 -3.0565012 -0.053561922 9
0.71260196 -3.0719376 0.83414769 13
0.71271008 -3.0748415 0.71929914 12
0.71076411 -3.0688808 0.60432136 14
0.7145561 -3.0877054 0.49535075 13
0.70405042 -3.0447276 0.37901363 9
0.71280134 -3.0850248 0.27366903 12
0.71061313 -3.0780032 0.16354986 12
0.7109316 -3.0818365 0.054538768 35
0.43792155 -1.9059502 -0.51375604 4
0.50238663 -2.1882691 -0.50951445 3
0.60336977 -2.6302311 -0.51662844 4
0.70917177 -3.0939245 -0.49667984 9
0.71539891 -3.123595 -0.38876364 13
0.71411663 -3.1204989 -0.2767199 10
0.69971919 -3.0600419 -0.16196239 7
0.70447755 -3.083328 -0.053993873 8
0.70724952 -3.09795 0.84061396 14
0.70739031 -3.1010609 0.72491866 12
0.70550126 -3.0952711 0.60908735 13
0.71035367 -3.1190727 0.50003856 13
0.69892389 -3.0713618 0.38206038 9
0.70755017 -3.1117792 0.27584794 11
0.70539564 -3.10481 0.16485825 10
0.70681 -3.1135507 0.055062339 33
0.43126589 -1.9074672 -0.51375604 4
0.49474508 -2.1900094 -0.50951445 3
0.59418488 -2.6323211 -0.51662844 4
0.70162725 -3.1108334 -0.49902633 16
0.70449114 -3.1260734 -0.38876364 18
0.7086907 -3.1472692 -0.27889881 10
0.69122547 -3.0722086 -0.16248401 5
0.699193 -3.1101558 -0.054425824 8
0.70278251 -3.1286745 0.84837347 14
0.70189607 -3.1272802 0.73053825 12
0.70113677 -3.126451 0.61480647 13
0.70486093 -3.1456285 0.50394517 14
0.69470423 -3.1028397 0.38571647 9
0.70212078 -3.1385341 0.27802682 12
0.69999963 -3.1316178 0.16616665 11
0.7013858 -3.140394 0.055498648 33
0.42493811 -1.9088869 -0.51375604 3
0.48786253 -2.1915529 -0.50951445 3
0.58591229 -2.6341751 -0.51662844 3
0.69185084 -3.1130223 -0.49902633 15
0.69251513 -3.1185813 -0.38754493 12
0.70419437 -3.1737938 -0.28107771 9
0.69237775 -3.1231136 -0.1650921 12
0.69482464 -3.1367416 -0.054857776 8
0.69816869 -3.1544452 0.85483968 13
0.69732797 -3.1532555 0.73615772 12
0.69660634 -3.1526017 0.6195724 13
0.70136338 -3.1767621 0.50863302 14
0.69029826 -3.1292379 0.38876316 9
0.69869018 -3.1699097 0.2806415 12
0.69552749 -3.1581831 0.16747504 11
0.69688839 -3.1669941 0.055934958 33
0.41860569 -1.9102856 -0.51375604 3
0.48020962 -2.1932425 -0.50951445 3
0.57776266 -2.6409988 -0.51758158 3
0.67992556 -3.1105938 -0.49824417 14
0.68056619 -3.1161315 -0.38693559 11
0.6984213 -3.2005649 -0.28325659 9
0.68891764 -3.1596613 -0.16691776 12
0.68919182 -3.1635714 -0.055289723 8
0.69331694 -3.1851795 0.86259925 14
0.69252926 -3.1842349 0.74290115 12
0.69185102 -3.1837924 0.62529153 14
0.69550943 -3.2033217 0.51253957 13
0.68568379 -3.160728 0.39241928 9
0.6928966 -3.1966689 0.28282037 12
0.69084042 -3.1898718 0.16904514 11
0.69111586 -3.1938381 0.056371272 32
0.41058481 -1.9070853 -0.5124619 3
0.47216776 -2.1949878 -0.50951445 3
0.56807905 -2.6430986 -0.51758158 4
0.66748321 -3.1082366 -0.49746197 12
0.66705817 -3.1089003 -0.38571692 9
0.69190645 -3.2274547 -0.2854355 8
0.68465298 -3.1963422 -0.16874342 12
0.6828233 -3.1905189 -0.055721678 10
0.68668777 -3.2113147 0.86906546 13
0.68594348 -3.2105742 0.74852067 12
0.68530065 -3.2103071 0.63005745 13
0.68994492 -3.2348289 0.51722747 13
0.67926627 -3.1874886 0.395466 9
0.68739939 -3.2284176 0.28543505 11
0.68433923 -3.2168014 0.17035353 10
0.68564159 -3.2256896 0.056894843 35
0.40392533 -1.908507 -0.5124619 3
0.46450293 -2.1966226 -0.50951445 4
0.55884945 -2.6450655 -0.51758158 4
0.65560937 -3.1057158 -0.49667984 10
0.65517777 -3.106354 -0.38510755 9
0.68679887 -3.2590935 -0.28805017 9
0.67966408 -3.228029 -0.17030828 12
0.67682803 -3.217344 -0.056153629 8
0.68143475 -3.2420514 0.87682498 13
0.68074018 -3.2415574 0.7552641 12
0.68013793 -3.2415023 0.63577664 14
0.68371558 -3.2613852 0.52113402 13
0.67424011 -3.2189841 0.39912206 9
0.68122739 -3.2551744 0.28761396 10
0.6792379 -3.2484953 0.17192361 11
0.67948931 -3.2525313 0.057331149 33
0.39726093 -1.9099053 -0.5124619 3
0.45683247 -2.1982307 -0.50951445 4
0.549613 -2.6470003 -0.51758158 4
0.64376122 -3.1031497 -0.49589765 8
0.64332342 -3.1037626 -0.38449821 8
0.6814788 -3.2907364 -0.29066485 8
0.67446226 -3.2597196 -0.17187312 11
0.67166573 -3.2490613 -0.05667197 4
0.67597544 -3.2727904 0.88458449 13
0.67532879 -3.2725427 0.76200753 12
0.6737746 -3.2678926 0.64054251 13
0.67830551 -3.292774 0.52582186 14
0.66900229 -3.250483 0.40277815 9
0.67588019 -3.2868059 0.29022864 11
0.67291874 -3.2753015 0.173232 10
0.6741631 -3.284266 0.057854723 33
0.39059168 -1.9112804 -0.5124619 3
0.44915643 -2.1998119 -0.50951445 3
0.54036993 -2.6489027 -0.51758158 4
0.63095284 -3.0957 -0.4943333 7
0.63050485 -3.0962636 -0.38327953 7
0.6749531 -3.3174996 -0.29284373 8
0.66805279 -3.2865198 -0.17317718 11
0.66728508 -3.2856808 -0.0572767 14
0.67030978 -3.3035302 0.892344 13
0.66970938 -3.3035295 0.76875097 12
0.66820955 -3.2990882 0.64626163 13
0.67268461 -3.3241644 0.53050971 13
0.66355276 -3.2819846 0.40643427 9
0.66933417 -3.3135571 0.29240751 12
0.66740841 -3.3069975 0.17480208 10
0.66862363 -3.3160031 0.058378298 30
0.3829672 -1.907897 -0.51116782 3
0.44147494 -2.2013664 -0.50951445 3
0.53112024 -2.6507726 -0.51758158 3
0.61917365 -3.0930414 -0.49355114 7
0.6187197 -3.0935791 -0.38267016 7
0.67020071 -3.3540266 -0.29589421 8
0.66244185 -3.3182111 -0.17474203 11
0.66265696 -3.3223088 -0.057881434 9
0.66443777 -3.3342707 0.90010357 13
0.66388178 -3.3345168 0.7754944 12
0.66243488 -3.3302844 0.65198076 13
0.66685277 -3.3555553 0.53519756 13
0.65789133 -3.3134871 0.41009033 9
0.66357869 -3.3451879 0.29502219 12
0.66071427 -3.3337963 0.17611049 10
0.66384166 -3.3526447 0.05898913 30
0.3763051 -1.9092221 -0.51116782 3
0.43378803 -2.202894 -0.50951445 3
0.52186412 -2.6526103 -0.51758158 4
0.60742062 -3.090338 -0.49276894 6
0.60696107 -3.0908504 -0.38206083 7
0.66520154 -3.3905602 -0.29894465 11
0.65565735 -3.3450029 -0.17604607 12
0.65682048 -3.3540378 -0.058399774 9
0.65835917 -3.3650095 0.90786308 13
0.65784597 -3.3655035 0.78223783 11
0.65645051 -3.3614805 0.65769988 13
0.66080987 -3.3869457 0.53988546 13
0.65201807 -3.3449898 0.41374642 8
0.65761048 -3.3768184 0.29763687 11
0.65479469 -3.36549 0.17768057 10
0.65690422 -3.3794787 0.05942544 31
0.36997181 -1.9104595 -0.51116782 3
0.4277916 -2.2090292 -0.51063919 3
0.51352811 -2.654237 -0.51758158 4
0.59583467 -3.0825336 -0.49120462 6
0.59630686 -3.0878689 -0.38145146 7
0.65737724 -3.4073055 -0.30025199 15
0.65081573 -3.3764637 -0.17761093 15
0.65195215 -3.3855391 -0.058918115 9
0.65417176 -3.4002612 0.91691583 13
0.65370697 -3.4010446 0.79010516 12
0.65236616 -3.3972678 0.66437227 13
0.65667957 -3.422956 0.5453546 13
0.6471113 -3.3762658 0.41740248 9
0.65355593 -3.4131122 0.30068731 10
0.64984757 -3.3969557 0.17925064 10
0.65097642 -3.4060774 0.059861749 37
0.36453697 -1.9164205 -0.5124619 3
0.42007804 -2.2105091 -0.51063919 3
0.50425994 -2.6560133 -0.51758158 4
0.58415067 -3.0797429 -0.49042246 6
0.58460063 -3.0850561 -0.38084212 7
0.64270002 -3.3948972 -0.29894465 11
0.63902575 -3.378715 -0.17761093 13
0.64569968 -3.4172683 -0.059436455 10
0.64767408 -3.431 0.92467535 13
0.64724851 -3.4320316 0.7968486 12
0.64595622 -3.4284649 0.67009133 13
0.65020847 -3.4543476 0.55004251 13
0.64082491 -3.4077673 0.42105857 8
0.64715606 -3.4447448 0.30330199 11
0.64443356 -3.4335556 0.18108241 10
0.64276832 -3.4279833 0.060210798 28
0.35751048 -1.9177437 -0.5124619 3
0.4119733 -2.212034 -0.51063919 3
0.49452177 -2.6578436 -0.51758158 4
0.57466394 -3.0915737 -0.49198681 5
0.57238334 -3.0822985 -0.38023278 7
0.62934422 -3.3923326 -0.29850888 12
0.62572783 -3.3761249 -0.17735012 12
0.63863152 -3.4491062 -0.0599548 10
0.64124411 -3.4665959 0.9337281 13
0.63997728 -3.4631264 0.80359203 11
0.63962364 -3.4645967 0.67676371 13
0.64381349 -3.4907038 0.55551165 12
0.63462549 -3.4442575 0.42532399 8
0.64083815 -3.4813843 0.30635244 10
0.63726306 -3.4653594 0.18265249 10
0.63290983 -3.4450672 0.060472585 14
0.35168269 -1.923731 -0.51375604 3
0.40424937 -2.2134585 -0.51063919 3
0.48524114 -2.6595535 -0.51758158 4
0.56741107 -3.1129947 -0.49511549 5
0.56073153 -3.0793953 -0.37962344 7
0.61660743 -3.3896081 -0.29807308 10
0.61304647 -3.3733761 -0.17708932 11
0.63194609 -3.4808276 -0.06047314 9
0.63431114 -3.4973271 0.94148761 13
0.63396519 -3.4988973 0.81145936 11
0.63277149 -3.4957871 0.68248284 13
0.6368975 -3.5220888 0.5601995 13
0.62789232 -3.4757535 0.42898008 8
0.63398963 -3.5130107 0.30896711 10
0.63136423 -3.5019598 0.18448423 10
0.62974191 -3.4964561 0.061345205 62
0.34581739 -1.9297006 -0.51505011 3
0.39737898 -2.2196515 -0.51176393 3
0.47595465 -2.661231 -0.51758158 4
0.56262124 -3.1489861 -0.50059068 12
0.54910707 -3.0764482 -0.37901407 6
0.60389745 -3.3868365 -0.29763731 9
0.6012674 -3.3754952 -0.17708932 10
0.62504697 -3.5125439 -0.060991481 9
0.62801671 -3.5328071 0.95054042 13
0.62771112 -3.5346682 0.8193267 11
0.62656677 -3.5318046 0.68915516 13
0.63063192 -3.5583298 0.5656687 12
0.62181205 -3.512131 0.43324548 9
0.62779564 -3.5495365 0.31201756 10
0.62521768 -3.5385613 0.186316 10
0.6244849 -3.5380182 0.062043298 61
0.33824405 -1.9261392 -0.51375604 3
0.38962853 -2.221025 -0.51176393 4
0.4675096 -2.6677113 -0.51853484 4
0.55162579 -3.1509309 -0.50059068 14
0.53836489 -3.0783463 -0.37901407 6
0.59121424 -3.384017 -0.29720154 11
0.58862257 -3.3726547 -0.1768285 12
0.61793405 -3.5442538 -0.061509822 9
0.62148213 -3.5682852 0.95959312 12
0.62121487 -3.570437 0.82719404 11
0.62011814 -3.5678208 0.69582742 13
0.62412113 -3.5945702 0.57113785 12
0.61463737 -3.5436187 0.4369016 8
0.6205039 -3.5811534 0.31463224 11
0.61797154 -3.5702424 0.18788607 9
0.61894536 -3.5795858 0.062741399 59
0.3315185 -1.9273082 -0.51375604 3
0.38187334 -2.2223716 -0.51176393 4
0.4581947 -2.6693268 -0.51853484 4
0.53561586 -3.1236329 -0.49589765 14
0.52677834 -3.0753152 -0.37840474 6
0.57855815 -3.3811505 -0.29676577 9
0.57600492 -3.3697672 -0.1765677 11
0.61144882 -3.5808852 -0.062114555 8
0.61470759 -3.6037607 0.96864593 12
0.61447656 -3.6062036 0.83506137 12
0.61342567 -3.6038344 0.70249981 12
0.61736482 -3.6308074 0.57660699 12
0.6080814 -3.5799911 0.441167 8
0.61383229 -3.6176729 0.31768268 10
0.6113463 -3.6068385 0.18971784 9
0.61228853 -3.6162279 0.063352227 59
0.3239868 -1.923691 -0.5124619 3
0.37330526 -2.2188869 -0.51063919 3
0.44887424 -2.6709101 -0.51853484 3
0.52389151 -3.1206133 -0.49511549 13
0.51604027 -3.0771356 -0.37840474 7
0.56592917 -3.3782368 -0.29632998 8
0.56341457 -3.3668323 -0.17630689 11
0.60553944 -3.6224442 -0.062805675 10
0.60769284 -3.6392317 0.97769868 13
0.60749608 -3.6419661 0.84292871 11
0.6064893 -3.6398449 0.70917213 13
0.61036319 -3.6670413 0.58207619 13
0.60127896 -3.6163607 0.44543242 8
0.60691315 -3.6541889 0.32073313 10
0.60283846 -3.6335795 0.19102623 11
0.6053834 -3.6528671 0.063963063 58
0.31648439 -1.9200449 -0.51116782 3
0.36555761 -2.2201765 -0.51063919 3
0.43954828 -2.6724608 -0.51853484 4
0.51059347 -3.1078036 -0.49276894 14
0.50449216 -3.0740206 -0.37779537 7
0.55332774 -3.3752766 -0.29589421 8
0.55085188 -3.3638511 -0.17604607 10
0.59773332 -3.6541378 -0.063324012 16
0.60121673 -3.6794639 0.98804474 12
0.60105813 -3.6825318 0.85191995 11
0.60009867 -3.6806943 0.71679759 13
0.6023221 -3.6983957 0.58676404 13
0.59502673 -3.6576242 0.45030719 8
0.59974653 -3.690701 0.32378358 10
0.59495139 -3.6652331 0.1925963 7
0.59742969 -3.6845667 0.064486638 57
0.30978027 -1.9211379 -0.51116782 4
0.35703078 -2.2166288 -0.50951445 3
0.43021697 -2.6739786 -0.51853484 4
0.49895853 -3.104691 -0.49198681 13
0.49375874 -3.0757627 -0.37779537 6
0.54075378 -3.3722692 -0.29545841 9
0.53831667 -3.3608229 -0.17578526 11
0.58418453 -3.6512656 -0.063237622 11
0.59370482 -3.7149258 0.99709749 13
0.59357625 -3.7182853 0.85978723 11
0.59265739 -3.716696 0.72346991 13
0.59484637 -3.7346156 0.59223324 13
0.58771402 -3.6939864 0.45457265 9
0.59311408 -3.7321255 0.32726982 10
0.58528501 -3.6870131 0.19364302 4
0.59004492 -3.7211924 0.065097474 57
0.30307236 -1.9222076 -0.51116782 4
0.34929112 -2.2178617 -0.50951445 3
0.42088044 -2.6754642 -0.51853484 4
0.48658493 -3.096657 -0.49042246 15
0.48224986 -3.0725653 -0.37718606 7
0.52820766 -3.3692155 -0.29502264 8
0.52580947 -3.3577485 -0.17552446 7
0.56989056 -3.6434042 -0.063064843 9
0.58669817 -3.7551508 1.0074435 12
0.58660328 -3.7588449 0.86877853 11
0.58572787 -3.75754 0.73109537 13
0.58712506 -3.7708275 0.59770238 13
0.58091724 -3.7352459 0.45944741 8
0.58543515 -3.7686272 0.33032027 9
0.5815987 -3.7482433 0.19678319 10
0.58241159 -3.7578113 0.065708302 54
0.29562521 -1.9184804 -0.50987375 3
0.34154722 -2.2190673 -0.50951445 3
0.41153875 -2.6769171 -0.51853484 4
0.47502303 -3.0934551 -0.48964027 9
0.47076926 -3.0693245 -0.37657669 6
0.51568937 -3.3661151 -0.29458687 9
0.51333028 -3.3546274 -0.17526364 9
0.5571692 -3.6453712 -0.063064843 8
0.57941788 -3.7953722 1.0177895 13
0.57861996 -3.7945843 0.87664586 11
0.57778144 -3.7935281 0.73776776 13
0.57915807 -3.8070309 0.60317159 12
0.57309389 -3.7715955 0.46371281 8
0.57750845 -3.8051193 0.33337072 9
0.57599509 -3.799618 0.19939999 10
0.57452989 -3.7944217 0.066319138 55
0.28964555 -1.9242766 -0.51116782 3
0.33379912 -2.2202461 -0.50951445 3
0.40292093 -2.6831908 -0.51948798 4
0.46275696 -3.0853267 -0.48807591 9
0.45931721 -3.066041 -0.37596735 6
0.50319922 -3.3629687 -0.2941511 8
0.50087929 -3.3514609 -0.17500284 8
0.54370302 -3.6423495 -0.062978454 8
0.57186389 -3.835588 1.0281355 13
0.57111168 -3.8351321 0.88563704 11
0.5703128 -3.8343611 0.74539322 12
0.57239693 -3.852994 0.61020339 12
0.56575233 -3.812845 0.46858761 8
0.56933409 -3.8416023 0.33642116 9
0.56930864 -3.8460593 0.20175511 10
0.56713068 -3.835968 0.067017235 54
0.2829268 -1.9252759 -0.51116782 3
0.32604697 -2.2213976 -0.50951445 3
0.39426437 -2.6894376 -0.52044117 4
0.45126894 -3.0820372 -0.48729378 8
0.44861192 -3.0676255 -0.37596735 6
0.49073729 -3.3597758 -0.2937153 9
0.48845667 -3.348248 -0.17474203 9
0.53026474 -3.6392779 -0.062892064 8
0.56403613 -3.8757968 1.0384815 13
0.56332737 -3.8756735 0.89462835 11
0.5625661 -3.8751874 0.75301874 12
0.56461316 -3.8940685 0.61645383 12
0.55812955 -3.8540885 0.47346237 8
0.56091201 -3.8780742 0.33947161 10
0.56230491 -3.8924997 0.20411022 9
0.55944842 -3.8775084 0.067715332 56
0.27620462 -1.9262516 -0.51116782 3
0.31829086 -2.2225223 -0.50951445 3
0.38556901 -2.6956561 -0.52139437 3
0.43980944 -3.0787048 -0.48651159 8
0.43720022 -3.06426 -0.37535799 6
0.47830379 -3.3565373 -0.29327953 9
0.47676614 -3.3499327 -0.17474203 9
0.51685452 -3.6361575 -0.062805675 8
0.55593449 -3.9159975 1.0488275 12
0.55595094 -3.9210305 0.90474349 10
0.55522954 -3.920866 0.76159745 13
0.55724114 -3.9400246 0.62348568 11
0.55022579 -3.8953249 0.47833717 8
0.55154639 -3.9096012 0.34208629 10
0.55428725 -3.9339933 0.20620365 9
0.55426943 -3.9388428 0.068762474 69
0.27014789 -1.9319872 -0.5124619 3
0.3098571 -2.2187951 -0.50838971 3
0.37615705 -2.6969855 -0.52139437 3
0.42837876 -3.07533 -0.48572943 8
0.4265013 -3.0657673 -0.37535799 6
0.46589893 -3.3532526 -0.29284373 8
0.46438345 -3.3466306 -0.17448123 9
0.50278628 -3.6280358 -0.062632896 10
0.54822129 -3.9609723 1.0604669 12
0.54759747 -3.9615564 0.91373473 11
0.54690957 -3.9616778 0.76922292 13
0.54955512 -3.9859765 0.63051742 12
0.54271781 -3.9414692 0.48382127 8
0.54128885 -3.9361751 0.34426516 5
0.54598671 -3.9754782 0.2082971 9
0.53915828 -3.9308481 0.068587951 14
0.26340231 -1.9329184 -0.5124619 3
0.30211017 -2.2198629 -0.50838971 3
0.36740157 -2.7031457 -0.52234757 3
0.41697699 -3.071913 -0.48494723 9
0.4151305 -3.0623198 -0.37474868 5
0.45419106 -3.3548589 -0.29284373 8
0.45202971 -3.3432829 -0.17422041 7
0.48945007 -3.6248143 -0.062546499 8
0.53955525 -4.0011544 1.0708128 13
0.53961807 -4.0069003 0.92384988 11
0.53896564 -4.0073428 0.77780163 12
0.54089755 -4.0270276 0.63676792 11
0.5342344 -3.9826887 0.48869604 8
0.53548193 -3.997283 0.34949452 11
0.53806531 -4.0219016 0.21065222 8
0.52344763 -3.9178405 0.068326168 11
0.25665358 -1.9338261 -0.5124619 3
0.29371941 -2.2160742 -0.50726491 3
0.35796356 -2.7044117 -0.52234757 3
0.40560433 -3.068454 -0.48416507 8
0.40313953 -3.05391 -0.37352994 6
0.44182667 -3.3514855 -0.29240796 7
0.43970498 -3.3398902 -0.17395961 8
0.47614244 -3.6215441 -0.062460113 7
0.53124416 -4.0461121 1.0824522 12
0.53069532 -4.0474048 0.93284112 10
0.53007221 -4.0481343 0.78542715 12
0.5326004 -4.0729632 0.64379972 12
0.52546996 -4.0238967 0.4935708 8
0.52861089 -4.0534587 0.3542881 10
0.5291816 -4.0633659 0.21274567 8
0.50912386 -3.9146862 0.068238907 10
0.24990171 -1.9347103 -0.5124619 3
0.28535885 -2.2122545 -0.50614017 3
0.34852126 -2.7056448 -0.52234757 3
0.39426085 -3.0649529 -0.48338288 9
0.39500618 -3.0749879 -0.37596735 5
0.42949128 -3.3480666 -0.29197219 8
0.42677498 -3.3314989 -0.17343798 7
0.46286362 -3.6182251 -0.06237372 7
0.52262563 -4.0910602 1.0940914 12
0.52211273 -4.0927281 0.94295621 10
0.52152091 -4.0937805 0.79400587 12
0.52398902 -4.1188893 0.65083152 12
0.51642418 -4.0650921 0.49844557 7
0.52072704 -4.1046925 0.35864586 9
0.52064234 -4.1097703 0.21510078 8
0.49482855 -3.9114799 0.068151645 10
0.24314678 -1.9355708 -0.5124619 3
0.27824128 -2.2180707 -0.50726491 3
0.33907467 -2.7068448 -0.52234757 3
0.38294685 -3.0614104 -0.48260072 8
0.38673052 -3.0960457 -0.37840474 13
0.41718525 -3.3446031 -0.29153642 7
0.41452613 -3.3280137 -0.17317718 8
0.45023084 -3.6198189 -0.06237372 7
0.51369971 -4.1359968 1.1057307 12
0.51322025 -4.138041 0.95307136 11
0.51265717 -4.1394157 0.80258459 12
0.51506346 -4.1648045 0.65786332 12
0.50709718 -4.1062727 0.5033204 7
0.51249206 -4.155921 0.36300367 8
0.51178557 -4.1561632 0.21745588 8
0.48056179 -3.9082215 0.068064377 9
0.23580366 -1.9316136 -0.51116782 3
0.2710866 -2.2238648 -0.50838971 3
0.33021703 -2.7128844 -0.52330071 3
0.37166232 -3.057826 -0.48181856 8
0.3795085 -3.1269364 -0.38206083 13
0.40490857 -3.341094 -0.29110062 7
0.40230677 -3.3244829 -0.17291637 7
0.43699282 -3.6164052 -0.062287334 9
0.50504494 -4.1857157 1.1186632 12
0.50401765 -4.1833405 0.9631865 11
0.50348127 -4.1850386 0.81116331 12
0.50641274 -4.21561 0.66567636 12
0.49748892 -4.1474371 0.50819516 8
0.50390559 -4.2071404 0.36736143 9
0.50142533 -4.1926293 0.21928765 9
0.46632382 -3.9049113 0.067977123 9
0.22905964 -1.932425 -0.51116782 3
0.2638948 -2.2296352 -0.50951445 3
0.32074526 -2.7140205 -0.52330071 3
0.36040753 -3.0542002 -0.48103639 8
0.3680104 -3.1233132 -0.38145146 12
0.39324352 -3.3424871 -0.29110062 7
0.39011717 -3.3209081 -0.17265557 7
0.42436656 -3.6179087 -0.062287334 7
0.49548742 -4.2306261 1.1303024 12
0.49507093 -4.2334652 0.97442561 10
0.49456209 -4.2355218 0.8206951 12
0.49684158 -4.2615004 0.67270821 12
0.4870255 -4.1836543 0.51246059 7
0.49439266 -4.2534027 0.37128344 9
0.49254355 -4.2439528 0.22190444 16
0.45211482 -3.9015491 0.067889854 10
0.22265023 -1.933174 -0.51116782 3
0.25744635 -2.2352934 -0.51063919 3
0.31221735 -2.7150149 -0.52330071 3
0.35081071 -3.0553176 -0.48103639 8
