# .PCD v0.7 - Point Cloud Data file format
VERSION 0.7
FIELDS x y z intensity
SIZE 4 4 4 4
TYPE F F F F
COUNT 1 1 1 1
WIDTH 1343
HEIGHT 1
VIEWPOINT 0 0 0 1 0 0 0
POINTS 1343
DATA ascii
-1.0570346 -1.6165496 -0.50728554 2
-1.2050575 -1.8422229 -0.49939165 3
-1.4507504 -2.216979 -0.50709653 7
-3.4587889 -5.2835708 -0.99414188 16
-3.4657488 -5.2921867 -0.77204317 15
-3.4465833 -5.2609177 -0.54690313 15
-3.4668558 -5.2898479 -0.32835853 16
-3.4527752 -5.2663579 -0.10816053 17
-2.9082584 -4.4341435 1.409645 18
-3.0465159 -4.6431742 1.2722604 15
-3.2018204 -4.878016 1.1257154 14
-3.3740947 -5.1385236 0.96648091 15
-3.421366 -5.2085323 0.76046467 28
-3.456661 -5.260263 0.54733807 14
-3.4604928 -5.264092 0.32814643 14
-3.4353926 -5.2239232 0.1084667 16
-1.0626709 -1.6128501 -0.50728554 3
-1.2114809 -1.8380053 -0.49939165 2
-1.4584802 -2.2119014 -0.50709653 6
-3.447299 -5.2261186 -0.98553789 12
-3.4541337 -5.2344928 -0.76534033 15
-3.434741 -5.2031288 -0.54210955 15
-3.4550326 -5.2318807 -0.32548964 16
-3.4408252 -5.2083902 -0.10721023 12
-2.9263818 -4.4279943 1.4109381 18
-3.0680792 -4.6406403 1.2745082 14
-3.2215362 -4.870904 1.1266686 15
-3.4001861 -5.1390705 0.9688248 17
-3.4477434 -5.2089729 0.76229268 32
-3.4475029 -5.2066345 0.54298031 16
-3.4512732 -5.2103534 0.32552963 14
-3.4232306 -5.166059 0.10750682 30
-1.0656232 -1.6051073 -0.50599146 2
-1.2178893 -1.8337651 -0.49939165 2
-1.4661924 -2.2067971 -0.50709653 6
-3.4381847 -5.1729255 -0.97771621 11
-3.4449067 -5.1810775 -0.75924689 15
-3.4252965 -5.1496348 -0.53775179 16
-3.4456131 -5.1782188 -0.32288155 12
-3.4285131 -5.1505709 -0.10625995 12
-2.9444976 -4.421773 1.4122314 18
-3.0869603 -4.6339569 1.275632 15
-3.2412412 -4.8637137 1.1276218 15
-3.4181044 -5.1271701 0.9688248 20
-3.4466305 -5.168005 0.75802726 13
-3.4380124 -5.1531343 0.5386225 16
-3.4417214 -5.1567435 0.32291284 15
-3.410707 -5.1083436 0.10654694 30
-1.0712196 -1.6013777 -0.50599146 2
-1.224283 -1.8295028 -0.49939165 2
-1.4711561 -2.197587 -0.50614333 6
-3.4259927 -5.115756 -0.96911228 12
-3.4353492 -5.1277914 -0.75315338 15
-3.4155207 -5.0962701 -0.53339398 16
-3.4358616 -5.1246862 -0.32027346 11
-3.4186242 -5.0970526 -0.10539604 12
-2.9626057 -4.4154782 1.4135246 18
-3.1058323 -4.6271982 1.276756 14
-3.2636712 -4.8605194 1.129528 15
-3.4056895 -5.0701127 0.96023041 12
-3.4286659 -5.1023941 0.75010574 11
-3.4281909 -5.0997634 0.53426468 15
-3.4318371 -5.1032639 0.32029605 15
-3.4006128 -5.0549269 0.10567431 31
-1.076803 -1.5976288 -0.50599146 2
-1.2306616 -1.8252181 -0.49939165 2
-1.4788182 -2.1924384 -0.50614333 6
-3.4162071 -5.062829 -0.9612906 11
-3.4254622 -5.074635 -0.74705988 15
-3.402627 -5.0389094 -0.52860039 16
-3.4257784 -5.0712857 -0.31766537 13
-3.4084036 -5.0436668 -0.10453214 11
-2.9807055 -4.4091115 1.4148179 18
-3.1246946 -4.6203647 1.27788 15
-3.2833683 -4.8531632 1.1304814 14
-3.3929181 -5.0132041 0.95163596 11
-3.418633 -5.0493002 0.74401236 11
-3.4208322 -5.0506496 0.5303427 16
-3.4216218 -5.0499167 0.31767923 15
-3.3901877 -5.0016437 0.10480169 31
-1.082373 -1.5938603 -0.50599146 3
-1.2370254 -1.8209113 -0.49939165 2
-1.4864624 -2.187263 -0.50614333 8
-3.4060931 -5.0100336 -0.9534688 12
-3.4180372 -5.0257149 -0.74157578 15
-3.3921764 -4.9858189 -0.52424258 16
-3.4153655 -5.0180187 -0.31505728 12
-3.3978527 -4.9904156 -0.10366824 11
-3.0015159 -4.4066634 1.4174045 18
-3.1435471 -4.6134553 1.2790039 15
-3.3058181 -4.8497839 1.1323878 15
-3.3853559 -4.9646082 0.94460422 11
-3.4082713 -4.9963388 0.73791885 10
-3.4103651 -4.9975352 0.52598488 16
-3.4110765 -4.9967041 0.31506246 15
-3.3822522 -4.9526243 0.10401634 32
-1.0879301 -1.5900724 -0.50599146 3
-1.243374 -1.8165821 -0.49939165 2
-1.4940882 -2.182061 -0.50614333 7
-3.3984439 -4.9614449 -0.94642925 12
-3.4075069 -4.9728146 -0.73548234 15
-3.381397 -4.9328637 -0.51988477 12
-3.4074459 -4.9690042 -0.31270999 12
-3.3869717 -4.9372997 -0.10280433 12
-3.0196123 -4.4001412 1.4186976 18
-3.1651466 -4.610487 1.2812517 15
-3.3255053 -4.8422608 1.1333408 16
-3.3746998 -4.9120555 0.93679106 10
-3.3975816 -4.9435124 0.73182535 11
-3.4023912 -4.9486599 0.5220629 16
-3.4030311 -4.947741 0.31270733 16
-3.3740153 -4.9037209 0.10323098 32
-1.0934738 -1.5862652 -0.50599146 3
-1.252473 -1.8162414 -0.50051636 2
-1.5016958 -2.1768322 -0.50614333 7
-3.3876925 -4.9089069 -0.93860757 12
-3.3966496 -4.9200492 -0.72938883 15
-3.3731203 -4.8841438 -0.51596278 13
-3.3963876 -4.9159989 -0.3101019 12
-3.3786037 -4.8884335 -0.10202682 12
-3.0404472 -4.3975201 1.4212842 20
-3.1839926 -4.6034184 1.2823756 16
-3.3479733 -4.838696 1.1352472 17
-3.366529 -4.8636994 0.92975926 10
-3.3893905 -4.8949022 0.72634125 10
-3.3912818 -4.8958073 0.51770514 15
-3.3918419 -4.8947911 0.31009051 16
-3.365479 -4.8549361 0.10244562 31
-1.0990044 -1.5824386 -0.50599146 3
-1.2588053 -1.8118583 -0.50051636 2
-1.5092852 -2.1715772 -0.50614333 7
-3.3794346 -4.8605595 -0.93156803 13
-3.3882999 -4.8714962 -0.72390473 15
-3.3617001 -4.8314528 -0.51160502 12
-3.3878543 -4.8672299 -0.30775464 12
-3.36708 -4.8355837 -0.10116293 12
-3.0585396 -4.3908434 1.4225775 18
-3.2028277 -4.5962734 1.2834995 15
-3.3704569 -4.8350329 1.1371536 21
-3.3552377 -4.81141 0.92194623 11
-3.378062 -4.842339 0.72024781 11
-3.3826959 -4.847178 0.5137831 16
-3.383183 -4.8460736 0.30773538 16
-3.3595061 -4.81037 0.10174753 32
-1.1045213 -1.5785925 -0.50599146 2
-1.267916 -1.8114448 -0.50164115 2
-1.5196714 -2.170316 -0.50709653 7
-3.3708813 -4.8123298 -0.92452842 13
-3.3796527 -4.8230605 -0.71842057 15
-3.3528125 -4.7829809 -0.50768298 12
-3.3790219 -4.8185811 -0.30540735 13
-3.3580995 -4.7869668 -0.10038541 12
-3.0766222 -4.3840938 1.4238708 21
-3.2216511 -4.5890522 1.2846233 16
-3.3591051 -4.7830715 1.1276218 12
-3.3464608 -4.7632999 0.91491443 11
-3.369262 -4.7939754 0.71476364 11
-3.373812 -4.7986689 0.50986111 15
-3.3742259 -4.7974777 0.30538031 15
-3.3503859 -4.761816 0.10096216 34
-1.1100249 -1.5747275 -0.50599146 3
-1.2742314 -1.8070078 -0.50164115 2
-1.527238 -2.1649981 -0.50709653 7
-3.3620322 -4.7642198 -0.91748887 13
-3.367847 -4.7706914 -0.71232712 16
-3.3436279 -4.7346301 -0.50376093 13
-3.3698914 -4.7700529 -0.30306005 13
-3.3517063 -4.7425551 -0.099694289 13
-3.0946949 -4.3772712 1.425164 19
-3.2432773 -4.5857344 1.2868712 16
-3.3559358 -4.7432685 1.1209494 11
-3.3373897 -4.7153096 0.90788263 11
-3.3601658 -4.7457323 0.70927954 11
-3.3646307 -4.7502809 0.50593907 16
-3.3620844 -4.7449293 0.30276349 16
-3.3409688 -4.7133851 0.1001768 32
-1.115515 -1.5708432 -0.50599146 3
-1.2777097 -1.7985771 -0.50051636 2
-1.534786 -2.1596539 -0.50709653 6
-3.3528888 -4.7162299 -0.91044933 13
-3.358593 -4.7225075 -0.70684296 16
-3.334147 -4.6864023 -0.49983895 13
-3.3604641 -4.7216482 -0.30071279 13
-3.3421445 -4.6941738 -0.098916776 13
-3.1155596 -4.3743105 1.4277505 20
-3.2620916 -4.5783534 1.2879951 16
-3.3439841 -4.6915565 1.1114175 10
-3.3308916 -4.671463 0.90163213 11
-3.3507743 -4.6976128 0.70379543 11
-3.3551533 -4.7020159 0.50201708 16
-3.3525178 -4.696589 0.30040836 16
-3.3341599 -4.6691465 0.099478707 34
-1.1209915 -1.5669398 -0.50599146 3
-1.2783093 -1.7861824 -0.49826688 2
-1.5423152 -2.1542835 -0.50709653 5
-3.343452 -4.6683631 -0.90340978 13
-3.3490441 -4.674448 -0.70135885 16
-3.3272722 -4.6423473 -0.4963527 13
-3.3507395 -4.6733675 -0.2983655 13
-3.3352003 -4.6499805 -0.098225653 13
-3.1336255 -4.3673329 1.4290438 21
-3.2837353 -4.5748544 1.2902428 16
-3.3374379 -4.6479592 1.1037921 11
-3.3212471 -4.6237078 0.89460033 11
-3.3410878 -4.6496162 0.69831133 11
-3.3482873 -4.6579194 0.49853083 16
-3.3426557 -4.6483731 0.29805323 12
-3.3241632 -4.620955 0.098693348 34
-1.1261815 -1.5632138 -0.50599146 3
-1.2668279 -1.7584405 -0.49151835 2
-1.5490755 -2.1494274 -0.50709653 5
-3.332109 -4.6217833 -0.89637023 13
-3.3404889 -4.6317024 -0.69648403 15
-3.3156106 -4.5955172 -0.49243072 13
-3.3391049 -4.626379 -0.29601821 13
-3.3234539 -4.6030011 -0.09744814 13
-3.1501582 -4.3613815 1.430337 20
-3.3009448 -4.5684648 1.2913668 18
-3.3261454 -4.6016502 1.0952133 11
-3.3126068 -4.5812354 0.88834983 11
-3.3324101 -4.6069288 0.69343656 10
-3.3366241 -4.6110601 0.49460882 16
-3.3308918 -4.6014471 0.29569817 12
-3.3122747 -4.5740476 0.09790799 35
-1.1313591 -1.5594708 -0.50599146 3
-1.2872661 -1.7737224 -0.49714214 2
-1.556569 -2.144007 -0.50709653 4
-3.3250051 -4.5781574 -0.89011288 13
-3.3303831 -4.5838795 -0.69099998 16
-3.3082039 -4.551682 -0.48894444 13
-3.331743 -4.5823865 -0.29393175 13
-3.3159761 -4.5590281 -0.096757025 13
-3.1682048 -4.3542643 1.4316303 20
-3.3226056 -4.5647926 1.2936145 26
-3.3190744 -4.5582685 1.0875878 11
-3.3053164 -4.5377092 0.88209939 11
-3.3221669 -4.5591707 0.6879524 12
-3.3292267 -4.567184 0.4911226 16
-3.3204563 -4.5534825 0.29334304 12
-3.304651 -4.5301471 0.097209893 34
-1.1313665 -1.5475159 -0.50340325 3
-1.2822548 -1.7532629 -0.49264312 2
-1.5615185 -2.1343265 -0.50614333 3
-3.3155127 -4.5300741 -0.88307327 14
-3.3237078 -4.5396085 -0.68612516 16
-3.3013189 -4.5073786 -0.48545823 13
-3.3219562 -4.5338945 -0.29158446 13
-3.3090203 -4.5145869 -0.096065901 13
-3.1869986 -4.346518 1.4329234 20
-3.3191431 -4.525084 1.2857472 11
-3.3096254 -4.5104575 1.0790092 11
-3.2985475 -4.4937153 0.87584889 11
-3.3153563 -4.5149627 0.68307763 11
-3.3194046 -4.5188222 0.48720059 16
-3.3134694 -4.5090928 0.2912496 11
-3.2945838 -4.4817524 0.096424542 34
-1.1367614 -1.5435573 -0.50340325 3
-1.3028152 -1.7683877 -0.49826688 2
-1.5689592 -2.1288626 -0.50614333 3
-3.3078609 -4.4866738 -0.87681592 13
-3.3130229 -4.4920335 -0.68064106 16
-3.293375 -4.4637628 -0.48197198 14
-3.3140404 -4.4901319 -0.28949797 13
-3.3010032 -4.4708347 -0.095374778 13
-3.2078905 -4.3431368 1.4355099 20
-3.308861 -4.4782043 1.275632 10
-3.3020101 -4.4673009 1.0713836 11
-3.2907236 -4.4504061 0.86959845 11
-3.3074868 -4.4714441 0.67820287 10
-3.311456 -4.4751763 0.48371434 16
-3.3024523 -4.46138 0.28889447 11
-3.286407 -4.4380836 0.095726438 32
-1.1306325 -1.5240645 -0.49822688 3
-1.3147868 -1.7716538 -0.50051636 2
-1.5705293 -2.1154909 -0.504237 2
-3.2999465 -4.4433823 -0.87055856 14
-3.3050056 -4.4485722 -0.67576629 16
-3.2851672 -4.4202576 -0.47848576 13
-3.3058605 -4.4464793 -0.28741151 13
-3.2927217 -4.4271936 -0.094683662 13
-3.2259142 -4.3357878 1.4368032 19
-3.3012013 -4.4353609 1.2666408 9
-3.2941334 -4.4242525 1.0637581 11
-3.2826381 -4.4072075 0.86334795 11
-3.2993536 -4.4280353 0.6733281 11
-3.3002665 -4.4276476 0.47979239 16
-3.2941275 -4.4178023 0.28680104 12
-3.2779663 -4.3945274 0.095028341 33
-1.1532918 -1.5433211 -0.50599146 3
-1.326797 -1.7748576 -0.50276589 2
-1.5779042 -2.1099961 -0.504237 2
-3.294729 -4.4041557 -0.86508328 13
-3.2967265 -4.4052224 -0.67089152 16
-3.2766957 -4.376864 -0.47499952 13
-3.2944231 -4.3989429 -0.28506422 13
-3.2841756 -4.3836646 -0.093992539 13
-3.2468226 -4.3322306 1.4393898 22
-3.293283 -4.3926249 1.2576497 10
-3.2859969 -4.3813133 1.0561327 11
-3.274291 -4.3641186 0.85709739 12
-3.2909575 -4.384738 0.66845328 11
-3.2917759 -4.3842344 0.47630611 16
-3.2855392 -4.3743372 0.28470761 12
-3.2692618 -4.3510847 0.094330251 34
-1.1528629 -1.5315688 -0.50340325 3
-1.3417761 -1.7818912 -0.50614017 2
-1.5764002 -2.0927138 -0.5013774 2
-3.2863061 -4.3610759 -0.85882592 13
-3.2881842 -4.3619843 -0.6660167 12
-3.2679615 -4.3335843 -0.4715133 13
-3.285702 -4.3555274 -0.28297776 13
-3.2753663 -4.3402505 -0.093301415 13
-3.2619252 -4.3208709 1.4393898 26
-3.2851071 -4.3499994 1.2486584 10
-3.2776012 -4.3384857 1.0485071 11
-3.2656839 -4.3211432 0.85084695 11
-3.2823 -4.3415537 0.66357851 11
-3.2830231 -4.3409352 0.47281989 16
-3.2766874 -4.3309865 0.28261417 12
-3.2633111 -4.3117423 0.093719415 35
-1.1669559 -1.5390805 -0.50728554 3
-1.3332671 -1.7577884 -0.50051636 2
-1.5955629 -2.1028388 -0.50519013 2
-3.2776229 -4.3181095 -0.85256851 14
-3.2793815 -4.3188601 -0.66114193 11
-3.2589657 -4.2904186 -0.46802706 14
-3.2797389 -4.3162022 -0.2811521 13
-3.2662935 -4.2969508 -0.092610285 12
-3.2769878 -4.3094583 1.4393898 25
-3.2766738 -4.3074846 1.2396672 9
-3.2689466 -4.2957706 1.0408816 11
-3.2568166 -4.2782807 0.84459645 12
-3.2733817 -4.2984843 0.65870374 11
-3.2740088 -4.2977509 0.46933365 17
-3.2705998 -4.2917223 0.2807824 12
-3.2540956 -4.2685194 0.093021318 35
nan nan nan 0
-1.3453101 -1.7608663 -0.50276589 2
-1.5850105 -2.0738578 -0.49947101 2
-3.2686801 -4.2752566 -0.84631115 13
-3.2733324 -4.2797933 -0.6568765 11
-3.2497091 -4.2473698 -0.46454084 13
-3.2705066 -4.2730069 -0.27906564 13
-3.2569594 -4.2537684 -0.091919169 13
-3.2685158 -4.2673187 1.4290438 13
-3.2679842 -4.2650819 1.2306759 10
-3.26302 -4.2570643 1.0342093 11
-3.2476909 -4.2355337 0.83834594 10
-3.2642028 -4.2555299 0.65382898 11
-3.2647328 -4.2546835 0.46584743 17
-3.2612381 -4.2485933 0.27868894 12
-3.2476625 -4.2293787 0.09241049 36
nan nan nan 0
nan nan nan 0
nan nan nan 0
-3.2594783 -4.2325191 -0.84005374 14
-3.2640224 -4.2368898 -0.65200174 11
-3.2432318 -4.2083831 -0.46149039 12
-3.2640619 -4.2338834 -0.27723998 13
-3.2473636 -4.2107038 -0.091228046 13
-3.259789 -4.2252903 1.4186976 11
-3.2620153 -4.2266502 1.2228086 9
-3.253864 -4.2145677 1.0265838 10
-3.2413247 -4.1968112 0.8328768 12
-3.2577987 -4.21662 0.64956355 11
-3.2582428 -4.2156739 0.46279699 17
-3.2546699 -4.2095327 0.2768572 12
-3.2379377 -4.1863813 0.091712393 34
-1.1770927 -1.5191407 -0.50469732 2
nan nan nan 0
nan nan nan 0
-3.2530451 -4.1938009 -0.83457857 14
-3.2574956 -4.1980252 -0.64773631 11
-3.2334681 -4.1655593 -0.45800415 12
-3.2573838 -4.1948576 -0.27541429 13
-3.2405744 -4.1717067 -0.090623319 13
-3.2537735 -4.1871896 1.409645 11
-3.2528279 -4.1844654 1.2138174 9
-3.2474644 -4.1760612 1.0199115 11
-3.2347283 -4.1581855 0.82740766 11
-3.2481146 -4.1738896 0.64468879 11
-3.2515202 -4.1767621 0.45974657 16
-3.2448008 -4.1666303 0.27476376 12
-3.2310243 -4.1474466 0.091101557 34
-1.173474 -1.5036005 -0.50081509 2
-1.3426894 -1.7198014 -0.49489263 2
-1.5975771 -2.0455415 -0.49661148 2
-3.2433412 -4.151288 -0.82832122 14
-3.2507372 -4.1592579 -0.64347082 12
-3.2265127 -4.1267786 -0.45495367 13
-3.2473974 -4.1519966 -0.27332783 12
-3.2304718 -4.128871 -0.089932196 13
-3.2445548 -4.1453795 1.3992989 10
-3.243386 -4.1423965 1.204826 9
-3.2408357 -4.1376514 1.0132391 11
-3.2279019 -4.119657 0.82193846 11
-3.2412338 -4.1351852 0.64042342 12
-3.2445655 -4.137948 0.45669609 17
-3.2377539 -4.1277766 0.27293199 11
-3.2238793 -4.1086121 0.090490721 35
-1.1966236 -1.5222769 -0.50857961 2
-1.3577187 -1.7265927 -0.49826688 2
-1.6198809 -2.0592411 -0.5013774 2
-3.236434 -4.1127744 -0.82284594 13
-3.2406785 -4.1166892 -0.63859606 12
-3.219327 -4.088098 -0.45190322 14
-3.240242 -4.1131797 -0.27150217 13
-3.2201099 -4.0861568 -0.089241073 13
-3.2380738 -4.1074777 1.3902462 10
-3.2367079 -4.1042709 1.1969588 9
-3.2339787 -4.0993385 1.0065668 11
-3.2208459 -4.0812273 0.81646931 11
-3.234123 -4.09658 0.63615793 11
-3.2342935 -4.0953259 0.45320985 16
-3.2304754 -4.0890241 0.27110025 11
-3.2165029 -4.0698781 0.089879893 33
-1.1929363 -1.5067312 -0.50469732 3
nan nan nan 0
-1.6179149 -2.042033 -0.49851784 2
-3.2292984 -4.0743608 -0.81737077 14
-3.2334456 -4.0781312 -0.63433063 12
-3.2119107 -4.0495181 -0.44885278 13
-3.2328548 -4.0744638 -0.26967651 13
-3.2125976 -4.047482 -0.088636346 14
-3.2313685 -4.0696721 1.3811933 11
-3.2267723 -4.0624275 1.1879675 10
-3.2268941 -4.0611248 0.9998945 10
-3.213562 -4.0428972 0.81100017 10
-3.2267821 -4.058075 0.6318925 12
-3.2268641 -4.0567245 0.45015943 16
-3.2229662 -4.0503736 0.26926848 12
-3.2088954 -4.0312457 0.089269049 33
nan nan nan 0
nan nan nan 0
nan nan nan 0
-3.2219338 -4.0360475 -0.81189555 14
-3.2259836 -4.0396743 -0.6300652 11
-3.2042639 -4.0110402 -0.4458023 13
-3.2252371 -4.0358496 -0.26785085 13
-3.2048545 -4.0089092 -0.088031612 13
-3.2244389 -4.0319638 1.3721406 11
-3.2196286 -4.0245085 1.1801002 9
-3.2165153 -4.0191789 0.99226904 10
-3.2060492 -4.0046682 0.80553091 11
-3.2192121 -4.0196719 0.62762713 12
-3.2192047 -4.0182247 0.44710898 17
-3.2152267 -4.0118241 0.26743671 13
-3.2010581 -3.9927175 0.088658221 34
-1.182256 -1.4720078 -0.4956387 3
-1.3970847 -1.7388657 -0.50614017 2
-1.6505808 -2.0536425 -0.504237 2
-3.2174358 -4.0016832 -0.80720252 14
-3.2182927 -4.0013189 -0.62579978 12
-3.1963887 -3.9726655 -0.44275185 14
-3.2173901 -3.9973388 -0.26602519 13
-3.2000175 -3.9743345 -0.087513275 13
-3.214256 -3.9905925 1.3617946 11
-3.2122591 -3.9866886 1.1722327 9
-3.2089639 -3.9811766 0.98559672 10
-3.1983092 -3.9665411 0.80006176 11
-3.2114134 -3.9813704 0.62336165 11
-3.2113161 -3.9798284 0.44405851 12
-3.2072577 -3.9733794 0.26560497 13
-3.192991 -3.9542928 0.088047385 35
nan nan nan 0
-1.4000812 -1.730191 -0.50501537 2
-1.6453863 -2.0326083 -0.50042421 2
-3.2096295 -3.963563 -0.80172729 14
-3.2134974 -3.9669232 -0.62214369 12
-3.1882846 -3.9343951 -0.43970141 13
-3.2093129 -3.9589317 -0.26419953 12
-3.191829 -3.9359593 -0.086908534 14
-3.2068667 -3.9530921 1.3527418 11
-3.2077355 -3.9527531 1.1654894 9
-3.2011862 -3.9432757 0.97892433 11
-3.1903427 -3.9285171 0.79459262 10
-3.203387 -3.9431732 0.61909622 12
-3.2031994 -3.9415362 0.44100806 12
-3.2022097 -3.9389136 0.2640349 12
-3.187849 -3.9198511 0.087523811 36
-1.2077562 -1.4824396 -0.50210917 3
-1.4091901 -1.7290698 -0.50614017 2
-1.6586745 -2.0344608 -0.5023306 2
-3.2015967 -3.9255462 -0.79625201 14
-3.2053638 -3.9287646 -0.61787826 12
-3.1799521 -3.8962293 -0.43665093 13
-3.2010076 -3.9206302 -0.26237383 12
-3.1865745 -3.9015622 -0.086390197 13
-3.1992545 -3.9156926 1.343689 11
-3.1999311 -3.9151256 1.1576221 10
-3.1931834 -3.9054785 0.97225207 11
-3.1852763 -3.8944201 0.78990471 11
-3.1951334 -3.905081 0.61483085 12
-3.1980088 -3.9072037 0.43839338 12
-3.1937966 -3.9006681 0.26220313 12
-3.1793382 -3.8816276 0.086912982 35
-1.2221142 -1.4894156 -0.50599146 2
nan nan nan 0
nan nan nan 0
-3.1933379 -3.8876338 -0.79077685 13
-3.2001545 -3.8945463 -0.61422217 11
-3.174556 -3.8620191 -0.43403628 15
-3.1956456 -3.8862925 -0.260809 13
-3.1811182 -3.8672497 -0.085871853 14
-3.1944902 -3.8821244 1.3359296 11
-3.1949997 -3.8813624 1.1508787 10
-3.1849561 -3.8677855 0.96557975 11
-3.1768711 -3.8565953 0.78443557 12
-3.1866529 -3.8670945 0.61056536 11
-3.1894503 -3.8691132 0.43534294 12
-3.1883328 -3.8663826 0.26063305 12
-3.1737804 -3.847367 0.086389408 36
-1.2242292 -1.4814177 -0.50469732 2
nan nan nan 0
nan nan nan 0
-3.1880016 -3.8536327 -0.78608388 14
-3.1947451 -3.8604119 -0.61056608 12
-3.1689594 -3.827893 -0.43142158 14
-3.186898 -3.8481941 -0.25898331 14
-3.1722729 -3.8291738 -0.085267127 12
-3.1864486 -3.8449185 1.3268769 11
-3.1867626 -3.8439317 1.1430113 10
-3.1796381 -3.8339758 0.95986062 11
-3.1713936 -3.8226769 0.77974766 11
-3.1811163 -3.8330343 0.60690933 11
-3.1838462 -3.8349617 0.43272823 13
-3.1794784 -3.8283408 0.25880128 13
-3.1680231 -3.8131936 0.08586584 35
nan nan nan 0
nan nan nan 0
nan nan nan 0
-3.179306 -3.8159218 -0.78060859 14
-3.1859598 -3.8225513 -0.60630065 12
-3.1599741 -3.7900283 -0.42837113 14
-3.1811225 -3.8140395 -0.25741848 13
-3.1664035 -3.7950456 -0.084748782 13
-3.1812811 -3.8115242 1.3191173 12
-3.1814253 -3.8103449 1.1362679 9
-3.1709766 -3.7964835 0.9531883 11
-3.165719 -3.7888448 0.77505988 11
-3.1753805 -3.7990599 0.60325319 11
-3.1780431 -3.8008974 0.43011358 13
-3.1736019 -3.7942398 0.25723121 13
-3.1620655 -3.7791069 0.085342258 35
nan nan nan 0
nan nan nan 0
nan nan nan 0
-3.1735604 -3.7821026 -0.77591562 14
-3.1801395 -3.7885997 -0.60264456 12
-3.1539662 -3.7560873 -0.42575645 14
-3.1719356 -3.7761486 -0.25559282 13
-3.1603348 -3.7610052 -0.084230445 14
-3.1728117 -3.7745161 1.3100646 10
-3.1758933 -3.7768431 1.1295245 10
-3.165252 -3.7628548 0.94746917 11
-3.1598468 -3.7550988 0.77037197 10
-3.1694469 -3.765173 0.59959716 12
-3.1720414 -3.7669206 0.42749891 12
-3.1675253 -3.7602255 0.25566113 12
-3.1559091 -3.7451086 0.084818684 35
nan nan nan 0
nan nan nan 0
nan nan nan 0
-3.1644299 -3.7445979 -0.77044034 14
-3.1709175 -3.7509463 -0.59837914 12
-3.1477604 -3.7222354 -0.42314178 13
-3.1657479 -3.7421811 -0.25402796 12
-3.154067 -3.7270536 -0.083712101 13
-3.1672437 -3.7412999 1.302305 11
-3.167017 -3.7397079 1.1216571 11
-3.1561587 -3.7255678 0.94079685 10
-3.1537781 -3.7214406 0.76568419 11
-3.1633153 -3.7313738 0.59594107 12
-3.1658411 -3.7330322 0.42488426 12
-3.1612506 -3.7263007 0.25409105 13
-3.1495538 -3.7111998 0.084295116 37
-1.2416655 -1.4605008 -0.50340325 2
-1.4166856 -1.6657778 -0.49601737 2
-1.7009172 -1.9992781 -0.5023306 2
-3.158278 -3.7109644 -0.76574737 15
-3.1646891 -3.7171826 -0.59472311 12
-3.1413567 -3.6884725 -0.4205271 14
-3.1593621 -3.7083027 -0.2524631 13
-3.1476011 -3.6931922 -0.083193764 14
-3.161483 -3.7081692 1.2945455 11
-3.1610823 -3.7063887 1.1149137 10
-3.1500297 -3.6921241 0.93507767 10
-3.1475129 -3.6878703 0.76099628 11
-3.1569865 -3.6976631 0.59228498 12
-3.1594434 -3.6992333 0.42226955 13
-3.1547778 -3.6924655 0.25252098 13
-3.1430006 -3.6773815 0.083771542 37
-1.2498971 -1.4598264 -0.50469732 2
-1.4415067 -1.6830236 -0.50276589 2
-1.7078857 -1.9933286 -0.5023306 2
-3.1519294 -3.6774192 -0.76105428 14
-3.1582634 -3.6835084 -0.59106696 12
-3.1347558 -3.6547999 -0.41791245 14
-3.1495273 -3.6707256 -0.25063744 13
-3.1409371 -3.6594212 -0.08267542 14
-3.1555295 -3.6751244 1.286786 11
-3.154954 -3.6731567 1.1081703 10
-3.1437061 -3.6587694 0.9293586 11
-3.141052 -3.6543894 0.75630838 11
-3.1504614 -3.6640429 0.58862889 12
-3.1496003 -3.6617484 0.41921914 12
-3.148108 -3.6587214 0.2509509 14
-3.1362503 -3.6436543 0.083247975 37
-1.2518314 -1.4517968 -0.50340325 2
-1.4346445 -1.6632252 -0.49826688 2
-1.7180398 -1.9910709 -0.50328374 2
-3.1486123 -3.6477029 -0.75714338 14
-3.1516414 -3.649924 -0.58741087 12
-3.1279585 -3.6212189 -0.41529775 14
-3.1427336 -3.6370406 -0.24907261 14
-3.1340766 -3.6257427 -0.082157083 13
-3.149384 -3.6421666 1.2790264 11
-3.1486325 -3.640013 1.1014268 11
-3.137188 -3.6255033 0.92363942 10
-3.1343958 -3.6209993 0.75162053 11
-3.1437402 -3.6305132 0.5849728 11
-3.1427951 -3.6281424 0.41660443 13
-3.1412408 -3.6250691 0.24938083 13
-3.1293025 -3.610019 0.0827244 37
-1.2568914 -1.4474183 -0.50340325 2
-1.4564162 -1.6765971 -0.50389069 2
-1.7121015 -1.970242 -0.49947101 2
-3.1418865 -3.6143274 -0.75245041 14
-3.144824 -3.6164317 -0.58375484 12
-3.1242342 -3.5914876 -0.41311884 14
-3.1357434 -3.6034479 -0.24750774 13
-3.1270187 -3.5921562 -0.081638739 13
-3.1430476 -3.6092968 1.2712669 11
-3.142118 -3.6069582 1.0946834 10
-3.1337008 -3.5960281 0.91887349 11
-3.1275449 -3.5876997 0.74693263 11
-3.1368237 -3.5970759 0.58131677 12
-3.1357949 -3.5946293 0.41398978 12
-3.134177 -3.5915093 0.24781074 13
-3.122159 -3.5764775 0.082200833 36
-1.2619362 -1.4430221 -0.50340325 2
-1.4558444 -1.6641695 -0.50164115 2
-1.7286657 -1.9753348 -0.5023306 2
-3.1349664 -3.5810437 -0.74775732 14
-3.1378112 -3.5830312 -0.58009869 12
-3.1170583 -3.5580807 -0.41050419 14
-3.1318479 -3.573704 -0.24620369 14
-3.119765 -3.5586634 -0.081120394 13
-3.1365199 -3.5765157 1.2635074 12
-3.1354113 -3.5739934 1.08794 10
-3.1268091 -3.562933 0.91315442 12
-3.1205006 -3.5544932 0.74224484 11
-3.1297121 -3.5637312 0.57766062 12
-3.1318858 -3.5649512 0.41181087 12
-3.1302142 -3.5617943 0.24650235 13
-3.1181202 -3.5467842 0.081764519 35
-1.2637736 -1.4349838 -0.50210917 3
-1.4616445 -1.6590775 -0.50164115 2
-1.7323052 -1.9656061 -0.5013774 2
-3.1278522 -3.5478525 -0.74306434 14
-3.1338863 -3.5534461 -0.57705194 12
-3.1129832 -3.5285027 -0.40832528 14
-3.1244793 -3.540288 -0.24463885 14
-3.1123161 -3.5252657 -0.080602057 13
-3.129802 -3.5438249 1.2557479 11
-3.1285133 -3.5411196 1.0811965 10
-3.1197243 -3.5299301 0.90743524 11
-3.1132622 -3.5213792 0.73755693 11
-3.1224065 -3.5304804 0.57400459 12
-3.1245079 -3.5316138 0.4091962 12
-3.1227727 -3.5284116 0.24493226 13
-3.1105981 -3.5134196 0.081240945 35
-1.2687749 -1.4305637 -0.50210917 2
-1.47066 -1.6576093 -0.50276589 2
-1.7358977 -1.9558764 -0.50042421 2
-3.1238239 -3.5184481 -0.73915344 14
-3.126498 -3.5202222 -0.57339591 12
-3.1054308 -3.4952731 -0.40571058 14
-3.1202326 -3.510699 -0.2433348 13
-3.1046722 -3.4919634 -0.080083713 13
-3.1228943 -3.5112243 1.2479883 11
-3.121424 -3.508338 1.0744531 9
-3.1157107 -3.5006862 0.90266925 12
-3.1058311 -3.4883599 0.73286909 12
-3.1182075 -3.5010297 0.57095784 12
-3.120249 -3.5020912 0.40701732 12
-3.1184587 -3.4988523 0.24362385 12
-3.1028819 -3.4801519 0.080717377 35
-1.2705435 -1.4225241 -0.50081509 3
-1.4699452 -1.6451998 -0.50051636 2
-1.7427144 -1.9498049 -0.50042421 2
-3.1163366 -3.4854329 -0.73446035 15
-3.1222246 -3.4907923 -0.57034916 12
-3.1010067 -3.465852 -0.40353173 15
-3.1158183 -3.4811833 -0.24203075 14
-3.1001687 -3.4624825 -0.079651766 13
-3.1157975 -3.4787159 1.2402289 11
-3.1173959 -3.4792781 1.0688336 10
-3.1082554 -3.467859 0.89695019 12
-3.1015048 -3.4591119 0.72896254 12
-3.1105275 -3.4679575 0.56730175 13
-3.1124959 -3.4689336 0.40440264 13
-3.110642 -3.4656501 0.24205379 13
-3.0983112 -3.4507003 0.080281064 35
-1.2755013 -1.4180803 -0.50081509 2
-1.4724206 -1.6364373 -0.49939165 2
-1.7429427 -1.9364136 -0.49851784 2
-3.1119621 -3.4561844 -0.73054957 15
-3.1144626 -3.4577477 -0.56669313 12
-3.0930805 -3.4328034 -0.40091702 14
-3.1112354 -3.451741 -0.24072671 14
-3.0954976 -3.4330757 -0.079219811 14
-3.1117468 -3.4498861 1.2337626 11
-3.1099386 -3.4466717 1.0620902 10
-3.103898 -3.4387703 0.89218426 11
-3.0937023 -3.4262719 0.72427464 11
-3.1059813 -3.4386642 0.56425506 12
-3.1078887 -3.439569 0.40222374 13
-3.1059792 -3.4362497 0.2407454 13
-3.0902195 -3.4176152 0.079757489 37
-1.2804437 -1.4136194 -0.50081509 2
-1.4584963 -1.6096262 -0.49264312 2
-1.7496914 -1.9303179 -0.49851784 2
-3.1041038 -3.4233499 -0.72585648 15
-3.1098425 -3.4284761 -0.56364638 12
-3.0883088 -3.4035423 -0.39873812 14
-3.1031299 -3.4186769 -0.23916186 14
-3.0906589 -3.403744 -0.078787863 14
-3.1042855 -3.417552 1.2260031 11
-3.1055686 -3.4177661 1.0564706 10
-3.0960743 -3.4061227 0.88646513 11
-3.0890312 -3.3971829 0.72036815 11
-3.0979295 -3.4057744 0.56059897 12
-3.1031151 -3.410279 0.40004483 13
-3.0977883 -3.4032316 0.2391753 14
-3.0853016 -3.3883255 0.079321183 36
-1.2853703 -1.4091412 -0.50081509 2
-1.4772414 -1.6189206 -0.49714214 2
-1.7564188 -1.9241986 -0.49851784 2
-3.0993843 -3.3942592 -0.72194564 15
-3.1050556 -3.3992786 -0.56059963 12
-3.0833704 -3.3743558 -0.39655921 14
-3.0981998 -3.3893962 -0.23785782 14
-3.0856535 -3.3744879 -0.078355908 14
-3.0966368 -3.3853128 1.2182436 11
-3.0977461 -3.385339 1.0497272 10
-3.0913742 -3.3771918 0.8816992 11
-3.0841949 -3.3681679 0.7164616 11
-3.0930383 -3.3766425 0.55755222 11
-3.0981746 -3.3810649 0.39786598 13
-3.0927794 -3.3739944 0.23786692 14
-3.0802164 -3.3591118 0.078884877 35
-1.2935485 -1.4082026 -0.50210917 2
-1.496069 -1.6281033 -0.50164115 2
-1.7664464 -1.9216691 -0.49947101 2
-3.0945003 -3.3652439 -0.71803474 14
-3.1001036 -3.3701568 -0.55755287 12
-3.0782669 -3.3452461 -0.39438036 14
-3.0931036 -3.3601928 -0.23655376 14
-3.0804813 -3.3453081 -0.077923954 14
-3.0920732 -3.3567209 1.2117773 11
-3.0930364 -3.3565907 1.0441077 11
-3.0831835 -3.3447266 0.87598002 12
-3.0758457 -3.3355978 0.71177369 12
-3.0879815 -3.3475862 0.55450547 12
-3.0930686 -3.3519266 0.39568707 13
-3.0842168 -3.3411644 0.23629683 13
-3.0749652 -3.3299751 0.078448564 37
-1.2984561 -1.4036788 -0.50210917 2
-1.5116695 -1.6335982 -0.50501537 2
-1.7731434 -1.9154913 -0.49947101 2
-3.0894516 -3.3363044 -0.71412396 14
-3.094986 -3.3411114 -0.55450612 12
-3.0729971 -3.3162127 -0.39220145 15
-3.0878415 -3.3310657 -0.23524971 14
-3.0751438 -3.3162067 -0.077492014 13
-3.0840633 -3.3246613 1.2040178 12
-3.0848503 -3.3243456 1.0373642 10
-3.0781434 -3.3159571 0.87121403 11
-3.0706677 -3.3067465 0.70786715 11
-3.0827603 -3.3186071 0.55145878 12
-3.0844059 -3.3192165 0.3930724 13
-3.0788631 -3.3120923 0.23498842 13
-3.0695486 -3.3009164 0.07801225 38
-1.3066399 -1.4026717 -0.50340325 2
-1.530648 -1.6425683 -0.50951445 2
-1.7798189 -1.9092903 -0.49947101 2
-3.0842383 -3.307441 -0.71021307 15
-3.0897043 -3.3121431 -0.55145943 12
-3.0675631 -3.2872577 -0.39002255 14
-3.0824142 -3.3020167 -0.23394568 13
-3.0696409 -3.287183 -0.077060059 14
-3.0791647 -3.2962286 1.1975516 11
-3.0798032 -3.2957587 1.0317447 10
-3.0729406 -3.2872646 0.86644816 12
-3.0653262 -3.2779722 0.70396066 12
-3.0739841 -3.2860806 0.54780269 12
-3.0789568 -3.2902455 0.39089352 13
-3.0733442 -3.2830989 0.23368002 13
-3.0639663 -3.2719364 0.077575937 37
-1.3115282 -1.398102 -0.50340325 2
-1.5230372 -1.623005 -0.50501537 2
-1.7864727 -1.9030659 -0.49947101 2
-3.0788617 -3.2786551 -0.70630217 15
-3.0842576 -3.2832525 -0.54841268 12
-3.0619636 -3.2583804 -0.38784364 14
-3.0768218 -3.273047 -0.23264164 14
-3.0639725 -3.2582383 -0.076628104 14
-3.074105 -3.2678704 1.1910853 11
-3.0745947 -3.2672479 1.0261252 11
-3.0675747 -3.2586484 0.86168224 12
-3.0598211 -3.2492754 0.70005405 11
-3.0684214 -3.2572687 0.54475594 11
-3.0733428 -3.2613525 0.38871461 13
-3.0676608 -3.2541847 0.23237164 13
-3.0582199 -3.2430358 0.077139638 37
-1.3164005 -1.3935155 -0.50340325 2
-1.5253474 -1.614138 -0.50389069 2
-1.7897332 -1.8932518 -0.49851784 2
-3.0699291 -3.2463593 -0.70160919 15
-3.0786469 -3.2544403 -0.54536593 12
-3.0562007 -3.2295833 -0.38566473 14
-3.0710647 -3.2441556 -0.23133759 13
-3.0581398 -3.2293735 -0.076196156 14
-3.0688853 -3.239588 1.1846191 11
-3.0692248 -3.2388139 1.0205057 10
-3.065424 -3.2336724 0.85786951 12
-3.0541532 -3.2206573 0.6961475 11
-3.062695 -3.2285359 0.54170918 12
-3.0675652 -3.2325394 0.38653573 12
-3.0652504 -3.2289712 0.23132493 14
-3.052309 -3.214215 0.076703325 38
-1.3212568 -1.388912 -0.50340325 2
-1.5242555 -1.6017452 -0.50164115 2
-1.7929466 -1.8834375 -0.49756464 2
-3.0642138 -3.2177417 -0.6976983 14
-3.0728731 -3.2257075 -0.54231918 12
-3.0502746 -3.2008662 -0.38348588 14
-3.0685887 -3.2189596 -0.23029435 14
-3.0521431 -3.2005889 -0.075764202 14
-3.0635059 -3.2113822 1.1781528 11
-3.0636935 -3.2104568 1.0148861 11
-3.0597465 -3.2052007 0.85310352 12
-3.0483232 -3.1921184 0.69224095 12
-3.0602341 -3.2034712 0.53927177 12
-3.0616236 -3.2038064 0.38435683 13
-3.0592515 -3.2002056 0.23001653 14
-3.0462344 -3.1854756 0.076267011 37
-1.3260969 -1.3842913 -0.50340325 2
-1.5264664 -1.5928973 -0.50051636 2
-1.79951 -1.8771676 -0.49756464 2
-3.0583367 -3.1892045 -0.6937874 15
-3.0669365 -3.1970551 -0.53927243 12
-3.0441852 -3.17223 -0.38130698 14
-3.0625172 -3.1902182 -0.2289903 13
-3.0494459 -3.1754925 -0.075418636 14
-3.0579669 -3.1832535 1.1716865 11
-3.0580022 -3.1821785 1.0092666 10
-3.0539083 -3.1768084 0.84833759 11
-3.0457544 -3.1672194 0.6891157 12
-3.0541952 -3.1748874 0.53622508 12
-3.0555193 -3.1751544 0.38217792 13
-3.0530889 -3.1715214 0.22870812 14
-3.0434644 -3.1604192 0.075917967 37
-1.3309209 -1.3796539 -0.50340325 2
-1.5286344 -1.5840536 -0.49939165 2
-1.8026427 -1.8673435 -0.49661148 2
-3.0522976 -3.1607471 -0.68987656 15
-3.0608377 -3.168484 -0.53622574 12
-3.0413942 -3.1472571 -0.37956384 14
-3.056282 -3.1615586 -0.22768626 14
-3.0431354 -3.1468599 -0.074986689 13
-3.0522695 -3.1552031 1.1652203 12
-3.0521514 -3.1539793 1.0036471 11
-3.0479093 -3.1484957 0.8435716 12
-3.0396137 -3.1388299 0.68520916 11
-3.0514467 -3.1499488 0.53378773 13
-3.0527186 -3.1501615 0.38043481 13
-3.0502396 -3.1465046 0.2276614 14
-3.0370765 -3.1318316 0.075481653 38
-1.3357288 -1.3749998 -0.50340325 2
-1.5341545 -1.5787081 -0.49939165 2
-1.80915 -1.8610398 -0.49661148 2
-3.0495403 -3.1359115 -0.68674785 15
-3.0580373 -3.1435511 -0.53378832 12
-3.0349929 -3.118773 -0.37738496 14
-3.0533674 -3.1365595 -0.22664301 14
-3.0366626 -3.1183102 -0.074554741 13
-3.0497837 -3.1306908 1.1600473 12
-3.0461409 -3.1258597 0.99802762 10
-3.0417504 -3.1202648 0.83880574 12
-3.0367599 -3.114058 0.6820839 11
-3.0450964 -3.1215162 0.53074098 12
-3.0463021 -3.1216621 0.3782559 13
-3.0437646 -3.1179729 0.22635299 14
-3.0340188 -3.1069043 0.075132601 37
-1.3405201 -1.3703289 -0.50340325 3
-1.5362482 -1.5698611 -0.49826688 2
-1.8156352 -1.8547133 -0.49661148 2
-3.0431919 -3.1076057 -0.68283695 15
-3.0516272 -3.1151316 -0.53074157 12
-3.0319161 -3.09393 -0.37564182 14
-3.0468202 -3.1080534 -0.22533897 14
-3.0335281 -3.0934141 -0.074209183 14
-3.043782 -3.102787 1.153581 12
-3.0433841 -3.1012983 0.993532 11
-3.0354311 -3.0921144 0.83403975 12
-3.0303102 -3.0858204 0.67817736 12
-3.0420628 -3.0967069 0.52830362 12
-3.0397241 -3.0932462 0.37607706 13
-3.0406284 -3.0930862 0.22530627 14
-3.0308242 -3.0820367 0.074783556 38
-1.3452953 -1.3656412 -0.50340325 3
-1.5417187 -1.564489 -0.49826688 2
-1.8220984 -1.8483642 -0.49661148 2
-3.0366831 -3.0793822 -0.67892611 15
-3.0450566 -3.0867956 -0.52769482 12
-3.0287027 -3.0691462 -0.37389871 14
-3.0436196 -3.0831859 -0.22429574 14
-3.0267437 -3.0650201 -0.073777229 14
-3.0376227 -3.0749631 1.1471148 12
-3.0370679 -3.0733287 0.98791248 11
-3.0289533 -3.0640469 0.82927382 11
-3.023701 -3.0576663 0.67427087 11
-3.0354033 -3.0684285 0.52525687 12
-3.036489 -3.068455 0.37433392 13
-3.0338428 -3.0647111 0.22399788 14
-3.0239756 -3.0536771 0.074347243 39
-1.3500541 -1.3609369 -0.50340325 3
-1.5471704 -1.5590979 -0.49826688 2
-1.831997 -1.8454759 -0.49756464 2
-3.0334947 -3.0547471 -0.6757974 15
-3.0418229 -3.0620646 -0.52525747 12
-3.0218425 -3.0408897 -0.37171981 14
-3.0367625 -3.0548372 -0.2229917 14
-3.023324 -3.040257 -0.073431671 14
-3.0313063 -3.0472202 1.1406485 11
-3.0340312 -3.0488949 0.98341686 11
-3.0223157 -3.0360622 0.82450783 11
-3.0169315 -3.0295959 0.67036426 12
-3.0320854 -3.0437505 0.52281946 13
-3.0296016 -3.0401957 0.37215504 13
-3.026897 -3.0364215 0.22268949 14
-3.0204966 -3.0289435 0.073998198 38
-1.3547964 -1.3562161 -0.50340325 2
-1.5526034 -1.5536877 -0.49826688 2
-1.8418981 -1.8425413 -0.49851784 2
-3.0266795 -3.0266798 -0.67188662 15
-3.0349438 -3.0338848 -0.52221072 12
-3.0183456 -3.0162394 -0.3699767 14
-3.0332773 -3.0301027 -0.22194847 14
-3.0162306 -3.0120225 -0.072999716 14
-3.0282519 -3.0229714 1.1354754 12
-3.0274115 -3.0210779 0.97779727 10
-3.0189953 -3.0116279 0.8206951 12
-3.0135005 -3.0050974 0.66723901 12
-3.0251184 -3.0156298 0.51977271 11
-3.0260825 -3.0155382 0.3704119 13
-3.0233276 -3.0117414 0.22164278 14
-3.013339 -3.0007434 0.073561884 40
-1.3560971 -1.3480738 -0.50210917 2
-1.5580173 -1.5482587 -0.49826688 2
-1.8552827 -1.8430189 -0.50042421 2
-3.0232096 -3.0021772 -0.66875792 14
-3.0314276 -3.0092874 -0.5197733 12
-3.0147135 -2.9916511 -0.36823359 14
-3.0261111 -3.0019133 -0.22064441 14
-3.0125268 -2.9873946 -0.072654158 14
-3.0216348 -2.9953809 1.1290091 12
-3.0240963 -2.9967747 0.97330165 10
-3.0120547 -2.9837999 0.81592917 11
-3.0064263 -2.9771848 0.66333246 12
-3.0215189 -2.9910865 0.51733536 12
-3.0188878 -2.9874387 0.36823303 13
-3.0160735 -2.9836121 0.22033437 15
-3.0095763 -2.9761457 0.07321284 40
-1.3607944 -1.3433319 -0.50210917 2
-1.5599446 -1.5393889 -0.49714214 2
-1.8686932 -1.8434255 -0.5023306 2
-3.016089 -2.974268 -0.66484702 15
-3.0277767 -2.9847517 -0.51733595 12
-3.0109468 -2.9671247 -0.36649045 14
-3.0223429 -2.9773154 -0.21960118 14
-3.0051262 -2.9593217 -0.072222203 14
-3.0183046 -2.971262 1.1238362 12
-3.0171754 -2.9691136 0.96768212 11
-3.0084555 -2.9594994 0.81211638 11
-3.0027153 -2.9528213 0.66020721 11
-3.0142457 -2.9631255 0.5142886 13
-3.0150869 -2.962918 0.36648989 13
-3.0122216 -2.959069 0.21928765 15
-3.0056791 -2.9516115 0.072863787 38
-1.3620265 -1.3351927 -0.50081509 2
-1.5653087 -1.5339344 -0.49714214 2
-1.8926479 -1.8540652 -0.50709653 2
-3.0123394 -2.9499011 -0.66171837 15
-3.0239913 -2.9602778 -0.51489854 12
-3.0070457 -2.9426615 -0.36474735 14
-3.01844 -2.952781 -0.21855795 14
-3.0011408 -2.9348328 -0.071876645 14
-3.014843 -2.9472032 1.1186632 12
-3.0135832 -2.9449434 0.9631865 11
-3.0047235 -2.9352603 0.80830365 12
-2.995338 -2.92507 0.65630066 12
-3.010366 -2.9387193 0.51185119 12
-3.007587 -2.9349816 0.36431101 14
-3.0082359 -2.9345901 0.21824093 14
-3.0016472 -2.9271405 0.072514743 39
-1.3632182 -1.3270613 -0.49952096 2
-1.5636705 -1.5216657 -0.49489263 2
-1.8779989 -1.8269122 -0.5013774 2
-3.0084562 -2.9255962 -0.65858966 15
-3.0165143 -2.9324081 -0.51185179 12
-3.003011 -2.9182618 -0.36300424 15
-3.0144029 -2.9283097 -0.21751472 14
-2.997021 -2.9104075 -0.07153108 14
-3.01125 -2.9232044 1.1134901 12
-3.0063624 -2.9174407 0.95756698 10
-3.0008595 -2.9110839 0.80449092 12
-2.9913487 -2.9008443 0.65317541 12
-3.0063527 -2.9143765 0.50941384 12
-3.0035055 -2.9105997 0.36256787 13
-3.0041158 -2.9101746 0.21719421 15
-2.9974813 -2.9027336 0.07216569 38
-1.3678422 -1.3222948 -0.49952096 2
-1.5654691 -1.5128125 -0.49376786 2
-1.8843646 -1.8203456 -0.5013774 2
-3.0044405 -2.9013546 -0.65546095 15
-3.0124497 -2.9080737 -0.50941443 13
-2.998842 -2.8939261 -0.36126113 14
-3.0066378 -2.9004362 -0.21621066 14
-2.9927676 -2.8860474 -0.071185522 13
-3.0040493 -2.895915 1.1070238 12
-3.0024953 -2.8934062 0.95307136 11
-2.9968631 -2.88697 0.80067813 12
-2.987227 -2.8766823 0.65005016 12
-2.9986308 -2.8866556 0.50636709 13
-2.9992909 -2.8862827 0.36082476 13
-2.9998624 -2.8858242 0.2161475 14
-2.9931819 -2.878392 0.071816646 38
-1.3759336 -1.3208567 -0.50081509 2
-1.560195 -1.4972192 -0.49039361 2
-1.8871653 -1.810359 -0.50042421 2
-3.0002925 -2.8771772 -0.65233225 15
-3.0082524 -2.8838031 -0.50697702 12
-2.9945405 -2.8696556 -0.35951799 15
-3.0023212 -2.8761067 -0.21516743 15
-2.9883811 -2.8617527 -0.070839964 14
-3.0001841 -2.8720517 1.1018509 13
-2.9984968 -2.8694339 0.94857574 12
-2.9927354 -2.8629196 0.7968654 11
-2.9829733 -2.8525844 0.64692497 13
-2.9943395 -2.8624535 0.50392967 12
-2.9949431 -2.8620303 0.35908166 13
-2.9954755 -2.8615389 0.21510078 14
-2.9887493 -2.8541157 0.071467601 39
-1.3840315 -1.3193783 -0.50210917 2
-1.5865731 -1.5119298 -0.49714214 2
-1.8934731 -1.8037605 -0.50042421 2
-2.9960122 -2.8530643 -0.6492036 16
-3.0039227 -2.8595977 -0.50453967 13
-2.9864976 -2.8420165 -0.35733908 14
-2.9978714 -2.8518431 -0.2141242 14
-2.9838612 -2.8375235 -0.070494398 13
-2.9961891 -2.8482511 1.0966779 12
-2.9943681 -2.8455253 0.94408011 11
-2.9849174 -2.8355532 0.79209942 11
-2.9785883 -2.8285515 0.64379972 11
-2.9899163 -2.8383169 0.50149232 12
-2.9904633 -2.8378439 0.35733855 13
-2.9909556 -2.8373194 0.21405403 14
-2.9841838 -2.829906 0.071118549 38
-1.3886287 -1.314539 -0.50210917 2
-1.5953795 -1.5097308 -0.49826688 2
-1.8997579 -1.7971401 -0.50042421 2
-2.9916003 -2.829016 -0.64607489 16
-2.9994609 -2.835458 -0.50210226 12
-2.9819191 -2.8178899 -0.35559598 13
-2.9932892 -2.8276458 -0.21308096 15
-2.9792089 -2.8133609 -0.070148841 14
-2.9920645 -2.824513 1.0915048 13
-2.990109 -2.8216803 0.93958449 11
-2.9805157 -2.8116443 0.78828669 11
-2.9740717 -2.8045845 0.64067447 12
-2.9853611 -2.8142459 0.49905494 12
-2.985851 -2.8137238 0.35559544 14
-2.9863036 -2.8131664 0.21300732 14
-2.9794858 -2.8057628 0.070769504 39
-1.3967277 -1.3129916 -0.50340325 2
-1.6112907 -1.5141616 -0.50164115 2
-1.9024421 -1.7871372 -0.49947101 2
-2.9870577 -2.8050339 -0.64294618 15
-2.9948671 -2.8113842 -0.49966487 12
-2.9772089 -2.7938304 -0.35385287 14
-2.9885745 -2.8035152 -0.21203773 14
-2.9744244 -2.7892654 -0.069803283 14
-2.984287 -2.7975354 1.0850385 12
-2.9857199 -2.7979 0.93508887 11
-2.9759836 -2.7878008 0.78447396 12
-2.969424 -2.780683 0.63754922 13
-2.9806745 -2.790242 0.49661753 13
-2.9811068 -2.7896705 0.35385233 13
-2.9815197 -2.7890811 0.2119606 15
-2.9746556 -2.781687 0.070420451 41
-1.3977721 -1.3048126 -0.50210917 2
-1.620128 -1.5118515 -0.50276589 2
-1.9050797 -1.7771376 -0.49851784 2
-2.9823833 -2.7811174 -0.63981742 15
-2.9865117 -2.7839932 -0.49661812 12
-2.9723666 -2.7698379 -0.35210976 15
-2.9837284 -2.7794526 -0.2109945 14
-2.9695084 -2.7652385 -0.069457717 14
-2.9798932 -2.7739377 1.0798656 12
-2.9812019 -2.7741849 0.93059325 11
-2.9713213 -2.7640233 0.78066117 11
-2.9682629 -2.7602117 0.63520533 12
-2.9758568 -2.7663052 0.49418014 13
-2.9798803 -2.7690759 0.35254499 14
-2.976604 -2.7650635 0.21091388 15
-2.9696944 -2.7576795 0.070071407 41
-1.4023181 -1.2999254 -0.50210917 2
-1.6218221 -1.5028758 -0.50164115 2
-1.9040699 -1.7638056 -0.49661148 2
-2.9775794 -2.7572689 -0.63668877 15
-2.985286 -2.763438 -0.49479008 13
-2.9673936 -2.7459135 -0.35036662 14
-2.9787507 -2.7554579 -0.20995125 15
-2.9644608 -2.7412794 -0.069112159 14
-2.9753716 -2.7504053 1.0746926 13
-2.9801326 -2.7538421 0.9272216 11
-2.9701355 -2.743643 0.77780163 12
-2.9633667 -2.7364321 0.63208008 13
-2.9709082 -2.7424359 0.49174276 13
-2.9748852 -2.7451456 0.35080189 14
-2.9752274 -2.7444999 0.21012886 15
-2.9646013 -2.7337401 0.069722362 39
-1.4032937 -1.2917516 -0.50081509 2
-1.623473 -1.4939064 -0.50051636 2
-1.9102151 -1.7571485 -0.49661148 2
-2.9762802 -2.7368302 -0.63434225 16
-2.9802992 -2.7395661 -0.49235269 12
-2.9622898 -2.7220576 -0.34862351 15
-2.9736416 -2.7315319 -0.20890802 14
-2.9629645 -2.7207708 -0.068852983 15
-2.9707217 -2.7269382 1.0695195 13
-2.9753683 -2.7302465 0.92272598 11
-2.9652264 -2.7199874 0.7739889 11
-2.9583409 -2.7127206 0.62895483 13
-2.9658298 -2.7186351 0.48930538 13
-2.9697604 -2.7212844 0.34905878 14
-2.970062 -2.720607 0.20908214 15
-2.9593778 -2.7098706 0.06937331 39
-1.4077942 -1.2868453 -0.50081509 2
-1.6250815 -1.4849441 -0.49939165 2
-1.9235851 -1.7570906 -0.49851784 2
-2.9712281 -2.7131045 -0.63121355 16
-2.9751828 -2.7157636 -0.48991531 13
-2.9607351 -2.7016284 -0.34731618 14
-2.9684024 -2.7076752 -0.20786478 14
-2.9576676 -2.6969378 -0.068507425 14
-2.9659443 -2.703537 1.0643466 12
-2.9704754 -2.7067182 0.91823035 11
-2.9601884 -2.6963992 0.77017617 12
-2.9531858 -2.6890776 0.62582964 12
-2.9606216 -2.6949036 0.48686799 14
-2.968189 -2.7008445 0.34775141 14
-2.9684596 -2.7001436 0.2082971 15
-2.9577229 -2.6894343 0.069111526 38
-1.4122777 -1.2819234 -0.50081509 2
-1.6302551 -1.4792625 -0.49939165 2
-1.9333422 -1.7536627 -0.49947101 2
-2.9660468 -2.6894474 -0.6280849 16
-2.9699366 -2.69203 -0.48747793 12
-2.9553833 -2.6778991 -0.34557304 14
-2.9630327 -2.6838887 -0.20682155 15
-2.9522405 -2.6731753 -0.068161868 14
-2.9610403 -2.6802027 1.0591736 12
-2.9654548 -2.6832573 0.91373473 11
-2.9550221 -2.6728795 0.76636338 12
-2.9515648 -2.6688156 0.62348568 13
-2.9589658 -2.6745691 0.48503998 13
-2.9628155 -2.6771097 0.3460083 15
-2.9630449 -2.6763775 0.20725037 15
-2.9522505 -2.6656921 0.068762474 39
-1.4167438 -1.2769858 -0.50081509 2
-1.6317892 -1.4703015 -0.49826688 2
-1.9430988 -1.7501884 -0.50042421 2
-2.960737 -2.6658597 -0.62495619 16
-2.964561 -2.6683662 -0.48504055 13
-2.9499021 -2.6542401 -0.34382993 15
-2.9575336 -2.6601729 -0.2057783 15
-2.9466836 -2.6494834 -0.067816302 14
-2.9560094 -2.6569357 1.0540005 13
-2.9603071 -2.6598647 0.90923911 11
-2.949728 -2.6494291 0.76255065 11
-2.9461641 -2.645299 0.62036043 12
-2.9535108 -2.6509645 0.48260257 13
-2.96102 -2.6567717 0.34470096 14
-2.9612181 -2.6560166 0.20646533 15
-2.9466488 -2.6420212 0.068413429 40
-1.4211926 -1.2720326 -0.50081509 2
-1.6369116 -1.4645965 -0.49826688 2
-1.9491962 -1.7433951 -0.50042421 2
-2.9589801 -2.6456339 -0.62260967 16
-2.9627566 -2.6480801 -0.4832125 13
-2.9480059 -2.6339705 -0.34252259 14
-2.9556291 -2.6398544 -0.20499587 15
-2.9409974 -2.6258633 -0.067470744 14
-2.9544559 -2.6369529 1.0501208 13
-2.9586673 -2.6397841 0.90586734 11
-2.9443059 -2.6260478 0.75873792 12
-2.940635 -2.6218524 0.61723512 12
-2.951632 -2.6307328 0.48077455 13
-2.9553998 -2.6331656 0.34295785 14
-2.9555566 -2.6323802 0.20541862 15
-2.9446523 -2.6217465 0.068151645 41
-1.4292341 -1.2702725 -0.50210917 2
-1.6383722 -1.4556381 -0.49714214 2
-1.9552699 -1.7365805 -0.50042421 2
-2.9534249 -2.6221738 -0.61948097 15
-2.9571352 -2.6245451 -0.48077509 13
-2.9422784 -2.6104412 -0.34077948 14
-2.9498835 -2.6162686 -0.20395264 15
-2.9389234 -2.6056318 -0.067211576 15
-2.9491842 -2.6138098 1.0449479 13
-2.9532771 -2.6165171 0.90137172 11
-2.9424314 -2.6059916 0.75587833 13
-2.9349787 -2.5984771 0.61410993 12
-2.9459319 -2.6072574 0.47833717 13
-2.9533818 -2.6129317 0.34165052 14
-2.9535067 -2.6121235 0.20463358 14
-2.9388044 -2.5982065 0.067802593 39
-1.4336596 -1.2652758 -0.50210917 2
-1.6434433 -1.4499102 -0.49714214 2
-1.9539576 -1.7232517 -0.49851784 2
-2.951447 -2.602051 -0.61713445 16
-2.9551089 -2.6043627 -0.47894704 13
-2.9401605 -2.590277 -0.33947214 14
-2.9477563 -2.5960555 -0.20317021 15
-2.9329915 -2.5821431 -0.06686601 14
-2.9474132 -2.5939269 1.0410681 12
-2.9477608 -2.5933199 0.89687616 12
-2.9367673 -2.5827391 0.75206554 12
-2.932904 -2.578434 0.61176598 13
-2.9438317 -2.5871301 0.47650909 13
-2.9475164 -2.5894568 0.33990738 14
-2.9475996 -2.5886185 0.20358686 15
-2.9365849 -2.5780377 0.06754081 40
-1.4416996 -1.2634468 -0.50340325 2
-1.6448298 -1.4409542 -0.49601737 2
-1.9562683 -1.7131867 -0.49756464 2
-2.9456489 -2.578721 -0.6140058 16
-2.9492435 -2.5809588 -0.47650966 12
-2.9341888 -2.5668797 -0.33772904 15
-2.9455242 -2.5758889 -0.20238778 15
-2.9306958 -2.5620186 -0.066606842 14
-2.9419024 -2.5709097 1.0358951 13
-2.9421184 -2.5701933 0.89238054 11
-2.9346738 -2.5627863 0.74920601 12
-2.9270051 -2.5551894 0.60864073 12
-2.9378877 -2.5637863 0.47407171 13
-2.945277 -2.5693293 0.33860007 15
-2.9453282 -2.5684688 0.20280182 16
-2.9304926 -2.5546312 0.067191757 39
-1.4461011 -1.2584066 -0.50340325 2
-1.6498495 -1.4352039 -0.49601737 2
-1.9585329 -1.703127 -0.49661148 2
-2.9434512 -2.5587034 -0.61165923 16
-2.9469972 -2.560883 -0.47468162 13
-2.93185 -2.5468223 -0.33642167 14
-2.9394171 -2.5524957 -0.20134455 14
-2.9245195 -2.5386639 -0.066261277 14
-2.9362671 -2.5479629 1.030722 13
-2.9400311 -2.5503299 0.88900882 11
-2.9287684 -2.5396645 0.74539322 12
-2.9247112 -2.5352523 0.60629684 12
-2.9318171 -2.5405157 0.47163433 13
-2.9429331 -2.5492489 0.33729273 14
-2.939177 -2.5450976 0.20175511 15
-2.9280527 -2.5345707 0.066929974 38
-1.450485 -1.2533511 -0.50340325 2
-1.6548494 -1.4294361 -0.49601737 2
-1.9607507 -1.6930722 -0.49565825 2
-2.9374111 -2.5355055 -0.60853058 16
-2.9446461 -2.540854 -0.47285357 13
-2.9256353 -2.5235593 -0.33467856 14
-2.9369648 -2.532438 -0.20056213 15
-2.9220035 -2.5186484 -0.066002108 14
-2.9305074 -2.5250869 1.0255491 13
-2.93415 -2.5273335 0.8845132 11
-2.9264574 -2.5198178 0.74253368 12
-2.918571 -2.5121405 0.60317159 12
-2.9293816 -2.5205557 0.46980631 13
-2.940485 -2.5292163 0.33598539 14
-2.9366853 -2.5250564 0.20097007 16
-2.9255085 -2.5145583 0.06666819 41
-1.4548512 -1.2482804 -0.50340325 2
-1.6598289 -1.4236509 -0.49601737 2
-1.9703751 -1.6894125 -0.49661148 2
-2.9349952 -2.5155952 -0.60618407 15
-2.9384232 -2.5176439 -0.47041619 13
-2.9230773 -2.5036111 -0.33337122 15
-2.9306149 -2.5091805 -0.19951887 14
-2.919383 -2.4986811 -0.06574294 14
-2.9282937 -2.5054224 1.0216693 12
-2.928144 -2.5044088 0.88001758 11
-2.9203129 -2.4968286 0.73872095 12
-2.9160597 -2.4923115 0.60082763 12
-2.9230697 -2.4974201 0.4673689 13
-2.9341455 -2.5059972 0.33424225 14
-2.9340892 -2.5050635 0.20018502 16
-2.9190578 -2.4913495 0.066319138 41
-1.4591995 -1.2431945 -0.50340325 2
-1.6647882 -1.4178483 -0.49601737 2
-1.9799974 -1.685706 -0.49756464 2
-2.9287152 -2.4925323 -0.60305536 13
-2.9358537 -2.4977243 -0.46858817 13
-2.9166212 -2.4804845 -0.33162811 15
-2.9279435 -2.489233 -0.19873646 15
-2.9166591 -2.4787629 -0.065483771 13
-2.9222982 -2.482677 1.0164962 12
-2.9257274 -2.4847112 0.87664586 12
-2.9177852 -2.4770899 0.73586136 12
-2.9134457 -2.4725308 0.59848374 12
-2.9204166 -2.4775701 0.46554089 13
-2.9314787 -2.4860752 0.33293495 14
-2.9275808 -2.4818912 0.1991383 15
-2.9162948 -2.4714482 0.066057354 42
-1.4672176 -1.2412125 -0.50469732 2
-1.6734476 -1.4151745 -0.49714214 2
-1.9896182 -1.6819532 -0.49851784 2
-2.9260817 -2.4727311 -0.60070884 11
-2.9331813 -2.4778533 -0.4667601 13
-2.9138455 -2.4606476 -0.33032078 15
-2.9213529 -2.466114 -0.19769323 15
-2.9100113 -2.4556704 -0.065138213 14
-2.9198716 -2.4631186 1.0126165 12
-2.9194846 -2.4619203 0.87215024 12
-2.9151559 -2.4573994 0.73300183 12
-2.9069526 -2.4496164 0.59535849 13
-2.9138651 -2.4545717 0.4631035 13
-2.9287086 -2.4662018 0.33162761 14
-2.9247668 -2.4620104 0.19835328 15
