# .PCD v0.7 - Point Cloud Data file format
VERSION 0.7
FIELDS x y z intensity
SIZE 4 4 4 4
TYPE F F F F
COUNT 1 1 1 1
WIDTH 1332
HEIGHT 1
VIEWPOINT 0 0 0 1 0 0 0
POINTS 1332
DATA ascii
0.84517211 -1.9090379 0.32424381 21
0.84086204 -1.9001985 0.25044149 24
0.84557807 -1.9117572 0.17954083 24
0.84323448 -1.9073588 0.1072887 23
0.8398698 -1.9006447 0.035602909 20
0.79276246 -1.798283 -0.51634425 9
0.84638846 -1.9208349 -0.47577178 8
0.85028964 -1.9306017 -0.40224573 10
0.83915931 -1.906232 -0.32381961 23
0.84887272 -1.9292099 -0.25409788 24
0.84959334 -1.931762 -0.18128422 23
0.84125495 -1.9137089 -0.10719251 21
0.84192294 -1.9161363 -0.035506371 21
0.83884007 -1.9100251 0.54833895 21
0.83982235 -1.9131687 0.47316399 22
0.83970481 -1.9138085 0.3984327 20
0.84445351 -1.9255446 0.32658771 21
0.83820873 -1.9122124 0.2516602 21
0.84289747 -1.9238219 0.18041238 26
0.84057748 -1.9194382 0.10781206 23
0.8372395 -1.9127244 0.035777431 19
0.78648043 -1.8010392 -0.51634425 9
0.84357601 -1.9327078 -0.47802129 8
0.84747082 -1.9425557 -0.4041521 10
0.83644813 -1.9182032 -0.32538396 23
0.84609902 -1.9412601 -0.25531656 22
0.84682369 -1.9438488 -0.18215577 23
0.83855653 -1.9257898 -0.10771412 21
0.83921927 -1.9282311 -0.035679154 22
0.83602107 -1.9217993 0.55092543 20
0.83702445 -1.9250244 0.4754118 22
0.83693206 -1.9257309 0.40033907 20
0.84166235 -1.9375399 0.32815033 20
0.83548182 -1.9242311 0.25287887 20
0.84212583 -1.9404601 0.18171974 25
0.83784628 -1.9315221 0.10833542 22
0.83453494 -1.9248085 0.035951953 19
0.78018886 -1.8037736 -0.51634425 8
0.84262431 -1.9490561 -0.48139551 8
0.8445788 -1.9545133 -0.40605849 10
0.83366346 -1.9301784 -0.32694829 23
0.84325165 -1.9533143 -0.25653526 23
0.84397995 -1.9559395 -0.18302734 22
0.83578408 -1.937875 -0.10823574 21
0.83644146 -1.9403305 -0.035851933 22
0.83313 -1.9335772 0.55351192 20
0.83415401 -1.9368838 0.47765961 21
0.83408636 -1.9376575 0.40224546 18
0.83879757 -1.9495391 0.32971296 20
0.832681 -1.9362537 0.25409758 21
0.83928126 -1.9525403 0.18259129 24
0.83504099 -1.9436103 0.10885879 22
0.83175629 -1.936897 0.03612648 19
0.77578962 -1.8109254 -0.51763833 8
0.83965105 -1.9609427 -0.48364502 8
0.84161347 -1.9664742 -0.40796486 10
0.83274776 -1.9466982 -0.32929483 24
0.84033018 -1.9653721 -0.25775397 22
0.84106219 -1.9680343 -0.1838989 22
0.83293736 -1.9499643 -0.10875736 19
0.83358938 -1.9524339 -0.036024712 21
0.830167 -1.9453582 0.55609846 19
0.83312237 -1.9532279 0.4810313 22
0.83309233 -1.9541025 0.40510502 20
0.83779538 -1.966085 0.33205691 19
0.83175117 -1.9528458 0.2559256 20
0.8363626 -1.9646238 0.18346284 23
0.83216137 -1.9557022 0.10938215 21
0.8308599 -1.95359 0.036388267 18
0.77134985 -1.8180683 -0.5189324 7
0.838507 -1.9773173 -0.48701933 8
0.83857501 -1.9784384 -0.40987125 10
0.82980031 -1.9586877 -0.33085918 23
0.83926994 -1.982003 -0.25958198 20
0.83807015 -1.9801321 -0.18477045 21
0.83001643 -1.9620572 -0.10927898 19
0.83066291 -1.9645411 -0.036197495 21
0.82713175 -1.9571419 0.55868495 18
0.83009094 -1.9651003 0.48327911 20
0.8300845 -1.9660423 0.40701142 17
0.83476764 -1.9780974 0.33361951 18
0.82878679 -1.9648825 0.2571443 20
0.83336973 -1.9767109 0.1843344 24
0.82920748 -1.9677979 0.1099055 22
0.82791656 -1.9656929 0.036562789 18
0.76499885 -1.8207499 -0.5189324 6
0.83537251 -1.989216 -0.48926884 8
0.83546323 -1.990405 -0.41177762 9
0.82677925 -1.97068 -0.33242351 23
0.83618462 -1.994074 -0.26080069 22
0.83500397 -1.9922332 -0.185642 22
0.827021 -1.9741533 -0.10980059 19
0.82959276 -1.9812623 -0.036456663 21
0.8240242 -1.9689277 0.56127143 18
0.8288669 -1.98147 0.48665082 20
0.8270033 -1.9779844 0.40891778 18
0.83166617 -1.9901128 0.33518213 18
0.82574856 -1.9769223 0.25836298 20
0.83222145 -1.9933971 0.18564172 24
0.82617921 -1.9798963 0.11042886 21
0.82489878 -1.9777988 0.036737315 17
0.76081288 -1.8277354 -0.52022654 5
0.83473581 -2.0053239 -0.49264312 8
0.832977 -2.0020833 -0.41368398 9
0.82437658 -1.9823875 -0.33398786 22
0.83372545 -2.0058563 -0.26201937 23
0.83256292 -2.0040462 -0.18651357 20
0.82464468 -1.9859645 -0.11032221 19
0.82719707 -1.9930935 -0.036629442 20
0.82338655 -1.9848906 0.56515121 20
0.82636982 -1.993065 0.48889863 19
0.82454342 -1.9896417 0.41082415 18
0.8310796 -2.0064034 0.33752605 20
0.82333046 -1.9886773 0.25958169 19
0.82976401 -2.0052068 0.18651327 23
0.82377195 -1.9917103 0.11095222 21
0.82441097 -1.9942406 0.036999099 17
0.75658888 -1.8347131 -0.52152056 4
0.83144391 -2.0172338 -0.49489263 9
0.82972264 -2.0140557 -0.41559041 10
0.82309252 -1.9989523 -0.33633435 20
0.83238494 -2.0225222 -0.26384741 23
0.82935214 -2.0161529 -0.18738513 21
0.82150483 -1.9980673 -0.11084383 19
0.82403535 -2.0052171 -0.036802221 20
0.82012308 -1.9966881 0.5677377 19
0.82310838 -2.0049515 0.49114645 20
0.82131988 -2.0015895 0.41273054 19
0.82781887 -2.0184307 0.33908868 17
0.82014841 -2.0007229 0.26080036 19
0.82842481 -2.0219183 0.18782063 22
0.82249135 -2.0084357 0.11173727 21
0.8212322 -2.0063596 0.037173621 17
0.74985927 -1.837474 -0.52152056 3
0.82588464 -2.0247786 -0.49601737 9
0.82789409 -2.0307183 -0.41844994 9
0.81948757 -2.0111024 -0.3378987 16
0.8287102 -2.0347517 -0.26506612 21
0.82571304 -2.0284061 -0.18825668 20
0.81982142 -2.0149398 -0.11162625 19
0.82044679 -2.0174856 -0.036975004 19
0.81825542 -2.0131037 0.57161748 18
0.82125562 -2.0214963 0.49451819 20
0.81951803 -2.0182295 0.41559011 18
0.82412994 -2.0306036 0.34065133 20
0.8184064 -2.0175118 0.26262844 18
0.82475168 -2.0341733 0.18869218 22
0.81887519 -2.0206921 0.11226062 20
0.81950349 -2.0232568 0.037435409 16
0.74344069 -1.8400803 -0.52152056 4
0.82246029 -2.036684 -0.49826688 9
0.82447469 -2.0426991 -0.42035633 9
0.81800532 -2.0276899 -0.34024525 16
0.82717019 -2.05144 -0.26689416 21
0.82421315 -2.0451355 -0.18956403 20
0.81651419 -2.0270524 -0.11214787 18
0.81713367 -2.0296121 -0.037147783 19
0.81482947 -2.0249093 0.57420403 18
0.81783038 -2.0333912 0.496766 20
0.81612962 -2.0301859 0.4174965 18
0.82071912 -2.0426328 0.34221393 19
0.81505787 -2.0295668 0.26384711 18
0.82321233 -2.0509071 0.18999954 22
0.81739408 -2.0374405 0.11304566 20
0.81615716 -2.0353851 0.037609935 17
0.7370131 -1.8426641 -0.52152056 4
0.82077146 -2.0531139 -0.50164115 8
0.82280296 -2.0592382 -0.42321593 10
0.81641716 -2.044292 -0.34259176 13
0.82368386 -2.0635333 -0.26811287 19
0.82076079 -2.0572531 -0.19043559 18
0.81498188 -2.0438044 -0.1129303 18
0.81559676 -2.0463843 -0.037406955 19
0.81311834 -2.0412018 0.57808375 18
0.81433183 -2.0452864 0.49901381 19
0.81266761 -2.0421433 0.41940287 18
0.81723452 -2.0546632 0.34377655 17
0.81163502 -2.0416226 0.26506582 19
0.81972694 -2.0630264 0.19087109 23
0.813963 -2.0495625 0.11356901 20
0.81273621 -2.0475149 0.037784457 16
0.72879863 -1.8407352 -0.52022654 4
0.82077038 -2.0740867 -0.50614017 6
0.8192203 -2.0712261 -0.42512229 9
0.81290734 -2.0563145 -0.34415612 10
0.8219468 -2.0802424 -0.26994088 20
0.81906337 -2.0740037 -0.19174294 18
0.81150919 -2.0559256 -0.11345191 17
0.81211782 -2.0585196 -0.037579738 17
0.80953175 -2.053014 0.58067024 17
0.81254667 -2.0617144 0.5023855 20
0.81093091 -2.0586679 0.4222624 18
0.81367576 -2.0666938 0.34533918 18
0.80995524 -2.0582976 0.26689386 16
0.81616682 -2.0751457 0.19174264 21
0.81045735 -2.0616853 0.11409239 20
0.81106865 -2.0642986 0.038046245 17
0.72204709 -1.843394 -0.52022654 4
0.81849092 -2.0906904 -0.50951445 5
0.81520051 -2.0833566 -0.42702866 9
0.81076127 -2.0730777 -0.3465026 9
0.81793022 -2.0924852 -0.27115959 20
0.81508148 -2.086271 -0.1926145 19
0.80941707 -2.0728397 -0.11423435 17
0.81002039 -2.075454 -0.03783891 16
0.80726743 -2.0694664 0.58455002 17
0.80852425 -2.0737572 0.50463331 18
0.80694437 -2.0707729 0.4241688 16
0.80968022 -2.078866 0.3469018 18
0.80600637 -2.070502 0.26811254 17
0.8121677 -2.0874071 0.1926142 21
0.80832452 -2.0786028 0.11487742 19
0.80711931 -2.0765765 0.038220771 17
0.71560812 -1.845903 -0.52022654 4
0.82350951 -2.1253343 -0.51738775 6
0.81324083 -2.0999205 -0.42988822 10
0.80708516 -2.0851059 -0.34806696 8
0.81599295 -2.1092129 -0.27298763 18
0.81318313 -2.1030405 -0.19392182 18
0.80577654 -2.0849674 -0.11475597 17
0.80637348 -2.0875957 -0.038011689 17
0.80351764 -2.0812829 0.58713651 17
0.80654234 -2.0902033 0.50800502 19
0.8050096 -2.0873158 0.42702836 17
0.80774742 -2.0955038 0.3492457 18
0.80412644 -2.0871954 0.26994058 18
0.81024599 -2.1041741 0.19392152 20
0.80465078 -2.0907316 0.11540078 18
0.80524403 -2.0933816 0.038482554 17
0.70948291 -1.848266 -0.52022654 3
0.81508255 -2.1233625 -0.51626295 5
0.81015611 -2.1116302 -0.43179458 9
0.80583519 -2.1014645 -0.3504135 8
0.81469077 -2.1256678 -0.27481568 19
0.81013578 -2.1148877 -0.19479337 19
0.80457836 -2.1014776 -0.11553839 17
0.80517113 -2.1041255 -0.038270857 18
0.80215126 -2.0973306 0.59101623 17
0.80345112 -2.1018286 0.51025283 18
0.80195177 -2.0990045 0.42893475 17
0.8046838 -2.1072583 0.35080832 17
0.80110455 -2.0989842 0.27115926 17
0.80718207 -2.1160169 0.19479308 20
0.80341506 -2.1072459 0.11618582 18
0.80223006 -2.1052415 0.038657077 15
0.70506573 -1.855123 -0.52152056 3
0.80593574 -2.1216407 -0.51513821 4
0.80800676 -2.1282115 -0.43465418 9
0.80199891 -2.1134989 -0.35197783 8
0.81078571 -2.1377792 -0.27603436 19
0.80804515 -2.1316755 -0.19610073 17
0.800776 -2.1136119 -0.11606 17
0.80136222 -2.1162739 -0.038443636 16
0.79824448 -2.1091518 0.59360272 17
0.80128062 -2.1182909 0.51362455 18
0.79982722 -2.1155643 0.43179429 16
0.80081445 -2.1192937 0.35237095 17
0.79903305 -2.115696 0.27298734 18
0.80506802 -2.1328018 0.19610043 20
0.79957944 -2.119381 0.11670918 18
0.80016804 -2.1220624 0.038918864 15
0.69826168 -1.8576947 -0.52152056 3
0.79815406 -2.1245804 -0.51513821 4
0.80365175 -2.1403489 -0.43656054 9
0.79771745 -2.1256714 -0.35354218 8
0.80817342 -2.1546767 -0.27786243 19
0.80372369 -2.1439509 -0.19697228 17
0.79652774 -2.1258843 -0.11658162 16
0.79886001 -2.1332424 -0.038702808 17
0.79389483 -2.1211107 0.59618932 17
0.79863244 -2.1349034 0.51699626 18
0.79722476 -2.1322742 0.43465388 16
0.79822767 -2.1360931 0.3547149 16
0.79474604 -2.1279087 0.27420601 16
0.80247122 -2.1497374 0.19740775 20
0.79704225 -2.1363318 0.11749421 18
0.79587829 -2.1343491 0.03909339 15
0.69345629 -1.8646476 -0.52281469 3
0.7907331 -2.1273534 -0.51513821 4
0.80130357 -2.1569445 -0.43942013 9
0.7937305 -2.1377022 -0.35510653 7
0.80582714 -2.1714425 -0.27969044 18
0.79969925 -2.1560836 -0.19784385 18
0.7943089 -2.1426973 -0.11736406 17
0.7966193 -2.1500812 -0.038961977 17
0.79151756 -2.1374564 0.60006905 16
0.79624856 -2.1513853 0.52036798 18
0.7948854 -2.1488543 0.43751341 15
0.7941916 -2.1481309 0.35627753 17
0.79247373 -2.144635 0.27603403 17
0.79841363 -2.1618705 0.19827931 19
0.79476732 -2.1531537 0.11827926 18
0.79361409 -2.151185 0.039355174 15
0.68694323 -1.8670568 -0.52281469 3
0.78330237 -2.1301007 -0.51513821 4
0.79884923 -2.1735494 -0.44227967 9
0.79137212 -2.1543665 -0.35745302 7
0.80508393 -2.1928771 -0.28212786 20
0.79731578 -2.1728899 -0.19915117 16
0.79026318 -2.1548328 -0.11788567 16
0.79255027 -2.1622365 -0.039134759 17
0.78737444 -2.1492767 0.60265553 16
0.79208422 -2.1633017 0.52261579 18
0.7907533 -2.1608348 0.43941984 16
0.79177749 -2.164804 0.35862142 16
0.79009438 -2.1613715 0.2778621 15
0.79599035 -2.1786797 0.19958664 18
0.79067189 -2.1652951 0.11880261 18
0.79124206 -2.168031 0.039616961 15
0.68042183 -1.8694434 -0.52281469 3
0.77586222 -2.1328218 -0.51513821 4
0.79461139 -2.1855502 -0.44418606 9
0.78722042 -2.1663988 -0.35901737 7
0.80250674 -2.2096674 -0.28395587 19
0.79312503 -2.185024 -0.20002273 16
0.78784513 -2.1716597 -0.11866809 15
0.79011023 -2.1790895 -0.039393932 15
0.78480405 -2.1656349 0.60653532 16
0.78950548 -2.179796 0.52598751 19
0.78821772 -2.1774273 0.44227937 15
0.78757656 -2.1768429 0.36018407 16
0.78760761 -2.178117 0.27969012 15
0.79345948 -2.1954985 0.200894 18
0.78819764 -2.1821303 0.11958765 16
0.78706455 -2.1801841 0.039791483 15
0.67225605 -1.867263 -0.52152056 3
0.76841253 -2.1355171 -0.51513821 3
0.79196066 -2.2021668 -0.44704565 8
0.78466469 -2.1830757 -0.36136392 7
0.79982215 -2.2264671 -0.28578395 19
0.79054254 -2.2018433 -0.20133008 17
0.78531921 -2.1884959 -0.11945052 15
0.78756195 -2.1959512 -0.0396531 16
0.78049916 -2.1774542 0.6091218 15
0.78517807 -2.1917117 0.52823532 17
0.78392148 -2.1894076 0.44418573 14
0.78496492 -2.1935279 0.362528 15
0.78334236 -2.1901989 0.28090885 17
0.7891441 -2.2076354 0.20176555 20
0.7856155 -2.1989748 0.1203727 17
0.78449273 -2.1970425 0.040053267 14
0.66573405 -1.8695982 -0.52152056 3
0.76258695 -2.142776 -0.51626295 3
0.78755862 -2.2141669 -0.44895202 8
0.78034794 -2.1951077 -0.36292824 7
0.79536843 -2.2385981 -0.28700262 18
0.78785223 -2.2186708 -0.20263742 15
0.78268528 -2.2053409 -0.12023295 15
0.78490561 -2.2128222 -0.039912272 15
0.77773517 -2.1938221 0.61300153 15
0.78240424 -2.2082162 0.53160703 18
0.7811895 -2.2060111 0.44704533 14
0.78224653 -2.2102215 0.36487195 15
0.78065723 -2.2069559 0.28273687 16
0.78641391 -2.2244649 0.20307288 19
0.78292531 -2.2158277 0.12115774 17
0.78181285 -2.2139091 0.040315058 15
0.65920389 -1.8719107 -0.52152056 3
0.75510257 -2.1454248 -0.51626295 3
0.78471112 -2.2307928 -0.45181155 8
0.77759463 -2.2117951 -0.36527479 7
0.79248488 -2.2554071 -0.28883067 18
0.78340369 -2.2308068 -0.20350897 16
0.77994335 -2.2221937 -0.12101538 15
0.78214115 -2.229701 -0.040171444 15
0.77326834 -2.2056391 0.61558807 15
0.77791345 -2.2201297 0.53385484 17
0.77672893 -2.2179892 0.44895169 15
0.77942091 -2.2269225 0.36721584 15
0.77622592 -2.2190361 0.28395554 15
0.78357577 -2.2413025 0.20438023 18
0.77847981 -2.2279744 0.1216811 16
0.77902478 -2.2307842 0.040576845 15
0.65425396 -1.8787613 -0.52281469 3
0.74921054 -2.1526489 -0.51738775 3
0.78014451 -2.24279 -0.45371795 9
0.77473408 -2.2284894 -0.36762127 7
0.78786474 -2.2675352 -0.29004934 19
0.7805137 -2.2476435 -0.20481631 16
0.77709317 -2.2390542 -0.12179781 15
0.77926815 -2.2465868 -0.040430613 15
0.77031058 -2.2220154 0.61946785 15
0.77494401 -2.2366421 0.53722656 16
0.77380013 -2.2346013 0.45181125 13
0.77648836 -2.2436309 0.36955979 15
0.77334225 -2.2358027 0.28578362 16
0.77900213 -2.2534389 0.20525178 18
0.77558959 -2.2448363 0.12246613 15
0.77612823 -2.2476661 0.040838629 13
0.64769185 -1.8810337 -0.52281469 3
0.74169183 -2.155251 -0.51738775 3
0.77710009 -2.259424 -0.45657751 9
0.77176666 -2.2451911 -0.36996782 7
0.78478217 -2.2843521 -0.29187742 18
0.77751595 -2.2644877 -0.20612365 16
0.77251405 -2.2511988 -0.12231942 15
0.77628684 -2.2634802 -0.040689785 15
0.7672478 -2.2383974 0.62334752 15
0.77186882 -2.253161 0.54059827 16
0.77076489 -2.2512197 0.45467082 14
0.77504742 -2.265018 0.37268505 14
0.77035069 -2.2525754 0.28761163 16
0.77596432 -2.2702844 0.20655911 18
0.77097714 -2.2569802 0.12298949 17
0.77150816 -2.2598238 0.041013151 15
0.64112186 -1.883283 -0.52281469 3
0.73416406 -2.1578269 -0.51738775 3
0.77394897 -2.2760639 -0.45943707 8
0.76869184 -2.2618988 -0.3723143 7
0.78159153 -2.3011746 -0.29370543 18
0.77280879 -2.2766211 -0.20699522 15
0.76946366 -2.2680669 -0.12310185 15
0.77159172 -2.2756453 -0.040862564 15
0.76408005 -2.2547851 0.62722731 15
0.76868767 -2.269685 0.54396999 17
0.76762289 -2.267844 0.45753035 14
0.7718839 -2.2817438 0.37502894 16
0.76725155 -2.2693548 0.28943968 14
0.77281833 -2.2871358 0.20786645 18
0.76788676 -2.2738495 0.12377454 17
0.76841128 -2.2767131 0.041274939 14
0.63454407 -1.8855095 -0.52281469 3
0.72818047 -2.1649942 -0.51851249 3
0.7706911 -2.2927091 -0.46229663 8
0.76550984 -2.2786124 -0.37466085 7
0.77829307 -2.3180027 -0.29553348 18
0.769611 -2.2934713 -0.20830254 15
0.76630503 -2.2849414 -0.12388428 14
0.76840979 -2.2925446 -0.041121732 14
0.76080716 -2.2711778 0.63110709 14
0.76540053 -2.2862146 0.5473417 16
0.76437432 -2.2844739 0.46038994 13
0.76861316 -2.2984753 0.37737289 14
0.7640444 -2.2861395 0.29126769 15
0.76956403 -2.3039925 0.20917377 16
0.76468801 -2.2907248 0.12455957 17
0.7652058 -2.2936084 0.041536722 14
0.6279586 -1.8877131 -0.52281469 3
0.72061878 -2.1675229 -0.51851249 3
0.76732635 -2.3093591 -0.46515623 8
0.76222038 -2.2953305 -0.37700737 7
0.77488661 -2.3348358 -0.29736155 17
0.76630491 -2.3103268 -0.20960988 15
0.76303774 -2.301821 -0.1246667 15
0.763547 -2.3047042 -0.041294511 15
0.757429 -2.2875745 0.63498682 14
0.76200724 -2.3027487 0.55071342 17
0.76101881 -2.3011081 0.46324947 13
0.76523477 -2.3152113 0.37971681 14
0.76072949 -2.3029296 0.29309577 15
0.7677629 -2.3255844 0.21091689 20
0.76138073 -2.3076053 0.12534462 15
0.76032603 -2.3057609 0.041711248 15
0.62136543 -1.8898934 -0.52281469 3
0.71304834 -2.1700249 -0.51851249 3
0.76385468 -2.3260133 -0.46801579 8
0.75882345 -2.3120539 -0.37935388 7
0.77137202 -2.3516731 -0.29918957 17
0.76289052 -2.3271871 -0.2109172 15
0.75966197 -2.3187056 -0.12544914 13
0.76016438 -2.3216085 -0.041553684 14
0.75544775 -2.3085659 0.64015985 13
0.75850779 -2.3192866 0.55408514 15
0.75603169 -2.3130817 0.4651559 13
0.76021552 -2.3272576 0.38127947 14
0.75730658 -2.3197238 0.29492378 14
0.76582044 -2.3471916 0.21266001 18
0.75951278 -2.3292377 0.12639134 15
0.75691986 -2.3226609 0.041973036 14
0.61327225 -1.8874576 -0.52152056 3
0.70396453 -2.1678672 -0.51738775 3
0.7602762 -2.3426714 -0.47087535 8
0.75531918 -2.3287814 -0.38170043 8
0.76927948 -2.373235 -0.30162695 17
0.7593677 -2.3440516 -0.21222456 14
0.7561776 -2.3355944 -0.12623155 14
0.75667298 -2.3385172 -0.041812852 14
0.75184304 -2.3249755 0.64403963 14
0.75490218 -2.3358281 0.55745685 15
0.75247872 -2.3297186 0.46801546 13
0.75663853 -2.3439963 0.38362336 14
0.75377566 -2.3365226 0.29675183 14
0.76373643 -2.368813 0.21440314 19
0.75750309 -2.3508847 0.12743805 14
0.75340474 -2.3395643 0.042234819 14
0.60668004 -1.8895868 -0.52152056 4
0.69639295 -2.1703112 -0.51738775 3
0.75659049 -2.3593323 -0.47373492 8
0.75170714 -2.3455122 -0.38404691 7
0.76553208 -2.3900845 -0.30345502 17
0.75725484 -2.3656633 -0.21396768 14
0.75258452 -2.3524871 -0.12701398 14
0.7530728 -2.3554296 -0.042072024 13
0.74960297 -2.3459888 0.64921266 14
0.75119025 -2.3523724 0.56082857 15
0.74881876 -2.346359 0.47087502 13
0.75445449 -2.3654435 0.38674861 14
0.75013673 -2.3533247 0.2985799 14
0.75999874 -2.3857024 0.21571046 18
0.75535142 -2.3725457 0.12848477 20
0.7512967 -2.3612359 0.042583872 13
0.60008043 -1.8916931 -0.52152056 4
0.68881285 -2.172729 -0.51738775 3
0.75279784 -2.3759964 -0.47659451 8
0.74798757 -2.3622463 -0.38639346 7
0.76167619 -2.4069364 -0.30528304 17
0.75349844 -2.3825397 -0.21527502 14
0.75038743 -2.3741438 -0.12805721 13
0.75086933 -2.3771124 -0.042417586 13
0.74577123 -2.3624082 0.65309232 14
0.74737197 -2.3689191 0.56420028 16
0.74505162 -2.3630018 0.47373459 12
0.75064576 -2.3821933 0.38909256 13
0.74638945 -2.3701291 0.30040792 13
0.75764769 -2.4073458 0.21745357 20
0.75305766 -2.3942204 0.12953149 20
0.74754733 -2.3781514 0.042845655 12
0.59202933 -1.8891677 -0.52022654 4
0.67976832 -2.1704705 -0.51626295 3
0.74889779 -2.392662 -0.47945404 8
0.74416012 -2.3789823 -0.38873994 7
0.75771213 -2.4237907 -0.30711108 16
0.74963331 -2.3994184 -0.21658234 13
0.7465601 -2.3910477 -0.12883966 14
0.74703461 -2.3940361 -0.042676758 13
0.74183404 -2.3788297 0.65697211 14
0.74344718 -2.3854675 0.567572 15
0.74117756 -2.3796468 0.47659415 13
0.74672902 -2.3989453 0.39143646 13
0.74253404 -2.3869364 0.30223596 14
0.753676 -2.4242449 0.21876092 18
0.75062168 -2.4159076 0.1305782 15
0.74368894 -2.3950696 0.043107443 12
0.58685946 -1.8958362 -0.52152056 4
0.67218786 -2.1728303 -0.51626295 3
0.74489069 -2.4093297 -0.48231363 8
0.74022502 -2.3957205 -0.39108649 7
0.75363946 -2.4406459 -0.30893913 17
0.74712825 -2.4210584 -0.21832547 14
0.74262381 -2.4079535 -0.12962207 13
0.74456322 -2.4157391 -0.04302232 13
0.73779112 -2.3952522 0.66085184 14
0.74084938 -2.4066737 0.57206756 15
0.73863947 -2.400985 0.48040691 12
0.74270457 -2.4156988 0.39378041 13
0.7400279 -2.4084892 0.30467334 13
0.75105768 -2.4459074 0.22050403 18
0.74657863 -2.4328334 0.13136324 15
0.74118733 -2.416769 0.043456491 12
0.57458997 -1.8793989 -0.51634425 4
0.66459918 -2.1751633 -0.51626295 3
0.74220973 -2.4306927 -0.48612636 7
0.73762351 -2.4171834 -0.39421517 7
0.74945837 -2.4575026 -0.31076717 16
0.74302906 -2.4379456 -0.21963282 14
0.73857856 -2.4248605 -0.1304045 13
0.74049354 -2.4326708 -0.043281488 13
0.7336427 -2.4116755 0.66473162 13
0.73669541 -2.4232295 0.57543933 15
0.7345345 -2.4176376 0.48326644 12
0.74000704 -2.4371789 0.39690566 12
0.7359392 -2.4253044 0.30650139 13
0.74685174 -2.4628139 0.22181135 18
0.74387461 -2.4545388 0.13240996 15
0.73709399 -2.4336951 0.043718275 12
0.57919347 -1.9183811 -0.52669698 3
0.65700233 -2.17747 -0.51626295 3
0.73797154 -2.4473667 -0.48898596 7
0.73345608 -2.4339285 -0.39656168 7
0.74659985 -2.4791114 -0.31320456 16
0.73882103 -2.454833 -0.22094014 13
0.73442423 -2.4417684 -0.13118692 13
0.73775381 -2.4543912 -0.04362705 13
0.73077798 -2.432724 0.66990465 13
0.7338357 -2.4444516 0.57993495 14
0.73173273 -2.438992 0.4870792 12
0.73716843 -2.4586692 0.40003088 12
0.73316658 -2.4468741 0.30893877 12
0.7439658 -2.4844923 0.22355449 18
0.73959655 -2.4714711 0.133195 15
0.73289156 -2.4506223 0.043980062 13
0.56835425 -1.9065062 -0.52281469 4
0.64939755 -2.1797502 -0.51626295 3
0.73362595 -2.4640403 -0.49184549 8
0.72918081 -2.4506743 -0.3989082 6
0.742185 -2.4959733 -0.3150326 16
0.73592287 -2.4764955 -0.22268325 14
0.73016095 -2.4586773 -0.13196936 12
0.73487139 -2.4761224 -0.043972608 13
0.72640193 -2.4491518 0.67378443 13
0.73083675 -2.4656827 0.58443058 15
0.7287907 -2.4603562 0.49089199 12
0.73418885 -2.4801693 0.40315613 12
0.72884446 -2.463695 0.31076682 14
0.73952526 -2.5014038 0.22486182 17
0.73520935 -2.4884031 0.13398004 15
0.72857982 -2.4675493 0.044241846 11
0.5589686 -1.8992124 -0.52022654 3
0.64178485 -2.1820037 -0.51626295 3
0.73055696 -2.4854221 -0.49565825 8
0.72479749 -2.4674194 -0.40125474 6
0.73905945 -2.517596 -0.31747001 15
0.7314803 -2.4933879 -0.2239906 14
0.72719312 -2.480377 -0.13301259 12
0.73044056 -2.4930651 -0.04423178 10
0.72327709 -2.4702134 0.67895746 13
0.72633016 -2.4822469 0.58780229 13
0.72433084 -2.4770181 0.49375153 12
0.73106802 -2.501678 0.40628135 14
0.72580492 -2.4852791 0.3132042 13
0.73637122 -2.5230961 0.22660492 17
0.73071301 -2.5053346 0.13476509 15
0.72415888 -2.4844761 0.044503633 14
nan nan nan 0
0.63552278 -2.1889095 -0.51738775 3
0.72734773 -2.5068128 -0.49947101 7
0.72030592 -2.4841633 -0.40360126 6
0.73579174 -2.539227 -0.3199074 16
0.72692871 -2.5102794 -0.22529794 12
0.72269469 -2.4972894 -0.13379502 12
0.7272892 -2.5148096 -0.044577342 12
0.72001404 -2.4912827 0.68413043 12
0.72306865 -2.50349 0.59229791 13
0.72112465 -2.4983945 0.49756429 11
0.72780597 -2.5231953 0.4094066 10
0.72262359 -2.5068717 0.31564158 12
0.73307455 -2.5447962 0.22834805 16
0.72748858 -2.5270631 0.13581181 15
0.72101063 -2.506206 0.044852681 14
nan nan nan 0
0.62922025 -2.1957979 -0.51851249 3
0.72399795 -2.5282111 -0.50328374 5
0.71706522 -2.5056541 -0.40672994 6
0.73101747 -2.5560942 -0.32173541 14
0.72363687 -2.5319583 -0.22704107 12
0.71945828 -2.519002 -0.13483825 12
0.72262287 -2.531755 -0.044836514 12
0.71528792 -2.5077147 0.68801016 12
0.71966773 -2.5247405 0.59679353 14
0.71777785 -2.5197785 0.50137705 12
0.72440243 -2.5447199 0.41253185 16
0.71794236 -2.523699 0.31746963 12
0.72963542 -2.5665042 0.23009115 17
0.72275668 -2.5439963 0.13659684 15
0.71771955 -2.5279446 0.04520173 11
nan nan nan 0
0.62155169 -2.1979809 -0.51851249 3
0.7205075 -2.5496161 -0.50709653 4
0.71234089 -2.5223997 -0.40907648 6
0.72748214 -2.5777347 -0.32417279 15
0.72020245 -2.5536449 -0.22878417 13
0.71607894 -2.5407214 -0.1358815 13
0.71784687 -2.5486977 -0.045095682 10
0.71176428 -2.5287931 0.69318318 12
0.71744627 -2.5506873 0.602413 17
0.71429056 -2.5411694 0.50518978 11
0.7208575 -2.5662513 0.41565707 16
0.71449363 -2.5453019 0.31990701 14
0.72470826 -2.5834231 0.23139849 15
0.71926332 -2.5657349 0.13764356 13
0.71428531 -2.54969 0.045550779 9
nan nan nan 0
0.61518478 -2.2048297 -0.51963723 3
0.72083139 -2.5852113 -0.51376885 6
0.71015954 -2.5486565 -0.41298732 6
0.7224735 -2.5946012 -0.32600087 15
0.7179606 -2.5801363 -0.23096307 12
0.71255678 -2.5624483 -0.13692473 10
0.71296149 -2.5656383 -0.045354854 12
0.70810223 -2.5498772 0.69835621 11
0.71374965 -2.5719545 0.60690868 17
0.71066266 -2.5625665 0.50900251 9
0.71717095 -2.5877886 0.41878232 16
0.71090275 -2.5669112 0.32234439 12
0.72100043 -2.6051393 0.23314162 15
0.71562678 -2.5874798 0.13869028 11
0.70937634 -2.5666237 0.045812566 11
0.51675993 -1.8760848 -0.51116782 3
0.60748476 -2.2069638 -0.51963723 3
0.71050113 -2.5829792 -0.51281571 5
0.70649445 -2.5701671 -0.416116 6
0.71867043 -2.6162491 -0.32843825 14
0.71554261 -2.6066434 -0.23314197 16
0.70889151 -2.5841811 -0.13796796 12
0.70664465 -2.577754 -0.045527633 12
0.7043016 -2.5709665 0.70352924 12
0.70991325 -2.5932271 0.6114043 16
0.70689398 -2.5839689 0.5128153 10
0.71334296 -2.6093316 0.4219076 15
0.70586175 -2.5837388 0.32417244 12
0.7158379 -2.6220555 0.23444895 16
0.71184725 -2.6092305 0.139737 13
0.70567268 -2.588377 0.046161614 12
0.51527309 -1.8965199 -0.51634425 3
0.59850079 -2.2043693 -0.51851249 3
0.70276576 -2.5901806 -0.51376885 5
0.7026878 -2.5916829 -0.41924468 6
0.71472502 -2.637902 -0.33087564 13
0.71294814 -2.6331646 -0.23532088 15
0.70638722 -2.6107392 -0.139272 19
0.70155692 -2.5946827 -0.045786802 11
0.70162213 -2.5967224 0.70999545 11
0.70720685 -2.6192071 0.61702383 16
0.70426309 -2.6101148 0.51758122 8
0.70937306 -2.6308787 0.42503282 15
0.70200306 -2.6053543 0.32660982 13
0.71186101 -2.6437771 0.23619208 17
0.70792454 -2.6309862 0.14078373 14
0.70052755 -2.6053076 0.046423398 10
0.51523525 -1.9215423 -0.52281469 3
0.59031087 -2.2015328 -0.51738775 3
0.69462508 -2.5923758 -0.51376885 4
0.69965178 -2.6129599 -0.42237341 6
0.71156543 -2.6593106 -0.33331302 15
0.7098189 -2.654639 -0.23706399 16
0.70333785 -2.6322415 -0.14031525 13
0.69598144 -2.606534 -0.045959584 12
0.69844139 -2.6175799 0.71516848 11
0.70399582 -2.6402464 0.62151939 16
0.70111471 -2.6312857 0.52139401 16
0.70618725 -2.6521838 0.42815807 15
0.69764292 -2.6219347 0.32843786 11
0.70739162 -2.6604414 0.2374994 17
0.70350218 -2.6476743 0.14156875 14
0.69875395 -2.6316547 0.046859708 11
0.50144833 -1.8952266 -0.51505011 3
0.58137709 -2.1988697 -0.51626295 3
0.68557173 -2.5947847 -0.51376885 4
0.69556922 -2.6344852 -0.42550209 6
0.70734245 -2.6809723 -0.3357504 14
0.70562762 -2.6763663 -0.23880711 15
0.70050585 -2.6588225 -0.14161928 14
0.69069713 -2.623451 -0.046218757 13
0.69544452 -2.6433568 0.72163475 11
0.69973046 -2.6615355 0.62601501 16
0.69816142 -2.6574533 0.52615994 15
0.70194125 -2.6737392 0.43128332 15
0.69352376 -2.6435552 0.33087525 10
0.70315307 -2.6821671 0.23924251 16
0.69931728 -2.6694343 0.14261547 13
0.69589382 -2.6582592 0.047296021 13
0.48962569 -1.8783578 -0.50987375 4
0.57208598 -2.1962717 -0.51513821 3
0.67729318 -2.60203 -0.51472205 4
0.69088131 -2.6561346 -0.4286308 7
0.70125675 -2.6979563 -0.33757848 14
0.70082217 -2.6982183 -0.24055022 15
0.69577378 -2.6807044 -0.14266253 14
0.68986279 -2.6598392 -0.04682349 14
0.69181019 -2.6692648 0.72810096 14
0.69485682 -2.6829479 0.63051063 15
0.69333571 -2.6790011 0.52997267 15
0.69708294 -2.6954193 0.43440855 15
0.68879694 -2.6652987 0.33331263 11
0.69829959 -2.7040172 0.24098562 16
0.69451916 -2.6913185 0.14366218 14
0.69363618 -2.6898372 0.047819592 9
0.48907554 -1.9034439 -0.51634425 4
0.56441605 -2.1982553 -0.51513821 3
0.66942608 -2.6091328 -0.51567525 4
0.68528485 -2.6728811 -0.43097728 6
0.69552982 -2.7148099 -0.33940649 12
0.6963408 -2.7199497 -0.24229334 16
0.69136226 -2.7024665 -0.14370576 13
0.68800312 -2.691292 -0.047341831 9
0.68727022 -2.6903818 0.73327404 15
0.69030762 -2.7042401 0.63500631 16
0.68883282 -2.7004292 0.53378546 15
0.69254911 -2.7169781 0.4375338 15
0.683164 -2.6821144 0.33514068 9
0.69377095 -2.7257466 0.24272874 15
0.69004357 -2.713083 0.14470892 12
0.6916312 -2.7213132 0.048343163 22
0.48361385 -1.9098214 -0.51763833 3
0.55554414 -2.1954887 -0.51401347 3
0.66031444 -2.6114535 -0.51567525 4
0.68078965 -2.6944089 -0.43410599 6
0.68969381 -2.7316568 -0.34123453 11
0.69171613 -2.7416823 -0.24403645 15
0.68680727 -2.7242301 -0.14474899 14
0.68593222 -2.722764 -0.047860172 9
0.68377024 -2.7161829 0.73974025 14
0.68561798 -2.7255323 0.63950193 15
0.68418854 -2.721858 0.53759819 15
0.68907648 -2.7433281 0.44144034 14
0.67863005 -2.7037363 0.33757806 11
0.68909913 -2.7474771 0.24447185 16
0.68542445 -2.7348485 0.14575563 12
0.68698585 -2.7431087 0.048692212 35
0.47811359 -1.9161838 -0.5189324 4
0.54787707 -2.1974146 -0.51401347 3
0.6523813 -2.6185052 -0.51662844 4
0.67615241 -2.7159374 -0.43723467 6
0.6849466 -2.7533112 -0.34367192 9
0.68694818 -2.7634156 -0.24577957 14
0.68210864 -2.7459946 -0.14579223 13
0.6836499 -2.7542536 -0.048378512 22
0.67893565 -2.7373042 0.74491328 14
0.6807881 -2.7468247 0.64399755 15
0.67940313 -2.7432871 0.54141092 15
0.68424183 -2.7648926 0.44456559 14
0.67514485 -2.7301767 0.34062478 10
0.68428403 -2.769208 0.24621499 15
0.68066168 -2.7566144 0.14680235 13
0.68219668 -2.7649047 0.04904126 33
nan nan nan 0
0.54020327 -2.1993136 -0.51401347 4
0.64440697 -2.6255331 -0.51758158 3
0.67019683 -2.7326698 -0.43958122 5
0.68123788 -2.7797861 -0.34671867 6
0.68203688 -2.7851486 -0.24752268 14
0.67726642 -2.7677591 -0.14683546 12
0.67996871 -2.7809045 -0.048810463 13
0.67510831 -2.7631171 0.75137955 14
0.67697346 -2.7728496 0.64961702 15
0.67447639 -2.7647159 0.54522371 15
0.68043458 -2.7912545 0.44847211 13
0.67030877 -2.7518039 0.34306216 10
0.68050349 -2.7957778 0.24839386 16
0.67693526 -2.7832322 0.14811075 11
0.67726368 -2.7867002 0.049390309 34
0.46586105 -1.9241692 -0.52022654 3
0.53137743 -2.1964509 -0.51288873 3
0.63754487 -2.6373084 -0.51948798 4
0.67572826 -2.7973979 -0.44974947 12
0.67851698 -2.8110921 -0.35037476 11
0.67815 -2.8117232 -0.24970159 15
0.67345047 -2.7943776 -0.14813951 13
0.67610955 -2.8075624 -0.049242411 12
0.67110896 -2.7889357 0.75784576 13
0.67298532 -2.7988808 0.6552366 14
0.67055488 -2.7909155 0.54998964 14
0.67529869 -2.8128209 0.45159736 14
0.66648751 -2.7782559 0.34610891 11
0.67538458 -2.8175111 0.25013697 15
0.67186821 -2.8050015 0.14915746 12
0.67218679 -2.8084953 0.049739353 36
nan nan nan 0
0.52370715 -2.1982923 -0.51288873 3
0.62947178 -2.6442928 -0.52044117 3
0.67967302 -2.8573923 -0.45913553 11
0.67443818 -2.8375843 -0.35342148 11
0.67293495 -2.8334579 -0.2514447 13
0.66830379 -2.8161442 -0.14918275 13
0.67091906 -2.8293629 -0.049587972 12
0.66693753 -2.8147602 0.76431209 13
0.66770124 -2.8201771 0.65973222 15
0.66532862 -2.8123453 0.55380243 14
0.67115659 -2.8391919 0.45550394 13
0.66248971 -2.8047144 0.34915566 10
0.67126644 -2.8440905 0.25231588 15
0.66665739 -2.8267691 0.15020418 11
0.66811264 -2.8351545 0.050175667 33
nan nan nan 0
0.51491797 -2.1953635 -0.51176393 3
0.62359756 -2.6608102 -0.52330071 3
0.6719467 -2.869364 -0.46069989 11
0.67131335 -2.8689144 -0.35707757 10
0.66757637 -2.8551903 -0.25318784 14
0.66414934 -2.8427713 -0.1504868 13
0.66672117 -2.8560293 -0.050019924 13
0.6625939 -2.840589 0.77077836 13
0.66338247 -2.846215 0.66535175 14
0.66107416 -2.8385522 0.5585683 14
0.66571927 -2.8607576 0.45862916 14
0.65719128 -2.8263452 0.35159305 11
0.66584361 -2.8658233 0.25405899 15
0.66243184 -2.8533978 0.15151259 12
0.66273075 -2.8569491 0.050524715 34
nan nan nan 0
0.50725162 -2.1971476 -0.51176393 3
0.61099595 -2.6486228 -0.52044117 3
0.66747284 -2.8957531 -0.46461076 11
0.6668641 -2.8954213 -0.36012432 11
0.66207415 -2.8769197 -0.25493094 15
0.65869808 -2.864537 -0.15153003 13
0.66122562 -2.8778284 -0.050365485 13
0.65807796 -2.8664215 0.77724457 13
0.65888995 -2.8722568 0.67097121 14
0.65664488 -2.8647637 0.56333429 14
0.66124195 -2.8871336 0.46253574 13
0.65285683 -2.8528101 0.35463977 10
0.6613875 -2.8924081 0.25623786 14
0.65691626 -2.8751638 0.15255931 12
0.65831745 -2.8836141 0.050961021 33
0.43680841 -1.9210671 -0.51763833 4
0.49957901 -2.198905 -0.51176393 3
0.59957361 -2.6411664 -0.51853484 3
0.66282278 -2.9221461 -0.4685216 11
0.66223788 -2.921931 -0.36317107 11
0.65532815 -2.8937867 -0.25623828 13
0.65420491 -2.8911693 -0.15283407 13
0.65668845 -2.9045 -0.050797433 13
0.65338975 -2.8922567 0.78371084 13
0.65422374 -2.8983016 0.6765908 14
0.65204048 -2.8909788 0.56810021 14
0.65658855 -2.9135129 0.46644226 13
0.64725548 -2.8744376 0.35707715 10
0.65566051 -2.9141374 0.257981 15
0.65235192 -2.9017968 0.15386769 12
0.65263039 -2.905405 0.05131007 35
0.42904562 -1.9178669 -0.51634425 4
0.49190035 -2.2006354 -0.51176393 4
0.58714092 -2.6288724 -0.51567525 3
0.65799659 -2.9485414 -0.47243246 10
0.65743458 -2.9484437 -0.36621779 10
0.64847249 -2.9106421 -0.25754562 8
0.64844877 -2.912931 -0.15387732 13
0.65088761 -2.9262946 -0.051142998 12
0.64852911 -2.9180939 0.79017711 13
0.64938354 -2.9243484 0.68221027 14
0.64726102 -2.9171958 0.57286614 14
0.65175909 -2.9398947 0.47034883 13
0.64258432 -2.9009061 0.3601239 10
0.65086621 -2.9407246 0.26015988 14
0.64760959 -2.9284332 0.1551761 12
0.64787781 -2.9320731 0.051746383 35
0.42131045 -1.9146363 -0.51505011 4
0.48421574 -2.2023392 -0.51176393 4
0.5758546 -2.6213179 -0.51376885 4
0.6529941 -2.9749382 -0.4763433 10
0.65245432 -2.9749584 -0.36926451 9
0.64150715 -2.927485 -0.25885296 6
0.64361662 -2.9395647 -0.15518135 13
0.64601099 -2.9529672 -0.051574945 12
0.64349604 -2.9439323 0.79664338 13
0.64436954 -2.9503968 0.68782979 14
0.64230651 -2.9434147 0.57763213 14
0.64675325 -2.9662778 0.47425535 13
0.6377362 -2.9273765 0.36317062 11
0.64589423 -2.9673138 0.26233879 14
0.64162803 -2.9501922 0.15622282 12
0.6429469 -2.9587429 0.052182693 33
0.41189218 -1.9018621 -0.51116782 4
0.4772945 -2.2038493 -0.51176393 4
0.56761664 -2.6231139 -0.51376885 4
0.64886296 -3.0011094 -0.4802542 10
0.64834452 -3.0012474 -0.37231123 9
0.63651061 -2.948961 -0.26059607 5
0.63858908 -2.9610963 -0.15622459 13
0.64199609 -2.979418 -0.0520069 12
0.64034355 -2.9742692 0.80440289 13
0.64022046 -2.976222 0.69344938 14
0.63821322 -2.9694116 0.58239806 13
0.6426158 -2.9924376 0.47816193 13
0.63374203 -2.9536266 0.36621734 10
0.64178944 -2.9936798 0.26451766 14
0.63758564 -2.9766057 0.15753123 11
0.63887972 -2.9851906 0.052619003 32
0.40759635 -1.9126649 -0.51375604 4
0.46959871 -2.205502 -0.51176393 4
0.55845678 -2.6250794 -0.51376885 4
0.64351696 -3.0275087 -0.48416507 9
0.64301908 -3.0277648 -0.37535799 9
0.63861978 -3.0096347 -0.26582542 11
0.63342696 -2.9877305 -0.15752864 12
0.63677198 -3.0060942 -0.052438848 13
0.63495779 -3.0001123 0.81086916 13
0.63486737 -3.0022717 0.69906884 14
0.63291728 -2.9956329 0.58716398 13
0.63726658 -3.0188231 0.48206848 12
0.62854904 -2.9801006 0.3692641 9
0.63647115 -3.0202713 0.26669657 14
0.63233519 -3.003243 0.15883961 11
0.63360137 -3.0118635 0.053055312 32
0.39959401 -1.9094186 -0.5124619 4
0.461512 -2.2072084 -0.51176393 3
0.54983538 -2.6319132 -0.51472205 4
0.63847053 -3.0588527 -0.4888581 10
0.63698328 -3.0543923 -0.37840474 8
0.63774496 -3.0607176 -0.27018321 12
0.62756044 -3.0144739 -0.15883268 12
0.63084012 -3.0328803 -0.052870803 12
0.62887126 -3.0260634 0.81733537 14
0.62980211 -3.0332003 0.70581228 14
0.62791562 -3.0267682 0.59288311 13
0.63120931 -3.0453172 0.48597503 13
0.62265408 -3.0066824 0.37231082 9
0.63145232 -3.0518498 0.26931125 13
0.62637776 -3.0299892 0.16014802 11
0.62761414 -3.038645 0.053491622 32
0.39389929 -1.9155325 -0.51375604 4
0.45282418 -2.2040339 -0.51063919 3
0.54163194 -2.6386244 -0.51567525 4
0.63275009 -3.0852513 -0.49276894 11
0.63129848 -3.0809054 -0.38145146 8
0.63405025 -3.0970836 -0.27323368 12
0.62103659 -3.0362136 -0.15987591 15
0.62525439 -3.0595541 -0.053302754 11
0.62410182 -3.0566335 0.82509488 13
0.62407964 -3.0592492 0.7114318 14
0.62224758 -3.0529888 0.5976491 13
0.62648797 -3.0765376 0.49066287 12
0.61809152 -3.0380161 0.37596691 9
0.62575656 -3.0784414 0.27149016 14
0.62175989 -3.0615168 0.1617181 10
0.62296826 -3.0702138 0.054015197 31
0.38721043 -1.9168959 -0.51375604 5
0.44416407 -2.2008255 -0.50951445 3
0.53338826 -2.6453106 -0.51662844 4
0.62685311 -3.1116474 -0.49667984 11
0.62641567 -3.1122816 -0.38510755 11
0.6281454 -3.1236937 -0.27541256 11
0.61338502 -3.0530491 -0.16065834 9
0.61949003 -3.0862255 -0.053734701 11
0.61817682 -3.0824711 0.83156121 13
0.61914003 -3.0900714 0.71817523 14
0.61736751 -3.0840189 0.60336822 13
0.62058777 -3.1029191 0.49456945 13
0.61234522 -3.0644879 0.37901363 9
0.6198827 -3.1050296 0.27366903 14
0.61595285 -3.0881519 0.1630265 10
0.61713243 -3.0968838 0.054451503 31
0.38051686 -1.9182358 -0.51375604 5
0.43647903 -2.2023623 -0.50951445 3
0.52510446 -2.6519709 -0.51758158 3
0.61982107 -3.1331947 -0.49980852 18
0.61843467 -3.129055 -0.38693559 17
0.62206244 -3.1503005 -0.27759147 11
0.60562348 -3.0698681 -0.16144077 6
0.61451381 -3.1177983 -0.054253042 11
0.61301225 -3.1130435 0.83932066 12
0.61399281 -3.1208961 0.72491866 13
0.6113317 -3.1102359 0.60813409 13
0.61546254 -3.1341426 0.4992573 12
0.60737699 -3.0958261 0.38266972 9
0.61478889 -3.1365023 0.27628368 13
0.61092693 -3.1196837 0.16459657 10
0.61207789 -3.1284564 0.054975078 33
0.37381864 -1.9195523 -0.51375604 6
0.42878869 -2.2038727 -0.50951445 3
0.51678073 -2.6586061 -0.51853484 3
0.60511458 -3.1159477 -0.49667984 18
0.60372752 -3.1117072 -0.38449821 14
0.61674917 -3.1817925 -0.28020614 11
0.59775192 -3.0866697 -0.1622232 5
0.60837507 -3.1444657 -0.054684997 10
0.60764164 -3.1436167 0.84708017 13
0.607714 -3.1469388 0.73053825 14
0.60605019 -3.1412678 0.61385328 13
0.60919213 -3.1605184 0.50316387 12
0.60125899 -3.1222932 0.38571647 8
0.60854185 -3.1630857 0.27846259 13
0.60474581 -3.1463141 0.16590497 10
0.60681039 -3.1600311 0.055498648 31
0.36711589 -1.9208455 -0.51375604 5
0.42109314 -2.2053559 -0.50951445 3
0.50749731 -2.6603937 -0.51853484 3
0.5933097 -3.1131897 -0.49589765 12
0.59286195 -3.1137955 -0.38449821 12
0.61029279 -3.2083921 -0.28238505 10
0.59629577 -3.1377912 -0.16483128 13
0.60298997 -3.1760392 -0.055203337 11
0.60206497 -3.17419 0.85483968 13
0.6021679 -3.177762 0.73728162 13
0.60055935 -3.1723001 0.6195724 13
0.60366279 -3.191741 0.50785172 13
0.59588498 -3.1536317 0.38937253 8
0.60304058 -3.1945577 0.28107727 14
0.59931153 -3.1778457 0.16747504 10
0.60132992 -3.191607 0.056022223 31
0.35951853 -1.9173682 -0.5124619 5
0.4142895 -2.2116013 -0.51063919 3
0.49820775 -2.6621492 -0.51853484 4
0.58153147 -3.1103876 -0.49511549 10
0.58198917 -3.1158462 -0.38449821 11
0.60457182 -3.2398815 -0.28499973 10
0.59265989 -3.1791227 -0.16691776 13
0.5964765 -3.2026985 -0.055635288 12
0.59539872 -3.2000144 0.86130601 13
0.59641397 -3.2085845 0.74402505 13
0.59485924 -3.2033317 0.62529153 13
0.59792292 -3.2229631 0.51253957 13
0.58939511 -3.1800909 0.39241928 9
0.59642011 -3.2211318 0.28325617 13
0.59275615 -3.2044678 0.16878346 10
0.59563619 -3.2231824 0.056545794 31
0.3528235 -1.9186115 -0.5124619 4
0.40656707 -2.2130339 -0.51063919 3
0.48891208 -2.663872 -0.51853484 3
0.56888932 -3.1026835 -0.49355114 7
0.57021511 -3.1129768 -0.38388884 10
0.59863842 -3.2713699 -0.28761441 10
0.58874261 -3.2204666 -0.16900423 13
0.59068245 -3.2342687 -0.056153629 12
0.5894264 -3.2305815 0.86906546 13
0.59045219 -3.2394054 0.75076848 13
0.58894968 -3.2343621 0.63101065 13
0.59197223 -3.2541838 0.51722747 13
0.58361501 -3.2114253 0.39607537 8
0.5905112 -3.2525995 0.28587085 13
0.58691329 -3.2359953 0.17035353 11
0.58972937 -3.2547569 0.057069365 29
0.34612414 -1.9198314 -0.5124619 4
0.39883965 -2.2144394 -0.51063919 3
0.47961044 -2.6655624 -0.51853484 3
0.55805552 -3.1046505 -0.49355114 6
0.55846822 -3.110064 -0.38327953 8
0.59249246 -3.3028562 -0.29022908 9
0.58366299 -3.2569063 -0.17082989 12
0.58467507 -3.265837 -0.05667197 6
0.58409822 -3.2659001 0.87811828 13
0.5842824 -3.2702234 0.75751191 14
0.58283073 -3.2653897 0.63672978 14
0.5858109 -3.2854016 0.52191532 12
0.57762325 -3.2427578 0.39973143 8
0.58438975 -3.2840645 0.2884855 13
0.58085752 -3.2675207 0.17192361 9
0.58360928 -3.286329 0.05759294 29
0.33942056 -1.9210279 -0.5124619 4
0.39110741 -2.2158184 -0.51063919 3
0.46945062 -2.6623862 -0.51758158 4
0.54807156 -3.1114433 -0.4943333 5
0.54674858 -3.1071067 -0.38267016 8
0.58699638 -3.3392441 -0.29327953 10
0.57747239 -3.2884312 -0.17239475 12
0.57845455 -3.2974019 -0.05719031 13
0.57769686 -3.2964635 0.88587779 12
0.57790458 -3.3010371 0.76425534 13
0.57650226 -3.2964139 0.6424489 13
0.57943869 -3.3166156 0.52660316 13
0.57227308 -3.2789762 0.40399686 8
0.5789113 -3.3204331 0.29153597 13
0.57458866 -3.2990429 0.17349368 10
0.57727593 -3.3178976 0.058116511 29
0.33271286 -1.9222009 -0.5124619 4
0.38337037 -2.21717 -0.51063919 3
0.46015429 -2.6640086 -0.51758158 4
0.53888667 -3.12307 -0.49589765 12
0.53505647 -3.1041057 -0.38206083 7
0.58125329 -3.375634 -0.29632998 10
0.57106888 -3.3199527 -0.17395961 12
0.57286727 -3.3338904 -0.057795044 11
0.57108915 -3.3270214 0.8936373 12
0.57131869 -3.3318462 0.77099878 13
0.57079285 -3.3322711 0.64912122 12
0.57368869 -3.3526928 0.53207237 12
0.56584084 -3.3103046 0.40765294 8
0.57234758 -3.3518929 0.29415065 13
0.56894642 -3.3354828 0.17532544 10
0.57072926 -3.3494618 0.058640081 28
0.32600111 -1.9233507 -0.5124619 3
0.37644193 -2.2232981 -0.51176393 3
0.45085236 -2.6655986 -0.51758158 4
0.52962726 -3.134671 -0.49746197 12
0.5233919 -3.1010606 -0.38145146 7
0.57360709 -3.4022007 -0.29850888 12
0.56445229 -3.351469 -0.17552446 13
0.56620282 -3.3654497 -0.058313385 11
0.56507552 -3.3623359 0.90269005 13
0.56533134 -3.3674538 0.77886611 13
0.56402838 -3.3632874 0.65484035 13
0.56687778 -3.3838992 0.53676021 12
0.56001586 -3.3465221 0.41191834 8
0.56639248 -3.3882601 0.29720107 13
0.56223428 -3.3669984 0.17689553 10
0.56314665 -3.3760891 0.059076395 27
0.32007584 -1.9292415 -0.51375604 3
0.36867887 -2.2245984 -0.51176393 3
0.44154495 -2.6671562 -0.51758158 4
0.51948774 -3.1413732 -0.49824417 12
0.51175517 -3.0979729 -0.38084212 7
0.56416053 -3.4189258 -0.29981622 17
0.55681032 -3.3780522 -0.1768285 17
0.56013715 -3.4019351 -0.058918115 12
0.55803841 -3.3928828 0.91044956 13
0.55831248 -3.3982522 0.78560954 14
0.55784911 -3.3991404 0.66151267 12
0.560655 -3.4199722 0.54222941 12
0.55314291 -3.3778415 0.41557443 8
0.55938631 -3.4197102 0.29981574 13
0.5561142 -3.4034352 0.17872728 10
0.55538493 -3.402704 0.059512701 34
0.31333959 -1.9303471 -0.51375604 4
0.36091134 -2.2258718 -0.51176393 3
0.43301693 -2.6735268 -0.51853484 4
0.50773042 -3.1382921 -0.49746197 12
0.50014633 -3.094841 -0.38023278 7
0.54825389 -3.3962877 -0.29763731 12
0.54422051 -3.375046 -0.1765677 13
0.5530287 -3.4334838 -0.059436455 12
0.55156213 -3.4281898 0.91950232 12
0.55185843 -3.4338527 0.79347688 13
0.55142629 -3.4349904 0.668185 13
0.55418706 -3.4560423 0.54769856 12
0.54684287 -3.4140537 0.41983986 8
0.55295438 -3.4560709 0.30286619 12
0.54895848 -3.4349389 0.18029736 9
0.54665625 -3.4243686 0.059861749 22
0.30659953 -1.931429 -0.51375604 3
0.3531394 -2.227118 -0.51176393 3
0.42368191 -2.6750219 -0.51853484 4
0.49677268 -3.1400454 -0.49746197 12
0.48856568 -3.091666 -0.37962344 8
0.53639531 -3.3981807 -0.29763731 13
0.53321373 -3.3818574 -0.1768285 13
0.54648447 -3.4699621 -0.060041185 12
0.54484612 -3.4634924 0.92855507 12
0.54516262 -3.469449 0.80134422 13
0.54476005 -3.4708371 0.67485732 13
0.54823911 -3.4969876 0.553949 12
0.54029679 -3.4502625 0.42410532 8
0.54627532 -3.4924283 0.30591667 13
0.54236037 -3.4713674 0.18212913 9
0.53701222 -3.4410746 0.060123537 13
0.29985571 -1.9324875 -0.51375604 4
0.34461701 -2.2235231 -0.51063919 3
0.41509268 -2.681335 -0.51948798 4
0.48505419 -3.1368799 -0.49667984 11
0.47701323 -3.088448 -0.37901407 7
0.52377075 -3.3951097 -0.29720154 10
0.5206452 -3.3787632 -0.1765677 13
0.53893173 -3.5014946 -0.060559526 11
0.53789026 -3.4987898 0.93760788 12
0.53822494 -3.5050399 0.80921155 13
0.53710598 -3.501827 0.68057644 12
0.54126406 -3.5330513 0.5594182 12
0.53350455 -3.4864669 0.42837071 8
0.53934908 -3.5287802 0.30896711 12
0.53551447 -3.507791 0.18396087 9
0.53328699 -3.4972913 0.061083421 60
0.29310825 -1.9335225 -0.51375604 3
0.33685338 -2.2247124 -0.51063919 3
0.40573052 -2.6827674 -0.51948798 4
0.47410148 -3.1385541 -0.49667984 11
0.46548927 -3.0851872 -0.37840474 7
0.51117414 -3.3919921 -0.29676577 10
0.50884795 -3.3805599 -0.1765677 11
0.53190869 -3.5379605 -0.06116426 10
0.53069454 -3.53408 0.94666064 12
0.53104544 -3.5406246 0.81707889 13
0.52996939 -3.5376594 0.68724877 12
0.53404385 -3.5691087 0.5648874 12
0.52646601 -3.5226657 0.43263614 8
0.53217572 -3.5651262 0.31201756 12
0.52842098 -3.544209 0.18579264 9
0.52696663 -3.5386891 0.061781514 59
0.28635719 -1.9345338 -0.51375604 3
0.32908562 -2.2258747 -0.51063919 3
0.39636344 -2.6841674 -0.51948798 4
0.4624224 -3.135304 -0.49589765 10
0.45471716 -3.0867932 -0.37840474 7
0.4986057 -3.3888276 -0.29632998 13
0.49631849 -3.3773754 -0.17630689 12
0.52463758 -3.5744195 -0.06176899 10
0.52395952 -3.574141 0.95700663 13
0.52432984 -3.5810218 0.82607013 13
0.52258909 -3.5734842 0.69392109 12
0.52657849 -3.6051581 0.57035655 11
0.51918119 -3.558857 0.4369016 8
0.52475512 -3.6014647 0.31506801 12
0.52036053 -3.5756783 0.18736272 9
0.52108282 -3.5850325 0.062566876 57
0.27960268 -1.9355216 -0.51375604 3
0.32131389 -2.22701 -0.51063919 3
0.38769165 -2.690393 -0.52044117 4
0.45006832 -3.1271231 -0.4943333 13
0.44323328 -3.0834494 -0.37779537 7
0.48606563 -3.385617 -0.29589421 10
0.48310879 -3.3692019 -0.17578526 11
0.51782709 -3.6158192 -0.062460113 11
0.51626736 -3.6094167 0.96605939 12
0.51664948 -3.6165917 0.83393741 13
0.51565838 -3.6141593 0.70154655 12
0.51956451 -3.6460879 0.57660699 12
0.51165009 -3.5950401 0.441167 7
0.51708716 -3.6377943 0.31811845 12
0.51208681 -3.6071346 0.18893279 8
0.51347822 -3.6214776 0.063177705 57
0.2721709 -1.9317032 -0.5124619 3
0.31353819 -2.2281179 -0.51063919 3
0.37829807 -2.6917298 -0.52044117 4
0.43709055 -3.1140034 -0.49198681 17
0.43177843 -3.0800631 -0.37718606 7
0.47424462 -3.3872933 -0.29589421 9
0.47065368 -3.3659227 -0.17552446 12
0.51004249 -3.6522632 -0.063064843 14
0.50900239 -3.6494653 0.97640544 12
0.50939941 -3.6569769 0.84292871 13
0.5077737 -3.6499679 0.70821887 12
0.51159155 -3.6821201 0.58207619 12
0.50455475 -3.6361294 0.44604176 8
0.50985569 -3.6790476 0.32160467 12
0.50359976 -3.638576 0.19050287 10
0.50630999 -3.6628649 0.063875802 57
0.26542634 -1.9326416 -0.5124619 3
0.30642068 -2.2340252 -0.51176393 3
0.36889985 -2.6930339 -0.52044117 4
0.42487928 -3.1057248 -0.49042246 10
0.42102438 -3.0815516 -0.37718606 6
0.46174449 -3.3839924 -0.29545841 9
0.45822728 -3.3625975 -0.17526364 11
0.49931309 -3.6688821 -0.063324012 20
0.50146407 -3.6895068 0.98675144 12
0.50187361 -3.697355 0.85191995 12
0.50030452 -3.6906285 0.71584439 12
0.50403589 -3.7230351 0.58832669 12
0.49651378 -3.6722941 0.45030719 8
0.50167596 -3.715358 0.32465515 12
0.49289757 -3.6551571 0.19128792 5
0.49819174 -3.6992917 0.064486638 56
0.25867853 -1.9335563 -0.5124619 3
0.29862064 -2.2350812 -0.51176393 3
0.35949716 -2.6943052 -0.52044117 4
0.41207877 -3.0925031 -0.48807591 9
0.40961051 -3.078083 -0.37657669 7
0.44927317 -3.3806465 -0.29502264 11
0.44582999 -3.3592269 -0.17500284 11
0.48518953 -3.6606908 -0.063151233 10
0.49365237 -3.7295396 0.99709749 12
0.49407202 -3.7377248 0.86091119 12
0.4925577 -3.731281 0.72346991 12
0.49555531 -3.7590454 0.59379584 12
0.48887423 -3.7133675 0.45518199 8
0.49389818 -3.7565944 0.32814136 11
0.48923582 -3.7261643 0.19495143 11
0.49047527 -3.7406626 0.065184735 54
0.25226521 -1.9344035 -0.5124619 3
0.29222751 -2.2408395 -0.51288873 3
0.35103101 -2.6954215 -0.52044117 4
0.40172449 -3.0888855 -0.48729378 11
0.39929926 -3.0744333 -0.37596735 7
0.43800968 -3.3771014 -0.29458687 9
0.43463308 -3.355659 -0.17474203 8
0.47240418 -3.652281 -0.062978454 9
0.48688304 -3.7693923 1.0074435 12
0.48731345 -3.7779145 0.86990243 12
0.48584971 -3.7717547 0.73109537 13
0.48878416 -3.7997694 0.60004634 12
0.48226437 -3.7542629 0.46005675 8
0.48716417 -3.7976513 0.33162761 11
0.48323742 -3.7722571 0.19730654 9
