# .PCD v0.7 - Point Cloud Data file format
VERSION 0.7
FIELDS x y z intensity
SIZE 4 4 4 4
TYPE F F F F
COUNT 1 1 1 1
WIDTH 1367
HEIGHT 1
VIEWPOINT 0 0 0 1 0 0 0
POINTS 1367
DATA ascii
0.099412896 2.1478832 -0.18477045 14
0.099796504 2.1480536 -0.11032221 16
0.099825062 2.1406095 -0.036370274 11
0.10070322 2.151371 0.56644452 15
0.10080273 2.1454794 0.48665082 15
0.10122305 2.1464345 0.40987095 14
0.1017462 2.1495547 0.3344008 13
0.10143439 2.1350768 0.25775367 12
0.10359803 2.1726191 0.18694907 14
0.10303342 2.1528804 0.11095222 17
0.10257366 2.135468 0.03665005 15
nan nan nan 0
0.10815786 2.2035706 -0.50051636 7
0.10620126 2.1560223 -0.41177762 12
0.10673276 2.1591432 -0.33633435 15
0.10811885 2.1794693 -0.26323807 15
0.1069098 2.1475232 -0.18477045 11
0.107294 2.1476922 -0.11032221 16
0.10704625 2.1352549 -0.03628388 13
0.1082123 2.1510065 0.56644452 15
0.10829123 2.1451144 0.48665082 15
0.10871489 2.1460681 0.40987095 14
0.10924893 2.1491864 0.3344008 13
0.10888658 2.1347098 0.25775367 13
0.11092664 2.1672697 0.18651327 16
0.11054774 2.1525078 0.11095222 17
0.11002721 2.135097 0.03665005 14
nan nan nan 0
0.11610493 2.208045 -0.50164115 8
0.11372653 2.1556385 -0.41177762 12
0.11426891 2.1587574 -0.33633435 15
0.11572596 2.1790786 -0.26323807 15
0.11414038 2.142163 -0.18433468 12
0.11505674 2.1522908 -0.11058301 13
0.11449903 2.1348681 -0.03628388 13
0.11572005 2.1506155 0.56644452 15
0.11577842 2.1447237 0.48665082 15
0.1162054 2.1456754 0.40987095 14
0.11675032 2.148792 0.3344008 11
0.11606734 2.1293612 0.2571443 14
0.11849115 2.1668694 0.18651327 15
0.11806073 2.1521087 0.11095222 16
0.11720472 2.1297083 0.036562789 15
nan nan nan 0
0.12381174 2.2076261 -0.50164115 8
0.12125042 2.1552284 -0.41177762 12
0.12152544 2.153415 -0.33555222 15
0.12305119 2.173707 -0.26262873 15
0.12161724 2.1417515 -0.18433468 12
0.12256893 2.151876 -0.11058301 16
0.12166528 2.1294646 -0.036197495 13
0.1232264 2.1501985 0.56644452 15
0.12298458 2.139442 0.48552692 15
0.1236945 2.1452568 0.40987095 15
0.12425029 2.1483715 0.3344008 13
0.12349949 2.128943 0.2571443 13
0.12605421 2.1664424 0.18651327 14
0.12557226 2.1516833 0.11095222 17
0.12463807 2.1292863 0.036562789 15
nan nan nan 0
0.13180681 2.2120435 -0.50276589 9
0.12848005 2.1498926 -0.41082445 13
0.12904152 2.1529777 -0.33555222 16
0.13063809 2.1732643 -0.26262873 15
0.1290926 2.141314 -0.18433468 13
0.12977828 2.1464508 -0.11032221 16
0.12909774 2.1290269 -0.036197495 12
0.13043804 2.1449342 0.56515121 16
0.13045187 2.1389997 0.48552692 14
0.13088244 2.1399128 0.40891778 14
0.13174875 2.1479244 0.3344008 11
0.13093013 2.128499 0.2571443 14
0.13330905 2.1610179 0.18607752 15
0.13308229 2.151232 0.11095222 16
0.13176034 2.1238484 0.036475528 14
nan nan nan 0
0.13952748 2.21157 -0.50276589 9
0.13598378 2.149431 -0.41082445 13
0.13624337 2.1475856 -0.33477002 15
0.13822339 2.1727948 -0.26262873 14
0.13656639 2.1408503 -0.18433468 13
0.13727 2.1459849 -0.11032221 18
0.13652866 2.1285634 -0.036197495 12
0.13792448 2.1444657 0.56515121 16
0.13791759 2.1385312 0.48552692 15
0.13835134 2.1394429 0.40891778 14
0.13892604 2.1425233 0.33361951 11
0.1380372 2.1230769 0.25653496 12
0.1408516 2.1605394 0.18607752 15
0.14026497 2.1457717 0.11069055 17
0.13917316 2.1233757 0.036475528 15
nan nan nan 0
0.14724645 2.2110696 -0.50276589 10
0.14348587 2.1489434 -0.41082445 14
0.14373901 2.1470969 -0.33477002 16
0.14547467 2.1673474 -0.26201937 15
0.14370407 2.1353908 -0.1838989 12
0.14476006 2.1454926 -0.11032221 14
0.1439579 2.1280739 -0.036197495 13
0.14508241 2.1391525 0.56385797 16
0.14538161 2.138037 0.48552692 15
0.14581853 2.138947 0.40891778 15
0.14606725 2.1370981 0.33283818 13
0.14544728 2.1225822 0.25653496 12
0.14839244 2.1600344 0.18607752 16
0.14775425 2.1452692 0.11069055 16
0.14658427 2.1228769 0.036475528 15
nan nan nan 0
0.15496361 2.210542 -0.50276589 10
0.15098621 2.1484294 -0.41082445 12
0.1512329 2.1465821 -0.33477002 15
0.15303922 2.1668265 -0.26201937 15
0.1511571 2.134876 -0.1838989 14
0.15189481 2.1399934 -0.1100614 16
0.1513854 2.1275582 -0.036197495 14
0.15254857 2.138633 0.56385797 15
0.15284388 2.1375163 0.48552692 14
0.15328397 2.1384249 0.40891778 15
0.15352623 2.1365755 0.33283818 11
0.1528556 2.1220617 0.25653496 14
0.15593144 2.1595032 0.18607752 15
0.15488127 2.13976 0.11042886 17
0.15399361 2.1223521 0.036475528 14
nan nan nan 0
0.16232127 2.2051291 -0.50164115 11
0.15848471 2.1478894 -0.41082445 13
0.15872495 2.1460412 -0.33477002 15
0.16060193 2.1662791 -0.26201937 16
0.1586083 2.1343355 -0.1838989 12
0.15899296 2.1344709 -0.10980059 16
0.15881102 2.127017 -0.036197495 14
0.16001284 2.1380877 0.56385797 15
0.16030425 2.1369698 0.48552692 15
0.16074753 2.137877 0.40891778 14
0.16061217 2.1311018 0.33205691 14
0.15988821 2.1165662 0.2559256 13
0.16309251 2.1539791 0.18564172 14
0.16234948 2.1392064 0.11042886 17
0.16140106 2.1218016 0.036475528 14
nan nan nan 0
0.17001763 2.2045491 -0.50164115 11
0.16598128 2.1473229 -0.41082445 13
0.16621506 2.145474 -0.33477002 15
0.16816267 2.1657052 -0.26201937 15
0.1656711 2.128803 -0.18346313 13
0.16644268 2.1339028 -0.10980059 16
0.16623473 2.1264498 -0.036197495 13
0.16747519 2.137516 0.56385797 15
0.1673813 2.1315403 0.48440304 15
0.16820914 2.1373026 0.40891778 13
0.16805013 2.1305282 0.33205691 13
0.16727543 2.1159952 0.2559256 13
0.17061029 2.1533966 0.18564172 14
0.16942048 2.1336493 0.11016718 17
0.16880654 2.1212256 0.036475528 15
nan nan nan 0
0.17732032 2.199086 -0.50051636 12
0.17347582 2.1467304 -0.41082445 13
0.17370315 2.1448808 -0.33477002 15
0.17572136 2.1651049 -0.26201937 15
0.17310099 2.1282117 -0.18346313 12
0.17348471 2.1283321 -0.10953978 16
0.17365642 2.1258564 -0.036197495 13
0.17493549 2.1369183 0.56385797 15
0.17482075 2.1309431 0.48440304 14
0.1752665 2.1318107 0.40796459 14
0.17548604 2.1299286 0.33205691 13
0.17466061 2.1153984 0.2559256 12
0.1777153 2.147824 0.18520595 17
0.17686729 2.133045 0.11016718 17
0.17620997 2.1206234 0.036475528 15
nan nan nan 0
0.18537918 2.1984212 -0.50051636 12
0.18134283 2.1460803 -0.41082445 13
0.1811467 2.1393089 -0.33398786 15
0.18365571 2.1644464 -0.26201937 15
0.18090011 2.127563 -0.18346313 13
0.18128428 2.127682 -0.10953978 16
0.18144691 2.1252058 -0.036197495 13
0.18276651 2.1362629 0.56385797 16
0.18221371 2.1254337 0.48327911 15
0.18307881 2.1311541 0.40796459 13
0.18329144 2.129271 0.33205691 14
0.18241276 2.1147442 0.2559256 15
0.18558627 2.1471584 0.18520595 16
0.18468411 2.1323824 0.11016718 17
0.18398127 2.1199632 0.036475528 14
nan nan nan 0
0.19305196 2.1977606 -0.50051636 13
0.18883294 2.1454341 -0.41082445 13
0.18861318 2.1386635 -0.33398786 16
0.1912099 2.1637921 -0.26201937 15
0.1883256 2.1269186 -0.18346313 13
0.18871017 2.1270363 -0.10953978 16
0.18886414 2.1245594 -0.036197495 13
0.19022235 2.1356118 0.56385797 16
0.18963175 2.1247847 0.48327911 15
0.19051681 2.130502 0.40796459 15
0.19072287 2.1286182 0.33205691 13
0.19023725 2.1190376 0.25653496 13
0.19308013 2.1464975 0.18520595 16
0.19212638 2.1317246 0.11016718 17
0.19138685 2.1193075 0.036475528 15
nan nan nan 0
0.19951396 2.1922917 -0.49939165 14
0.19557206 2.1448302 -0.41082445 13
0.19533105 2.1380606 -0.33398786 16
0.19755433 2.1582386 -0.26141003 15
0.19500656 2.1263165 -0.18346313 13
0.19539151 2.1264329 -0.10953978 16
0.19507939 2.1189771 -0.036111102 13
0.19693063 2.1350038 0.56385797 16
0.19630602 2.1241784 0.48327911 16
0.19675653 2.1250057 0.40701142 14
0.19695298 2.1230912 0.33127558 14
0.19689345 2.1184294 0.25653496 13
0.19982259 2.1458802 0.18520595 16
0.19882242 2.1311107 0.11016718 17
0.19757199 2.113719 0.036388267 15
nan nan nan 0
0.2057898 2.177031 -0.49601737 16
0.20305774 2.1441345 -0.41082445 13
0.20279308 2.1373656 -0.33398786 16
0.20508678 2.1575358 -0.26141003 15
0.2024276 2.1256227 -0.18346313 13
0.20281295 2.1257379 -0.10953978 16
0.2024748 2.1182833 -0.036111102 13
0.20438197 2.1343033 0.56385797 15
0.20371959 2.1234803 0.48327911 15
0.20417297 2.124306 0.40701142 15
0.20436275 2.1223907 0.33127558 14
0.20428695 2.1177292 0.25653496 13
0.20731188 2.1451697 0.18520595 16
0.20626019 2.1304038 0.11016718 17
0.20494905 2.1130164 0.036388267 15
0.18989158 1.9366661 -0.51116782 3
0.21329139 2.1714139 -0.49489263 12
0.21043432 2.1384909 -0.40987125 14
0.21062556 2.1366081 -0.33398786 15
0.21250546 2.1518312 -0.26080069 15
0.21021704 2.1248665 -0.18346313 13
0.21060281 2.1249804 -0.10953978 16
0.21023734 2.117527 -0.036111102 14
0.21220322 2.1335399 0.56385797 15
0.21150117 2.1227193 0.48327911 15
0.21195757 2.1235433 0.40701142 15
0.21214032 2.1216273 0.33127558 13
0.21204744 2.1169662 0.25653496 14
0.21517293 2.1443954 0.18520595 15
0.21406712 2.1296334 0.11016718 17
0.21269226 2.112251 0.036388267 15
0.19616257 1.9311867 -0.50987375 3
0.2193902 2.1561155 -0.49151835 13
0.21789776 2.1377435 -0.40987125 13
0.21808243 2.1358597 -0.33398786 16
0.22001547 2.1510763 -0.26080069 15
0.21763293 2.12412 -0.18346313 14
0.2180191 2.1242323 -0.10953978 16
0.21762761 2.1167803 -0.036111102 13
0.21964937 2.132786 0.56385797 16
0.21890955 2.1219683 0.48327911 15
0.21936883 2.1227906 0.40701142 14
0.21954489 2.1208739 0.33127558 13
0.21892387 2.1112766 0.2559256 13
0.22265695 2.1436312 0.18520595 16
0.22149962 2.1288731 0.11016718 17
0.2200641 2.1114957 0.036388267 15
0.20542665 1.954506 -0.51634425 3
0.22640504 2.1504917 -0.49039361 13
0.22535855 2.1369698 -0.40987125 14
0.22553664 2.1350856 -0.33398786 16
0.22700058 2.14536 -0.26019135 15
0.22504617 2.1233473 -0.18346313 13
0.22490561 2.1184931 -0.10927898 16
0.22501524 2.1160078 -0.036111102 13
0.22658128 2.1272037 0.56256473 15
0.22631526 2.1211913 0.48327911 16
0.22677742 2.1220119 0.40701142 14
0.22694679 2.1200948 0.33127558 13
0.22629227 2.1104996 0.2559256 13
0.22960636 2.1378884 0.18477017 16
0.22892942 2.128087 0.11016718 17
0.22743325 2.1107147 0.036388267 15
0.21172631 1.9489757 -0.51505011 3
0.23391028 2.1496882 -0.49039361 13
0.23228483 2.1312909 -0.40891808 14
0.23245217 2.1293759 -0.33320567 16
0.23448791 2.1445546 -0.26019135 15
0.23191436 2.1175971 -0.18302734 13
0.23229916 2.1176951 -0.10927898 16
0.2324001 2.1152093 -0.036111102 13
0.23400523 2.1263998 0.56256473 15
0.23371822 2.1203883 0.48327911 15
0.23418325 2.1212075 0.40701142 14
0.23434591 2.1192896 0.33127558 13
0.23365791 2.1096969 0.2559256 13
0.2370676 2.137074 0.18477017 16
0.23635645 2.1272748 0.11016718 17
0.23479964 2.1099079 0.036388267 15
0.2185282 1.9482247 -0.51505011 3
0.24086873 2.1440172 -0.48926884 14
0.239723 2.1304669 -0.40891808 14
0.23988366 2.1285515 -0.33320567 16
0.24197236 2.143723 -0.26019135 15
0.23930475 2.1167746 -0.18302734 13
0.23968989 2.1168714 -0.10927898 16
0.23978214 2.1143851 -0.036111102 12
0.2408812 2.1207709 0.56127143 15
0.24056765 2.1147187 0.48215523 15
0.24158621 2.1203771 0.40701142 14
0.24174219 2.1184587 0.33127558 13
0.24102071 2.1088684 0.2559256 13
0.24452592 2.1362333 0.18477017 15
0.24378057 2.1264369 0.11016718 17
0.24216315 2.1090755 0.036388267 14
0.22532745 1.94745 -0.51505011 3
0.24835129 2.1431632 -0.48926884 15
0.24715826 2.1296175 -0.40891808 14
0.24731222 2.127701 -0.33320567 15
0.24945389 2.1428652 -0.26019135 15
0.24669221 2.1159265 -0.18302734 13
0.24707767 2.1160219 -0.10927898 16
0.2465806 2.1085701 -0.036024712 13
0.24828261 2.1199172 0.56127143 15
0.24794792 2.1138659 0.48215523 15
0.24841355 2.1146457 0.40605819 14
0.24913552 2.1176019 0.33127558 13
0.24838056 2.1080141 0.2559256 13
0.25198129 2.1353669 0.18477017 16
0.25120175 2.1255729 0.11016718 17
0.24952373 2.1082172 0.036388267 15
0.23155211 1.9418561 -0.51375604 3
0.25525314 2.1374457 -0.48814404 15
0.25459051 2.1287417 -0.40891808 14
0.25473779 2.1268249 -0.33320567 16
0.25693238 2.1419814 -0.26019135 15
0.25407666 2.1150525 -0.18302734 13
0.25446248 2.1151466 -0.10927898 17
0.25393939 2.1076965 -0.036024712 13
0.25568101 2.1190374 0.56127143 16
0.25532517 2.1129875 0.48215523 15
0.25579351 2.1137657 0.40605819 15
0.25652581 2.1167195 0.33127558 13
0.25573739 2.1071343 0.2559256 13
0.25943357 2.1344743 0.18477017 16
0.25801653 2.1197267 0.1099055 17
0.25688127 2.1073334 0.036388267 15
0.23774044 1.9362422 -0.5124619 3
0.26271266 2.1365418 -0.48814404 15
0.26141974 2.1229682 -0.40796486 14
0.26216024 2.1259227 -0.33320567 16
0.26440769 2.1410716 -0.26019135 16
0.26145804 2.1141527 -0.18302734 13
0.26184416 2.1142454 -0.10927898 17
0.26129508 2.1067972 -0.036024712 13
0.26248097 2.1133392 0.55997825 15
0.26269934 2.1120834 0.48215523 15
0.26317039 2.11286 0.40605819 15
0.26330173 2.1109107 0.33049428 13
0.26309112 2.1062288 0.2559256 13
0.26626447 2.1286132 0.1843344 16
0.26541418 2.118813 0.1099055 17
0.26423568 2.1064241 0.036388267 15
0.24422938 1.9305664 -0.51116782 4
0.26992941 2.1307313 -0.48701933 17
0.26919907 2.1219959 -0.40796486 14
0.26995036 2.1249475 -0.33320567 16
0.27225333 2.1400881 -0.26019135 15
0.26920503 2.1131802 -0.18302734 13
0.26895961 2.1083181 -0.10901816 16
0.2690151 2.1058254 -0.036024712 13
0.27022499 2.1123629 0.55997825 16
0.27043873 2.1111064 0.48215523 15
0.27091265 2.1118813 0.40605819 14
0.27103683 2.1099315 0.33049428 13
0.27080902 2.1052504 0.2559256 13
0.27406442 2.1276231 0.1843344 15
0.27317822 2.117826 0.1099055 17
0.27131388 2.1004832 0.036301002 15
0.25034395 1.9249128 -0.50987375 4
0.27736542 2.129776 -0.48701933 14
0.27660456 2.1210432 -0.40796486 13
0.27736616 2.1239922 -0.33320567 15
0.27972198 2.1391246 -0.26019135 15
0.27657977 2.1122277 -0.18302734 13
0.27631739 2.1073666 -0.10901816 16
0.27636418 2.1048734 -0.036024712 12
0.27759689 2.1114068 0.55997825 16
0.27780622 2.1101496 0.48215523 15
0.27828285 2.1109226 0.40605819 14
0.27840024 2.1089725 0.33049428 13
0.27750576 2.0993724 0.25531626 13
0.28148955 2.1266534 0.1843344 16
0.28056914 2.1168594 0.1099055 17
0.27865088 2.0995224 0.036301002 15
0.25642204 1.9192401 -0.50857961 4
0.284152 2.1239662 -0.48589453 14
0.28400669 2.1200647 -0.40796486 14
0.28477859 2.1230111 -0.33320567 16
0.28718725 2.1381352 -0.26019135 15
0.28395113 2.1112492 -0.18302734 13
0.28367177 2.106389 -0.10901816 16
0.28370988 2.1038959 -0.036024712 13
0.28496537 2.110425 0.55997825 16
0.28517032 2.1091669 0.48215523 15
0.28564963 2.1099384 0.40605819 15
0.28576022 2.1079879 0.33049428 14
0.28483227 2.0983911 0.25531626 13
0.28891125 2.125658 0.1843344 16
0.28795668 2.1158671 0.1099055 17
0.28597128 2.0985377 0.036301002 14
0.26377615 1.9231182 -0.50987375 4
0.29156429 2.1229613 -0.48589453 14
0.29140535 2.1190603 -0.40796486 13
0.29218757 2.1220043 -0.33320567 15
0.29464898 2.1371198 -0.26019135 15
0.29063791 2.1053112 -0.18259157 13
0.29102269 2.1053863 -0.10901816 16
0.2910521 2.1028929 -0.036024712 13
0.29233035 2.1094174 0.55997825 16
0.29253095 2.1081586 0.48215523 14
0.29301295 2.1089284 0.40605819 14
0.29311675 2.1069775 0.33049428 13
0.29215527 2.097384 0.25531626 13
0.29564133 2.1197031 0.18389861 16
0.29534066 2.1148493 0.1099055 17
0.29329479 2.0975268 0.036301002 14
0.27116048 1.9269682 -0.51116782 4
0.29897302 2.1219306 -0.48589453 14
0.2988005 2.1180303 -0.40796486 13
0.29959294 2.1209712 -0.33320567 16
0.30210713 2.1360781 -0.26019135 15
0.29798505 2.1042838 -0.18259157 13
0.29837012 2.1043572 -0.10901816 16
0.29839081 2.1018641 -0.036024712 13
0.29969183 2.1083841 0.55997825 15
0.29988801 2.1071248 0.48215523 15
0.29968029 2.1030338 0.40510502 14
0.30046967 2.1059415 0.33049428 14
0.29947472 2.0963514 0.25531626 13
0.30303869 2.1186581 0.18389861 16
0.30272105 2.1138055 0.1099055 16
0.30061474 2.0964901 0.036301002 14
0.27857488 1.9307902 -0.5124619 4
0.30568159 2.1160524 -0.48476982 13
0.30619198 2.1169744 -0.40796486 13
0.30699471 2.1199126 -0.33320567 16
0.30956158 2.1350105 -0.26019135 15
0.30532855 2.103231 -0.18259157 13
0.30571386 2.1033032 -0.10901816 16
0.30572587 2.1008098 -0.036024712 12
0.30704963 2.1073253 0.55997825 16
0.30724141 2.106065 0.48215523 15
0.30701941 2.101975 0.40510502 15
0.30781895 2.1048799 0.33049428 13
0.30607155 2.0903828 0.25470692 13
0.31043231 2.1175873 0.18389861 16
0.31009778 2.1127357 0.1099055 17
0.30720422 2.0904822 0.036213744 15
0.28672564 1.9393615 -0.51505011 4
0.3130661 2.1149724 -0.48476982 13
0.31357974 2.1158926 -0.40796486 13
0.31439272 2.1188281 -0.33320567 16
0.31701225 2.1339171 -0.26019135 15
0.31266832 2.1021523 -0.18259157 14
0.31305391 2.1022232 -0.10901816 16
0.31305721 2.0997298 -0.036024712 14
0.31440371 2.1062405 0.55997825 15
0.31459108 2.1049798 0.48215523 15
0.31435481 2.1008904 0.40510502 15
0.31516448 2.1037924 0.33049428 13
0.31336647 2.0893018 0.25470692 13
0.31782219 2.1164908 0.18389861 15
0.31747073 2.1116407 0.1099055 17
0.3144995 2.0893972 0.036213744 15
0.29493961 1.9478992 -0.51763833 4
0.32044685 2.1138668 -0.48476982 13
0.32096365 2.1147852 -0.40796486 14
0.32178688 2.1177177 -0.33320567 15
0.32371268 2.1278911 -0.25958198 15
0.32000428 2.101048 -0.18259157 13
0.32039011 2.1011176 -0.10901816 16
0.32038471 2.0986242 -0.036024712 13
0.32175398 2.1051302 0.55997825 16
0.32193694 2.103869 0.48215523 15
0.32168636 2.0997803 0.40510502 15
0.32250616 2.1026795 0.33049428 13
0.32065761 2.0881953 0.25470692 13
0.32520819 2.1153686 0.18389861 15
0.32483977 2.1105194 0.1099055 16
0.32179096 2.0882866 0.036213744 15
0.30173722 1.9468577 -0.51763833 4
0.32782364 2.1127353 -0.48476982 13
0.32834372 2.113652 -0.40796486 14
0.32917714 2.1165817 -0.33320567 15
0.33113843 2.1267481 -0.25958198 15
0.3273364 2.0999181 -0.18259157 13
0.32772246 2.0999863 -0.10901816 16
0.32770833 2.0974929 -0.036024712 14
0.32910025 2.1039944 0.55997825 15
0.32927886 2.1027322 0.48215523 15
0.32901403 2.0986445 0.40510502 14
0.32984391 2.101541 0.33049428 13
0.32794482 2.0870631 0.25470692 13
0.33259022 2.1142204 0.18389861 16
0.33220491 2.1093726 0.1099055 17
0.32907847 2.0871506 0.036213744 14
0.30928752 1.9505626 -0.5189324 4
0.33519647 2.111578 -0.48476982 12
0.3357197 2.1124928 -0.40796486 13
0.33656338 2.1154196 -0.33320567 15
0.33856016 2.1255791 -0.25958198 15
0.33466446 2.0987628 -0.18259157 13
0.33505076 2.0988295 -0.10901816 17
0.33502796 2.0963364 -0.036024712 13
0.33644259 2.1028328 0.55997825 16
0.33584619 2.0967593 0.4810313 15
0.33633766 2.0974834 0.40510502 14
0.33717766 2.1003768 0.33049428 13
0.335228 2.0859056 0.25470692 13
0.3399682 2.1130466 0.18389861 16
0.33956593 2.1082003 0.1099055 17
0.33636197 2.0859892 0.036213744 15
0.3160944 1.949471 -0.5189324 4
0.34256521 2.1103952 -0.48476982 13
0.34309164 2.1113081 -0.40796486 14
0.3439455 2.1142321 -0.33320567 16
0.34597775 2.1243846 -0.25958198 15
0.34198847 2.0975819 -0.18259157 13
0.34157071 2.0927196 -0.10875736 16
0.34234348 2.095154 -0.036024712 13
0.34378079 2.1016455 0.55997825 15
0.34316322 2.0955741 0.4810313 15
0.34365717 2.0962965 0.40510502 15
0.34450728 2.0991871 0.33049428 13
0.34250712 2.0847228 0.25470692 13
0.34734204 2.1118472 0.18389861 16
0.34611166 2.1020751 0.10964382 17
0.3436414 2.0848026 0.036213744 15
0.32289737 1.9483558 -0.5189324 4
0.34992981 2.1091864 -0.48476982 13
0.3504594 2.1100979 -0.40796486 14
0.35132349 2.1130185 -0.33320567 16
0.35339114 2.1231639 -0.25958198 15
0.34930831 2.0963752 -0.18259157 13
0.34887356 2.0915143 -0.10875736 16
0.34883142 2.089015 -0.035938323 13
0.35111481 2.1004326 0.55997825 16
0.35047603 2.0943635 0.4810313 15
0.35097253 2.0950842 0.40510502 14
0.35101587 2.0931008 0.32971296 13
0.34896046 2.0786204 0.25409758 13
0.35471165 2.1106217 0.18389861 16
0.35344714 2.1008542 0.10964382 16
0.35091659 2.0835903 0.036213744 15
0.32889017 1.9424551 -0.51763833 4
0.35729012 2.1079521 -0.48476982 14
0.35782287 2.1088617 -0.40796486 13
0.35787019 2.1069105 -0.33242351 15
0.36080018 2.1219172 -0.25958198 15
0.35662392 2.0951433 -0.18259157 14
0.35617217 2.0902839 -0.10875736 16
0.35612133 2.0877848 -0.035938323 13
0.35844454 2.0991943 0.55997825 16
0.3577846 2.0931273 0.4810313 16
0.35828361 2.0938463 0.40510502 14
0.35832 2.0918629 0.32971296 13
0.35621408 2.0773897 0.25409758 13
0.36207694 2.1093707 0.18389861 16
0.36077836 2.0996077 0.10964382 17
0.35818756 2.0823526 0.036213744 15
0.3364915 1.9460541 -0.5189324 4
0.36464605 2.1066923 -0.48476982 15
0.36518201 2.1075997 -0.40796486 14
0.36522248 2.1056485 -0.33242351 15
0.36820489 2.120645 -0.25958198 15
0.36393514 2.0938857 -0.18259157 13
0.36346647 2.0890279 -0.10875736 16
0.3634069 2.086529 -0.035938323 13
0.36576992 2.0979302 0.55997825 16
0.36508876 2.0918658 0.4810313 15
0.36559033 2.0925829 0.40510502 15
0.36561978 2.0905993 0.32971296 14
0.36346337 2.0761335 0.25409758 13
0.36943781 2.108094 0.18389861 16
0.36810514 2.0983355 0.10964382 17
0.36545417 2.0810897 0.036213744 15
0.34244296 1.9401116 -0.51763833 3
0.37199757 2.1054065 -0.48476982 15
0.37168184 2.1014791 -0.40701169 14
0.37257037 2.1043608 -0.33242351 15
0.37560505 2.1193469 -0.25958198 15
0.37124196 2.0926025 -0.18259157 14
0.37075633 2.0877464 -0.10875736 16
0.37068802 2.0852478 -0.035938323 13
0.3730908 2.0966406 0.55997825 16
0.37238854 2.0905786 0.4810313 15
0.37289256 2.0912941 0.40510502 14
0.37291512 2.0893104 0.32971296 13
0.3707082 2.0748522 0.25409758 13
0.37679416 2.1067915 0.18389861 16
0.37542748 2.0970378 0.10964382 17
0.37271628 2.0798013 0.036213744 15
0.34921312 1.9389045 -0.51763833 3
0.37934452 2.1040952 -0.48476982 15
0.37901515 2.1001687 -0.40701169 13
0.37991366 2.1030476 -0.33242351 15
0.38211763 2.1131396 -0.25897264 15
0.37854424 2.0912938 -0.18259157 13
0.37893185 2.0913527 -0.10901816 16
0.37796465 2.083941 -0.035938323 13
0.38040718 2.0953255 0.55997825 16
0.37968373 2.0892661 0.4810313 15
0.38019025 2.0899796 0.40510502 15
0.3802059 2.087996 0.32971296 13
0.37794852 2.0735455 0.25409758 13
0.38414595 2.1054635 0.18389861 15
0.38274524 2.0957146 0.10964382 17
0.37997386 2.0784876 0.036213744 15
0.35597906 1.9376738 -0.51763833 4
0.38668686 2.1027582 -0.48476982 13
0.38634378 2.0988328 -0.40701169 13
0.38725236 2.1017087 -0.33242351 15
0.38949153 2.1117928 -0.25897264 15
0.38584194 2.0899599 -0.18259157 13
0.38622969 2.0900171 -0.10901816 16
0.38523665 2.0826092 -0.035938323 12
0.38683957 2.0892358 0.55868495 16
0.38697433 2.0879278 0.4810313 15
0.38748333 2.0886397 0.40510502 14
0.38749203 2.0866561 0.32971296 13
0.38518426 2.0722136 0.25409758 13
0.39149305 2.1041098 0.18389861 16
0.39005828 2.0943658 0.10964382 17
0.38722685 2.0771487 0.036213744 15
0.36274064 1.9364192 -0.51763833 4
0.39402452 2.1013956 -0.48476982 12
0.39366773 2.0974717 -0.40701169 14
0.39458632 2.1003439 -0.33242351 15
0.39686069 2.1104205 -0.25897264 15
0.39313489 2.0886002 -0.18259157 13
0.39352292 2.0886562 -0.10901816 16
0.39250398 2.0812516 -0.035938323 12
0.39413002 2.0878727 0.55868495 15
0.3942602 2.0865643 0.4810313 15
0.39477167 2.0872746 0.40510502 15
0.39477348 2.0852907 0.32971296 13
0.39241529 2.0708563 0.25409758 13
0.39883539 2.1027303 0.18389861 16
0.39736661 2.0929916 0.10964382 17
0.39447507 2.0757842 0.036213744 15
0.36859196 1.9303974 -0.51634425 4
0.40135735 2.1000073 -0.48476982 14
0.40098685 2.0960846 -0.40701169 14
0.40191552 2.098954 -0.33242351 16
0.40422502 2.1090221 -0.25897264 15
0.40042305 2.0872152 -0.18259157 13
0.39986968 2.0823665 -0.10875736 16
0.3997665 2.0798688 -0.035938323 14
0.40141568 2.0864842 0.55868495 16
0.40154126 2.0851755 0.4810313 15
0.40205523 2.0858839 0.40510502 14
0.40205008 2.0839 0.32971296 13
0.39964154 2.069474 0.25409758 13
0.40617287 2.1013253 0.18389861 15
0.40467009 2.0915916 0.10964382 17
0.40171853 2.0743947 0.036213744 15
0.37532806 1.929099 -0.51634425 4
0.4086853 2.0985935 -0.48476982 15
0.40830109 2.0946722 -0.40701169 14
0.40923977 2.0975382 -0.33242351 16
0.41158441 2.1075983 -0.25897264 15
0.40770638 2.0858047 -0.18259157 13
0.40713608 2.0809579 -0.10875736 16
0.40702415 2.0784607 -0.035938323 13
0.40869638 2.0850704 0.55868495 16
0.40881744 2.083761 0.4810313 14
0.40933388 2.0844676 0.40510502 14
0.40932181 2.082484 0.32971296 13
0.40686288 2.0680664 0.25409758 14
0.41350535 2.0998948 0.18389861 16
0.41196865 2.0901663 0.10964382 17
0.40895706 2.0729797 0.036213744 15
0.38112068 1.9230396 -0.51505011 3
0.41600826 2.0971541 -0.48476982 15
0.4156104 2.0932341 -0.40701169 14
0.41655904 2.096097 -0.33242351 16
0.41893882 2.1061487 -0.25897264 15
0.4149847 2.0843687 -0.18259157 13
0.41439748 2.079524 -0.10875736 16
0.41427687 2.0770273 -0.035938323 13
0.41597214 2.083631 0.55868495 16
0.4170433 2.0870991 0.48215523 15
0.41660753 2.0830259 0.40510502 15
0.41658854 2.0810425 0.32971296 13
0.41407931 2.0666337 0.25409758 13
0.42083284 2.0984385 0.18389861 16
0.41926217 2.0887156 0.10964382 17
0.41619062 2.0715396 0.036213744 15
0.38783103 1.9216975 -0.51505011 4
0.42236155 2.0909138 -0.48364502 15
0.42291459 2.0917706 -0.40701169 14
0.42387328 2.09463 -0.33242351 16
0.42628807 2.1046736 -0.25897264 15
0.42225799 2.0829077 -0.18259157 13
0.42165387 2.0780649 -0.10875736 16
0.42152449 2.0755684 -0.035938323 13
0.42324287 2.0821662 0.55868495 15
0.42432609 2.0856307 0.48215523 14
0.42387611 2.0815592 0.40510502 14
0.42385021 2.0795755 0.32971296 13
0.42129067 2.0651755 0.25409758 13
0.42815518 2.0969567 0.18389861 16
0.4265506 2.0872395 0.10964382 17
0.42341909 2.0700741 0.036213744 14
0.3935647 1.9156013 -0.51375604 4
0.42965764 2.0894268 -0.48364502 15
0.43021366 2.0902817 -0.40701169 14
0.43018585 2.0883007 -0.33164132 15
0.43363217 2.1031728 -0.25897264 15
0.42952609 2.0814209 -0.18259157 13
0.4289051 2.0765803 -0.10875736 16
0.42876703 2.0740845 -0.035938323 13
0.43050838 2.0806763 0.55868495 15
0.43160373 2.0841367 0.48215523 14
0.43113953 2.0800669 0.40510502 14
0.43110672 2.0780833 0.32971296 13
0.42849693 2.0636923 0.25409758 13
0.43547234 2.0954494 0.18389861 15
0.43383381 2.0857377 0.10964382 17
0.4306424 2.0685835 0.036213744 14
0.40024897 1.9142158 -0.51375604 4
0.43694848 2.0879142 -0.48364502 16
0.43750751 2.0887673 -0.40701169 14
0.43747279 2.0867863 -0.33164132 16
0.44097096 2.1016464 -0.25897264 15
0.43678901 2.0799088 -0.18259157 13
0.43615109 2.0750706 -0.10875736 16
0.43703353 2.0774677 -0.036024712 13
0.43776867 2.0791609 0.55868495 16
0.43787143 2.0778501 0.4810313 15
0.43839768 2.0785491 0.40510502 14
0.43835795 2.0765657 0.32971296 13
0.4367238 2.0670395 0.25470692 14
0.44381472 2.0987902 0.1843344 15
0.44111177 2.0842106 0.10964382 17
0.43786052 2.0670676 0.036213744 14
0.40692842 1.912807 -0.51375604 4
0.44423398 2.0863764 -0.48364502 16
0.44479603 2.0872273 -0.40701169 14
0.44475436 2.0852466 -0.33164132 16
0.44830441 2.1000943 -0.25897264 15
0.44404659 2.0783715 -0.18259157 14
0.44339177 2.0735354 -0.10875736 16
0.44428259 2.0759294 -0.036024712 13
0.44502366 2.07762 0.55868495 16
0.44512179 2.076309 0.4810313 15
0.44565052 2.0770063 0.40510502 14
0.44664079 2.0798519 0.33049428 13
0.44393647 2.0655026 0.25470692 13
0.45218563 2.1020975 0.18477017 16
0.44943523 2.0875397 0.1099055 17
0.44612625 2.0704134 0.036301002 15
0.4146243 1.9160953 -0.51505011 4
0.45254529 2.0895743 -0.48476982 16
0.45207906 2.0856619 -0.40701169 14
0.45307752 2.0885077 -0.33242351 15
0.45668527 2.1033661 -0.25958198 15
0.45341417 2.0865438 -0.18346313 13
0.45168814 2.076854 -0.10901816 16
0.45258945 2.0792506 -0.036111102 12
0.45432931 2.0854921 0.56127143 15
0.45132893 2.0699825 0.47990742 15
0.45394433 2.0802333 0.40605819 15
0.45600557 2.0879295 0.33205691 14
0.45326322 2.0736368 0.2559256 14
0.46058509 2.1053722 0.18520595 16
0.45778736 2.0908356 0.11016718 17
0.45549083 2.0786104 0.036475528 16
0.42164436 1.9145627 -0.51505011 4
0.46020094 2.0879018 -0.48476982 15
0.45866302 2.0791979 -0.40605849 14
0.46179393 2.0916553 -0.33320567 15
0.46653298 2.1113698 -0.26080069 16
0.46428522 2.099458 -0.18477045 17
0.46253425 2.0898101 -0.10980059 16
0.46345082 2.0922205 -0.036370274 17
0.46406075 2.0932438 0.56385797 17
0.46207872 2.0825834 0.48327911 19
0.46369377 2.0881388 0.40796459 22
0.46686944 2.1007073 0.3344008 25
0.46301541 2.08165 0.2571443 16
0.46938086 2.1085317 0.18564172 24
0.46761918 2.098891 0.11069055 25
0.46745822 2.0964446 0.036824573 28
0.42938003 1.9177921 -0.51634425 4
0.46748626 2.0862825 -0.48476982 13
0.47021419 2.0967414 -0.40987125 15
0.47125533 2.0996678 -0.33477002 19
0.47607547 2.1194124 -0.26201937 25
0.47488841 2.1124039 -0.1860778 29
0.4720183 2.0979259 -0.11032221 29
0.47294763 2.1003444 -0.036543053 31
0.47348839 2.1010346 0.56644452 32
0.4725613 2.0952158 0.48665082 27
0.47314137 2.0960832 0.40987095 22
0.4774642 2.1135163 0.33674476 27
0.47246778 2.0897024 0.25836298 32
0.47893673 2.1165969 0.18651327 27
0.47604567 2.1021159 0.11095222 28
0.47809497 2.1094255 0.037086364 76
0.43607178 1.9162816 -0.51634425 4
0.47584775 2.0893884 -0.48589453 12
0.48080263 2.1094441 -0.41273081 17
0.48077825 2.1076393 -0.33633435 17
0.48678437 2.1322527 -0.26384741 26
0.48336864 2.1155889 -0.18651357 35
0.48156461 2.1060004 -0.11084383 27
0.48250681 2.1084273 -0.036715835 33
0.48405424 2.113493 0.57032424 34
0.48422611 2.1125491 0.49114645 31
0.4826501 2.103987 0.41177732 35
0.48704892 2.1214633 0.33830738 39
0.48309326 2.1025507 0.26019105 32
0.48743838 2.1197667 0.18694907 39
0.48673996 2.1150389 0.11173727 36
0.48881486 2.1223602 0.037348147 82
0.44384629 1.9194533 -0.51763833 4
0.48313817 2.0877144 -0.48589453 9
0.49148551 2.1220984 -0.41559041 19
0.49036258 2.1155703 -0.3378987 26
0.4964672 2.140209 -0.26506612 37
0.4918769 2.1187408 -0.18694936 37
0.49117303 2.1140339 -0.11136544 38
0.49212807 2.1164687 -0.036888614 41
0.49252346 2.1164947 0.57161748 37
0.49270242 2.115591 0.49227038 42
0.49221966 2.1118495 0.41368371 37
0.49445122 2.1197503 0.33830738 37
0.49268591 2.110517 0.26140973 39
0.4971011 2.1277528 0.18782063 45
0.49525666 2.1181891 0.11199894 47
0.49508128 2.1157734 0.037260886 38
0.45164818 1.9225938 -0.5189324 4
0.4904227 2.0860155 -0.48589453 8
0.50226241 2.1347032 -0.41844994 19
0.49887624 2.1186526 -0.33868089 27
0.50507325 2.1432936 -0.26567549 41
0.49926969 2.1170108 -0.18694936 44
0.49969637 2.1171663 -0.11162625 41
0.49951294 2.114738 -0.036888614 41
0.49990839 2.1147625 0.57161748 37
0.50120586 2.1185994 0.49339426 40
0.4995884 2.1101184 0.41368371 36
0.50184757 2.1180112 0.33830738 38
0.50005001 2.1087844 0.26140973 46
0.50567538 2.1308508 0.1882564 49
0.50380129 2.1213055 0.11226062 44
0.50130767 2.1091683 0.037173621 41
0.45835653 1.9210055 -0.5189324 4
0.49770129 2.0842907 -0.48589453 6
0.50857002 2.1281631 -0.4174968 19
0.50741726 2.121701 -0.33946306 23
0.5137068 2.1463439 -0.26628482 46
0.50665641 2.1152554 -0.18694936 47
0.50708365 2.1154091 -0.11162625 45
0.50689173 2.1129816 -0.036888614 42
0.50841475 2.1177008 0.57291073 38
0.50859815 2.116837 0.49339426 38
0.50695103 2.1083617 0.41368371 37
0.50923771 2.1162467 0.33830738 38
0.50740796 2.1070261 0.26140973 39
0.51311034 2.1290729 0.1882564 54
0.51003224 2.1146801 0.11199894 43
0.50866699 2.1074057 0.037173621 39
0.46505928 1.9193939 -0.5189324 4
0.50497377 2.0825408 -0.48589453 6
0.51599562 2.126375 -0.4174968 20
0.51482028 2.1199169 -0.33946306 26
0.52119583 2.1445377 -0.26628482 41
0.51285976 2.1086338 -0.18651357 50
0.51328379 2.1087747 -0.11136544 46
0.51426429 2.1111991 -0.036888614 43
0.51465994 2.1112208 0.57161748 40
0.51598418 2.1150486 0.49339426 46
0.51430756 2.1065793 0.41368371 39
0.51544952 2.1096587 0.33752605 42
0.51475978 2.105242 0.26140973 44
0.5205391 2.1272686 0.1882564 57
0.51741076 2.1128867 0.11199894 50
0.51483023 2.1007619 0.037086364 49
0.4717564 1.9177588 -0.5189324 4
0.51107556 2.0760348 -0.48476982 6
0.52341491 2.1245608 -0.4174968 20
0.52103496 2.1133125 -0.33868089 31
0.52748966 2.1378872 -0.26567549 48
0.52021712 2.1068308 -0.18651357 37
0.52064168 2.1069701 -0.11136544 54
0.52043056 2.1045384 -0.036802221 41
0.52202636 2.1094115 0.57161748 41
0.52336389 2.1132348 0.49339426 47
0.52165771 2.1047711 0.41368371 36
0.52281046 2.1078467 0.33752605 32
0.52090979 2.0986159 0.26080036 47
0.5267607 2.1206048 0.18782063 45
0.52357835 2.1062222 0.11173727 44
0.52216011 2.0989521 0.037086364 32
0.47844777 1.9161005 -0.5189324 4
0.52422464 2.0978708 -0.49039361 6
0.5296371 2.117959 -0.41654357 15
0.52840865 2.1114807 -0.33868089 26
0.53494906 2.1360328 -0.26567549 34
0.52635729 2.1001709 -0.1860778 31
0.52677846 2.1002965 -0.11110463 34
0.52777356 2.1027088 -0.036802221 35
0.52820975 2.1028922 0.57032424 30
0.52954954 2.1066699 0.49227038 34
0.52900153 2.1029375 0.41368371 32
0.52895951 2.1012199 0.33674476 29
0.52823216 2.0967848 0.26080036 33
0.53415978 2.1187532 0.18782063 39
0.53092724 2.1043816 0.11173727 35
0.52825975 2.0922692 0.036999099 29
0.48513326 1.9144187 -0.5189324 4
0.53633463 2.1149178 -0.49489263 10
0.53702688 2.1160975 -0.41654357 14
0.53577584 2.1096234 -0.33868089 23
0.54117948 2.1293426 -0.26506612 28
0.53368503 2.0983205 -0.1860778 26
0.53287506 2.093606 -0.11084383 31
0.53387624 2.0960093 -0.036715835 28
0.53435403 2.0963552 0.569031 22
0.53569573 2.1000876 0.49114645 27
0.53512502 2.0963225 0.41273054 26
0.53506851 2.0945756 0.33596343 24
0.53431892 2.0901201 0.26019105 27
0.54031789 2.1120501 0.18738484 30
0.53703129 2.0976782 0.11147558 29
0.53431922 2.0855699 0.036911838 23
0.49301562 1.9173912 -0.52022654 4
0.55221212 2.1460595 -0.50276589 8
0.54441017 2.1142099 -0.41654357 15
0.54190421 2.102958 -0.3378987 20
0.54736978 2.1226349 -0.26445675 24
0.54100633 2.0964448 -0.1860778 27
0.53893131 2.0868988 -0.11058301 23
0.54118943 2.0941329 -0.036715835 24
0.53924984 2.0851254 0.56644452 19
0.54302317 2.0982049 0.49114645 23
0.54243928 2.0944417 0.41273054 21
0.5411377 2.0879147 0.33518213 23
0.54161155 2.0882423 0.26019105 22
0.54768699 2.1101511 0.18738484 27
0.54435027 2.0957911 0.11147558 28
0.541596 2.0836921 0.036911838 26
0.50092459 1.9203317 -0.52152056 4
0.55969983 2.1441188 -0.50276589 8
0.55302733 2.1170456 -0.4174968 17
0.5492416 2.1010537 -0.3378987 25
0.55477577 2.1207113 -0.26445675 26
0.54832095 2.0945437 -0.1860778 27
0.54621267 2.0850048 -0.11058301 27
0.54722822 2.087395 -0.036629442 28
0.546525 2.0832303 0.56644452 23
0.5491069 2.0915844 0.49002257 26
0.54849976 2.0877883 0.41177732 25
0.54967821 2.0907891 0.33596343 23
0.54889762 2.086339 0.26019105 25
0.55504942 2.1082265 0.18738484 29
0.55166262 2.093878 0.11147558 27
0.54759157 2.0769546 0.036824573 22
0.50886005 1.9232404 -0.52281469 4
0.56718087 2.1421521 -0.50276589 8
0.5604139 2.1151023 -0.4174968 17
0.55657232 2.0991235 -0.3378987 22
0.5621751 2.1187618 -0.26445675 23
0.55562896 2.0926168 -0.1860778 25
0.55348742 2.0830855 -0.11058301 25
0.55451131 2.0854721 -0.036629442 22
0.55379349 2.08131 0.56644452 20
0.55640453 2.0896552 0.49002257 24
0.55578417 2.085861 0.41177732 21
0.5569731 2.0888577 0.33596343 24
0.55617696 2.0844102 0.26019105 23
0.56240517 2.1062763 0.18738484 26
0.55896825 2.0919397 0.11147558 24
0.55612957 2.0798602 0.036911838 24
0.51557034 1.9214524 -0.52281469 4
0.57339156 2.1354542 -0.50164115 8
0.56906724 2.1178734 -0.41844994 26
0.56517857 2.1019373 -0.33868089 26
0.5695675 2.1167867 -0.26445675 25
0.5642252 2.0954742 -0.18651357 27
0.56075531 2.0811408 -0.11058301 24
0.56178755 2.083524 -0.036629442 26
0.56231338 2.0840271 0.5677377 22
0.56369537 2.0877001 0.49002257 25
0.56306177 2.0839083 0.41177732 23
0.56555021 2.0916684 0.33674476 26
0.56474566 2.0872464 0.26080036 26
0.569754 2.1043 0.18738484 30
0.56626707 2.0899758 0.11147558 29
0.56338626 2.0779064 0.036911838 25
0.52320635 1.9243926 -0.52410877 4
0.58009744 2.1336424 -0.50164115 8
0.57571793 2.1160753 -0.41844994 23
0.57177925 2.1001513 -0.33868089 25
0.5775193 2.1197751 -0.26506612 26
0.57080549 2.0936913 -0.18651357 25
0.56860483 2.0841858 -0.11084383 28
0.56964701 2.0865715 -0.036715835 27
0.56885779 2.0822501 0.5677377 22
0.571536 2.0906184 0.49114645 25
0.57090098 2.0868635 0.41273054 22
0.57211858 2.0898812 0.33674476 25
0.57130015 2.0854621 0.26080036 25
0.57767892 2.1073036 0.18782063 28
0.57283014 2.0881865 0.11147558 27
0.56991136 2.0761261 0.036911838 25
0.52958494 1.9226469 -0.52410877 4
0.5875417 2.1316044 -0.50164115 7
0.58440596 2.1187842 -0.41940317 25
0.58042043 2.1029027 -0.33946306 25
0.58491516 2.1177461 -0.26506612 25
0.57811034 2.091686 -0.18651357 25
0.57720762 2.0870011 -0.11110463 27
0.57692707 2.0845704 -0.036715835 26
0.57741183 2.0849066 0.569031 23
0.57883018 2.0886104 0.49114645 26
0.57818198 2.0848579 0.41273054 24
0.5807308 2.0926299 0.33752605 23
0.57990414 2.0882368 0.26140973 25
0.58503127 2.1052744 0.18782063 29
0.58145356 2.0909848 0.11173727 27
0.57849514 2.0789402 0.036999099 22
0.53696346 1.9205993 -0.52410877 4
0.59440947 2.1246407 -0.50051636 8
0.59253722 2.1165247 -0.41940317 22
0.58849072 2.1006587 -0.33946306 23
0.59304243 2.1154847 -0.26506612 24
0.58748293 2.0942469 -0.18694936 26
0.58521682 2.0847692 -0.11110463 25
0.58627892 2.0871527 -0.036802221 27
0.58541304 2.082674 0.569031 21
0.58816475 2.0910625 0.49227038 22
0.58618301 2.0826223 0.41273054 22
0.58876157 2.0903847 0.33752605 24
0.5879181 2.0859947 0.26140973 23
0.59311062 2.1030126 0.18782063 30
0.58947802 2.0887368 0.11173727 29
0.58647341 2.0767035 0.036999099 25
0.54366434 1.9187132 -0.52410877 4
0.6018222 2.1225531 -0.50051636 7
0.59992164 2.1144435 -0.41940317 23
0.59581977 2.0985916 -0.33946306 24
0.60177952 2.1181757 -0.26567549 25
0.59478962 2.0921834 -0.18694936 24
0.59385669 2.0875165 -0.11136544 26
0.59356081 2.0850935 -0.036802221 27
0.59400249 2.085263 0.57032424 21
0.59546036 2.0889969 0.49227038 23
0.59479535 2.0852835 0.41368371 23
0.59605479 2.0883167 0.33752605 23
0.59519601 2.0839298 0.26140973 25
0.60181659 2.1057184 0.1882564 27
0.59676546 2.0866663 0.11173727 27
0.59510082 2.0794485 0.037086364 24
0.55035859 1.9168038 -0.52410877 4
0.60922772 2.1204393 -0.50051636 7
0.60865498 2.1170537 -0.42035633 25
0.60450703 2.1012452 -0.34024525 26
0.60916966 2.1160622 -0.26567549 24
0.60208911 2.0900943 -0.18694936 26
0.6011399 2.0854309 -0.11136544 25
0.60083556 2.083009 -0.036802221 28
0.60127783 2.0831769 0.57032424 21
0.60410064 2.0915864 0.49339426 25
0.60207081 2.0831945 0.41368371 22
0.60334074 2.0862236 0.33752605 25
0.60246664 2.0818396 0.26140973 26
0.60916328 2.1036048 0.1882564 28
0.60404569 2.0845706 0.11173727 29
0.6023494 2.0773604 0.037086364 27
0.55704618 1.914871 -0.52410877 5
0.61798739 2.1229777 -0.50164115 6
0.61604112 2.1149161 -0.42035633 28
0.61183804 2.099122 -0.34024525 27
0.61794192 2.1186872 -0.26628482 26
0.6093812 2.08798 -0.18694936 28
0.60981548 2.0881126 -0.11162625 26
0.60810292 2.080899 -0.036802221 28
0.60854578 2.0810652 0.57032424 25
0.61139792 2.0894649 0.49339426 26
0.60933882 2.0810802 0.41368371 24
0.61200792 2.0888441 0.33830738 26
0.60972995 2.0797238 0.26140973 26
0.61650252 2.1014657 0.1882564 28
0.61131847 2.0824494 0.11173727 30
0.60959709 2.0752451 0.037086364 26
0.5637269 1.912915 -0.52410877 5
0.62539423 2.1208076 -0.50164115 6
0.62341988 2.1127529 -0.42035633 30
0.61916161 2.0969737 -0.34024525 27
0.62533379 2.1165171 -0.26628482 28
0.61807805 2.0906165 -0.18738513 28
0.61710066 2.0859714 -0.11162625 27
0.61536294 2.0787635 -0.036802221 29
0.6158064 2.0789282 0.57032424 24
0.62007236 2.091989 0.49451819 29
0.6179952 2.0836465 0.41463691 24
0.6192956 2.086695 0.33830738 25
0.6169858 2.0775828 0.26140973 26
0.62383419 2.0993009 0.1882564 29
0.61858386 2.080303 0.11173727 30
0.61683732 2.0731046 0.037086364 26
0.57040077 1.9109354 -0.52410877 4
0.63279337 2.1186118 -0.50164115 6
0.63079095 2.110564 -0.42035633 25
0.62789267 2.0995312 -0.34102744 29
0.63271797 2.1143215 -0.26628482 27
0.62537187 2.0884464 -0.18738513 28
0.62437826 2.0838044 -0.11162625 28
0.62261546 2.0766029 -0.036802221 27
0.62305945 2.076766 0.57032424 27
0.62737101 2.089812 0.49451819 30
0.6252647 2.0814767 0.41463691 25
0.6279974 2.0892501 0.33908868 26
0.62566358 2.080169 0.26201907 27
0.63115829 2.0971105 0.1882564 30
0.62584174 2.078131 0.11173727 29
0.62407005 2.0709388 0.037086364 27
0.57567018 1.9043099 -0.52281469 4
0.63877422 2.1117265 -0.50051636 7
0.63815427 2.1083493 -0.42035633 26
0.63521755 2.0973268 -0.34102744 29
0.64009446 2.1120999 -0.26628482 27
0.63265812 2.0862505 -0.18738513 28
0.6316483 2.0816123 -0.11162625 26
0.63131279 2.0792005 -0.036888614 29
0.63170898 2.0792 0.57161748 14
0.63466197 2.0876093 0.49451819 27
0.63252664 2.0792813 0.41463691 27
0.63528639 2.0870452 0.33908868 27
0.63292092 2.0779722 0.26201907 24
0.63847476 2.0948944 0.1882564 30
0.63454849 2.0807097 0.11199894 29
0.63275421 2.073529 0.037173621 29
0.58231395 1.9022888 -0.52281469 5
0.64614165 2.1094837 -0.50051636 7
0.64694828 2.1108017 -0.42130953 26
0.64253473 2.0950963 -0.34102744 28
0.64746314 2.1098528 -0.26628482 27
0.63993669 2.0840294 -0.18738513 28
0.63891065 2.0793948 -0.11162625 27
0.63856667 2.0769839 -0.036888614 31
0.64180326 2.0862148 0.57420403 5
0.64194524 2.0853813 0.49451819 20
0.6412257 2.0817513 0.41559011 27
0.64402235 2.0895345 0.33987001 19
0.64017057 2.0757501 0.26201907 25
0.64578342 2.092653 0.1882564 31
0.64180768 2.0784819 0.11199894 29
0.6399883 2.0713077 0.037173621 26
0.58895063 1.9002445 -0.52281469 4
0.65350115 2.1072156 -0.50051636 7
0.65431237 2.1085305 -0.42130953 26
0.64984411 2.0928409 -0.34102744 28
0.65482396 2.1075799 -0.26628482 28
0.64720738 2.0817831 -0.18738513 29
0.64616519 2.0771518 -0.11162625 26
0.64729863 2.0795157 -0.036975004 28
0.65051776 2.088573 0.57549721 11
0.65067023 2.0877788 0.49564207 11
0.64848846 2.0795004 0.41559011 30
0.65131223 2.0872736 0.33987001 10
0.64741236 2.073503 0.26201907 25
0.65308422 2.0903862 0.1882564 31
0.64905894 2.0762289 0.11199894 28
0.64721465 2.069061 0.037173621 26
0.59847188 1.9073933 -0.5254029 4
0.66085273 2.1049216 -0.50051636 7
0.66166854 2.1062336 -0.42130953 25
0.6571455 2.0905597 -0.34102744 28
0.66217685 2.1052811 -0.26628482 26
0.65596557 2.0842626 -0.18782091 27
0.65341187 2.0748837 -0.11162625 28
0.65455353 2.0772436 -0.036975004 29
0.66070908 2.0955024 0.57808375 13
0.65795398 2.085495 0.49564207 13
0.6557433 2.0772243 0.41559011 17
0.65859419 2.0849874 0.33987001 8
0.65614194 2.0759628 0.26262844 25
0.66187906 2.0928431 0.18869218 29
0.6578089 2.0787113 0.11226062 30
0.65443301 2.0667892 0.037173621 28
0.60658818 1.9098958 -0.52669698 4
0.66819632 2.102602 -0.50051636 6
0.66901666 2.1039112 -0.42130953 25
0.66443896 2.088253 -0.34102744 27
0.67102712 2.1076858 -0.26689416 28
0.66323704 2.0819602 -0.18782091 27
0.66065055 2.0725904 -0.11162625 24
0.66331965 2.0797091 -0.037061393 30
0.66655135 2.0885823 0.57679051 17
0.66671181 2.087827 0.496766 9
0.66299015 2.0749226 0.41559011 11
0.66586816 2.0826759 0.33987001 7
0.66338444 2.0736597 0.26262844 25
0.66918045 2.0905199 0.18869218 30
0.66506094 2.0764024 0.11226062 30
0.66316926 2.0692532 0.037260886 27
0.61472934 1.9123647 -0.52799106 4
0.67702341 2.1048946 -0.50164115 6
0.67635661 2.1015632 -0.42130953 24
0.67323798 2.0906217 -0.34180957 28
0.67838019 2.1053307 -0.26689416 26
0.6705004 2.0796323 -0.18782091 27
0.66788125 2.0702715 -0.11162625 28
0.67057514 2.0773809 -0.037061393 30
0.67383778 2.0862427 0.57679051 10
0.67699212 2.0947587 0.49901381 5
0.67022896 2.0725956 0.41559011 9
0.67313397 2.080339 0.33987001 7
0.67061883 2.0713315 0.26262844 24
0.67647368 2.0881712 0.18869218 29
0.67230493 2.0740683 0.11226062 29
0.67038834 2.0669258 0.037260886 27
0.6199069 1.9056145 -0.52669698 4
0.68436676 2.1025186 -0.50164115 6
0.68368834 2.0991895 -0.42130953 25
0.68053156 2.088259 -0.34180957 27
0.68572509 2.1029499 -0.26689416 27
0.67775559 2.0772791 -0.18782091 27
0.67510378 2.0679276 -0.11162625 28
0.67937475 2.0797796 -0.037147783 29
0.67961544 2.0792868 0.57549721 7
0.68732899 2.1016443 0.50126159 3
0.6774596 2.0702436 0.41559011 7
0.68039167 2.0779765 0.33987001 10
0.677845 2.0689778 0.26262844 25
0.68375856 2.0857973 0.18869218 30
0.68109679 2.076453 0.1125223 28
0.67915809 2.0693228 0.037348147 26
0.62655497 1.9034389 -0.52669698 5
0.69170177 2.100117 -0.50164115 6
0.69101167 2.0967901 -0.42130953 25
0.68781674 2.0858707 -0.34180957 29
0.69306159 2.1005435 -0.26689416 26
0.68500251 2.0749009 -0.18782091 26
0.68388426 2.0702996 -0.11188706 27
0.68663043 2.0773954 -0.037147783 28
0.69141901 2.0906587 0.579377 5
0.70231384 2.122359 0.50688112 10
0.68468195 2.0678661 0.41559011 17
0.6891942 2.080277 0.34065133 20
0.685063 2.0665991 0.26262844 25
0.69103527 2.0833979 0.18869218 31
0.68834084 2.0740631 0.1125223 28
0.68637717 2.0669396 0.037348147 25
0.62709117 1.8829116 -0.52152056 4
0.7005685 2.1023114 -0.50276589 6
0.69832665 2.0943651 -0.42130953 24
0.69509357 2.083457 -0.34180957 28
0.70038956 2.0981114 -0.26689416 26
0.69224107 2.0724971 -0.18782091 27
0.6911068 2.0678999 -0.11188706 27
0.69387764 2.074986 -0.037147783 29
0.70024508 2.0928128 0.58067024 8
0.70817119 2.1152744 0.50575721 27
0.69345504 2.0701177 0.41654328 28
0.69645154 2.0778587 0.34065133 18
0.6922726 2.0641952 0.26262844 24
0.69988793 2.085695 0.18912795 30
0.69557643 2.0716476 0.1125223 29
0.69358802 2.0645311 0.037348147 28
0.63828605 1.8944416 -0.5254029 4
0.70790267 2.0998533 -0.50276589 6
0.70720178 2.0965655 -0.4222627 25
0.702362 2.081018 -0.34180957 27
0.70770913 2.0956538 -0.26689416 26
0.70106566 2.0747867 -0.18825668 27
0.69832087 2.0654747 -0.11188706 27
0.7011165 2.0725513 -0.037147783 29
0.71374011 2.1086552 0.58584327 30
0.70929927 2.0943315 0.50126159 28
0.70067686 2.0676844 0.41654328 25
0.7037003 2.0754149 0.34065133 29
0.70106804 2.0664656 0.26323774 26
0.70716417 2.0832393 0.18912795 31
0.70440948 2.073935 0.11278398 30
0.70239902 2.0668309 0.037435409 27
0.64801109 1.9013449 -0.52799106 4
0.7152282 2.0973694 -0.50276589 6
0.71451592 2.094084 -0.4222627 25
0.70962185 2.0785537 -0.34180957 25
0.7166242 2.0978668 -0.2675035 25
0.70830375 2.0723269 -0.18825668 28
0.70714223 2.0677493 -0.11214787 28
0.70672828 2.0653613 -0.037061393 31
0.71640295 2.0924425 0.58196354 32
0.71344763 2.0826244 0.49901381 25
0.70948166 2.0698693 0.4174965 28
0.71094066 2.0729458 0.34065133 24
0.70827711 2.0640056 0.26323774 26
0.7144317 2.0807581 0.18912795 30
0.71164465 2.0714636 0.11278398 28
0.70960933 2.0643666 0.037435409 27
0.65621799 1.9036371 -0.52928513 4
0.72413361 2.0994658 -0.50389069 6
0.72182119 2.0915773 -0.4222627 26
0.71848494 2.0807321 -0.34259176 28
0.72394282 2.0953524 -0.2675035 27
0.71553326 2.0698419 -0.18825668 28
0.71435571 2.0652683 -0.11214787 26
0.71393341 2.0628819 -0.037061393 28
0.72054172 2.0808012 0.579377 29
0.71752298 2.0709145 0.496766 25
0.71670252 2.06738 0.4174965 28
0.71817225 2.0704517 0.34065133 24
0.71547747 2.0615208 0.26323774 26
0.7233246 2.082957 0.18956374 29
0.71887106 2.0689669 0.11278398 28
0.716811 2.061877 0.037435409 26
0.66603875 1.9104561 -0.5318734 4
0.73145771 2.0969253 -0.50389069 6
0.72911781 2.0890448 -0.4222627 25
0.72574371 2.0782115 -0.34259176 27
0.73125255 2.0928128 -0.2675035 27
0.72439784 2.0720334 -0.18869248 27
0.72156048 2.062762 -0.11214787 26
0.72112989 2.0603771 -0.037061393 28
0.72460806 2.0691566 0.57679051 22
0.72474742 2.0683973 0.496766 24
0.72553849 2.0694973 0.41844967 28
0.72702968 2.072592 0.3414326 26
0.72266918 2.0590107 0.26323774 26
0.730591 2.0804193 0.18956374 29
0.72774386 2.0711555 0.11304566 28
0.72566187 2.0640786 0.03752267 25
0.6727035 1.9081196 -0.5318734 4
0.74039346 2.0989535 -0.50501537 6
0.73803914 2.0911157 -0.42321593 26
0.7329936 2.0756655 -0.34259176 27
0.73855329 2.0902474 -0.2675035 27
0.73162615 2.0694923 -0.18869248 26
0.73042154 2.0649381 -0.11240868 28
0.7283175 2.0578475 -0.037061393 27
0.73021406 2.0620618 0.57549721 22
0.73359013 2.070447 0.49788988 26
0.73275793 2.0669522 0.41844967 22
0.73425996 2.0700417 0.3414326 26
0.72985208 2.0564756 0.26323774 25
0.73784858 2.0778565 0.18956374 29
0.73496914 2.0686026 0.11304566 27
0.73286253 2.0615327 0.03752267 23
0.68098164 1.9103088 -0.53316748 4
0.74771565 2.0963562 -0.50501537 6
0.74533403 2.0885267 -0.42321593 26
0.74189508 2.0777447 -0.34337392 27
0.74751484 2.0923305 -0.26811287 26
0.73884559 2.0669258 -0.18869248 25
0.73762506 2.062376 -0.11240868 24
0.73718077 2.0599995 -0.037147783 26
0.73903573 2.0640476 0.57679051 22
0.7408129 2.0678735 0.49788988 25
0.73996854 2.0643818 0.41844967 24
0.74314857 2.0721147 0.34221393 24
