# .PCD v0.7 - Point Cloud Data file format
VERSION 0.7
FIELDS x y z intensity
SIZE 4 4 4 4
TYPE F F F F
COUNT 1 1 1 1
WIDTH 1419
HEIGHT 1
VIEWPOINT 0 0 0 1 0 0 0
POINTS 1419
DATA ascii
-0.94137979 -4.5219002 0.56242698 17
-0.88667363 -4.2553978 0.37694857 10
-0.83146203 -3.9869368 0.21143726 12
-0.7718752 -3.697983 0.065271996 11
-0.40125138 -1.914006 -0.51375604 3
-0.47105616 -2.2450299 -0.52076203 3
-0.5768013 -2.7466207 -0.53759855 3
-0.60921943 -2.8984747 -0.4630464 8
-0.61472869 -2.9221523 -0.36195236 7
-0.66673118 -3.1666057 -0.27977037 6
-0.6689015 -3.174166 -0.16743939 7
-0.72287625 -3.4273295 -0.059868407 9
-1.5890737 -7.5276728 2.0498047 11
-1.6948534 -8.0218382 1.8825408 8
-1.1340642 -5.3629627 1.0570859 8
-1.0171984 -4.8061628 0.77115333 8
-0.95715845 -4.5185866 0.56242698 8
-0.90152234 -4.2522764 0.37694857 8
-0.84537393 -3.9840102 0.21143726 13
-0.78477883 -3.695266 0.065271996 11
-0.40793002 -1.9125937 -0.51375604 3
-0.47787282 -2.2386076 -0.51963723 3
-0.58638525 -2.7445905 -0.53759855 3
-0.61933333 -2.8963304 -0.4630464 8
-0.6249252 -2.9199886 -0.36195236 6
-0.67778057 -3.164259 -0.27977037 6
-0.67997736 -3.1718116 -0.16743939 7
-0.73483539 -3.4247854 -0.059868407 9
-1.6153405 -7.5220799 2.0498047 11
-1.7269397 -8.0349264 1.8870363 6
-1.1527776 -5.3589716 1.0570859 8
-1.0339689 -4.8025832 0.77115333 7
-0.97188014 -4.5103669 0.56181771 6
-0.91636002 -4.249104 0.37694857 7
-0.85927558 -3.981035 0.21143726 13
-0.79767293 -3.6925042 0.065271996 11
-0.41357982 -1.9064381 -0.5124619 3
-0.48568413 -2.2369258 -0.51963723 3
-0.59596211 -2.7425268 -0.53759855 3
-0.62943959 -2.894151 -0.4630464 8
-0.63616949 -2.9226384 -0.3625617 6
-0.68882179 -3.1618738 -0.27977037 6
-0.69104493 -3.1694188 -0.16743939 6
-0.74678564 -3.4221992 -0.059868407 9
-1.6415876 -7.5163956 2.0498047 11
nan nan nan 0
-1.1714768 -5.3549151 1.0570859 9
-1.0507268 -4.798945 0.77115333 8
-0.98761833 -4.506947 0.56181771 7
-0.93225372 -4.2507453 0.37738436 23
-0.87209618 -3.9731338 0.21117558 15
-0.81055737 -3.6896973 0.065271996 11
-0.420232 -1.9049828 -0.5124619 3
-0.4934895 -2.2352169 -0.51963723 3
-0.60659063 -2.7452226 -0.53855181 3
-0.63953823 -2.8919361 -0.4630464 9
-0.64636755 -2.9204001 -0.3625617 6
-0.69985461 -3.1594503 -0.27977037 6
-0.70102322 -3.162112 -0.16717857 8
-0.75872684 -3.4195716 -0.059868407 9
-1.6678147 -7.5106201 2.0498047 11
nan nan nan 0
-1.1901618 -5.3507929 1.0570859 9
-1.0674719 -4.7952476 0.77115333 7
-1.0033444 -4.5034723 0.56181771 6
-0.94817001 -4.252327 0.37782016 15
-0.88595968 -3.9700656 0.21117558 11
-0.82452154 -3.6917243 0.065359257 10
-0.42793593 -1.908217 -0.51375604 3
-0.50235575 -2.2382343 -0.52076203 3
-0.61724526 -2.7478771 -0.53950495 3
-0.64962906 -2.8896861 -0.4630464 8
-0.65655768 -2.9181259 -0.3625617 6
-0.71087885 -3.1569879 -0.27977037 6
-0.71315455 -3.1645172 -0.16743939 6
-0.77065873 -3.4169025 -0.059868407 10
-1.6940216 -7.5047522 2.0498047 11
nan nan nan 0
-1.2088323 -5.3466063 1.0570859 9
-1.0852938 -4.796309 0.77193463 8
-1.0190585 -4.4999423 0.56181771 7
-0.96300757 -4.248991 0.37782016 12
-0.90091699 -3.9718187 0.21143726 8
-0.83740306 -3.6888237 0.065359257 9
-0.43459424 -1.9067117 -0.51375604 3
-0.51016557 -2.2364671 -0.52076203 3
-0.62683338 -2.7457058 -0.53950495 3
-0.65971202 -2.8874009 -0.4630464 8
-0.66673988 -2.9158165 -0.3625617 6
-0.7218945 -3.1544874 -0.27977037 6
-0.72419649 -3.1620083 -0.16743939 6
-0.78258127 -3.4141915 -0.059868407 9
-1.7202077 -7.4987931 2.0498047 11
nan nan nan 0
-1.227488 -5.3423538 1.0570859 9
-1.1020294 -4.7924914 0.77193463 8
-1.0347599 -4.4963579 0.56181771 7
-0.97895128 -4.2504573 0.3782559 10
-0.91477573 -3.9686496 0.21143726 5
-0.85027432 -3.6858783 0.065359257 8
-0.44124725 -1.905183 -0.51375604 2
-0.51906931 -2.2394185 -0.52188677 3
-0.63419563 -2.7339385 -0.53759855 3
-0.66978687 -2.8850803 -0.4630464 7
-0.67691386 -2.9134712 -0.3625617 5
-0.73402935 -3.1567996 -0.28020614 6
-0.73636121 -3.1643243 -0.16770019 6
-0.79449427 -3.4114389 -0.059868407 10
-1.7463729 -7.492743 2.0498047 11
nan nan nan 0
-1.2472446 -5.3428164 1.0580389 9
-1.1187516 -4.7886157 0.77193463 10
-1.0504489 -4.4927182 0.56181771 6
-0.99378216 -4.247014 0.3782559 8
-0.92862332 -3.9654322 0.21143726 16
-0.86313522 -3.6828878 0.065359257 8
-0.4478949 -1.9036312 -0.51375604 3
-0.52799976 -2.2423353 -0.52301151 2
-0.64260912 -2.7269304 -0.53664535 3
-0.67985362 -2.882725 -0.4630464 8
-0.68707967 -2.9110906 -0.3625617 5
-0.74504417 -3.1542182 -0.28020614 6
-0.74855101 -3.166594 -0.167961 6
-0.80639756 -3.4086447 -0.059868407 9
-1.7725168 -7.4866014 2.0498047 11
nan nan nan 0
-1.2658869 -5.3384299 1.0580389 9
-1.1366005 -4.7894864 0.77271587 8
-1.0672717 -4.4938526 0.56242698 6
-1.0074493 -4.2386737 0.37782016 9
-0.94361502 -3.9670238 0.21169895 10
-0.87598568 -3.6798525 0.065359257 9
-0.4553268 -1.9068328 -0.51505011 3
-0.53617316 -2.245404 -0.52413625 2
-0.65003204 -2.7201245 -0.53569221 3
-0.68890661 -2.8805749 -0.4630464 8
-0.69506663 -2.9040916 -0.36195236 5
-0.75494975 -3.1518619 -0.28020614 6
-0.75965929 -3.1690822 -0.1682218 6
-0.81710213 -3.4060948 -0.059868407 8
-1.7960279 -7.4809957 2.0498047 11
nan nan nan 0
-1.2837994 -5.3391991 1.0589921 9
-1.1516415 -4.785892 0.77271587 8
-1.0813842 -4.4904771 0.56242698 5
-1.0207605 -4.2354875 0.37782016 8
-0.9572438 -3.9688938 0.2119606 9
-0.88754189 -3.6770823 0.065359257 10
-0.46164757 -1.9053125 -0.51505011 3
-0.54400784 -2.2435188 -0.52413625 2
-0.65836567 -2.713069 -0.53473902 3
-0.6989575 -2.8781526 -0.4630464 8
-0.7051996 -2.9016478 -0.36195236 6
-0.76594722 -3.1492076 -0.28020614 6
-0.77307862 -3.1761146 -0.16874342 5
-0.82898664 -3.4032218 -0.059868407 8
-1.8221304 -7.4746809 2.0498047 10
-1.8415942 -7.5487981 1.7836372 2
-1.3024288 -5.3346853 1.0589921 9
-1.1683403 -4.7818432 0.77271587 7
-1.0982311 -4.4914961 0.56303632 15
-1.0355389 -4.2318988 0.37782016 6
-0.97109199 -3.9655282 0.2119606 9
-0.90037197 -3.6739619 0.065359257 8
-0.46862778 -1.9036076 -0.51505011 3
-0.55106169 -2.2367795 -0.52301151 2
-0.66713017 -2.7058721 -0.53378582 3
-0.70950174 -2.8755715 -0.4630464 7
-0.71582991 -2.8990436 -0.36195236 6
-0.77748448 -3.146379 -0.28020614 6
-0.78711176 -3.1829538 -0.16926505 5
-0.84145451 -3.4001603 -0.059868407 8
-1.8506755 -7.4726405 2.0510981 10
-1.8598732 -7.5041656 1.7746459 9
-1.3219727 -5.3298759 1.0589921 11
-1.1858588 -4.7775288 0.77271587 7
-1.1158823 -4.4922571 0.56364572 10
-1.0510426 -4.228075 0.37782016 6
-0.98561984 -3.9619424 0.2119606 8
-0.91383159 -3.6706371 0.065359257 7
-0.47644064 -1.9066459 -0.51634425 3
-0.55650234 -2.2253897 -0.52076203 2
-0.67537975 -2.6987655 -0.53283262 3
-0.71953505 -2.8730774 -0.4630464 8
-0.72715151 -2.9013407 -0.3625617 6
-0.78846264 -3.1436458 -0.28020614 7
-0.80186433 -3.194716 -0.17004748 5
-0.85331815 -3.3972025 -0.059868407 8
-1.8767486 -7.466135 2.0510981 10
nan nan nan 0
-1.3405694 -5.3252287 1.0589921 13
-1.2025282 -4.7733603 0.77271587 7
-1.1315564 -4.4883347 0.56364572 11
-1.0657949 -4.22438 0.37782016 7
-0.99944365 -3.9584777 0.2119606 8
-0.92663902 -3.6674249 0.065359257 7
-0.48309317 -1.9049711 -0.51634425 3
-0.56187022 -2.2139893 -0.51851249 2
-0.68358785 -2.6916342 -0.53187943 3
-0.73077595 -2.875334 -0.46382856 8
-0.73727465 -2.8987849 -0.3625617 6
-0.7994312 -3.1408744 -0.28020614 6
-0.81670845 -3.2064135 -0.17082989 5
-0.86517143 -3.3942032 -0.059868407 8
-1.9027988 -7.4595385 2.0510981 11
nan nan nan 0
-1.3591498 -5.3205171 1.0589921 10
-1.2191831 -4.7691331 0.77271587 7
-1.1484467 -4.4891653 0.56425506 12
-1.0805342 -4.2206345 0.37782016 7
-1.0132552 -3.9549649 0.2119606 9
-0.93943506 -3.6641681 0.065359257 7
-0.48973981 -1.9032732 -0.51634425 3
-0.56595045 -2.1978605 -0.51513821 2
-0.6905297 -2.6797259 -0.52997309 3
-0.74080825 -2.8727658 -0.46382856 8
-0.74738884 -2.8961935 -0.3625617 6
-0.81039 -3.1380649 -0.28020614 6
-0.8341428 -3.227715 -0.17213394 13
-0.87701404 -3.3911624 -0.059868407 8
-1.9288257 -7.4528508 2.0510981 10
nan nan nan 0
-1.378945 -5.3204913 1.0599453 9
-1.235823 -4.7648487 0.77271587 8
-1.1641097 -4.4851289 0.56425506 12
-1.0952605 -4.2168369 0.37782016 7
-1.0270544 -3.9514039 0.2119606 9
-0.95096123 -3.6560283 0.065271996 7
-0.49638048 -1.9015521 -0.51634425 2
-0.56869364 -2.177017 -0.51063919 2
-0.69863808 -2.67255 -0.52901983 3
-0.7508316 -2.8701622 -0.46382856 9
-0.75749385 -2.8935671 -0.3625617 6
-0.82260138 -3.1400354 -0.28064194 6
-0.84540451 -3.2247837 -0.17213394 14
-0.8888461 -3.3880804 -0.059868407 7
-1.956056 -7.4507446 2.0523913 10
nan nan nan 0
-1.3975085 -5.3156457 1.0599453 9
-1.252448 -4.7605057 0.77271587 6
-1.1797587 -4.4810381 0.56425506 13
-1.1099733 -4.2129879 0.37782016 7
-1.0408412 -3.9477949 0.2119606 9
-0.96371728 -3.6526864 0.065271996 6
-0.5030151 -1.8998078 -0.51634425 3
-0.58003265 -2.1891465 -0.51401347 2
-0.70670485 -2.6653509 -0.52806669 4
-0.76084578 -2.8675239 -0.46382856 9
-0.76758969 -2.8909054 -0.3625617 8
-0.83355707 -3.1371448 -0.28064194 5
-0.85280669 -3.2073364 -0.17135151 10
-0.9019528 -3.3897884 -0.0599548 7
-1.982052 -7.4438715 2.0523913 9
nan nan nan 0
-1.4160551 -5.3107347 1.0599453 10
-1.2690575 -4.7561049 0.77271587 6
-1.1953932 -4.4768929 0.56425506 11
-1.1246725 -4.2090878 0.37782016 7
-1.0546151 -3.9441376 0.2119606 8
-0.97646177 -3.6493001 0.065271996 7
-0.5083912 -1.893376 -0.51505011 3
-0.59019911 -2.1965184 -0.51626295 2
-0.71472979 -2.6581275 -0.5271135 4
-0.77085066 -2.8648505 -0.46382856 9
-0.77896649 -2.8930004 -0.36317107 7
-0.84579861 -3.1390257 -0.28107771 5
-0.86139739 -3.1946981 -0.17082989 11
-0.91377985 -3.3866193 -0.0599548 7
-2.0092831 -7.4415703 2.0536847 9
nan nan nan 0
-1.4345844 -5.3057594 1.0599453 11
-1.2856518 -4.751646 0.77271587 5
-1.2110132 -4.4726925 0.56425506 10
-1.1393583 -4.2051363 0.37782016 7
-1.0683764 -3.9404321 0.2119606 9
-0.98919415 -3.6458695 0.065271996 6
-0.51499718 -1.8915899 -0.51505011 3
-0.60042405 -2.203846 -0.51851249 2
-0.72271311 -2.6508813 -0.5261603 4
-0.78084618 -2.8621423 -0.46382856 8
-0.78906018 -2.8902638 -0.36317107 9
-0.86068869 -3.1504688 -0.28238505 5
-0.86859351 -3.1772223 -0.17004748 11
-0.92559588 -3.383409 -0.0599548 7
-2.037797 -7.4438276 2.0562711 9
-2.0413737 -7.451786 1.773522 6
-1.4543939 -5.3054533 1.0608987 11
-1.3022302 -4.7471294 0.77271587 5
-1.2266185 -4.4684381 0.56425506 11
-1.15403 -4.2011333 0.37782016 7
-1.0821246 -3.9366789 0.2119606 8
-1.0019146 -3.6423943 0.065271996 6
-0.52159691 -1.8897806 -0.51505011 2
-0.60811329 -2.2017367 -0.51851249 2
-0.73065436 -2.6436114 -0.5252071 4
-0.79214859 -2.8641593 -0.46461076 8
-0.79914427 -2.8874919 -0.36317107 7
-0.87433946 -3.1570456 -0.28325659 11
-0.87967879 -3.174171 -0.17004748 11
-0.93740058 -3.3801575 -0.0599548 8
-2.0624769 -7.4320154 2.0549777 9
-2.0712838 -7.4586978 1.7768937 3
-1.4729044 -5.3003445 1.0608987 10
-1.320116 -4.7473125 0.77349722 6
-1.2422087 -4.4641294 0.56425506 10
-1.1700237 -4.2018776 0.3782559 6
-1.0958594 -3.9328775 0.2119606 7
-1.0159656 -3.6436903 0.065359257 6
-0.52819031 -1.8879484 -0.51505011 3
-0.61448169 -2.1949091 -0.51738775 2
-0.73855382 -2.6363184 -0.52425396 4
-0.80214155 -2.8613765 -0.46461076 9
-0.80921865 -2.8846846 -0.36317107 6
-0.88939279 -3.1683612 -0.28456393 11
-0.89345402 -3.1806953 -0.17056909 10
-0.94919378 -3.3768649 -0.0599548 8
-2.088407 -7.4247704 2.0549777 9
nan nan nan 0
-1.4913971 -5.2951708 1.0608987 10
-1.3366791 -4.7426758 0.77349722 6
-1.2577839 -4.4597659 0.56425506 8
-1.1860367 -4.2025619 0.3786917 6
-1.1095811 -3.9290283 0.2119606 6
-1.0286782 -3.6401217 0.065359257 6
-0.53477728 -1.8860931 -0.51505011 2
-0.62080973 -2.1880636 -0.51626295 2
-0.74775183 -2.6337245 -0.52425396 3
-0.81212473 -2.8585591 -0.46461076 8
-0.81928313 -2.8818424 -0.36317107 6
-0.90180987 -3.1700282 -0.28499973 10
-0.90865254 -3.1919644 -0.17135151 11
-0.96097547 -3.3735311 -0.0599548 8
nan nan nan 0
nan nan nan 0
-1.5098716 -5.2899327 1.0608987 10
-1.3545824 -4.7427297 0.77427852 6
-1.2733438 -4.4553485 0.56425506 9
-1.2020687 -4.2031851 0.37912747 6
-1.1232892 -3.9251311 0.2119606 6
-1.0413784 -3.6365089 0.065359257 5
-0.5413577 -1.884215 -0.51505011 3
-0.62709767 -2.1812015 -0.51513821 2
-0.75558358 -2.6263814 -0.52330071 4
-0.82209796 -2.8557069 -0.46461076 8
-0.82933766 -2.8789649 -0.36317107 6
-0.91424948 -3.1716473 -0.2854355 10
-0.92255682 -3.1983683 -0.17187312 13
-0.97274536 -3.370156 -0.0599548 8
-2.1415305 -7.41465 2.0562711 9
nan nan nan 0
-1.5283278 -5.2846298 1.0608987 8
-1.3711294 -4.7379727 0.77427852 7
-1.288888 -4.4508762 0.56425506 8
-1.2195059 -4.2085319 0.37999907 5
-1.1369836 -3.9211862 0.2119606 6
-1.0540658 -3.6328516 0.065359257 6
-0.54760301 -1.8824093 -0.51505011 2
-0.63394701 -2.1792207 -0.51513821 2
-0.7638309 -2.6239946 -0.52330071 4
-0.83106542 -2.8531101 -0.46461076 9
-0.8397668 -2.88111 -0.36378038 6
-0.92560375 -3.1735411 -0.28587127 10
-0.93539786 -3.2050405 -0.17239475 12
-0.98332822 -3.3670835 -0.0599548 8
-1.6879348 -5.7760291 1.6010463 12
-1.6899288 -5.7791061 1.3801552 13
-1.5449224 -5.2798023 1.0608987 8
-1.387395 -4.7383814 0.77505988 7
-1.3042598 -4.4515676 0.56486434 8
-1.2341225 -4.2094593 0.38043481 15
-1.1492969 -3.9175951 0.2119606 5
-1.0654734 -3.6295221 0.065359257 6
-0.55384231 -1.8805832 -0.51505011 2
-0.64155 -2.1769943 -0.51513821 2
-0.7729857 -2.6213124 -0.52330071 4
-0.84241718 -2.8549283 -0.46539292 8
-0.84981865 -2.878161 -0.36378038 6
-0.93667579 -3.1702909 -0.28587127 10
-0.9479956 -3.2065444 -0.17265557 12
-0.9964937 -3.3684242 -0.060041185 7
-1.6367972 -5.5292792 1.5337971 10
-1.6298344 -5.5022297 1.3149688 7
-1.5633429 -5.2743773 1.0608987 9
-1.4053308 -4.7382441 0.77584112 7
-1.3197906 -4.4469876 0.56486434 8
-1.2502269 -4.2099009 0.38087058 10
-1.1643871 -3.9183455 0.21222229 6
-1.0795614 -3.6305728 0.065446518 5
-0.55967695 -1.8738151 -0.51375604 3
-0.64990431 -2.174515 -0.51513821 2
-0.78304505 -2.618325 -0.52330071 3
-0.85337305 -2.8516726 -0.46539292 8
-0.86228728 -2.8796308 -0.36438975 6
-0.95027149 -3.171442 -0.28630704 10
-0.96316886 -3.2124465 -0.17317718 12
-1.0094202 -3.3645732 -0.060041185 7
-1.6024674 -5.3379178 1.4820671 11
-1.5920796 -5.2999563 1.2677648 8
-1.5609767 -5.1931272 1.0456475 7
-1.4220916 -4.7280836 0.77505988 6
-1.3382865 -4.4466395 0.56547374 10
-1.2678187 -4.2098389 0.38130638 8
-1.1794238 -3.9138458 0.21222229 5
-1.0934937 -3.6264009 0.065446518 5
-0.56621438 -1.8718501 -0.51375604 3
-0.65749091 -2.1722331 -0.51513821 2
-0.79218 -2.6155756 -0.52330071 3
-0.86332208 -2.8486764 -0.46539292 9
-0.87233382 -2.8766034 -0.36438975 6
-0.96133614 -3.1681058 -0.28630704 11
-0.97872865 -3.2233982 -0.17395961 10
-1.0211586 -3.3610291 -0.060041185 8
-1.5775399 -5.1890397 1.4419762 5
-1.5779576 -5.1871605 1.241915 6
-1.580524 -5.1923413 1.0466007 8
-1.4400258 -4.7278152 0.77584112 7
-1.3552468 -4.4466882 0.56608307 10
-1.2825062 -4.2053876 0.38130638 10
-1.1945359 -3.9144809 0.21248397 5
-1.1061519 -3.6225598 0.065446518 5
-0.57274491 -1.8698622 -0.51375604 3
-0.66649693 -2.1745825 -0.51626295 2
-0.80130523 -2.6127944 -0.52330071 3
-0.87326056 -2.8456454 -0.46539292 8
-0.8823697 -2.8735409 -0.36438975 6
-0.97385198 -3.169492 -0.28674284 12
-0.98410487 -3.2008712 -0.17291637 10
-1.0343546 -3.3622224 -0.060127579 7
nan nan nan 0
-1.5157391 -4.9208751 1.1789763 8
nan nan nan 0
-1.4492432 -4.6991634 0.77193463 6
-1.3722237 -4.4466729 0.56669247 9
-1.2986476 -4.2056451 0.38174218 8
-1.2081927 -3.9102874 0.21248397 6
-1.1217372 -3.6282308 0.065621048 5
-0.57783782 -1.8632386 -0.5124619 3
-0.67552757 -2.1768961 -0.51738775 2
-0.81042069 -2.6099815 -0.52330071 4
-0.88318843 -2.8425801 -0.46539292 8
-0.8923949 -2.8704431 -0.36438975 7
-0.98490965 -3.1660733 -0.28674284 12
-0.99081999 -3.1831141 -0.17213394 10
-1.0460846 -3.3585913 -0.060127579 9
nan nan nan 0
-1.4893935 -4.7760201 1.1452591 4
-1.4602944 -4.6798339 0.94460958 5
-1.4406152 -4.6139359 0.75865233 6
-1.3892171 -4.4465923 0.56730175 10
-1.3133202 -4.201086 0.38174218 8
-1.2218348 -3.9060462 0.21248397 7
-1.1403685 -3.6433773 0.065970093 5
-0.58433825 -1.8612101 -0.5124619 3
-0.68312222 -2.1745248 -0.51738775 2
-0.81952631 -2.6071367 -0.52330071 3
-0.89310545 -2.8394797 -0.46539292 8
-0.9024092 -2.8673108 -0.36438975 6
-0.99595535 -3.1626163 -0.28674284 12
-0.99742323 -3.165349 -0.17135151 9
-1.0593051 -3.3596869 -0.060213968 8
nan nan nan 0
-1.4752556 -4.6732249 1.1216571 12
-1.4707073 -4.6559868 0.94079685 10
-1.4596888 -4.6182971 0.76021492 5
-1.4047302 -4.4417162 0.56730175 9
-1.3294793 -4.2012248 0.38217792 8
-1.2354621 -3.9017572 0.21248397 7
-1.163649 -3.6727345 0.066580921 63
-0.58936876 -1.8545563 -0.51116782 2
-0.68775588 -2.1628413 -0.51513821 2
-0.82713372 -2.5995829 -0.52234757 3
-0.90301162 -2.836345 -0.46539292 7
-0.91241246 -2.8641431 -0.36438975 6
-1.005476 -3.1543746 -0.28630704 12
-1.0054317 -3.1523337 -0.17082989 9
-1.0710261 -3.355969 -0.060213968 7
nan nan nan 0
-1.4203809 -4.4452844 1.0677097 2
-1.4062353 -4.398366 0.88932467 10
-1.3975525 -4.3685794 0.71958685 6
-1.4005575 -4.3753409 0.55938023 7
-1.342617 -4.1918149 0.38174218 8
-1.2505982 -3.9021761 0.21274567 6
-1.1764621 -3.6686502 0.066580921 69
-0.59551543 -1.8525916 -0.51116782 3
-0.69305623 -2.1560318 -0.51401347 3
-0.83379352 -2.592299 -0.52139437 3
-0.91191787 -2.8334939 -0.46539292 7
-0.92140591 -2.8612626 -0.36438975 6
-1.0153809 -3.1512003 -0.28630704 13
-1.0153301 -3.1491594 -0.17082989 9
-1.0815639 -3.3525877 -0.060213968 7
nan nan nan 0
nan nan nan 0
-1.4200462 -4.3939261 0.88932467 10
-1.4826884 -4.5850196 0.75630838 5
-1.4051296 -4.3425899 0.5557242 7
-1.3573134 -4.1923151 0.38217792 8
-1.262851 -3.8982282 0.21274567 5
-1.1833571 -3.6506693 0.066319138 40
-0.60464209 -1.8597928 -0.51375604 2
-0.69756377 -2.1443336 -0.51176393 2
-0.84283721 -2.5893726 -0.52139437 4
-0.921803 -2.8302937 -0.46539292 7
-0.93292564 -2.8627472 -0.36499909 6
-1.0248303 -3.1429012 -0.28587127 15
-1.0278653 -3.1503432 -0.17109071 8
-1.0948116 -3.3535442 -0.060300358 8
nan nan nan 0
-1.3045233 -3.9911947 0.95981485 2
-1.3499355 -4.1276937 0.83594608 6
nan nan nan 0
-1.4357221 -4.3848219 0.56181771 9
-1.3455758 -4.1070833 0.37476969 5
-1.2966708 -3.9554772 0.2161475 12
-1.1960931 -3.6465166 0.066319138 41
-0.61480045 -1.8666319 -0.51634425 2
-0.70579225 -2.1416395 -0.51176393 3
-0.8512364 -2.5814562 -0.52044117 3
-0.93421113 -2.831423 -0.46617511 8
-0.94391084 -2.8591442 -0.36499909 7
-1.0353283 -3.1342132 -0.2854355 10
-1.0399542 -3.1463733 -0.17109071 10
-1.1076802 -3.3493159 -0.060300358 7
nan nan nan 0
-1.3014619 -3.930655 0.94632798 2
-1.3534259 -4.085206 0.82832062 6
-1.8441415 -5.563139 0.92116487 15
nan nan nan 0
-1.3503534 -4.0687943 0.37171924 5
-1.3165698 -3.9646854 0.21693254 14
-1.2069331 -3.6324086 0.066144615 41
-0.62894678 -1.8873839 -0.52281469 3
-0.71172273 -2.1345413 -0.51063919 2
-0.86024225 -2.578469 -0.52044117 3
-0.944089 -2.828145 -0.46617511 8
-0.95545775 -2.860539 -0.36560845 6
-1.0462624 -3.1305802 -0.2854355 10
-1.0778508 -3.2232265 -0.17552446 12
-1.1209509 -3.3501699 -0.060386747 8
-1.3001443 -3.8834696 1.0863318 2
nan nan nan 0
nan nan nan 0
-1.2778262 -3.8101785 0.62973613 3
-1.8530537 -5.5221748 0.71049827 28
nan nan nan 0
-1.3160899 -3.9174666 0.21457741 9
-1.2180188 -3.6234324 0.066057354 37
-0.63244545 -1.8760239 -0.52022654 2
-0.71761209 -2.1274273 -0.50951445 3
-0.87080705 -2.580101 -0.52139437 3
-0.95553529 -2.8295109 -0.46695724 8
-0.965437 -2.8571866 -0.36560845 7
-1.0571837 -3.126909 -0.2854355 9
-1.1130962 -3.2903924 -0.17943659 12
-1.1310356 -3.3415012 -0.060300358 9
-1.3074949 -3.8606091 1.0811589 2
nan nan nan 0
-1.796427 -5.2981791 1.0790092 2
-1.2831854 -3.7823114 0.62582964 7
-1.2709215 -3.7440147 0.48077455 2
-1.2922231 -3.8045852 0.34818718 6
-1.2944102 -3.8088415 0.20882046 8
-1.2242154 -3.6002285 0.065708302 40
-0.63743126 -1.8692336 -0.5189324 3
-0.72503388 -2.1249094 -0.50951445 3
-0.87980795 -2.5770454 -0.52139437 3
-0.96540636 -2.8261583 -0.46695724 8
-0.97700953 -2.8584948 -0.36621779 7
-1.0680923 -3.1231999 -0.2854355 9
-1.1326579 -3.3101084 -0.18074064 13
-1.1443121 -3.3422625 -0.060386747 8
-1.3287894 -3.8788674 1.0876251 2
nan nan nan 0
-1.8180948 -5.3011622 1.0809156 2
-1.2531004 -3.6516867 0.60473418 2
-1.279148 -3.7254739 0.47894648 3
-1.2974038 -3.7764976 0.3460083 2
-1.3320448 -3.8751297 0.21274567 8
-1.2432789 -3.6148429 0.066057354 40
-0.64395231 -1.8669971 -0.5189324 3
-0.73403621 -2.1269712 -0.51063919 3
-0.89040017 -2.5785983 -0.52234757 3
-0.97687823 -2.8274388 -0.46773943 8
-0.98698157 -2.855067 -0.36621779 7
-1.0789878 -3.1194525 -0.2854355 9
-1.1507375 -3.3250089 -0.18178387 13
-1.1527001 -3.3287995 -0.060213968 8
-1.3454834 -3.883333 1.0902116 2
nan nan nan 0
-1.8398052 -5.3040576 1.0828218 2
-1.2350739 -3.5586443 0.58988929 2
-1.2921444 -3.7209859 0.47894648 2
-1.2566302 -3.616679 0.33162761 4
-1.3127712 -3.7761307 0.20751205 6
-1.2230407 -3.5160465 0.064312115 46
-0.64410263 -1.8464975 -0.51375604 2
-0.74145621 -2.1243961 -0.51063919 3
-0.90101403 -2.5801084 -0.52330071 3
-0.9867419 -2.8240116 -0.46773943 9
-0.9985795 -2.8562894 -0.36682713 8
-1.0898701 -3.1156669 -0.2854355 9
-1.1672856 -3.3351104 -0.1825663 13
-1.1725744 -3.3483474 -0.060645919 8
nan nan nan 0
-1.1990031 -3.4199882 0.82719404 2
-1.8566839 -5.2929711 1.0818686 2
-1.1673478 -3.3259768 0.55160511 2
-1.2229081 -3.4823332 0.44847915 7
-1.251084 -3.5605779 0.32683405 10
-1.2431412 -3.5359993 0.19442807 8
-1.2535546 -3.5636318 0.065271996 35
-0.65054423 -1.8442379 -0.51375604 3
-0.74886721 -2.1217949 -0.51063919 3
-0.91001481 -2.5769475 -0.52330071 3
-0.99823874 -2.8252063 -0.4685216 8
-1.0085437 -2.8527861 -0.36682713 9
-1.1007392 -3.1118436 -0.2854355 9
-1.1755883 -3.3216014 -0.18204468 13
-1.1809176 -3.3348088 -0.06047314 8
nan nan nan 0
-1.2174455 -3.4341502 0.83168966 2
nan nan nan 0
-1.1574773 -3.2613778 0.54144806 2
-1.2350564 -3.4780433 0.44847915 7
-1.2635051 -3.5561893 0.32683405 3
-1.2454416 -3.5034103 0.192858 3
-1.2844152 -3.6110458 0.066231877 46
-0.65697783 -1.8419559 -0.51375604 3
-0.7562691 -2.119168 -0.51063919 3
-0.91900444 -2.5737553 -0.52330071 3
-1.0080944 -2.8217044 -0.4685216 7
-1.020166 -2.8539214 -0.36743647 11
-1.1115949 -3.1079824 -0.2854355 9
-1.1770815 -3.2892702 -0.18047984 13
-1.1858102 -3.3118401 -0.060127579 6
-2.6224215 -7.3201141 2.0717902 9
-1.2064103 -3.3656714 0.81595498 2
nan nan nan 0
nan nan nan 0
-1.1935259 -3.3242457 0.42898008 2
-1.2658069 -3.5236311 0.32421938 2
-2.6746569 -7.4413695 0.41240731 10
-1.2327243 -3.4277778 0.062915921 32
nan nan nan 0
-0.76329237 -2.1166484 -0.51063919 3
-0.92920017 -2.5753105 -0.52425396 3
-1.0174459 -2.818346 -0.4685216 9
-1.0296245 -2.8505228 -0.36743647 8
-1.1218952 -3.104279 -0.2854355 9
-1.1710031 -3.2383924 -0.17787173 9
-1.1627696 -3.2138686 -0.058399774 7
-2.6499691 -7.3204598 2.0743766 10
-1.232497 -3.4028797 0.82607013 2
-1.1117308 -3.0677767 0.62624466 2
nan nan nan 0
nan nan nan 0
-1.1653172 -3.2103975 0.29545796 5
-1.1669906 -3.2132587 0.17715721 6
nan nan nan 0
-0.67115372 -1.841979 -0.51505011 2
-0.7706762 -2.1139712 -0.51063919 3
-0.93818402 -2.5720513 -0.52425396 3
-1.0289708 -2.8194168 -0.46930379 8
-1.0395683 -2.8469114 -0.36743647 8
-1.1327243 -3.1003442 -0.2854355 9
-1.1720141 -3.206147 -0.17630689 16
-1.1739811 -3.20979 -0.058399774 4
-2.6755061 -7.3111653 2.0743766 10
-1.2527432 -3.421432 0.83168966 2
-1.1291862 -3.0823123 0.63005745 2
nan nan nan 0
nan nan nan 0
-1.1988224 -3.2670994 0.30112308 9
-1.1833624 -3.2232275 0.17794225 6
-2.6902053 -7.3235955 0.13551793 72
nan nan nan 0
-0.77636588 -2.1066966 -0.50951445 3
-0.94715643 -2.5687606 -0.52425396 3
-1.0388062 -2.8158076 -0.46930379 7
-1.0494996 -2.8432651 -0.36743647 8
-1.1331857 -3.068336 -0.28282082 9
-1.2230042 -3.3097608 -0.18230549 11
-1.2406534 -3.3557222 -0.06116426 17
nan nan nan 0
-1.9630964 -5.3040943 1.2958624 4
-1.1280073 -3.0461323 0.62338513 2
nan nan nan 0
nan nan nan 0
-1.1859694 -3.1975138 0.29502219 4
-2.7181342 -7.324491 0.40743542 29
-2.7174931 -7.3188472 0.13560519 30
nan nan nan 0
-0.78371489 -2.1039736 -0.50951445 3
-0.95440316 -2.5608397 -0.52330071 4
-1.0503542 -2.8167915 -0.47008595 7
-1.0594181 -2.8395844 -0.36743647 7
-1.1369216 -3.0456963 -0.28107771 7
-1.2397912 -3.3195043 -0.18308793 12
-1.2488595 -3.342005 -0.060991481 11
nan nan nan 0
nan nan nan 0
-1.1420745 -3.0513697 0.62529153 3
nan nan nan 0
nan nan nan 0
nan nan nan 0
-2.7454386 -7.319633 0.40769708 29
-2.7324851 -7.2812333 0.13508162 14
nan nan nan 0
-0.79105437 -2.1012251 -0.50951445 3
-0.95987606 -2.548306 -0.52139437 4
-1.0601803 -2.813108 -0.47008595 7
-1.0710745 -2.8405125 -0.36804584 8
-1.1211731 -2.9718039 -0.27454099 10
nan nan nan 0
-1.1333445 -3.0008936 -0.054771382 6
-1.9290346 -5.1050429 1.4510289 7
-1.9311601 -5.1079717 1.2509062 10
-1.1700844 -3.0932729 0.63482338 2
nan nan nan 0
nan nan nan 0
nan nan nan 0
-2.7638924 -7.2913294 0.40665036 3
nan nan nan 0
nan nan nan 0
-0.79838419 -2.0984511 -0.50951445 3
-0.96701938 -2.5403528 -0.52044117 4
-1.0699934 -2.8093903 -0.47008595 8
-1.0809833 -2.8367565 -0.36804584 9
-1.1546079 -3.0283763 -0.28020614 9
nan nan nan 0
nan nan nan 0
-1.9089371 -4.9990129 1.4225775 10
-1.9037687 -4.9828687 1.2216847 29
-1.175617 -3.0754154 0.63196379 2
nan nan nan 0
nan nan nan 0
nan nan nan 0
-1.1210825 -2.9266257 0.16224146 5
-1.1301014 -2.9486289 0.054451503 55
-0.69831836 -1.8163385 -0.51116782 3
-0.80607003 -2.0955107 -0.50951445 3
-0.97279775 -2.5276299 -0.51853484 4
-1.0820578 -2.8100584 -0.47086814 8
-1.0949415 -2.8420374 -0.36926451 9
-1.1836147 -3.0706007 -0.28456393 9
-1.1259335 -2.9194424 -0.16144077 4
-2.8195257 -7.3069725 -0.13468231 25
-1.8924562 -4.9018679 1.3967124 11
-1.914997 -4.9576778 1.2171891 31
nan nan nan 0
nan nan nan 0
nan nan nan 0
nan nan nan 0
-1.1426209 -2.9504342 0.16381153 4
-2.8206859 -7.2796993 0.13560519 85
-0.70290548 -1.809388 -0.50987375 4
-0.81161499 -2.0881436 -0.50838971 3
-0.97983587 -2.519644 -0.51758158 4
-1.0757439 -2.7648425 -0.46382856 7
-1.0994545 -2.8243239 -0.36743647 9
-1.2015568 -3.0850158 -0.28630704 9
-2.8421235 -7.2934318 -0.40686205 32
-2.8450146 -7.2970858 -0.13468231 33
-1.8726954 -4.8007402 1.3695542 20
-1.9322908 -4.950963 1.2171891 23
nan nan nan 0
nan nan nan 0
nan nan nan 0
nan nan nan 0
-1.1383573 -2.909229 0.1617181 3
-2.8515532 -7.2837725 0.13586697 77
-0.71595687 -1.8250315 -0.51505011 3
-0.81817102 -2.0855834 -0.50838971 3
-0.98416013 -2.5074155 -0.51567525 4
-1.0790093 -2.7476594 -0.46148208 5
-1.1010627 -2.8023801 -0.36499909 7
nan nan nan 0
-2.8686776 -7.2937598 -0.40738368 30
-2.8679252 -7.2881122 -0.13468231 24
-1.8700745 -4.7498922 1.3566216 32
-1.9496208 -4.9494019 1.218313 13
-2.0476811 -5.1956825 1.0771028 29
-1.0937438 -2.7737908 0.46566096 2
nan nan nan 0
nan nan nan 0
nan nan nan 0
-2.8780897 -7.2840786 0.13604149 24
nan nan nan 0
-0.82724106 -2.0872438 -0.50951445 3
-0.99109745 -2.4994023 -0.51472205 3
-1.0612763 -2.6750207 -0.44974947 6
-1.087036 -2.7385552 -0.35707757 7
-1.0712366 -2.6973791 -0.25057316 8
-2.8904324 -7.2744217 -0.40686205 7
-2.9007354 -7.2966399 -0.13502789 3
-1.8866434 -4.7433357 1.3566216 25
-1.9686869 -4.9470925 1.2194368 15
-2.065805 -5.1885028 1.0771028 24
-1.0833156 -2.7194886 0.45706654 3
nan nan nan 0
nan nan nan 0
nan nan nan 0
nan nan nan 0
nan nan nan 0
-0.83307409 -2.0796754 -0.50838971 3
-0.99842554 -2.4911969 -0.51376885 4
-1.0784255 -2.6894474 -0.45287815 6
-1.087827 -2.7115233 -0.35403085 6
-1.0662724 -2.6564546 -0.24708691 5
-1.0525711 -2.6209962 -0.14553143 3
-1.0636085 -2.6471446 -0.048637681 10
-1.9004127 -4.7274256 1.354035 17
-1.9886236 -4.9443636 1.2205608 14
-2.0793109 -5.1672359 1.0742432 15
nan nan nan 0
nan nan nan 0
nan nan nan 0
nan nan nan 0
-1.0747818 -2.6641939 0.04947757 56
nan nan nan 0
-0.84215575 -2.0812707 -0.50951445 3
-1.0034317 -2.4785974 -0.51186246 4
-1.1193244 -2.7634797 -0.46617511 8
-1.1308353 -2.790499 -0.36499909 10
-1.0774101 -2.6573322 -0.24752268 3
-1.0861139 -2.6774573 -0.14892195 10
-1.0784824 -2.6573126 -0.048896853 6
-1.9205374 -4.7297134 1.3566216 16
-2.0077045 -4.941906 1.2216847 16
-2.1010315 -5.1690407 1.0761496 15
-2.2208533 -5.4610982 0.92663407 10
nan nan nan 0
nan nan nan 0
nan nan nan 0
-1.080302 -2.6511669 0.049303047 45
-0.72858381 -1.7835604 -0.50599146 3
-0.84941566 -2.0783184 -0.50951445 3
-1.0102197 -2.4705365 -0.51090926 4
-1.1420534 -2.7915504 -0.47165027 10
-1.1537286 -2.8186848 -0.36926451 11
-2.97999 -7.2768178 -0.68460941 31
-1.0916672 -2.6644089 -0.14840032 4
-1.0839592 -2.6442804 -0.04872407 3
-1.9388682 -4.7274499 1.3579149 18
-2.0249429 -4.9348679 1.2216847 15
-2.1171978 -5.1571341 1.0751964 15
-2.2380261 -5.4487443 0.92585272 23
nan nan nan 0
nan nan nan 0
nan nan nan 0
-2.9921908 -7.2704024 0.13656507 83
-0.74033111 -1.7944 -0.50987375 3
-0.85666513 -2.0753407 -0.50951445 4
-1.0169637 -2.4624584 -0.50995612 5
-1.1555625 -2.7966754 -0.47321463 11
-1.1711444 -2.8329856 -0.37170193 12
-3.0053725 -7.2663713 -0.68460941 19
-3.0044351 -7.2605162 -0.40842691 33
-3.0074203 -7.2641416 -0.13520066 35
-1.9572065 -4.7251153 1.3592081 18
-2.0440216 -4.9322705 1.2228086 16
-2.1370668 -5.1542468 1.0761496 15
-2.2551398 -5.4363375 0.92507148 2
nan nan nan 0
nan nan nan 0
nan nan nan 0
-3.0213885 -7.2691464 0.1367396 29
-0.76330823 -1.8319279 -0.52152056 2
-0.86390418 -2.0723379 -0.50951445 3
-1.0217744 -2.4498336 -0.50804973 7
-1.132987 -2.7151461 -0.45991769 5
-1.1676426 -2.7968225 -0.36743647 7
-3.0287991 -7.2512398 -0.68417364 3
-3.0374618 -7.2684126 -0.40947014 30
-3.0404725 -7.2720494 -0.13554622 29
-1.9736884 -4.7182541 1.3592081 18
-2.0612259 -4.9251056 1.2228086 16
-2.1550453 -5.1467557 1.0761496 14
nan nan nan 0
nan nan nan 0
nan nan nan 0
nan nan nan 0
-3.0409393 -7.2447262 0.13647781 30
nan nan nan 0
-0.87113279 -2.0693095 -0.50951445 3
-1.0284144 -2.4417284 -0.50709653 13
-1.0580794 -2.5109355 -0.42550209 10
nan nan nan 0
-1.0060018 -2.3850231 -0.22311905 6
-3.0569909 -7.2439651 -0.40868771 4
-3.0580602 -7.242969 -0.13520066 3
-1.9920254 -4.715785 1.3605013 18
-2.0803015 -4.9223676 1.2239324 16
-2.1749096 -5.1437225 1.0771028 14
nan nan nan 0
-0.99560279 -2.3523393 0.30893877 2
nan nan nan 0
nan nan nan 0
nan nan nan 0
nan nan nan 0
-0.88025671 -2.07074 -0.51063919 4
-1.0388525 -2.4426405 -0.50804973 12
-1.0378342 -2.4390643 -0.41376951 8
-1.0491242 -2.4644036 -0.32417279 8
-1.0201765 -2.3952451 -0.22442639 8
-0.99370033 -2.3319535 -0.1304045 4
-1.0109805 -2.3713577 -0.043886222 8
-2.0084743 -4.7088027 1.3605013 18
-2.0993836 -4.9195571 1.2250564 15
-2.1947782 -5.1406131 1.078056 15
-0.96560842 -2.2605569 0.38284209 2
nan nan nan 0
nan nan nan 0
nan nan nan 0
-1.0162544 -2.3745325 0.044416368 54
nan nan nan 0
-0.88747954 -2.0676546 -0.51063919 3
-1.0493091 -2.4435093 -0.50900286 10
-1.0346452 -2.4082022 -0.40907648 4
-1.0459614 -2.4333704 -0.32051674 5
-1.0265634 -2.3870935 -0.2239906 5
-1.0334092 -2.4018571 -0.13457744 11
-1.0172752 -2.3632221 -0.043799829 7
-2.0248988 -4.7017632 1.3605013 19
-2.1165433 -4.912199 1.2250564 15
-2.212709 -5.1329203 1.078056 15
-0.95589113 -2.2163594 0.37581027 2
-0.98644078 -2.2860956 0.30101728 2
nan nan nan 0
nan nan nan 0
-1.0285029 -2.3801489 0.044590894 50
-0.78113306 -1.8033649 -0.51634425 3
-0.89662874 -2.0690141 -0.51176393 4
-1.0578321 -2.4398315 -0.50900286 6
-3.1419277 -7.2432184 -1.2444372 33
-3.1506734 -7.2599101 -0.96703434 32
-1.015052 -2.3378067 -0.21963282 2
-1.0497447 -2.4165545 -0.13562068 6
-1.0295035 -2.3688269 -0.043972608 4
-2.0432248 -4.6990957 1.3617946 17
-2.1356208 -4.9092488 1.2261803 15
-2.2325716 -5.1296659 1.0790092 15
-0.94982034 -2.1813135 0.37034109 2
-0.97062981 -2.2280412 0.29370511 2
nan nan nan 0
nan nan nan 0
-1.036805 -2.3765442 0.044590894 42
-0.78742325 -1.8006272 -0.51634425 3
-0.90384549 -2.0658717 -0.51176393 4
-1.0742151 -2.4541099 -0.51281571 6
-3.1711543 -7.2412543 -1.2460015 12
-3.1759961 -7.248868 -0.96703434 26
-3.1728866 -7.2383332 -0.68809569 26
-3.1678612 -7.2234402 -0.40999174 35
-3.1769674 -7.240768 -0.13597818 34
-2.0596154 -4.6919351 1.3617946 18
-2.1527443 -4.9017644 1.2261803 16
-2.2504637 -5.1218419 1.0790092 15
-0.97332811 -2.2141528 0.37659156 2
-0.96841168 -2.2019258 0.29065838 2
-0.97230065 -2.2097216 0.20786645 2
-0.95691997 -2.173737 0.12246613 2
-3.1810195 -7.2225776 0.13708864 75
-0.78980285 -1.7890313 -0.51375604 3
-0.91301966 -2.0671608 -0.51288873 4
-1.0748395 -2.4323871 -0.50900286 5
nan nan nan 0
-3.2012799 -7.2377372 -0.96703434 17
-3.1961181 -7.2226586 -0.68765986 19
-3.1970992 -7.2214699 -0.41051337 33
-3.2042475 -7.2342048 -0.13606456 30
-2.0759807 -4.6847172 1.3617946 18
-2.1718159 -4.8986735 1.2273042 16
-2.2703187 -5.1184421 1.0799624 14
-0.96903193 -2.1836576 0.37190372 3
-0.96199548 -2.1667812 0.28639293 2
-0.96989816 -2.1835535 0.20568755 2
-0.95233572 -2.1430066 0.12089606 2
-3.2123048 -7.2251344 0.13735043 29
-0.79407692 -1.781852 -0.5124619 3
-0.92022979 -2.0639613 -0.51288873 4
-1.0833236 -2.4286203 -0.50900286 5
nan nan nan 0
-3.2305713 -7.2355814 -0.96825302 15
-3.2253733 -7.2205534 -0.6885314 12
-3.2222874 -7.2102661 -0.41051337 23
-3.2274396 -7.2184124 -0.13597818 26
-2.0923207 -4.6774421 1.3617946 17
-2.1908925 -4.8955097 1.228428 15
-2.2881718 -5.1104856 1.0799624 14
-0.96251595 -2.1487124 0.36643454 2
-0.95737553 -2.1362376 0.28273687 2
-0.96936285 -2.1619744 0.20394443 2
-0.95776677 -2.1351132 0.12063438 3
-3.2334116 -7.2047548 0.1371759 14
-0.80196196 -1.7836139 -0.51375604 2
-0.92670941 -2.06106 -0.51288873 4
-1.0285268 -2.2864411 -0.47945404 5
nan nan nan 0
nan nan nan 0
nan nan nan 0
-3.2469749 -7.2046599 -0.4107742 14
-3.2501011 -7.2082376 -0.13597818 7
-2.1089909 -4.6752486 1.3630879 19
-2.2082655 -4.8930435 1.229552 15
-2.3062353 -5.1077456 1.0809156 15
-0.95299691 -2.1096728 0.36018407 3
-0.94364387 -2.087996 0.2766434 3
-0.9474206 -2.0953782 0.19784354 4
-0.95829594 -2.1184459 0.11984934 4
nan nan nan 0
-0.81385761 -1.7941394 -0.51763833 3
-0.93389815 -2.0578127 -0.51288873 5
-0.9918592 -2.1845145 -0.4584839 6
-0.9716844 -2.1390889 -0.36605695 6
-0.97265422 -2.1402316 -0.28395587 5
-0.97036153 -2.134198 -0.20176587 8
nan nan nan 0
nan nan nan 0
-2.1252978 -4.6678586 1.3630879 17
-2.225332 -4.8853054 1.229552 15
-2.3240507 -5.0996642 1.0809156 14
-0.95216012 -2.0883589 0.35705879 4
-0.95298612 -2.0892045 0.27725273 7
-0.96300071 -2.1101837 0.19958664 5
-0.96361095 -2.1105456 0.11958765 10
-0.96098161 -2.1038148 0.039704222 50
-0.82445055 -1.7999263 -0.52022654 3
-0.93940449 -2.0499468 -0.51176393 4
-0.9937225 -2.1674793 -0.45562431 8
-0.979518 -2.1355128 -0.36605695 7
-0.98877132 -2.1546943 -0.28639328 7
-0.97609901 -2.1261003 -0.20133008 9
-0.97465819 -2.1219852 -0.11997214 11
-0.96158051 -2.09255 -0.039134759 8
-2.1444097 -4.6644258 1.3643812 19
-2.2452583 -4.8815422 1.2306759 15
-2.3447778 -5.0955701 1.0818686 15
-0.96187317 -2.0893412 0.35784012 6
-0.95648485 -2.0766826 0.27603403 7
-0.97072852 -2.1066401 0.19958664 7
-0.96715915 -2.0979307 0.11906429 15
-0.97287357 -2.1093576 0.039878745 53
-0.84086114 -1.8189567 -0.52669698 3
-0.94655442 -2.0466552 -0.51176393 4
-0.99509901 -2.1506336 -0.45276478 6
-0.99319011 -2.1455255 -0.36840346 5
-1.0004578 -2.1602364 -0.28761196 6
-0.98770255 -2.1317189 -0.20220163 6
-0.98415935 -2.1231003 -0.12023295 10
-0.97729218 -2.107322 -0.039480317 7
-2.1606784 -4.6569118 1.3643812 18
-2.2622845 -4.8736753 1.2306759 15
-2.3646178 -5.0918064 1.0828218 15
-0.97124124 -2.0904493 0.35862142 6
-0.96791166 -2.0823317 0.27725273 9
-0.98017651 -2.1077552 0.20002241 7
-0.97237021 -2.0900147 0.11880261 12
-0.9823463 -2.1104784 0.03996601 47
-0.83935189 -1.7983569 -0.52152056 3
-0.95404935 -2.0431719 -0.51176393 4
-1.63244 -3.4944077 -0.74158102 4
-0.98850125 -2.1150274 -0.36371043 3
-1.0083687 -2.1565549 -0.28761196 4
-0.9701823 -2.0739439 -0.19697228 2
-0.99828392 -2.1330462 -0.12101538 7
-0.98500937 -2.1037259 -0.039480317 4
-2.179781 -4.6533346 1.3656744 18
-2.2821999 -4.8697629 1.2317998 15
-2.3853481 -5.0875497 1.0837752 15
-0.97889656 -2.0868754 0.35862142 7
-0.9776457 -2.0832629 0.2778621 9
-0.98789519 -2.1041486 0.20002241 7
-0.97577828 -2.0773981 0.11827926 9
-0.97943795 -2.0842438 0.039529696 4
-0.84150845 -1.7866776 -0.5189324 3
-0.95909905 -2.0354226 -0.51063919 4
-1.6592784 -3.5197661 -0.74825335 5
nan nan nan 0
-1.604619 -3.4007409 -0.45701057 2
-3.3971448 -7.1964664 -0.69288921 28
nan nan nan 0
-3.3949881 -7.1853995 -0.13666929 35
-2.1980751 -4.6500645 1.3669676 18
-2.2991846 -4.8617668 1.2317998 15
-2.4030924 -5.0791926 1.0837752 15
-0.98828822 -2.0879099 0.35940275 7
-0.98703557 -2.0843227 0.27847141 9
-0.99736667 -2.1051888 0.20045821 7
-0.97874665 -2.0649552 0.1177559 7
-3.4071553 -7.1851449 0.13813579 29
-0.84121156 -1.77079 -0.51505011 3
-0.96548873 -2.0323992 -0.51063919 4
-1.6640072 -3.5012369 -0.74539375 8
-1.6068797 -3.3795133 -0.58662975 2
-1.6174266 -3.4001646 -0.45761988 2
-3.4175959 -7.1812611 -0.69245344 18
-3.4186103 -7.1801624 -0.41338226 32
-3.4196949 -7.1792116 -0.13675569 31
-2.2126727 -4.6431355 1.3669676 17
-2.3165436 -4.8589172 1.2329236 15
-2.4211502 -5.0760479 1.0847284 14
-0.99696958 -2.089252 0.36018407 7
-0.99571693 -2.0856903 0.27908078 9
-1.0061221 -2.10654 0.200894 7
-0.98092359 -2.0528598 0.11723254 5
-3.4275491 -7.169898 0.13804853 19
-0.8449924 -1.7636353 -0.51375604 3
-0.97257733 -2.0290167 -0.51063919 3
-1.6783412 -3.4998326 -0.74634695 9
-1.5973049 -3.3293581 -0.57880795 2
-1.6142535 -3.3631797 -0.45335448 2
-3.4297056 -7.1423469 -0.68983877 4
-3.4414907 -7.1636848 -0.41312146 22
-3.4468997 -7.1717367 -0.13684207 27
-2.2309599 -4.6397367 1.3682609 17
-2.3334901 -4.8508015 1.2329236 16
-2.4409828 -5.0719881 1.0856814 15
-1.0085412 -2.0946584 0.3617467 7
-1.005145 -2.0866728 0.27969012 9
-1.0177939 -2.1119893 0.20176555 7
-0.98374647 -2.0404277 0.11670918 5
-3.4568994 -7.1668954 0.13822305 20
-0.85355341 -1.7648741 -0.51505011 3
-0.98000747 -2.0254385 -0.51063919 3
-1.6932958 -3.4980755 -0.74730015 4
-1.5965821 -3.2968132 -0.57411492 2
-1.6006032 -3.3036466 -0.4460423 2
-1.5439997 -3.1854 -0.30635291 2
-3.4699025 -7.1555161 -0.41338226 21
-3.4775264 -7.1680512 -0.13701485 27
-2.2479503 -4.6315284 1.3682609 17
-2.3533816 -4.8465986 1.2340477 15
-2.4595561 -5.0630074 1.0856814 15
-1.0205293 -2.0998316 0.36330932 7
-1.0149562 -2.0874379 0.28029948 9
-1.0342432 -2.1261611 0.20350866 9
-0.99777323 -2.0502777 0.11749421 3
-3.4853327 -7.1586719 0.13831031 20
-0.86182672 -1.7662244 -0.51634425 3
-0.98707163 -2.0220053 -0.51063919 3
-3.5148287 -7.1969013 -1.5479789 31
-1.5842328 -3.2424119 -0.56551105 3
-1.5903312 -3.2534535 -0.43994883 2
nan nan nan 0
-3.4992478 -7.1523314 -0.41390389 23
-3.5047243 -7.1603584 -0.13710125 28
-2.266228 -4.6279917 1.3695542 17
-2.3724287 -4.84273 1.2351716 15
-2.4793746 -5.0587983 1.0866346 14
-1.0322012 -2.1051247 0.36487195 7
-1.0266079 -2.0927935 0.28151816 10
-1.048242 -2.1359525 0.20481598 10
-3.5202019 -7.1697831 0.41659421 30
-3.514708 -7.1554365 0.13848484 19
-0.86798674 -1.7632053 -0.51634425 3
-0.9941237 -2.0185473 -0.51063919 3
-3.5377598 -7.1801853 -1.5470257 28
-1.5846241 -3.2147143 -0.56160021 4
-1.5775336 -3.1989222 -0.43324599 2
-1.5551813 -3.152209 -0.30417401 2
-3.5264027 -7.1445498 -0.41416472 22
-3.5319109 -7.152564 -0.13718763 27
-2.2823689 -4.6200528 1.3695542 17
-2.3914773 -4.8387871 1.2362955 15
-2.4991934 -5.054513 1.0875878 14
-1.0439225 -2.1103621 0.36643454 7
-1.0383092 -2.0980928 0.28273687 10
-1.0623215 -2.1456721 0.20612334 9
-3.5452077 -7.1574516 0.41659421 20
-3.5418835 -7.1476035 0.1385721 20
-0.87413621 -1.7601647 -0.51634425 3
-1.0011637 -2.015065 -0.51063919 3
-3.5628016 -7.1677923 -1.5470257 13
-1.6002336 -3.2180071 -0.56316453 7
-1.5643752 -3.1445203 -0.42654318 2
-1.5484198 -3.1110873 -0.30068776 2
-3.553546 -7.1366668 -0.41442549 21
-3.5613146 -7.1491413 -0.13736041 28
-2.3006361 -4.6163802 1.3708473 18
-2.4083531 -4.8304095 1.2362955 15
-2.5190127 -5.0501509 1.088541 14
-1.055693 -2.1155431 0.36799717 7
-1.0500599 -2.1033359 0.28395554 9
-1.0720304 -2.1464069 0.20655911 10
-3.572402 -7.1494994 0.41685587 20
-3.5712824 -7.1441402 0.13874662 21
-0.88027501 -1.7571027 -0.51634425 3
-1.0081915 -2.0115581 -0.51063919 3
nan nan nan 0
-1.6114569 -3.2124016 -0.56316453 13
-1.5664381 -3.1212986 -0.42410579 2
-1.5503304 -3.0878577 -0.29894465 2
nan nan nan 0
-3.5884929 -7.1411333 -0.13744681 26
-2.3167362 -4.6083217 1.3708473 17
-2.4273887 -4.8263259 1.2374194 15
-2.5366256 -5.041327 1.088541 15
-1.0630711 -2.1118453 0.36799717 7
-1.0596278 -2.1040902 0.28456491 10
-1.0795163 -2.1426518 0.20655911 11
-3.6018314 -7.1459036 0.41737923 21
-3.5984492 -7.1360941 0.13883388 19
-0.88640302 -1.7540193 -0.51634425 3
-1.0152069 -2.0080264 -0.51063919 4
-1.6255982 -3.2139554 -0.69201517 7
-1.6271197 -3.21557 -0.56472886 8
-1.5616337 -3.0848174 -0.41984037 2
-1.5318437 -3.0246608 -0.29327953 2
-3.6010256 -7.1072307 -0.41416472 4
-3.6201787 -7.1419406 -0.13770597 28
-2.3349926 -4.6045141 1.3721406 18
-2.444221 -4.8178234 1.2374194 16
-2.5564289 -5.0368185 1.0894942 15
-1.0704365 -2.1081216 0.36799717 7
-1.0714613 -2.1092279 0.28578362 10
-1.0892457 -2.1433108 0.20699489 10
-3.6312792 -7.1421885 0.41790259 22
-3.6278698 -7.1324015 0.1390084 22
-0.89252037 -1.7509145 -0.51634425 3
-1.0244232 -2.0088105 -0.51176393 4
-1.6211929 -3.1776564 -0.68534291 2
-1.6338441 -3.2010734 -0.56316453 6
-1.5543371 -3.0439889 -0.41496557 2
-1.5265306 -2.9882452 -0.29022908 2
-1.5284834 -2.9907792 -0.17343798 2
-3.6450868 -7.1292605 -0.13770597 27
-2.3532507 -4.6006355 1.3734338 17
-2.4632428 -4.8135991 1.2385432 15
-2.576232 -5.0322332 1.0904474 14
-1.0800397 -2.1087675 0.36877847 7
-1.0788174 -2.1054749 0.28578362 9
-1.0967206 -2.1394958 0.20699489 10
-3.6607449 -7.1383562 0.41842595 20
-3.6573086 -7.1285906 0.13918294 20
-0.89641833 -1.7434931 -0.51505011 3
-1.0314291 -2.0052223 -0.51176393 4
-3.6804993 -7.1522646 -1.5546511 31
-1.645008 -3.1953506 -0.56316453 2
-1.5445025 -2.9988372 -0.40948144 2
-1.514138 -2.9386208 -0.28587127 2
-1.5274749 -2.9632347 -0.17213394 3
-3.6745331 -7.12538 -0.13787876 26
-2.37151 -4.5966849 1.3747271 17
-2.4800303 -4.8049717 1.2385432 15
-2.596034 -5.0275707 1.0914006 14
-1.0873941 -2.1049848 0.36877847 7
-1.0884386 -2.1061049 0.28639293 9
-1.1064696 -2.1400788 0.20743066 10
-3.6879342 -7.1299691 0.41868764 21
-3.6844673 -7.1202207 0.1392702 18
-0.90249884 -1.7403535 -0.51505011 3
-1.0384223 -2.0016096 -0.51176393 4
-3.7077043 -7.1437302 -1.5556043 24
-3.7020333 -7.1297593 -1.2663381 33
-1.5412349 -2.9670036 -0.40582538 2
-1.5083083 -2.9023788 -0.28282082 2
-1.5216862 -2.926873 -0.17030828 3
-3.7016897 -7.1169453 -0.13796514 25
-2.3897703 -4.5926638 1.3760203 17
-2.4990375 -4.8006072 1.2396672 15
-2.6158347 -5.0228319 1.0923538 14
-1.0970173 -2.1055562 0.36955979 6
-1.0957836 -2.1022925 0.28639293 9
-1.1139332 -2.1362035 0.20743066 10
-3.7174189 -7.1259069 0.419211 22
-3.7139249 -7.1161799 0.13944472 20
-0.90856832 -1.7371925 -0.51505011 3
-1.045403 -1.9979727 -0.51176393 4
-3.7326181 -7.130744 -1.5556043 15
-3.7291887 -7.1211677 -1.2671201 27
-1.5561882 -2.9703977 -0.40704405 4
-1.5045565 -2.8706257 -0.28020614 3
-1.5156627 -2.8905885 -0.16848262 3
nan nan nan 0
-2.4080317 -4.5885706 1.3773136 18
-2.5180442 -4.7961679 1.2407911 15
-2.6356342 -5.0180159 1.0933069 14
-1.1043605 -2.1017139 0.36955979 7
-1.1031153 -2.098455 0.28639293 9
-1.1213831 -2.132302 0.20743066 10
-3.7445948 -7.1173053 0.41947263 20
-3.7433996 -7.1120205 0.13961925 18
-0.91267538 -1.7295794 -0.51375604 3
-1.0549934 -1.9984362 -0.51288873 4
-3.7541437 -7.1083345 -1.5536979 7
-3.7529576 -7.103086 -1.2663381 6
-1.555469 -2.9427361 -0.4039973 7
-1.4987687 -2.8342695 -0.27715567 3
-1.5075675 -2.8497047 -0.16639614 3
nan nan nan 0
-2.4248333 -4.5797138 1.3773136 17
-2.5378869 -4.7912121 1.241915 14
-2.6563065 -5.0126586 1.0942601 14
-1.1143693 -2.1020155 0.37034109 7
-1.1107992 -2.0943978 0.28639293 9
-1.1291909 -2.1281776 0.20743066 10
-3.7753384 -7.1123538 0.41999602 21
-3.7717865 -7.1026683 0.13970651 19
-0.91870719 -1.7263831 -0.51375604 3
-1.0619628 -1.9947414 -0.51288873 4
nan nan nan 0
-1.5251347 -2.8623328 -0.50763023 5
-1.5727351 -2.9504271 -0.40582538 9
-1.4945903 -2.80265 -0.27454099 3
-1.4987031 -2.8091815 -0.16430967 3
nan nan nan 0
-2.4430797 -4.5754819 1.3786069 17
-2.5545959 -4.7823243 1.241915 15
-2.6761012 -5.0076852 1.0952133 15
-1.1240283 -2.102468 0.37112242 7
-1.1181031 -2.0905075 0.28639293 9
-1.1366128 -2.1242232 0.20743066 9
-3.8048549 -7.1079364 0.42051938 21
-3.8012817 -7.098269 0.13988101 18
-0.92701149 -1.7274212 -0.51505011 3
-1.0689193 -1.9910225 -0.51288873 3
-1.5718117 -2.9265091 -0.63768345 5
-1.5327795 -2.8526416 -0.5068481 3
-1.5924232 -2.9624038 -0.40826276 8
-1.4902095 -2.7710946 -0.27192634 3
-1.49194 -2.7731524 -0.16248401 3
nan nan nan 0
-2.4590361 -4.5669265 1.3786069 17
-2.5735841 -4.777667 1.2430388 14
-2.6958938 -5.0026345 1.0961666 14
-1.1313604 -2.0985315 0.37112242 7
-1.1277496 -2.09096 0.2870023 9
-1.1440207 -2.1202426 0.20743066 8
-3.8343871 -7.1033998 0.42104277 22
-3.8307817 -7.0937586 0.14005555 18
-0.93303567 -1.7241747 -0.51505011 3
-1.0758628 -1.9872789 -0.51288873 3
-1.5937051 -2.9425843 -0.64244938 3
-1.5380223 -2.8385897 -0.50528377 2
-1.5956594 -2.9437385 -0.40643471 5
-1.4903758 -2.7483616 -0.27018321 3
-1.4873252 -2.7415941 -0.16091916 3
nan nan nan 0
-2.4772675 -4.5625596 1.3799002 17
-2.5925708 -4.7729354 1.2441628 14
-2.715683 -4.9975057 1.0971197 14
-1.1410376 -2.0989084 0.37190372 7
-1.1350415 -2.0870106 0.2870023 9
-1.1514148 -2.1162364 0.20743066 8
-3.8639326 -7.098742 0.4215661 21
-3.8579106 -7.0847335 0.14014281 18
-0.93904847 -1.7209073 -0.51505011 3
-1.0827931 -1.9835114 -0.51288873 4
-3.885962 -7.1155353 -1.5670427 29
-3.8754435 -7.0933313 -1.2741597 27
-1.6035451 -2.9337959 -0.40582538 2
-1.4784528 -2.7038097 -0.26626119 3
-1.4849043 -2.7144825 -0.15961511 3
-1.4703586 -2.6867785 -0.052266069 3
-2.4931786 -4.5538845 1.3799002 16
-2.6115563 -4.7681303 1.2452867 15
-2.7331109 -4.9879956 1.0971197 14
-1.1483572 -2.0949128 0.37190372 7
-1.1447058 -2.0873873 0.28761163 9
-1.1611906 -2.1165714 0.20786645 7
-3.8910911 -7.0895886 0.42182776 23
-3.877805 -7.062459 0.13996829 5
-0.94504982 -1.7176191 -0.51505011 3
-1.0897102 -1.9797198 -0.51288873 3
-3.9107761 -7.1019278 -1.5670427 21
-3.9025633 -7.0840864 -1.2749419 23
-3.9157231 -7.1050406 -0.99140829 30
-1.4999067 -2.7204421 -0.2684401 4
-1.4799011 -2.6830497 -0.15805025 3
-1.4821436 -2.6860068 -0.052352462 3
-2.5113935 -4.5493817 1.3811933 17
-2.6305397 -4.7632499 1.2464106 15
-2.7528794 -4.9827213 1.0980729 14
-1.1556628 -2.0908914 0.37190372 7
-1.1543866 -2.0877218 0.288221 9
-1.1685717 -2.1125052 0.20786645 7
-3.9158146 -7.075963 0.42182776 26
nan nan nan 0
-0.94869679 -1.7100865 -0.51375604 3
-1.0942498 -1.9716438 -0.51176393 3
-3.9021859 -7.0281549 -1.5536979 5
-3.8889 -7.0013456 -1.2624271 7
-3.8947008 -7.0089068 -0.97983062 10
-1.5118138 -2.7195435 -0.2688759 5
-1.4771233 -2.6560485 -0.15674621 3
-1.4672052 -2.6371307 -0.05148856 3
-2.5296073 -4.5448079 1.3824866 17
-2.6495204 -4.7582946 1.2475344 15
-2.7726443 -4.9773698 1.0990261 14
-1.1653584 -2.0911586 0.37268505 7
-1.1640836 -2.0880141 0.28883031 9
-1.1759386 -2.1084132 0.20786645 6
-3.9161618 -7.0186481 0.419211 6
-1.4513881 -2.6001494 0.05131007 35
-0.95230263 -1.7025493 -0.5124619 2
-1.1011255 -1.9678122 -0.51176393 3
-3.9123101 -6.9887938 -1.5479789 22
-3.8988376 -6.9618759 -1.2577342 32
-3.9070141 -6.9736209 -0.97678381 23
-1.5212976 -2.7142498 -0.2688759 6
-1.4717335 -2.6247447 -0.15518135 3
-1.469064 -2.6189127 -0.051229388 3
-2.5478203 -4.5401626 1.3837799 17
-2.668499 -4.7532659 1.2486584 15
-2.7924049 -4.9719405 1.0999793 13
-1.1726508 -2.0870781 0.37268505 7
-1.1737968 -2.0882642 0.28943968 9
-1.1857325 -2.1086369 0.20830221 6
-3.9161563 -6.9614177 0.41659421 29
nan nan nan 0
-0.95823985 -1.6992148 -0.5124619 3
-1.107645 -1.96415 -0.51176393 3
-3.9306405 -6.9672313 -1.5460725 13
-3.9243298 -6.9532094 -1.2585163 20
-3.934998 -6.9692698 -0.97800255 11
-1.503343 -2.6614838 -0.26408231 8
-1.4632338 -2.5894198 -0.15335569 3
