# .PCD v0.7 - Point Cloud Data file format
VERSION 0.7
FIELDS x y z intensity
SIZE 4 4 4 4
TYPE F F F F
COUNT 1 1 1 1
WIDTH 1314
HEIGHT 1
VIEWPOINT 0 0 0 1 0 0 0
POINTS 1314
DATA ascii
0.67877865 -1.1404712 -0.20414715 40
0.69197059 -1.1630979 -0.16147706 38
0.67896265 -1.141687 -0.11286686 42
0.68038058 -1.144526 -0.067549534 41
0.68098277 -1.1459942 -0.02237506 36
0.67810899 -1.1416117 0.34529832 40
0.68117368 -1.1472272 0.29895869 34
0.67838019 -1.1429768 0.25068852 37
0.68224359 -1.1499432 0.20548461 31
0.67768866 -1.1427202 0.15843014 40
0.68752795 -1.1597726 0.1146098 39
0.67623049 -1.1411692 0.067513384 38
0.66918868 -1.1297354 0.022251816 39
0.6881777 -1.1636449 -0.35199407 17
0.67914379 -1.1483694 -0.29918507 37
0.67888212 -1.1483843 -0.25164187 37
0.67268008 -1.1383466 -0.20336497 39
0.68578923 -1.1609931 -0.16086771 36
0.67284 -1.1395252 -0.11243108 42
0.67424369 -1.1423577 -0.067288719 40
0.67483884 -1.1438222 -0.022288671 41
0.67206568 -1.1395762 0.34400508 37
0.67509204 -1.1451645 0.29783478 39
0.67229426 -1.1408737 0.24973533 37
0.676121 -1.1478256 0.2047033 37
0.67157733 -1.1405672 0.15782079 36
0.68135452 -1.1576341 0.11417402 39
0.67011005 -1.1389843 0.067251697 39
0.66563618 -1.1318321 0.022251816 38
0.68187058 -1.1617556 -0.35069996 16
0.67513108 -1.1507331 -0.29918507 36
0.67238629 -1.1465131 -0.2506887 38
0.66620481 -1.1364273 -0.20258279 38
0.6792233 -1.1590981 -0.16025837 37
0.66634077 -1.1375691 -0.1119953 39
0.66772902 -1.1403954 -0.067027912 39
0.66831678 -1.1418563 -0.022202281 41
0.66564476 -1.1377463 0.34271184 38
0.66863102 -1.1433084 0.29671091 37
0.66583061 -1.1389761 0.24878214 36
0.6721102 -1.1501787 0.2047033 38
0.66508889 -1.1386193 0.15721144 39
0.67479789 -1.155704 0.11373824 40
0.66361326 -1.1370041 0.066990018 38
0.6591621 -1.1298307 0.022164555 37
0.67517853 -1.1600728 -0.34940588 17
0.66845906 -1.1489888 -0.29806033 37
0.66571218 -1.1447269 -0.2497355 37
0.65955323 -1.1345919 -0.20180063 38
0.67247713 -1.1572889 -0.15964901 37
0.65966511 -1.1356965 -0.11155953 42
0.66103762 -1.1385169 -0.066767104 40
0.6616177 -1.1399742 -0.02211589 39
0.65904647 -1.1360008 0.34141859 38
0.66199189 -1.1415367 0.295587 38
0.65919 -1.1371624 0.24782895 38
0.66541409 -1.1483613 0.20392199 37
0.65842372 -1.1367549 0.1566021 36
0.66806179 -1.153859 0.11330246 42
0.65944141 -1.1394287 0.066990018 39
0.65501666 -1.1322391 0.022164555 39
0.67112494 -1.1624225 -0.34940588 17
0.66444427 -1.1513151 -0.29806033 37
0.65925956 -1.142792 -0.24878232 38
0.65558875 -1.1368873 -0.20180063 38
0.66595501 -1.1553297 -0.15903966 38
0.65569675 -1.1379923 -0.11155953 41
0.65456742 -1.1364908 -0.066506296 39
0.6551401 -1.1379443 -0.0220295 39
0.6550771 -1.1382943 0.34141859 38
0.65557379 -1.1396174 0.2944631 37
0.65276986 -1.1352015 0.24687576 36
0.65894043 -1.1463954 0.20314068 35
0.65197939 -1.1347432 0.15599275 38
0.66154927 -1.1518646 0.11286668 40
0.65297407 -1.1373935 0.066728339 39
0.64857209 -1.1301826 0.022077292 39
0.66466308 -1.160567 -0.34811178 16
0.65800089 -1.1493994 -0.29693556 38
0.65526646 -1.1450863 -0.24878232 39
0.64916432 -1.1348822 -0.20101845 40
0.66191804 -1.1576474 -0.15903966 37
0.64924878 -1.1359497 -0.11112374 42
0.64811939 -1.1344332 -0.066245489 40
0.64868474 -1.135883 -0.021943111 40
0.6487053 -1.1363795 0.34012532 39
0.65159184 -1.1418989 0.2944631 37
0.64880329 -1.1374731 0.24687576 37
0.65248871 -1.1443985 0.20235938 36
0.64801443 -1.1370121 0.15599275 38
0.65505892 -1.149839 0.11243091 40
0.64899987 -1.1396658 0.066728339 38
0.64462304 -1.1324396 0.022077292 36
0.65822226 -1.1586807 -0.34681764 15
0.65398473 -1.1516893 -0.29693556 37
0.64884239 -1.143098 -0.24782912 39
0.64519888 -1.1371412 -0.20101845 38
0.65542477 -1.1556339 -0.15843032 37
0.64527965 -1.1382091 -0.11112374 43
0.6441555 -1.1366886 -0.066245489 39
0.64471585 -1.1381404 -0.021943111 39
0.64235485 -1.1344342 0.33883208 38
0.64520204 -1.1399264 0.29333919 37
0.64241189 -1.1354591 0.24592258 38
0.64849001 -1.146669 0.20235938 37
0.64159924 -1.1349469 0.15538341 36
0.6485908 -1.1477821 0.11199513 43
0.64256203 -1.1375767 0.066466659 38
0.63820827 -1.1303296 0.021990031 38
0.65417367 -1.1609712 -0.34681764 15
0.64996064 -1.1539651 -0.29693556 36
0.64484829 -1.1453559 -0.24782912 36
0.64122558 -1.1393864 -0.20101845 39
0.65138686 -1.1579148 -0.15843032 41
0.64130259 -1.1404546 -0.11112374 45
0.63773715 -1.1345775 -0.065984681 41
0.64073902 -1.140384 -0.021943111 39
0.63839102 -1.1366694 0.33883208 37
0.64121902 -1.1421716 0.29333919 38
0.63844448 -1.1376946 0.24592258 37
0.64448339 -1.1489257 0.20235938 37
0.63763368 -1.1371796 0.15538341 38
0.6445803 -1.1500391 0.11199513 40
0.63858724 -1.1398128 0.066466659 38
0.63425875 -1.1325505 0.021990031 39
0.65247339 -1.1674637 -0.34811178 16
0.64592856 -1.1562269 -0.29693556 35
0.64323938 -1.1518853 -0.24878232 36
0.63965142 -1.1459299 -0.20180063 38
0.64734101 -1.1601815 -0.15843032 35
0.63731778 -1.1426862 -0.11112374 38
0.63377291 -1.1367967 -0.065984681 41
0.63675445 -1.1426136 -0.021943111 40
0.63206899 -1.1346716 0.33753884 37
0.63485801 -1.1401464 0.29221529 38
0.63446927 -1.1399163 0.24592258 37
0.64046901 -1.1511683 0.20235938 35
0.63366026 -1.1393985 0.15538341 36
0.640562 -1.1522821 0.11199513 40
0.63702995 -1.1463995 0.066728339 38
0.63030154 -1.1347575 0.021990031 37
0.64839423 -1.1697341 -0.34811178 16
0.64424986 -1.1627359 -0.29806033 35
0.63921469 -1.1541237 -0.24878232 38
0.63564748 -1.1481557 -0.20180063 37
0.64569026 -1.1667763 -0.15903966 37
0.63573617 -1.1492624 -0.11155953 37
0.63221705 -1.1433717 -0.066245489 37
0.63518047 -1.1492047 -0.0220295 39
0.63044012 -1.1410986 0.33883208 41
0.63087428 -1.1423554 0.29221529 37
0.63048637 -1.1421241 0.24592258 36
0.63644677 -1.153397 0.20235938 32
0.6296792 -1.1416035 0.15538341 36
0.63894081 -1.158873 0.11243091 39
0.63302439 -1.1486162 0.066728339 37
0.62874889 -1.1413295 0.022077292 37
0.64663386 -1.1762226 -0.34940588 16
0.6401872 -1.1649778 -0.29806033 33
0.63754523 -1.1606499 -0.2497355 36
0.6340127 -1.1546965 -0.20258279 39
0.64161354 -1.169023 -0.15903966 34
0.63411647 -1.1558416 -0.1119953 37
0.62822205 -1.1455716 -0.066245489 37
0.63116515 -1.151415 -0.0220295 36
0.62645304 -1.1432922 0.33883208 36
0.62922329 -1.1488237 0.29333919 35
0.62885278 -1.1486231 0.24687576 35
0.63478762 -1.1599438 0.20314068 35
0.62807214 -1.1481484 0.15599275 35
0.63489169 -1.1610962 0.11243091 37
0.63140589 -1.1552002 0.066990018 36
0.6247611 -1.1435174 0.022077292 36
0.64483601 -1.1827129 -0.35069996 16
0.63844812 -1.171483 -0.29918507 35
0.63583803 -1.1671785 -0.2506887 35
0.62997818 -1.1569026 -0.20258279 39
0.63990152 -1.1756144 -0.15964901 36
0.63245845 -1.1624233 -0.11243108 37
0.62660509 -1.1521441 -0.066506296 34
0.62952977 -1.1580032 -0.02211589 37
0.62476444 -1.1497157 0.34012532 35
0.62520933 -1.1510131 0.29333919 34
0.62483954 -1.1508112 0.24687576 35
0.6330905 -1.1664931 0.20392199 33
0.62406051 -1.1503338 0.15599275 33
0.63320923 -1.1676838 0.11286668 38
0.62974906 -1.161787 0.067251697 35
0.62314731 -1.1500868 0.022164555 35
0.64300072 -1.1892049 -0.35199407 16
0.63667142 -1.1779904 -0.30030984 33
0.63409293 -1.1737093 -0.25164187 37
0.62828255 -1.1634399 -0.20336497 37
0.63815129 -1.1822079 -0.16025837 35
0.63076228 -1.1690075 -0.11286686 37
0.62494975 -1.1587189 -0.066767104 37
0.62785614 -1.1645942 -0.022202281 37
0.62303865 -1.1561413 0.34141859 33
0.6234982 -1.1574777 0.2944631 36
0.62314564 -1.157307 0.24782895 33
0.6313554 -1.1730447 0.2047033 32
0.62239254 -1.1568755 0.1566021 33
0.63148856 -1.174274 0.11330246 37
0.62805402 -1.1683762 0.067513384 36
0.62149513 -1.1566586 0.022251816 36
0.64112794 -1.1956985 -0.35328817 15
0.6325556 -1.1802057 -0.30030984 34
0.63230991 -1.1802421 -0.25259507 34
0.62654889 -1.1699793 -0.20414715 38
0.63636279 -1.1888037 -0.16086771 36
0.62902772 -1.1755939 -0.11330264 36
0.62325615 -1.1652963 -0.067027912 36
0.62614417 -1.1711874 -0.022288671 36
0.6212756 -1.1625688 0.34271184 35
0.62174964 -1.1639445 0.295587 34
0.62141395 -1.1638049 0.24878214 34
0.62725693 -1.1752414 0.2047033 32
0.62068647 -1.1634196 0.15721144 34
0.62972951 -1.1808661 0.11373824 38
0.62397182 -1.1705613 0.067513384 35
0.61980474 -1.163233 0.02233908 33
0.63921762 -1.2021935 -0.35458225 16
0.63071847 -1.1867086 -0.30143458 34
0.62818623 -1.1824419 -0.25259507 36
0.62477732 -1.1765208 -0.20492931 36
0.63453603 -1.1954012 -0.16147706 36
0.62725484 -1.1821824 -0.11373842 37
0.62152427 -1.171876 -0.067288719 36
0.62439382 -1.1777829 -0.02237506 35
0.61947525 -1.1689981 0.34400508 36
0.61996347 -1.1704131 0.29671091 34
0.61964452 -1.1703048 0.24973533 33
0.62546086 -1.1817887 0.20548461 32
0.61894226 -1.1699659 0.15782079 35
0.62793207 -1.1874603 0.11417402 36
0.62221527 -1.1771467 0.067775063 34
0.61807597 -1.1698097 0.022426341 34
0.63726979 -1.2086897 -0.35587636 15
0.62905198 -1.1931032 -0.30255935 33
0.62655008 -1.1888608 -0.25354826 32
0.62087244 -1.1785862 -0.20492931 36
0.63288069 -1.2018899 -0.1620864 35
0.62565118 -1.1886637 -0.11417419 37
0.61995965 -1.1783495 -0.067549534 35
0.62281156 -1.1842717 -0.022461452 35
0.61784261 -1.175321 0.34529832 36
0.61834502 -1.1767755 0.29783478 35
0.61804247 -1.1766984 0.25068852 32
0.62383413 -1.1882287 0.20626593 32
0.61736524 -1.1764063 0.15843014 35
0.62630475 -1.1939471 0.1146098 38
0.62062705 -1.1836257 0.068036743 33
0.61651409 -1.1762809 0.022513602 35
0.63549644 -1.215076 -0.35717043 15
0.62714052 -1.1996092 -0.30368412 34
0.62466961 -1.1953908 -0.25450143 35
0.61904097 -1.1851236 -0.20571148 36
0.63097841 -1.208491 -0.16269575 35
0.62380272 -1.1952561 -0.11460997 35
0.6181522 -1.1849334 -0.067810342 36
0.62098545 -1.1908712 -0.022547841 36
0.61596864 -1.1817535 0.34659159 33
0.61648476 -1.1832474 0.29895869 34
0.61619848 -1.1832019 0.25164169 32
0.61968261 -1.1903991 0.20626593 32
0.61554581 -1.1829566 0.15903948 33
0.62443167 -1.200545 0.11504558 36
0.61879486 -1.190215 0.068298422 34
0.61240435 -1.1784257 0.022513602 33
0.63347453 -1.2215743 -0.35846454 15
0.62540179 -1.2060071 -0.30480888 34
0.62296093 -1.2018133 -0.25545463 34
0.61737949 -1.1915547 -0.20649366 35
0.62924969 -1.2149835 -0.16330509 34
0.62212563 -1.2017416 -0.11504576 34
0.61651421 -1.1914114 -0.068071149 37
0.61932969 -1.1973643 -0.022634231 34
0.61426467 -1.1880801 0.34788486 35
0.61479437 -1.1896136 0.30008259 33
0.61452419 -1.1895996 0.25259489 32
0.61799753 -1.1968356 0.20704722 32
0.61389577 -1.1894011 0.15964884 33
0.62273085 -1.2070357 0.11548135 36
0.61713314 -1.1966983 0.068560101 32
0.61078376 -1.1848936 0.022600865 34
0.63162923 -1.227963 -0.35975865 15
0.62564361 -1.2168483 -0.30705839 33
0.62100559 -1.2083461 -0.25640786 34
0.61547303 -1.1980952 -0.20727582 36
0.62727183 -1.2215874 -0.16391446 34
0.62020141 -1.2083372 -0.11548153 33
0.61463088 -1.1979988 -0.068331957 36
0.61742765 -1.2039673 -0.022720622 34
0.61231697 -1.1945151 0.34917811 34
0.61285979 -1.1960883 0.3012065 34
0.61260545 -1.1961062 0.25354809 32
0.61606658 -1.2033815 0.20782854 34
0.61200094 -1.1959547 0.16025817 33
0.62078202 -1.2136365 0.11591713 37
0.6152252 -1.2032908 0.06882178 34
0.60891902 -1.1914699 0.022688126 33
0.62931764 -1.2345725 -0.36105272 15
0.62339121 -1.223474 -0.30818313 33
0.61880022 -1.2149879 -0.25736102 34
0.61331809 -1.204744 -0.208058 36
0.62504095 -1.2283013 -0.16452381 35
0.61802667 -1.2150419 -0.11591731 35
0.61476183 -1.2091454 -0.068853572 35
0.61527562 -1.2106789 -0.022807011 35
0.6101222 -1.2010574 0.35047138 34
0.61067766 -1.2026707 0.30233043 32
0.61266023 -1.2070971 0.25545445 30
0.61612052 -1.2144399 0.20939116 32
0.61210257 -1.207042 0.16147687 31
0.62083364 -1.2247893 0.11678869 35
0.61306751 -1.2099918 0.06908346 33
0.6068067 -1.1981536 0.022775389 32
0.62718266 -1.2410723 -0.36234683 15
0.62131327 -1.2299912 -0.3093079 32
0.61676764 -1.221522 -0.25831422 33
0.61355919 -1.2156949 -0.20962234 35
0.62522012 -1.2393373 -0.1657425 33
0.61602437 -1.2216393 -0.11635309 34
0.6127848 -1.2157427 -0.069114387 32
0.6132952 -1.217284 -0.022893401 34
0.60809845 -1.2074935 0.35176462 36
0.61085707 -1.2134986 0.30457824 34
0.61064917 -1.2136129 0.25640765 31
0.6140967 -1.2209953 0.21017249 32
0.61011451 -1.2136052 0.16208622 34
0.6187911 -1.2313997 0.11722448 36
0.6133225 -1.2210484 0.069606818 33
0.60486376 -1.2047322 0.02286265 34
0.62500995 -1.2475721 -0.3636409 15
0.61919743 -1.2365087 -0.31043264 32
0.61469692 -1.2280566 -0.25926742 33
0.61152166 -1.2222459 -0.21040453 34
0.62310994 -1.2459508 -0.16635184 33
0.61398345 -1.2282374 -0.11678887 36
0.61076915 -1.2223408 -0.069375195 32
0.61127615 -1.2238897 -0.022979792 31
0.60603714 -1.2139301 0.35305786 34
0.6087929 -1.2199829 0.30570215 33
0.60860002 -1.2201294 0.25736085 31
0.61203444 -1.2275511 0.2109538 32
0.60808814 -1.2201693 0.16269556 32
0.61670989 -1.2380106 0.11766025 34
0.61128205 -1.2276514 0.069868498 33
0.60288233 -1.2113118 0.022949912 32
0.62279952 -1.2540717 -0.36493501 15
0.61920983 -1.24739 -0.31268215 32
0.61258811 -1.2345916 -0.26022059 33
0.60944581 -1.2287973 -0.21118671 34
0.62096125 -1.2525645 -0.16696119 33
0.61190403 -1.2348365 -0.11722466 35
0.60649866 -1.2244655 -0.069375195 35
0.60921848 -1.2304963 -0.023066182 32
0.60393822 -1.220367 0.35435113 32
0.60669076 -1.2264675 0.30682606 32
0.60868824 -1.2310461 0.25926721 32
0.612122 -1.2385347 0.21251641 32
0.60602331 -1.2267338 0.16330491 32
0.61459005 -1.2446219 0.11809604 35
0.60920298 -1.2342551 0.070130177 31
0.60086232 -1.2178922 0.023037175 32
0.62055117 -1.260571 -0.36622912 15
0.61700279 -1.2539152 -0.31380692 31
0.61044109 -1.2411268 -0.26117378 31
0.60733151 -1.2353489 -0.21196888 33
0.61877394 -1.2591785 -0.16757053 34
0.60978591 -1.2414355 -0.11766044 33
0.60442144 -1.2310572 -0.069636002 32
0.60712194 -1.2371032 -0.023152571 31
0.60180181 -1.2268039 0.35564438 33
0.60669583 -1.2373267 0.30907387 30
0.60654747 -1.2375706 0.26022041 32
0.60996771 -1.2450988 0.21329772 32
0.6039201 -1.233299 0.16391426 32
0.61243147 -1.2512335 0.11853182 34
0.60708529 -1.2408593 0.070391864 32
0.59880358 -1.2244731 0.023124436 32
0.62038308 -1.2714105 -0.3688173 15
0.61475778 -1.2604401 -0.31493166 29
0.61040682 -1.252074 -0.26308015 33
0.6073423 -1.2463402 -0.21353322 32
0.616548 -1.2657923 -0.16817988 32
0.60980952 -1.2525134 -0.11853199 34
0.60230553 -1.2376492 -0.06989681 33
0.60498685 -1.2437106 -0.023238964 32
0.59962773 -1.2332408 0.35693762 32
0.60450268 -1.2438189 0.31019777 32
0.60436863 -1.2440953 0.26117361 31
0.60993212 -1.2561055 0.21486035 32
0.60394526 -1.2443287 0.16513295 30
0.61023432 -1.257845 0.11896759 34
0.60492891 -1.2474637 0.070653543 31
0.59670627 -1.2310545 0.023211699 31
0.61804402 -1.2779162 -0.37011138 15
0.614595 -1.2713507 -0.31718117 32
0.60816801 -1.2586166 -0.26403335 32
0.60513586 -1.2528995 -0.2143154 34
0.61428338 -1.272406 -0.16878924 31
0.60759848 -1.2591202 -0.11896777 34
0.60015094 -1.2442416 -0.070157625 32
0.60281295 -1.2503182 -0.023325354 33
0.59741604 -1.2396772 0.35823086 30
0.60227156 -1.2503108 0.31132168 33
0.60215151 -1.2506198 0.26212677 30
0.60768539 -1.262677 0.21564166 31
0.60174948 -1.2509016 0.16574231 32
0.60799831 -1.2644564 0.11940337 33
0.60273367 -1.254068 0.070915222 33
0.59673506 -1.2421423 0.023386221 31
0.61775464 -1.288776 -0.37269959 15
0.61225849 -1.277882 -0.31830594 30
0.60801101 -1.2695854 -0.26593971 32
0.60289103 -1.2594585 -0.21509758 33
0.61198008 -1.2790192 -0.16939858 32
0.60534871 -1.265727 -0.11940356 33
0.59795767 -1.2508339 -0.070418432 31
0.60060024 -1.2569255 -0.023411745 31
0.59516674 -1.2461133 0.35952413 30
0.60000253 -1.2568022 0.31244558 33
0.59989625 -1.2571437 0.26307997 30
0.60540026 -1.269248 0.21642296 31
0.59951502 -1.2574741 0.16635165 30
0.60572362 -1.2710676 0.11983915 34
0.60049981 -1.2606722 0.071176901 31
0.59454471 -1.2487316 0.023473486 31
0.61532456 -1.2952869 -0.37399366 15
0.60988384 -1.2844123 -0.31943068 30
0.60568017 -1.2761341 -0.26689291 32
0.60060769 -1.2660171 -0.21587974 34
0.60963809 -1.2856317 -0.17000793 31
0.60306019 -1.2723333 -0.11983933 34
0.59786344 -1.2619383 -0.070940048 33
0.59834868 -1.2635325 -0.023498135 31
0.59287971 -1.2525488 0.36081737 32
0.59769547 -1.2632928 0.31356949 32
0.59760267 -1.2636672 0.26403317 30
0.60307664 -1.2758183 0.21720427 31
0.597242 -1.2640462 0.166961 31
0.60553724 -1.2821821 0.12071071 34
0.59822702 -1.2672759 0.071438581 32
0.5923155 -1.2553205 0.023560748 32
0.61285651 -1.3017966 -0.37528777 14
0.60747099 -1.2909415 -0.32055545 30
0.60540015 -1.2871237 -0.26879928 31
0.59828597 -1.2725751 -0.21666192 33
0.60936803 -1.2967349 -0.17122662 31
0.60073286 -1.278939 -0.12027511 34
0.59557688 -1.2685374 -0.071200863 33
0.59605831 -1.2701391 -0.023584524 32
0.59260607 -1.2633561 0.36340389 31
0.59535033 -1.2697828 0.31469339 31
0.59527087 -1.27019 0.26498634 30
0.60071445 -1.282388 0.21798559 30
0.59493047 -1.2706177 0.16757034 30
0.60316926 -1.2887994 0.12114649 34
0.5959155 -1.2738792 0.07170026 32
0.59216505 -1.2664378 0.023735272 31
0.61239237 -1.3126814 -0.37787595 14
0.60707891 -1.3018848 -0.32280496 31
0.60297704 -1.2936778 -0.26975247 32
0.59592575 -1.2791322 -0.21744409 31
0.60902792 -1.3078519 -0.17244531 32
0.5983668 -1.285544 -0.12071089 34
0.59535772 -1.2796631 -0.071722478 33
0.59372914 -1.2767451 -0.023670916 32
0.59022838 -1.2697967 0.36469713 31
0.59296721 -1.2762717 0.3158173 32
0.5949682 -1.2811636 0.26689273 32
0.59831369 -1.2889565 0.2187669 29
0.59466892 -1.2816902 0.16878903 31
0.60285807 -1.2999344 0.12201804 35
0.59566504 -1.2850118 0.072223619 31
0.58984238 -1.273033 0.023822535 30
0.60983312 -1.3191949 -0.37917006 14
0.60457426 -1.3084186 -0.3239297 29
0.60051566 -1.3002307 -0.27070567 30
0.59559685 -1.2901721 -0.21900843 33
0.60653812 -1.3144759 -0.17305467 31
0.59596187 -1.2921479 -0.12114667 32
0.5950681 -1.2908024 -0.072244093 31
0.59136099 -1.2833501 -0.023757305 33
0.58781296 -1.2762363 0.36599037 30
0.59258336 -1.287185 0.31806511 32
0.59254426 -1.2876915 0.2678459 30
0.59587443 -1.2955239 0.21954821 29
0.59226435 -1.2882673 0.16939838 30
0.60039651 -1.3065568 0.12245382 35
0.59325999 -1.2916205 0.072485298 32
0.58748096 -1.2796276 0.023909796 29
0.60723579 -1.3257066 -0.38046414 14
0.60203141 -1.3149506 -0.32505447 31
0.59801579 -1.3067821 -0.27165884 31
0.59314388 -1.2967341 -0.21979061 33
0.60400957 -1.3210984 -0.173664 33
0.59558845 -1.3032809 -0.12201823 34
0.59263337 -1.2974135 -0.0725049 32
0.58895403 -1.2899543 -0.023843694 33
0.58736485 -1.2870681 0.36857688 31
0.59010863 -1.2936783 0.31918901 30
0.59008193 -1.2942179 0.2687991 31
0.59544462 -1.3065839 0.22111082 30
0.5898211 -1.2948431 0.17000772 30
0.5978961 -1.3131777 0.12288959 35
0.59288424 -1.3027728 0.073008657 31
0.58508056 -1.2862209 0.023997057 29
0.60460043 -1.332216 -0.38175827 14
0.6014629 -1.3259175 -0.32730398 31
0.59547752 -1.313332 -0.27261204 32
0.59065235 -1.3032949 -0.22057277 32
0.60349 -1.3322399 -0.1748827 30
0.59309 -1.3098896 -0.12245401 33
0.5922184 -1.3085724 -0.073026523 32
0.58856857 -1.3011121 -0.024016475 30
0.58485842 -1.2935115 0.36987013 31
0.58960223 -1.3046097 0.32143679 29
0.58960193 -1.305216 0.27070546 30
0.59291238 -1.3131553 0.22189213 29
0.58733916 -1.3014175 0.17061707 28
0.59535682 -1.3197973 0.12332538 34
0.5903855 -1.3093864 0.073270336 28
0.58469546 -1.297371 0.024171581 29
0.60216063 -1.3386182 -0.38305238 14
0.59929305 -1.3322434 -0.32842872 32
0.59336144 -1.3196728 -0.27356523 31
0.58857936 -1.3096484 -0.22135495 32
0.60133511 -1.3386561 -0.17549205 30
0.59101218 -1.3162904 -0.12288979 34
0.59014893 -1.3149819 -0.073287331 30
0.58652419 -1.307516 -0.024102865 29
0.58474392 -1.3041568 0.37245664 30
0.58749324 -1.3109015 0.3225607 29
0.58750516 -1.3115413 0.27165866 29
0.59080225 -1.319519 0.22267345 28
0.58527493 -1.307786 0.17122643 30
0.59324145 -1.3262079 0.12376115 31
0.58830702 -1.3157928 0.073532015 29
0.5826565 -1.3037655 0.024258845 28
0.60165173 -1.3494298 -0.38564056 14
0.59662211 -1.3387773 -0.32955348 33
0.59074843 -1.3262196 -0.27451843 30
0.58802158 -1.3207179 -0.22291929 31
0.5986765 -1.3452811 -0.17610139 29
0.59046257 -1.3274473 -0.12376134 31
0.58758372 -1.3215964 -0.073548138 30
0.5839867 -1.3141239 -0.024189256 31
0.58214861 -1.310604 0.37374988 29
0.58489072 -1.3173971 0.3236846 29
0.58491433 -1.3180705 0.27261186 29
0.5901975 -1.330602 0.22423606 30
0.58271772 -1.3143578 0.17183577 29
0.5906266 -1.3328246 0.12419693 34
0.58775473 -1.3269691 0.074055374 30
0.58012575 -1.3103628 0.024346106 28
0.5986523 -1.3560442 -0.38693464 14
0.59367806 -1.3454123 -0.33067822 33
0.58984506 -1.3373578 -0.2764248 30
0.58516896 -1.327383 -0.22370146 32
0.59774393 -1.356549 -0.17732009 30
0.58760095 -1.334161 -0.12419713 31
0.58474767 -1.3283112 -0.073808946 32
0.58319318 -1.3254071 -0.024362035 29
0.58122998 -1.3215712 0.3763364 30
0.58201897 -1.3239921 0.32480851 30
0.58205384 -1.324699 0.27356502 29
0.58730239 -1.337278 0.22501737 30
0.58188593 -1.3255731 0.17305446 30
0.5897401 -1.3441027 0.12506849 32
0.58489263 -1.3336872 0.074317053 32
0.57933319 -1.3216376 0.02452063 29
0.59585023 -1.3625506 -0.38822874 14
0.59092939 -1.3519405 -0.33180302 33
0.58713824 -1.3439063 -0.27737799 31
0.58250833 -1.3339434 -0.22448364 32
0.59499025 -1.3631757 -0.17792943 29
0.58493197 -1.3407694 -0.1246329 31
0.58210325 -1.3349212 -0.074069753 29
0.58056051 -1.3320177 -0.024448426 30
0.57854229 -1.3280199 0.37762964 30
0.57933885 -1.3304826 0.32593241 30
0.57938504 -1.3312232 0.27451822 28
0.58657098 -1.3483772 0.22657999 29
0.57923412 -1.3321472 0.17366381 27
0.58703011 -1.3507214 0.12550427 32
0.582223 -1.3403004 0.074578732 30
0.57670736 -1.3282374 0.024607891 28
0.59492964 -1.3734857 -0.39081693 14
0.58814222 -1.3584658 -0.33292776 28
0.58634222 -1.3549567 -0.27928436 30
0.57980895 -1.3405012 -0.2252658 32
0.5921976 -1.3697995 -0.17853878 30
0.58419985 -1.3519478 -0.12550446 29
0.57941985 -1.3415289 -0.074330568 30
0.57987022 -1.3432157 -0.024621205 29
0.57773012 -1.3389006 0.38021615 29
0.57854998 -1.3414441 0.32818022 29
0.57667768 -1.337745 0.27547142 28
0.58381492 -1.354952 0.22736131 27
0.57654357 -1.3387191 0.17427315 28
0.58428103 -1.3573372 0.12594004 31
0.58148783 -1.3514979 0.075102091 29
0.57601744 -1.3394276 0.024782415 28
0.59203583 -1.3799924 -0.39211103 13
0.58531666 -1.3649881 -0.33405253 25
0.58354253 -1.3615067 -0.28023756 28
0.57707083 -1.3470563 -0.22604798 30
0.59131944 -1.3809826 -0.17975749 30
0.58143693 -1.3585579 -0.12594023 31
0.57866108 -1.3527247 -0.074852183 31
0.57714343 -1.3498285 -0.024707597 30
0.57495105 -1.3453504 0.38150942 29
0.57577777 -1.3479358 0.32930413 31
0.57585913 -1.3487779 0.27737778 29
0.58102006 -1.3615239 0.2281426 28
0.57381409 -1.3452883 0.1748825 28
0.58344632 -1.3685324 0.12681161 32
0.57872409 -1.3581128 0.07536377 28
0.5732975 -1.3460295 0.024869677 27
0.59099245 -1.3909407 -0.39469922 14
0.58054841 -1.3670229 -0.33405253 21
0.58262217 -1.3725717 -0.28214395 29
0.5762229 -1.3581549 -0.22761233 31
0.58843279 -1.3876072 -0.18036683 29
0.58057874 -1.3697513 -0.1268118 31
0.57588345 -1.359334 -0.075112991 28
0.57632679 -1.3610418 -0.024880376 29
0.57401645 -1.3562449 0.38409594 30
0.57486552 -1.3589118 0.33155197 29
0.57305902 -1.3553007 0.27833098 27
0.57818645 -1.3680928 0.22892392 27
0.57297695 -1.3564262 0.17610119 29
0.58060306 -1.3751495 0.12724738 31
0.57592118 -1.364725 0.075625449 28
0.57248127 -1.3572351 0.025044201 29
0.58800662 -1.3974468 -0.39599332 13
0.57766181 -1.3735319 -0.33517727 18
0.57972944 -1.3791218 -0.28309712 29
0.57339144 -1.3647109 -0.22839449 30
0.58550715 -1.3942285 -0.18097618 28
0.57772171 -1.3763624 -0.12724757 29
0.57306671 -1.3659403 -0.075373799 29
0.57350564 -1.3676556 -0.024966767 29
0.57114577 -1.3626949 0.38538918 29
0.57200098 -1.3654038 0.33267587 29
0.57211608 -1.3663477 0.28023735 26
0.57531399 -1.3746583 0.22970523 28
0.57015377 -1.3629963 0.17671053 28
0.57772082 -1.3817632 0.12768316 33
0.57307917 -1.3713341 0.075887129 27
0.56966692 -1.363838 0.025131464 27
0.58684021 -1.408407 -0.3985815 13
0.57473677 -1.3800374 -0.33630204 16
0.57868433 -1.3901998 -0.28500351 29
0.57052124 -1.3712636 -0.22917667 30
0.58254236 -1.400846 -0.18158554 29
0.57673723 -1.3875695 -0.12811914 30
0.57021081 -1.3725435 -0.075634606 29
0.57256246 -1.3788832 -0.025139546 29
0.57008839 -1.3736019 0.38797569 28
0.57096499 -1.3763925 0.33492368 29
0.57110298 -1.3774043 0.28214374 27
0.57240278 -1.3812207 0.23048656 26
0.56919086 -1.3741481 0.17792922 28
0.57670474 -1.3929759 0.12855473 32
0.57210714 -1.3825536 0.076410487 27
0.56872427 -1.3750577 0.025305986 26
0.58376235 -1.4149114 -0.39987558 14
0.56991601 -1.3820351 -0.33630204 13
0.57569855 -1.3967493 -0.28595668 29
0.56949335 -1.3823792 -0.23074104 30
0.58142799 -1.4120488 -0.18280423 29
0.57568169 -1.3987867 -0.12899069 27
0.56921542 -1.3837612 -0.076156229 28
0.56964684 -1.3854972 -0.025225937 29
0.56712604 -1.3800509 0.38926893 28
0.56800807 -1.3828839 0.33604759 28
0.56815559 -1.3839301 0.28309694 27
0.5694527 -1.3877791 0.23126787 24
0.56627387 -1.3807182 0.17853858 28
0.57372808 -1.3995892 0.1289905 31
0.56917077 -1.3891625 0.076672167 26
0.56581545 -1.3816607 0.025393249 26
0.58272147 -1.4257808 -0.40246379 13
0.56741458 -1.3883286 -0.33742678 12
0.57316381 -1.4030948 -0.28690988 28
0.56888121 -1.3933055 -0.23230538 29
0.57886422 -1.4184633 -0.18341357 29
0.57316566 -1.4052005 -0.12942648 28
0.56675041 -1.3901662 -0.076417036 27
0.56717783 -1.3919096 -0.025312327 27
0.56643122 -1.3907719 0.39185542 27
0.56733471 -1.3936865 0.3382954 26
0.56750464 -1.394801 0.2850033 27
0.56881088 -1.3987108 0.23283048 26
0.56567091 -1.3916855 0.17975728 27
0.57120305 -1.4059994 0.12942629 30
0.56668228 -1.3955702 0.076933846 27
0.5652321 -1.3926959 0.025567774 26
0.58161485 -1.4366586 -0.40505198 13
0.56256497 -1.3903008 -0.33742678 10
0.57010287 -1.4096372 -0.28786308 28
0.5677157 -1.4044398 -0.23386972 29
0.57762742 -1.4296781 -0.18463226 28
0.57198721 -1.4164296 -0.13029803 28
0.5656321 -1.4013966 -0.076938659 27
0.56605637 -1.4031534 -0.02548511 26
0.56337929 -1.3972201 0.39314869 28
0.56428748 -1.4001771 0.33941931 27
0.56630021 -1.4058791 0.28690967 25
0.56576949 -1.405269 0.23361179 26
0.56451482 -1.4028594 0.18097597 26
0.57000905 -1.4172271 0.13029784 31
0.56553221 -1.4068054 0.077457212 26
0.56223112 -1.3992994 0.025655035 24
0.57993716 -1.4477473 -0.40764016 14
0.55927628 -1.3968761 -0.33855155 11
0.56857967 -1.4208312 -0.28976944 27
0.56439835 -1.4110965 -0.23465189 29
0.57422572 -1.4363936 -0.18524161 28
0.56864011 -1.4231421 -0.13073382 29
0.56234378 -1.4080974 -0.077199467 27
0.56276309 -1.4098617 -0.025571499 27
0.56004417 -1.4037616 0.39444193 27
0.56276101 -1.4112871 0.34166712 26
0.56296086 -1.4125047 0.28786287 25
0.56427032 -1.416509 0.23517442 26
0.56120503 -1.4095298 0.18158531 27
0.56665248 -1.4239347 0.13073361 31
0.56221759 -1.4135084 0.077718891 26
0.56079233 -1.4106419 0.025829561 25
0.57844061 -1.458742 -0.41022834 14
0.56337202 -1.4214653 -0.34417531 10
0.5654242 -1.4273707 -0.29072264 27
0.56310517 -1.4222412 -0.23621623 29
0.57286048 -1.4476184 -0.1864603 29
0.56733298 -1.4343821 -0.13160537 30
0.56109655 -1.4193388 -0.077721082 28
0.56151259 -1.4211166 -0.02574428 26
0.55868882 -1.4146924 0.39702845 26
0.56140882 -1.4223064 0.3439149 28
0.56162941 -1.4235929 0.28976923 27
0.56113392 -1.4230645 0.23595573 24
0.55992079 -1.4207144 0.18280402 27
0.56532961 -1.4351728 0.13160518 29
0.56093848 -1.4247544 0.07824225 25
0.55769551 -1.4172429 0.025916822 25
0.5748539 -1.4653482 -0.41152245 13
0.56527197 -1.4416633 -0.34867433 15
0.56377065 -1.4385731 -0.292629 28
0.56149083 -1.4334922 -0.23778059 29
0.5711692 -1.4589508 -0.18767899 27
0.56388688 -1.4410902 -0.13204116 29
0.55770934 -1.426036 -0.077981897 27
0.55994016 -1.4324774 -0.025917061 26
0.55525756 -1.4212294 0.39832169 27
0.55973631 -1.4334311 0.34616271 27
0.55819243 -1.4302142 0.29072243 25
0.55950391 -1.4343134 0.23751834 25
0.55651253 -1.4273807 0.18341336 26
0.56368273 -1.4465172 0.13247673 29
0.55752486 -1.4314533 0.078503937 26
0.55612433 -1.4285948 0.026091347 25
0.57323152 -1.4763503 -0.41411063 13
0.56728649 -1.4617949 -0.35317335 15
0.56052065 -1.4451084 -0.2935822 27
0.55826873 -1.4400479 -0.23856275 29
0.56965905 -1.4701905 -0.18889768 27
0.56245071 -1.4523394 -0.13291271 28
0.55633295 -1.4372872 -0.078503512 27
0.55854404 -1.4437481 -0.02608984 25
0.55377692 -1.4321685 0.4009082 28
0.55648559 -1.4399208 0.34728661 27
0.55496526 -1.4367325 0.29167563 25
0.55982983 -1.4500791 0.23986228 24
0.55509979 -1.4385747 0.18463205 27
0.56221467 -1.4577708 0.13334829 29
0.55611652 -1.4427087 0.079027295 24
0.55472249 -1.4398597 0.026265871 25
0.5700658 -1.4827511 -0.41540477 13
0.56793618 -1.477212 -0.35654762 16
0.55949914 -1.4560256 -0.29548857 28
0.55728304 -1.4510149 -0.2401271 27
0.56681603 -1.476606 -0.18950704 27
0.55966949 -1.4587497 -0.13334849 29
0.55539036 -1.4483522 -0.079025127 27
0.55758393 -1.454832 -0.02626262 26
0.55273032 -1.4429218 0.40349469 25
0.55544323 -1.4507618 0.34953442 25
0.55395728 -1.4476372 0.29358199 24
0.55879986 -1.4610561 0.24142489 24
0.55234963 -1.4449469 0.1852414 25
0.56118762 -1.4688357 0.13421984 29
0.55514389 -1.4537779 0.079550654 25
0.55376786 -1.4509342 0.026440395 24
0.56858206 -1.4936606 -0.41799295 13
0.56624115 -1.4882923 -0.35879713 15
0.5579024 -1.4671453 -0.29739496 24
0.55572361 -1.4621838 -0.24169144 28
0.56518281 -1.4878541 -0.19072573 27
0.55811 -1.4700078 -0.13422005 27
0.5521028 -1.4549506 -0.079285935 26
0.55427504 -1.4614438 -0.02634901 25
0.55111414 -1.4538748 0.4060812 26
0.55382794 -1.4618038 0.35178223 27
0.55063885 -1.4541522 0.29453519 23
0.55544454 -1.4676167 0.2422062 24
0.55081409 -1.4561497 0.18646009 26
0.55957991 -1.4801039 0.13509139 29
0.55359572 -1.4650486 0.080074012 25
0.55223233 -1.462212 0.026614919 24
0.56480533 -1.5002545 -0.41928706 13
0.56249821 -1.4949173 -0.35992187 15
0.55597675 -1.4783685 -0.29930133 26
0.55209827 -1.4688336 -0.24247362 29
0.56147105 -1.4945614 -0.19133508 25
0.55622023 -1.4813696 -0.1350916 26
0.55027515 -1.4663138 -0.079807557 25
0.55242622 -1.4728272 -0.026521791 26
0.54747713 -1.4604075 0.40737444 25
0.55188531 -1.4729486 0.35403004 24
0.54874802 -1.4653538 0.29644156 24
0.55352402 -1.4788932 0.24376883 24
0.54721212 -1.4628069 0.18706943 25
0.55764008 -1.4914758 0.13596296 28
0.551718 -1.4764222 0.080597371 25
0.54861844 -1.4689094 0.026702181 25
0.56293672 -1.5112686 -0.42187524 13
0.5606761 -1.5060033 -0.36217141 15
0.55252457 -1.4849004 -0.30025452 25
0.55041051 -1.4800092 -0.24403796 28
0.55970877 -1.5058159 -0.19255377 27
0.55278045 -1.4879713 -0.13552739 26
0.54862946 -1.4775877 -0.080329172 25
0.55076039 -1.4841204 -0.026694572 25
0.54573518 -1.4713665 0.40996096 26
0.55012733 -1.4840026 0.35627785 26
0.54704028 -1.4764655 0.29834792 23
0.55178827 -1.4900787 0.24533144 24
0.54554778 -1.4740164 0.18828812 23
0.55415857 -1.498085 0.13639873 29
0.55002391 -1.4877057 0.081120729 25
0.54695326 -1.4801942 0.026876705 24
0.55932802 -1.5177562 -0.42316931 13
0.55878341 -1.5170944 -0.36442092 15
0.55072922 -1.4960324 -0.30216089 26
0.54865146 -1.4911909 -0.24560231 28
0.55787468 -1.5170759 -0.19377246 27
0.55101967 -1.4992422 -0.13639894 26
0.54691178 -1.4888676 -0.080850787 25
0.54729939 -1.4907268 -0.026780961 25
0.54392344 -1.4823309 0.41254744 25
0.54662138 -1.4904879 0.35740176 25
0.54526144 -1.4875829 0.30025432 24
0.54828238 -1.4966329 0.24611275 25
0.5438118 -1.4852321 0.18950681 24
0.55234933 -1.5093654 0.13727029 28
0.54825777 -1.4989952 0.081644088 24
0.54521585 -1.4914851 0.027051229 23
0.55733502 -1.5287741 -0.42575753 13
0.55515224 -1.5236131 -0.36554569 15
0.54886281 -1.5071696 -0.30406728 27
0.54513192 -1.4977375 -0.24638447 27
0.55427223 -1.5236777 -0.19438182 25
0.54918689 -1.5105189 -0.1372705 27
0.54512197 -1.5001537 -0.08137241 26
0.54550558 -1.5020261 -0.026953742 28
0.54204172 -1.4933007 0.41513398 25
0.54473835 -1.5015469 0.35964957 25
0.54341173 -1.4987059 0.30216068 23
0.54642004 -1.5078238 0.24767537 25
0.54200411 -1.4964535 0.19072551 25
0.54877275 -1.5159678 0.13770607 28
0.54472077 -1.5055952 0.081905767 24
0.5417062 -1.4980804 0.02713849 23
0.55527192 -1.5397969 -0.42834571 13
0.5531342 -1.5347081 -0.3677952 15
0.54692537 -1.5183121 -0.30597368 26
0.54324615 -1.5089242 -0.24794883 29
0.55231076 -1.5349425 -0.19560052 25
0.54559648 -1.5171138 -0.13770628 25
0.54325998 -1.5114452 -0.081894025 26
0.54363954 -1.5133308 -0.027126521 26
0.54009002 -1.5042752 0.4177205 24
0.54113925 -1.5080251 0.3607735 23
0.54149091 -1.5098338 0.30406705 24
0.54448617 -1.5190198 0.24923798 23
0.54012465 -1.5076803 0.1919442 23
0.54683584 -1.5272532 0.13857763 28
0.54282659 -1.5168898 0.082429126 24
0.53984082 -1.5093768 0.027313014 23
0.55313867 -1.5508237 -0.43093389 13
0.55104548 -1.5458076 -0.37004471 15
0.54491681 -1.5294592 -0.30788004 24
0.54128897 -1.520116 -0.24951316 26
0.54861343 -1.5415366 -0.19620986 25
0.5436359 -1.5283949 -0.13857783 26
0.53965324 -1.5180371 -0.082154833 25
0.54170114 -1.5246408 -0.027299302 26
0.53806823 -1.5152541 0.42030698 23
0.53913099 -1.5190877 0.36302131 24
0.53949904 -1.5209668 0.30597344 24
0.54083067 -1.525566 0.25001928 21
0.53817344 -1.5189121 0.19316289 23
0.54482669 -1.5385431 0.13944918 27
0.54086018 -1.5281895 0.082952484 24
0.53957021 -1.5253912 0.0275748 22
0.55093509 -1.5618541 -0.43352208 13
0.54888594 -1.5569111 -0.37229422 15
0.54283696 -1.5406106 -0.30978641 26
0.53926027 -1.5313123 -0.25107753 27
0.54652429 -1.5528047 -0.19742855 25
0.54160321 -1.5396807 -0.1394494 25
0.53766316 -1.5293325 -0.082676448 24
0.53969038 -1.5359555 -0.027472083 26
0.53597635 -1.526237 0.42289349 24
0.53705209 -1.5301545 0.36526912 23
0.53743601 -1.532104 0.30787984 24
0.53876996 -1.5367656 0.25158194 21
0.53450918 -1.5254649 0.19377224 24
0.54274553 -1.5498377 0.14032075 26
0.53882146 -1.5394938 0.083475843 25
0.53754365 -1.536703 0.027749324 20
0.54866123 -1.572888 -0.43611029 13
0.54665554 -1.5680181 -0.37454373 15
0.54068589 -1.551766 -0.3116928 25
0.5371598 -1.5425128 -0.25264189 27
0.5443632 -1.5640769 -0.19864726 25
0.53949833 -1.5509709 -0.14032097 25
0.53396112 -1.5359163 -0.082937263 23
0.5359664 -1.5425524 -0.027558472 25
0.53381431 -1.5372239 0.42547998 24
0.53649992 -1.545828 0.36864081 25
0.53530169 -1.5432451 0.3097862 23
0.53663766 -1.5479692 0.25314456 23
0.53243047 -1.5366999 0.19499093 21
0.53896213 -1.5564296 0.14075653 26
0.53671044 -1.5508025 0.083999209 26
0.53544468 -1.5480192 0.027923848 23
0.54631704 -1.583925 -0.43869847 13
0.5443542 -1.5791285 -0.37679324 15
0.53846347 -1.5629252 -0.31359917 25
0.53498775 -1.5537171 -0.25420621 27
0.54051512 -1.5706602 -0.1992566 24
0.53732109 -1.562265 -0.14119253 25
0.53184283 -1.5472149 -0.083458878 25
0.5338273 -1.5538701 -0.027731255 26
0.53001368 -1.543646 0.42677325 24
0.53426343 -1.5569079 0.37088862 23
0.53309613 -1.55439 0.31169257 23
0.53443354 -1.5591763 0.25470719 23
0.53027987 -1.5479391 0.19620964 22
0.5367527 -1.5677263 0.14162809 26
0.53452694 -1.562115 0.084522568 25
0.53327322 -1.5593394 0.028098373 22
0.54390234 -1.5949646 -0.44128665 13
0.541982 -1.5902418 -0.37904274 15
0.53616977 -1.5740875 -0.31550553 25
0.53115255 -1.5602502 -0.2549884 27
0.53822619 -1.5819339 -0.20047529 23
0.53507161 -1.5735626 -0.14206408 26
0.52965218 -1.5585173 -0.083980501 24
0.53322333 -1.569925 -0.027990425 23
0.52772713 -1.5546337 0.42935973 24
0.53195608 -1.5679909 0.37313643 25
0.53081924 -1.565538 0.31359896 23
0.53215778 -1.5703871 0.25626978 22
0.52646524 -1.554481 0.19681899 23
0.53287405 -1.5743084 0.14206386 27
0.53067094 -1.5687011 0.084784247 24
0.53102922 -1.5706632 0.028272897 21
0.53987443 -1.6014301 -0.44258076 13
0.5395388 -1.6013576 -0.38129225 15
0.53380466 -1.5852529 -0.31741193 26
0.5288533 -1.5714557 -0.25655273 27
0.53586513 -1.5932106 -0.201694 23
0.53274977 -1.5848635 -0.14293563 24
0.52579886 -1.5650899 -0.084241308 23
0.53092253 -1.5812551 -0.028163204 23
0.52537024 -1.5656241 0.43194625 23
0.52802861 -1.5744573 0.37426034 24
0.53003085 -1.5813429 0.31645852 21
0.52981019 -1.5816007 0.25783241 22
0.52418697 -1.5657213 0.19803768 21
0.53053641 -1.5856061 0.14293543 27
0.528359 -1.5800148 0.085307606 25
0.52712792 -1.5772487 0.02836016 21
0.53886169 -1.6170506 -0.44646302 13
0.5370245 -1.6124756 -0.38354176 15
0.53136802 -1.5964206 -0.31931829 27
0.52648234 -1.5826641 -0.25811708 26
0.53343183 -1.60449 -0.20291269 24
0.53035545 -1.5961673 -0.1438072 24
0.5234797 -1.5763931 -0.084762931 23
0.52697438 -1.5878435 -0.028249595 24
0.52294308 -1.5766171 0.43453273 25
0.52559561 -1.5855402 0.37650815 23
0.52759486 -1.592502 0.31836489 21
0.52739078 -1.5928169 0.25939503 22
0.5233956 -1.5816758 0.19986571 21
0.52969033 -1.6016355 0.14424275 26
0.52440745 -1.5865902 0.085569285 24
0.52475524 -1.588573 0.028534682 21
0.53623563 -1.6280962 -0.44905126 13
0.53443921 -1.6235956 -0.38579127 15
0.52885997 -1.6075908 -0.32122469 26
0.52403951 -1.5938751 -0.25968143 26
0.53092623 -1.6157715 -0.20413138 23
0.52788872 -1.6074735 -0.14467876 24
0.52264506 -1.5924435 -0.085545354 21
0.52454478 -1.5991738 -0.028422374 24
0.52044553 -1.5876119 0.43711925 23
0.52157468 -1.591995 0.37763205 23
0.52508748 -1.6036631 0.32027125 23
0.52489948 -1.6040355 0.26095766 22
0.52095658 -1.5929271 0.20108441 21
0.52719128 -1.6129436 0.14511432 27
0.52196681 -1.5979037 0.086092643 23
0.52075839 -1.5951475 0.028621946 22
0.53353894 -1.6391431 -0.45163944 13
0.53178275 -1.634717 -0.38804078 15
0.52628028 -1.6187626 -0.32313105 28
0.52152479 -1.605088 -0.26124576 27
0.52834845 -1.6270553 -0.20535007 23
0.5253495 -1.6187818 -0.14555031 23
0.52016419 -1.6037574 -0.086066969 23
0.52050096 -1.6057507 -0.028508766 23
0.51787752 -1.5986085 0.43970576 24
0.51901579 -1.6030763 0.37987986 24
0.52099752 -1.6101563 0.32122445 22
0.52385581 -1.6199549 0.26330158 21
0.51844531 -1.6041801 0.2023031 21
0.5261507 -1.6289936 0.14642164 27
0.51945364 -1.6092194 0.086616002 23
0.51672202 -1.6017134 0.028709207 22
0.53077167 -1.6501908 -0.45422763 13
0.52905518 -1.6458397 -0.39029032 14
0.52362907 -1.629936 -0.32503742 31
0.5174284 -1.6116006 -0.26202795 25
0.52569824 -1.6383405 -0.20656876 23
0.52121669 -1.6253488 -0.1459861 24
0.51761067 -1.6150733 -0.086588591 22
0.51946747 -1.6218407 -0.028767936 22
0.51523906 -1.6096063 0.44229224 23
0.51638585 -1.6141589 0.38212767 23
0.5183633 -1.6213152 0.32313082 21
0.52120417 -1.6311823 0.26486421 20
0.51737154 -1.6201627 0.20413114 21
0.5265187 -1.6498009 0.14816476 25
0.51838499 -1.6252941 0.08740104 23
0.5187192 -1.6273229 0.029145516 22
0.5279336 -1.661239 -0.45681581 12
0.52773106 -1.6616062 -0.3936646 14
0.51942128 -1.6364322 -0.32599062 30
0.51627946 -1.6275189 -0.26437446 25
0.52597511 -1.6590883 -0.20900615 23
0.51854891 -1.636655 -0.14685765 23
0.51649177 -1.6311511 -0.087371014 24
0.5153113 -1.6284105 -0.028854325 22
0.51107377 -1.6160001 0.44358552 21
0.51515311 -1.6298882 0.38549939 24
0.51565754 -1.6324755 0.32503721 21
0.51402038 -1.6282821 0.26408288 20
0.51320612 -1.6266916 0.20474048 21
0.5207566 -1.6516287 0.14816476 26
0.51721042 -1.6413804 0.088186085 22
0.51453722 -1.6338919 0.02923278 20
0.52357829 -1.6676797 -0.45810992 13
0.52484477 -1.6727351 -0.39591411 15
0.51811171 -1.6522856 -0.32885018 25
0.51650238 -1.6481609 -0.26750314 24
0.52611363 -1.6798579 -0.21144356 21
0.52473551 -1.6764835 -0.15034388 21
0.51228547 -1.6377094 -0.087631822 22
0.52454048 -1.6779147 -0.029718228 22
0.50975066 -1.6316046 0.4474653 21
0.51236469 -1.6409777 0.3877472 22
0.51288009 -1.6436366 0.32694358 21
0.52009553 -1.6677837 0.27033338 20
0.51343119 -1.6474249 0.20717788 23
0.52239424 -1.6772147 0.15034366 25
0.52334982 -1.6813161 0.09027952 22
0.52665055 -1.6929613 0.030279925 20
0.52061498 -1.6787229 -0.4606981 12
0.52044487 -1.6792104 -0.39703885 14
0.51088876 -1.6493956 -0.32789698 22
0.5253495 -1.6971297 -0.27532488 22
0.53198016 -1.7196125 -0.21631832 20
0.54094917 -1.749686 -0.15688057 20
0.52278006 -1.691965 -0.090500727 21
0.53490508 -1.7322793 -0.030668519 21
0.50974905 -1.6518345 0.4526383 22
0.51524848 -1.6706903 0.39449063 23
0.52015084 -1.687632 0.33552229 20
0.52735478 -1.7120668 0.27736518 18
0.52373827 -1.7013811 0.21388069 21
0.52971798 -1.7218752 0.15426567 25
0.53508598 -1.7404047 0.093419679 21
0.5442307 -1.7712492 0.031676114 17
0.51616639 -1.6851479 -0.4619922 12
0.52171028 -1.7043091 -0.40266263 14
0.50943583 -1.6652497 -0.33075657 17
0.54541165 -1.7839609 -0.28940398 23
0.54772633 -1.7926508 -0.22545853 19
0.5552032 -1.8182575 -0.1629815 18
0.53581661 -1.7558645 -0.093891241 19
0.54635465 -1.7915179 -0.031705201 20
0.52369303 -1.7182842 0.47074381 21
0.52502882 -1.7237457 0.40685359 21
0.53140855 -1.7457843 0.34696054 18
0.5443722 -1.7894939 0.28986612 18
0.53511828 -1.7601769 0.22119285 19
0.54687196 -1.7999674 0.16123812 21
0.54786646 -1.8043728 0.096821509 18
0.56127053 -1.8496798 0.033072308 15
0.51727271 -1.7100532 -0.46846268 11
0.52985537 -1.7527541 -0.41391018 13
0.51781464 -1.7140033 -0.34028846 11
0.56487375 -1.870952 -0.3034831 20
0.56583595 -1.8753217 -0.23581745 19
0.56610882 -1.877411 -0.16821083 19
0.55129457 -1.8294369 -0.097803377 18
0.55883861 -1.8556435 -0.032828275 17
0.53996313 -1.7941008 0.49143586 18
0.54005802 -1.7955517 0.42371216 20
0.54226637 -1.8040352 0.3583988 17
0.55943447 -1.86233 0.30158579 18
0.54894775 -1.8285785 0.22972371 17
0.56491828 -1.8829706 0.16864637 23
0.55877268 -1.863668 0.099961676 18
0.56055021 -1.8707832 0.033421356 17
0.5154469 -1.7257311 -0.47234496 8
0.54324239 -1.8199495 -0.42965677 10
0.53427756 -1.7910564 -0.3555395 8
0.56680459 -1.9013081 -0.30817613 21
0.5663712 -1.9010662 -0.23886417 18
0.56381601 -1.8936973 -0.16951817 20
0.55629724 -1.8696367 -0.099889845 19
0.56090707 -1.8863344 -0.033346616 18
0.55295837 -1.8607912 0.50954139 18
0.55597901 -1.8721529 0.44169462 19
0.55691326 -1.8764988 0.37269661 17
0.55995172 -1.8879449 0.30549234 18
0.5552544 -1.8733065 0.23520783 17
0.56683004 -1.9135861 0.17126103 24
0.55651575 -1.8799703 0.10074671 20
0.55827111 -1.88711 0.033683144 17
0.53127629 -1.8016385 -0.49305049 5
0.56167507 -1.9059514 -0.44990239 9
0.55298185 -1.877661 -0.37269688 7
0.562953 -1.91275 -0.30974048 20
0.5639329 -1.9173148 -0.24069221 20
0.55720234 -1.8956537 -0.16951817 20
0.55398941 -1.8859395 -0.10067227 17
0.5557273 -1.8930776 -0.033433005 18
0.55189812 -1.8812484 0.51471442 17
0.55492336 -1.8927834 0.44619027 18
0.5544998 -1.8925622 0.37555617 17
0.55335814 -1.889888 0.30549234 17
0.55428672 -1.8942852 0.23764521 17
0.56434095 -1.9298953 0.17256837 24
0.55415177 -1.8962796 0.10153175 18
0.55588472 -1.9034436 0.033944927 16
0.5506314 -1.8915881 -0.51763833 4
0.560462 -1.9266121 -0.4544014 8
0.55327517 -1.9031456 -0.3774628 7
0.56178397 -1.9336728 -0.31286919 18
0.56138796 -1.9335694 -0.24252027 18
0.55613381 -1.9167218 -0.1712613 19
0.55018389 -1.8974531 -0.10119389 18
0.55329001 -1.9094111 -0.033692177 17
0.54935825 -1.897081 0.51859415 18
0.55237603 -1.908749 0.44956198 18
0.54925376 -1.8992013 0.37650937 16
0.55635625 -1.925019 0.31096151 17
0.54904813 -1.9009764 0.23825455 16
0.56174487 -1.9462104 0.1738757 24
0.55168062 -1.912595 0.10231679 18
0.55200648 -1.9149796 0.034119453 16
0.54669249 -1.9027823 -0.52022654 4
0.55911142 -1.9472874 -0.45890042 8
0.55068982 -1.9192191 -0.3803224 7
0.55775321 -1.9451164 -0.31443354 20
0.55873632 -1.9498293 -0.2443483 18
0.55355358 -1.9330169 -0.17256863 18
0.54767859 -1.9137634 -0.10197632 17
0.54937083 -1.920944 -0.033864956 18
0.54538733 -1.9082748 0.52118063 17
0.54838592 -1.9200349 0.45180979 18
0.54666245 -1.9152665 0.37936896 16
0.55098796 -1.9316984 0.31174284 18
0.54649043 -1.9171993 0.24008259 16
0.55767697 -1.9577401 0.17474726 21
0.54773521 -1.9241139 0.10284015 18
0.54942232 -1.9313202 0.034381237 16
0.53345996 -1.8814467 -0.51375604 4
0.55496705 -1.9586017 -0.46114993 9
0.54799891 -1.9352976 -0.38318196 7
0.55499399 -1.9613069 -0.31678003 20
0.55732846 -1.9708697 -0.24678569 17
0.55086643 -1.9493175 -0.17387597 18
0.54370904 -1.9252741 -0.10249794 17
0.54673558 -1.9372838 -0.034124129 17
0.54265594 -1.9241126 0.52506042 17
0.54432368 -1.9313163 0.4540576 18
0.54396558 -1.9313364 0.38222849 16
0.5482558 -1.9478718 0.31408677 17
0.5438261 -1.9334273 0.24191064 16
0.55488342 -1.9740604 0.1760546 21
0.54506642 -1.9404353 0.10362519 21
0.54537964 -1.9428527 0.034555763 16
0.53209406 -1.9019015 -0.5189324 4
0.55206215 -1.9746029 -0.46452424 9
0.54520237 -1.9513804 -0.38604152 7
0.55080044 -1.9727453 -0.31834438 17
0.5544467 -1.9871435 -0.24861374 23
0.54673421 -1.960824 -0.17474753 18
0.54100603 -1.94159 -0.10328037 16
0.54265201 -1.9488126 -0.034296907 17
0.53982055 -1.9399543 0.52894014 17
0.54149461 -1.9472861 0.45742929 18
0.53984892 -1.9426814 0.38413486 16
0.54409599 -1.9592905 0.31564939 16
0.54105502 -1.9496598 0.24373868 16
0.55198252 -1.9903845 0.17736192 21
0.54229027 -1.9567615 0.10441023 18
0.54259747 -1.9591982 0.03481755 18
0.52288204 -1.8944362 -0.51634425 4
0.54775691 -1.985911 -0.46677375 9
0.54099602 -1.9627353 -0.38794789 7
0.54784524 -1.9889394 -0.3206909 18
0.55145806 -2.0034213 -0.25044179 18
0.54384953 -1.9771284 -0.17605488 16
0.53819573 -1.9579105 -0.1040628 17
0.5398187 -1.965157 -0.03455608 16
0.53688121 -1.9557996 0.53281993 15
0.53856069 -1.9632599 0.46080104 17
0.53695738 -1.9587553 0.38699445 16
0.54116791 -1.9754671 0.31799328 18
0.5368669 -1.9611098 0.24495737 17
0.54897451 -2.0067127 0.17866927 19
0.54204023 -1.9827247 0.10571863 21
0.53970766 -1.9755479 0.035079334 15
0.51626605 -1.8962499 -0.51634425 4
0.54465842 -2.0019138 -0.47014797 8
0.53800464 -1.9788208 -0.39080748 7
0.54478365 -2.0051367 -0.32303745 17
0.54836243 -2.019702 -0.25226983 16
0.54085755 -1.9934363 -0.1773622 17
0.53527796 -1.9742349 -0.10484522 16
0.53687793 -1.9815052 -0.034815248 17
0.53257543 -1.9669857 0.53540641 15
0.53552175 -1.9792368 0.46417275 15
0.5339601 -1.9748321 0.38985398 17
0.53813356 -1.991647 0.32033724 16
0.53389901 -1.9773452 0.2467854 14
0.54456156 -2.0182345 0.17954083 20
0.54031551 -2.0038886 0.10676534 17
0.53671038 -1.991901 0.035341118 15
0.50997502 -1.8979514 -0.51634425 5
0.5421592 -2.0177298 -0.47352228 8
0.53560394 -1.9947226 -0.39366707 6
0.54232109 -2.0211473 -0.32538396 17
0.54587054 -2.035795 -0.25409788 16
0.53845984 -2.0095594 -0.17866954 19
0.53294754 -1.9903765 -0.10562764 16
0.53452682 -1.9976701 -0.03507442 18
0.53013623 -1.9826469 0.5392862 14
0.53433204 -1.9997373 0.46866837 17
0.53155208 -1.9907264 0.39271358 15
0.53569359 -2.0076427 0.32268119 13
0.53024155 -1.988603 0.24800409 16
0.5420658 -2.0343747 0.18084818 22
0.53915644 -2.0248764 0.10781206 13
0.53430641 -2.0080707 0.035602909 14
0.50367838 -1.8996321 -0.51634425 4
0.53885603 -2.0337381 -0.47689649 7
0.53240663 -2.0108144 -0.3965266 7
0.54031539 -2.0421247 -0.32851264 17
0.54256654 -2.0520813 -0.25592589 16
0.53525907 -2.0258741 -0.1799769 17
0.52982056 -2.0067081 -0.10641007 19
0.53137648 -2.0140252 -0.035333589 15
0.52690619 -1.9984959 0.54316592 16
0.53107208 -2.0157239 0.47204006 17
0.52834892 -2.0068095 0.39557317 16
0.53245193 -2.0238285 0.32502508 20
0.52708232 -2.0048409 0.24983214 16
0.53749245 -2.0458894 0.18171974 18
0.53588867 -2.0412345 0.10859711 25
0.52983087 -2.0195949 0.035777431 15
0.49671251 -1.9014654 -0.51634425 4
0.53632045 -2.0545549 -0.48139551 7
0.52751088 -2.0222509 -0.39843297 8
0.53656399 -2.0584278 -0.33085918 18
0.53879452 -2.0684638 -0.25775397 16
0.53284913 -2.0471036 -0.18172 17
0.5262329 -2.0231338 -0.10719251 17
0.52776396 -2.0304747 -0.035592761 18
0.52564883 -2.0237877 0.54963219 14
0.52735245 -2.0318041 0.4754118 15
0.52591902 -2.0277367 0.3993859 13
0.52874774 -2.0401082 0.32736903 16
0.52346343 -2.021172 0.2516602 13
0.5337342 -2.0623119 0.18302706 22
0.53215414 -2.057687 0.10938215 16
0.52617776 -2.0360439 0.036039218 15
0.49127647 -1.9078647 -0.51763833 4
0.53278762 -2.070569 -0.48476982 7
0.52411562 -2.038341 -0.40129256 6
0.53306234 -2.0746372 -0.33320567 18
0.53527349 -2.0847523 -0.25958198 15
