# .PCD v0.7 - Point Cloud Data file format
VERSION 0.7
FIELDS x y z intensity
SIZE 4 4 4 4
TYPE F F F F
COUNT 1 1 1 1
WIDTH 1388
HEIGHT 1
VIEWPOINT 0 0 0 1 0 0 0
POINTS 1388
DATA ascii
0.79397851 2.0166647 0.49114645 26
0.78934383 2.0038667 0.41082415 23
0.79266721 2.0112741 0.33596343 25
0.7913667 2.0069473 0.26019105 23
0.79640365 2.0186889 0.18651327 28
0.7950024 2.0141072 0.11147558 29
0.79079825 2.0024326 0.036911838 28
0.73979181 1.8675489 -0.52799106 4
0.80929065 2.0419528 -0.49826688 6
0.80293471 2.0248842 -0.41559041 28
0.80084932 2.0185966 -0.3378987 26
0.80873477 2.0374351 -0.26445675 26
0.80098176 2.0168762 -0.18651357 25
0.7940461 1.9983954 -0.11032221 27
0.79718876 2.0052848 -0.036629442 28
0.79955393 2.0102122 0.569031 23
0.80316609 2.0182679 0.49227038 24
0.79849869 2.0055203 0.41177732 25
0.80186129 2.0129435 0.33674476 22
0.80055451 2.0086434 0.26080036 27
0.80379713 2.0157561 0.18651327 26
0.80422944 2.0158176 0.11173727 26
0.79998547 2.0041637 0.036999099 30
0.74630624 1.8649552 -0.52799106 4
0.81641352 2.0391154 -0.49826688 5
0.80999798 2.022069 -0.41559041 26
0.80789065 2.015789 -0.3378987 30
0.81768876 2.0392058 -0.26506612 23
0.80801708 2.0140681 -0.18651357 31
0.80287695 2.0002453 -0.11058301 24
0.80604672 2.0071292 -0.036715835 34
0.80836678 2.0118906 0.57032424 28
0.81020623 2.0154519 0.49227038 28
0.80549437 2.0027208 0.41177732 26
0.80888289 2.0101323 0.33674476 25
0.8075611 2.0058367 0.26080036 26
0.81268966 2.0175583 0.18694907 33
0.81312752 2.0176294 0.11199894 34
0.808846 2.0059958 0.037086364 40
0.75281161 1.8623388 -0.52799106 3
0.82535303 2.0407698 -0.49939165 6
0.81889242 2.0237789 -0.41654357 27
0.81492221 2.0129566 -0.3378987 27
0.82480198 2.036339 -0.26506612 28
0.81691337 2.0158517 -0.18694936 31
0.81173033 2.002058 -0.11084383 32
0.81492722 2.0089357 -0.036802221 40
0.81538463 2.0090566 0.57032424 28
0.81723654 2.0126116 0.49227038 28
0.81248033 1.999897 0.41177732 27
0.8158946 2.0072963 0.33674476 21
0.81642735 2.0076027 0.26140973 21
0.81972724 2.0147092 0.18694907 26
0.82016534 2.0147789 0.11199894 34
0.81772888 2.0077899 0.037173621 58
0.76113325 1.8641708 -0.52928513 5
0.83247161 2.0378764 -0.49939165 5
0.8259517 2.0209081 -0.41654357 28
0.8219437 2.0100996 -0.3378987 27
0.83190507 2.0334475 -0.26506612 24
0.82394499 2.0129879 -0.18694936 31
0.82060617 2.0038331 -0.11110463 32
0.82383007 2.0107048 -0.036888614 59
0.82422453 2.0106671 0.57161748 25
0.82610559 2.0142543 0.49339426 29
0.82131958 2.0015895 0.41273054 26
0.82289642 2.0044363 0.33674476 27
0.82343024 2.0047405 0.26140973 24
0.82864815 2.0164428 0.18738484 51
0.82909197 2.0165217 0.11226062 66
0.82853615 2.0141699 0.037348147 64
0.76395345 1.8525728 -0.52669698 3
0.83958006 2.0349581 -0.49939165 5
0.83300096 2.0180128 -0.41654357 26
0.82895529 2.0072184 -0.3378987 29
0.83899808 2.0305312 -0.26506612 26
0.83096659 2.0100996 -0.18694936 34
0.82759583 2.0009565 -0.11110463 42
0.83084375 2.0078168 -0.036888614 74
0.83123803 2.0077779 0.57161748 25
0.83313167 2.0113583 0.49339426 27
0.82830143 1.9987104 0.41273054 24
0.82988822 2.0015516 0.33674476 27
0.83042312 2.0018539 0.26140973 28
0.8356818 2.0135379 0.18738484 47
0.83612597 2.0136151 0.11226062 65
0.83556181 2.0112655 0.037348147 68
0.76298839 1.8320611 -0.52152056 3
0.84667826 2.0320151 -0.49939165 5
0.84192872 2.0196233 -0.4174968 23
0.83595675 2.0043125 -0.3378987 25
0.84608084 2.0275903 -0.26506612 29
0.83797812 2.0071867 -0.18694936 32
0.83457547 1.9980553 -0.11110463 40
0.83784723 2.0049045 -0.036888614 43
0.83824146 2.004864 0.57161748 24
0.84014755 2.0084381 0.49339426 28
0.83527315 1.9958069 0.41273054 22
0.8368699 1.9986426 0.33674476 23
0.8374058 1.9989431 0.26140973 26
0.84463066 2.0152025 0.18782063 38
0.84314966 2.0106845 0.11226062 56
0.8425774 2.0083365 0.037348147 52
0.75065547 1.7848673 -0.50857961 6
0.8537662 2.0290473 -0.49939165 5
0.84897333 2.0166721 -0.4174968 25
0.84486496 2.0059338 -0.33868089 30
0.85315329 2.0246246 -0.26506612 25
0.84497935 2.0042493 -0.18694936 31
0.84154487 1.9951299 -0.11110463 39
0.84484059 2.0019677 -0.036888614 43
0.84523463 2.0019257 0.57161748 26
0.84715319 2.0054929 0.49339426 26
0.84414536 1.9974002 0.41368371 26
0.84384131 1.9957091 0.33674476 25
0.84437829 1.9960078 0.26140973 28
0.85165995 2.0122418 0.18782063 34
0.85016316 2.0077288 0.11226062 38
0.84763253 2.0007801 0.037260886 37
0.76820844 1.8089085 -0.51634425 4
0.86084366 2.0260546 -0.49939165 5
0.85792786 2.0182133 -0.41844994 25
0.85186183 2.0029724 -0.33868089 28
0.86021537 2.0216341 -0.26506612 26
0.85197037 2.0012875 -0.18694936 28
0.84850401 1.9921803 -0.11110463 30
0.85182363 1.9990064 -0.036888614 32
0.8522175 1.9989631 0.57161748 26
0.85606003 2.0070052 0.49451819 28
0.85111248 1.9944413 0.41368371 26
0.8527416 1.9972931 0.33752605 26
0.85134053 1.9930482 0.26140973 30
0.86063612 2.0138369 0.1882564 33
0.85716623 2.0047491 0.11226062 29
0.8526451 1.9932127 0.037173621 28
0.77832472 1.8150933 -0.5189324 4
0.86791068 2.0230374 -0.49939165 5
0.86496753 2.0152063 -0.41844994 24
0.86079681 2.004524 -0.33946306 31
0.86922598 2.0231788 -0.26567549 29
0.85895097 1.9983014 -0.18694936 27
0.8554529 1.9892064 -0.11110463 29
0.85879624 1.9960209 -0.036888614 30
0.85918993 1.9959762 0.57161748 25
0.86306053 2.0040047 0.49451819 28
0.85806924 1.9914582 0.41368371 25
0.85970831 1.9943044 0.33752605 27
0.8582924 1.9900643 0.26140973 28
0.86766046 2.0108202 0.1882564 30
0.86217988 1.9971606 0.11199894 30
0.8595975 1.9902242 0.037173621 26
0.78849357 1.8212296 -0.52152056 4
0.8749671 2.0199955 -0.49939165 5
0.87394834 2.0166783 -0.41940317 25
0.86778867 2.001507 -0.33946306 29
0.87628293 2.0201325 -0.26567549 26
0.86592108 1.995291 -0.18694936 26
0.86239129 1.9862081 -0.11110463 26
0.86575842 1.9930109 -0.036888614 28
0.86807704 1.9973943 0.57291073 25
0.87005055 2.0009799 0.49451819 27
0.86501545 1.9884509 0.41368371 24
0.86666441 1.9912914 0.33752605 24
0.86721504 1.9916064 0.26201907 27
0.87467426 2.0077794 0.1882564 32
0.86914599 1.9941388 0.11199894 27
0.86653948 1.9872116 0.037173621 25
0.79871464 1.8273168 -0.52410877 4
0.88201284 2.0169289 -0.49939165 5
0.88098258 2.0136154 -0.41940317 26
0.87476999 1.9984657 -0.33946306 28
0.88531989 2.0216072 -0.26628482 26
0.8728807 1.9922562 -0.18694936 27
0.87132382 1.9877589 -0.11136544 26
0.87070227 1.9853984 -0.036802221 27
0.87504393 1.9943521 0.57291073 24
0.87702996 1.9979306 0.49451819 27
0.87392491 1.9899136 0.41463691 26
0.8755967 1.9927753 0.33830738 25
0.87416172 1.988567 0.26201907 26
0.88167733 2.004714 0.1882564 30
0.87610155 1.9910928 0.11199894 28
0.87347084 1.9841747 0.037173621 24
0.80118883 1.8156805 -0.52152056 4
0.88904792 2.0138381 -0.49939165 5
0.88800603 2.0105281 -0.41940317 26
0.88373667 1.9999173 -0.34024525 28
0.89237124 2.0185046 -0.26628482 26
0.8818444 1.9937522 -0.18738513 27
0.8782571 1.9847053 -0.11136544 28
0.87762731 1.9823471 -0.036802221 27
0.88200021 1.9912854 0.57291073 24
0.88399869 1.9948571 0.49451819 27
0.88086569 1.9868507 0.41463691 24
0.8825475 1.9897068 0.33830738 24
0.88109779 1.9855036 0.26201907 27
0.88866979 2.0016241 0.1882564 30
0.88304639 1.9880224 0.11199894 28
0.8803916 1.9811137 0.037173621 27
0.80555671 1.8084611 -0.52022654 4
0.89805514 2.015172 -0.50051636 5
0.89701742 2.011899 -0.42035633 27
0.89071226 1.9968203 -0.34024525 28
0.90143418 2.0199091 -0.26689416 27
0.88879853 1.990662 -0.18738513 27
0.88721615 1.9861865 -0.11162625 26
0.88454163 1.9792714 -0.036802221 27
0.8889457 1.9881945 0.57291073 26
0.89095664 1.9917592 0.49451819 27
0.88779575 1.9837639 0.41463691 25
0.8915056 1.9911215 0.33908868 25
0.88802314 1.9824158 0.26201907 26
0.89565128 1.9985099 0.1882564 30
0.88998049 1.984928 0.11199894 26
0.88730162 1.9780284 0.037173621 24
0.81186455 1.8056381 -0.52022654 4
0.90508389 2.0120249 -0.50051636 5
0.90403473 2.0087554 -0.42035633 28
0.89767706 1.993699 -0.34024525 28
0.90847945 2.0167503 -0.26689416 26
0.89574182 1.9875474 -0.18738513 28
0.89414382 1.9830774 -0.11162625 25
0.8935008 1.9807287 -0.036888614 27
0.89786726 1.9894819 0.57420403 25
0.8979038 1.988637 0.49451819 27
0.89471495 1.9806528 0.41463691 24
0.89845049 1.9879974 0.33908868 23
0.89698237 1.983826 0.26262844 26
0.90467501 1.9999099 0.18869218 29
0.8989625 1.9863583 0.11226062 29
0.8942008 1.9749191 0.037173621 24
0.81616646 1.7983952 -0.5189324 4
0.91210169 2.0088534 -0.50051636 5
0.91104114 2.0055876 -0.42035633 25
0.90667421 1.9950494 -0.34102744 28
0.91756779 2.0180845 -0.2675035 24
0.90473676 1.9889427 -0.18782091 28
0.90106064 1.9799442 -0.11162625 27
0.9004094 1.9775977 -0.036888614 27
0.90480638 1.9863358 0.57420403 26
0.90686029 1.9899238 0.49564207 26
0.90365952 1.9819837 0.41559011 24
0.90743399 1.9893423 0.33987001 24
0.9039017 1.980683 0.26262844 25
0.91165048 1.9967397 0.18869218 30
0.90589076 1.9832082 0.11226062 27
0.90316707 1.9763328 0.037260886 25
0.82445043 1.7999263 -0.52022654 4
0.91910833 2.0056574 -0.50051636 5
0.9180364 2.0023952 -0.42035633 25
0.91363275 1.9918724 -0.34102744 29
0.92460662 2.0148692 -0.2675035 25
0.9116739 1.9857724 -0.18782091 26
0.91005051 1.9813243 -0.11188706 25
0.90939444 1.9789852 -0.036975004 26
0.91375184 1.9875534 0.57549721 27
0.9138009 1.9867462 0.49564207 26
0.91057241 1.9788172 0.41559011 24
0.91437256 1.9861627 0.33987001 24
0.91288614 1.982023 0.26323774 24
0.91861486 1.9935453 0.18869218 30
0.91489822 1.9845684 0.1125223 28
0.91006029 1.9731681 0.037260886 24
0.83104193 1.7968924 -0.52022654 4
0.92645323 2.0022752 -0.50051636 5
0.92536938 1.999017 -0.42035633 26
0.92092717 1.9885104 -0.34102744 28
0.93198526 2.011467 -0.2675035 25
0.91894603 1.9824177 -0.18782091 27
0.9173063 1.9779756 -0.11188706 29
0.91664165 1.9756389 -0.036975004 28
0.92103046 1.9841909 0.57549721 26
0.92312872 1.9878026 0.496766 25
0.91988719 1.9799179 0.41654328 24
0.92372787 1.9872766 0.34065133 24
0.92014444 1.9786638 0.26323774 26
0.92801642 1.994681 0.18912795 29
0.92216593 1.9812018 0.1125223 27
0.91728616 1.9698193 0.037260886 24
0.83935177 1.7983569 -0.52152056 4
0.93343681 1.999029 -0.50051636 5
0.93441904 2.0002217 -0.42130953 26
0.9278627 1.9852836 -0.34102744 30
0.94110304 2.0126972 -0.26811287 25
0.92797083 1.9837093 -0.18825668 27
0.92632174 1.9792838 -0.11214787 26
0.92565233 1.9769548 -0.037061393 27
0.92795098 1.9809638 0.57549721 25
0.93006182 1.9845682 0.496766 27
0.92679274 1.9766948 0.41654328 23
0.93065912 1.9840401 0.34065133 25
0.92704564 1.9754398 0.26323774 27
0.93497348 1.9914294 0.18912795 29
0.93119889 1.9824904 0.11278398 27
0.92628878 1.971127 0.037348147 25
0.84531075 1.7955637 -0.52152056 4
0.93971241 1.9960867 -0.50051636 5
0.94069833 1.9972762 -0.42130953 25
0.93409508 1.9823588 -0.34102744 29
0.94742143 2.0097306 -0.26811287 25
0.93419826 1.9807843 -0.18825668 26
0.93253523 1.976364 -0.11214787 27
0.93185848 1.9740371 -0.037061393 27
0.93623245 1.9824064 0.57679051 24
0.93837315 1.9860414 0.49788988 24
0.93299818 1.9737735 0.41654328 26
0.93688756 1.9811065 0.34065133 23
0.93536961 1.9770038 0.26384711 28
0.94335622 1.9929845 0.18956374 30
0.93742251 1.9795551 0.11278398 29
0.93247068 1.9682101 0.037348147 24
0.85333192 1.7971134 -0.52281469 4
0.94458389 1.9883939 -0.49939165 5
0.94977117 1.9984133 -0.4222627 26
0.9410091 1.9790862 -0.34102744 28
0.954431 2.0064113 -0.26811287 25
0.9411068 1.9775113 -0.18825668 27
0.93942833 1.9730968 -0.11214787 26
0.94089329 1.9752855 -0.037147783 28
0.94314665 1.9791262 0.57679051 25
0.94530004 1.9827538 0.49788988 26
0.94199532 1.9749348 0.4174965 24
0.94379717 1.9778241 0.34065133 23
0.94226497 1.9737267 0.26384711 27
0.95030725 1.9896795 0.18956374 29
0.94647944 1.980776 0.11304566 27
0.94149154 1.9694537 0.037435409 24
0.85813773 1.7894689 -0.52152056 4
0.9522118 1.9847523 -0.49939165 5
0.95743752 1.9947517 -0.4222627 26
0.95073903 1.9799101 -0.34180957 27
0.96427685 2.0072048 -0.26872221 25
0.95085067 1.9783726 -0.18869248 29
0.94916135 1.9739752 -0.11240868 26
0.94847095 1.9716581 -0.037147783 26
0.95283341 1.9798422 0.57808375 25
0.95290631 1.9791095 0.49788988 25
0.94957155 1.9713032 0.4174965 26
0.95138454 1.9741856 0.34065133 26
0.95199174 1.9745644 0.26445645 26
0.96010399 1.9905022 0.18999954 29
0.95407802 1.9771271 0.11304566 28
0.94904673 1.9658242 0.037435409 24
0.86437893 1.7864625 -0.52152056 4
0.9591341 1.9814165 -0.49939165 5
0.96653414 1.9958154 -0.42321593 25
0.9576444 1.9765793 -0.34180957 29
0.97127742 2.0038266 -0.26872221 24
0.95775068 1.9750414 -0.18869248 27
0.95604599 1.97065 -0.11240868 27
0.9575305 1.972833 -0.037234176 27
0.95973849 1.9765041 0.57808375 24
0.96193773 1.9801536 0.49901381 26
0.95644689 1.9679767 0.4174965 25
0.96042937 1.9752939 0.3414326 24
0.95887846 1.9712293 0.26445645 25
0.96704632 1.9871387 0.18999954 29
0.96315944 1.9782742 0.11330734 28
0.95809805 1.9669909 0.03752267 24
0.86849093 1.7790945 -0.52022654 4
0.96604466 1.9780564 -0.49939165 5
0.97349489 1.9924294 -0.42321593 26
0.96670693 1.9776614 -0.34259176 29
0.98044646 2.0048823 -0.26933157 24
0.96682793 1.9761603 -0.18912823 26
0.96511406 1.9717853 -0.11266948 26
0.96441114 1.9694785 -0.037234176 26
0.96875679 1.9774792 0.579377 23
0.96884388 1.9767838 0.49901381 25
0.96547139 1.9690329 0.41844967 26
0.96731853 1.9719293 0.3414326 24
0.96575356 1.9678702 0.26445645 26
0.97617203 1.988222 0.19043529 28
0.97005898 1.9749 0.11330734 27
0.96715719 1.9681242 0.037609935 23
0.87256193 1.7717191 -0.5189324 4
0.97294354 1.9746722 -0.49939165 5
0.98261386 1.9934213 -0.42416909 27
0.97360432 1.974275 -0.34259176 30
0.9874388 2.0014477 -0.26933157 25
0.97592473 1.97724 -0.18956403 25
0.97199094 1.9684044 -0.11266948 24
0.97349417 1.9705822 -0.037320562 25
0.97565359 1.9740856 0.579377 24
0.97789776 1.9777572 0.50013769 25
0.97233874 1.9656508 0.41844967 24
0.97419596 1.9685408 0.3414326 24
0.97481871 1.9689345 0.26506582 26
0.98531723 1.9892662 0.19087109 29
0.97916371 1.9759756 0.11356901 26
0.97624177 1.969215 0.037697192 24
0.8762843 1.7644904 -0.51763833 4
0.97914231 1.9716058 -0.49939165 5
0.98887151 1.9903246 -0.42416909 26
0.98199987 1.9756285 -0.34337392 28
0.99372166 1.9983357 -0.26933157 24
0.9821316 1.9741642 -0.18956403 27
0.98039508 1.9698114 -0.1129303 25
0.97968012 1.9675143 -0.037320562 26
0.98400414 1.9753339 0.58067024 24
0.98627931 1.9790357 0.50126159 25
0.98069936 1.9669791 0.41940287 26
0.98257989 1.9698899 0.34221393 24
0.98099947 1.9658624 0.26506582 26
0.99156183 1.9861609 0.19087109 30
0.98759776 1.977357 0.1138307 28
0.98242337 1.9661385 0.037697192 25
0.87996817 1.7572564 -0.51634425 4
0.98383623 1.96382 -0.49826688 5
0.99581301 1.9868606 -0.42416909 24
0.98889017 1.9721886 -0.34337392 30
1.0006912 1.9948549 -0.26933157 26
0.99125105 1.975176 -0.18999982 30
0.98726499 1.9663773 -0.1129303 25
0.9887861 1.9685501 -0.037406955 27
0.99089336 1.9718871 0.58067024 27
0.99318147 1.9755809 0.50126159 28
0.98755944 1.963544 0.41940287 24
0.99166989 1.9708596 0.34299523 24
0.98785561 1.9624259 0.26506582 23
1.0007291 1.9871361 0.19130686 31
0.99449402 1.9738976 0.1138307 31
0.99153072 1.9671614 0.037784457 28
0.88670903 1.7538646 -0.51634425 4
0.99136949 1.9600278 -0.49826688 5
1.0056508 1.9874018 -0.42512229 25
0.99868602 1.9727832 -0.34415612 29
1.0083435 1.9909977 -0.26933157 26
0.99882782 1.9713553 -0.18999982 28
0.99706548 1.9670254 -0.1131911 29
0.99859846 1.9691974 -0.037493344 29
0.99845749 1.9680679 0.58067024 26
1.0029647 1.9760972 0.5023855 27
0.99731374 1.9641137 0.42035604 25
0.99923009 1.9670373 0.34299523 25
0.99763197 1.9630429 0.26567516 26
1.0083517 1.983279 0.19130686 31
1.0043297 1.9745151 0.11409239 29
0.99907678 1.9633398 0.037784457 34
0.89721394 1.7593635 -0.5189324 4
0.99820524 1.9565554 -0.49826688 5
1.0125819 1.9838794 -0.42512229 25
1.0055662 1.9692851 -0.34415612 29
1.0175447 1.9918852 -0.26994088 29
1.0057031 1.9678568 -0.18999982 31
1.0039256 1.963533 -0.1131911 27
1.0054662 1.9656997 -0.037493344 31
1.0075215 1.9688702 0.58196354 24
1.0098565 1.9725841 0.5023855 28
1.0041636 1.9606205 0.42035604 25
1.0083423 1.9679327 0.34377655 23
1.0044782 1.9595485 0.26567516 24
1.0152684 1.9797471 0.19130686 30
1.0112158 1.9709973 0.11409239 31
1.0082128 1.9642849 0.037871718 33
0.90776801 1.7648106 -0.52152056 4
1.0050288 1.9530591 -0.49826688 4
1.0217475 1.9846967 -0.42607546 25
1.0146954 1.9701535 -0.34493828 28
1.0244915 1.9883213 -0.26994088 27
1.0148482 1.9687614 -0.19043559 28
1.0130622 1.9644548 -0.11345191 27
1.0146137 1.9666207 -0.037579738 32
1.014388 1.9653412 0.58196354 26
1.016736 1.9690471 0.5023855 27
1.0110013 1.9571034 0.42035604 24
1.0152055 1.9644009 0.34377655 26
1.0135914 1.9604386 0.2662845 27
1.0221729 1.9761909 0.19130686 33
1.0180898 1.9674554 0.11409239 29
1.0150573 1.9607567 0.037871718 34
0.91614699 1.7659181 -0.52281469 4
1.0118401 1.9495389 -0.49826688 4
1.0286691 1.9811182 -0.42607546 26
1.0215663 1.9665993 -0.34493828 29
1.0314258 1.984733 -0.26994088 30
1.0217142 1.965207 -0.19043559 28
1.0199133 1.9609065 -0.11345191 27
1.0214723 1.9630671 -0.037579738 32
1.0212421 1.9617884 0.58196354 26
1.023603 1.965486 0.5023855 26
1.0178268 1.9535624 0.42035604 23
1.024339 1.9652244 0.34455785 24
1.0204284 1.9568886 0.2662845 27
1.0290649 1.972611 0.19130686 30
1.0249512 1.9638897 0.11409239 31
1.0218954 1.9572016 0.037871718 30
0.92678368 1.771268 -0.5254029 3
1.0186391 1.9459951 -0.49826688 4
1.0378553 1.9818635 -0.42702866 25
1.0284249 1.9630215 -0.34493828 28
1.0406514 1.9855161 -0.27055025 27
1.0285679 1.9616286 -0.19043559 25
1.0267519 1.9573344 -0.11345191 25
1.0283185 1.9594896 -0.037579738 28
1.0303289 1.9624878 0.58325672 26
1.0327232 1.9662145 0.5035094 27
1.0269229 1.9543426 0.42130923 24
1.0311927 1.9616369 0.34455785 23
1.027253 1.9533148 0.2662845 26
1.0359443 1.9690069 0.19130686 29
1.0318003 1.9603 0.11409239 29
1.0310504 1.9580461 0.037958983 24
0.93521482 1.7722934 -0.52669698 4
1.0277002 1.9467361 -0.49939165 4
1.0447669 1.9782287 -0.42702866 25
1.0375779 1.9637862 -0.34572047 28
1.0475757 1.9818715 -0.27055025 25
1.0377375 1.9624295 -0.19087137 26
1.0359129 1.9581521 -0.11371273 26
1.0351521 1.9558882 -0.037579738 27
1.0371729 1.9588794 0.58325672 26
1.0395803 1.9625976 0.5035094 26
1.0337386 1.9507462 0.42130923 24
1.040347 1.9623889 0.34533918 24
1.0340651 1.9497169 0.2662845 26
1.0428112 1.9653786 0.19130686 31
1.0386367 1.9566864 0.11409239 27
1.037879 1.9544351 0.037958983 24
0.94139558 1.7690182 -0.52669698 4
1.0344894 1.9431368 -0.49939165 4
1.0516659 1.9745697 -0.42702866 25
1.0467486 1.9645107 -0.3465026 28
1.0544875 1.9782026 -0.27055025 26
1.0445813 1.9587952 -0.19087137 27
1.0427419 1.9545242 -0.11371273 25
1.0419731 1.9522629 -0.037579738 26
1.0440044 1.955247 0.58325672 25
1.0464247 1.9589568 0.5035094 25
1.042855 1.9514548 0.4222624 24
1.0471908 1.9587454 0.34533918 25
1.0408646 1.9460955 0.2662845 26
1.0496652 1.9617267 0.19130686 28
1.0454605 1.9530489 0.11409239 27
1.0446949 1.9508003 0.037958983 24
0.9475649 1.7657213 -0.52669698 4
1.0412658 1.939514 -0.49939165 5
1.0608745 1.9752108 -0.42798182 25
1.0535997 1.9608449 -0.3465026 28
1.0613862 1.9745097 -0.27055025 27
1.0537715 1.9595237 -0.19130714 26
1.049558 1.9508724 -0.11371273 24
1.0487815 1.9486138 -0.037579738 25
1.053113 1.9558437 0.58455002 24
1.0532564 1.9552922 0.5035094 25
1.0496606 1.9478025 0.4222624 24
1.0540216 1.9550781 0.34533918 24
1.0500072 1.9468182 0.26689386 27
1.0588717 1.9624343 0.19174264 29
1.0546433 1.9537814 0.11435406 27
1.0514982 1.9471418 0.037958983 24
0.95142412 1.7581555 -0.5254029 4
1.0457102 1.931583 -0.49826688 5
1.0677627 1.9714956 -0.42798182 24
1.0604379 1.9571552 -0.3465026 27
1.070637 1.9751558 -0.27115959 28
1.060605 1.9558334 -0.19130714 25
1.0587424 1.9515859 -0.11397354 25
1.055577 1.9449409 -0.037579738 26
1.0599338 1.9521556 0.58455002 25
1.0624006 1.9558848 0.50463331 25
1.0587968 1.9484395 0.42321563 25
1.0608398 1.951387 0.34533918 24
1.0567964 1.9431412 0.26689386 27
1.0657156 1.9587263 0.19174264 28
1.0614568 1.950088 0.11435406 26
1.0582885 1.9434595 0.037958983 24
0.95524198 1.750584 -0.52410877 4
1.0524462 1.9279211 -0.49826688 5
1.0769906 1.9720641 -0.42893505 25
1.069631 1.9577755 -0.34728479 29
1.0775251 1.9714065 -0.27115959 25
1.0698154 1.9564897 -0.19174294 26
1.0655484 1.9478782 -0.11397354 25
1.0647597 1.9456301 -0.037666127 27
1.0690609 1.9526803 0.58584327 25
1.0692214 1.9521644 0.50463331 26
1.0655917 1.9447316 0.42321563 26
1.0676448 1.9476721 0.34533918 23
1.0659591 1.9437917 0.2675032 26
1.074942 1.9593611 0.19217841 28
1.0706599 1.9507482 0.11461575 26
1.0674722 1.9441358 0.038046245 24
0.95436239 1.7345448 -0.52022654 4
1.0568204 1.9199677 -0.49714214 4
1.0838679 1.9682927 -0.42893505 25
1.0764583 1.9540299 -0.34728479 28
1.0867954 1.9719797 -0.27176896 27
1.0766383 1.9527434 -0.19174294 27
1.0723412 1.944147 -0.11397354 26
1.0715448 1.9419014 -0.037666127 26
1.0758705 1.9489366 0.58584327 24
1.0760292 1.9484203 0.50463331 26
1.0747472 1.9452964 0.4241688 22
1.0768259 1.9482555 0.34612048 25
1.0751393 1.9444022 0.26811254 25
1.0817748 1.9555968 0.19217841 28
1.0774627 1.9469992 0.11461575 26
1.074252 1.9403979 0.038046245 25
0.95572543 1.7227564 -0.51763833 4
1.0635159 1.916267 -0.49714214 5
1.0931144 1.9687884 -0.42988822 24
1.0832726 1.9502603 -0.34728479 29
1.0936724 1.9681741 -0.27176896 28
1.0858682 1.9533268 -0.19217871 27
1.079121 1.940392 -0.11397354 26
1.0783168 1.9381492 -0.037666127 25
1.082667 1.9451692 0.58584327 23
1.0851941 1.948909 0.50575721 26
1.0839195 1.9458209 0.42512199 24
1.08362 1.9444848 0.34612048 23
1.0819199 1.9406375 0.26811254 23
1.0910208 1.956159 0.1926142 28
1.0866854 1.9475865 0.11487742 27
1.0834552 1.9410012 0.038133506 24
0.95230252 1.7025493 -0.5124619 4
1.0701985 1.9125431 -0.49714214 5
1.0999801 1.9649606 -0.42988822 25
1.0924866 1.9507759 -0.34806696 26
1.1005359 1.9643445 -0.27176896 27
1.0926801 1.9495245 -0.19217871 25
1.0883297 1.9409686 -0.11423435 27
1.0875213 1.9387335 -0.037752517 25
1.091814 1.9455903 0.58713651 24
1.0919905 1.9451091 0.50575721 26
1.0907052 1.9420255 0.42512199 24
1.0928202 1.9449962 0.3469018 23
1.0911189 1.941175 0.26872188 24
1.0978425 1.9523387 0.1926142 28
1.0934771 1.9437815 0.11487742 26
1.090224 1.9372073 0.038133506 25
0.95112264 1.6865944 -0.50857961 4
1.0768679 1.9087957 -0.49714214 4
1.1068324 1.961109 -0.42988822 23
1.0992895 1.9469504 -0.34806696 27
1.1098267 1.964812 -0.27237827 26
1.1019291 1.9500351 -0.1926145 26
1.0950984 1.9371576 -0.11423435 25
1.0942822 1.9349256 -0.037752517 25
1.0985987 1.9417671 0.58713651 25
1.1011734 1.9455255 0.50688112 26
1.0998958 1.9424773 0.42607516 24
1.0996028 1.9411697 0.3469018 22
1.0978882 1.9373544 0.26872188 25
1.1071072 1.9528276 0.19304997 28
1.1027188 1.944296 0.1151391 26
1.0994465 1.9377382 0.038220771 24
0.96177816 1.6916611 -0.51116782 4
1.0859329 1.9092597 -0.49826688 4
1.1160988 1.9614998 -0.43084142 24
1.1085221 1.9473933 -0.34884915 26
1.1166785 1.9609259 -0.27237827 26
1.1111947 1.9505045 -0.19305027 25
1.104326 1.9376614 -0.11449515 25
1.1035058 1.9354371 -0.03783891 25
1.1077631 1.942116 0.58842975 23
1.1079578 1.9416699 0.50688112 24
1.1091031 1.9428891 0.42702836 23
1.1088212 1.9416078 0.3476831 23
1.1046442 1.9335103 0.26872188 25
1.1139171 1.9489511 0.19304997 29
1.109499 1.9404349 0.1151391 26
1.1062038 1.9338886 0.038220771 24
0.970079 1.6924837 -0.5124619 4
1.0925908 1.9054575 -0.49826688 5
1.1229388 1.957592 -0.43084142 24
1.1177709 1.9477953 -0.34963131 28
1.1235166 1.957016 -0.27237827 25
1.1179965 1.9466139 -0.19305027 24
1.111083 1.9337947 -0.11449515 23
1.110255 1.9315733 -0.03783891 27
1.1145356 1.9382373 0.58842975 23
1.1171582 1.9420137 0.50800502 24
1.1158782 1.9390057 0.42702836 24
1.1155918 1.9377255 0.3476831 22
1.1138637 1.9339433 0.26933125 25
1.1232002 1.949367 0.19348575 27
1.1162657 1.9365501 0.1151391 27
1.1154449 1.9343462 0.038308028 24
0.97810179 1.6934398 -0.51375604 4
1.0985715 1.9020156 -0.49826688 5
1.1290833 1.9540545 -0.43084142 23
1.1238847 1.9442741 -0.34963131 28
1.1321435 1.9577729 -0.27298763 27
1.1266006 1.9474036 -0.19348605 26
1.1196538 1.9346163 -0.11475597 25
1.1188226 1.9324021 -0.037925296 25
1.12304 1.9389057 0.58972305 23
1.1256963 1.9427099 0.50912893 26
1.1244258 1.9397367 0.42798153 24
1.1241512 1.9384836 0.34846443 22
1.1199337 1.9304343 0.26933125 25
1.1293188 1.9458288 0.19348575 27
1.1223439 1.9330338 0.1151391 27
1.1215163 1.9308323 0.038308028 24
0.98614144 1.694361 -0.51505011 4
1.1052041 1.8981693 -0.49826688 5
1.1383677 1.9543424 -0.43179458 23
1.1331511 1.9446061 -0.3504135 27
1.1389706 1.953809 -0.27298763 27
1.1333915 1.9434592 -0.19348605 25
1.1264 1.9306961 -0.11475597 25
1.1280813 1.9328028 -0.038011689 25
1.1298012 1.9349737 0.58972305 23
1.1349282 1.9429758 0.51025283 24
1.1311898 1.9358001 0.42798153 23
1.130911 1.9345477 0.34846443 22
1.1266655 1.9265133 0.26933125 24
1.1386194 1.946174 0.19392152 27
1.1316067 1.9334135 0.11540078 25
1.1282494 1.9269056 0.038308028 25
0.99508542 1.6947268 -0.51634425 4
1.1149521 1.8981125 -0.49939165 5
1.1458633 1.9499571 -0.43179458 23
1.1406094 1.9402407 -0.3504135 26
1.1464642 1.9494213 -0.27298763 28
1.1433712 1.9433858 -0.19392182 25
1.1338052 1.9263569 -0.11475597 25
1.1354944 1.9284569 -0.038011689 25
1.1396739 1.934783 0.59101623 24
1.1423804 1.9386036 0.51025283 24
1.1386145 1.9314423 0.42798153 23
1.1383308 1.930191 0.34846443 21
1.1365762 1.9264472 0.26994058 26
1.1460837 1.9417876 0.19392152 28
1.1390221 1.9290543 0.11540078 26
1.1381825 1.9268639 0.038395293 24
1.0059148 1.6995554 -0.5189324 4
1.1215709 1.894209 -0.49939165 5
1.1551646 1.9501686 -0.43274778 25
1.1498926 1.9404958 -0.35119566 26
1.1557926 1.9496765 -0.27359697 26
1.150148 1.9393828 -0.19392182 25
1.1430701 1.9266815 -0.11501677 26
1.1447705 1.9287806 -0.038098078 24
1.1464206 1.9307929 0.59101623 24
1.1516284 1.9387928 0.51137674 25
1.147857 1.9316757 0.42893475 21
1.147585 1.9304508 0.3492457 23
1.1432937 1.9224681 0.26994058 24
1.1554016 1.9420559 0.19435731 28
1.1483026 1.9293573 0.11566246 26
1.1449072 1.9228758 0.038395293 24
1.0118413 1.6960337 -0.5189324 4
1.1306727 1.8944657 -0.50051636 4
1.1619649 1.9461244 -0.43274778 22
1.1566591 1.93647 -0.35119566 26
1.1625911 1.9456301 -0.27359697 27
1.1569107 1.9353564 -0.19392182 26
1.1497885 1.9226798 -0.11501677 25
1.1514963 1.9247729 -0.038098078 23
1.1556338 1.9309238 0.59230953 23
1.158389 1.934761 0.51137674 25
1.1545928 1.9276572 0.42893475 22
1.1543165 1.9264333 0.3492457 25
1.152549 1.9227221 0.27054995 26
1.1621735 1.9380111 0.19435731 29
1.157599 1.929619 0.11592413 26
1.1516067 1.9188709 0.038395293 25
1.0177554 1.6924914 -0.5189324 4
1.1372788 1.8905075 -0.50051636 5
1.1712818 1.9462619 -0.43370095 22
1.1659589 1.9366517 -0.35197783 25
1.1719362 1.9458114 -0.27420634 26
1.16623 1.9355727 -0.1943576 25
1.1590706 1.9229312 -0.11527758 26
1.1607896 1.925023 -0.038184468 26
1.162367 1.9268782 0.59230953 23
1.1651355 1.9307058 0.51137674 24
1.1638513 1.927817 0.42988792 23
1.1635872 1.9266196 0.35002702 22
1.1618199 1.9229348 0.27115926 23
1.171508 1.9382051 0.19479308 27
1.1643276 1.9255664 0.11592413 26
1.1608852 1.919117 0.038482554 24
1.0208597 1.6849765 -0.51763833 4
1.1432124 1.8869252 -0.50051636 5
1.1799345 1.9467701 -0.43465418 22
1.1720372 1.9329792 -0.35197783 25
1.180617 1.946363 -0.27481568 26
1.172305 1.9318994 -0.1943576 24
1.167697 1.9235485 -0.11553839 24
1.1668314 1.9213667 -0.038184468 24
1.1709223 1.9273446 0.59360272 23
1.1711953 1.9270358 0.51137674 23
1.169902 1.9241511 0.42988792 21
1.1696342 1.9229547 0.35002702 23
1.1678551 1.9192754 0.27115926 25
1.1775911 1.9345152 0.19479308 26
1.1729683 1.9261638 0.11618582 26
1.1669085 1.9154605 0.038482554 24
1.0264417 1.681582 -0.51763833 4
1.1497921 1.8829231 -0.50051636 5
1.1867229 1.9426395 -0.43465418 22
1.1813526 1.93309 -0.35275999 25
1.1874039 1.94223 -0.27481568 26
1.1790415 1.9277955 -0.1943576 28
1.1744043 1.9194608 -0.11553839 23
1.1761408 1.9215456 -0.038270857 27
1.1776428 1.9232455 0.59360272 25
1.1804596 1.9270904 0.51250064 24
1.179176 1.9242406 0.43084112 21
1.1789205 1.9230705 0.35080832 23
1.1771421 1.9194177 0.27176863 26
1.1843367 1.9303929 0.19479308 30
1.1796846 1.9220576 0.11618582 27
1.1762035 1.9156357 0.038569819 24
1.0303589 1.6735156 -0.51634425 4
1.1570134 1.8784944 -0.50051636 5
1.1967481 1.9422473 -0.43560734 27
1.1887665 1.9285398 -0.35275999 26
1.1974577 1.9418807 -0.27542502 27
1.1890501 1.9274932 -0.19479337 26
1.1843883 1.9191866 -0.1157992 25
1.1835103 1.9170154 -0.038270857 28
1.187557 1.9228191 0.59489602 23
1.1878505 1.9225436 0.51250064 23
1.1865557 1.9196988 0.43084112 22
1.1862959 1.9185296 0.35080832 23
1.1845036 1.9148839 0.27176863 27
1.1917402 1.9258311 0.19479308 28
1.1896843 1.9217591 0.11644749 27
1.1835502 1.9111052 0.038569819 21
1.0336478 1.665805 -0.51505011 4
1.166133 1.8785836 -0.50164115 5
1.2035205 1.938058 -0.43560734 23
1.1980971 1.9285735 -0.35354218 25
1.2042288 1.9376889 -0.27542502 25
1.195771 1.923331 -0.19479337 29
1.1910802 1.9150406 -0.1157992 23
1.1928359 1.9171174 -0.03835725 27
1.1942616 1.918662 0.59489602 24
1.1945541 1.9183855 0.51250064 23
1.1932496 1.9155452 0.43084112 24
1.1929857 1.914377 0.35080832 26
1.1938059 1.9149488 0.27237797 27
1.2010912 1.9258859 0.19522887 30
1.1963851 1.9175946 0.11644749 31
1.1902196 1.9069587 0.038569819 28
1.0394562 1.6621867 -0.51505011 4
1.1700995 1.8703712 -0.50051636 4
1.2076744 1.9296844 -0.43465418 25
1.2048218 1.9243796 -0.35354218 28
1.2109853 1.9334736 -0.27542502 27
1.205122 1.9233662 -0.19522917 27
1.1977576 1.9108714 -0.1157992 29
1.1995206 1.9129418 -0.03835725 27
1.2009517 1.9144816 0.59489602 24
1.2038329 1.9183308 0.51362455 23
1.1999288 1.9113684 0.43084112 21
1.2022873 1.9143832 0.35158965 22
1.2004831 1.9107699 0.27237797 25
1.2078063 1.9216815 0.19522887 28
1.2030715 1.9134068 0.11644749 28
1.1995251 1.9070277 0.038657077 24
1.042677 1.6544625 -0.51375604 4
1.1766212 1.8662754 -0.50051636 4
1.2144029 1.9254571 -0.43465418 20
1.2115318 1.9201622 -0.35354218 26
1.2203759 1.9334314 -0.27603436 26
1.2118286 1.9191476 -0.19522917 23
1.207087 1.9109 -0.11606 25
1.2088614 1.9129692 -0.038443636 25
1.2076272 1.9102777 0.59489602 21
1.2105218 1.9141171 0.51362455 21
1.2065934 1.9071681 0.43084112 20
1.2089624 1.9101748 0.35158965 20
1.2071456 1.9065678 0.27237797 24
1.2171723 1.9216619 0.19566463 25
1.2097433 1.9091957 0.11644749 24
1.2061745 1.9028289 0.038657077 19
1.0458565 1.6467358 -0.5124619 4
1.180516 1.858045 -0.49939165 4
1.2184836 1.917064 -0.43370095 15
1.2155771 1.911754 -0.35275999 21
1.2271173 1.9291596 -0.27603436 23
1.2211943 1.9191082 -0.19566494 21
1.21375 1.9066747 -0.11606 21
1.2155315 1.9087379 -0.038443636 22
1.2168831 1.9101243 0.59618932 19
1.2198144 1.9139885 0.51474845 21
1.2158819 1.9070835 0.43179429 21
1.2182783 1.9101068 0.35237095 23
1.2164627 1.9065261 0.27298734 20
1.2238727 1.9174014 0.19566463 28
1.2190875 1.9091696 0.11670918 22
1.2155006 1.9028202 0.038744342 24
1.0515983 1.643075 -0.5124619 3
1.1843674 1.8498098 -0.49826688 4
1.225168 1.9127989 -0.43370095 12
1.2222431 1.9074992 -0.35275999 18
1.236522 1.9290425 -0.27664372 25
1.2305744 1.9190267 -0.19610073 24
1.2230943 1.9066293 -0.11632082 23
1.224887 1.9086907 -0.038530029 27
1.2261524 1.909929 0.5974825 25
1.2291209 1.9138181 0.51587236 28
1.2251847 1.9069571 0.43274748 24
1.2276088 1.9099972 0.35315228 27
1.2257943 1.9064425 0.27359664 27
1.2332529 1.9173068 0.19610043 27
1.2284461 1.9091016 0.11697085 27
1.2248412 1.9027692 0.038831603 25
1.0599451 1.643453 -0.51375604 3
1.1881763 1.8415707 -0.49714214 4
1.2344992 1.9126345 -0.43465418 9
1.2315729 1.9073701 -0.35354218 13
1.2486336 1.9330521 -0.27786243 28
1.2372656 1.9147196 -0.19610073 30
1.2324529 1.9065415 -0.11658162 26
1.2342569 1.9086013 -0.038616419 30
1.2380587 1.9137479 0.60006905 30
1.2384411 1.9136064 0.51699626 32
1.2345011 1.9067889 0.43370065 28
1.236953 1.9098454 0.35393357 29
1.2351402 1.9063171 0.27420601 29
1.2426472 1.9171699 0.1965362 31
1.2378193 1.9089913 0.11723254 29
1.2341962 1.9026765 0.038918864 30
1.0656753 1.6397432 -0.51375604 4
1.1919416 1.8333273 -0.49601737 4
1.2465203 1.9165429 -0.43656054 17
1.2436098 1.9113381 -0.35510653 17
1.2580807 1.9328407 -0.27847174 32
1.2466598 1.9145631 -0.1965365 32
1.2418258 1.9064119 -0.11684243 28
1.243641 1.9084699 -0.038702808 33
1.2473691 1.9134607 0.60136229 31
1.2504358 1.9174336 0.51924407 34
1.2465131 1.9106897 0.43560702 30
1.2490104 1.9137875 0.3554962 28
1.2472131 1.9103049 0.27542472 33
1.2520554 1.9169909 0.19697198 35
1.2472064 1.9088389 0.11749421 33
1.2435654 1.902541 0.039006125 30
1.0713927 1.6360133 -0.51375604 3
1.1983339 1.8291556 -0.49601737 4
1.2585837 1.9203905 -0.43846694 15
1.2556895 1.9152454 -0.35667089 18
1.2675418 1.9325874 -0.27908111 32
1.2560676 1.9143645 -0.19697228 31
1.2539526 1.9104139 -0.11736406 31
1.2530391 1.908296 -0.038789198 32
1.2566924 1.9131318 0.60265553 33
1.2597969 1.9171287 0.52036798 34
1.2558715 1.9104286 0.43656024 32
1.2583967 1.9135423 0.35627753 30
1.2566012 1.9100857 0.27603403 34
1.2614776 1.9167693 0.19740775 36
1.2566077 1.9086441 0.1177559 32
1.2529489 1.9023638 0.03909339 31
1.0770968 1.6322634 -0.51375604 4
1.2047114 1.8249613 -0.49601737 4
1.2679843 1.9200814 -0.43942013 15
1.2678117 1.9190916 -0.35823521 15
1.2742801 1.928151 -0.27908111 32
1.2654893 1.9141231 -0.19740805 34
1.2633681 1.9101899 -0.11762486 32
1.2624513 1.9080799 -0.038875591 32
1.2660285 1.9127611 0.60394883 31
1.269171 1.9167818 0.52149189 34
1.2625325 1.906033 0.43656024 30
1.2677965 1.9132547 0.35705879 29
1.263261 1.9056877 0.27603403 33
1.2709137 1.9165057 0.19784354 35
1.2660227 1.908407 0.11801757 33
1.262346 1.902144 0.039180648 31
1.0801138 1.6244718 -0.5124619 4
1.2110744 1.820745 -0.49601737 4
1.2773979 1.9197299 -0.4403733 15
1.2772392 1.9187652 -0.35901737 15
1.2837534 1.9278218 -0.27969044 32
1.2721632 1.9096941 -0.19740805 32
1.2727972 1.9099234 -0.11788567 31
1.2718769 1.9078208 -0.038961977 33
1.2753773 1.9123482 0.60524201 32
1.2758541 1.9123399 0.52149189 34
1.2719028 1.9056969 0.43751341 30
1.2772095 1.9129249 0.35784012 31
1.2726617 1.9053932 0.2766434 34
1.280363 1.9161991 0.19827931 36
1.2754514 1.9081272 0.11827926 33
1.271757 1.9018818 0.039267913 31
1.0857776 1.6206915 -0.5124619 4
1.2201352 1.8205537 -0.49714214 4
1.2868246 1.9193361 -0.4413265 16
1.2839292 1.9142952 -0.35901737 15
1.290475 1.923329 -0.27969044 31
1.2815975 1.9093776 -0.19784385 33
1.2822398 1.9096142 -0.11814647 31
1.2813164 1.9075195 -0.03904837 34
1.2847389 1.9118936 0.60653532 31
1.2852398 1.911918 0.52261579 34
1.2812864 1.9053186 0.43846661 32
1.2838793 1.908455 0.35784012 29
1.2793051 1.9009392 0.2766434 32
1.2898257 1.9158499 0.19871509 35
1.2848933 1.9078048 0.11854094 33
1.278388 1.897431 0.039267913 32
1.0914283 1.6168917 -0.5124619 4
1.2264826 1.8162835 -0.49714214 4
1.2962639 1.9188998 -0.44227967 16
1.2906035 1.9098017 -0.35901737 15
1.2999603 1.9229239 -0.28029981 33
1.2910448 1.9090182 -0.1982796 32
1.2888979 1.9051268 -0.11814647 32
1.2879671 1.9030353 -0.03904837 31
1.2914048 1.9073974 0.60653532 33
1.2946378 1.9114538 0.5237397 34
1.2906826 1.9048979 0.43941984 30
1.293304 1.9080496 0.35862142 29
1.2887179 1.9005694 0.27725273 33
1.2993015 1.9154581 0.19915086 35
1.2943487 1.9074398 0.11880261 31
1.2878113 1.8970932 0.039355174 31
1.0970657 1.613072 -0.5124619 4
1.2328151 1.8119913 -0.49714214 4
1.305716 1.918421 -0.44323289 15
1.3000414 1.9093671 -0.35979956 14
1.3094583 1.9224764 -0.28090915 33
1.3005055 1.9086162 -0.1987154 32
1.2983525 1.9047419 -0.11840729 32
1.2974185 1.9026582 -0.039134759 32
1.3007767 1.9068677 0.60782856 32
1.3013021 1.9069231 0.5237397 34
1.3000913 1.9044347 0.440373 30
1.3027416 1.907602 0.35940275 29
1.2981439 1.9001575 0.2778621 32
1.3087903 1.9150233 0.19958664 34
1.3009989 1.90291 0.11880261 33
1.2944255 1.8925864 0.039355174 29
1.1026896 1.6092328 -0.5124619 3
1.2391326 1.8076769 -0.49714214 4
1.3124046 1.9138515 -0.44323289 16
1.3066986 1.9048175 -0.35979956 14
1.3189691 1.9219856 -0.28151849 34
1.3099791 1.9081715 -0.19915117 31
1.3049933 1.9001981 -0.11840729 32
1.3040521 1.8981178 -0.039134759 33
1.3074249 1.9023155 0.60782856 31
1.310711 1.9063839 0.5248636 34
1.306731 1.8998848 0.440373 31
1.3093925 1.903043 0.35940275 29
1.3075825 1.8997022 0.27847141 32
1.3154669 1.9104431 0.19958664 35
1.3104659 1.9024692 0.11906429 33
1.3038605 1.8921728 0.039442439 31
1.1083002 1.6053737 -0.5124619 4
1.245435 1.8033406 -0.49714214 4
1.321867 1.9132967 -0.44418606 15
1.3161474 1.9043074 -0.36058176 14
1.3284924 1.9214519 -0.28212786 32
1.3166318 1.9035871 -0.19915117 31
1.3144594 1.8997374 -0.11866809 32
1.3135151 1.8976649 -0.039221149 32
1.316807 1.9017112 0.6091218 31
1.3173575 1.9017972 0.5248636 34
1.3161507 1.8993466 0.4413262 30
1.318841 1.9025196 0.36018407 31
1.3142056 1.8951262 0.27847141 31
1.3249668 1.9099323 0.20002241 34
1.3199457 1.9019854 0.11932597 31
1.3133085 1.8917165 0.039529696 31
1.1136177 1.6016897 -0.5124619 3
1.2510942 1.7994189 -0.49714214 4
1.3306742 1.9131643 -0.44513926 14
1.324944 1.9042168 -0.36136392 14
1.3345222 1.9172689 -0.28212786 32
1.325452 1.9035292 -0.19958696 31
1.3232751 1.8996958 -0.11892891 30
1.3223284 1.8976305 -0.039307538 33
1.3227749 1.897565 0.6091218 32
1.3261125 1.9016452 0.52598751 33
1.3221111 1.8952023 0.4413262 29
1.3276376 1.9024166 0.36096537 29
1.3229939 1.8950576 0.27908078 32
1.3338126 1.909844 0.20045821 34
1.328774 1.9019223 0.11958765 33
1.319245 1.8875813 0.039529696 30
1.1189229 1.597988 -0.5124619 3
1.2573678 1.7950408 -0.49714214 4
1.3373442 1.9085077 -0.44513926 15
1.3315829 1.8995802 -0.36136392 15
1.3440559 1.9166619 -0.2827372 32
1.3320885 1.8988909 -0.19958696 31
1.3298982 1.8950651 -0.11892891 30
1.3289443 1.8930032 -0.039307538 31
1.3321663 1.8968884 0.61041504 31
1.3355432 1.9009913 0.52711141 33
1.3315408 1.8945913 0.44227937 30
1.3371106 1.9018109 0.3617467 29
1.3324556 1.8944871 0.27969012 34
1.3404709 1.9051766 0.20045821 34
1.3382789 1.9013557 0.11984934 31
1.3287041 1.8870527 0.039616961 30
1.1219877 1.5899303 -0.51116782 4
1.2639385 1.7904203 -0.49714214 4
1.3471615 1.9076023 -0.44609243 15
1.3413858 1.8987206 -0.36214611 14
1.3539362 1.9157758 -0.28334656 33
1.3419147 1.8980628 -0.20002273 30
1.3397182 1.8942547 -0.11918971 32
1.3387611 1.8922008 -0.039393932 30
1.3419001 1.8959354 0.61170834 31
1.3425016 1.8960836 0.52711141 32
1.3413129 1.8937038 0.44323257 31
1.3440722 1.8968973 0.3617467 29
1.3393905 1.8895907 0.27969012 32
1.3503259 1.9043139 0.200894 34
1.3481275 1.9005103 0.12011101 33
1.3385047 1.8862469 0.039704222 30
1.1275308 1.5860041 -0.51116782 4
1.2701806 1.7859975 -0.49714214 4
1.3566575 1.9068878 -0.44704565 15
1.3508689 1.8980501 -0.36292824 14
1.3634933 1.9150805 -0.28395587 31
1.3514216 1.8974242 -0.20045851 31
1.3463222 1.8895667 -0.11918971 30
1.3482597 1.8915871 -0.039480317 30
1.3485099 1.8912398 0.61170834 30
1.3519412 1.8953522 0.52823532 33
1.3507658 1.8930054 0.44418573 29
1.3535545 1.8962134 0.362528 28
1.3488622 1.8889426 0.28029948 31
1.3598602 1.9036417 0.20132977 34
1.3547534 1.895793 0.12011101 32
1.3450807 1.8815632 0.039704222 30
1.1330601 1.5820585 -0.51116782 4
1.276407 1.7815528 -0.49714214 4
1.3661649 1.90613 -0.44799879 16
1.3603636 1.8973365 -0.36371043 14
1.3730625 1.9143422 -0.28456524 32
1.3580365 1.8926953 -0.20045851 32
1.3558215 1.8889121 -0.11945052 30
1.3577701 1.8909301 -0.039566711 31
1.357921 1.8904438 0.61300153 30
1.361392 1.8945781 0.52935922 32
1.3573655 1.8882788 0.44418573 29
1.3630488 1.895487 0.36330932 27
1.3583457 1.8882514 0.28090885 32
1.3694065 1.9029263 0.20176555 33
1.3642799 1.8951048 0.1203727 33
1.3545619 1.8809134 0.039791483 30
1.1385756 1.5780939 -0.51116782 4
1.2826182 1.7770865 -0.49714214 4
1.3728101 1.9013495 -0.44799879 15
1.3698698 1.8965796 -0.3644926 14
1.3797365 1.9095378 -0.28456524 31
1.367553 1.8919802 -0.20089431 32
1.3653326 1.8882141 -0.11971132 31
1.3672924 1.8902296 -0.0396531 32
1.3673431 1.8896052 0.61429483 31
1.3679971 1.8898144 0.52935922 32
1.3668274 1.8875048 0.44513896 30
1.3696568 1.8907174 0.36330932 29
1.3649287 1.8834984 0.28090885 31
1.3760405 1.8981345 0.20176555 33
1.3738182 1.8943732 0.12063438 34
1.3640548 1.8802198 0.039878745 31
1.1497563 1.5819235 -0.51375604 3
1.2888135 1.7725985 -0.49714214 4
1.3823259 1.9005153 -0.44895202 16
1.3764819 1.8917863 -0.3644926 14
1.3893139 1.9087222 -0.28517458 30
1.3770809 1.8912218 -0.20133008 31
1.3719153 1.8834367 -0.11971132 30
1.3738821 1.8854454 -0.0396531 30
1.3739308 1.8848207 0.61429483 30
1.3774559 1.8889641 0.53048313 34
1.3734076 1.8827221 0.44513896 28
1.3791595 1.8899142 0.36409062 28
1.374421 1.8827307 0.28151816 31
1.3855954 1.8973423 0.20220132 33
1.3804224 1.8895661 0.12063438 30
1.3735596 1.8794833 0.03996601 28
1.1609774 1.5856941 -0.51634425 3
1.294993 1.7680889 -0.49714214 4
1.3889515 1.8956786 -0.44895202 16
1.3859966 1.8909533 -0.36527479 14
1.3959683 1.903861 -0.28517458 30
1.383674 1.8864033 -0.20133008 31
1.3814353 1.8826621 -0.11997214 28
1.3834136 1.8846682 -0.03973949 30
1.3833601 1.8839061 0.61558807 31
1.3840412 1.8841443 0.53048313 32
1.3828776 1.8818717 0.44609213 29
1.3886732 1.8890675 0.36487195 29
1.3839247 1.8819197 0.28212753 32
1.39221 1.8924942 0.20220132 34
1.3899693 1.8887576 0.12089606 32
1.3830756 1.8787032 0.040053267 29
1.1667814 1.5814282 -0.51634425 3
1.3043576 1.7672503 -0.49826688 4
1.3958901 1.8905749 -0.44895202 15
1.392918 1.8858607 -0.36527479 14
1.4058862 1.9027232 -0.28578395 30
1.3935395 1.8853248 -0.20176587 30
1.391295 1.881601 -0.12023295 30
1.3932849 1.8836044 -0.039825883 31
1.3931289 1.8827059 0.61688131 30
1.3938365 1.882975 0.53160703 31
1.3897657 1.8767906 0.44609213 28
1.3955877 1.883965 0.36487195 28
1.3937677 1.8808219 0.28273687 30
1.4021033 1.8913802 0.20263711 33
1.3998568 1.8876612 0.12115774 30
1.3929307 1.8776366 0.040140532 30
1.1895798 1.6006035 -0.52410877 3
1.3105187 1.7626864 -0.49826688 4
1.4054102 1.8896295 -0.44990519 15
1.4024402 1.884949 -0.36605695 14
1.4154823 1.901785 -0.28639328 31
1.4030867 1.884444 -0.20220163 30
1.4008372 1.8807374 -0.12049376 30
1.4028385 1.8827382 -0.039912272 29
1.3996923 1.8778316 0.61688131 29
1.4004009 1.8780981 0.53160703 31
1.3992431 1.8758625 0.44704533 28
1.4051088 1.8830402 0.36565322 28
1.4003245 1.8759452 0.28273687 31
1.411677 1.8904653 0.20307288 33
1.4094257 1.8867633 0.12141941 32
1.4024745 1.8767636 0.040227797 27
1.1777933 1.573244 -0.51634425 3
1.3166636 1.7581011 -0.49826688 4
1.4119977 1.8847121 -0.44990519 15
1.4119731 1.883994 -0.36683914 14
1.4221121 1.8968326 -0.28639328 31
1.4126447 1.8835196 -0.20263742 30
1.4103903 1.8798302 -0.12075458 30
1.4124027 1.8818283 -0.039998662 30
1.4091383 1.8767965 0.61817455 29
1.409874 1.8770938 0.53273094 31
1.4057827 1.8709667 0.44704533 29
1.4146407 1.8820717 0.36643454 28
1.4098468 1.8750125 0.28334624 31
1.4182674 1.8855262 0.20307288 31
1.416003 1.881832 0.12141941 30
1.4090117 1.8718605 0.040227797 29
1.1832778 1.5691231 -0.51634425 4
1.3227925 1.7534944 -0.49826688 4
1.4215246 1.8836898 -0.45085838 15
1.4215162 1.8829949 -0.36762127 14
1.4317156 1.8958173 -0.28700262 29
1.4222131 1.8825513 -0.20307319 30
1.4199542 1.8788792 -0.12101538 29
1.4219779 1.8808745 -0.040085051 28
1.4185944 1.8757185 0.61946785 29
1.4193572 1.8760464 0.53385484 32
1.4152669 1.8699619 0.44799849 28
1.4241827 1.8810594 0.36721584 29
1.4193795 1.8740357 0.28395554 30
1.4278486 1.884534 0.20350866 34
1.4255793 1.8808571 0.1216811 30
1.4185574 1.8709142 0.040315058 28
1.1682984 1.5380616 -0.50728554 3
1.3289052 1.7488663 -0.49826688 4
1.4310613 1.8826236 -0.45181155 15
1.4280803 1.8780215 -0.36762127 14
1.441329 1.8947579 -0.28761196 30
1.4317923 1.8815395 -0.20350897 29
1.4295284 1.8778841 -0.12127619 31
1.4285346 1.8758994 -0.040085051 29
1.4280602 1.8745973 0.62076104 31
1.4258972 1.8710805 0.53385484 32
1.4247617 1.8689138 0.44895169 29
1.4307401 1.8760766 0.36721584 27
1.4259124 1.8690697 0.28395554 30
1.4374398 1.883498 0.20394443 31
1.4321362 1.8758695 0.1216811 31
1.4250795 1.8659512 0.040315058 28
1.188334 1.5531528 -0.51375604 4
1.3350018 1.7442169 -0.49826688 4
1.4406083 1.8815142 -0.45276478 15
1.4376302 1.8769457 -0.36840346 13
1.4479343 1.8897152 -0.28761196 30
1.4413815 1.8804832 -0.20394474 29
1.439113 1.8768452 -0.12153699 29
1.4381168 1.8748683 -0.040171444 30
1.4345949 1.8696011 0.62076104 29
1.4353863 1.8699566 0.53497875 32
1.4342659 1.8678218 0.44990486 29
1.4402887 1.8749877 0.36799717 27
1.435452 1.8680161 0.28456491 30
1.4470416 1.8824182 0.20438023 34
1.4417192 1.8748171 0.12194277 33
1.4346324 1.8649279 0.040402319 29
1.1996444 1.5566461 -0.51634425 4
1.3381078 1.7356881 -0.49714214 4
1.4501646 1.8803605 -0.45371795 15
1.4441732 1.8719162 -0.36840346 13
1.4575537 1.8885782 -0.28822133 31
1.4509808 1.8793832 -0.20438054 29
1.4456556 1.8718103 -0.12153699 28
1.447709 1.8737928 -0.04025783 30
1.444066 1.8684034 0.62205434 30
1.444885 1.8687891 0.53610265 32
1.4437802 1.8666866 0.45085809 29
1.4468249 1.8699489 0.36799717 26
1.4450015 1.8669186 0.28517425 28
1.4536036 1.8773556 0.20438023 33
1.4513124 1.8737206 0.12220446 31
1.4441955 1.8638605 0.04048958 28
1.2050709 1.5524491 -0.51634425 3
1.3441583 1.7310066 -0.49714214 4
1.4597306 1.8791635 -0.45467114 15
1.4537288 1.8707631 -0.36918563 14
1.467183 1.8873969 -0.28883067 29
1.4605899 1.8782388 -0.20481631 30
1.4552466 1.8706937 -0.12179781 29
1.4573112 1.8726734 -0.040344223 29
1.453546 1.8671625 0.62334752 30
1.4543929 1.8675779 0.53722656 31
1.4533036 1.8655074 0.45181125 27
1.4563789 1.8687822 0.36877847 27
1.4545608 1.8657773 0.28578362 30
1.4632111 1.8761978 0.20481598 33
1.4578441 1.8686433 0.12220446 31
1.4537686 1.862749 0.040576845 29
1.2342805 1.5786712 -0.52669698 3
1.347191 1.7224665 -0.49601737 4
1.4693056 1.8779222 -0.45562431 15
1.46025 1.8656771 -0.36918563 14
1.4737623 1.882264 -0.28883067 30
1.4671371 1.8731289 -0.20481631 30
1.4648472 1.8695329 -0.12205861 30
1.4669231 1.8715096 -0.040430613 29
1.4630351 1.8658781 0.62464082 29
1.4639102 1.8663235 0.53835046 31
1.4598067 1.8604231 0.45181125 28
1.4659429 1.8675721 0.36955979 27
1.4641293 1.8645916 0.28639293 31
1.4728281 1.8749958 0.20525178 32
1.467443 1.867469 0.12246613 30
1.4633515 1.8615934 0.040664103 28
1.2099036 1.5364097 -0.51375604 3
1.3501806 1.7139266 -0.49489263 4
1.4788899 1.876637 -0.45657751 14
1.4698111 1.8644469 -0.36996782 14
1.4833969 1.881005 -0.28944001 26
1.4767518 1.8719069 -0.2052521 29
1.4713643 1.8644084 -0.12205861 28
1.473447 1.8663777 -0.040430613 29
1.4725325 1.86455 0.62593406 29
1.4704159 1.8612021 0.53835046 30
1.4693352 1.8591669 0.45276445 28
1.4755157 1.8663175 0.37034109 27
1.4737077 1.863362 0.2870023 30
1.4824545 1.8737494 0.20568755 29
1.4739527 1.8623353 0.12246613 33
1.476047 1.8643128 0.040838629 27
1.239269 1.562448 -0.52410877 3
1.3531268 1.7053864 -0.49376786 4
1.4884831 1.8753077 -0.45753068 15
1.4793811 1.8631725 -0.37074998 14
1.4930402 1.8797014 -0.29004934 29
1.4863757 1.8706404 -0.20568787 24
1.4778632 1.8592609 -0.12205861 34
1.4830644 1.865136 -0.040517002 26
1.479032 1.8593985 0.62593406 29
1.4799372 1.8598702 0.53947437 28
1.4788729 1.8578669 0.45371762 27
1.4850978 1.865019 0.37112242 25
1.4802032 1.8582065 0.2870023 28
1.4889861 1.8685632 0.20568755 30
1.4835569 1.8610833 0.12272782 35
1.4856627 1.863058 0.04092589 29
nan nan nan 0
1.3742788 1.7196822 -0.49939165 4
1.4980849 1.8739344 -0.4584839 15
1.48896 1.8618538 -0.37153217 13
1.5026928 1.8783536 -0.29065871 26
1.4928963 1.8654405 -0.20568787 28
1.4874648 1.857989 -0.12231942 30
1.4926909 1.8638498 -0.040603392 31
1.4885336 1.8579941 0.62722731 29
1.4894674 1.8584948 0.54059827 29
1.4884192 1.8565228 0.45467082 29
1.4946887 1.8636763 0.37190372 27
1.489786 1.8568991 0.28761163 30
1.4986174 1.867239 0.20612334 29
1.4931703 1.859787 0.12298949 28
1.4952874 1.8617582 0.041013151 23
nan nan nan 0
1.3857813 1.7229489 -0.50164115 4
1.5039645 1.8692187 -0.4584839 16
1.4978983 1.8610139 -0.3723143 13
1.5116988 1.877489 -0.29126805 27
