# .PCD v0.7 - Point Cloud Data file format
VERSION 0.7
FIELDS x y z intensity
SIZE 4 4 4 4
TYPE F F F F
COUNT 1 1 1 1
WIDTH 1351
HEIGHT 1
VIEWPOINT 0 0 0 1 0 0 0
POINTS 1351
DATA ascii
-4.2072048 -6.6835151 0.41188395 15
-4.1681924 -6.6189775 0.13586697 7
-1.0486976 -1.6620853 -0.51634425 2
-1.2114037 -1.9192166 -0.51513821 3
-1.4355407 -2.2734356 -0.51472205 3
-4.1769857 -6.6124487 -1.2327045 14
-4.1906362 -6.6314936 -0.95850343 17
-1.7211978 -2.722666 -0.27846304 4
-1.7231778 -2.724745 -0.16639614 4
-1.7203749 -2.7192624 -0.054944165 3
-2.8204076 -4.4562769 1.4018855 16
-2.9603269 -4.6755447 1.2677648 17
-3.1012135 -4.8961701 1.1180898 14
-1.3209817 -2.0847499 0.38440469 6
-1.3223937 -2.0861726 0.2985799 9
-1.3302122 -2.0976975 0.21396735 6
-4.1930628 -6.6097593 0.40822044 15
-4.1484118 -6.5368514 0.13447079 7
-1.054493 -1.6584145 -0.51634425 2
-1.2180957 -1.9149764 -0.51513821 3
-1.4434676 -2.2684107 -0.51472205 3
-4.1602631 -6.5353389 -1.2209719 15
-4.1684413 -6.5456638 -0.94814456 13
-1.7146336 -2.6914361 -0.27584836 4
-1.7192606 -2.6976597 -0.1650921 4
-1.7191063 -2.6963789 -0.054598603 4
-2.8385427 -4.4504762 1.4031786 18
-2.9792504 -4.6692901 1.2688887 16
-3.1209259 -4.889452 1.1190431 14
-1.3309085 -2.0842881 0.38518599 6
-1.3296676 -2.0815439 0.2985799 9
-1.3402086 -2.0972385 0.21440314 6
-4.1784573 -6.5361857 0.40455693 15
-4.1361895 -6.4675798 0.13333638 7
-1.0576699 -1.6506571 -0.51505011 3
-1.2247727 -1.9107127 -0.51513821 3
-1.451377 -2.2633581 -0.51472205 3
-4.1457191 -6.4625835 -1.2100215 15
-4.1564202 -6.4767766 -0.94022304 13
-1.7374725 -2.706392 -0.27802724 5
-1.7178737 -2.6748364 -0.16404887 4
-1.7122943 -2.6651258 -0.054080263 4
-2.856672 -4.4446039 1.4044719 17
-2.9981661 -4.6629601 1.2700126 17
-3.14063 -4.8826566 1.1199963 14
-1.3408482 -2.0837829 0.38596731 6
-1.3396115 -2.0810626 0.29918921 9
-1.3475212 -2.0925474 0.21440314 6
-4.1606865 -6.4585972 0.40063173 15
-4.1397834 -6.4236875 0.13272555 2
-1.0634253 -1.646955 -0.51505011 3
-1.2340782 -1.9105179 -0.51626295 3
-1.4592687 -2.2582781 -0.51472205 3
-4.1334 -6.3941565 -1.1998533 15
-4.1412745 -6.4038868 -0.93169218 13
-1.7496146 -2.7044926 -0.27846304 5
-1.7136356 -2.6478643 -0.16274482 3
-1.7052852 -2.6339533 -0.053561922 4
-2.8747952 -4.4386592 1.4057652 17
-3.0170734 -4.6565547 1.2711364 17
-3.1603241 -4.8757825 1.1209494 13
-1.3481139 -2.0790896 0.38596731 6
-1.3495684 -2.0805373 0.29979858 9
-1.3575286 -2.0920093 0.21483891 6
-4.1478615 -6.3895884 0.39722988 15
-1.6681144 -2.5686712 0.052793525 36
-1.0691677 -1.6432329 -0.51505011 2
-1.2407397 -1.9061985 -0.51626295 3
-1.4671428 -2.2531707 -0.51472205 3
-4.1179581 -6.3217587 -1.1889029 16
-4.1229615 -6.3270245 -0.92255193 13
-1.7672049 -2.710887 -0.27977037 8
-1.7065028 -2.6167717 -0.16117996 4
-1.6980796 -2.6028628 -0.053043582 4
-2.8929112 -4.432642 1.4070585 17
-3.0359733 -4.6500745 1.2722604 16
-3.1800082 -4.8688307 1.1219026 13
-1.3580644 -2.0785058 0.38674861 7
-1.3568226 -2.0758138 0.29979858 9
-1.3648229 -2.0872579 0.21483891 6
-4.1346068 -6.3207498 0.39382803 16
-1.6715958 -2.5544662 0.052619003 40
-1.0775452 -1.6435298 -0.51634425 3
-1.2500581 -1.9059299 -0.51738775 3
-1.4776914 -2.2521393 -0.51567525 3
-4.1129012 -6.2660599 -1.1810812 15
-4.1177826 -6.2711105 -0.91645849 10
-1.7493101 -2.6630704 -0.27541256 8
-1.7019161 -2.5899346 -0.15987591 4
-1.6906781 -2.5718548 -0.052525241 4
-2.9110198 -4.4265518 1.4083517 17
-3.0521865 -4.6394486 1.2722604 17
-3.1996827 -4.8618011 1.1228558 13
-1.3680271 -2.0778773 0.38752994 6
-1.3667901 -2.0752096 0.30040792 9
-1.374841 -2.0866406 0.21527469 6
-4.1181746 -6.2479129 0.39016455 15
-1.6777505 -2.5444422 0.052531742 41
-1.0832757 -1.6397585 -0.51634425 2
-1.2540171 -1.8974901 -0.51626295 3
-1.4882509 -2.2510622 -0.51662844 3
-4.1156788 -6.2228317 -1.175606 2
-1.7024786 -2.5731406 -0.37413931 3
-1.739351 -2.6278732 -0.27236211 13
-1.6971631 -2.5631618 -0.15857187 4
-1.6886022 -2.5492661 -0.052179679 4
-2.9291215 -4.4203901 1.409645 17
-3.0710547 -4.6328273 1.2733843 16
-3.22206 -4.8587837 1.1247622 13
-1.3752719 -2.0730894 0.38752994 7
-1.3767698 -2.0745611 0.30101728 9
-1.3848712 -2.0859783 0.21571046 6
-4.1095719 -6.187746 0.38728604 15
-1.6755558 -2.5219145 0.052182693 40
-1.0916691 -1.6399876 -0.51763833 3
-1.2606329 -1.8931013 -0.51626295 3
-1.4988207 -2.2499382 -0.51758158 3
-1.7492886 -2.6249325 -0.49355114 9
-1.7499899 -2.6249917 -0.38267016 6
-1.7429861 -2.6134975 -0.27149057 6
-1.6922438 -2.5364537 -0.15726782 4
-1.6836144 -2.5225654 -0.051747728 4
-2.9472156 -4.414155 1.4109381 17
-3.0926194 -4.6301818 1.275632 16
-3.2417269 -4.8515878 1.1257154 13
-1.3852445 -2.072382 0.38831124 7
-1.3867614 -2.0738678 0.30162659 9
-1.3921442 -2.0811315 0.21571046 6
-4.0922694 -6.1152682 0.38362256 15
-1.6676624 -2.4911246 0.051659122 40
-1.0973871 -1.6361668 -0.51763833 3
-1.2645191 -1.8846439 -0.51513821 3
-1.5039299 -2.2406173 -0.51662844 3
-1.7474289 -2.6024106 -0.49042246 4
-1.7508405 -2.6065085 -0.38084212 3
-4.0607104 -6.0429754 -0.63362324 24
-1.6871593 -2.5098116 -0.15596379 4
-1.6812505 -2.5000794 -0.051402166 5
-2.965302 -4.4078484 1.4122314 17
-3.1114833 -4.6234007 1.276756 16
-3.2613838 -4.8443141 1.1266686 13
-1.3952287 -2.0716302 0.38909256 7
-1.3939921 -2.0690145 0.30162659 8
-1.4021842 -2.0803897 0.21614625 6
-4.0856762 -6.0595455 0.38100573 11
-1.6623701 -2.4645655 0.051222809 40
-1.1057959 -1.6363279 -0.5189324 2
-1.27109 -1.8802185 -0.51513821 3
-1.5089922 -2.2312882 -0.51567525 3
-1.7592696 -2.6003854 -0.49120462 2
-1.7515835 -2.5880511 -0.37901407 2
-4.0454769 -5.9751449 -0.62795812 19
-1.6931096 -2.499773 -0.15570298 4
-1.6787503 -2.4776404 -0.051056605 5
-2.9833801 -4.4014683 1.4135246 17
-3.130337 -4.6165438 1.27788 17
-3.2837844 -4.8410244 1.128575 13
-1.4052246 -2.0708337 0.38987383 7
-1.4039932 -2.0682421 0.30223596 9
-1.4122357 -2.0796032 0.21658202 6
nan nan nan 0
-1.656913 -2.4380736 0.050786499 41
-1.1087828 -1.6284659 -0.51763833 2
-1.2749027 -1.8717433 -0.51401347 3
-1.5140078 -2.221951 -0.51472205 3
-4.0463972 -5.9362473 -1.1318042 20
-4.0532546 -5.9440784 -0.87867898 13
-4.0270128 -5.9033799 -0.62185717 15
-1.7018253 -2.4938478 -0.15570298 6
-1.6732953 -2.4511211 -0.050624654 4
-3.0014496 -4.3950162 1.4148179 17
-3.1491814 -4.6096115 1.2790039 16
-3.303432 -4.8335843 1.129528 13
-1.4152319 -2.069993 0.39065516 6
-1.4140058 -2.067425 0.3028453 9
-1.4194863 -2.0746608 0.21658202 5
-1.6686271 -2.4378812 0.15282097 2
-1.6541158 -2.4157755 0.05043745 41
-1.1144605 -1.6245856 -0.51763833 3
-1.2841853 -1.8712988 -0.51513821 3
-1.5189767 -2.212606 -0.51376885 3
-4.0223618 -5.8569527 -1.1192895 13
-4.040256 -5.8808084 -0.87136674 13
-4.0137396 -5.8400283 -0.61662781 15
-1.713349 -2.4920065 -0.15596379 6
-1.6676759 -2.4246702 -0.050192706 4
-3.0195105 -4.3884912 1.4161112 17
-3.168015 -4.6026039 1.2801276 17
-3.3230679 -4.826067 1.1304814 13
-1.4252503 -2.0691071 0.39143646 7
-1.4212137 -2.0624764 0.3028453 9
-1.4295466 -2.0737944 0.2170178 6
nan nan nan 0
-1.6483444 -2.3894117 0.050001144 41
-1.1201245 -1.6206855 -0.51763833 2
-1.2907096 -1.8668047 -0.51513821 3
-1.5266908 -2.2072904 -0.51376885 3
-4.0203028 -5.8103876 -1.1130321 13
-4.0296903 -5.8217831 -0.86466396 14
-4.0029097 -5.7809362 -0.61183429 14
-1.7220372 -2.4860106 -0.15596379 7
-1.6647398 -2.4023976 -0.049847145 5
-3.040314 -4.3858628 1.4186976 17
-3.1868379 -4.5955205 1.2812517 17
-3.3426914 -4.8184705 1.1314346 13
-1.43528 -2.068177 0.39221779 8
-1.4312346 -2.0615797 0.30345467 9
-1.4396181 -2.0728829 0.21745357 6
-1.6685123 -2.4015691 0.1512509 3
-1.6424093 -2.3631175 0.049564831 42
-1.1230152 -1.6128021 -0.51634425 2
-1.2972181 -1.862288 -0.51513821 3
-1.5371926 -2.2059748 -0.51472205 3
-4.0094953 -5.7517548 -1.1044283 14
-4.0130849 -5.7547626 -0.85674244 14
-3.9888663 -5.7179065 -0.60660493 15
-1.7449923 -2.5004578 -0.15726782 8
-1.6616688 -2.3801756 -0.049501583 5
-3.0583708 -4.3791838 1.4199909 18
-3.2084408 -4.5923567 1.2834995 17
-3.3623025 -4.8107963 1.1323878 13
-1.4453202 -2.0672016 0.39299908 7
-1.4384222 -2.056571 0.30345467 9
-1.4468451 -2.0678449 0.21745357 5
-1.6597056 -2.3711865 0.14968082 3
-1.6391784 -2.3409896 0.049215782 42
-1.1286381 -1.6088723 -0.51634425 2
-1.3037108 -1.8577486 -0.51513821 3
-1.5477037 -2.2046127 -0.51567525 3
-3.9954901 -5.6892281 -1.0950422 14
-4.0017662 -5.6960511 -0.8500396 14
-3.9801605 -5.6631956 -0.60224712 14
-1.7479661 -2.486182 -0.15674621 7
-1.6584628 -2.3580041 -0.049156025 5
-3.0764174 -4.3724318 1.4212842 17
-3.2272553 -4.585113 1.2846233 17
-3.3847265 -4.8070569 1.134294 13
-1.4553713 -2.0661814 0.39378041 7
-1.4484507 -2.0555942 0.30406398 9
-1.4569242 -2.0668533 0.21788937 6
-1.6564627 -2.349056 0.14863411 3
-1.6358132 -2.3189132 0.048866734 42
-1.133967 -1.6051208 -0.51634425 3
-1.3123515 -1.8576225 -0.51626295 3
-1.5574549 -2.203748 -0.51662844 3
-3.9819832 -5.6322908 -1.0864382 14
-3.9881194 -5.6388812 -0.84333682 14
-3.9662864 -5.6059361 -0.59745353 15
-4.0115595 -5.6678262 -0.36069885 21
-1.6571959 -2.3405418 -0.048896853 5
-3.0929303 -4.3666863 1.4225775 17
-3.2444611 -4.578927 1.2857472 17
-3.4026501 -4.8004036 1.1352472 13
-1.4675684 -2.0696561 0.39534304 6
-1.4549015 -2.0510337 0.30406398 9
-1.4662926 -2.0663278 0.21832512 6
-1.6580535 -2.3356972 0.14811075 3
-1.6315118 -2.2974584 0.048517689 42
-1.1392837 -1.6013516 -0.51634425 2
-1.3188279 -1.8530302 -0.51626295 3
-1.5651379 -2.198298 -0.51662844 3
-3.9758344 -5.5821543 -1.0793986 7
-3.9789805 -5.5845089 -0.83724332 8
-3.9598112 -5.555552 -0.59353155 4
-3.9878361 -5.5928054 -0.3567867 26
-1.6537435 -2.3184631 -0.048551291 5
-3.1137648 -4.3637266 1.425164 17
-3.2660856 -4.5755048 1.2879951 16
-3.4250906 -4.7964859 1.1371536 13
-1.4719132 -2.0605021 0.39456171 5
-1.4649376 -2.0499804 0.30467334 9
-1.4792899 -2.0693009 0.21919669 6
-1.651674 -2.309588 0.14680235 3
-1.6278867 -2.275486 0.048168641 42
-1.1451452 -1.5971651 -0.51634425 3
-1.3227713 -1.8442254 -0.51513821 3
-1.5731846 -2.1925468 -0.51662844 3
-1.6378067 -2.2817695 -0.43879902 3
-1.6490471 -2.2965834 -0.34245324 2
-1.6757704 -2.3329408 -0.24795848 8
-3.9820845 -5.5416574 -0.35443944 6
-1.6593119 -2.3083267 -0.048464898 14
-3.1325579 -4.3562064 1.4264572 17
-3.2856791 -4.5674582 1.2891189 17
-3.4455144 -4.7878838 1.1381068 13
-1.4794555 -2.0550935 0.39456171 4
-1.4753412 -2.0486243 0.30528268 9
-1.489776 -2.0679069 0.21963248 6
-1.6484505 -2.2873156 0.14575563 3
-1.6245214 -2.2532833 0.047819592 42
-1.1507133 -1.5931581 -0.51634425 2
-1.3292009 -1.8395969 -0.51513821 3
-1.5779531 -2.183064 -0.51567525 3
-1.7036351 -2.356076 -0.4544425 7
-1.7064999 -2.3591707 -0.35281214 7
-1.6868236 -2.3311121 -0.24839425 7
-1.6269017 -2.2474768 -0.14292334 3
-1.658563 -2.2903736 -0.04820573 12
-3.150578 -4.3491564 1.4277505 17
-3.3044615 -4.5599065 1.2902428 16
-3.467968 -4.7837763 1.1400132 13
-1.4866201 -2.0499167 0.39456171 4
-1.4883118 -2.051496 0.30650139 8
-1.4999108 -2.0667253 0.22006825 6
-1.6476243 -2.2694261 0.1449706 3
-1.6206256 -2.2314191 0.047470544 42
-1.159109 -1.5930369 -0.51763833 3
-1.3356141 -1.8349458 -0.51513821 3
-1.5855639 -2.1775427 -0.51567525 3
-1.703126 -2.3381393 -0.45209596 3
-1.7118018 -2.3491886 -0.35220277 4
-1.6802802 -2.3050845 -0.24621536 3
-1.6906344 -2.3184385 -0.14787871 10
-1.6753865 -2.2966866 -0.048464898 9
-3.1714342 -4.3459349 1.430337 17
-3.3261034 -4.5562143 1.2924907 17
-3.4875398 -4.7756047 1.1409663 13
-3.6932878 -5.0554891 0.984451 15
-1.498392 -2.0502951 0.30711073 9
-1.5100557 -2.0654979 0.22050403 6
-1.6437458 -2.2475398 0.14392388 3
-1.6195492 -2.213644 0.047208756 42
-1.1646626 -1.5889812 -0.51763833 3
-1.3420112 -1.8302726 -0.51513821 3
-1.5902522 -2.1680369 -0.51472205 3
-3.9374888 -5.3661289 -1.0481118 19
-3.9400654 -5.3676758 -0.81286943 18
-3.9229765 -5.3424401 -0.57653612 22
-1.6987169 -2.3125229 -0.14787871 4
-1.6893139 -2.2988815 -0.048637681 13
-3.189446 -4.3387294 1.4316303 17
-3.3448739 -4.548501 1.2936145 17
-3.5100057 -4.7713094 1.1428728 13
-1.4774776 -2.0076678 0.38831124 2
-1.5084819 -2.0490487 0.30772007 9
-1.5172564 -2.0602143 0.22050403 6
-1.6397346 -2.2257082 0.14287716 3
-1.6154027 -2.19188 0.046859708 42
-1.1673335 -1.5810207 -0.51634425 2
-1.3483919 -1.8255768 -0.51513821 3
-1.5978104 -2.1624725 -0.51472205 3
-3.9209716 -5.3046961 -1.0387257 14
-3.9292724 -5.3139858 -0.80677599 14
-3.9149425 -5.2926731 -0.57261407 16
-3.9402673 -5.3249664 -0.34400707 26
-1.6973282 -2.2929707 -0.048637681 9
-3.2074456 -4.3314514 1.4329234 17
-3.3665309 -4.5446272 1.2958624 17
-3.5295622 -4.7629719 1.143826 13
-3.7284913 -5.029582 0.984451 16
-1.5185814 -2.0477571 0.30832943 9
-1.5274062 -2.0589056 0.2209398 6
-1.6355914 -2.2039325 0.14183044 3
-1.614104 -2.1741858 0.04659792 41
-1.1728452 -1.5769364 -0.51634425 3
-1.3547561 -1.820859 -0.51513821 3
-1.6024184 -2.1529446 -0.51376885 3
-3.9099717 -5.2513661 -1.0309039 15
-3.918153 -5.2604375 -0.80068249 14
-3.9006569 -5.2350397 -0.56782055 16
-3.9200385 -5.2591352 -0.34061655 17
-3.9197106 -5.2567811 -0.11265282 21
-3.2254336 -4.324101 1.4342167 17
-3.3852878 -4.5367532 1.2969863 17
-3.5520384 -4.7584891 1.1457323 12
-3.7460251 -5.0165367 0.984451 14
-1.52869 -2.0464194 0.30893877 9
-1.5375655 -2.0575516 0.22137558 6
-1.6313161 -2.1822131 0.14078373 3
-1.6127017 -2.1565275 0.046336137 42
-1.1754467 -1.5689675 -0.51505011 2
-1.3611038 -1.8161188 -0.51513821 3
-1.6099238 -2.1473382 -0.51376885 3
-3.895685 -5.1942277 -1.0223 15
-3.9067082 -5.2070317 -0.79458904 14
-3.8890066 -5.1815548 -0.56346273 16
-3.9083922 -5.2054906 -0.33800846 12
-3.9080131 -5.2030935 -0.11178891 23
-3.2434092 -4.3166766 1.4355099 17
-3.4069581 -4.5326972 1.299234 17
-3.5715768 -4.7499843 1.1466855 13
-3.7724192 -5.0152702 0.98679501 16
-1.538808 -2.0450366 0.30954811 9
-1.5447383 -2.0521719 0.22137558 6
-1.626909 -2.1605504 0.139737 3
-1.6111957 -2.1389058 0.046074349 44
-1.1809163 -1.5648549 -0.51505011 2
-1.367435 -1.8113567 -0.51513821 3
-1.6174097 -2.1417053 -0.51376885 3
-3.8899775 -5.1490741 -1.0160427 15
-3.8979309 -5.1577301 -0.78910488 14
-3.883039 -5.1361613 -0.55997652 16
-3.9024434 -5.1599555 -0.335922 13
-3.8899558 -5.1415792 -0.11075223 14
-3.2642868 -4.3130312 1.4380965 17
-3.4257002 -4.524662 1.3003581 17
-3.5940623 -4.7453136 1.148592 13
-3.7928855 -5.0060077 0.98757625 19
-1.5489348 -2.0436075 0.31015745 9
-1.5549018 -2.0507364 0.22181135 6
-1.6223711 -2.1389451 0.13869028 3
-1.6246957 -2.1412337 0.046248872 48
-1.1863714 -1.5607232 -0.51505011 3
-1.3737494 -1.8065724 -0.51513821 3
-1.6219041 -2.1321399 -0.51281571 3
-3.8780212 -5.0961642 -1.0082209 15
-3.8888569 -5.1085534 -0.78362077 14
-3.8737845 -5.0869112 -0.55605447 16
-3.893199 -5.1105547 -0.33357471 12
-3.8806081 -5.0921826 -0.10997472 15
-3.2822506 -4.3054514 1.4393898 17
-3.4444277 -4.5165505 1.301482 17
-3.6135819 -4.7366414 1.1495451 14
-3.8133326 -4.9966636 0.98835754 13
-1.556059 -2.0381882 0.31015745 9
-1.565074 -2.0492549 0.22224714 6
-1.6177021 -2.1173983 0.13764356 3
-1.6382316 -2.1434932 0.046423398 47
-1.1947483 -1.5604072 -0.51634425 3
-1.3800472 -1.8017662 -0.51513821 3
-1.6293368 -2.1264656 -0.51281571 3
-3.8687484 -5.0473213 -1.0011814 15
-3.879488 -5.0595031 -0.77813661 14
-3.864234 -5.0377884 -0.55213249 16
-3.8866968 -5.0652428 -0.33148825 13
-3.8709629 -5.0429149 -0.10919721 15
-3.3002009 -4.2977986 1.4406829 17
-3.4661083 -4.5122266 1.3037297 17
-3.6360753 -4.7317824 1.1514515 14
-3.8307512 -4.9833221 0.98835754 13
-1.5661893 -2.0366781 0.31076682 9
-1.5752546 -2.0477271 0.22268291 6
-1.615948 -2.0998673 0.13685852 3
-1.6487534 -2.1417232 0.046510659 48
-1.2031373 -1.5600516 -0.51763833 3
-1.386328 -1.7969378 -0.51513821 2
-1.6397485 -2.1246507 -0.51376885 3
-3.8591821 -4.9986053 -0.99414188 15
-3.8698239 -5.0105815 -0.77265245 14
-3.8543878 -4.9887948 -0.5482105 16
-3.8707664 -5.0081868 -0.32861933 13
-3.8579636 -4.9898224 -0.10833331 14
-3.3181379 -4.2900734 1.4419762 17
-3.4848192 -4.5039535 1.3048536 17
-3.6585782 -4.7268243 1.1533579 13
nan nan nan 0
-1.576328 -2.0351222 0.31137615 9
-1.5854439 -2.0461533 0.22311871 6
-1.6140912 -2.0823746 0.13607349 3
-1.6684728 -2.1517577 0.046859708 55
-1.2115383 -1.5596564 -0.5189324 3
-1.3896027 -1.7882406 -0.51401347 2
-1.6501672 -2.1227891 -0.51472205 4
-3.8432593 -4.9422207 -0.98553789 15
-3.8629131 -4.9657059 -0.76777768 14
-3.8411877 -4.9360003 -0.54385269 16
-3.8667536 -4.9670644 -0.32679367 13
-3.8507848 -4.9447708 -0.10764219 14
-3.3360608 -4.2822747 1.4432695 17
-3.5065093 -4.4994478 1.3071015 17
-3.6780739 -4.7178955 1.1543111 13
-1.5906637 -2.039623 0.40315613 2
-1.5864751 -2.0335205 0.31198549 10
-1.5987056 -2.0484602 0.22399026 7
-1.6121321 -2.0649207 0.13528845 3
-1.6728964 -2.1419806 0.046772443 58
-1.211023 -1.5478104 -0.51634425 3
-1.3928337 -1.7795428 -0.51288873 2
-1.6484895 -2.105422 -0.51186246 4
-3.8422167 -4.9054489 -0.98084491 14
-3.8526759 -4.9170341 -0.76229358 14
-3.8338122 -4.8912005 -0.54036641 14
-3.8625014 -4.9260311 -0.32496801 12
-3.8340824 -4.8880296 -0.10669189 15
-3.3539701 -4.2744036 1.4445628 17
-3.525202 -4.4910126 1.3082253 17
-3.7005827 -4.712749 1.1562175 12
nan nan nan 0
-1.5935638 -2.0279701 0.31198549 13
-1.6120028 -2.050699 0.22486182 10
-1.6100708 -2.0475054 0.13450339 3
-1.6618178 -2.1125526 0.046248872 44
-1.2373439 -1.5701269 -0.5254029 2
-1.4050692 -1.7823219 -0.51513821 3
-1.6436713 -2.084239 -0.50804973 4
nan nan nan 0
-3.8513694 -4.8801818 -0.75863749 3
nan nan nan 0
nan nan nan 0
-3.8201303 -4.8353891 -0.10582799 7
-3.3748593 -4.2702484 1.4471493 18
-3.5469003 -4.4863238 1.3104732 17
-3.7230999 -4.7075024 1.1581237 12
-1.5987356 -2.0207224 0.40159351 4
-1.5975529 -2.0185037 0.31137615 10
-1.625335 -2.0528698 0.22573337 7
-1.6079078 -2.0301301 0.13371836 3
-1.6195086 -2.0440445 0.044852681 44
-1.2037838 -1.516621 -0.50857961 3
-1.4143115 -1.7812217 -0.51626295 2
-1.6326197 -2.0554283 -0.5023306 7
nan nan nan 0
-1.6264813 -2.0462332 -0.31625131 5
-1.6141307 -2.0299678 -0.22355483 8
nan nan nan 0
nan nan nan 0
-3.3927529 -4.2622209 1.4484425 17
-3.5655739 -4.4777269 1.3115971 17
-3.745626 -4.7021556 1.1600302 14
-1.599624 -2.0074048 0.40003088 5
-1.6014957 -2.0090342 0.31076682 6
-1.6169635 -2.0277121 0.22355449 4
-1.6149844 -2.0245051 0.13371836 5
-1.5923333 -1.9953958 0.043892797 48
-1.2633538 -1.5803123 -0.5318734 2
-1.4296489 -1.7876886 -0.51963723 2
-1.6428508 -2.0535495 -0.50328374 7
-1.6284668 -2.0348418 -0.40672994 7
-1.6398171 -2.0482914 -0.31747001 6
-1.618093 -2.0204329 -0.22311905 7
-1.6161137 -2.0172398 -0.13301259 11
-1.6277781 -2.0310726 -0.044318173 11
-3.4136522 -4.2578883 1.4510289 17
-3.5842307 -4.4690542 1.3127209 17
-3.7712314 -4.7005377 1.1628897 14
-1.6066215 -2.0018089 0.40003088 6
-1.6022849 -1.9956923 0.30954811 7
-1.6146746 -2.0104051 0.22224714 5
-1.6251688 -2.022748 0.13398004 6
-1.5773659 -1.962549 0.043281965 47
nan nan nan 0
-1.4389365 -1.7864815 -0.52076203 2
-1.6469293 -2.0439804 -0.5023306 6
-1.6293615 -2.021455 -0.40516558 4
-1.6563021 -2.0541449 -0.31929803 4
-1.6251358 -2.0147727 -0.22311905 4
-1.6450942 -2.0387878 -0.13483825 7
-1.6379979 -2.0292683 -0.044404563 7
-3.4315286 -4.2497044 1.4523222 17
-3.60287 -4.4603057 1.3138448 17
-3.793786 -4.6949806 1.1647961 16
-1.616704 -2.0000296 0.40081221 5
-1.6092414 -1.990087 0.30954811 8
-1.6122844 -1.9931387 0.2209398 5
-1.6385015 -2.0248258 0.13450339 9
-1.6062249 -1.9842308 0.043892797 42
nan nan nan 0
-1.426748 -1.7587467 -0.51401347 2
-1.6757042 -2.0648975 -0.50900286 5
-3.8027413 -4.6842818 -0.94955796 21
-1.6259201 -2.0021219 -0.31198588 2
-3.7898228 -4.6650395 -0.5224995 22
-1.6490517 -2.0291579 -0.13457744 3
-1.6135354 -1.9847473 -0.04354066 3
-3.4524372 -4.2451944 1.4549088 16
-3.6214921 -4.4514813 1.3149688 16
-3.8039551 -4.6740952 1.1628897 16
-1.6205574 -1.990544 0.40003088 5
-1.6193122 -1.9883056 0.31015745 8
-1.6349624 -2.0068069 0.22311871 5
-1.6518683 -2.0268352 0.13502677 10
-3.7896848 -4.6482692 0.10401634 18
nan nan nan 0
-1.435961 -1.7575287 -0.51513821 2
-1.6953267 -2.0742373 -0.51281571 4
-3.7878106 -4.6327477 -0.94173628 16
-3.8008497 -4.6470394 -0.73243558 15
-3.7840044 -4.6247969 -0.51944906 16
-3.803525 -4.6470003 -0.31166676 27
-3.7899215 -4.6287313 -0.10271794 19
-3.4702947 -4.2368541 1.4562019 17
-3.6431839 -4.4463496 1.3172165 17
-3.7953558 -4.6304202 1.1552643 11
-1.6337585 -1.9925129 0.40159351 4
-1.6325374 -1.9903151 0.31137615 7
-1.6419576 -2.0010874 0.22311871 5
-1.6589334 -2.0210567 0.13502677 10
-3.7805068 -4.6041031 0.10331824 29
nan nan nan 0
nan nan nan 0
-1.7150346 -2.0834653 -0.51662844 4
-3.7788444 -4.5889988 -0.93547887 16
-3.7886493 -4.5992699 -0.72695142 15
-3.7747838 -4.5808082 -0.51596278 16
-3.7911384 -4.5990195 -0.30931947 18
-3.7710693 -4.5730467 -0.10176765 14
-3.4881363 -4.2284403 1.4574952 17
-3.6617837 -4.4373636 1.3183404 17
-3.7864981 -4.5868616 1.1476387 11
-1.6344144 -1.9791819 0.40003088 4
-1.6331536 -1.9769522 0.31015745 8
nan nan nan 0
-1.6659781 -2.0152538 0.13502677 12
-3.7678819 -4.5562062 0.10253289 32
nan nan nan 0
nan nan nan 0
-1.7191641 -2.0736873 -0.51567525 4
-3.7696202 -4.5453701 -0.92922151 16
-3.7824998 -4.5592809 -0.72268599 15
-3.7653027 -4.5369401 -0.51247656 16
-3.7720847 -4.5434985 -0.30645058 12
-3.7742333 -4.5444722 -0.10142209 13
-3.509048 -4.2236686 1.4600818 16
-3.6834788 -4.4320483 1.3205884 17
-3.7805207 -4.5471964 1.1409663 11
nan nan nan 0
-1.6463926 -1.9788693 0.31137615 8
-1.6622607 -1.9972327 0.22399026 4
-3.8135333 -4.5803957 0.31035221 15
-3.7581675 -4.5122943 0.10183479 31
-1.283796 -1.5386745 -0.52669698 2
nan nan nan 0
-1.7232463 -2.063906 -0.51472205 4
-3.7601373 -4.501862 -0.92296416 17
-3.7729356 -4.515583 -0.71781123 15
-3.7587562 -4.4970169 -0.50942612 16
-3.7719069 -4.5111504 -0.30514655 12
-3.7515843 -4.4852538 -0.10038541 14
-3.5268698 -4.2150984 1.4613751 17
-3.7020543 -4.4228992 1.3217121 17
-3.771162 -4.5038667 1.1333408 10
nan nan nan 0
-1.6596648 -1.9807183 0.31259486 3
-3.793829 -4.5261202 0.51334733 24
-3.7877922 -4.5173168 0.30695036 17
-3.7514064 -4.4723372 0.10122395 33
-1.223912 -1.4565353 -0.49952096 3
-1.4509554 -1.7261201 -0.51176393 2
-1.7272813 -2.0541215 -0.51376885 4
-3.7535758 -4.462255 -0.91748887 16
-3.7631128 -4.4720082 -0.71293646 15
-3.7487693 -4.4533844 -0.50593984 17
-3.7619009 -4.4674015 -0.30306005 13
-3.7511134 -4.4530134 -0.099953458 14
-3.5477862 -4.2101483 1.4639615 17
-3.7206109 -4.4136753 1.322836 19
-3.7647114 -4.4644098 1.1266686 11
-3.7535372 -4.4495826 0.91491443 16
-3.7725539 -4.470542 0.71354496 29
-3.7710488 -4.4671769 0.50811797 24
-3.7681007 -4.4621038 0.3040719 16
-3.7411857 -4.4286633 0.10052586 32
-1.253948 -1.4817476 -0.50987375 2
nan nan nan 0
-1.731269 -2.0443339 -0.51281571 3
-3.7435915 -4.4189806 -0.91123152 12
-3.7562406 -4.432343 -0.70867103 15
-3.7417448 -4.4136758 -0.50288939 17
-3.7548654 -4.4275856 -0.30123442 12
-3.7407618 -4.4093952 -0.099262334 15
-3.5655859 -4.2014208 1.4652548 17
-3.7454543 -4.4118037 1.3262079 22
-3.7580314 -4.4250526 1.1199963 11
-3.7402685 -4.4025793 0.90788263 17
-3.7656391 -4.4308748 0.70927954 22
-3.7608092 -4.4236269 0.50463176 16
-3.7577746 -4.4184947 0.30197847 16
-3.7339458 -4.3889236 0.09991502 32
nan nan nan 0
-1.4528931 -1.7053339 -0.50838971 2
-1.734499 -2.0351493 -0.51186246 3
-3.7350278 -4.3808918 -0.90575629 12
-3.7443833 -4.3903127 -0.70379627 14
-3.7297289 -4.3715849 -0.49940318 16
-3.7460661 -4.3891816 -0.29940873 13
-3.7318735 -4.371007 -0.098657608 14
-3.5850408 -4.1975436 1.4678413 16
-3.7592959 -4.4000154 1.3262079 23
-3.7464027 -4.3833756 1.1123707 10
-3.731616 -4.364532 0.90241349 13
-3.7569611 -4.3926234 0.70501411 14
-3.7487824 -4.3815122 0.50114554 15
-3.7456632 -4.3763204 0.29988503 17
-3.7217045 -4.3467913 0.099216923 34
-1.301479 -1.5173894 -0.5254029 2
-1.4683541 -1.7113441 -0.51176393 2
-1.7415924 -2.0290825 -0.51186246 3
-3.7277777 -4.3415999 -0.90028101 13
-3.7370505 -4.350863 -0.69953078 16
-3.7189975 -4.3283157 -0.49591696 17
-3.7385814 -4.3495722 -0.29758307 12
-3.7242928 -4.331419 -0.098052874 13
-3.6028204 -4.1886659 1.4691346 17
-3.7492099 -4.3573203 1.3172165 11
-3.7392666 -4.3442307 1.1056983 11
-3.7242713 -4.3252826 0.89694422 13
-3.7431216 -4.3456407 0.69953001 13
-3.7412941 -4.3419857 0.49809507 15
-3.7380967 -4.3367443 0.29805323 12
-3.7140028 -4.3072715 0.098606095 30
nan nan nan 0
-1.4621681 -1.6909527 -0.50726491 2
-1.7493708 -2.0223801 -0.51186246 3
-3.7218006 -4.3011131 -0.89480585 13
-3.730993 -4.310216 -0.69526541 16
-3.7095046 -4.2838802 -0.49243072 13
-3.7323699 -4.3087664 -0.29575741 13
-3.7179797 -4.2906399 -0.09744814 13
-3.6252046 -4.1821003 1.4717211 17
-3.7403784 -4.3134456 1.3082253 11
-3.7301896 -4.3001795 1.0980729 11
-3.7181947 -4.2848406 0.89147508 13
-3.7370076 -4.3050022 0.69526458 14
-3.7350774 -4.3012624 0.49504462 16
-3.7285252 -4.2922034 0.2959598 12
-3.7075598 -4.2665639 0.097995251 33
-1.2745141 -1.4640954 -0.50987375 3
-1.4872582 -1.7078826 -0.51401347 2
-1.7564195 -2.0162616 -0.51186246 3
-3.7140806 -4.2620335 -0.88933069 12
-3.7231884 -4.2709799 -0.69099998 16
-3.7015193 -4.244627 -0.48938024 12
-3.7244108 -4.2693725 -0.29393175 13
-3.7099247 -4.2512689 -0.096843414 13
-3.6429567 -4.173059 1.4730142 17
-3.7329798 -4.2746754 1.3003581 10
-3.722573 -4.2612572 1.0914006 11
-3.7103806 -4.2458048 0.88600594 13
-3.7258818 -4.2620411 0.69038981 14
-3.7271163 -4.2619519 0.49199417 16
-3.7204716 -4.2528553 0.29412806 12
-3.6993892 -4.2272573 0.097384423 33
-1.3082709 -1.4923226 -0.52152056 2
-1.4835743 -1.6916924 -0.51063919 2
-1.7634469 -2.0101182 -0.51186246 3
-3.7061334 -4.2230606 -0.88385546 12
-3.7151554 -4.2318516 -0.6867345 16
-3.6900189 -4.2017398 -0.48589399 12
-3.7162225 -4.2300878 -0.29210609 12
-3.7016408 -4.2120066 -0.09623868 13
-3.6638794 -4.167572 1.4756008 17
-3.7221386 -4.2323503 1.2913668 10
-3.7147307 -4.2224407 1.0847284 11
-3.7023399 -4.2068753 0.88053674 13
-3.7177813 -4.2229352 0.68612432 14
-3.7189262 -4.2227497 0.4889437 16
-3.7121894 -4.2136168 0.29229632 12
-3.6942852 -4.1918187 0.096860848 33
-1.3166685 -1.4913672 -0.52281469 3
-1.4926951 -1.6901548 -0.51176393 2
-1.7704527 -2.0039501 -0.51186246 2
-3.6979592 -4.1841955 -0.87838024 12
-3.7068951 -4.1928315 -0.68246907 16
-3.6815646 -4.1627159 -0.48284358 12
-3.7078056 -4.1909122 -0.29028043 13
-3.6931281 -4.1728544 -0.095633946 14
-3.684808 -4.1619897 1.4781872 19
-3.7142782 -4.1938014 1.2834995 10
-3.7066627 -4.1837311 1.078056 10
-3.6940725 -4.1680546 0.87506759 12
-3.7094533 -4.183938 0.68185896 14
-3.7105086 -4.1836567 0.48589325 16
-3.7036786 -4.1744881 0.29046455 12
-3.6856656 -4.1527252 0.096250013 33
-1.289776 -1.4506686 -0.50987375 3
-1.4985858 -1.684934 -0.51176393 2
-1.7806996 -2.001425 -0.51281571 3
-3.6928425 -4.149128 -0.87368721 12
-3.6984079 -4.1539211 -0.6782037 16
-3.6728828 -4.1238027 -0.47979313 12
-3.6958392 -4.1481194 -0.28819397 13
-3.6843872 -4.1338134 -0.09502922 14
-3.6993136 -4.1491022 1.4781872 26
-3.7061937 -4.1553583 1.275632 10
-3.6983702 -4.1451302 1.0713836 11
-3.688868 -4.1330276 0.87037969 13
-3.7008989 -4.145051 0.67759353 14
-3.7018633 -4.1446748 0.48284283 16
-3.6949399 -4.1354699 0.28863278 12
-3.6768186 -4.1137428 0.095639184 34
-1.3109399 -1.4641483 -0.51634425 3
-1.5044582 -1.6796927 -0.51176393 2
-1.7876751 -1.9951971 -0.51281571 3
-3.6842301 -4.1104698 -0.86821198 13
-3.6930072 -4.1188154 -0.67454755 16
-3.6639743 -4.0850005 -0.47674263 13
-3.6869535 -4.1091771 -0.28636828 13
-3.6787586 -4.0986042 -0.094510876 14
-3.7040937 -4.1253824 1.4743075 17
-3.7011425 -4.1206489 1.2688887 10
-3.6898539 -4.1066384 1.0647113 11
-3.6801634 -4.0944157 0.86491054 14
-3.6921184 -4.1062746 0.6733281 14
-3.6929917 -4.1058044 0.47979239 16
-3.6893139 -4.1002765 0.2870627 12
-3.6677439 -4.074873 0.095028341 32
-1.3160429 -1.4595633 -0.51634425 3
-1.5103122 -1.674431 -0.51176393 2
-1.7946286 -1.9889448 -0.51281571 3
-3.6753933 -4.0719228 -0.86273676 12
-3.6840813 -4.0801158 -0.67028213 16
-3.6548405 -4.0463119 -0.47369221 13
-3.6778421 -4.0703487 -0.28454262 14
-3.6695771 -4.0597773 -0.093906142 14
-3.6990356 -4.0909328 1.4665481 13
-3.6926258 -4.0824113 1.2610213 10
-3.6811132 -4.0682559 1.0580389 11
-3.6712339 -4.0559149 0.8594414 13
-3.6864433 -4.0712891 0.66967201 14
-3.6838939 -4.0670466 0.47674191 16
-3.6801355 -4.0614724 0.28523093 12
-3.6618011 -4.0398211 0.094504774 35
-1.3211297 -1.4549607 -0.51634425 3
-1.516148 -1.6691488 -0.51176393 2
-1.8015605 -1.9826683 -0.51281571 2
-3.6663327 -4.0334883 -0.8572616 12
-3.6749296 -4.0415287 -0.6660167 16
-3.6488326 -4.0114212 -0.4710775 13
-3.671865 -4.035327 -0.28297776 13
-3.6635344 -4.0247607 -0.093387797 14
-3.6905305 -4.0529971 1.4574952 12
-3.683888 -4.0442843 1.253154 10
-3.6754568 -4.0336137 1.0523199 11
-3.6654077 -4.0211759 0.85475349 13
-3.6805692 -4.0363936 0.66601592 14
-3.6779277 -4.0320826 0.47412726 17
-3.6740968 -4.0264716 0.28366089 12
-3.6522882 -4.0011687 0.093893945 34
-1.3262004 -1.4503402 -0.51634425 3
-1.5252534 -1.6674412 -0.51288873 2
-1.8084704 -1.9763676 -0.51281571 2
-3.6603832 -3.9988093 -0.85256851 13
-3.6689062 -4.0067158 -0.66236061 12
-3.6392615 -3.9729495 -0.46802706 13
-3.6623149 -3.996716 -0.2811521 13
-3.6539147 -3.9861515 -0.092783071 14
-3.6818058 -4.0151715 1.4484425 12
-3.6749289 -4.006268 1.2452867 10
-3.6662843 -3.9954443 1.0456475 10
-3.6560445 -3.9828894 0.84928435 13
-3.6711402 -3.9979336 0.6617505 14
-3.6683927 -3.9935422 0.47107679 16
-3.66448 -3.9878857 0.28182912 13
-3.6459329 -3.9663117 0.093370371 33
-1.3345265 -1.4492548 -0.51763833 3
-1.5310645 -1.662107 -0.51288873 2
-1.8153582 -1.9700428 -0.51281571 2
-3.6508892 -3.9605899 -0.84709334 13
-3.6593201 -3.9683461 -0.65809524 12
-3.632844 -3.9382546 -0.46541235 13
-3.6559265 -3.9618897 -0.27958724 13
-3.6474609 -3.9513323 -0.092264727 14
-3.6728625 -3.9774566 1.4393898 11
-3.6690557 -3.9719429 1.2385432 10
-3.6602223 -3.9609931 1.0399284 11
-3.6498113 -3.948344 0.84459645 13
-3.6648574 -3.963233 0.65809447 14
-3.6620162 -3.9587741 0.46846214 16
-3.6580305 -3.9530809 0.28025904 12
-3.6393793 -3.9315488 0.092846796 34
-1.3395772 -1.4445876 -0.51763833 3
-1.5368571 -1.6567525 -0.51288873 2
-1.8222239 -1.963694 -0.51281571 2
-3.6445332 -3.9261055 -0.84240025 13
-3.6528883 -3.9337289 -0.65443909 12
-3.6262288 -3.9036536 -0.4627977 13
-3.645941 -3.9235003 -0.27776158 12
-3.6374056 -3.9129455 -0.09166 14
-3.6669898 -3.9433901 1.4316303 12
-3.6596694 -3.9341409 1.2306759 10
-3.6539638 -3.9266329 1.0342093 11
-3.6433818 -3.9138913 0.8399086 13
-3.6583769 -3.9286249 0.65443832 14
-3.655442 -3.9240994 0.46584743 17
-3.6513824 -3.9183702 0.27868894 12
-3.632628 -3.8968804 0.092323229 33
-1.3479078 -1.4434327 -0.5189324 3
-1.5459564 -1.6549377 -0.51401347 2
-1.8290672 -1.9573213 -0.51281571 2
-3.6379812 -3.8917143 -0.83770728 12
-3.6428697 -3.8955808 -0.65017366 11
-3.6194167 -3.8691468 -0.46018302 13
-3.6391444 -3.888875 -0.27619675 13
-3.6305432 -3.8783267 -0.091141663 14
-3.6576231 -3.9058883 1.4225775 11
-3.6533949 -3.9000082 1.2239324 10
-3.6475108 -3.8923655 1.0284902 11
-3.6367564 -3.8795314 0.83522075 13
-3.6517 -3.8941104 0.65078223 15
-3.6486707 -3.889519 0.46323279 17
-3.6445377 -3.883755 0.27711889 13
-3.6256788 -3.8623068 0.091799647 35
-1.3529381 -1.4387188 -0.5189324 3
-1.5517238 -1.6495312 -0.51401347 2
-1.8358884 -1.9509246 -0.51281571 2
-3.6312335 -3.8574164 -0.83301419 12
-3.6360319 -3.8611631 -0.64651757 12
-3.6158237 -3.838361 -0.45800415 13
-3.6321502 -3.8543444 -0.27463189 13
-3.6234834 -3.8438034 -0.090623319 14
-3.6513529 -3.8720133 1.4148179 12
-3.6435843 -3.8624239 1.2160652 10
-3.6374943 -3.8546207 1.0218178 11
-3.6265454 -3.8416748 0.82975161 13
-3.6448271 -3.8596907 0.6471262 15
-3.6417024 -3.8550339 0.46061811 17
-3.6374955 -3.8492346 0.27554879 12
-3.6185334 -3.8278303 0.091276079 33
-1.3579519 -1.4339874 -0.5189324 3
-1.5574723 -1.6441047 -0.51401347 2
-1.8426872 -1.9445044 -0.51281571 2
-3.6242914 -3.8232138 -0.82832122 13
-3.6289988 -3.8268418 -0.64286155 12
-3.6086318 -3.8040345 -0.45538947 14
-3.6249597 -3.8199108 -0.27306703 13
-3.6162276 -3.8093772 -0.090104975 14
-3.6448917 -3.8382306 1.4070585 12
-3.6369109 -3.8284886 1.2093217 10
-3.6306407 -3.8205523 1.0160987 11
-3.6195173 -3.8075159 0.82506371 13
-3.6377583 -3.825367 0.64347011 14
-3.6345384 -3.8206456 0.45800346 17
-3.6302569 -3.814811 0.27397871 12
-3.6146383 -3.7970712 0.090839773 36
-1.3629493 -1.4292384 -0.5189324 3
-1.5598392 -1.635133 -0.51288873 2
-1.8494636 -1.9380604 -0.51281571 2
-3.6171544 -3.7891064 -0.82362813 13
-3.6251976 -3.7962053 -0.63981479 12
-3.6046851 -3.7734058 -0.45321056 13
-3.6175735 -3.7855749 -0.27150217 13
-3.6122305 -3.7786629 -0.089673027 15
-3.6382387 -3.8045402 1.3992989 12
-3.6300454 -3.7946463 1.2025783 11
-3.6235938 -3.7865787 1.0103796 11
-3.6122959 -3.773454 0.82037586 13
-3.6304946 -3.7911398 0.63981402 14
-3.6237328 -3.7827568 0.45495296 18
-3.6228225 -3.7804859 0.27240863 13
-3.6071126 -3.7627771 0.090316191 37
-1.3645847 -1.4209888 -0.51763833 3
-1.5621622 -1.6261648 -0.51176393 2
-1.8596184 -1.9351318 -0.51376885 2
-3.6098242 -3.755096 -0.81893504 13
-3.6177874 -3.7620649 -0.63615865 12
-3.5971158 -3.7392623 -0.45059589 13
-3.6099916 -3.7513366 -0.26993731 13
-3.6045952 -3.744421 -0.089154683 14
-3.6313958 -3.7709434 1.3915395 12
-3.6229885 -3.7608988 1.1958348 10
-3.616354 -3.7527013 1.0046605 11
-3.6083081 -3.7430441 0.81646931 13
-3.6230366 -3.75701 0.63615793 15
-3.6161661 -3.7485759 0.45233831 12
-3.6186604 -3.7498515 0.27110025 13
-3.6028647 -3.7321796 0.089879893 35
-1.3695365 -1.4162169 -0.51763833 3
-1.567829 -1.6207019 -0.51176393 2
-1.8697753 -1.932156 -0.51472205 2
-3.6057358 -3.7247314 -0.81502426 13
-3.6136351 -3.7315879 -0.63311189 11
-3.5928178 -3.7087955 -0.44841701 14
-3.6056905 -3.7207844 -0.26863328 13
-3.5967658 -3.710279 -0.088636346 14
-3.6243625 -3.7374406 1.3837799 12
-3.6157403 -3.727248 1.1890914 10
-3.608922 -3.7189205 0.9989413 11
-3.6007121 -3.7091646 0.81178141 14
-3.6188419 -3.7265387 0.63311118 16
-3.6084049 -3.7144938 0.44972363 12
-3.6108494 -3.7157123 0.26953018 13
-3.5949626 -3.6980729 0.089356318 35
-1.3744718 -1.4114276 -0.51763833 2
-1.5700774 -1.6117296 -0.51063919 2
-1.8765084 -1.9256175 -0.51472205 2
-3.598032 -3.6909051 -0.81033117 13
-3.60585 -3.6976337 -0.62945586 12
-3.5848727 -3.6748388 -0.4458023 14
-3.5977321 -3.6867335 -0.26706842 12
-3.5887423 -3.6762373 -0.088118002 15
-3.6171396 -3.7040334 1.3760203 12
-3.6117063 -3.6971784 1.1834719 10
-3.6047287 -3.6887479 0.99417537 11
-3.5963764 -3.678916 0.80787492 14
-3.6110094 -3.6925952 0.62945515 15
-3.6004498 -3.6805122 0.44710898 12
-3.6063359 -3.6852419 0.26822177 14
-3.5903635 -3.6676395 0.088920005 34
-1.3791447 -1.4068619 -0.51763833 2
-1.5717224 -1.60331 -0.50951445 2
-1.8859853 -1.9232171 -0.51567525 2
-3.5888598 -3.6584315 -0.80563819 13
-3.600069 -3.6685767 -0.62640911 12
-3.578953 -3.645786 -0.44362339 13
-3.591804 -3.6575999 -0.26576436 13
-3.5827568 -3.6471133 -0.087686047 14
-3.6084461 -3.6719818 1.3682609 12
-3.6028104 -3.6649673 1.1767284 11
-3.5956509 -3.6564074 0.98845625 12
-3.587136 -3.6464758 0.80318701 14
-3.6051879 -3.6635466 0.6264084 15
-3.5945237 -3.6514347 0.44493008 12
-3.5968747 -3.6525478 0.26665169 13
-3.584326 -3.6385345 0.088483691 35
-1.3838024 -1.4022808 -0.51763833 2
-1.573887 -1.594347 -0.50838971 2
-1.8926871 -1.916622 -0.51567525 2
-3.5842552 -3.6283152 -0.80172729 13
-3.5919228 -3.6348081 -0.62275302 11
-3.5706472 -3.6120169 -0.44100875 13
-3.5834839 -3.6237376 -0.26419953 13
-3.5743709 -3.6132603 -0.08716771 14
-3.600858 -3.6387653 1.3605013 12
-3.5950162 -3.6315942 1.1699851 11
-3.5911238 -3.6263959 0.98369032 11
-3.5824649 -3.616389 0.79928046 14
-3.5969946 -3.6297891 0.62275231 15
-3.5862069 -3.6176403 0.4423154 12
-3.5920234 -3.6222427 0.26534328 13
-3.5758805 -3.6047058 0.087960124 36
-1.3923374 -1.4006246 -0.5189324 2
-1.569414 -1.5782039 -0.50501537 2
-1.8996991 -1.9096721 -0.51567525 2
-3.5766289 -3.5941508 -0.7970342 13
-3.584214 -3.6005158 -0.61909693 12
-3.5662885 -3.5812585 -0.43882984 13
-3.5791221 -3.5928917 -0.26289546 13
-3.5699458 -3.5824294 -0.086735763 14
-3.5971212 -3.6084402 1.354035 12
-3.5911012 -3.6011438 1.1643655 11
-3.5835924 -3.59236 0.97797126 11
-3.574765 -3.5822604 0.79459262 13
-3.5927439 -3.5990202 0.61970562 14
-3.5818446 -3.5868495 0.44013649 13
-3.5841022 -3.587858 0.2637732 13
-3.5713997 -3.573894 0.087523811 35
-1.3938015 -1.3923427 -0.51763833 3
-1.581808 -1.5796012 -0.50726491 2
-1.9063535 -1.9030294 -0.51567525 2
-3.5716743 -3.5642021 -0.79312336 13
-3.5791929 -3.5704582 -0.61605018 12
-3.5576055 -3.5476851 -0.43621519 13
-3.5739603 -3.5627501 -0.26159143 13
-3.5647233 -3.5523019 -0.086303808 14
-3.5891647 -3.5754101 1.3462756 12
-3.582936 -3.5679595 1.1576221 10
-3.5752387 -3.5590518 0.97225207 11
-3.5697446 -3.5523422 0.79068607 14
-3.5841746 -3.5654573 0.61604947 15
-3.5766835 -3.5567634 0.43795761 13
-3.5788987 -3.5577245 0.26246482 13
-3.5625768 -3.5402627 0.087000236 34
-1.3952243 -1.3840675 -0.51634425 2
-1.5907717 -1.5775006 -0.50838971 2
-1.9129847 -1.8963634 -0.51567525 2
-3.5630474 -3.5308564 -0.78843033 13
-3.5704803 -3.5369875 -0.61239415 12
-3.5522716 -3.5177212 -0.43403628 13
-3.5650835 -3.5291762 -0.26002657 14
-3.5557804 -3.518738 -0.085785463 14
-3.584455 -3.5458763 1.3398093 12
-3.5780475 -3.5383024 1.1520026 10
-3.5701873 -3.5292971 0.96748608 11
-3.5610459 -3.5190318 0.78599817 14
-3.5789456 -3.535486 0.61300278 15
-3.5713565 -3.5267577 0.43577874 13
-3.5735285 -3.5276706 0.26115641 13
-3.557121 -3.5102482 0.08656393 33
-1.3966066 -1.3757997 -0.51505011 2
-1.6066821 -1.5821929 -0.51176393 2
-1.9160948 -1.8862309 -0.51472205 2
-3.5577509 -3.5010781 -0.78451949 13
-3.5651157 -3.5071013 -0.6093474 12
-3.5467715 -3.4878376 -0.43185738 13
-3.5595772 -3.4992085 -0.25872254 13
-3.5502131 -3.488785 -0.085353516 14
-3.5761378 -3.5130346 1.3320498 12
-3.5729959 -3.508723 1.146383 11
-3.5649717 -3.4996212 0.96272016 11
-3.5556841 -3.4892852 0.78209168 14
-3.5700092 -3.50212 0.60934669 15
-3.5658636 -3.4968319 0.43359983 12
-3.5679924 -3.4976983 0.259848 14
-3.5479286 -3.4768157 0.086040355 35
-1.397948 -1.3675389 -0.51375604 2
-1.626128 -1.5901998 -0.51626295 2
-1.9191574 -1.8760999 -0.51376885 2
-3.5522904 -3.4713802 -0.78060859 13
-3.559586 -3.4772954 -0.60630065 12
-3.5411067 -3.4580355 -0.42967847 13
-3.5539052 -3.4693222 -0.25741848 14
-3.5444798 -3.4589136 -0.084921569 15
-3.5676351 -3.4802942 1.3242903 12
-3.5677812 -3.4792218 1.1407635 11
-3.5595932 -3.4700251 0.95795429 11
-3.5501575 -3.4596186 0.77818513 14
-3.5644379 -3.472322 0.60629994 15
-3.5602057 -3.4669883 0.43142092 13
-3.5622914 -3.467808 0.25853962 13
-3.5421293 -3.4469771 0.085604049 34
-1.4061773 -1.366016 -0.51505011 2
-1.635164 -1.5879081 -0.51738775 2
-1.9221727 -1.8659704 -0.51281571 2
-3.5466654 -3.4417629 -0.7766977 13
-3.5538919 -3.4475715 -0.6032539 12
-3.5352769 -3.4283159 -0.42749956 14
-3.5480676 -3.4395182 -0.25611442 14
-3.5385814 -3.4291244 -0.084489614 15
-3.5624166 -3.4510167 1.317824 12
-3.5589049 -3.4464111 1.1340201 11
-3.5540512 -3.4405088 0.9531883 10
-3.5444674 -3.4300334 0.77427852 13
-3.5587025 -3.4426057 0.60325319 15
-3.5543828 -3.4372268 0.42924201 13
-3.5528345 -3.4345298 0.25696954 14
-3.5361657 -3.417222 0.085167743 36
-1.410937 -1.3610992 -0.51505011 2
-1.6371899 -1.5788088 -0.51626295 2
-1.9251406 -1.8558429 -0.51186246 2
-3.5408783 -3.4122283 -0.77278692 13
-3.5480342 -3.4179299 -0.60020715 12
-3.5292835 -3.3986795 -0.42532068 14
-3.5420656 -3.4097974 -0.25481039 14
-3.5325186 -3.3994191 -0.084057659 14
-3.5535569 -3.4184704 1.3100646 12
-3.5533547 -3.4170818 1.1284006 11
-3.548347 -3.4110742 0.94842237 12
-3.5386145 -3.4005301 0.77037197 15
-3.5528028 -3.4129725 0.60020649 15
-3.5483966 -3.4075489 0.42706317 14
-3.5467913 -3.4048178 0.25566113 14
-3.5300369 -3.3875501 0.08473143 36
-1.4156795 -1.3561658 -0.51505011 2
-1.6321353 -1.5629758 -0.51288873 2
-1.9316071 -1.8491117 -0.51186246 2
-3.5349276 -3.3827753 -0.76887602 14
-3.5455992 -3.3918018 -0.5977698 12
-3.5231264 -3.3691263 -0.42314178 14
-3.5395093 -3.3836112 -0.25376716 13
-3.5262916 -3.3697979 -0.083625704 15
-3.5480058 -3.3893638 1.3035983 12
-3.5476437 -3.3878336 1.122781 11
-3.5424802 -3.3817213 0.94365638 12
-3.5361717 -3.3745193 0.76724672 14
-3.5467408 -3.3834229 0.5971598 15
-3.5422459 -3.3779542 0.42488426 13
-3.5405841 -3.37519 0.25435272 14
-3.5237448 -3.3579633 0.084295116 36
-1.4239039 -1.3545448 -0.51634425 2
-1.6305202 -1.5505545 -0.51063919 2
-1.9380498 -1.8423579 -0.51186246 2
-3.528815 -3.3534062 -0.76496518 13
-3.5394268 -3.3623152 -0.59472311 12
-3.5168059 -3.3396583 -0.4209629 14
-3.5331924 -3.3540468 -0.2524631 14
-3.5199018 -3.3402624 -0.083193764 15
-3.5422952 -3.3603384 1.297132 12
-3.5417714 -3.3586671 1.1171615 11
-3.5364525 -3.3524508 0.93889046 11
-3.5300057 -3.3451703 0.76334018 14
-3.5405154 -3.3539569 0.59411305 16
-3.5359323 -3.3484447 0.42270535 14
-3.5342143 -3.3456476 0.25304434 14
-3.5172889 -3.3284619 0.08385881 36
-1.4286237 -1.3495661 -0.51634425 3
-1.6288385 -1.5381635 -0.50838971 2
-1.9409 -1.8322122 -0.51090926 2
-3.5261323 -3.3275104 -0.76183647 13
-3.5330923 -3.3329124 -0.59167635 12
-3.5139465 -3.3136928 -0.41921976 13
-3.5267122 -3.324568 -0.25115907 15
-3.5133483 -3.3108122 -0.082761809 15
-3.5364254 -3.331394 1.2906657 12
-3.5357389 -3.3295829 1.111542 11
-3.5302639 -3.3232646 0.93412459 12
-3.5236785 -3.3159053 0.75943363 14
-3.5341275 -3.3245757 0.5910663 15
-3.5330846 -3.3224323 0.42096224 13
-3.5276804 -3.3161905 0.25173596 14
-3.5106707 -3.2990465 0.083422497 37
-1.4298034 -1.3412668 -0.51505011 2
-1.6306438 -1.5291358 -0.50726491 2
-1.9472836 -1.825426 -0.51090926 2
-3.5197089 -3.2982976 -0.75792557 13
-3.5265956 -3.3035953 -0.5886296 12
-3.5073135 -3.2843835 -0.41704085 14
-3.5200696 -3.2951756 -0.24985503 14
-3.5102828 -3.2848647 -0.082416251 14
-3.5339239 -3.305831 1.2854927 12
-3.5331059 -3.30391 1.1070464 11
-3.5239146 -3.2941623 0.9293586 12
-3.5207989 -3.290098 0.75630838 14
-3.5275781 -3.2952802 0.58801955 15
-3.526458 -3.2930815 0.41878334 13
-3.5209849 -3.2868202 0.25042754 14
-3.5075452 -3.273129 0.083073445 37
-1.4309428 -1.3329757 -0.51375604 2
-1.6359717 -1.5234346 -0.50726491 2
-1.9536438 -1.8186176 -0.51090926 2
-3.513124 -3.26917 -0.75401473 14
-3.5199375 -3.2743642 -0.58558285 13
-3.5005188 -3.2551608 -0.41486195 13
-3.5169218 -3.2692699 -0.2488118 14
-3.5034168 -3.2555764 -0.081984296 15
-3.5277486 -3.2770395 1.2790264 12
-3.5267665 -3.2749808 1.1014268 11
-3.5174053 -3.2651446 0.92459267 11
-3.5141618 -3.2609921 0.75240189 13
-3.5245061 -3.2694464 0.58558214 16
-3.5196698 -3.2638173 0.41660443 13
-3.5177894 -3.260932 0.24938083 14
-3.5006146 -3.2438753 0.082637139 36
-1.435587 -1.3279727 -0.51375604 2
-1.6448566 -1.5210224 -0.50838971 2
-1.9563757 -1.8084552 -0.50995612 2
-3.5100057 -3.2434804 -0.75088602 14
-3.5131185 -3.2452204 -0.5825361 12
-3.4935629 -3.2260261 -0.41268307 14
-3.5099671 -3.2400393 -0.24750774 14
-3.5000634 -3.2297659 -0.081638739 15
-3.5249655 -3.251606 1.2738534 12
-3.5202684 -3.246136 1.0958073 12
-3.5107369 -3.2362132 0.91982669 12
-3.5073643 -3.2319722 0.74849528 14
-3.5176463 -3.2403121 0.58253539 16
-3.5127208 -3.2346418 0.41442558 14
-3.5107822 -3.2317245 0.24807242 14
-3.4972012 -3.2180955 0.082288086 36
-1.4366568 -1.3196862 -0.5124619 3
-1.6537442 -1.5185666 -0.50951445 2
-1.9662924 -1.8049345 -0.51090926 2
-3.5031135 -3.2145143 -0.74697518 14
-3.5097964 -3.2195187 -0.58009869 12
-3.4901178 -3.2003462 -0.41093993 14
-3.5028515 -3.2108972 -0.24620369 14
-3.492887 -3.2006416 -0.081206784 15
-3.518487 -3.22297 1.2673873 12
-3.5172052 -3.2206671 1.0913117 11
-3.5039093 -3.2073679 0.9150607 12
-3.5040507 -3.2063739 0.74537009 14
-3.5106266 -3.2112656 0.57948875 15
-3.5056109 -3.2055538 0.41224667 13
-3.5036144 -3.2026057 0.24676402 14
-3.4899607 -3.189007 0.08185178 37
-1.4412546 -1.3146633 -0.5124619 3
-1.6626351 -1.5160673 -0.51063919 2
-1.9725808 -1.7980598 -0.51090926 2
-3.4960611 -3.1856356 -0.74306434 14
-3.5026689 -3.1905382 -0.57705194 12
-3.4828537 -3.1713762 -0.40876108 14
-3.4992685 -3.1852064 -0.24516046 14
-3.4892473 -3.1749713 -0.080861226 15
-3.5118513 -3.1944189 1.260921 12
-3.5104029 -3.191982 1.0856922 11
-3.5005555 -3.1819119 0.91124797 11
-3.4969466 -3.1775169 0.74146348 14
-3.5071206 -3.1856444 0.57705128 15
-3.5020287 -3.179904 0.41050357 13
-3.4999835 -3.1769323 0.24571729 14
-3.4862626 -3.1633682 0.081502736 36
-1.4494145 -1.3128667 -0.51375604 2
-1.6715282 -1.5135244 -0.51176393 2
-1.9824841 -1.7944571 -0.51186246 2
-3.4925125 -3.1601593 -0.73993564 14
-3.4990628 -3.1649756 -0.57461458 13
-3.4791241 -3.1458368 -0.40701795 14
-3.4918442 -3.1562309 -0.2438564 14
-3.4817622 -3.146014 -0.080429271 15
-3.5050597 -3.1659539 1.2544546 12
-3.5034432 -3.1633835 1.0800726 11
-3.4934235 -3.1532297 0.9064821 12
-3.4896839 -3.1487491 0.73755693 14
-3.4997938 -3.1567633 0.57400459 16
-3.494611 -3.1509829 0.40832466 14
-3.4925075 -3.1479809 0.24440892 14
-3.4787133 -3.1344473 0.081066422 36
-1.4539884 -1.3077993 -0.51375604 2
-1.6804241 -1.5109378 -0.51288873 2
-1.9887359 -1.787526 -0.51186246 2
-3.4851549 -3.1314454 -0.73602474 14
-3.4916296 -3.136162 -0.57156789 12
-3.4752588 -3.1203623 -0.40527484 14
-3.4879766 -3.1306818 -0.24281317 14
-3.4778385 -3.1204865 -0.080083713 15
-3.5017076 -3.1407998 1.2492816 12
-3.4963264 -3.1348722 1.0744531 11
-3.4897885 -3.1279118 0.90266925 12
-3.4822628 -3.1200707 0.73365039 14
-3.4960051 -3.1312835 0.57156724 16
-3.4907451 -3.1254747 0.40658155 14
-3.4885924 -3.1224504 0.2433622 14
-3.4747307 -3.1089513 0.080717377 37
-1.4621466 -1.3059332 -0.51505011 2
-1.6784198 -1.4985735 -0.51063919 2
-1.9949634 -1.7805731 -0.51186246 2
-3.4813249 -3.1061099 -0.73289609 14
-3.4877408 -3.1107411 -0.56913048 12
-3.467541 -3.0916386 -0.40309593 14
-3.4802458 -3.101876 -0.24150915 14
-3.470047 -3.0916996 -0.079651766 15
-3.494616 -3.1124959 1.2428154 12
-3.4926932 -3.10969 1.0699575 11
-3.4823539 -3.0993955 0.89790338 12
-3.4783742 -3.0947652 0.73052514 15
-3.4883721 -3.1025701 0.56852049 16
-3.4867442 -3.1000323 0.40483844 13
-3.4845421 -3.0969861 0.24231547 14
-3.4668756 -3.0802011 0.080281064 37
-1.4666963 -1.3008214 -0.51505011 2
-1.6763498 -1.4862416 -0.50838971 2
-2.0011666 -1.7735984 -0.51186246 2
-3.4736636 -3.0775642 -0.72898519 13
-3.4837174 -3.0853865 -0.56669313 12
-3.4633939 -3.0663083 -0.40135282 13
-3.4760959 -3.0764718 -0.24046591 14
-3.4658406 -3.0663171 -0.0793062 15
-3.4909875 -3.0874794 1.2376424 13
-3.4852757 -3.0813439 1.064338 12
-3.4784403 -3.0742192 0.89409065 12
-3.4706509 -3.066256 0.72661865 14
-3.4843023 -3.077234 0.56608307 16
-3.478874 -3.0713594 0.40265954 13
-3.476613 -3.068284 0.24100707 15
-3.4626107 -3.0548513 0.079932019 38
-1.471228 -1.2956938 -0.51505011 2
-1.6742142 -1.4739424 -0.50614017 2
-1.9999762 -1.7601169 -0.50995612 2
-3.4695544 -3.0523727 -0.72585648 13
-3.4758334 -3.0568204 -0.56364638 12
-3.4591129 -3.0410452 -0.39960971 14
-3.4718111 -3.0511348 -0.23942265 14
-3.4615002 -3.0410025 -0.078960635 16
-3.4835982 -3.059339 1.2311761 13
-3.4813654 -3.0563023 1.0598423 12
-3.4707048 -3.0458705 0.88932467 12
-3.4664831 -3.041095 0.7234934 14
-3.4763665 -3.048692 0.56303632 16
-3.4745922 -3.0460632 0.40091643 14
-3.4722812 -3.0429657 0.23996036 15
-3.4582121 -3.0295691 0.079582967 37
-1.4757419 -1.2905502 -0.51505011 2
-1.6646774 -1.4552635 -0.50164115 2
-2.006108 -1.7531251 -0.50995612 2
-3.4615917 -3.0239978 -0.72194564 13
-3.4715302 -3.0316114 -0.56120896 12
-3.4546978 -3.0158496 -0.39786658 14
-3.467392 -3.0258651 -0.23837942 15
-3.4570251 -3.0157557 -0.078615077 15
-3.4796958 -3.0344629 1.2260031 13
-3.4773226 -3.0313251 1.0553467 12
-3.4665139 -3.0208383 0.88551193 12
-3.4621823 -3.0160005 0.72036815 15
-3.4720168 -3.0235021 0.56059897 15
-3.470176 -3.0208342 0.39917329 13
-3.4678156 -3.0177157 0.23891364 14
-3.4536786 -3.0043545 0.079233922 38
-1.4838843 -1.2885576 -0.51634425 3
-1.6807841 -1.4590245 -0.50501537 2
-2.0085082 -1.7428948 -0.50900286 2
-3.4572043 -2.9989519 -0.71881694 13
-3.4670937 -3.0064702 -0.55877155 12
