# .PCD v0.7 - Point Cloud Data file format
VERSION 0.7
FIELDS x y z intensity
SIZE 4 4 4 4
TYPE F F F F
COUNT 1 1 1 1
WIDTH 1412
HEIGHT 1
VIEWPOINT 0 0 0 1 0 0 0
POINTS 1412
DATA ascii
1.3609189 1.8703972 0.6091218 31
1.3643383 1.8744092 0.52598751 32
1.3602074 1.8680485 0.4413262 29
1.3658788 1.8751494 0.36096537 29
1.3640096 1.8718969 0.27969012 31
1.3722029 1.8824503 0.20045821 34
1.367005 1.8746322 0.11958765 32
1.360134 1.8645262 0.039616961 29
1.1424949 1.5633106 -0.50857961 3
1.2876991 1.7613525 -0.49489263 4
1.3670143 1.8691573 -0.44227967 11
1.3697659 1.8722339 -0.36136392 15
1.3884442 1.897069 -0.28395587 30
1.3731998 1.8755531 -0.20002273 31
1.3650397 1.8637254 -0.11866809 30
1.3669949 1.8657116 -0.039307538 31
1.3702947 1.8695308 0.61041504 31
1.3737539 1.8735645 0.52711141 31
1.3667198 1.8632891 0.4413262 28
1.3753377 1.8743521 0.3617467 30
1.3705355 1.8671241 0.27969012 31
1.3787655 1.8776489 0.20045821 34
1.3735403 1.8698491 0.11958765 33
1.3666341 1.859767 0.039616961 29
1.1450816 1.5554237 -0.50728554 3
1.2938396 1.7568468 -0.49489263 4
1.3764418 1.8683258 -0.44323289 11
1.3792229 1.8714167 -0.36214611 15
1.3980027 1.8962053 -0.28456524 31
1.3826948 1.8747569 -0.20045851 32
1.3745015 1.8629671 -0.11892891 30
1.3764678 1.8649509 -0.039393932 31
1.3768121 1.8647361 0.61041504 30
1.3802855 1.8687577 0.52711141 32
1.3761324 1.8624544 0.44227937 27
1.3848075 1.8735111 0.362528 30
1.3799951 1.8663189 0.28029948 33
1.3882735 1.8768294 0.200894 35
1.3830292 1.8690571 0.11984934 33
1.3760918 1.8590033 0.039704222 29
1.1505041 1.5514172 -0.50728554 3
1.2999642 1.7523198 -0.49489263 4
1.3829552 1.8635097 -0.44323289 12
1.3886906 1.8705559 -0.36292824 14
1.4046134 1.8913138 -0.28456524 31
1.3892306 1.8699191 -0.20045851 32
1.3839746 1.8621655 -0.11918971 30
1.3859521 1.8641466 -0.039480317 31
1.3861954 1.8637943 0.61170834 33
1.3897085 1.8678371 0.52823532 31
1.3855559 1.8615772 0.44323257 27
1.3913388 1.8686657 0.362528 28
1.3865013 1.8614905 0.28029948 32
1.3977923 1.875966 0.20132977 34
1.392529 1.8682213 0.12011101 31
1.3855611 1.8581964 0.039791483 28
1.1530224 1.5435225 -0.50599146 4
1.3089892 1.7516738 -0.49601737 4
1.3923903 1.8626021 -0.44418606 11
1.3981692 1.8696519 -0.36371043 14
1.4141794 1.8903731 -0.28517458 31
1.3987337 1.8690463 -0.20089431 31
1.3934587 1.8613203 -0.11945052 29
1.3954474 1.8632988 -0.039566711 29
1.3955886 1.8628097 0.61300153 31
1.3991419 1.8668734 0.52935922 30
1.3920455 1.8567294 0.44323257 28
1.4008164 1.8677489 0.36330932 28
1.3959692 1.8606092 0.28090885 32
1.407322 1.875059 0.20176555 34
1.3990417 1.8633491 0.12011101 30
1.3920391 1.8533486 0.039791483 28
1.1554992 1.5356292 -0.50469732 4
1.3150957 1.7470938 -0.49601737 4
1.401836 1.8616515 -0.44513926 11
1.4046868 1.86476 -0.36371043 14
1.4237562 1.8893888 -0.28578395 29
1.4082478 1.86813 -0.20133008 31
1.402954 1.8604316 -0.11971132 31
1.4049537 1.8624073 -0.0396531 30
1.404992 1.8617821 0.61429483 30
1.40565 1.8619781 0.52935922 31
1.4014761 1.8557755 0.44418573 26
1.4103043 1.866788 0.36409062 29
1.4024554 1.855725 0.28090885 32
1.4138587 1.8701352 0.20176555 34
1.4085494 1.8624367 0.1203727 32
1.401516 1.8524648 0.039878745 28
1.1608526 1.5315864 -0.50469732 3
1.3241298 1.7463751 -0.49714214 4
1.4112921 1.8606573 -0.44609243 11
1.4141726 1.8637794 -0.3644926 14
1.4303427 1.8844075 -0.28578395 31
1.4177725 1.8671699 -0.20176587 33
1.4124596 1.8594992 -0.11997214 29
1.4144709 1.8614724 -0.03973949 30
1.4114822 1.8568664 0.61429483 31
1.4150898 1.8609382 0.53048313 30
1.410917 1.8547786 0.44513896 27
1.4168121 1.8618537 0.36409062 28
1.4119304 1.854767 0.28151816 33
1.4233959 1.8691514 0.20220132 36
1.4180678 1.8614806 0.12063438 32
1.4110041 1.8515376 0.03996601 28
1.1632611 1.5236862 -0.50340325 3
1.3331746 1.7456141 -0.49826688 4
1.4207581 1.85962 -0.44704565 11
1.4236687 1.8627555 -0.36527479 14
1.4399259 1.8833454 -0.28639328 30
1.4242815 1.8622096 -0.20176587 33
1.4219761 1.8585231 -0.12023295 30
1.4209601 1.8565236 -0.03973949 30
1.4208914 1.8557628 0.61558807 30
1.4245398 1.8598552 0.53160703 31
1.4203682 1.8537385 0.44609213 28
1.426307 1.8608164 0.36487195 28
1.421416 1.8537654 0.28212753 30
1.4329433 1.8681237 0.20263711 34
1.4275966 1.8604807 0.12089606 31
1.4205024 1.8505665 0.040053267 30
1.1688378 1.5194123 -0.50340325 3
1.342535 1.7445771 -0.49939165 4
1.4275644 1.8544002 -0.44704565 11
1.4334997 1.8614377 -0.36605695 14
1.4498478 1.8819866 -0.28700262 30
1.4341377 1.8609221 -0.20220163 32
1.4287784 1.8532988 -0.12023295 29
1.4308082 1.8552619 -0.039825883 28
1.430634 1.8543668 0.61688131 31
1.431347 1.8546215 0.53160703 32
1.427153 1.8485202 0.44609213 27
1.4331175 1.8555763 0.36487195 27
1.431235 1.8524703 0.28273687 31
1.4428267 1.8668 0.20307288 34
1.4374602 1.8591858 0.12115774 30
1.4303343 1.8493023 0.040140532 30
1.1770926 1.5191407 -0.50469732 4
1.3486165 1.7398801 -0.49939165 4
1.4370365 1.8532846 -0.44799879 11
1.4430153 1.8603247 -0.36683914 14
1.4594507 1.8808351 -0.28761196 29
1.443679 1.8598393 -0.20263742 31
1.4383013 1.852244 -0.12049376 29
1.4403423 1.8542042 -0.039912272 29
1.4400617 1.8531752 0.61817455 29
1.4408021 1.8534603 0.53273094 32
1.4366099 1.8474019 0.44704533 26
1.4426184 1.8544605 0.36565322 29
1.4407405 1.8513798 0.28334624 31
1.4493343 1.8617522 0.20307288 34
1.447009 1.8580961 0.12141941 30
1.4367861 1.8442941 0.040140532 30
1.1823882 1.5150226 -0.50469732 4
1.3546815 1.735162 -0.49939165 4
1.4465181 1.8521254 -0.44895202 11
1.4525405 1.8591676 -0.36762127 14
1.4660071 1.8757292 -0.28761196 29
1.4532301 1.8587126 -0.20307319 31
1.4478343 1.8511451 -0.12075458 27
1.4498866 1.8531026 -0.039998662 28
1.4494985 1.8519405 0.61946785 29
1.4502667 1.8522558 0.53385484 31
1.4460762 1.8462398 0.44799849 26
1.4521288 1.8533009 0.36643454 28
1.4471942 1.8463393 0.28334624 31
1.4588977 1.8606015 0.20350866 34
1.4565679 1.8569627 0.1216811 32
1.4462961 1.8432049 0.040227797 28
1.1966234 1.522277 -0.50857961 4
1.3607303 1.7304226 -0.49939165 4
1.4529743 1.8470649 -0.44895202 10
1.4590214 1.8540859 -0.36762127 14
1.4756154 1.8744998 -0.28822133 30
1.4627912 1.857542 -0.20350897 30
1.4573771 1.8500023 -0.12101538 28
1.4594406 1.8519567 -0.040085051 29
1.4589443 1.8506626 0.62076104 29
1.4597404 1.8510077 0.53497875 31
1.4525119 1.8411808 0.44799849 26
1.4585892 1.8482208 0.36643454 29
1.4567053 1.8451715 0.28395554 28
1.4653834 1.8554977 0.20350866 35
1.4661363 1.855785 0.12194277 29
1.4558208 1.8420669 0.040315058 30
1.1899382 1.5029446 -0.50340325 4
1.3667623 1.7256624 -0.49939165 4
1.4624611 1.8458289 -0.44990519 11
1.4685521 1.8528521 -0.36840346 12
1.4821497 1.8693376 -0.28822133 28
1.4723616 1.8563268 -0.20394474 30
1.4669294 1.8488153 -0.12127619 28
1.4690043 1.8507668 -0.040171444 25
1.4653956 1.8455586 0.62076104 30
1.4661927 1.8459009 0.53497875 31
1.4619837 1.8399425 0.44895169 26
1.4681046 1.8469839 0.36721584 28
1.4662261 1.8439598 0.28456491 33
1.474952 1.8542693 0.20394443 30
1.4726052 1.8506559 0.12194277 30
1.4653556 1.8408855 0.040402319 27
1.1891549 1.4912298 -0.50081509 4
1.3727776 1.7208809 -0.49939165 4
1.471957 1.8445493 -0.45085838 12
1.4750108 1.8477145 -0.36840346 14
1.4917625 1.8680304 -0.28883067 25
1.4819412 1.8550678 -0.20438054 30
1.4764913 1.8475842 -0.12153699 22
1.4754556 1.8456278 -0.040171444 29
1.4748453 1.8442042 0.62205434 28
1.4756707 1.8445762 0.53610265 31
1.471464 1.8386599 0.44990486 24
1.4776294 1.8457036 0.36799717 22
1.475756 1.8427041 0.28517425 29
1.4845302 1.8529969 0.20438023 32
1.4821789 1.8494006 0.12220446 31
1.4748995 1.8396596 0.04048958 26
nan nan nan 0
1.378177 1.7165598 -0.49939165 4
1.4808178 1.8437425 -0.45181155 9
1.4839013 1.8469213 -0.36918563 13
1.4976238 1.8633347 -0.28883067 30
1.4908828 1.8542848 -0.20481631 30
1.4854178 1.8468275 -0.12179781 25
1.4843802 1.8448781 -0.04025783 29
1.4836602 1.8433242 0.62334752 29
1.4845138 1.8437258 0.53722656 30
1.4803121 1.8378509 0.45085809 26
1.4834206 1.8410524 0.36799717 32
1.4846522 1.8419228 0.28578362 30
1.4903442 1.8483239 0.20438023 30
1.4879817 1.844735 0.12220446 31
1.4838111 1.8389078 0.040576845 28
1.2263439 1.5171142 -0.5124619 4
1.3872238 1.7155266 -0.50051636 4
1.4903318 1.8423785 -0.45276478 13
1.493446 1.8455695 -0.36996782 12
1.5072415 1.861953 -0.28944001 29
1.5004811 1.8529402 -0.2052521 31
1.4949983 1.845511 -0.12205861 29
1.4908111 1.8396854 -0.04025783 31
1.4931271 1.841886 0.62464082 30
1.4940094 1.8423171 0.53835046 30
1.4898106 1.8364841 0.45181125 23
1.4929498 1.8396976 0.36877847 26
1.4942003 1.8405819 0.28639293 24
1.4999268 1.8469769 0.20481598 32
1.4975601 1.8434051 0.12246613 26
1.4902211 1.8337171 0.040576845 27
1.2379959 1.5200988 -0.51505011 4
1.3965795 1.7142079 -0.50164115 4
1.5001752 1.8407084 -0.45371795 10
1.5033207 1.8439108 -0.37074998 14
1.5140558 1.8564162 -0.28944001 31
1.5072623 1.8474282 -0.2052521 32
1.5049096 1.8438874 -0.12231942 23
1.5007057 1.8380815 -0.040344223 29
1.4998679 1.836401 0.62464082 29
1.5038341 1.8406016 0.53947437 30
1.4996378 1.8348117 0.45276445 24
1.5028089 1.8380368 0.36955979 31
1.5040785 1.8389345 0.2870023 28
1.5098405 1.8453221 0.20525178 26
1.5074692 1.8417679 0.12272782 27
1.5032662 1.8359791 0.040751368 28
nan nan nan 0
1.4056449 1.7130884 -0.50276589 3
1.5097055 1.8392547 -0.45467114 10
1.5128818 1.8424686 -0.37153217 13
1.5236764 1.8549545 -0.29004934 30
1.5168642 1.8460042 -0.20568787 31
1.5145075 1.8424804 -0.12258023 18
1.5102878 1.8366933 -0.040430613 32
1.5093372 1.8348843 0.62593406 31
1.5133457 1.8391031 0.54059827 32
1.5091528 1.8333554 0.45371762 25
1.5154941 1.8404044 0.37112242 28
1.5104885 1.8336731 0.2870023 28
1.5162728 1.8400406 0.20525178 34
1.520241 1.8442004 0.12325118 26
1.5128462 1.8345772 0.040838629 25
nan nan nan 0
1.4147197 1.7119271 -0.50389069 4
1.5192437 1.8377565 -0.45562431 10
1.5224513 1.8409821 -0.3723143 13
1.5333056 1.8534486 -0.29065871 34
1.5264744 1.8445355 -0.20612365 35
1.5209297 1.8371826 -0.12258023 36
1.5230672 1.8391109 -0.040603392 32
1.5188143 1.8333241 0.62722731 31
1.5228649 1.8375607 0.54172218 31
1.5186758 1.8318549 0.45467082 28
1.5250618 1.8389045 0.37190372 27
1.5200486 1.8322088 0.28761163 36
1.5322294 1.8462353 0.20655911 33
1.5298586 1.8427241 0.12351285 31
1.525629 1.836977 0.041013151 27
nan nan nan 0
1.4238033 1.7107227 -0.50501537 3
1.52879 1.8362142 -0.45657751 11
1.5320288 1.8394512 -0.3730965 14
1.5429428 1.8518978 -0.29126805 33
1.5360926 1.8430219 -0.20655942 39
1.530531 1.8356974 -0.12284105 28
1.5358819 1.8414615 -0.040776171 31
1.5221101 1.8243024 0.62593406 36
1.5323919 1.8359741 0.54284608 31
1.5282067 1.8303103 0.45562398 32
1.5346375 1.8373603 0.37268505 27
1.5264349 1.8268918 0.28761163 35
1.5386647 1.8408755 0.20655911 41
1.5362816 1.8373727 0.12351285 38
1.532032 1.8316404 0.041013151 26
nan nan nan 0
1.4391551 1.7169435 -0.50838971 3
1.5351903 1.8308666 -0.45657751 11
1.5384403 1.8340921 -0.3730965 14
1.5493977 1.8465006 -0.29126805 39
1.5425166 1.8376487 -0.20655942 28
1.5369295 1.8303437 -0.12284105 37
1.5390849 1.8322612 -0.040689785 27
1.5284688 1.8189782 0.62593406 23
1.5387913 1.830614 0.54284608 22
1.5282686 1.8174514 0.45371762 18
1.5442206 1.8357713 0.37346631 20
1.5359979 1.8253495 0.288221 21
1.5450811 1.8354934 0.20655911 27
1.5426859 1.8319988 0.12351285 23
1.5062083 1.788047 0.040140532 17
nan nan nan 0
1.4388542 1.7044641 -0.50614017 4
1.5415719 1.8254967 -0.45657751 12
1.54802 1.8324834 -0.37387866 14
1.5558337 1.841081 -0.29126805 25
1.5424906 1.8246454 -0.20568787 17
1.5465332 1.8287801 -0.12310185 24
1.5325561 1.8116107 -0.040344223 12
1.531689 1.8099451 0.62464082 15
1.542024 1.8215128 0.54172218 16
1.5346034 1.8121057 0.45371762 15
1.5538116 1.8341383 0.37424764 8
1.5423602 1.8199768 0.288221 16
nan nan nan 0
nan nan nan 0
1.5189087 1.7904027 0.040315058 13
1.2070068 1.4202361 -0.48916823 5
1.4353284 1.6882957 -0.50276589 4
1.5511146 1.8238434 -0.45753068 9
1.5576073 1.8308302 -0.37466085 13
1.5622509 1.835639 -0.29126805 17
1.5456214 1.8154573 -0.2052521 13
1.5529075 1.8233707 -0.12310185 14
1.5356282 1.8024446 -0.04025783 12
1.5317317 1.7972356 0.62205434 10
1.5452119 1.8124115 0.54059827 10
1.5218089 1.7843305 0.44799849 11
1.5634097 1.83246 0.37502894 13
1.5519254 1.8183565 0.28883031 10
nan nan nan 0
1.5489525 1.8135906 0.12298949 12
nan nan nan 0
1.2402208 1.4490368 -0.50081509 3
1.4285387 1.6684723 -0.49826688 3
1.5542786 1.8146899 -0.45657751 9
1.5672016 1.8291317 -0.37544301 10
1.5686488 1.8301744 -0.29126805 13
1.5454649 1.8024884 -0.20438054 12
1.5625137 1.8217291 -0.12336266 9
1.5158676 1.7667205 -0.039566711 16
1.5568702 1.8138677 0.62981385 14
1.5388337 1.792221 0.53610265 8
1.5472167 1.8013481 0.45371762 15
1.5730153 1.8307375 0.37581027 15
1.5614983 1.816692 0.28943968 15
nan nan nan 0
nan nan nan 0
nan nan nan 0
1.1885133 1.3788512 -0.47752133 4
1.4120842 1.6376483 -0.49039361 4
1.5541918 1.8018203 -0.45467114 7
1.5768031 1.8273892 -0.3762252 12
1.5782706 1.8284445 -0.29187742 12
1.5647687 1.8121628 -0.20612365 10
1.5721271 1.8200423 -0.12362346 19
1.548174 1.79168 -0.04025783 9
1.5695093 1.8157301 0.63240033 14
1.5642008 1.8089505 0.54284608 17
1.5631285 1.8070729 0.45657721 15
1.5826275 1.8289698 0.37659156 16
1.5678301 1.8112303 0.28943968 15
nan nan nan 0
nan nan nan 0
1.5735868 1.8159581 0.041274939 7
1.2408088 1.4294018 -0.49693277 5
1.4273747 1.6437446 -0.49376786 3
1.5830036 1.8223221 -0.46134344 13
1.5864115 1.8256016 -0.37700737 12
1.5911553 1.8304151 -0.2930961 16
1.5776216 1.814207 -0.20699522 18
1.5817479 1.818311 -0.12388428 13
1.5642643 1.7975788 -0.040517002 10
1.5853516 1.8211694 0.63628012 16
1.5737051 1.8071535 0.54396999 13
1.5790987 1.8127084 0.45943674 16
1.5922469 1.8271576 0.37737289 16
1.5774038 1.8094871 0.29004902 16
1.5965217 1.8307728 0.20917377 16
nan nan nan 0
1.583203 1.8142208 0.0413622 17
1.2298974 1.4068815 -0.4904623 4
1.4298968 1.635085 -0.49264312 3
1.6022824 1.8315625 -0.46515623 12
1.5960267 1.8237692 -0.37778956 13
1.6040726 1.8323178 -0.2943148 16
1.5937895 1.8199304 -0.20830254 13
1.5913755 1.8165343 -0.12414508 15
1.5441701 1.7620294 -0.039825883 15
1.5980667 1.822888 0.6388666 16
1.5896409 1.8126383 0.5473417 13
1.5918905 1.8145646 0.46134311 16
1.6018726 1.8253005 0.37815419 16
1.5902588 1.8114289 0.29126769 18
1.6029027 1.8251886 0.20917377 18
nan nan nan 0
1.5928265 1.8124386 0.041449465 17
1.2443749 1.4134545 -0.49434459 4
1.4484752 1.6447082 -0.49714214 3
1.6151552 1.8333241 -0.46706262 10
1.6056484 1.8218919 -0.37857169 13
1.6170224 1.8341525 -0.29553348 18
1.6067216 1.8218273 -0.2091741 14
1.6010102 1.8147126 -0.1244059 15
1.5866995 1.7978593 -0.040776171 9
1.6076165 1.8209192 0.64015985 14
1.5991837 1.8107303 0.54846561 12
1.6014645 1.8126751 0.46229634 15
1.6115048 1.8233981 0.37893552 16
1.5998592 1.8095849 0.29187706 17
1.6191635 1.8307756 0.21048112 16
1.6101451 1.8199383 0.12534462 16
1.6024566 1.8106112 0.041536722 17
1.2493011 1.4091023 -0.49434459 3
1.4574399 1.6432867 -0.49826688 4
1.6248022 1.8313464 -0.46801579 9
1.6152762 1.8199694 -0.37935388 11
1.6300049 1.8359191 -0.29675218 12
1.6163789 1.819932 -0.20960988 13
1.6106513 1.8128455 -0.1246667 13
1.5996076 1.7997829 -0.040948953 20
1.6171722 1.8189062 0.64145315 14
1.6119702 1.812418 0.55071342 12
1.6110448 1.8107411 0.46324947 13
1.6178598 1.8177619 0.37893552 17
1.6094663 1.8076956 0.2924864 16
1.6222312 1.8213929 0.21004534 17
1.6198095 1.8180348 0.12560628 16
1.6154195 1.8124704 0.041711248 17
1.2574288 1.4083354 -0.4956387 3
1.4664128 1.6418231 -0.49939165 3
1.6311848 1.8256636 -0.46801579 8
1.6249102 1.8180021 -0.38013604 13
1.6397114 1.8339177 -0.29736155 13
1.6293631 1.8217039 -0.21048145 13
1.620299 1.8109336 -0.12492751 15
1.6225511 1.8128139 -0.041380905 13
1.6267333 1.8168482 0.64274633 16
1.6215374 1.8104093 0.55183733 13
1.620631 1.808762 0.4642027 8
1.6274914 1.8157809 0.37971681 12
1.6223924 1.8094565 0.29370511 17
1.635231 1.8231351 0.21091689 13
1.6294805 1.8160861 0.12586798 16
1.6250758 1.8105412 0.04179851 16
1.2623372 1.4039377 -0.4956387 3
1.4753926 1.6403164 -0.50051636 3
1.6342648 1.81631 -0.46706262 7
1.6378542 1.8196604 -0.38170043 12
1.6527444 1.8355591 -0.29858023 12
1.6390456 1.8197062 -0.2109172 13
1.6299528 1.8089761 -0.12518832 14
1.6355633 1.8145658 -0.041553684 13
1.6362996 1.8147458 0.64403963 15
1.6311102 1.8083558 0.55296123 14
1.6335111 1.8103822 0.46610907 10
1.6371287 1.813755 0.38049814 12
1.6320246 1.8074659 0.29431444 16
1.6449238 1.8211125 0.21135268 12
1.6425049 1.8177966 0.12639134 15
1.6380904 1.8122751 0.041973036 16
1.2672302 1.3995228 -0.4956387 3
1.4843802 1.6387672 -0.50164115 3
1.6372991 1.8069569 -0.4661094 6
1.6475126 1.8175911 -0.38248259 12
1.6624751 1.833455 -0.29918957 12
1.6487341 1.8176632 -0.211353 13
1.6429679 1.8106711 -0.12570994 14
1.6452472 1.8125473 -0.041640073 13
1.6458712 1.8125987 0.64533287 16
1.6439644 1.809864 0.55520904 14
1.6431215 1.8083019 0.46706229 12
1.6467719 1.8116838 0.38127947 13
1.6450013 1.8091015 0.29553315 17
1.6546221 1.8190441 0.21178845 12
1.6522006 1.8157451 0.126653 16
1.6477715 1.8102429 0.042060297 16
1.2721076 1.3950907 -0.4956387 3
1.4900916 1.6335758 -0.50164115 3
1.6369798 1.7939793 -0.46420303 5
1.6605058 1.8191237 -0.38404691 12
1.6722113 1.8313055 -0.29979894 12
1.6584281 1.8155744 -0.21178877 13
1.6526465 1.808611 -0.12597075 14
1.6549373 1.8104832 -0.041726466 13
1.6554475 1.8104069 0.64662611 15
1.6568485 1.8113042 0.55745685 14
1.652737 1.8061763 0.46801546 15
1.6597549 1.8132102 0.38284209 12
1.6546576 1.8070083 0.29614249 12
1.6643262 1.8169304 0.21222423 13
1.661902 1.8136482 0.12691469 15
1.6574585 1.8081653 0.042147558 15
1.2769697 1.3906417 -0.4956387 3
1.4924887 1.6247765 -0.50051636 3
1.6365899 1.7810259 -0.46229663 5
1.6701877 1.8169522 -0.3848291 13
1.6819528 1.8291103 -0.30040827 12
1.6715001 1.8171065 -0.21266034 14
1.6657119 1.8101798 -0.12649237 14
1.6646327 1.8083735 -0.041812852 13
1.6650286 1.8081701 0.64791936 6
1.6664621 1.8090931 0.55858076 6
1.665684 1.8076153 0.46992183 7
1.6694211 1.8110366 0.38362336 12
1.6643195 1.80487 0.29675183 12
1.6740357 1.8147709 0.21266001 12
1.6749951 1.8151752 0.12743805 15
1.667151 1.806042 0.042234819 16
1.2785372 1.3826299 -0.49434459 3
1.4981512 1.6195568 -0.50051636 3
1.6727996 1.8077251 -0.47087535 6
1.6832293 1.8183594 -0.38639346 12
1.695071 1.8305106 -0.30162695 12
1.6812176 1.8149148 -0.21309611 14
1.6754142 1.8080169 -0.12675317 14
1.6743336 1.8062184 -0.041899245 13
1.6778982 1.8094302 0.65050584 3
1.6827068 1.8139807 0.56195247 4
1.6819997 1.8125837 0.47278142 5
1.6790928 1.8088179 0.38440469 12
1.6739866 1.8026861 0.2973612 12
1.6871402 1.8162152 0.21353158 13
1.68472 1.812975 0.12769973 16
1.6802526 1.8075347 0.042409342 15
1.276773 1.3710896 -0.49175641 3
1.5004748 1.6107528 -0.49939165 3
1.6958306 1.8198292 -0.47564128 6
1.6929337 1.8160847 -0.38717562 13
1.7048351 1.8282121 -0.30223632 12
1.6909404 1.8126775 -0.21353191 13
1.6851219 1.8058082 -0.12701398 14
1.6840396 1.8040172 -0.041985635 13
1.6973898 1.8176823 0.65567887 2
1.6990061 1.8187766 0.56532419 3
1.7017212 1.821046 0.47659415 4
1.6921413 1.810161 0.38596731 12
1.6836585 1.8004564 0.29797053 12
1.6968724 1.8139522 0.21396735 12
1.6944498 1.8107291 0.12796141 16
1.6899683 1.8053085 0.042496607 16
1.2782476 1.3631015 -0.4904623 3
1.499422 1.5983989 -0.49714214 3
1.7055314 1.8174779 -0.47659451 5
1.7026426 1.813765 -0.38795781 12
1.7146034 1.8258678 -0.30284566 12
1.7006677 1.8103943 -0.21396768 13
1.6948346 1.8035539 -0.1272748 14
1.697175 1.8054129 -0.042158417 14
1.7136507 1.822302 0.65955865 2
1.7153592 1.8234808 0.5686959 3
1.7215223 1.8293928 0.48040691 4
1.7018348 1.8078393 0.38674861 12
1.6899329 1.7945684 0.29797053 11
1.7066094 1.8116437 0.21440314 13
1.7041845 1.8084372 0.12822309 16
1.6996889 1.803036 0.042583872 15
1.282998 1.3586313 -0.4904623 3
1.5016466 1.5896137 -0.49601737 3
1.7186074 1.8186482 -0.47850087 5
1.712356 1.8113992 -0.38873994 13
1.7277861 1.8270831 -0.30406433 12
1.7103999 1.8080655 -0.21440347 14
1.7045516 1.8012533 -0.1275356 14
1.7069033 1.803108 -0.042244807 13
1.7299641 1.8268299 0.66343844 2
1.7317655 1.8280929 0.57206756 2
1.738026 1.8340603 0.48326644 3
1.7115326 1.8054718 0.38752994 12
1.6996019 1.7922596 0.2985799 12
1.7163508 1.809289 0.21483891 12
1.7139238 1.8060993 0.12848477 16
1.7094142 1.8007176 0.042671129 16
1.2910608 1.3576444 -0.49175641 3
1.5004704 1.5773025 -0.49376786 3
1.7215617 1.8090823 -0.47754765 5
1.7220737 1.808988 -0.38952214 13
1.7375759 1.8246348 -0.3046737 12
1.723572 1.809297 -0.21527502 13
1.7142735 1.7989072 -0.12779641 14
1.7166364 1.8007575 -0.0423312 13
1.7429968 1.8277706 0.66602492 2
1.7414994 1.8255624 0.57319152 2
1.7444174 1.8279824 0.48326644 3
1.7212346 1.8030587 0.38831124 12
1.7092749 1.789905 0.29918921 12
1.7295372 1.8104903 0.21571046 12
1.7236675 1.8037153 0.12874645 16
1.7191441 1.7983534 0.042758394 15
1.2991322 1.3566176 -0.49305049 3
1.4992268 1.5650191 -0.49151835 3
1.7244701 1.7995182 -0.47659451 4
1.7317951 1.8065307 -0.3903043 13
1.7473692 1.8221402 -0.30528304 13
1.7333251 1.8068639 -0.21571079 14
1.7239996 1.7965149 -0.12805721 13
1.7263739 1.7983607 -0.042417586 13
1.7694386 1.8425773 0.67378443 16
1.7579869 1.8300128 0.57656324 13
1.7643915 1.8360384 0.4870792 16
1.7309405 1.8005998 0.38909256 12
1.7189524 1.7875048 0.29979858 13
1.7358465 1.804442 0.21571046 12
1.7368778 1.8048835 0.12926981 16
1.7323452 1.7995448 0.04293292 16
1.310565 1.3590275 -0.4956387 3
1.4979157 1.5527638 -0.48926884 4
1.7307413 1.7934878 -0.47659451 4
1.7415205 1.8040277 -0.39108649 13
1.7571665 1.8195996 -0.30589241 12
1.7430824 1.8043848 -0.21614657 14
1.73373 1.7940768 -0.12831803 14
1.7361157 1.795918 -0.042503979 13
1.7624296 1.8225017 0.66861141 17
1.7779139 1.8378719 0.58105886 20
1.7537235 1.8122326 0.48231328 16
1.7406501 1.7980949 0.38987383 11
1.728634 1.7850586 0.30040792 13
1.7456003 1.8019495 0.21614625 12
1.746642 1.8023951 0.12953149 16
1.7420957 1.7970762 0.043020178 16
1.3153008 1.3544444 -0.4956387 3
1.5033269 1.5475256 -0.48926884 4
1.736991 1.7874355 -0.47659451 4
1.7512493 1.8014786 -0.39186865 13
1.7669672 1.8170127 -0.30650172 12
1.7528435 1.8018597 -0.21658234 14
1.7434642 1.7915924 -0.12857884 14
1.7458611 1.793429 -0.042590369 13
1.7654108 1.8128784 0.66731817 15
1.76732 1.8142052 0.57543933 18
1.7566129 1.8025844 0.48136008 16
1.7503635 1.7955445 0.39065516 12
1.741784 1.7861196 0.30162659 13
1.7553577 1.7994106 0.21658202 13
1.7564102 1.7998608 0.12979317 16
1.7518504 1.7945616 0.043107443 16
1.316644 1.3463919 -0.49434459 3
1.5121266 1.5457513 -0.49039361 4
1.7432199 1.7813615 -0.47659451 4
1.7609817 1.7988836 -0.39265084 13
1.7767712 1.8143795 -0.30711108 12
1.7626082 1.7992884 -0.21701814 15
1.7532022 1.789062 -0.12883966 14
1.7556103 1.790894 -0.042676758 13
1.7683465 1.8032564 0.66602492 16
1.7702302 1.8045471 0.57431537 14
1.7560188 1.7894353 0.47945368 17
1.7600799 1.7929478 0.39143646 12
1.7514853 1.7835698 0.30223596 13
1.7651188 1.7968255 0.2170178 13
1.7661821 1.7972803 0.13005485 17
1.7616085 1.7920007 0.043194704 16
1.3213357 1.3417877 -0.49434459 3
1.517513 1.5404637 -0.49039361 4
1.7528722 1.7787615 -0.47754765 4
1.7707171 1.7962426 -0.39343297 13
1.7865783 1.8116997 -0.30772042 13
1.7758741 1.8002167 -0.2178897 14
1.766451 1.7900393 -0.12936127 14
1.7653631 1.7883124 -0.042763148 13
1.7712365 1.7936361 0.66473162 21
1.7696705 1.7914248 0.57206756 17
1.7622542 1.7832948 0.47945368 12
1.7697999 1.7903053 0.39221779 12
1.7611901 1.7809738 0.3028453 13
1.7748832 1.7941943 0.21745357 13
1.7759571 1.7946534 0.13031653 16
1.7713703 1.7893934 0.043281965 16
1.3260114 1.3371673 -0.49434459 4
1.5297431 1.5420746 -0.49264312 3
1.7590708 1.7726319 -0.47754765 4
1.7804557 1.7935556 -0.39421517 13
1.7963885 1.808974 -0.30832979 12
1.7856574 1.7975403 -0.21832547 15
1.7762083 1.7874042 -0.12962207 14
1.7751194 1.7856849 -0.042849541 13
1.7808925 1.7908671 0.66602492 16
1.7793491 1.7886907 0.57319152 21
1.7719308 1.7806118 0.48040691 12
1.7795224 1.7876165 0.39299908 12
1.7708977 1.7783318 0.30345467 12
1.7846506 1.7915168 0.21788937 13
1.7857351 1.7919799 0.1305782 16
1.7811348 1.7867398 0.043369226 16
1.3272582 1.329113 -0.49305049 4
1.5351167 1.5367254 -0.49264312 3
1.7687171 1.7699528 -0.47850087 4
1.7901968 1.7908223 -0.39499733 13
1.806201 1.8062015 -0.30893913 13
1.7954441 1.7948179 -0.21876125 14
1.7895006 1.7882521 -0.13014369 15
1.7848785 1.7830106 -0.042935926 14
1.7905505 1.7880527 0.66731817 17
1.78903 1.7859106 0.57431537 16
1.7816097 1.7778826 0.48136008 12
1.789248 1.7848817 0.39378041 12
1.7806085 1.7756436 0.30406398 13
1.7944207 1.7887926 0.21832512 12
1.7955164 1.7892601 0.13083988 16
1.7909029 1.7840399 0.043456491 17
1.3318896 1.324472 -0.49305049 3
1.5404714 1.5313574 -0.49264312 3
1.7783662 1.7672278 -0.47945404 3
1.8034441 1.7915231 -0.39656168 12
1.8160163 1.8033826 -0.30954847 13
1.8052331 1.7920488 -0.21919702 13
1.7992761 1.785512 -0.1304045 15
1.7981898 1.7838111 -0.043108709 12
1.7967811 1.7817916 0.66731817 18
1.7987131 1.783085 0.57543933 17
1.7912914 1.775108 0.48231328 12
1.7989759 1.7821009 0.39456171 13
1.7903224 1.7729094 0.30467334 12
1.8041937 1.7860223 0.21876092 12
1.8053004 1.7864939 0.13110156 16
1.8006732 1.7812933 0.043543749 16
1.3365047 1.3198148 -0.49305049 3
1.5458075 1.5259709 -0.49264312 3
1.7845242 1.7610093 -0.47945404 3
1.8132025 1.7886853 -0.39734387 13
1.8258338 1.8005172 -0.31015781 13
1.8185718 1.79273 -0.22006857 13
1.8090541 1.7827249 -0.1306653 13
1.8079671 1.7810317 -0.043195099 12
1.8064312 1.7788976 0.66861141 17
1.8083985 1.7802135 0.57656324 16
1.8044735 1.7757297 0.48421967 12
1.8087064 1.7792739 0.39534304 12
1.8000383 1.7701287 0.30528268 12
1.8139691 1.7832054 0.21919669 12
1.8186479 1.7871809 0.13162492 15
1.8140129 1.7820036 0.043718275 17
1.3376554 1.3117599 -0.49175641 3
1.5511247 1.5205657 -0.49264312 3
1.794166 1.7582048 -0.48040724 3
1.8229629 1.7858008 -0.39812601 13
1.8356533 1.7976049 -0.31076717 13
1.8283781 1.7898554 -0.22050437 14
1.8188349 1.7798918 -0.13092612 14
1.8177466 1.7782059 -0.043281488 13
1.8160826 1.7759578 0.66990465 17
1.8180853 1.7772956 0.57768714 16
1.8141714 1.7728504 0.48517281 12
1.8219715 1.7798514 0.39690566 13
1.8097569 1.767302 0.30589205 12
1.8273113 1.7838215 0.22006825 12
1.8284489 1.784309 0.1318866 16
1.8238008 1.7791518 0.04380554 16
1.3387661 1.3037132 -0.4904623 3
1.5668956 1.5253367 -0.49601737 3
1.80381 1.7553545 -0.48136041 3
1.8327253 1.7828704 -0.3989082 13
1.8454748 1.7946463 -0.31137651 13
1.8381861 1.7869344 -0.22094014 14
1.8286175 1.7770118 -0.13118692 14
1.8275285 1.7753335 -0.043367881 13
1.8257358 1.7729727 0.67119795 16
1.8277739 1.7743322 0.57881105 15
1.8273937 1.7733434 0.4870792 13
1.831718 1.7769194 0.39768693 12
1.8194776 1.7644289 0.30650139 13
1.8371032 1.780899 0.22050403 13
1.8382519 1.7813905 0.13214828 16
1.8335907 1.7762531 0.043892797 16
1.3433088 1.2990321 -0.4904623 3
1.5792159 1.5266302 -0.49826688 3
1.8134559 1.7524581 -0.48231363 3
1.8460411 1.7833242 -0.40047255 13
1.855298 1.791641 -0.31198588 12
1.8479962 1.7839663 -0.22137593 14
1.8419952 1.7775525 -0.13170855 14
1.8373123 1.7724141 -0.043454267 14
1.8353901 1.7699414 0.67249113 16
1.8374641 1.7713226 0.57993495 14
1.8371069 1.7703599 0.4880324 13
1.8414662 1.773941 0.39846826 13
1.8292003 1.7615093 0.30711073 13
1.8504853 1.7813843 0.22137558 13
1.8480568 1.7784252 0.13240996 17
1.8433825 1.7733077 0.043980062 16
1.3478351 1.2943351 -0.4904623 3
1.5950789 1.5312302 -0.50164115 3
1.826645 1.7529143 -0.48422 3
1.8558186 1.7802883 -0.40125474 13
1.8651227 1.7885888 -0.31259522 12
1.8578076 1.7809516 -0.2218117 14
1.8517942 1.7745667 -0.13196936 14
1.847098 1.7694482 -0.04354066 13
1.8450458 1.7668647 0.67378443 15
1.8471553 1.7682669 0.58105886 14
1.8468215 1.7673299 0.48898563 12
1.8512157 1.770916 0.39924955 12
1.8425114 1.7619734 0.30832943 13
1.8602927 1.7783561 0.22181135 13
1.8578632 1.775413 0.13267164 16
1.8531761 1.7703154 0.044067323 16
1.3523449 1.2896224 -0.4904623 3
1.5968878 1.5222912 -0.50051636 3
1.8363057 1.7499135 -0.48517317 4
1.8691732 1.7806121 -0.4028191 12
1.8785424 1.7889123 -0.31381392 12
1.8676207 1.7778902 -0.22224748 14
1.8615942 1.771534 -0.13223016 14
1.8568854 1.7664354 -0.04362705 13
1.8547019 1.7637417 0.67507768 15
1.8568474 1.7651652 0.58218277 13
1.8565376 1.7642536 0.4899388 12
1.8609667 1.7678446 0.40003088 12
1.852249 1.7589483 0.30893877 13
1.8701015 1.775281 0.22224714 12
1.8676711 1.7723541 0.13293332 16
1.8629715 1.7672765 0.044154584 16
1.3568382 1.284894 -0.4904623 3
1.591578 1.5066602 -0.49714214 3
1.8459681 1.7468667 -0.48612636 3
1.8789645 1.7774701 -0.40360126 12
1.8883812 1.7857537 -0.31442326 12
1.8774348 1.7747817 -0.22268325 13
1.8713959 1.7684546 -0.13249098 13
1.8666743 1.7633761 -0.043713439 12
1.8643587 1.7605729 0.67637092 13
1.8700835 1.7653617 0.58443058 14
1.8662544 1.7611312 0.49089199 12
1.8707188 1.764727 0.40081221 11
1.8619882 1.755877 0.30954811 12
1.8835359 1.7755755 0.22311871 12
1.8774803 1.7692484 0.133195 15
1.8727679 1.7641907 0.044241846 16
1.3613151 1.2801501 -0.4904623 3
1.5897282 1.4944216 -0.49489263 3
1.8556312 1.7437736 -0.48707953 4
1.8887571 1.774282 -0.40438342 12
1.9018384 1.7859455 -0.31564194 13
1.890882 1.7750359 -0.22355483 14
1.8811985 1.765328 -0.13275178 14
1.8764642 1.7602696 -0.043799829 12
1.874016 1.7573582 0.67766416 12
1.8797888 1.7621552 0.58555448 13
1.875972 1.7579622 0.49184516 12
1.8840758 1.7649386 0.40237483 11
1.875351 1.7561511 0.31076682 13
1.8933586 1.7723941 0.22355449 12
1.8872906 1.7660956 0.13345668 15
1.8825656 1.7610581 0.044329111 16
1.3657755 1.2753903 -0.4904623 3
1.5878124 1.4822145 -0.49264312 3
1.8581185 1.733937 -0.48612636 4
1.89855 1.7710468 -0.40516558 12
1.9116907 1.7826807 -0.31625131 13
1.9007099 1.771821 -0.2239906 13
1.8910024 1.7621551 -0.13301259 14
1.8899134 1.760524 -0.043972608 12
1.8836737 1.7540973 0.67895746 12
1.8930607 1.7622219 0.58780229 13
1.8856903 1.7547468 0.49279836 12
1.893841 1.7617149 0.40315613 11
1.8851038 1.7529736 0.31137615 12
1.9031821 1.7691654 0.22399026 12
1.9007591 1.766295 0.13398004 15
1.8960268 1.7612807 0.044503633 16
1.370219 1.270615 -0.4904623 3
1.5894036 1.4733508 -0.49151835 3
1.8605593 1.7241039 -0.48517317 4
1.9083437 1.7677648 -0.40594777 11
1.9251842 1.7827406 -0.31747001 12
1.9105384 1.7685591 -0.22442639 13
1.9008065 1.7589345 -0.13327339 14
1.8997173 1.7573112 -0.044059001 13
1.8968773 1.7540698 0.68154395 12
1.9027779 1.7589103 0.5889262 13
1.8954086 1.7514849 0.49375153 12
1.9072343 1.7617955 0.40471876 12
1.8948574 1.7497495 0.31198549 12
1.9130062 1.76589 0.22442605 12
1.9105828 1.7630355 0.13424173 15
1.9058378 1.7580413 0.044590894 16
1.3746459 1.2658244 -0.4904623 3
1.5945369 1.4677938 -0.49151835 3
1.8665663 1.7175989 -0.48517317 4
1.9181372 1.764436 -0.40672994 11
1.9350483 1.7793688 -0.31807932 13
1.9203671 1.7652501 -0.22486216 14
1.9106115 1.7556672 -0.13353421 13
1.9132031 1.7574329 -0.04423178 13
1.9065459 1.7507043 0.68283719 12
1.9124955 1.7555524 0.5900501 13
1.9051276 1.7481766 0.49470475 12
1.9206511 1.7618039 0.40628135 12
1.9082689 1.7498326 0.3132042 12
1.926502 1.7659329 0.2252976 11
1.9204066 1.7597288 0.13450339 15
1.9193361 1.7581316 0.04476542 16
1.3790561 1.2610183 -0.4904623 3
1.5996506 1.4622189 -0.49151835 3
1.8725505 1.7110729 -0.48517317 4
1.9279308 1.7610602 -0.40751213 12
1.9485772 1.7792959 -0.31929803 13
1.9301963 1.7618941 -0.22529794 13
1.9241052 1.7557186 -0.13405582 13
1.9230196 1.7541132 -0.044318173 12
1.9197832 1.7505472 0.68542367 13
1.9222124 1.7521478 0.59117401 12
1.9148461 1.7448215 0.49565789 12
1.9304404 1.7584147 0.40706271 12
1.918035 1.7465023 0.31381357 12
1.9363378 1.7625502 0.22573337 12
1.9302305 1.7563752 0.13476509 16
1.9291593 1.7547849 0.044852681 16
1.379874 1.2529501 -0.48916823 3
1.604745 1.4566261 -0.49151835 3
1.8785118 1.7045262 -0.48517317 4
1.9413819 1.7609557 -0.40907648 12
1.9584528 1.775817 -0.3199074 12
1.9437157 1.7618363 -0.22616951 13
1.9339223 1.7523445 -0.13431664 13
1.9328361 1.750746 -0.044404563 13
1.9294624 1.7470771 0.68671691 13
1.935541 1.7519665 0.59342182 12
1.9282042 1.7447134 0.49756429 12
1.9402291 1.7549782 0.40784398 12
1.931482 1.7464532 0.31503224 12
1.9461739 1.7591206 0.22616915 12
1.9400547 1.7529743 0.13502677 15
1.9389828 1.7513913 0.044939946 16
1.3842391 1.2481258 -0.48916823 3
1.6098198 1.4510156 -0.49151835 3
1.8880968 1.7012442 -0.48612636 4
1.9511863 1.7574732 -0.40985861 11
1.9683275 1.7722903 -0.32051674 12
1.9535558 1.7583728 -0.22660528 13
1.9437391 1.7489227 -0.13457744 13
1.9463694 1.750675 -0.044577342 13
1.9427322 1.7467901 0.68930346 13
1.9452683 1.7484565 0.59454572 11
1.9379337 1.7412525 0.49851748 13
1.9536916 1.754795 0.4094066 12
1.9412589 1.743016 0.31564158 12
1.9560093 1.7556435 0.22660492 11
1.9535946 1.7528607 0.13555013 15
1.9525279 1.7512884 0.045114469 16
1.3885876 1.2432864 -0.48916823 3
1.6148751 1.4453875 -0.49151835 3
1.8940238 1.6946433 -0.48612636 4
1.9609903 1.7539439 -0.41064081 11
1.9782016 1.7687169 -0.32112607 12
1.9633957 1.7548623 -0.22704107 13
1.957279 1.7487808 -0.13509907 13
1.9561973 1.7472005 -0.044663735 12
1.9524204 1.7432147 0.69059664 13
1.9549942 1.7448995 0.59566957 11
1.9513248 1.7410126 0.50042385 12
1.9634907 1.7512518 0.41018793 12
1.9510357 1.739532 0.31625095 12
1.9695625 1.7554333 0.22747648 12
1.9634295 1.7493522 0.13581181 15
1.9623621 1.747787 0.04520173 15
1.3965282 1.2416407 -0.4904623 3
1.6199105 1.4397417 -0.49151835 3
1.9035969 1.6912814 -0.48707953 4
1.9744853 1.753647 -0.41220516 12
1.9880747 1.7650957 -0.32173541 12
1.9732345 1.7513043 -0.22747684 13
1.9671067 1.745252 -0.13535988 12
1.9660243 1.7436785 -0.04475012 12
1.9657215 1.7427971 0.69318318 14
1.9683654 1.7445277 0.59791738 11
1.9610639 1.7374455 0.50137705 12
1.9732888 1.7476617 0.41096923 12
1.9608114 1.7360005 0.31686029 12
1.979408 1.7518487 0.22791228 12
1.9770032 1.7491051 0.13633516 15
1.9759406 1.7475502 0.045376252 14
1.4008539 1.2367584 -0.4904623 3
1.6249262 1.4340783 -0.49151835 3
1.9131695 1.6878735 -0.48803276 4
1.9842983 1.7500105 -0.41298732 12
1.9979464 1.7614273 -0.32234478 12
1.9868095 1.7509924 -0.22834839 13
1.9806799 1.7449763 -0.1358815 13
1.9796022 1.7434133 -0.044922903 11
1.9754182 1.7391163 0.69447643 14
1.9781004 1.740865 0.59904134 12
1.9744872 1.7370737 0.50328338 11
1.9830859 1.7440244 0.41175056 11
1.9705865 1.7324222 0.31746963 12
1.9892523 1.7482166 0.22834805 11
1.9868476 1.7454888 0.13659684 14
1.9857851 1.7439413 0.045463517 15
1.4051625 1.2318609 -0.4904623 3
1.6299223 1.4283975 -0.49151835 3
1.9227418 1.6844195 -0.48898596 4
1.9978255 1.7495805 -0.41455165 11
2.0115509 1.7609802 -0.32356349 12
1.996658 1.7473269 -0.22878417 13
1.990517 1.7413394 -0.1361423 13
1.9894392 1.7397836 -0.045009293 13
1.9887494 1.7385679 0.69706297 13
1.9915024 1.7403616 0.60128915 13
1.9842353 1.7334002 0.50423664 13
1.9928812 1.7403399 0.41253185 12
1.9803605 1.7287967 0.31807896 12
2.0028486 1.7478123 0.2292196 12
2.0004537 1.7451075 0.1371202 15
1.9956282 1.7402846 0.045550779 16
1.4130967 1.2301196 -0.49175641 3
1.6312233 1.4195014 -0.49039361 3
1.9286097 1.6776977 -0.48898596 4
2.007647 1.7458365 -0.41533384 11
2.0214307 1.7572036 -0.32417279 12
2.0065045 1.7436137 -0.22921994 13
2.0041225 1.7409296 -0.13666391 14
2.0030494 1.7393842 -0.045182075 12
1.9984534 1.7347815 0.69835621 12
2.004925 1.7397857 0.60353696 12
1.9976892 1.7328956 0.50614297 12
2.0026753 1.7366084 0.41331318 11
1.9938828 1.7283746 0.31929767 12
2.0127017 1.7440724 0.22965539 12
2.0103073 1.7413833 0.13738188 15
2.0054703 1.7365806 0.04563804 15
1.417382 1.2251794 -0.49175641 3
1.6324819 1.4106133 -0.48926884 3
1.9381686 1.6741637 -0.48993912 4
2.0174665 1.7420455 -0.416116 10
2.0313091 1.7533796 -0.32478216 12
2.0201211 1.743107 -0.23009151 13
2.0139682 1.7371846 -0.13692473 13
2.0128949 1.7356464 -0.045268461 12
2.0118134 1.7341018 0.70094275 13
2.0146766 1.7359569 0.60466087 12
2.0074449 1.7291151 0.50709617 13
2.0124671 1.7328295 0.41409445 12
2.0036652 1.7246418 0.31990701 12
2.022553 1.7402847 0.23009115 12
2.020159 1.7376113 0.13764356 15
2.0191009 1.7360882 0.045812566 16
1.4216501 1.2202244 -0.49175641 3
1.637396 1.4049063 -0.48926884 3
1.9477262 1.6705835 -0.49089235 4
2.0272844 1.7382071 -0.41689819 10
2.0411854 1.7495078 -0.3253915 12
2.0299761 1.7392858 -0.2305273 12
2.0276046 1.7366403 -0.13744634 14
2.0227387 1.7318609 -0.045354854 12
2.0215237 1.7302091 0.70223594 13
2.0281277 1.7352484 0.60690868 12
2.0209286 1.7284781 0.50900251 12
2.026011 1.7322128 0.41565707 11
2.0134456 1.7208612 0.32051635 12
2.0324025 1.7364497 0.23052694 11
2.030009 1.7337919 0.13790524 15
2.0289507 1.7322757 0.045899823 15
1.4259007 1.2152544 -0.49175641 3
1.64229 1.3991821 -0.48926884 3
1.9535459 1.6637744 -0.49089235 4
2.0370996 1.7343214 -0.41768035 9
2.0548384 1.7488049 -0.32661018 12
2.0436223 1.7386444 -0.23139885 13
2.0374577 1.7327869 -0.13770714 12
2.0363894 1.7312658 -0.045527633 12
2.0349114 1.7293978 0.70482248 14
2.0378857 1.7313128 0.60803258 14
2.0306909 1.7245904 0.50995576 12
2.03581 1.7283263 0.4164384 11
2.0270078 1.7202449 0.32173505 11
2.0460482 1.7357893 0.23139849 12
2.0436649 1.7331543 0.1384286 14
2.0387986 1.7284157 0.045987088 14
1.4264473 1.2071499 -0.4904623 3
1.6434447 1.3902944 -0.48814404 3
1.9593416 1.6569452 -0.49089235 4
2.0469127 1.7303883 -0.41846254 8
2.0647211 1.744825 -0.32721955 12
2.0534837 1.7347145 -0.23183462 13
2.0473087 1.7288859 -0.13796796 13
2.0462401 1.7273717 -0.045614023 12
2.0483184 1.7285138 0.70740896 14
2.0513644 1.7304715 0.61028039 14
2.044203 1.7238199 0.5118621 12
2.0456066 1.7243925 0.4172197 11
2.0367951 1.7163569 0.32234439 11
2.0559042 1.7318459 0.23183426 12
2.0535216 1.7292262 0.13869028 14
2.0524685 1.7277274 0.046161614 15
1.4269549 1.1990563 -0.48916823 3
1.6482875 1.3845493 -0.48814404 3
1.9688724 1.6532521 -0.49184549 4
2.0605052 1.7295825 -0.42002687 7
2.0784023 1.743987 -0.32843825 12
2.0671589 1.7339381 -0.23270617 12
2.0609834 1.7281452 -0.13848959 13
2.0599201 1.7266413 -0.045786802 12
2.0580416 1.7244554 0.70870227 14
2.0611277 1.726429 0.6114043 14
2.0539713 1.7198248 0.5128153 12
2.0591874 1.723581 0.41878232 11
2.0503864 1.7156061 0.3235631 11
2.0695782 1.7310501 0.23270582 11
2.0672064 1.7284533 0.13921364 14
2.0623226 1.7237583 0.046248872 14
1.4274234 1.1909738 -0.48787412 3
1.6531105 1.3787873 -0.48814404 3
1.9746314 1.6463693 -0.49184549 4
2.0817046 1.735027 -0.42315558 6
2.0882902 1.7398982 -0.32904762 12
2.0770264 1.7298994 -0.23314197 12
2.0708404 1.7241353 -0.13875039 13
2.0697773 1.7226386 -0.045873195 12
2.0714743 1.7234391 0.71128875 14
2.0746329 1.7254544 0.61365211 14
2.0675104 1.7189204 0.51472169 12
2.0727875 1.7226961 0.42034498 11
2.0601795 1.7116095 0.32417244 11
2.0794401 1.726998 0.23314162 11
2.077069 1.7244163 0.13947532 15
2.076021 1.7229344 0.046423398 14
1.4278527 1.1829028 -0.48658001 3
1.6579134 1.3730084 -0.48814404 3
1.9803662 1.6394665 -0.49184549 4
2.0991621 1.7371955 -0.42550209 11
2.1019986 1.7389249 -0.3302663 11
2.090729 1.7289873 -0.23401353 13
2.084543 1.7232592 -0.139272 13
2.0834849 1.7217726 -0.046045974 13
2.0812011 1.7192737 0.71258199 14
2.0843999 1.7213044 0.61477602 14
2.0810685 1.7179425 0.51662809 13
2.0825973 1.7185932 0.42112628 11
2.0737982 1.710724 0.32539111 11
2.0931413 1.7260667 0.23401317 11
2.0907812 1.7235074 0.13999867 15
2.0858808 1.7188566 0.046510659 14
1.4319731 1.1779115 -0.48658001 3
1.6589329 1.3641185 -0.48701933 3
1.986077 1.6325437 -0.49184549 4
2.1204753 1.7423984 -0.4286308 9
2.1118906 1.7347269 -0.33087564 11
2.1006014 1.72484 -0.23444931 13
2.0944054 1.7191403 -0.13953282 12
2.0933473 1.7176603 -0.046132363 12
2.0946584 1.7181246 0.71516848 14
2.0979307 1.7201961 0.61702383 13
2.0946448 1.7168907 0.51853442 13
2.0962236 1.7175733 0.4226889 11
2.0835965 1.7066193 0.32600048 11
2.1030076 1.7219052 0.23444895 11
2.1006486 1.7193613 0.14026035 14
2.0996063 1.7178963 0.046685185 13
1.4323355 1.1698507 -0.48528594 3
1.6636845 1.3583195 -0.48701933 3
1.9917636 1.6256011 -0.49184549 4
2.1380239 1.7443517 -0.43097728 7
2.1256247 1.7336175 -0.33209434 11
2.1143303 1.7237917 -0.23532088 13
2.1042638 1.7149734 -0.13979362 12
2.1070817 1.716658 -0.046305142 10
2.104388 1.7138524 0.71646172 14
2.1077008 1.7159387 0.61814773 14
2.1082387 1.7157649 0.52044082 14
2.1060374 1.7133625 0.42347023 11
2.0933912 1.7024668 0.32660982 11
2.1167355 1.7208381 0.23532051 11
2.1143875 1.7183166 0.14078373 13
2.1094701 1.713709 0.046772443 15
1.4364103 1.1648438 -0.48528594 3
1.6684158 1.3525038 -0.48701933 3
1.9974258 1.6186386 -0.49184549 4
2.1556118 1.7462035 -0.43332383 6
2.13552 1.7293104 -0.33270368 11
2.1242061 1.7195348 -0.23575665 12
2.1180007 1.7138999 -0.14031525 12
2.1169479 1.7124364 -0.046391536 12
2.1178689 1.7125702 0.71904826 15
2.1212556 1.7146965 0.62039554 13
2.1218505 1.714565 0.52234721 15
2.1196887 1.7122071 0.42503282 11
2.1070435 1.701385 0.32782853 11
2.126605 1.7165673 0.23575628 11
2.1242583 1.7140608 0.14104539 14
2.1232219 1.7126129 0.046946973 14
1.4404677 1.1598227 -0.48528594 3
1.6693316 1.3436171 -0.48589453 3
2.0030637 1.6116565 -0.49184549 4
2.1732385 1.7479537 -0.43567032 4
2.145411 1.7249551 -0.33331302 11
2.1379604 1.7183504 -0.2366282 12
2.1317554 1.7127509 -0.14083686 12
2.1307082 1.7112978 -0.046564315 12
2.1276002 1.7081907 0.72034144 14
2.1348274 1.7133806 0.62264335 13
2.1316507 1.7102194 0.52330035 15
2.1295052 1.7078873 0.42581412 11
2.1168416 1.6971238 0.32843786 11
2.1403575 1.7153635 0.23662783 10
2.1380222 1.7128793 0.14156875 14
2.1330891 1.7083158 0.047034234 15
1.4482797 1.1578032 -0.48658001 3
1.6740115 1.3377818 -0.48589453 3
2.0048423 1.6015912 -0.49089235 3
2.1909037 1.7496022 -0.43801686 4
2.1591759 1.723648 -0.33453172 12
2.151732 1.7170907 -0.23749976 12
2.1416242 1.708413 -0.14109766 13
2.1405773 1.7069668 -0.046650708 13
2.1411033 1.7067747 0.72292799 15
2.1446054 1.7089542 0.6237672 13
2.1452858 1.7088845 0.52520674 15
2.1431804 1.7065961 0.42737675 12
2.1305182 1.6959058 0.32965657 12
2.1541276 1.7140847 0.2374994 10
2.1518037 1.7116224 0.14209211 14
2.1468651 1.7070823 0.047208756 14
1.4523125 1.1527407 -0.48658001 3
1.678671 1.3319303 -0.48589453 3
2.0104208 1.5945832 -0.49089235 3
2.2124763 1.7542164 -0.44114554 3
2.1729579 1.7222656 -0.3357504 11
2.1616168 1.7126625 -0.23793554 12
2.1554031 1.7071272 -0.14161928 13
2.154362 1.7056906 -0.04682349 12
2.1546226 1.7052853 0.72551447 15
2.1581993 1.7075037 0.62601501 13
2.1550879 1.7044306 0.52615994 16
2.1568727 1.7052304 0.42893937 11
2.1442122 1.6946129 0.33087525 11
2.1679144 1.7127304 0.23837095 11
2.1616838 1.7071954 0.1423538 14
2.1567347 1.7026758 0.047296021 15
1.4563273 1.1476642 -0.48658001 3
1.68331 1.3260626 -0.48589453 3
2.0159745 1.5875559 -0.49089235 4
2.2263472 1.7525921 -0.44270989 3
2.1828568 1.7177392 -0.33635977 11
2.1754117 1.7112659 -0.23880711 12
2.1652741 1.7026796 -0.1418801 13
2.1642327 1.7012495 -0.046909876 12
2.1681573 1.7037224 0.72810096 15
2.1718092 1.705979 0.62826282 13
2.1687448 1.7029599 0.52806634 16
2.1705813 1.7037897 0.430502 11
2.157923 1.6932448 0.33209395 11
2.177799 1.7082268 0.23880674 11
2.1754885 1.7058012 0.14287716 14
2.1705344 1.7013052 0.047470544 14
1.4603246 1.1425736 -0.48658001 3
1.6840911 1.3171772 -0.48476982 3
2.0176373 1.5774858 -0.48993912 3
2.2402329 1.750892 -0.44427425 3
2.1966605 1.7162198 -0.33757848 11
2.1892231 1.7097937 -0.23967867 13
2.179076 1.7012566 -0.14240173 12
2.1780403 1.6998361 -0.047082655 11
2.1817074 1.7020855 0.73068756 15
2.1815927 1.7013837 0.62938678 13
2.1785471 1.698397 0.52901947 16
2.1843064 1.7022741 0.43206459 11
2.1716504 1.6918019 0.33331263 11
2.1916084 1.7067355 0.23967829 11
2.1853695 1.7012641 0.14313883 14
2.1804049 1.6967882 0.047557805 14
1.464304 1.1374692 -0.48658001 3
1.6886786 1.3112905 -0.48476982 3
2.0231314 1.5704333 -0.48993912 3
2.2502329 1.7460891 -0.44505644 3
2.2104807 1.7146251 -0.33879715 11
2.1991141 1.7051935 -0.24011444 13
2.1928942 1.6997578 -0.14292334 12
2.191864 1.6983471 -0.047255438 12
2.1914539 1.6974171 0.73198074 15
2.1952231 1.6997237 0.63163459 13
2.1922255 1.6967908 0.53092587 15
2.1980469 1.7006834 0.43362722 11
2.181468 1.6872473 0.333922 12
2.201493 1.7021215 0.24011406 11
2.1991961 1.6997323 0.14366218 13
2.1942267 1.69528 0.047732327 14
1.4644413 1.1294014 -0.48528594 3
1.6932456 1.305388 -0.48476982 3
2.0286009 1.5633618 -0.48993912 3
2.2641385 1.7442516 -0.44662076 3
2.2203841 1.7099265 -0.33940649 11
2.2129469 1.7035837 -0.24098599 12
2.2027709 1.6951377 -0.14318414 12
2.2017417 1.693734 -0.047341831 12
2.2050228 1.6956457 0.73456728 14
2.2050054 1.6950198 0.63275844 12
2.2020268 1.6921188 0.53187907 15
2.211803 1.6990172 0.43518984 11
2.1952167 1.6856673 0.33514068 11
2.2153232 1.7004923 0.24098562 11
2.2130384 1.6981246 0.14418554 14
2.2080643 1.6936955 0.047906853 13
1.4683746 1.1242827 -0.48528594 3
1.6977919 1.2994695 -0.48476982 3
2.0301478 1.5532887 -0.48898596 3
2.2741358 1.7393374 -0.44740292 3
2.2342243 1.708194 -0.3406252 11
2.226795 1.7018979 -0.24185754 12
2.2166102 1.6935011 -0.14370576 12
2.2155864 1.6921067 -0.04751461 12
2.2147675 1.6908693 0.73586053 15
2.2147818 1.6902685 0.6338824 14
2.2157247 1.6903763 0.53378546 15
2.2216473 1.6942811 0.43597117 11
2.2089806 1.6840117 0.33635938 11
2.2252073 1.695768 0.24142142 11
2.2268963 1.6964408 0.14470892 14
2.2219174 1.6920353 0.048081376 14
1.4684453 1.1162276 -0.48399183 3
1.7061967 1.2964827 -0.48589453 3
2.0316486 1.5432236 -0.48803276 3
2.2841265 1.7343754 -0.44818512 3
2.2441266 1.7033854 -0.34123453 11
2.23669 1.6971254 -0.24229334 12
2.2304645 1.6917883 -0.14422737 12
2.2294469 1.6904036 -0.047687389 12
2.2245052 1.6860454 0.73715377 15
2.2245519 1.6854695 0.63500631 14
2.2294371 1.6885586 0.5356918 16
2.2354224 1.6924778 0.4375338 11
2.2188027 1.6792856 0.33696872 11
2.2390578 1.694001 0.24229297 11
2.2407696 1.694681 0.14523228 13
2.2317984 1.687284 0.048168641 14
1.4761877 1.1140041 -0.48528594 3
1.7107118 1.2905191 -0.48589453 3
2.0331039 1.5331671 -0.48707953 3
2.2980537 1.7323371 -0.44974947 4
2.2579856 1.7015146 -0.34245324 10
2.2505577 1.6953015 -0.2431649 12
2.2403452 1.686996 -0.14448819 12
2.2393279 1.6856174 -0.047773778 11
2.2342367 1.6811743 0.73844707 14
2.2343152 1.6806227 0.63613021 13
2.2392406 1.6837158 0.536645 16
2.2492123 1.6905991 0.43909642 11
2.2325861 1.6774924 0.3381874 10
2.2489398 1.6891661 0.24272874 11
2.254657 1.692845 0.14575563 14
2.2456713 1.6854852 0.048343163 14
1.4762021 1.1059488 -0.48399183 3
1.7152061 1.2845398 -0.48589453 3
2.0345144 1.5231196 -0.48612636 3
2.3119943 1.7302227 -0.45131379 4
2.2678852 1.6965952 -0.34306258 11
2.2644393 1.6934012 -0.24403645 12
2.2542188 1.6851447 -0.1450098 13
2.2532074 1.6837758 -0.047946557 12
2.2439606 1.6762555 0.73974025 13
2.2479756 1.6786433 0.63837802 13
2.2529712 1.6817614 0.53855139 16
2.2590578 1.6856911 0.43987769 10
2.2424061 1.6726564 0.33879676 11
2.2628086 1.6872603 0.24360029 11
2.2645559 1.6879485 0.14601731 14
2.2595584 1.68361 0.048517689 14
1.4800537 1.1007892 -0.48399183 3
1.7118603 1.2727312 -0.48364502 3
2.0358789 1.5130805 -0.48517317 4
2.3299124 1.7309771 -0.45366031 5
2.2817619 1.6945864 -0.34428129 11
2.2783353 1.6914246 -0.24490802 12
2.2681067 1.683217 -0.14553143 12
2.2671015 1.6818573 -0.04811934 11
2.2575572 1.6741664 0.7423268 13
2.2616489 1.6765889 0.64062583 12
2.266715 1.6797315 0.54045779 13
2.2728651 1.6836745 0.44144034 10
2.2562077 1.6707253 0.34001544 11
2.2766914 1.6852785 0.24447185 10
2.2784619 1.6859735 0.14654067 13
2.2694407 1.6786853 0.048604947 13
1.4877725 1.0984849 -0.48528594 3
1.7123727 1.2638549 -0.48252031 3
2.0411482 1.5059648 -0.48517317 3
2.3478637 1.7316273 -0.45600685 6
2.2956522 1.6925012 -0.34549999 11
2.2882349 1.6864165 -0.24534379 12
2.2779884 1.6782513 -0.14579223 12
2.2810092 1.6798626 -0.048292119 10
2.267277 1.6691393 0.74362004 13
2.2714119 1.671572 0.64174974 12
2.2804718 1.6776259 0.54236418 12
2.282707 1.6786563 0.44222164 11
