# .PCD v0.7 - Point Cloud Data file format
VERSION 0.7
FIELDS x y z intensity
SIZE 4 4 4 4
TYPE F F F F
COUNT 1 1 1 1
WIDTH 1312
HEIGHT 1
VIEWPOINT 0 0 0 1 0 0 0
POINTS 1312
DATA ascii
0.66550982 -1.183987 -0.11548153 46
0.66199774 -1.17822 -0.068592764 41
0.66257262 -1.1797253 -0.022720622 40
0.6642009 -1.1831081 0.35305786 37
0.66486263 -1.1847712 0.30457824 38
0.6646601 -1.1848948 0.25640765 37
0.66843641 -1.1921144 0.21017249 37
0.66412562 -1.1849111 0.16208622 37
0.66872519 -1.193606 0.11635291 42
0.66278589 -1.1834893 0.06908346 40
0.65603888 -1.1719213 0.022775389 38
0.6595419 -1.1801113 -0.35199407 15
0.66514462 -1.1901361 -0.30593362 39
0.66498482 -1.1903379 -0.25736102 39
0.65911347 -1.1803119 -0.208058 41
0.66931319 -1.1990688 -0.16391446 37
0.65936005 -1.1817223 -0.11504576 42
0.65829301 -1.1802939 -0.068592764 40
0.65886313 -1.1818011 -0.022720622 37
0.65812957 -1.18097 0.35176462 38
0.65876633 -1.1825978 0.30345434 38
0.65854645 -1.1826886 0.25545445 37
0.6622861 -1.1898931 0.20939116 38
0.65798706 -1.1826551 0.16147687 38
0.66497207 -1.1957009 0.11635291 45
0.6566385 -1.1812015 0.06882178 43
0.64992565 -1.1696067 0.022688126 38
0.65328276 -1.1780683 -0.35069996 15
0.65862429 -1.1881897 -0.30480888 38
0.65844685 -1.1883587 -0.25640786 37
0.65259677 -1.1782855 -0.20727582 41
0.66271979 -1.1970558 -0.16330509 38
0.65281922 -1.1796584 -0.11460997 42
0.65175205 -1.1782154 -0.068331957 40
0.65231478 -1.1797187 -0.022634231 38
0.65166682 -1.1790328 0.35047138 38
0.65227824 -1.1806257 0.30233043 39
0.65204126 -1.1806836 0.25450125 36
0.65574187 -1.1878743 0.20860985 36
0.65145719 -1.1805996 0.16086753 39
0.65838861 -1.1936535 0.11591713 42
0.6525113 -1.1834863 0.06882178 37
0.643426 -1.1674899 0.022600865 38
0.64896059 -1.1804547 -0.35069996 16
0.65191865 -1.186326 -0.30368412 38
0.6517238 -1.1864619 -0.25545463 40
0.64589691 -1.1763406 -0.20649366 42
0.65594018 -1.1951263 -0.16269575 38
0.6460954 -1.1776763 -0.11417419 41
0.64502835 -1.1762182 -0.068071149 40
0.64558345 -1.1777178 -0.022547841 40
0.64502019 -1.1771777 0.34917811 39
0.64560616 -1.1787353 0.3012065 38
0.64535236 -1.1787602 0.25354809 38
0.6490128 -1.1859374 0.20782854 37
0.64712572 -1.1829793 0.16086753 38
0.65161955 -1.1916883 0.11548135 42
0.64577448 -1.1814886 0.068560101 39
0.63914269 -1.1698403 0.022600865 40
0.64252412 -1.1784725 -0.34940588 14
0.64544231 -1.1843166 -0.30255935 39
0.64523023 -1.1844194 -0.25450143 39
0.63942504 -1.1742508 -0.20571148 42
0.64939177 -1.1930497 -0.1620864 39
0.63960004 -1.1755491 -0.11373842 42
0.64091867 -1.1784626 -0.068071149 42
0.63908076 -1.1755719 -0.022461452 41
0.63860106 -1.1751784 0.34788486 39
0.63916224 -1.1767006 0.30008259 38
0.63889182 -1.1766922 0.25259489 38
0.64251345 -1.1838552 0.20704722 37
0.64062589 -1.1808689 0.16025817 39
0.64745581 -1.1939555 0.11548135 42
0.63926691 -1.1793458 0.068298422 39
0.63267362 -1.1676687 0.022513602 37
0.63840657 -1.1807082 -0.34940588 15
0.63898784 -1.1822764 -0.30143458 40
0.6387589 -1.182346 -0.25354826 39
0.6329757 -1.1721305 -0.20492931 38
0.64522332 -1.1953093 -0.1620864 39
0.63312745 -1.173391 -0.11330264 45
0.63443089 -1.1762979 -0.067810342 42
0.63260096 -1.1733952 -0.02237506 40
0.6322037 -1.1731484 0.34659159 38
0.63274032 -1.1746351 0.29895869 38
0.6324535 -1.1745936 0.25164169 37
0.63603652 -1.1817421 0.20626593 38
0.63414878 -1.1787275 0.15964884 38
0.64092499 -1.1918213 0.11504558 44
0.63514638 -1.1815702 0.068298422 40
0.62622762 -1.1654662 0.022426341 38
0.63199896 -1.178673 -0.34811178 16
0.63485706 -1.1844997 -0.30143458 39
0.63462782 -1.1845685 -0.25354826 39
0.62654889 -1.1699793 -0.20414715 41
0.6387049 -1.1931789 -0.16147706 38
0.62902772 -1.1755939 -0.11330264 45
0.63032097 -1.1785053 -0.067810342 39
0.62614417 -1.1711874 -0.022288671 40
0.62810481 -1.175348 0.34659159 40
0.62863624 -1.1768366 0.29895869 38
0.62834954 -1.1767941 0.25164169 37
0.63190758 -1.183955 0.20626593 38
0.63003039 -1.1809338 0.15964884 37
0.63676089 -1.1940514 0.11504558 42
0.62866932 -1.1793739 0.068036743 42
0.61980474 -1.163233 0.02233908 38
0.62561333 -1.1766075 -0.34681764 15
0.62843204 -1.1824065 -0.30030984 40
0.62818623 -1.1824419 -0.25259507 41
0.62246114 -1.1721592 -0.20414715 41
0.63453603 -1.1954012 -0.16147706 40
0.62258571 -1.1733825 -0.11286686 42
0.62386388 -1.1762872 -0.067549534 40
0.62205219 -1.173366 -0.022288671 40
0.62173671 -1.1732657 0.34529832 39
0.62224394 -1.1747184 0.29783478 39
0.62194121 -1.1746424 0.25068852 41
0.62546086 -1.1817887 0.20548461 35
0.62358367 -1.1787393 0.15903948 40
0.63026059 -1.1918637 0.1146098 43
0.62221527 -1.1771467 0.067775063 41
0.61574054 -1.1653895 0.02233908 40
0.61924994 -1.174512 -0.34552357 16
0.62430084 -1.184593 -0.30030984 39
0.62176734 -1.180285 -0.25164187 39
0.61606485 -1.1699554 -0.20336497 42
0.628048 -1.1932174 -0.16086771 38
0.61616683 -1.1711404 -0.11243108 43
0.61742985 -1.1740384 -0.067288719 41
0.61562639 -1.171105 -0.022202281 39
0.6153909 -1.1711534 0.34400508 40
0.61587417 -1.1725701 0.29671091 39
0.61555558 -1.1724606 0.24973533 37
0.61903691 -1.1795918 0.2047033 39
0.6171599 -1.1765139 0.15843014 40
0.62378323 -1.1896449 0.11417402 44
0.61578459 -1.174889 0.067513384 39
0.60934883 -1.1631035 0.022251816 41
0.61290878 -1.1723864 -0.34422946 15
0.61790568 -1.1824471 -0.29918507 40
0.61764354 -1.1824483 -0.25164187 39
0.6096915 -1.1677209 -0.20258279 44
0.62158287 -1.1910027 -0.16025837 39
0.60977125 -1.1688681 -0.1119953 43
0.61101925 -1.171759 -0.067027912 42
0.61153471 -1.1732469 -0.022202281 41
0.6112991 -1.1732944 0.34400508 40
0.61177742 -1.1747128 0.29671091 38
0.60919279 -1.1702484 0.24878214 38
0.61263597 -1.1773643 0.20392199 39
0.61075938 -1.1742584 0.15782079 39
0.61732918 -1.1873958 0.11373824 42
0.60937721 -1.1726006 0.067251697 39
0.60528511 -1.1652234 0.022251816 38
0.60881269 -1.1745186 -0.34422946 16
0.61377442 -1.1845969 -0.29918507 40
0.61125499 -1.1802385 -0.2506887 39
0.60561168 -1.169842 -0.20258279 40
0.61514097 -1.1887577 -0.15964901 38
0.60339898 -1.1665652 -0.11155953 44
0.60463208 -1.1694492 -0.066767104 40
0.60514033 -1.1709331 -0.02211589 42
0.60498303 -1.1711299 0.34271184 41
0.60543782 -1.1725121 0.295587 37
0.60510415 -1.1723677 0.24878214 38
0.60852247 -1.1794957 0.20392199 38
0.6043821 -1.1719724 0.15721144 38
0.61089849 -1.1851162 0.11330246 43
0.60299331 -1.170282 0.066990018 40
0.59892505 -1.1628847 0.022164555 39
0.60250157 -1.1723411 -0.34293538 16
0.60740954 -1.1823986 -0.29806033 39
0.60488945 -1.1779987 -0.2497355 41
0.59926939 -1.1675553 -0.20180063 40
0.60872233 -1.1864822 -0.15903966 40
0.59932327 -1.1686643 -0.11155953 42
0.59826863 -1.1671094 -0.066506296 40
0.59876961 -1.1685892 -0.0220295 39
0.59868962 -1.1689358 0.34141859 40
0.60134131 -1.1746182 0.295587 39
0.59877217 -1.1701033 0.24782895 39
0.60215259 -1.1772158 0.20314068 36
0.59802824 -1.1696562 0.1566021 40
0.60449117 -1.182806 0.11286668 43
0.59663314 -1.1679332 0.066728339 39
0.59258866 -1.1605159 0.022077292 40
0.59621304 -1.1701339 -0.34164128 16
0.60106748 -1.1801704 -0.29693556 40
0.60077375 -1.1801029 -0.2497355 38
0.59519023 -1.1696401 -0.20180063 43
0.604577 -1.1885998 -0.15903966 42
0.59298277 -1.1663092 -0.11112374 45
0.59192878 -1.1647394 -0.066245489 41
0.59242266 -1.1662151 -0.021943111 40
0.59241891 -1.1667119 0.34012532 42
0.59503239 -1.1723657 0.2944631 42
0.59246337 -1.1678091 0.24687576 38
0.59580612 -1.174906 0.20235938 39
0.59394175 -1.1717366 0.1566021 42
0.59810746 -1.1804657 0.11243091 43
0.59029669 -1.1655542 0.066466659 42
0.58627611 -1.1581171 0.021990031 45
0.5923295 -1.1721046 -0.34164128 16
0.59735692 -1.1820529 -0.29693556 41
0.59485036 -1.1776035 -0.24878232 41
0.58928692 -1.1670959 -0.20101845 46
0.5986039 -1.1860627 -0.15843032 40
0.58707237 -1.1637193 -0.11068796 45
0.58826679 -1.1665932 -0.066245489 42
0.58650583 -1.1636062 -0.02185672 42
0.58657753 -1.164254 0.33883208 40
0.58915502 -1.1698779 0.29333919 41
0.58879167 -1.1696646 0.24687576 38
0.58989233 -1.1723604 0.20157807 37
0.58802789 -1.1691632 0.15599275 40
0.59215873 -1.1778886 0.11199513 43
0.58663207 -1.167403 0.066466659 40
0.58039105 -1.1554859 0.02190277 41
0.58627534 -1.1697447 -0.34034717 15
0.59104496 -1.179775 -0.29581082 41
0.58853835 -1.1752839 -0.24782912 41
0.58299893 -1.1647296 -0.20023628 45
0.59223956 -1.1837069 -0.15782097 39
0.58077866 -1.1613065 -0.11025219 44
0.58195835 -1.1641732 -0.065984681 42
0.58020592 -1.1611743 -0.02177033 42
0.58250999 -1.1662945 0.33883208 40
0.58506781 -1.1719273 0.29333919 38
0.58251363 -1.167321 0.24592258 40
0.58359206 -1.169993 0.20079675 37
0.58172876 -1.1667674 0.15538341 39
0.58582181 -1.1754904 0.11155935 44
0.58032715 -1.1649743 0.06620498 42
0.57412577 -1.1530296 0.021815507 42
0.57983589 -1.1675601 -0.33905309 16
0.58455068 -1.1775696 -0.29468605 40
0.5820452 -1.1730363 -0.24687594 38
0.57872611 -1.1668586 -0.20023628 42
0.58789706 -1.1858696 -0.15782097 40
0.57651836 -1.1634274 -0.11025219 45
0.57547128 -1.161824 -0.065723866 43
0.57594615 -1.163293 -0.02177033 39
0.57608914 -1.1640928 0.33753884 41
0.57860833 -1.1696968 0.29221529 42
0.57605582 -1.1650484 0.2449694 39
0.57929987 -1.1721241 0.20079675 37
0.57744843 -1.1688915 0.15538341 43
0.58150947 -1.1776297 0.11155935 47
0.57384342 -1.162616 0.065943301 40
0.56989586 -1.1551261 0.021815507 43
0.57575679 -1.1695769 -0.33905309 17
0.57828569 -1.1752316 -0.29356131 40
0.57578069 -1.1706566 -0.24592274 42
0.57247066 -1.1644398 -0.1994541 39
0.58156532 -1.1834606 -0.15721163 40
0.57025772 -1.160962 -0.10981641 46
0.57141227 -1.1638258 -0.065723866 40
0.5696795 -1.1608086 -0.021683941 44
0.56989503 -1.1617604 0.33624557 39
0.57237685 -1.1673349 0.29109138 38
0.56982541 -1.1626445 0.2440162 39
0.5730322 -1.1697041 0.20001544 37
0.57118219 -1.1664431 0.15477405 40
0.5752055 -1.1751785 0.11112357 43
0.5697816 -1.1646121 0.065943301 42
0.56366402 -1.1526175 0.021728246 40
0.56955278 -1.1672391 -0.33775899 19
0.57417983 -1.1772431 -0.29356131 42
0.56953996 -1.1682473 -0.24496956 38
0.56623918 -1.1619916 -0.19867194 44
0.57743073 -1.1854833 -0.15721163 41
0.56402135 -1.1584672 -0.10938063 43
0.56516135 -1.1613234 -0.065463059 43
0.56562406 -1.1627901 -0.021683941 42
0.56372434 -1.159399 0.33495232 42
0.56616902 -1.1649439 0.28996748 39
0.56361878 -1.1602116 0.24306302 38
0.56678855 -1.1672548 0.19923413 38
0.56710708 -1.1684299 0.15477405 40
0.57109988 -1.1771792 0.11112357 45
0.56353426 -1.1621011 0.065681621 44
0.55745667 -1.1500793 0.021640982 43
0.56547487 -1.1692201 -0.33775899 19
0.56794661 -1.1748539 -0.29243654 46
0.56332302 -1.1658088 -0.24401638 40
0.56003183 -1.1595141 -0.19788976 43
0.57113147 -1.1830225 -0.15660228 40
0.55780935 -1.1559428 -0.10894485 46
0.55893487 -1.1587918 -0.065202251 42
0.5593906 -1.1602541 -0.021597549 42
0.55757707 -1.1570088 0.33365908 43
0.5599848 -1.1625237 0.28884357 39
0.55743617 -1.1577495 0.24210984 39
0.56271058 -1.1692262 0.19923413 41
0.56087375 -1.1659302 0.15416472 40
0.56482875 -1.1746765 0.11068779 44
0.55947435 -1.1640611 0.065681621 40
0.55127388 -1.147512 0.021553721 42
0.5613901 -1.1711868 -0.33775899 22
0.56173712 -1.1724356 -0.29131177 41
0.55713016 -1.1633413 -0.24306318 39
0.55598092 -1.1614618 -0.19788976 45
0.56699848 -1.185009 -0.15660228 41
0.55162191 -1.1533895 -0.10850907 45
0.55273294 -1.1562308 -0.064941444 42
0.55533713 -1.1621997 -0.021597549 41
0.55145335 -1.1545898 0.33236581 41
0.55382437 -1.1600746 0.28771967 40
0.55127764 -1.1552585 0.24115664 41
0.55649966 -1.1667258 0.19845283 38
0.55466467 -1.1634011 0.15355536 40
0.56072491 -1.176641 0.11068779 45
0.55326033 -1.161499 0.065419942 40
0.54511595 -1.1449156 0.02146646 41
0.55937088 -1.1775018 -0.33905309 24
0.55555141 -1.1699884 -0.29018703 42
0.55306596 -1.165279 -0.24306318 39
0.54980659 -1.1589339 -0.19710758 42
0.56073225 -1.1824968 -0.15599294 38
0.54759246 -1.1553079 -0.10850907 49
0.5486936 -1.1581532 -0.064941444 45
0.54913729 -1.1596128 -0.02151116 44
0.54741973 -1.1565076 0.33236581 42
0.54977161 -1.1620007 0.28771967 39
0.54724169 -1.1571758 0.24115664 41
0.55242366 -1.1686612 0.19845283 37
0.54848021 -1.1608431 0.15294603 43
0.55448717 -1.1740873 0.11025202 46
0.54920256 -1.1634232 0.065419942 43
0.54111612 -1.1468115 0.02146646 42
0.5552572 -1.1794472 -0.33905309 30
0.54938966 -1.1675124 -0.28906226 46
0.54690593 -1.1627609 -0.24211 41
0.54575783 -1.1608459 -0.19710758 45
0.55660117 -1.1844469 -0.15599294 39
0.5414387 -1.1527039 -0.10807329 47
0.54252547 -1.1555417 -0.064680636 44
0.54296231 -1.156997 -0.02142477 42
0.54132831 -1.1540388 0.33107257 42
0.54364389 -1.1595016 0.28659576 39
0.54111618 -1.1546346 0.24020346 38
0.54624593 -1.1661102 0.19767152 40
0.54232043 -1.1582562 0.15233667 45
0.55038548 -1.1760155 0.11025202 43
0.54302245 -1.1608105 0.065158263 41
0.53499216 -1.1441646 0.021379197 40
0.54909492 -1.1770015 -0.33775899 33
0.54531091 -1.169423 -0.28906226 42
0.54284382 -1.164663 -0.24211 39
0.53961682 -1.1582674 -0.19632542 40
0.55036825 -1.1818837 -0.15538359 38
0.53741169 -1.1545869 -0.10807329 45
0.53638232 -1.1529011 -0.064419828 44
0.53892034 -1.1588852 -0.02142477 40
0.53526086 -1.1515415 0.32977933 39
0.53959316 -1.1613922 0.28659576 40
0.53501505 -1.1520647 0.23925027 39
0.54217213 -1.1680099 0.19767152 39
0.53618532 -1.1556404 0.15172733 43
0.54418153 -1.173411 0.10981624 43
0.5368672 -1.1581688 0.064896584 41
0.53099501 -1.1460252 0.021379197 44
0.54498309 -1.178911 -0.33775899 34
0.53918207 -1.1668968 -0.28793752 42
0.53671706 -1.1620947 -0.24115682 42
0.53557044 -1.160144 -0.19632542 44
0.54623932 -1.1837976 -0.15538359 41
0.53129208 -1.1519327 -0.10763751 47
0.5302642 -1.1502318 -0.064159013 43
0.53277957 -1.156219 -0.021338379 40
0.53123796 -1.1534029 0.32977933 42
0.53349841 -1.158843 0.28547186 43
0.53099036 -1.1539252 0.23925027 41
0.53602803 -1.1654085 0.19689021 42
0.53214806 -1.1575049 0.15172733 39
0.54008222 -1.1753033 0.10981624 46
0.53282118 -1.1600357 0.064896584 44
0.52490556 -1.1433283 0.021291936 40
0.53885341 -1.1764152 -0.33646491 36
0.53510553 -1.1687717 -0.28793752 40
0.53061479 -1.1594979 -0.24020362 42
0.52946329 -1.1575154 -0.19554324 42
0.54004031 -1.1811838 -0.15477423 39
0.52519757 -1.1492499 -0.10720173 49
0.52624589 -1.1520758 -0.064159013 43
0.52666408 -1.1535239 -0.02125199 42
0.52520341 -1.1508564 0.32848606 44
0.52945006 -1.1606982 0.28547186 39
0.52492297 -1.1513057 0.23829708 41
0.52990878 -1.1627787 0.19610889 37
0.52604723 -1.1548393 0.15111798 41
0.53391236 -1.1726482 0.10938046 45
0.52670044 -1.157344 0.064634904 41
0.51884139 -1.1406031 0.021204671 40
0.53274769 -1.1738911 -0.33517081 36
0.52900994 -1.1661959 -0.28681275 42
0.52453732 -1.1568727 -0.23925044 39
0.52541959 -1.1593566 -0.19554324 42
0.53386617 -1.1785412 -0.1541649 42
0.52118272 -1.1510762 -0.10720173 48
0.52016246 -1.1493567 -0.063898206 48
0.52057385 -1.1508003 -0.0211656 45
0.51919305 -1.1482817 0.32719281 41
0.5233888 -1.1580995 0.28434795 40
0.52090096 -1.1531309 0.23829708 42
0.52381438 -1.1601202 0.19532758 41
0.52201289 -1.1566684 0.15111798 42
0.52776766 -1.1699644 0.10894468 43
0.52060491 -1.1546235 0.064373225 44
0.51485682 -1.1424072 0.021204671 42
0.52666628 -1.1713387 -0.3338767 38
0.5249359 -1.1680353 -0.28681275 39
0.52049589 -1.1586967 -0.23925044 40
0.51934671 -1.1566784 -0.19476107 46
0.52771699 -1.1758698 -0.15355554 41
0.51512283 -1.1483438 -0.10676596 46
0.51410449 -1.1466094 -0.063637398 48
0.51450914 -1.1480485 -0.021079209 43
0.51518166 -1.150087 0.32719281 43
0.5173521 -1.1554729 0.28322405 41
0.5148676 -1.150462 0.23734389 42
0.51976162 -1.1619416 0.19532758 41
0.51594651 -1.1539531 0.15050864 45
0.52368051 -1.1717995 0.10894468 47
0.51453495 -1.1518749 0.064111546 41
0.50882775 -1.1396325 0.02111741 46
0.52257437 -1.17317 -0.3338767 41
0.51887399 -1.1654099 -0.28568801 45
0.51445258 -1.1560222 -0.23829725 40
0.51329893 -1.153972 -0.19397891 45
0.52159315 -1.1731701 -0.1529462 42
0.51111126 -1.1501349 -0.10676596 48
0.50807196 -1.1438335 -0.063376583 43
0.50846988 -1.1452682 -0.020992817 42
0.50920486 -1.1474637 0.32589957 43
0.51331562 -1.1572716 0.28322405 41
0.51084858 -1.1522523 0.23734389 42
0.51370174 -1.1592337 0.19454628 37
0.50990546 -1.1512095 0.14989929 45
0.5175705 -1.1690657 0.1085089 46
0.50849044 -1.1490978 0.063849866 41
0.50282443 -1.1368297 0.021030148 40
0.51652628 -1.1705683 -0.33258262 45
0.51283675 -1.1627566 -0.28456324 42
0.50843418 -1.1533197 -0.23734406 41
0.50926769 -1.1557567 -0.19397891 43
0.5174948 -1.1749836 -0.1529462 44
0.50508654 -1.1473533 -0.10633017 49
0.50407612 -1.1456001 -0.063376583 43
0.5044691 -1.1470361 -0.020992817 48
0.50325274 -1.1448127 0.32460633 44
0.50731295 -1.154596 0.28210014 43
0.50484973 -1.1495346 0.23639071 38
0.50965208 -1.1610198 0.19454628 40
0.50588387 -1.1529824 0.14989929 41
0.51148605 -1.1663038 0.10807312 48
0.50447625 -1.1508658 0.063849866 44
0.49885306 -1.1385779 0.021030148 44
0.51264167 -1.1722748 -0.33258262 47
0.50702691 -1.1599867 -0.2834385 42
0.50460684 -1.1549994 -0.23734406 39
0.50345594 -1.1529135 -0.19319673 47
0.51161039 -1.1721449 -0.15233685 43
0.50127906 -1.1490219 -0.10633017 48
0.49827859 -1.1426884 -0.063115776 47
0.49866512 -1.1441199 -0.020906426 45
0.49945366 -1.1464752 0.32460633 43
0.50153631 -1.1518049 0.28097624 40
0.50103498 -1.1512024 0.23639071 41
0.50382918 -1.1581749 0.19376497 39
0.50007886 -1.1501025 0.14928995 41
0.50563031 -1.1634253 0.10763735 45
0.4986676 -1.1479526 0.06358818 42
0.49308363 -1.1356403 0.020942885 43
0.5066269 -1.1696254 -0.33128852 48
0.50103903 -1.1572787 -0.28231373 42
0.49862278 -1.1522491 -0.23639087 43
0.49746796 -1.1501312 -0.19241455 43
0.50554633 -1.1693683 -0.15172751 39
0.4952893 -1.1461921 -0.10589439 46
0.49428684 -1.1444207 -0.063115776 48
0.49466836 -1.1458535 -0.020906426 41
0.49353513 -1.1437769 0.32331306 43
0.49751273 -1.1535486 0.28097624 42
0.49507043 -1.148437 0.23543751 39
0.49782908 -1.155391 0.19298366 39
0.49606118 -1.151841 0.14928995 41
0.49959671 -1.1606081 0.10720157 47
0.49268404 -1.1450996 0.0633265 44
0.48911646 -1.1373546 0.020942885 40
0.50254112 -1.1713867 -0.33128852 45
0.49699634 -1.1590205 -0.28231373 46
0.49266404 -1.1494712 -0.23543768 43
0.49150553 -1.1473212 -0.19163239 43
0.50146139 -1.1711259 -0.15172751 42
0.48932552 -1.1433349 -0.1054586 46
0.48832518 -1.1415483 -0.062854968 45
0.48870018 -1.1429765 -0.020820037 45
0.48953959 -1.1454928 0.32331306 43
0.49156925 -1.1507978 0.27985233 43
0.49105865 -1.150158 0.23543751 39
0.49379298 -1.1571217 0.19298366 38
0.4900904 -1.1490008 0.1486806 45
0.49358898 -1.157763 0.10676579 43
0.48868391 -1.1468123 0.0633265 40
0.4831844 -1.1344554 0.020855624 42
0.49656048 -1.1686887 -0.32999444 45
0.49104321 -1.1562641 -0.28118899 45
0.48864862 -1.151184 -0.23543768 42
0.48749766 -1.1490299 -0.19163239 43
0.49543285 -1.1683003 -0.15111816 40
0.48533157 -1.145036 -0.1054586 48
0.48433748 -1.1432459 -0.062854968 46
0.48470744 -1.1446754 -0.020820037 43
0.48365557 -1.1427467 0.32201982 43
0.48565105 -1.1480197 0.27872843 42
0.48512933 -1.1473444 0.23448433 39
0.4878284 -1.1542894 0.19220234 42
0.48414552 -1.1461328 0.14807124 45
0.48760718 -1.1548901 0.10633001 44
0.4827365 -1.143911 0.063064821 44
0.47922146 -1.1361352 0.020855624 46
0.49060491 -1.1659634 -0.32870033 41
0.48700413 -1.1579711 -0.28118899 45
0.4827252 -1.1483577 -0.23448449 40
0.4815709 -1.1461718 -0.19085021 44
0.48943022 -1.165447 -0.15050881 42
0.47940388 -1.1421304 -0.10502283 50
0.47841212 -1.1403252 -0.06259416 45
0.47877559 -1.1417502 -0.020733647 43
0.47779676 -1.1399736 0.32072657 43
0.47975826 -1.1452143 0.27760452 40
0.48112136 -1.1490308 0.23448433 42
0.48188955 -1.1514294 0.19142105 42
0.47822669 -1.1432376 0.14746189 41
0.4835729 -1.1565851 0.10633001 43
0.47681525 -1.140982 0.062803142 45
0.47332591 -1.1331882 0.020768361 42
0.48653197 -1.1676688 -0.32870033 42
0.48108608 -1.1551666 -0.28006423 45
0.47871375 -1.1500359 -0.23448449 40
0.47566998 -1.1432861 -0.19006802 43
0.48345348 -1.1625659 -0.14989947 43
0.47541419 -1.1437968 -0.10502283 49
0.47442871 -1.1419883 -0.06259416 45
0.47478724 -1.1434145 -0.020733647 42
0.47381458 -1.1416346 0.32072657 44
0.47575781 -1.1468819 0.27760452 43
0.47522765 -1.1461692 0.23353115 39
0.47597665 -1.1485423 0.19063973 41
0.47423312 -1.1449 0.14746189 41
0.47762734 -1.1536639 0.10589422 45
0.47282955 -1.1426394 0.062803142 44
0.46745676 -1.1302137 0.0206811 40
0.48061106 -1.1648954 -0.32740623 41
0.47705084 -1.1568389 -0.28006423 45
0.47282609 -1.147162 -0.23353131 39
0.47167629 -1.1449395 -0.19006802 45
0.47939241 -1.1642464 -0.14989947 39
0.46952298 -1.1408432 -0.10458705 50
0.46854004 -1.1390196 -0.062333349 48
0.46889207 -1.1404411 -0.020647256 44
0.46799079 -1.1388142 0.3194333 45
0.46990043 -1.144029 0.27648062 39
0.47122389 -1.1478211 0.23353115 38
0.4719646 -1.1501967 0.19063973 44
0.46835062 -1.1419567 0.14685255 43
0.47359741 -1.155324 0.10589422 48
0.46694508 -1.1396626 0.062541462 45
0.4635087 -1.1318386 0.0206811 44
0.47471547 -1.162095 -0.32611215 44
0.47116825 -1.1539867 -0.27893949 42
0.46881887 -1.1488055 -0.23353131 40
0.4658117 -1.1420064 -0.18928584 43
0.47345203 -1.1613172 -0.14929011 43
0.46553782 -1.1424751 -0.10458705 52
0.46267787 -1.1360238 -0.062072542 46
0.4649083 -1.1420709 -0.020647256 43
0.46401277 -1.1404408 0.3194333 43
0.46406883 -1.1411492 0.27535671 43
0.46536621 -1.144912 0.23257795 39
0.46608791 -1.1472616 0.18985841 37
0.46436158 -1.1435846 0.14685255 44
0.46768856 -1.1523548 0.10545845 46
0.46108711 -1.1366587 0.062279783 45
0.45767665 -1.1288168 0.020593839 41
0.46884534 -1.1592677 -0.32481804 45
0.46713722 -1.1556243 -0.27893949 42
0.46296722 -1.145884 -0.23257811 41
0.45997334 -1.1390462 -0.18850368 44
0.46753791 -1.1583608 -0.14868078 39
0.45968357 -1.139474 -0.10415127 48
0.45870957 -1.1376319 -0.062072542 46
0.45905018 -1.1390498 -0.020560866 46
0.45822442 -1.1375735 0.31814006 43
0.4582631 -1.1382426 0.2742328 42
0.4595345 -1.1419759 0.23162474 39
0.46023762 -1.1442997 0.18907709 42
0.45851588 -1.140594 0.1462432 43
0.46366322 -1.1539804 0.10545845 44
0.45711666 -1.1382612 0.062279783 44
0.45373356 -1.1304075 0.020593839 40
0.46479589 -1.1608971 -0.32481804 41
0.46129045 -1.1527247 -0.27781472 47
0.4571417 -1.1429356 -0.2316249 44
0.45599452 -1.1406449 -0.18850368 45
0.46349162 -1.1599858 -0.14868078 42
0.45570323 -1.1410717 -0.10415127 49
0.45288461 -1.1345888 -0.06181173 45
0.45321885 -1.1360018 -0.020474477 44
0.45425078 -1.139166 0.31814006 43
0.45428708 -1.1398352 0.2742328 43
0.45554546 -1.1435729 0.23162474 42
0.45624045 -1.1458993 0.18907709 42
0.45453167 -1.1421876 0.1462432 43
0.45779136 -1.1509634 0.10502267 45
0.45129603 -1.13521 0.062018104 44
0.44793892 -1.1273385 0.020506576 42
0.45896131 -1.1580226 -0.32352394 41
0.45546964 -1.1497986 -0.27668998 42
0.45314932 -1.1445245 -0.2316249 40
0.45019299 -1.1376376 -0.18772151 43
0.45761436 -1.1569816 -0.14807141 43
0.44988617 -1.1380231 -0.10371549 52
0.44708654 -1.131519 -0.061550923 47
0.4492507 -1.1375769 -0.020474477 47
0.44849828 -1.1362522 0.31684682 44
0.4485175 -1.1368819 0.2731089 43
0.44975036 -1.14059 0.23067155 38
0.45042694 -1.1428903 0.18829578 40
0.44872308 -1.1391498 0.14563385 46
0.45377094 -1.1525544 0.10502267 49
0.44733065 -1.1367785 0.062018104 44
0.44217122 -1.1242429 0.020419315 42
0.45491627 -1.1596177 -0.32352394 40
0.44967487 -1.1468458 -0.27556521 46
0.44736049 -1.1415293 -0.23067172 43
0.44621912 -1.1392022 -0.18772151 47
0.45357296 -1.158572 -0.14807141 41
0.44591099 -1.1395867 -0.10371549 47
0.44313407 -1.1330726 -0.061550923 46
0.44345704 -1.1344823 -0.020388085 47
0.4427717 -1.1333121 0.31555355 42
0.44277415 -1.1339023 0.27198499 42
0.44398165 -1.1375806 0.22971837 42
0.44643477 -1.1444556 0.18829578 39
0.44474402 -1.1407093 0.14563385 41
0.44793651 -1.1494904 0.10458688 48
0.44335982 -1.138333 0.062018104 45
0.43824419 -1.1257795 0.020419315 44
0.44911757 -1.1566964 -0.32222986 39
0.44566894 -1.1484084 -0.27556521 45
0.44337308 -1.143084 -0.23067172 42
0.44045484 -1.1361483 -0.18693933 47
0.44773301 -1.1555207 -0.14746207 43
0.44013157 -1.1364914 -0.10327971 50
0.43737385 -1.1299561 -0.061290115 45
0.43769047 -1.1313607 -0.020301696 46
0.438813 -1.1348509 0.31555355 44
0.43881339 -1.1354408 0.27198499 43
0.43823949 -1.1345448 0.22876517 39
0.44065845 -1.1413997 0.18751447 42
0.43897286 -1.1376247 0.14502451 42
0.44212896 -1.1463996 0.10415111 47
0.43758771 -1.1352146 0.061756425 45
0.43251455 -1.1226374 0.020332051 43
0.44507721 -1.1582571 -0.32222986 41
0.4399108 -1.1454092 -0.27444047 44
0.43762136 -1.1400424 -0.22971854 41
0.43648624 -1.1376789 -0.18693933 47
0.44369674 -1.1570765 -0.14746207 43
0.43616179 -1.1380209 -0.10327971 51
0.43164071 -1.1268132 -0.061029304 46
0.43373862 -1.1328816 -0.020301696 45
0.43312278 -1.1318647 0.31426027 43
0.43310687 -1.1324152 0.27086109 43
0.43427652 -1.1360676 0.22876517 43
0.43667156 -1.142931 0.18751447 42
0.43499917 -1.13915 0.14502451 44
0.43634853 -1.1432824 0.10371533 45
0.43362239 -1.1367352 0.061756425 41
0.42859319 -1.1241404 0.020332051 46
0.43931484 -1.1552894 -0.32093576 39
0.43590993 -1.1469377 -0.27444047 43
0.43363917 -1.1415631 -0.22971854 44
0.43075946 -1.1345787 -0.18615715 48
0.43789437 -1.1539783 -0.14685272 43
0.4304204 -1.1348792 -0.10284393 50
0.42770481 -1.1283131 -0.061029304 48
0.42801028 -1.1297138 -0.020215306 44
0.42745879 -1.1288527 0.31296703 44
0.42915139 -1.1339202 0.27086109 43
0.42857173 -1.1329858 0.22781199 39
0.43093285 -1.1398288 0.18673316 39
0.42926592 -1.1360192 0.14441516 44
0.43235505 -1.1447985 0.10371533 46
0.42788851 -1.1335706 0.061494745 45
0.42290193 -1.120952 0.02024479 46
0.43527949 -1.1568159 -0.32093576 39
0.43018872 -1.1438922 -0.27331567 46
0.42792481 -1.1384753 -0.22876534 43
0.42505971 -1.1314526 -0.18537499 45
0.43386358 -1.1554998 -0.14685272 42
0.42645627 -1.1363747 -0.10284393 51
0.42201009 -1.125124 -0.060768496 45
0.4223094 -1.1265197 -0.020128915 45
0.42351577 -1.130338 0.31296703 43
0.423482 -1.1308486 0.26973718 42
0.42461428 -1.134475 0.22781199 39
0.42695147 -1.1413262 0.18673316 40
0.42355993 -1.1328623 0.14380582 43
0.42661279 -1.1416351 0.10327955 45
0.42392901 -1.1350572 0.061494745 45
0.41898653 -1.1224215 0.02024479 43
0.42955369 -1.1538022 -0.31964168 41
0.42619321 -1.1453869 -0.27331567 48
0.42394817 -1.1399621 -0.22876534 43
0.42110762 -1.1329293 -0.18537499 46
0.42809927 -1.1523552 -0.14624336 43
0.42075321 -1.1331869 -0.10240816 48
0.41808012 -1.1265901 -0.060768496 48
0.41837451 -1.127987 -0.020128915 44
0.41788879 -1.1272808 0.31167376 43
0.41953206 -1.1323199 0.26973718 44
0.41894713 -1.1313473 0.22685881 41
0.42125073 -1.1381781 0.18595186 42
0.4196029 -1.134334 0.14380582 44
0.42262515 -1.1431172 0.10327955 45
0.41823366 -1.1318464 0.061233066 42
0.41333398 -1.1191875 0.020157529 43
0.42385429 -1.1507624 -0.31834757 40
0.42050943 -1.1422957 -0.27219093 47
0.41827154 -1.1368287 -0.22781216 41
0.41544592 -1.1297574 -0.18459281 45
0.4240742 -1.1538426 -0.14624336 43
0.41679507 -1.1346487 -0.10240816 51
0.41242415 -1.1233554 -0.060507689 47
0.41271245 -1.1247473 -0.020042526 46
0.41228831 -1.1241981 0.31038052 45
0.41390023 -1.1292031 0.26861328 40
0.41330704 -1.1281941 0.22590563 44
0.41727519 -1.1396415 0.18595186 39
0.41393527 -1.1311312 0.14319646 47
0.41692138 -1.1399075 0.10284378 45
0.41428024 -1.1332995 0.061233066 45
0.40770921 -1.1159279 0.020070266 44
0.41983482 -1.152235 -0.31834757 40
0.41485241 -1.1391789 -0.27106616 42
0.41262197 -1.1336694 -0.22685897 42
0.40981156 -1.1265597 -0.18381064 44
0.41834822 -1.1506518 -0.14563403 43
0.41113073 -1.1314152 -0.10197237 50
0.4085004 -1.1247882 -0.060507689 50
0.40878382 -1.1261811 -0.020042526 43
0.40836158 -1.1256304 0.31038052 47
0.40995604 -1.130641 0.26861328 44
0.4093664 -1.12963 0.22590563 43
0.41161275 -1.1364478 0.18517055 41
0.40998435 -1.1325692 0.14319646 44
0.41293982 -1.1413559 0.10284378 45
0.40862381 -1.1300431 0.060971387 46
0.40381142 -1.1173443 0.020070266 45
0.41417265 -1.1491499 -0.31705347 40
0.41087341 -1.1406201 -0.27106616 45
0.4086622 -1.1351029 -0.22685897 43
0.40587664 -1.1279833 -0.18381064 46
0.41432914 -1.1521051 -0.14563403 42
0.40717885 -1.1328435 -0.10197237 52
0.40288356 -1.121508 -0.060246881 46
0.40485021 -1.1276011 -0.020042526 47
0.40279859 -1.1225029 0.30908728 43
0.40436214 -1.1274791 0.26748937 42
0.40376458 -1.1264315 0.22495243 42
0.40764329 -1.1378776 0.18517055 42
0.40435556 -1.1293212 0.14258713 47
0.40895322 -1.1427903 0.10284378 43
0.40467677 -1.1314626 0.060971387 45
0.39822593 -1.1140395 0.019983005 44
0.40853715 -1.1460395 -0.31575939 42
0.40525436 -1.1374581 -0.26994142 46
0.40305096 -1.1318985 -0.22590578 43
0.40028104 -1.1247407 -0.18302847 45
0.4086419 -1.1488686 -0.14502467 41
0.40155357 -1.1295646 -0.10153659 50
0.39896631 -1.1229075 -0.060246881 47
0.3992388 -1.1242965 -0.019956136 45
0.39887789 -1.1239021 0.30908728 45
0.40042403 -1.1288837 0.26748937 44
0.39819011 -1.1232078 0.22399925 43
0.40201953 -1.1346387 0.18438923 43
0.39875439 -1.1260476 0.14197777 43
0.40329981 -1.1395154 0.10240799 42
0.39905962 -1.128161 0.060709707 46
0.39433482 -1.1154227 0.019983005 48
0.40292838 -1.1429036 -0.31446525 43
0.40128142 -1.1388657 -0.26994142 49
0.39909744 -1.1332985 -0.22590578 41
0.3963525 -1.1261312 -0.18302847 44
0.40462911 -1.150288 -0.14502467 40
0.39760822 -1.1309594 -0.10153659 51
0.39504421 -1.1242933 -0.060246881 46
0.39531186 -1.1256832 -0.019956136 45
0.39335281 -1.1207303 0.30779403 49
0.39486837 -1.1256771 0.26636547 41
0.39426693 -1.124591 0.22399925 40
0.39805645 -1.136035 0.18438923 43
0.39482135 -1.1274327 0.14197777 48
0.39931968 -1.1409162 0.10240799 46
0.39511916 -1.129547 0.060709707 46
0.388789 -1.1120734 0.019895742 41
0.39913616 -1.1442333 -0.31446525 42
0.39770159 -1.1401207 -0.26994142 44
0.39553511 -1.1345468 -0.22590578 42
0.39118779 -1.1227072 -0.1822463 45
0.39938131 -1.1468668 -0.14441533 42
0.39241603 -1.1274987 -0.10110082 52
0.38986975 -1.1208129 -0.05998607 47
0.39177346 -1.1269195 -0.019956136 40
0.38982996 -1.1219605 0.30779403 43
0.39133 -1.1269121 0.26636547 44
0.39073199 -1.125824 0.22399925 41
0.39286709 -1.132614 0.18360792 40
0.38965195 -1.1239786 0.14136843 45
0.39410272 -1.1374586 0.10197221 47
0.38993487 -1.1260645 0.060448028 46
0.38529339 -1.1132894 0.019895742 43
0.39376402 -1.1409854 -0.31317118 41
0.39213085 -1.1368965 -0.26881665 42
0.38997281 -1.1312803 -0.22495259 43
0.38726643 -1.1240659 -0.1822463 45
0.39537555 -1.1482539 -0.14441533 40
0.38847792 -1.1288617 -0.10110082 51
0.38433102 -1.1174452 -0.059725262 51
0.38621226 -1.1235524 -0.019869745 45
0.38434201 -1.1187468 0.30650076 47
0.38581181 -1.1236632 0.26524156 43
0.38520667 -1.1225386 0.22304606 41
0.38891113 -1.1339786 0.18360792 39
0.38572615 -1.1253319 0.14136843 45
0.39012983 -1.1388273 0.10197221 45
0.38600177 -1.1274188 0.060448028 46
0.37978643 -1.1098974 0.019808481 44
0.38957945 -1.1424209 -0.31317118 46
0.38796127 -1.138326 -0.26881665 44
0.38582385 -1.132702 -0.22495259 43
0.3831439 -1.1254778 -0.1822463 46
0.38956589 -1.1449971 -0.14380598 43
0.3827343 -1.1255622 -0.10066504 50
0.38023278 -1.1188463 -0.059725262 46
0.38209164 -1.1249605 -0.019869745 40
0.38023901 -1.1201478 0.30650076 47
0.38169077 -1.1250697 0.26524156 40
0.38108978 -1.123943 0.22304606 40
0.3831673 -1.1307192 0.18282661 40
0.38000712 -1.1220376 0.14075908 44
0.38435629 -1.1355315 0.10153644 46
0.3802669 -1.1240962 0.060186349 46
0.37571591 -1.111282 0.019808481 47
0.38404644 -1.1391972 -0.31187707 40
0.3824299 -1.1350565 -0.26769191 46
0.3803013 -1.1293901 -0.2239994 41
0.37763777 -1.1221279 -0.18146412 48
0.38556674 -1.14635 -0.14380598 43
0.37880301 -1.1268914 -0.10066504 51
0.37632495 -1.1201668 -0.059725262 48
0.37657121 -1.1215481 -0.019783355 44
0.37632665 -1.1214683 0.30650076 43
0.37621212 -1.1217761 0.26411766 43
0.37560427 -1.1206124 0.22209287 39
0.37921801 -1.1320497 0.18282661 42
0.37608814 -1.1233572 0.14075908 40
0.38039017 -1.1368663 0.10153644 45
0.37634078 -1.1254166 0.060186349 42
0.37024987 -1.1078452 0.019721219 45
0.38006753 -1.1405309 -0.31187707 38
0.37846547 -1.1363845 -0.26769191 47
0.37635666 -1.1307107 -0.2239994 43
0.37371853 -1.1234393 -0.18146412 45
0.37999719 -1.1429796 -0.14319664 42
0.3732965 -1.1234798 -0.10022926 50
0.37083897 -1.1167347 -0.059464455 47
0.37265399 -1.1228558 -0.019783355 44
0.37088913 -1.1181909 0.30520752 44
0.3722941 -1.1230825 0.26411766 45
0.3716903 -1.1219168 0.22209287 40
0.37371179 -1.1286782 0.18204531 39
0.37060547 -1.1199516 0.14014974 43
0.37485549 -1.1334581 0.10110066 48
0.37084308 -1.1219826 0.05992467 44
0.36638051 -1.1091309 0.019721219 43
0.37608403 -1.1418506 -0.31187707 38
0.37449646 -1.1376987 -0.26769191 47
0.37240744 -1.1320176 -0.2239994 39
0.36979473 -1.1247369 -0.18146412 42
0.37600511 -1.144299 -0.14319664 41
0.36937255 -1.124776 -0.10022926 50
0.36693856 -1.1180226 -0.059464455 47
0.36717412 -1.1193995 -0.019696966 44
0.36698368 -1.1194787 0.30520752 47
0.36685467 -1.1197453 0.26299375 42
0.36624447 -1.1185427 0.22113968 45
0.36976972 -1.1299759 0.18204531 41
0.36669385 -1.1212385 0.14014974 44
0.3708967 -1.1347598 0.10110066 47
0.36692435 -1.1232703 0.05992467 46
0.36095524 -1.1056507 0.019633956 43
0.37060109 -1.138564 -0.31058297 36
0.37052283 -1.138999 -0.26769191 37
0.36845368 -1.1333107 -0.2239994 36
0.36586642 -1.1260209 -0.18146412 39
0.3720085 -1.1456046 -0.14319664 37
0.36390659 -1.1213208 -0.099793479 42
0.36303368 -1.1192966 -0.059464455 46
0.36326444 -1.1206744 -0.019696966 41
0.36307374 -1.1207529 0.30520752 44
0.36294377 -1.121019 0.26299375 41
0.36233783 -1.1198144 0.22113968 43
0.36430356 -1.1265607 0.181264 39
0.36125165 -1.1177894 0.13954039 40
0.36693341 -1.1360476 0.10110066 42
0.3630012 -1.1245441 0.05992467 45
0.3570936 -1.1069039 0.019633956 41
0.36662453 -1.1398507 -0.31058297 32
0.36654475 -1.1402854 -0.26769191 33
0.36449546 -1.1345899 -0.2239994 32
0.36344326 -1.1319931 -0.1822463 36
0.3680073 -1.1468961 -0.14319664 34
0.35999024 -1.1225843 -0.099793479 36
0.35912442 -1.120557 -0.059464455 40
0.35935035 -1.1219356 -0.019696966 36
0.35768688 -1.1174134 0.30391428 46
0.35902849 -1.122279 0.26299375 43
0.35842675 -1.1210723 0.22113968 40
0.36036888 -1.1278255 0.181264 36
0.35734767 -1.1190437 0.13954039 38
0.36296561 -1.1373215 0.10110066 39
0.36059082 -1.1305615 0.060186349 38
0.35474586 -1.1129067 0.019721219 33
0.36410621 -1.1457263 -0.31187707 29
0.36403692 -1.1462013 -0.26881665 29
0.36350262 -1.1452118 -0.22590578 29
0.35948965 -1.1332549 -0.1822463 30
0.3655014 -1.1529045 -0.14380598 31
0.3575739 -1.1285824 -0.10022926 31
0.35521075 -1.1218038 -0.059464455 32
0.35694012 -1.1279494 -0.019783355 32
0.35378423 -1.1186552 0.30391428 41
0.3565771 -1.1281711 0.26411766 37
0.35598969 -1.126997 0.22209287 35
0.35791656 -1.1337861 0.18204531 32
0.3549324 -1.1250169 0.14014974 35
0.36049119 -1.1433319 0.10153644 32
0.35664225 -1.1318133 0.060186349 32
0.35085893 -1.1141381 0.019721219 28
0.36155134 -1.1515982 -0.31317118 26
0.36003369 -1.147465 -0.26881665 28
0.36097148 -1.1511571 -0.22685897 31
0.35848525 -1.1439277 -0.18381064 29
0.36444125 -1.163645 -0.14502467 26
0.35512009 -1.1345773 -0.10066504 30
0.35278341 -1.1278023 -0.059725262 31
0.35449234 -1.13396 -0.019869745 30
0.34987724 -1.1198833 0.30391428 34
0.35408893 -1.1340594 0.26524156 33
0.35351562 -1.1329182 0.22304606 29
0.35395673 -1.1350286 0.18204531 26
0.3510032 -1.1262491 0.14014974 31
0.35946047 -1.1540946 0.10240799 30
0.35565728 -1.1425864 0.060709707 30
0.34845272 -1.1201298 0.019808481 28
0.35895985 -1.1574659 -0.31446525 26
0.35746837 -1.1533682 -0.26994142 26
0.3598555 -1.1617873 -0.22876534 31
0.35595039 -1.1498897 -0.18459281 29
0.36184385 -1.1696512 -0.14563403 28
0.35262877 -1.1405686 -0.10110082 31
0.35031855 -1.1337975 -0.05998607 30
0.35200691 -1.1399672 -0.019956136 29
0.3473902 -1.125713 0.30520752 29
0.35156399 -1.1399442 0.26636547 28
0.35100451 -1.1388359 0.22399925 26
0.35290015 -1.1456966 0.18360792 26
0.34852979 -1.1322105 0.14075908 27
0.35689431 -1.1601031 0.10284378 31
0.3531341 -1.1485935 0.060971387 32
0.34600893 -1.1261181 0.019895742 27
0.35633183 -1.16333 -0.31575939 25
0.35486621 -1.1592674 -0.27106616 26
0.35866964 -1.1724235 -0.23067172 30
0.35482204 -1.1605705 -0.18615715 29
0.36065906 -1.1803993 -0.14685272 28
0.35155457 -1.1513203 -0.10197237 30
0.34781611 -1.1397892 -0.060246881 29
0.35094213 -1.1507527 -0.020128915 28
0.34486666 -1.1315387 0.30650076 29
0.34900227 -1.1458251 0.26748937 27
0.34845641 -1.1447498 0.22495243 24
0.35033607 -1.1516463 0.18438923 26
0.34601903 -1.1381685 0.14136843 26
0.35573861 -1.1708735 0.10371533 31
0.35202399 -1.1593747 0.061494745 31
0.34352753 -1.1321028 0.019983005 28
0.35366726 -1.1691895 -0.31705347 26
0.35363692 -1.1698259 -0.27331567 26
0.3559944 -1.1783669 -0.2316249 31
0.35362348 -1.1712573 -0.18772151 29
0.35797006 -1.1864023 -0.14746207 26
0.34897155 -1.1573093 -0.10240816 27
0.34671676 -1.1505581 -0.060768496 32
0.34980634 -1.1615444 -0.020301696 29
0.3423067 -1.1373605 0.30779403 26
0.34780705 -1.1563675 0.26973718 27
0.3458713 -1.1506597 0.22590563 27
0.34915558 -1.1623218 0.18595186 26
0.34489781 -1.1488756 0.14258713 24
0.35451201 -1.1816499 0.10458688 31
0.35084286 -1.1701621 0.062018104 31
0.3424435 -1.1428727 0.020157529 27
0.35234824 -1.1796721 -0.31964168 26
0.35094482 -1.1757216 -0.27444047 26
0.35468513 -1.1890095 -0.23353131 30
0.35094371 -1.1772172 -0.18850368 29
0.35666049 -1.1971569 -0.14868078 27
0.34777236 -1.1680682 -0.10327971 28
0.34554645 -1.161333 -0.061290115 31
0.3485994 -1.1723422 -0.020474477 28
0.34108609 -1.1478081 0.31038052 25
0.34515548 -1.162245 0.27086109 27
0.34464565 -1.161271 0.22781199 25
0.34650043 -1.1682681 0.18673316 26
0.34229571 -1.1548307 0.14319646 25
0.35321444 -1.1924319 0.10545845 31
0.34959069 -1.1809552 0.062541462 30
0.33987024 -1.148855 0.02024479 26
0.34959432 -1.1855273 -0.32093576 27
0.34821582 -1.1816127 -0.27556521 25
0.35191917 -1.1949487 -0.23448449 30
0.34962097 -1.1879101 -0.19006802 27
0.35387987 -1.2031558 -0.14929011 25
0.34650221 -1.1788325 -0.10415127 27
0.34430507 -1.1721135 -0.06181173 29
0.34732139 -1.1831456 -0.020647256 29
0.33843705 -1.1536262 0.31167376 25
0.34383774 -1.1727933 0.2731089 25
0.34197 -1.1671771 0.22876517 25
0.34519583 -1.1789497 0.18829578 26
0.33965623 -1.1607815 0.14380582 24
0.35044792 -1.1984383 0.10589422 30
0.34686682 -1.1869608 0.062803142 30
0.33725935 -1.1548332 0.020332051 25
0.34815359 -1.1960146 -0.32352394 28
0.34544992 -1.1874989 -0.27668998 25
0.35048628 -1.2055961 -0.23639087 30
0.34822786 -1.1986079 -0.19163239 29
0.35244536 -1.2139155 -0.15050881 26
0.3451612 -1.1896023 -0.10502283 27
0.3429926 -1.1828996 -0.062333349 30
0.34597206 -1.1939541 -0.020820037 29
0.33709493 -1.1640791 0.31426027 26
0.34245056 -1.1833464 0.27535671 26
0.34062091 -1.1777939 0.23067155 23
0.34382078 -1.1896362 0.18985841 24
0.33835638 -1.1714957 0.14502451 25
0.3490251 -1.2092257 0.10676579 30
0.34548911 -1.1977595 0.0633265 30
0.33599555 -1.1656107 0.020506576 25
0.34664392 -1.2065064 -0.32611215 29
0.34399164 -1.1980629 -0.27893949 24
0.34762958 -1.2115302 -0.23734406 29
0.34676427 -1.2093105 -0.19319673 27
0.35093999 -1.2246797 -0.15172751 26
0.34237784 -1.1955884 -0.1054586 28
0.34160903 -1.1936907 -0.062854968 29
0.34317693 -1.1999612 -0.020906426 28
0.33435678 -1.1698927 0.31555355 25
0.33965588 -1.1892194 0.27648062 26
0.33920193 -1.1884154 0.23257795 24
0.34102076 -1.1955785 0.19063973 25
0.3356255 -1.1774423 0.14563385 24
0.34616655 -1.215227 0.10720157 29
0.34267312 -1.2037606 0.06358818 29
0.33329269 -1.171585 0.020593839 25
0.34374779 -1.2123555 -0.32740623 31
0.34113571 -1.2039436 -0.28006423 25
0.34607291 -1.2221813 -0.23925044 29
0.34388548 -1.2152654 -0.19397891 26
0.34801337 -1.2306728 -0.15233685 24
0.34091151 -1.2063628 -0.10633017 26
0.33879721 -1.1996812 -0.063115776 30
0.34170189 -1.2107745 -0.021079209 23
0.33289307 -1.1803496 0.31814006 26
0.33814591 -1.1997764 0.27872843 25
0.33771282 -1.1990411 0.23448433 25
0.33952141 -1.2062694 0.19220234 23
0.33285713 -1.1833841 0.1462432 25
0.3446182 -1.2260182 0.10807312 29
0.33981946 -1.2097566 0.063849866 29
0.33325437 -1.1871806 0.020855624 25
0.34211618 -1.22285 -0.32999444 31
0.33955458 -1.2145108 -0.28231373 24
0.34312537 -1.2281092 -0.24020362 26
0.34229741 -1.2259713 -0.19554324 27
0.34638286 -1.2414403 -0.15355554 23
0.33803624 -1.2123433 -0.10676596 22
0.33728802 -1.2104764 -0.063637398 31
0.33881444 -1.2167758 -0.0211656 26
0.33136043 -1.1908106 0.32072657 25
0.33526114 -1.2056434 0.27985233 26
0.33483949 -1.2049417 0.23543751 23
0.33663011 -1.2122055 0.19298366 23
0.33137846 -1.1941026 0.14746189 22
0.34299874 -1.2368133 0.10894468 26
0.33826157 -1.2205589 0.064373225 28
0.33177695 -1.1979725 0.021030148 23
0.33913055 -1.2286923 -0.33128852 29
0.33660847 -1.2203853 -0.2834385 24
0.34144491 -1.2387632 -0.24211 28
0.33932734 -1.23192 -0.19632542 27
0.34336436 -1.2474267 -0.1541649 24
0.33512339 -1.2183186 -0.10720173 27
0.33438402 -1.2164609 -0.063898206 28
0.33721349 -1.2275925 -0.021338379 24
0.32848021 -1.1966176 0.32201982 25
0.33362839 -1.2162032 0.28210014 26
0.33322668 -1.2155704 0.23734389 24
0.33500633 -1.2228994 0.19454628 23
0.32982901 -1.2048254 0.1486806 26
0.33999369 -1.2428075 0.10938046 29
0.3353157 -1.2265487 0.064634904 28
0.33154565 -1.2135909 0.021291936 26
0.33610827 -1.2345287 -0.33258262 25
0.33490446 -1.2309548 -0.28568801 24
0.33969417 -1.2494202 -0.24401638 28
0.33761466 -1.2426282 -0.19788976 25
0.34160858 -1.2581964 -0.15538359 24
0.33217287 -1.2242881 -0.10763751 28
0.33274904 -1.2272592 -0.064419828 29
0.33423373 -1.2335874 -0.02142477 24
0.32682577 -1.207081 0.32460633 25
0.33192593 -1.2267662 0.28434795 26
0.33026266 -1.2214644 0.23829708 23
0.33331198 -1.2335966 0.19610889 24
0.32691503 -1.2107606 0.14928995 23
0.33824855 -1.2536048 0.11025202 26
0.33363199 -1.2373537 0.065158263 27
0.32990873 -1.224395 0.02146646 28
0.33179688 -1.2356943 -0.33258262 22
0.33313075 -1.241527 -0.28793752 22
0.33660203 -1.2553393 -0.24496956 27
0.33455318 -1.2485694 -0.19867194 25
0.33849823 -1.2641749 -0.15599294 25
0.3291848 -1.2302518 -0.10807329 25
0.33104268 -1.2380606 -0.064941444 28
0.33250672 -1.2444062 -0.021597549 25
0.32510227 -1.2175471 0.32719281 25
0.32889774 -1.2326248 0.28547186 24
0.32852608 -1.2320951 0.24020346 23
0.33154693 -1.2442967 0.19767152 25
0.32524052 -1.2214856 0.15050864 23
0.33515137 -1.2595912 0.11068779 27
0.3318769 -1.2481617 0.065681621 29
0.32948411 -1.240034 0.021728246 27
0.32893431 -1.2414564 -0.3338767 18
0.33047649 -1.2472768 -0.28906226 22
0.33516917 -1.2658802 -0.24687594 28
0.33315539 -1.2591625 -0.20023628 25
0.33706212 -1.2748278 -0.15721163 21
0.32786295 -1.2409114 -0.10894485 28
0.32970089 -1.2487501 -0.065463059 27
0.33114636 -1.2551123 -0.02177033 26
0.32373828 -1.2279029 0.32977933 24
0.32750624 -1.2430745 0.28771967 24
0.32590342 -1.2378676 0.24115664 23
0.32889277 -1.2501082 0.19845283 20
0.32392517 -1.2321006 0.15172733 23
0.33372384 -1.270273 0.11155935 27
0.33048984 -1.2588571 0.06620498 27
0.32812402 -1.2507342 0.02190277 25
0.3260372 -1.247213 -0.33517081 15
0.32858336 -1.2578502 -0.29131177 22
0.33322781 -1.2765406 -0.24878232 26
0.33000457 -1.2650963 -0.20101845 25
0.33386189 -1.2807989 -0.15782097 22
0.32604048 -1.2516886 -0.10981641 27
0.32785553 -1.2595577 -0.065984681 27
0.32928011 -1.2659371 -0.021943111 25
0.32188013 -1.2383746 0.33236581 25
0.32561472 -1.2536414 0.28996748 24
0.32404661 -1.2484994 0.24306302 23
0.32700676 -1.2608093 0.20001544 24
0.32086748 -1.2380278 0.15233667 25
0.3305366 -1.276252 0.11199513 27
0.32859564 -1.2696708 0.066728339 28
0.32625955 -1.2615519 0.022077292 26
0.32628113 -1.2671077 -0.34034717 13
0.32518494 -1.2637641 -0.29243654 21
0.33099145 -1.2872608 -0.2506887 26
0.32782349 -1.2758635 -0.20258279 25
0.33163366 -1.2916276 -0.15903966 23
0.32268849 -1.2576997 -0.11025219 26
0.32447687 -1.2655877 -0.066245489 26
0.32711944 -1.276821 -0.02211589 22
0.31973484 -1.2489039 0.33495232 24
0.32343274 -1.2642664 0.29221529 25
0.3218998 -1.2591895 0.2449694 22
0.32482815 -1.2715694 0.20157807 23
0.31878266 -1.2488126 0.15355536 22
0.32831892 -1.2871077 0.11286668 27
0.32517317 -1.275705 0.066990018 24
0.32286751 -1.2675838 0.022164555 25
0.32542011 -1.2822826 -0.34422946 15
0.32316676 -1.2743363 -0.29468605 21
0.32890743 -1.297924 -0.25259507 26
0.32458016 -1.2817874 -0.20336497 26
0.32955778 -1.3023995 -0.16025837 22
0.32073838 -1.2684765 -0.11112374 25
0.32250348 -1.2763946 -0.066767104 25
0.32510817 -1.2876495 -0.022288671 22
0.31773648 -1.2593786 0.33753884 24
0.32139969 -1.2748361 0.2944631 24
0.31990054 -1.2698246 0.24687576 20
0.3215932 -1.2774847 0.20235938 22
0.31684288 -1.2595433 0.15477405 23
0.32625264 -1.2979074 0.11373824 27
0.32315099 -1.2865179 0.067513384 27
0.32087493 -1.2784007 0.02233908 23
0.32562885 -1.3021523 -0.34940588 14
0.32107869 -1.2849096 -0.29693556 21
0.32675302 -1.3085885 -0.25450143 26
0.32249501 -1.2924956 -0.20492931 25
0.32621017 -1.3083574 -0.16086771 23
0.31871694 -1.2792548 -0.1119953 24
0.32045862 -1.2872032 -0.067288719 27
0.32181835 -1.293628 -0.02237506 23
0.31450364 -1.2651672 0.33883208 24
0.31929678 -1.2854071 0.29671091 24
0.31664851 -1.2756972 0.24782895 22
0.31950974 -1.288186 0.20392199 23
0.31483206 -1.2702756 0.15599275 22
0.32411495 -1.3087081 0.1146098 26
0.32105723 -1.2973318 0.068036743 27
0.31881073 -1.289219 0.022513602 25
0.32454738 -1.3173492 -0.35328817 14
0.3189207 -1.2954838 -0.29918507 20
0.32452813 -1.3192536 -0.25640786 24
0.31916022 -1.2984091 -0.20571148 25
0.32400867 -1.3191268 -0.1620864 22
0.31662413 -1.2900344 -0.11286686 25
0.31834221 -1.2980129 -0.067810342 25
0.31968066 -1.3044544 -0.022547841 24
0.31238309 -1.2756398 0.34141859 23
0.31596595 -1.2912461 0.29783478 23
0.31452519 -1.2863306 0.24973533 20
0.31735551 -1.2988884 0.20548461 25
0.31157312 -1.2761879 0.1566021 22
0.32190579 -1.3195096 0.11548135 25
0.31889185 -1.3081468 0.068560101 25
0.31549174 -1.2951814 0.022600865 23
0.32336378 -1.3325543 -0.35717043 13
0.3166928 -1.3060584 -0.30143458 20
0.32107693 -1.3251486 -0.25736102 25
0.31695014 -1.3091149 -0.20727582 24
0.32173598 -1.329897 -0.16330509 22
0.31328952 -1.2959732 -0.11330264 26
0.31615418 -1.3088235 -0.068331957 22
0.31629831 -1.3104222 -0.022634231 23
0.31019324 -1.2861129 0.34400508 21
0.31373975 -1.3018141 0.30008259 25
0.31233144 -1.2969643 0.25164169 22
0.31513041 -1.3095913 0.20704722 23
0.30943692 -1.2869182 0.15782079 22
0.31962514 -1.3303114 0.11635291 26
0.31665489 -1.3189623 0.06908346 24
0.31330118 -1.3059973 0.022775389 26
0.32207793 -1.3477671 -0.36105272 13
0.31439495 -1.3166333 -0.30368412 21
0.31872764 -1.3358099 -0.25926742 25
0.31466916 -1.3198209 -0.20884018 23
0.31824195 -1.3358399 -0.16391446 22
0.3110708 -1.3067501 -0.11417419 24
0.31389454 -1.3196343 -0.068853572 25
0.31403419 -1.3212457 -0.022807011 23
0.30793402 -1.296586 0.34659159 23
0.31031856 -1.3076416 0.3012065 23
0.31006727 -1.3075985 0.25354809 22
0.31283444 -1.3202944 0.20860985 24
0.30722958 -1.297649 0.15903948 22
0.31727299 -1.3411134 0.11722448 25
0.31319755 -1.3249187 0.069345139 25
0.31103894 -1.3168136 0.022949912 22
0.31958365 -1.3582857 -0.3636409 13
0.31202707 -1.3272078 -0.30593362 20
0.31630781 -1.3464707 -0.26117378 25
0.31231728 -1.3305268 -0.21040453 23
0.31584355 -1.3466057 -0.16513315 22
0.30878064 -1.3175271 -0.11504576 21
0.31042477 -1.3255837 -0.069114387 26
0.3105593 -1.3272016 -0.022893401 24
0.30560547 -1.3070592 0.34917811 22
0.30796894 -1.3182055 0.30345434 23
0.30773261 -1.3182323 0.25545445 22
0.31046757 -1.3309973 0.21017249 21
0.30495104 -1.3083798 0.16025817 19
0.31371951 -1.347064 0.11766025 26
0.31083426 -1.3357304 0.069868498 23
0.30870497 -1.3276299 0.023124436 22
0.31701982 -1.368803 -0.36622912 13
0.30958915 -1.3377817 -0.30818313 19
0.31381741 -1.357131 -0.26308015 25
0.30989447 -1.3412322 -0.21196888 24
0.31337386 -1.3573711 -0.16635184 22
