# .PCD v0.7 - Point Cloud Data file format
VERSION 0.7
FIELDS x y z intensity
SIZE 4 4 4 4
TYPE F F F F
COUNT 1 1 1 1
WIDTH 1313
HEIGHT 1
VIEWPOINT 0 0 0 1 0 0 0
POINTS 1313
DATA ascii
1.0091571 -1.2404399 0.30311388 14
1.0118991 -1.2442539 0.24767537 13
1.0102506 -1.2426698 0.1919442 17
1.0199406 -1.2550366 0.13814184 16
1.0158582 -1.2504591 0.082429126 16
1.0042433 -1.2366027 0.02713849 18
1.0277323 -1.2677855 -0.4270516 18
1.0148121 -1.2522945 -0.36329618 18
1.0189152 -1.2578064 -0.30692685 18
1.0030479 -1.2386611 -0.24638447 15
1.0201356 -1.2602122 -0.19438182 15
1.0141766 -1.2532979 -0.13770628 22
1.0038252 -1.2409488 -0.08137241 14
1.001654 -1.2387069 -0.026867351 15
1.0108266 -1.2504966 0.42030698 17
1.0100403 -1.2499701 0.36189741 14
1.0017368 -1.2401367 0.30216068 13
1.0044471 -1.2439362 0.24689406 14
1.0027896 -1.242327 0.19133486 17
1.0124257 -1.2547128 0.13770607 16
1.0083522 -1.250111 0.082167447 17
0.99678266 -1.2362089 0.027051229 17
1.0170234 -1.2640183 -0.42446342 18
1.0071621 -1.2522093 -0.36217141 18
1.0112227 -1.2577072 -0.30597368 18
0.99540764 -1.23848 -0.24560231 16
1.0124016 -1.260074 -0.19377246 16
1.003338 -1.2492397 -0.13683473 17
0.99614412 -1.2407261 -0.081111602 15
0.99397814 -1.238471 -0.026780961 15
1.0032141 -1.2504258 0.41901374 17
1.0024041 -1.249863 0.3607735 15
0.99104422 -1.2361408 0.30025432 14
0.99679261 -1.2437556 0.24611275 13
0.99512655 -1.242121 0.19072551 16
1.0047065 -1.2545272 0.13727029 16
0.99752241 -1.2460026 0.081644088 17
0.98912126 -1.2359508 0.026963966 17
1.0095906 -1.2637873 -0.42316931 17
0.99670458 -1.2481034 -0.35992187 18
1.003764 -1.2573934 -0.30502045 18
0.98799807 -1.2380869 -0.24482013 16
1.0049021 -1.2597207 -0.19316311 16
0.98965478 -1.2410513 -0.13552739 17
0.98869467 -1.2402914 -0.080850787 15
0.98653352 -1.2380235 -0.026694572 16
0.99282467 -1.2463645 0.41642722 17
0.99500006 -1.2495431 0.35964957 15
0.98366648 -1.2357526 0.29930112 14
0.98936999 -1.243363 0.24533144 13
0.98460609 -1.2378194 0.18950681 17
0.99412119 -1.2502295 0.13639873 16
0.99006009 -1.2455683 0.081382409 16
0.97858095 -1.2315679 0.026789442 17
1.0021719 -1.2635198 -0.42187524 19
0.98931497 -1.2477574 -0.35879713 18
0.99632007 -1.257043 -0.30406728 18
0.98060352 -1.2376573 -0.24403796 16
0.99433631 -1.2554401 -0.19194442 16
0.97913295 -1.2366879 -0.13465583 17
0.97816163 -1.2359042 -0.080329172 15
0.97910416 -1.2375389 -0.02660818 15
0.98547184 -1.2460343 0.41513398 18
0.9845891 -1.2453648 0.35740176 15
0.97630352 -1.2353278 0.29834792 13
0.98196238 -1.2429339 0.24455012 14
0.97720343 -1.237354 0.18889748 17
0.98666453 -1.2497823 0.13596296 16
0.98261285 -1.2450969 0.081120729 17
0.9711796 -1.2310513 0.026702181 18
0.99476713 -1.2632159 -0.42058113 17
0.97892654 -1.2435471 -0.35654762 18
0.98889065 -1.2566559 -0.30311409 20
0.97322404 -1.2371913 -0.24325579 14
0.98074508 -1.2472001 -0.19011639 14
0.96865368 -1.2322663 -0.13378426 14
0.97075641 -1.2353852 -0.080068365 15
0.96860206 -1.2330863 -0.026435401 16
0.97515064 -1.2418692 0.41254744 17
0.97722775 -1.2449616 0.35627785 15
0.96895546 -1.2348667 0.29739475 14
0.97152185 -1.2385825 0.24298751 14
0.96981609 -1.2368523 0.18828812 17
0.97922325 -1.2492986 0.13552718 17
0.97210151 -1.2406586 0.080597371 17
0.96071118 -1.2265625 0.026527656 17
0.98440212 -1.2590711 -0.41799295 17
0.97157973 -1.243118 -0.35542285 19
0.98147631 -1.2562323 -0.30216089 21
0.95978028 -1.2289047 -0.24090928 13
0.97027749 -1.2427925 -0.18889768 11
0.95515275 -1.22386 -0.13247694 16
0.96029562 -1.2308925 -0.07954675 15
0.96121752 -1.2325177 -0.02634901 16
0.96784025 -1.2414564 0.4112542 18
0.96988118 -1.2445223 0.35515395 15
0.96162266 -1.2343695 0.29644156 15
0.96415806 -1.2380697 0.2422062 14
0.96244431 -1.2363141 0.18767878 17
0.97179735 -1.2487781 0.13509139 17
0.96469909 -1.2401034 0.080335692 18
0.95335507 -1.2259622 0.026440395 19
0.97703981 -1.2586846 -0.41669884 18
0.96126121 -1.238804 -0.35317335 19
0.9710685 -1.251894 -0.30025452 21
0.94943249 -1.2244422 -0.23934492 12
0.95681244 -1.2344047 -0.18706965 14
0.94477332 -1.2193121 -0.13160537 17
0.95293552 -1.2302896 -0.079285935 15
0.95384872 -1.2319126 -0.02626262 16
0.96054453 -1.2410078 0.40996096 18
0.95956832 -1.2401936 0.35290614 16
0.95130229 -1.2299538 0.29453519 14
0.95680976 -1.2375207 0.24142489 14
0.95508808 -1.2357395 0.18706943 17
0.96134186 -1.2442796 0.13421984 17
0.95731235 -1.2395114 0.080074012 17
0.9460147 -1.2253253 0.026353132 19
0.96674395 -1.2544364 -0.41411063 20
0.95395792 -1.2382923 -0.35204861 17
0.96070313 -1.2474984 -0.29834813 22
0.93611521 -1.2160094 -0.23699841 15
0.94644463 -1.2298712 -0.18585096 18
0.93443722 -1.2147065 -0.13073382 33
0.94559139 -1.2296503 -0.079025127 15
0.94344908 -1.2273076 -0.02608984 17
0.95326388 -1.2405236 0.40866768 19
0.95226538 -1.2396719 0.35178223 17
0.94401377 -1.2293738 0.29358199 15
0.94647002 -1.233018 0.23986228 16
0.94472647 -1.2311914 0.18585074 17
0.95396101 -1.2436756 0.13378407 17
0.94690329 -1.2349206 0.079550654 18
0.93869048 -1.2246523 0.026265871 20
0.95355505 -1.2462963 -0.41022834 17
0.94371027 -1.2338754 -0.3497991 18
0.95038038 -1.2430458 -0.29644176 24
0.92586732 -1.2114222 -0.23543407 27
0.93913287 -1.2292238 -0.18524161 35
0.92716813 -1.2140024 -0.13029803 32
0.93826336 -1.2289747 -0.078764319 17
0.93612629 -1.2266194 -0.02600345 18
0.9430688 -1.2361635 0.4060812 18
0.94202352 -1.2352403 0.34953442 17
0.93674099 -1.2287582 0.29262879 15
0.93916684 -1.2323864 0.23908097 16
0.93741572 -1.2305338 0.1852414 18
0.94357848 -1.2390723 0.1329125 19
0.9395625 -1.2342455 0.079288974 19
0.9283551 -1.2199649 0.026091347 24
0.9433561 -1.2419254 -0.40764016 17
0.93350506 -1.2294018 -0.34754959 17
0.94010043 -1.2385366 -0.2945354 17
0.92163301 -1.2146467 -0.23543407 16
0.93183732 -1.2285405 -0.18463226 20
0.92292488 -1.2172314 -0.13029803 14
0.9309516 -1.228263 -0.078503512 17
0.92580068 -1.2219101 -0.025830669 16
0.9358319 -1.2355976 0.40478793 20
0.93476516 -1.2346368 0.34841052 17
0.92652184 -1.224193 0.29072243 17
0.92889988 -1.2277803 0.23751834 15
0.92712748 -1.2258822 0.18402271 21
0.93624371 -1.2383853 0.13247673 18
0.92922741 -1.2295507 0.078765616 21
0.92107755 -1.2192092 0.026004085 22
0.93319947 -1.2374985 -0.40505198 19
0.92627531 -1.2287626 -0.34642482 21
0.93281752 -1.2378906 -0.2935822 20
0.91738743 -1.2178564 -0.23543407 15
0.92754322 -1.2317858 -0.18463226 16
0.91567475 -1.2164661 -0.12986226 21
0.92065406 -1.2235255 -0.077981897 18
0.91852474 -1.2211392 -0.02574428 18
0.92570794 -1.2311362 0.40220144 21
0.92459512 -1.230103 0.34616271 18
0.91929466 -1.2234957 0.28976923 16
0.9216426 -1.2270665 0.23673703 16
0.91986299 -1.2251424 0.18341336 17
0.92593527 -1.2336783 0.13160518 20
0.92193323 -1.2287928 0.078503937 21
0.91381651 -1.2184175 0.025916822 28
0.92619556 -1.2367206 -0.40375787 23
0.91656971 -1.2238675 -0.34417531 27
0.92304081 -1.2329566 -0.29167584 25
0.91059798 -1.2167786 -0.23465189 24
0.92069608 -1.2307198 -0.18402292 22
0.9118486 -1.2193367 -0.12986226 31
0.91381615 -1.2224125 -0.077721082 21
0.91169131 -1.2200141 -0.025657889 30
0.91605461 -1.2262994 0.39961493 23
0.91781098 -1.229098 0.3450388 20
0.91251028 -1.2224444 0.28881606 19
0.91187608 -1.2220397 0.23517442 20
0.91007501 -1.2200702 0.18219467 23
0.91907763 -1.2325882 0.13116939 25
0.91210026 -1.2236763 0.07798057 29
0.90699732 -1.2172735 0.025829561 68
0.91920722 -1.2359099 -0.40246379 34
0.90938532 -1.2231498 -0.34305057 38
0.91580367 -1.2322317 -0.29072264 37
0.90634501 -1.2199497 -0.23465189 38
0.91639447 -1.2339261 -0.18402292 34
0.90461773 -1.218513 -0.12942648 46
0.90656787 -1.2215853 -0.077460274 32
0.90444851 -1.219174 -0.025571499 41
0.9088915 -1.2256101 0.39832169 27
0.90771222 -1.2244663 0.34279102 26
0.90531534 -1.2216787 0.28786287 24
0.90466517 -1.2212468 0.2343931 32
0.90285736 -1.2192514 0.18158531 29
0.91180593 -1.2317853 0.13073361 38
0.90485334 -1.222839 0.077718891 38
0.8967967 -1.2123936 0.025655035 82
0.91180307 -1.2353848 -0.40116969 56
0.90200365 -1.2225543 -0.3419258 58
0.90836775 -1.2316298 -0.28976944 60
0.89893705 -1.2192885 -0.23386972 62
0.90892148 -1.2332816 -0.18341357 52
0.89719117 -1.2178102 -0.12899069 62
0.89912343 -1.2208792 -0.077199467 49
0.89701009 -1.2184548 -0.02548511 62
0.90153062 -1.2250431 0.39702845 32
0.90033114 -1.2238606 0.34166712 36
0.89792371 -1.2210344 0.28690967 38
0.89725792 -1.2205755 0.23361179 50
0.89838248 -1.2225523 0.18158531 37
0.90433627 -1.2311047 0.13029784 61
0.89740992 -1.2221226 0.077457212 65
0.8893888 -1.2116423 0.025567774 67
0.90177637 -1.2307684 -0.3985815 64
0.89773065 -1.2256955 -0.3419258 59
0.90406305 -1.2347932 -0.28976944 63
0.88884211 -1.2144487 -0.23230538 57
0.90461099 -1.2364469 -0.18341357 63
0.88999438 -1.2169141 -0.12855493 54
0.88896251 -1.2159486 -0.076677844 62
0.88980162 -1.2175423 -0.025398716 66
0.89439976 -1.2242825 0.39573517 52
0.89318025 -1.2230613 0.34054321 51
0.89365596 -1.2241613 0.28690967 57
0.89008069 -1.2197106 0.23283048 57
0.89118487 -1.2216715 0.18097597 56
0.89709872 -1.2302294 0.12986206 76
0.89019728 -1.2212129 0.077195533 66
0.87926567 -1.2066587 0.025393249 54
0.89463383 -1.2300029 -0.3972874 45
0.88771683 -1.2209408 -0.33967629 35
0.89397579 -1.2300006 -0.28786308 51
0.88169479 -1.2135488 -0.2315232 50
0.8944568 -1.2315661 -0.18219487 41
0.87988836 -1.2119517 -0.12768336 33
0.88177979 -1.2150031 -0.076417036 61
0.87967479 -1.2125478 -0.025225937 49
0.88444978 -1.2195773 0.39314869 54
0.8831864 -1.2182826 0.3382954 60
0.88649726 -1.2232989 0.2859565 59
0.88002312 -1.2148113 0.23126787 50
0.88109356 -1.2167358 0.17975728 50
0.88695753 -1.2252837 0.1289905 54
0.88007468 -1.2162223 0.076672167 55
0.86918831 -1.2016195 0.025218725 31
0.88468057 -1.2252871 -0.39469922 26
0.87774712 -1.2161313 -0.33742678 22
0.88106132 -1.2211725 -0.28500351 26
0.87167573 -1.2086082 -0.22995885 26
0.88725007 -1.2306552 -0.18158554 25
0.86982799 -1.206934 -0.1268118 22
0.87169588 -1.209971 -0.075895414 32
0.86959386 -1.2074976 -0.025053157 24
0.87736541 -1.2187374 0.39185542 49
0.87608266 -1.2174035 0.33717149 46
0.87648922 -1.218417 0.28405011 39
0.87001073 -1.2098566 0.22970523 25
0.87394428 -1.2157743 0.17914791 34
0.87686181 -1.2202823 0.12811893 29
0.87291086 -1.2152315 0.076410487 29
0.85915697 -1.1965245 0.025044201 20
0.87758458 -1.2244421 -0.39340511 20
0.86214703 -1.2033466 -0.33292776 16
0.86821955 -1.2122691 -0.28214395 19
0.86170202 -1.2036126 -0.22839449 20
0.87717247 -1.2256734 -0.18036683 19
0.85981345 -1.2018608 -0.12594023 17
0.86165798 -1.2048835 -0.075373799 21
0.85665154 -1.1983248 -0.024793986 19
0.86748964 -1.2139333 0.38926893 29
0.86616379 -1.2125254 0.33492368 25
0.86367369 -1.2094859 0.28119054 22
0.8600437 -1.204847 0.2281426 19
0.86104733 -1.2066982 0.17731988 18
0.86681193 -1.2152255 0.12724738 24
0.85996717 -1.2060747 0.075625449 18
0.84917182 -1.1913744 0.024869677 16
0.86770564 -1.2196274 -0.39081693 19
0.85229421 -1.1984082 -0.33067822 17
0.85829455 -1.2072914 -0.28023756 17
0.8546347 -1.2025877 -0.22761233 24
0.86714053 -1.2206364 -0.17914812 23
0.84984505 -1.1967326 -0.12506868 28
0.85166627 -1.1997406 -0.074852183 17
0.84378409 -1.1890767 -0.024534816 18
0.85765809 -1.2090753 0.38668242 19
0.85628968 -1.2075928 0.33267587 19
0.85093135 -1.20048 0.27833098 17
0.85012239 -1.1997826 0.22657999 17
0.84822452 -1.1975472 0.17549184 15
0.85968643 -1.2141787 0.12681161 22
0.85286736 -1.2049935 0.07536377 23
0.84212047 -1.1902502 0.024782415 28
0.86065704 -1.2187039 -0.38952285 26
0.83967674 -1.189436 -0.32730398 24
0.84558511 -1.1982492 -0.27737799 24
0.84473825 -1.1974927 -0.22604798 25
0.86001444 -1.2196 -0.17853878 22
0.84279269 -1.1956205 -0.1246329 30
0.841721 -1.1945429 -0.074330568 29
0.83387053 -1.1838405 -0.024362035 22
0.84787112 -1.2041636 0.38409594 18
0.8464607 -1.2026062 0.33042803 23
0.83826244 -1.1914003 0.27547142 16
0.84024692 -1.1946638 0.22501737 30
0.83833063 -1.1923813 0.17427315 17
0.84971482 -1.2090218 0.12594004 28
0.84291518 -1.199792 0.074840412 24
0.83508748 -1.1890913 0.024695154 34
0.85085332 -1.2137911 -0.38693464 19
0.83551973 -1.1923597 -0.32730398 29
0.83858138 -1.1971735 -0.2764248 32
0.83772051 -1.1963888 -0.2252658 34
0.85290617 -1.2185289 -0.17792943 31
0.83575851 -1.1944741 -0.12419713 36
0.83468431 -1.1933821 -0.074069753 29
0.82973307 -1.1867441 -0.024362035 34
0.84089583 -1.2031569 0.38280267 30
0.83946735 -1.2015597 0.32930413 23
0.82566756 -1.1822469 0.27261186 23
0.83607173 -1.1975895 0.22501737 30
0.8284831 -1.187161 0.17305446 23
0.84263951 -1.2078954 0.12550427 32
0.83586591 -1.1986313 0.074578732 33
0.82807285 -1.1878979 0.024607891 67
0.84385276 -1.2127894 -0.38564056 19
0.83135247 -1.1952689 -0.32730398 33
0.83439726 -1.2000933 -0.2764248 34
0.83353925 -1.1993058 -0.2252658 35
0.8458159 -1.2174228 -0.17732009 34
0.82874268 -1.193293 -0.12376134 36
0.83051354 -1.1962885 -0.074069753 34
0.82558554 -1.1896333 -0.024362035 38
0.83393788 -1.2021165 0.38150942 30
0.8324917 -1.2004791 0.32818022 36
0.82153571 -1.1851218 0.27261186 30
0.83188623 -1.2005006 0.22501737 35
0.82150817 -1.1859661 0.17244512 29
0.83558244 -1.2067342 0.12506849 38
0.82883501 -1.1974362 0.074317053 33
0.8239212 -1.1907812 0.024607891 73
0.83961415 -1.2157276 -0.38564056 20
0.82717514 -1.1981636 -0.32730398 32
0.83020312 -1.2029985 -0.2764248 36
0.82654351 -1.198143 -0.22448364 38
0.84156114 -1.2203679 -0.17732009 35
0.82457221 -1.1961786 -0.12376134 37
0.82633263 -1.1991802 -0.074069753 35
0.82426375 -1.1966248 -0.024448426 52
0.82699746 -1.2010421 0.38021615 39
0.82553387 -1.1993644 0.32705632 39
0.81739378 -1.1879823 0.27261186 34
0.82769066 -1.2033972 0.22501737 39
0.81736338 -1.1888264 0.17244512 36
0.83136505 -1.2096436 0.12506849 50
0.82465017 -1.200322 0.074317053 39
0.81975961 -1.19365 0.024607891 70
0.83263475 -1.2146674 -0.38434646 21
0.82298774 -1.2010437 -0.32730398 32
0.82877254 -1.2099386 -0.27737799 34
0.82235622 -1.2010208 -0.22448364 37
0.83449316 -1.2192028 -0.17671074 34
0.82039177 -1.1990496 -0.12376134 36
0.82214171 -1.2020572 -0.074069753 34
0.82008177 -1.1994946 -0.024448426 42
0.8200748 -1.199934 0.37892288 53
0.82134223 -1.2022388 0.32705632 55
0.81601006 -1.1948816 0.27356502 40
0.82348496 -1.206279 0.22501737 45
0.81600595 -1.1957716 0.17305446 39
0.82713759 -1.2125382 0.12506849 46
0.82045519 -1.2031933 0.074317053 37
0.81840372 -1.2006351 0.024695154 67
0.82567292 -1.2135735 -0.38305238 18
0.81879038 -1.2039092 -0.32730398 31
0.82454401 -1.2128242 -0.27737799 37
0.81815886 -1.2038841 -0.22448364 43
0.83302099 -1.2262133 -0.17732009 37
0.81899959 -1.2060267 -0.12419713 52
0.82074517 -1.209051 -0.074330568 34
0.81869686 -1.2064867 -0.024534816 39
0.81588125 -1.2027892 0.37892288 56
0.81714058 -1.2050985 0.32705632 54
0.81183422 -1.1977227 0.27356502 43
0.82203948 -1.2132347 0.22579868 43
0.81182694 -1.1986127 0.17305446 47
0.8229 -1.2154181 0.12506849 51
0.81904888 -1.2101849 0.074578732 40
0.81420773 -1.2034844 0.024695154 74
0.8214317 -1.2164482 -0.38305238 16
0.81185722 -1.202722 -0.32617921 28
0.82030547 -1.215695 -0.27737799 69
0.81395149 -1.2067326 -0.22448364 73
0.82873565 -1.2291136 -0.17732009 70
0.81478482 -1.2088782 -0.12419713 93
0.81651974 -1.2119087 -0.074330568 40
0.81727314 -1.2134837 -0.024621205 63
0.8143751 -1.2096363 0.38021615 49
0.81292903 -1.2079434 0.32705632 54
0.81038809 -1.2046218 0.27451822 43
0.81779945 -1.2160968 0.22579868 59
0.81040674 -1.2055578 0.17366381 46
0.82143044 -1.2224175 0.12550427 58
0.81481957 -1.2130367 0.074578732 67
0.81000185 -1.2063192 0.024695154 88
0.81449175 -1.2152961 -0.38175827 15
0.80765396 -1.2055485 -0.32617921 24
0.81605685 -1.218551 -0.27737799 92
0.80973428 -1.2095666 -0.22448364 97
0.82444018 -1.2319989 -0.17732009 95
0.81056011 -1.2117149 -0.12419713 100
0.81228447 -1.2147515 -0.074330568 79
0.81303233 -1.2163291 -0.024621205 87
0.8101477 -1.2124717 0.38021615 57
0.80870754 -1.2107738 0.32705632 66
0.80617821 -1.2074431 0.27451822 65
0.81354952 -1.218944 0.22579868 90
0.80619359 -1.2083793 0.17366381 70
0.81715846 -1.2252774 0.12550427 81
0.81058031 -1.2158735 0.074578732 96
0.80578601 -1.2091392 0.024695154 86
0.80756974 -1.2141105 -0.38046414 13
0.80074346 -1.2043035 -0.32505447 19
0.81179839 -1.2213922 -0.27737799 80
0.80550718 -1.2123857 -0.22448364 89
0.82013464 -1.2348694 -0.17732009 92
0.80632544 -1.2145369 -0.12419713 77
0.80527824 -1.2134191 -0.074069753 88
0.80878156 -1.2191597 -0.024621205 85
0.80591047 -1.2152922 0.38021615 86
0.80716819 -1.2176502 0.32818022 84
0.8046698 -1.2143414 0.27547142 94
0.80928963 -1.2217764 0.22579868 90
0.80471051 -1.215324 0.17427315 94
0.8101272 -1.2239686 0.12506849 94
0.80908632 -1.2228597 0.074840412 93
0.79880267 -1.207775 0.024607891 66
0.80066609 -1.2128915 -0.37917006 12
0.79385149 -1.203025 -0.3239297 16
0.80482733 -1.2201213 -0.2764248 55
0.80127031 -1.2151901 -0.22448364 64
0.81581914 -1.2377245 -0.17732009 60
0.79934055 -1.2131847 -0.12376134 53
0.80103773 -1.2162226 -0.074069753 61
0.80177188 -1.2177999 -0.024534816 45
0.80431861 -1.2221326 0.38150942 98
0.80291289 -1.2204603 0.32818022 93
0.80042613 -1.2171429 0.27547142 91
0.80501992 -1.2245939 0.22579868 55
0.80046332 -1.2181256 0.17427315 80
0.80584991 -1.2267891 0.12506849 75
0.80481285 -1.2256765 0.074840412 57
0.79183865 -1.2063766 0.02452063 45
0.79378074 -1.2116389 -0.37787595 12
0.7869783 -1.2017131 -0.32280496 16
0.8005634 -1.2229232 -0.2764248 42
0.79431945 -1.2138472 -0.22370146 49
0.80877703 -1.2364118 -0.17671074 45
0.79237491 -1.2117987 -0.12332556 41
0.79405552 -1.2148318 -0.073808946 48
0.79204714 -1.212221 -0.024362035 41
0.79740649 -1.2208889 0.38021615 68
0.79598433 -1.2191761 0.32705632 62
0.79348999 -1.215819 0.27451822 61
0.79804194 -1.2232603 0.22501737 40
0.79349554 -1.2167553 0.17366381 54
0.80156267 -1.2295946 0.12506849 51
0.79780352 -1.2242951 0.074578732 44
0.78489417 -1.2049444 0.024433367 35
0.78691399 -1.2103534 -0.37658185 14
0.78277868 -1.2044528 -0.32280496 16
0.79361576 -1.2215942 -0.2754716 37
0.78738785 -1.2124709 -0.22291929 41
0.80175406 -1.2350649 -0.17610139 36
0.78542876 -1.210379 -0.12288979 39
0.7870928 -1.213407 -0.073548138 45
0.78509104 -1.2107838 -0.024275646 40
0.79051304 -1.219612 0.37892288 42
0.79172367 -1.2219471 0.32705632 40
0.78924114 -1.2185814 0.27451822 38
0.79108322 -1.221893 0.22423606 33
0.7892434 -1.2195177 0.17366381 36
0.79456013 -1.2282031 0.12463271 45
0.79081368 -1.2228796 0.074317053 34
0.77796936 -1.2034785 0.024346106 32
0.78006589 -1.2090346 -0.37528777 14
0.77592903 -1.2030836 -0.32168019 18
0.78668714 -1.2202317 -0.27451843 38
0.7804755 -1.2110609 -0.22213712 39
0.79475039 -1.2336839 -0.17549205 42
0.77850223 -1.2089254 -0.12245401 38
0.78014982 -1.2119486 -0.073287331 38
0.77815455 -1.2093128 -0.024189256 40
0.78363812 -1.2183018 0.37762964 38
0.78481859 -1.2206054 0.32593241 37
0.78232884 -1.2171999 0.27356502 35
0.78414369 -1.2204919 0.22345476 38
0.78229994 -1.2180896 0.17305446 38
0.78757721 -1.2267776 0.12419693 39
0.78384346 -1.2214304 0.074055374 35
0.77106434 -1.2019788 0.024258845 37
0.77323657 -1.2076827 -0.37399366 13
0.77172476 -1.2057849 -0.32168019 21
0.77977782 -1.2188358 -0.27356523 39
0.7735827 -1.2096176 -0.22135495 37
0.78776616 -1.2322693 -0.1748827 39
0.77159542 -1.2074383 -0.12201823 38
0.7732265 -1.2104565 -0.073026523 39
0.77123803 -1.2078081 -0.024102865 40
0.77678204 -1.2169586 0.3763364 37
0.77793247 -1.2192302 0.32480851 35
0.77543586 -1.2157853 0.27261186 35
0.77722371 -1.2190574 0.22267345 35
0.77537602 -1.2166278 0.17244512 36
0.78329015 -1.2295191 0.12419693 32
0.77421087 -1.2157358 0.073532015 36
0.76417941 -1.2004458 0.024171581 38
0.76901633 -1.2103745 -0.37399366 12
0.76751107 -1.2084713 -0.32168019 29
0.77288777 -1.2174066 -0.27261204 40
0.76670945 -1.2081407 -0.22057277 39
0.78080153 -1.2308211 -0.17427336 36
0.76470852 -1.205918 -0.12158245 42
0.76632327 -1.2089309 -0.072765715 37
0.76434159 -1.2062701 -0.024016475 37
0.76736051 -1.2115022 0.37374988 37
0.77106553 -1.2178218 0.3236846 35
0.76593739 -1.2101897 0.27070546 36
0.77032322 -1.2175895 0.22189213 32
0.76847184 -1.2151326 0.17183577 35
0.7763319 -1.2280356 0.12376115 34
0.76729512 -1.21421 0.073270336 39
0.75731444 -1.1988794 0.02408432 33
0.76221097 -1.208966 -0.37269959 14
0.76328808 -1.211143 -0.32168019 34
0.76340103 -1.2117912 -0.27070567 38
0.75985605 -1.2066308 -0.21979061 38
0.77385658 -1.229339 -0.173664 36
0.75784165 -1.2043641 -0.12114667 40
0.75944012 -1.2073718 -0.0725049 43
0.75746512 -1.2046986 -0.023930086 38
0.7605567 -1.2100842 0.37245664 36
0.76421803 -1.2163806 0.3225607 36
0.75909793 -1.2086993 0.26975229 38
0.76344258 -1.2160884 0.22111082 33
0.76158762 -1.2136041 0.17122643 35
0.76939368 -1.2265186 0.12332538 40
0.75774682 -1.2084204 0.072746977 39
0.75046986 -1.1972796 0.023997057 36
0.7554248 -1.2075249 -0.37140548 13
0.75647259 -1.2096695 -0.32055545 36
0.75656468 -1.2102865 -0.26975247 33
0.75302249 -1.2050879 -0.21900843 38
0.76693159 -1.2278237 -0.17305467 34
0.75099492 -1.2027771 -0.12071089 42
0.75257719 -1.2057797 -0.072244093 34
0.75325537 -1.2073352 -0.023930086 33
0.75377232 -1.2086335 0.3711634 35
0.7573899 -1.2149063 0.32143679 37
0.75227827 -1.2071761 0.2687991 37
0.75397056 -1.2103623 0.21954821 37
0.75472355 -1.2120425 0.17061707 33
0.76247549 -1.2249681 0.12288959 42
0.75088614 -1.2068185 0.072485298 38
0.74364579 -1.1956469 0.023909796 30
0.7461108 -1.2019478 -0.3688173 14
0.75224549 -1.2123026 -0.32055545 37
0.74974829 -1.2087491 -0.26879928 42
0.74620908 -1.2035118 -0.21822625 39
0.7574122 -1.2220569 -0.17183596 35
0.74416858 -1.201157 -0.12027511 37
0.74573463 -1.2041541 -0.071983285 37
0.74640501 -1.2057066 -0.023843694 32
0.74700725 -1.2071502 0.36987013 35
0.7505815 -1.2133993 0.32031292 37
0.74547851 -1.2056202 0.2678459 37
0.74714446 -1.2087859 0.2187669 37
0.74787962 -1.2104477 0.17000772 32
0.75557762 -1.2233844 0.12245382 40
0.74666899 -1.2094322 0.072485298 42
0.73684222 -1.1939811 0.023822535 36
0.73958737 -1.2003036 -0.36752319 13
0.74587756 -1.2105122 -0.31943068 37
0.74337316 -1.2069193 -0.26784611 37
0.73983532 -1.201645 -0.21744409 39
0.75096816 -1.220204 -0.17122662 41
0.73778141 -1.1992466 -0.11983933 36
0.74194807 -1.2064911 -0.071983285 41
0.73999542 -1.2037866 -0.023757305 37
0.7406826 -1.205376 0.36857688 36
0.74421585 -1.2115999 0.31918901 36
0.73911905 -1.2037734 0.26689273 33
0.74075997 -1.2069182 0.21798559 38
0.74147797 -1.2085612 0.16939838 37
0.74652237 -1.2172598 0.12158226 39
0.73764652 -1.2032582 0.071961939 40
0.73047549 -1.1920276 0.023735272 40
0.73056322 -1.1945093 -0.36493501 15
0.73910636 -1.2089518 -0.31830594 36
0.73659617 -1.2053186 -0.26689291 36
0.73306185 -1.2000059 -0.21666192 38
0.74411792 -1.2185824 -0.17061727 39
0.73099566 -1.1975632 -0.11940356 40
0.73513138 -1.2048112 -0.071722478 33
0.73318577 -1.2020944 -0.023670916 38
0.73395622 -1.2038302 0.36728364 36
0.73744649 -1.2100301 0.31806511 35
0.73235893 -1.2021543 0.26593953 38
0.73397392 -1.2052785 0.21720427 35
0.73467433 -1.2069029 0.16878903 38
0.73967963 -1.2156032 0.12114649 34
0.73084718 -1.2015598 0.07170026 32
0.72111565 -1.1860268 0.023560748 36
0.72367543 -1.1930497 -0.3636409 14
0.73214442 -1.2074867 -0.31718117 37
0.7296294 -1.2038127 -0.26593971 38
0.72609967 -1.1984608 -0.21587974 38
0.73707569 -1.2170566 -0.17000793 36
0.72402197 -1.1959732 -0.11896777 42
0.72812551 -1.2032257 -0.07146167 38
0.72618741 -1.200496 -0.023584524 35
0.72704005 -1.2023792 0.36599037 37
0.73048633 -1.2085552 0.3169412 31
0.72540969 -1.2006294 0.26498634 35
0.72955137 -1.2079606 0.21720427 32
0.72768098 -1.205339 0.16817969 37
0.73007214 -1.2097769 0.12027492 37
0.72385913 -1.199955 0.071438581 34
0.71418226 -1.1843808 0.023473486 37
0.71701616 -1.1914303 -0.36234683 16
0.72541368 -1.2058604 -0.31605643 36
0.72289354 -1.2021461 -0.26498654 33
0.71936762 -1.1967555 -0.21509758 41
0.73026687 -1.2153683 -0.16939858 37
0.71727812 -1.1942234 -0.11853199 37
0.72135079 -1.2014791 -0.071200863 32
0.7194199 -1.198737 -0.023498135 37
0.72035384 -1.200768 0.36469713 37
0.72375762 -1.2069194 0.3158173 36
0.71869069 -1.1989443 0.26403317 35
0.72279191 -1.2062635 0.21642296 36
0.72091907 -1.2036144 0.16757034 37
0.72328609 -1.2080444 0.11983915 41
0.71710193 -1.19819 0.071176901 37
0.70747703 -1.1825763 0.023386221 36
0.7103771 -1.1897793 -0.36105272 14
0.71870321 -1.2042017 -0.31493166 37
0.71617806 -1.200447 -0.26403335 39
0.71265632 -1.1950178 -0.2143154 38
0.72347885 -1.2136471 -0.16878924 35
0.71055543 -1.1924409 -0.11809622 40
0.71459723 -1.1996999 -0.070940048 38
0.7126736 -1.1969455 -0.023411745 39
0.71368772 -1.1991248 0.36340389 39
0.71455818 -1.2010642 0.31356949 36
0.71199244 -1.1972271 0.26307997 37
0.71605331 -1.2045341 0.21564166 33
0.71417809 -1.2018571 0.166961 35
0.71652108 -1.2062793 0.11940337 40
0.71036583 -1.1963924 0.070915222 37
0.7033447 -1.1850386 0.023386221 39
0.70621967 -1.1922517 -0.36105272 15
0.71201324 -1.2025111 -0.31380692 36
0.70948333 -1.1987156 -0.26308015 39
0.705966 -1.1932479 -0.21353322 39
0.71923804 -1.2161651 -0.16878924 38
0.70385396 -1.1906261 -0.11766044 40
0.70532465 -1.1935894 -0.070418432 40
0.70594859 -1.1951215 -0.023325354 36
0.70704198 -1.1974498 0.36211061 36
0.70788497 -1.1993555 0.31244558 36
0.70531487 -1.1954777 0.26212677 36
0.70933568 -1.2027724 0.21486035 35
0.70745826 -1.2000675 0.16635165 34
0.70977724 -1.2044818 0.11896759 38
0.70365113 -1.1945626 0.070653543 38
0.69666737 -1.1831787 0.02329896 37
0.69960666 -1.1905456 -0.35975865 15
0.70534384 -1.2007885 -0.31268215 37
0.70280951 -1.1969522 -0.26212698 39
0.70179653 -1.1957049 -0.21353322 38
0.71247715 -1.2143879 -0.16817988 37
0.69969356 -1.1930758 -0.11766044 40
0.69862866 -1.1917367 -0.070157625 39
0.69924498 -1.1932652 -0.023238964 38
0.70041668 -1.195743 0.36081737 36
0.70123237 -1.1976148 0.31132168 37
0.7011376 -1.1979325 0.26212677 35
0.7051329 -1.2052411 0.21486035 36
0.70075959 -1.1982459 0.16574231 39
0.70305461 -1.2026519 0.11853182 38
0.69695783 -1.1927004 0.070391864 37
0.69253308 -1.1856033 0.02329896 37
0.69301444 -1.1888081 -0.35846454 15
0.69869518 -1.1990339 -0.31155741 36
0.69615662 -1.1951569 -0.26117378 38
0.69513351 -1.1938796 -0.21275105 42
0.70573753 -1.2125784 -0.16757053 37
0.69301999 -1.1912056 -0.11722466 40
0.69195431 -1.1898516 -0.06989681 38
0.69256288 -1.1913766 -0.023152571 38
0.69381189 -1.1940047 0.35952413 38
0.69460058 -1.1958424 0.31019777 36
0.69448727 -1.1961278 0.26117361 38
0.69844252 -1.2034239 0.21407904 37
0.69408226 -1.1963919 0.16513295 37
0.6988523 -1.2050986 0.11853182 39
0.69028616 -1.190806 0.070130177 39
0.68588394 -1.1836878 0.023211699 37
0.68644273 -1.187039 -0.35717043 14
0.69206738 -1.1972476 -0.31043264 38
0.68952495 -1.1933299 -0.26022059 39
0.68849188 -1.1920224 -0.21196888 39
0.69901907 -1.2107365 -0.16696119 38
0.68636787 -1.1893033 -0.11678887 39
0.6853016 -1.1879346 -0.069636002 42
0.68590266 -1.1894561 -0.023066182 39
0.68722779 -1.1922348 0.35823086 38
0.68798977 -1.1940383 0.30907387 37
0.68785799 -1.1942915 0.26022041 36
0.69177341 -1.2015746 0.21329772 39
0.68742651 -1.1945063 0.16452362 37
0.6921578 -1.2032132 0.11809604 42
0.68612528 -1.1932083 0.070130177 38
0.67925656 -1.1817405 0.023124436 36
0.67989188 -1.1852386 -0.35587636 15
0.68788397 -1.1996561 -0.31043264 38
0.68291444 -1.1914711 -0.25926742 40
0.68187177 -1.1901335 -0.21118671 40
0.69232231 -1.2088628 -0.16635184 39
0.67973757 -1.1873691 -0.11635309 40
0.67867082 -1.1859858 -0.069375195 39
0.67926431 -1.1875036 -0.022979792 39
0.68066454 -1.1904336 0.35693762 38
0.6814 -1.1922026 0.30794996 38
0.68125015 -1.1924236 0.25926721 36
0.68512583 -1.1996933 0.21251641 36
0.68079239 -1.1925887 0.16391426 37
0.68548501 -1.2012959 0.11766025 41
0.6794821 -1.1912588 0.069868498 41
0.67265129 -1.1797615 0.023037175 37
0.67595774 -1.1874868 -0.35587636 14
0.6817016 -1.1975772 -0.3093079 36
0.67916793 -1.1936107 -0.25926742 37
0.67568791 -1.1879771 -0.21040453 39
0.68606836 -1.2067176 -0.1657425 36
0.67600399 -1.1894987 -0.11635309 41
0.67247528 -1.1837705 -0.069114387 38
0.67306167 -1.1852844 -0.022893401 39
0.67453712 -1.1883657 0.35564438 37
0.67524689 -1.1900998 0.30682606 38
0.67507929 -1.1902884 0.25831404 36
0.67891794 -1.1975437 0.21173511 35
0.67459553 -1.1904037 0.16330491 38
0.67925262 -1.1991094 0.11722448 42
0.67327607 -1.1890428 0.069606818 36
0.66647905 -1.1775181 0.022949912 37
0.6696409 -1.1855165 -0.35458225 15
0.67512184 -1.1957072 -0.30818313 37
0.67258483 -1.1916996 -0.25831422 38
0.66911036 -1.1860272 -0.20962234 38
0.67941415 -1.2047822 -0.16513315 38
0.66940176 -1.187512 -0.11591731 40
0.66833907 -1.1861107 -0.069114387 40
0.66646677 -1.1832707 -0.022807011 40
0.6680153 -1.1865042 0.35435113 38
0.66869909 -1.1882039 0.30570215 37
0.66851377 -1.1883597 0.25736085 37
0.67231297 -1.1956016 0.2109538 36
0.67043614 -1.1927513 0.16330491 37
0.67262286 -1.1971306 0.11678869 40
0.66667634 -1.1870321 0.069345139 39
0.65991741 -1.1754781 0.02286265 38
0.66293138 -1.1837491 -0.35328817 16
0.66835511 -1.1939225 -0.30705839 36
0.66581565 -1.1898733 -0.25736102 38
0.66234815 -1.1841615 -0.20884018 43
0.67499381 -1.2072643 -0.16513315 37
0.66261482 -1.1856096 -0.11548153 39
0.66155201 -1.1841931 -0.068853572 40
0.66212541 -1.1857055 -0.022807011 41
0.66130799 -1.1847275 0.35305786 40
0.66196573 -1.1863923 0.30457824 38
0.66176289 -1.1865153 0.25640765 37
0.66311663 -1.1894305 0.20939116 39
0.66364419 -1.1908655 0.16269556 36
0.66580665 -1.1952364 0.11635291 42
0.65989208 -1.1851052 0.06908346 40
0.65317333 -1.1735208 0.022775389 38
0.65645015 -1.1818339 -0.35199407 15
0.66181856 -1.1919889 -0.30593362 37
0.66165817 -1.1921903 -0.25736102 38
0.65581489 -1.1821479 -0.208058 43
0.66836888 -1.2052732 -0.16452381 38
0.65605748 -1.1835589 -0.11504576 45
0.65499443 -1.1821277 -0.068592764 41
0.65556037 -1.1836363 -0.022720622 38
0.65716851 -1.1870286 0.35305786 41
0.65546131 -1.1844327 0.30345434 38
0.65524125 -1.184523 0.25545445 35
0.65657103 -1.1874162 0.20860985 39
0.65708256 -1.1888313 0.16208622 37
0.66163045 -1.1975533 0.11635291 42
0.65575129 -1.1874015 0.06908346 38
0.64665699 -1.171417 0.022688126 40
0.65232074 -1.1841182 -0.35199407 16
0.65530372 -1.1900243 -0.30480888 38
0.65512574 -1.1901927 -0.25640786 38
0.64930385 -1.1801033 -0.20727582 39
0.66176605 -1.2032504 -0.16391446 39
0.64952248 -1.1814768 -0.11460997 46
0.64845926 -1.1800308 -0.068331957 40
0.64901781 -1.1815357 -0.022634231 39
0.6506964 -1.1850817 0.35176462 39
0.64897877 -1.1824425 0.30233043 38
0.65110248 -1.186803 0.25545445 39
0.65004748 -1.1853706 0.20782854 38
0.65054327 -1.1867659 0.16147687 37
0.65505272 -1.1954873 0.11591713 41
0.6492039 -1.1853039 0.06882178 40
0.6401633 -1.1692821 0.022600865 38
0.64586788 -1.1821498 -0.35069996 15
0.64881063 -1.1880286 -0.30368412 39
0.64861542 -1.1881641 -0.25545463 38
0.64518058 -1.1823626 -0.20727582 41
0.65518546 -1.2011962 -0.16330509 40
0.64301002 -1.1793637 -0.11417419 42
0.64194685 -1.1779028 -0.068071149 41
0.64488953 -1.183794 -0.022634231 43
0.64424592 -1.183104 0.35047138 40
0.64484733 -1.1847007 0.30233043 38
0.64461005 -1.1847572 0.25450125 37
0.64590585 -1.1876324 0.20782854 39
0.64402646 -1.1846695 0.16086753 38
0.65087569 -1.1977665 0.11591713 44
0.64506245 -1.1875628 0.06882178 38
0.63607782 -1.1715095 0.022600865 39
0.63943666 -1.1801506 -0.34940588 15
0.6446597 -1.1902862 -0.30368412 39
0.64212722 -1.1861045 -0.25450143 39
0.63869905 -1.1802642 -0.20649366 40
0.64862734 -1.1991109 -0.16269575 40
0.63652027 -1.1772195 -0.11373842 43
0.63783127 -1.1801364 -0.068071149 40
0.63837713 -1.1816394 -0.022547841 39
0.6378172 -1.181096 0.34917811 38
0.6383937 -1.182657 0.3012065 39
0.63813978 -1.1826805 0.25354809 39
0.63941193 -1.1855332 0.20704722 38
0.63753217 -1.182542 0.16025817 39
0.64432782 -1.1956465 0.11548135 43
0.63854522 -1.1854113 0.068560101 39
0.62961453 -1.1693211 0.022513602 40
0.63531327 -1.1823754 -0.34940588 16
0.63819569 -1.1882373 -0.30255935 38
0.6356613 -1.1840142 -0.25354826 38
0.63224006 -1.1781349 -0.20571148 42
0.64443773 -1.2013676 -0.16269575 38
0.63240713 -1.1794342 -0.11373842 42
0.63134921 -1.1779548 -0.067810342 43
0.63188767 -1.179454 -0.022461452 40
0.63141042 -1.1790574 0.34788486 40
0.6319623 -1.1805829 0.30008259 38
0.63169187 -1.180573 0.25259489 37
0.6352697 -1.1877578 0.20704722 38
0.63106072 -1.1803837 0.15964884 41
0.64015031 -1.1978883 0.11548135 44
0.63205087 -1.1832289 0.068298422 39
0.62317431 -1.1671016 0.022426341 37
0.62891108 -1.1803236 -0.34811178 15
0.63404411 -1.1904577 -0.30255935 40
0.6315245 -1.1862259 -0.25354826 43
0.62580377 -1.1759752 -0.20492931 42
0.63790959 -1.1992284 -0.1620864 37
0.62594783 -1.1772367 -0.11330264 45
0.62723351 -1.1801515 -0.067810342 40
0.62542135 -1.1772376 -0.02237506 42
0.62502563 -1.1769884 0.34659159 40
0.62783742 -1.1827817 0.30008259 39
0.62526655 -1.178435 0.25164169 38
0.62880588 -1.1856052 0.20626593 37
0.62461209 -1.1781946 0.15903948 39
0.63363266 -1.1957142 0.11504558 42
0.62557954 -1.1810156 0.068036743 42
0.61675727 -1.1648518 0.02233908 38
0.62253088 -1.1782414 -0.34681764 16
0.62760955 -1.1883557 -0.30143458 38
0.62508845 -1.1840825 -0.25259507 41
0.61939025 -1.1737849 -0.20414715 40
0.63140434 -1.1970583 -0.16147706 37
0.61951172 -1.1750084 -0.11286686 42
0.6207822 -1.1779164 -0.067549534 40
0.6189782 -1.1749904 -0.022288671 40
0.62091333 -1.179163 0.34659159 40
0.6214357 -1.1806548 0.29895869 37
0.61886382 -1.1762667 0.25068852 39
0.62466347 -1.187793 0.20626593 36
0.62049556 -1.1803677 0.15903948 39
0.62713814 -1.1935096 0.1146098 42
0.61913139 -1.1787716 0.067775063 41
0.61268747 -1.1669976 0.02233908 39
0.61617297 -1.1761291 -0.34552357 16
0.62119746 -1.1862234 -0.30030984 40
0.61867523 -1.1819088 -0.25164187 38
0.61528927 -1.1759398 -0.20414715 41
0.62722194 -1.199255 -0.16147706 38
0.61309868 -1.1727496 -0.11243108 42
0.61435413 -1.1756507 -0.067288719 40
0.61255831 -1.1727128 -0.022202281 42
0.6145581 -1.1770418 0.34529832 38
0.61505646 -1.1784976 0.29783478 39
0.61248398 -1.1740681 0.24973533 38
0.6182301 -1.1855873 0.20548461 37
0.61407769 -1.1781256 0.15843014 40
0.6229682 -1.1956915 0.1146098 43
0.61270666 -1.1764971 0.067513384 39
0.60630172 -1.1646947 0.022251816 39
0.61206377 -1.1782728 -0.34552357 16
0.61480796 -1.1840607 -0.29918507 38
0.61228472 -1.1797047 -0.2506887 39
0.60890651 -1.1736968 -0.20336497 42
0.62074733 -1.1970316 -0.16086771 41
0.60670906 -1.1704603 -0.1119953 42
0.60794955 -1.1733546 -0.067027912 40
0.60846102 -1.1748438 -0.022202281 41
0.61044574 -1.1791798 0.34529832 39
0.60869992 -1.1763103 0.29671091 38
0.60612696 -1.1718392 0.24878214 40
0.61181968 -1.1833512 0.2047033 38
0.60768306 -1.1758533 0.15782079 39
0.61650455 -1.1934333 0.11417402 43
0.60630524 -1.174192 0.067251697 39
0.59993964 -1.1623616 0.022164555 39
0.605941 -1.1760027 -0.34422946 16
0.61108506 -1.1859863 -0.29918507 39
0.60857558 -1.1816224 -0.2506887 40
0.60521626 -1.175604 -0.20336497 42
0.61471289 -1.194563 -0.16025837 40
0.60302901 -1.1723607 -0.1119953 43
0.60426033 -1.1752588 -0.067027912 42
0.60248202 -1.1723031 -0.02211589 38
0.60453129 -1.1767957 0.34400508 39
0.60500145 -1.1782168 0.29671091 38
0.60020125 -1.1693709 0.24782895 37
0.6080991 -1.1852674 0.2047033 37
0.60398602 -1.1777565 0.15782079 40
0.61048007 -1.1909317 0.11373824 44
0.60033649 -1.1716472 0.066990018 41
0.59400606 -1.1597911 0.022077292 39
0.59984004 -1.1737052 -0.34293538 15
0.60472518 -1.1837736 -0.29806033 40
0.60221511 -1.1793681 -0.2497355 40
0.59886384 -1.1733108 -0.20258279 43
0.60828406 -1.1922809 -0.15964901 40
0.59667009 -1.1700211 -0.11155953 45
0.59788656 -1.1729122 -0.066767104 42
0.59838623 -1.174399 -0.02211589 42
0.59822786 -1.1745949 0.34271184 39
0.59867465 -1.1759797 0.295587 39
0.59611577 -1.171459 0.24782895 36
0.60171902 -1.182981 0.20392199 39
0.59762204 -1.175434 0.15721144 39
0.60406256 -1.188615 0.11330246 43
0.59624302 -1.1737355 0.066990018 39
0.58995402 -1.1618575 0.022077292 41
0.59553421 -1.1758958 -0.34293538 15
0.59818196 -1.1816356 -0.29693556 39
0.59567231 -1.1771878 -0.24878232 42
0.59455943 -1.1754978 -0.20258279 47
0.60167092 -1.1900735 -0.15903966 38
0.59013122 -1.1677547 -0.11112374 44
0.59358364 -1.1750958 -0.066767104 43
0.59182459 -1.1721218 -0.0220295 42
0.59391874 -1.1767796 0.34271184 38
0.59216601 -1.1738162 0.2944631 40
0.58960813 -1.1692532 0.24687576 38
0.59515625 -1.1807684 0.20314068 38
0.59107685 -1.1731844 0.1566021 41
0.59746164 -1.1863723 0.11286668 45
0.589692 -1.1714531 0.066728339 39
0.58344454 -1.1595461 0.021990031 40
0.58925885 -1.1736513 -0.34164128 15
0.5918684 -1.1793621 -0.29581082 41
0.58935875 -1.1748726 -0.24782912 39
0.58823901 -1.1731514 -0.20180063 42
0.59528947 -1.1877297 -0.15843032 37
0.58382034 -1.1653541 -0.11068796 42
0.58724248 -1.1726961 -0.066506296 42
0.58549184 -1.1697099 -0.021943111 41
0.58764625 -1.1745262 0.34141859 38
0.58806503 -1.175876 0.2944631 41
0.58552307 -1.1713042 0.24687576 39
0.58882362 -1.1784209 0.20235938 39
0.58697808 -1.1752404 0.1566021 39
0.59109199 -1.1839941 0.11243091 42
0.58336979 -1.1690366 0.066466659 42
0.57939345 -1.1615757 0.021990031 39
0.5830065 -1.1713773 -0.34034717 16
0.58774811 -1.1814209 -0.29581082 39
0.58525401 -1.1769228 -0.24782912 39
0.5841403 -1.1751976 -0.20180063 43
0.59113985 -1.1898005 -0.15843032 42
0.57974893 -1.167385 -0.11068796 46
0.58092529 -1.1702663 -0.066245489 41
0.58140522 -1.1717466 -0.021943111 43
0.58139682 -1.1722435 0.34012532 41
0.58179289 -1.1735566 0.29333919 37
0.57925165 -1.1689432 0.24592258 39
0.58251458 -1.1760437 0.20157807 39
0.58067024 -1.1728348 0.15599275 42
0.58474624 -1.181586 0.11199513 44
0.5792855 -1.1710658 0.066466659 42
0.57311952 -1.1591097 0.02190277 40
0.57891411 -1.1734053 -0.34034717 16
0.58146584 -1.179096 -0.29468605 39
0.57897222 -1.1745561 -0.24687594 40
0.57785195 -1.1727996 -0.20101845 44
0.58479047 -1.1874046 -0.15782097 39
0.57347053 -1.1649326 -0.11025219 46
0.57463223 -1.1678067 -0.065984681 43
0.57510507 -1.1692829 -0.02185672 42
0.57517052 -1.1699314 0.33883208 42
0.57554412 -1.1712077 0.29221529 38
0.57516772 -1.1709579 0.24592258 39
0.57622927 -1.1736368 0.20079675 38
0.57657278 -1.1748545 0.15599275 40
0.58061814 -1.18362 0.11199513 43
0.57299596 -1.1685976 0.06620498 40
0.5668698 -1.1566142 0.021815507 42
0.57269287 -1.1710804 -0.33905309 16
0.57520694 -1.1767416 -0.29356131 40
0.57271397 -1.1721599 -0.24592274 42
0.57158738 -1.170372 -0.20023628 43
0.5806421 -1.1894386 -0.15782097 41
0.5672164 -1.1624509 -0.10981641 44
0.56836343 -1.1653177 -0.065723866 40
0.5688293 -1.1667895 -0.02177033 42
0.5689674 -1.1675903 0.33753884 39
0.56931883 -1.1688293 0.29109138 39
0.56892818 -1.1685455 0.2449694 43
0.57212901 -1.1756411 0.20079675 38
0.57029736 -1.1723973 0.15538341 40
0.57430494 -1.18116 0.11155935 43
0.56673074 -1.1660997 0.065943301 43
0.56282902 -1.1585858 0.021815507 40
0.56860161 -1.1730722 -0.33905309 17
0.57109582 -1.1787422 -0.29356131 38
0.56861883 -1.1741519 -0.24592274 42
0.5653469 -1.1679151 -0.1994541 43
0.57432514 -1.1869911 -0.15721163 39
0.56098658 -1.1599398 -0.10938063 44
0.56211907 -1.162799 -0.065463059 42
0.5625779 -1.1642668 -0.021683941 44
0.56278771 -1.16522 0.33624557 40
0.56523538 -1.1708096 0.29109138 39
0.56484574 -1.1705242 0.2449694 38
0.56587625 -1.1731828 0.20001544 37
0.5640462 -1.1699106 0.15477405 38
0.57017845 -1.1831574 0.11155935 45
0.56265682 -1.1680708 0.065943301 40
0.55661261 -1.1560392 0.021728246 39
0.56450331 -1.1750498 -0.33905309 22
0.56486893 -1.1763368 -0.29243654 40
0.56239295 -1.1717045 -0.24496956 39
0.55913049 -1.1654289 -0.19867194 47
0.57017833 -1.1889886 -0.15721163 41
0.55693424 -1.1618909 -0.10938063 46
0.55805671 -1.1647542 -0.065463059 43
0.55635113 -1.1617147 -0.021597549 43
0.55663151 -1.1628209 0.33495232 40
0.55904222 -1.1683807 0.28996748 43
0.55863869 -1.1680608 0.2440162 39
0.56177759 -1.1751509 0.20001544 38
0.55781943 -1.1673945 0.15416472 43
0.56604499 -1.1851405 0.11155935 44
0.55642492 -1.1655219 0.065681621 43
0.55042088 -1.1534631 0.021640982 39
0.56039822 -1.1770132 -0.33905309 23
0.55866575 -1.1739023 -0.29131177 42
0.55619103 -1.1692282 -0.24401638 38
0.55293834 -1.1629134 -0.19788976 43
0.56389421 -1.1864892 -0.15660228 38
0.5507378 -1.1593287 -0.10894485 48
0.55184579 -1.1621845 -0.065202251 43
0.55014902 -1.1591332 -0.02151116 42
0.55256909 -1.1647568 0.33495232 40
0.55287296 -1.1659228 0.28884357 39
0.55245572 -1.1655684 0.24306302 43
0.55555779 -1.1726418 0.19923413 39
0.55161703 -1.1648493 0.15355536 40
0.55977362 -1.1826072 0.11112357 46
0.55021769 -1.1629435 0.065419942 42
0.54425395 -1.150858 0.021553721 41
0.55628622 -1.1789622 -0.33905309 27
0.55456465 -1.1758453 -0.29131177 40
0.55210632 -1.1711625 -0.24401638 42
0.54887563 -1.1648365 -0.19788976 42
0.55974913 -1.1884503 -0.15660228 39
0.54456604 -1.1567376 -0.10850907 46
0.54565966 -1.1595857 -0.064941444 43
0.54609954 -1.1610465 -0.02151116 39
0.54644507 -1.1623077 0.33365908 41
0.54879975 -1.1678455 0.28884357 42
0.54629701 -1.1630471 0.24210984 43
0.5514611 -1.1745739 0.19923413 38
0.54543924 -1.1622751 0.15294603 40
0.55564213 -1.1845539 0.11112357 44
0.5440352 -1.1603363 0.065158263 41
0.54023337 -1.1527508 0.021553721 40
0.55216753 -1.1808968 -0.33905309 29
0.54839402 -1.1733602 -0.29018703 46
0.54593742 -1.1686357 -0.24306318 39
0.54271686 -1.1622708 -0.19710758 45
0.55349839 -1.1859 -0.15599294 38
0.53841907 -1.1541175 -0.10807329 52
0.54160857 -1.1614833 -0.064941444 42
0.53993148 -1.1584145 -0.02142477 46
0.54034483 -1.15983 0.33236581 42
0.54266316 -1.1653374 0.28771967 41
0.54016268 -1.1604972 0.24115664 39
0.5452745 -1.172014 0.19845283 38
0.54137886 -1.1641719 0.15294603 40
0.54940432 -1.1819693 0.11068779 44
0.53998154 -1.1622282 0.065158263 40
0.53410059 -1.1500955 0.02146646 41
0.54804206 -1.182817 -0.33905309 32
0.54224753 -1.1708466 -0.28906226 40
0.5397929 -1.16608 -0.24211 41
0.53865647 -1.1641581 -0.19710758 42
0.54935545 -1.1878248 -0.15599294 42
0.53438717 -1.1559898 -0.10807329 46
0.53545654 -1.1588341 -0.064680636 45
0.53588456 -1.1602921 -0.02142477 41
0.53426862 -1.157324 0.33107257 38
0.53655076 -1.1628008 0.28659576 43
0.53610855 -1.1623756 0.24115664 39
0.53911245 -1.1694252 0.19767152 39
0.53523493 -1.1615474 0.15233667 40
0.54319143 -1.1793557 0.11025202 45
0.53383327 -1.1595703 0.064896584 43
0.5279929 -1.1474113 0.021379197 42
0.54189479 -1.1803336 -0.33775899 35
0.53815722 -1.1727322 -0.28906226 44
0.53367281 -1.1634958 -0.24115682 41
0.53253138 -1.1615421 -0.19632542 45
0.54313833 -1.1852237 -0.15538359 39
0.52827454 -1.1533196 -0.10763751 46
0.52932966 -1.1561561 -0.064419828 42
0.52975076 -1.1576098 -0.021338379 43
0.52821654 -1.1547897 0.32977933 43
0.53248858 -1.1646667 0.28659576 43
0.53000772 -1.1597756 0.24020346 39
0.5329752 -1.1668078 0.19689021 39
0.53117716 -1.1634088 0.15233667 43
0.53700346 -1.1767133 0.10981624 44
0.5277102 -1.156884 0.064634904 43
0.52191055 -1.1446986 0.021291936 41
0.5377714 -1.1822181 -0.33775899 38
0.53204387 -1.1701686 -0.28793752 41
0.52960825 -1.1653515 -0.24115682 42
0.52643114 -1.1588976 -0.19554324 46
0.53694612 -1.1825936 -0.15477423 39
0.52424544 -1.1551566 -0.10763751 45
0.52322799 -1.1534495 -0.064159013 42
0.52570677 -1.159452 -0.021338379 42
0.52218866 -1.1522274 0.32848606 42
0.52640957 -1.1620803 0.28547186 39
0.52393156 -1.1571473 0.23925027 41
0.52889901 -1.1686611 0.19689021 38
0.52506739 -1.1607341 0.15172733 44
0.53084052 -1.1740419 0.10938046 45
0.52161235 -1.1541688 0.064373225 41
0.51791161 -1.1465135 0.021291936 41
0.53165704 -1.179685 -0.33646491 45
0.52795601 -1.1720188 -0.28793752 41
0.52352202 -1.1627176 -0.24020362 42
0.52238262 -1.1607281 -0.19554324 44
0.5328148 -1.1844606 -0.15477423 43
0.51816744 -1.1524367 -0.10720173 47
0.51919848 -1.1552689 -0.064159013 45
0.51960778 -1.1567196 -0.02125199 43
0.51816344 -1.1540431 0.32848606 42
0.52035505 -1.1594658 0.28434795 40
0.51988918 -1.1589692 0.23925027 40
0.52279598 -1.1659939 0.19610889 39
0.51898295 -1.1580311 0.15111798 43
0.52470285 -1.1713421 0.10894468 43
0.51758033 -1.1559826 0.064373225 43
0.51186424 -1.1437511 0.021204671 40
0.52556694 -1.1771235 -0.33517081 44
0.52187622 -1.1694056 -0.28681275 44
0.51746064 -1.1600554 -0.23925044 40
0.51631677 -1.1580341 -0.19476107 47
0.52665693 -1.1817803 -0.1541649 42
0.5141415 -1.1542385 -0.10720173 49
0.5131318 -1.1525128 -0.063898206 45
0.51353437 -1.1539589 -0.0211656 42
0.512169 -1.1514318 0.32719281 42
0.51432532 -1.1568233 0.28322405 43
0.51384717 -1.1562915 0.23829708 39
0.51671791 -1.1632984 0.19532758 40
0.51493746 -1.1598357 0.15111798 40
0.51859051 -1.1686137 0.1085089 46
0.51151758 -1.1532179 0.064111546 46
0.50786871 -1.1455309 0.021204671 42
0.51950121 -1.1745341 -0.3338767 43
0.51779103 -1.1712202 -0.28681275 41
0.51340812 -1.1618545 -0.23925044 43
0.51227134 -1.1598294 -0.19476107 45
0.52052426 -1.1790715 -0.15355554 40
0.50809848 -1.151469 -0.10676596 50
0.50709069 -1.1497284 -0.063637398 46
0.50748652 -1.15117 -0.021079209 42
0.50619912 -1.1487927 0.32589957 43
0.51028413 -1.1586115 0.28322405 42
0.50783026 -1.1535858 0.23734389 39
0.51066506 -1.1605746 0.19454628 40
0.50888789 -1.1570833 0.15050864 41
0.51250368 -1.165857 0.10807312 44
0.50748897 -1.1549965 0.064111546 46
0.50185668 -1.1427194 0.02111741 44
0.51560342 -1.1762503 -0.3338767 40
0.51194918 -1.1684685 -0.28568801 41
0.50758356 -1.1590546 -0.23829725 41
0.50644207 -1.1569977 -0.19397891 45
0.51661146 -1.1807911 -0.15355554 39
0.50427723 -1.1531476 -0.10676596 47
0.50127542 -1.1468284 -0.063376583 47
0.50366634 -1.1528466 -0.021079209 43
0.50238675 -1.150465 0.32589957 39
0.50449026 -1.1558321 0.28210014 42
0.50400203 -1.1552634 0.23734389 39
0.5068137 -1.1622617 0.19454628 38
0.50504804 -1.1587645 0.15050864 42
0.50863475 -1.1675501 0.10807312 42
0.50166261 -1.152095 0.063849866 42
0.49606952 -1.1397935 0.021030148 43
0.50957096 -1.1736128 -0.33258262 40
0.50592786 -1.1657792 -0.28456324 46
0.50158137 -1.1563165 -0.23734406 45
0.50043589 -1.1542276 -0.19319673 44
0.51051325 -1.1780338 -0.1529462 38
0.49826917 -1.1503303 -0.10633017 46
0.49726915 -1.1485711 -0.063376583 47
0.4976536 -1.1500095 -0.020992817 42
0.49645048 -1.1477789 0.32460633 41
0.49851918 -1.153114 0.28097624 41
0.49801943 -1.1525102 0.23639071 42
0.50079536 -1.1594899 0.19376497 42
0.49903309 -1.155964 0.14989929 48
0.50258273 -1.164745 0.10763735 45
0.49763802 -1.1538391 0.063849866 44
0.49010882 -1.1369274 0.020942885 45
0.50356311 -1.1709477 -0.33128852 44
0.49993148 -1.1630622 -0.2834385 43
0.49754202 -1.1580602 -0.23734406 42
0.49445522 -1.1514297 -0.19241455 43
0.50444067 -1.1752483 -0.15233685 42
0.49228689 -1.1474849 -0.10589439 49
0.49128902 -1.1457108 -0.063115776 42
0.49363628 -1.1517396 -0.020992817 46
0.49053904 -1.1450651 0.32331306 43
0.49257332 -1.1503685 0.27985233 43
0.49206215 -1.1497291 0.23543751 42
0.4967449 -1.1612309 0.19376497 39
0.494995 -1.157699 0.14989929 39
0.498514 -1.1664923 0.10763735 44
0.4916459 -1.1509773 0.06358818 45
0.48613724 -1.1386311 0.020942885 42
0.49758017 -1.168255 -0.32999444 41
0.49586862 -1.1648003 -0.2834385 43
0.49157479 -1.1552736 -0.23639087 42
0.49043298 -1.1531485 -0.19241455 45
0.50033516 -1.177002 -0.15233685 42
0.48827842 -1.1491963 -0.10589439 49
0.48728675 -1.1474187 -0.063115776 43
0.48765957 -1.1488539 -0.020906426 40
0.48465261 -1.1423242 0.32201982 43
0.48855478 -1.1520809 0.27985233 39
0.48804584 -1.1514398 0.23543751 40
0.49076194 -1.1584104 0.19298366 39
0.48901579 -1.1548499 0.14928995 45
0.49249768 -1.1636382 0.10720157 48
0.48762527 -1.1526865 0.06358818 46
0.48021275 -1.1357166 0.020855624 39
0.49349916 -1.1699847 -0.32999444 47
0.48990709 -1.1620349 -0.28231373 41
0.48753914 -1.1569824 -0.23639087 43
0.48448783 -1.1503022 -0.19163239 44
0.4942981 -1.1741673 -0.15172751 40
0.4823322 -1.1463026 -0.1054586 50
0.48134282 -1.14451 -0.062854968 44
0.48170903 -1.1459404 -0.020820037 43
0.4806622 -1.144009 0.32201982 46
0.48264387 -1.1492872 0.27872843 40
0.48212391 -1.1486105 0.23448433 42
