# .PCD v0.7 - Point Cloud Data file format
VERSION 0.7
FIELDS x y z intensity
SIZE 4 4 4 4
TYPE F F F F
COUNT 1 1 1 1
WIDTH 1405
HEIGHT 1
VIEWPOINT 0 0 0 1 0 0 0
POINTS 1405
DATA ascii
0.95398718 1.9473306 -0.41368398 29
0.94921678 1.9367374 -0.33555222 30
0.95632708 1.9503835 -0.26201937 29
0.94696021 1.9304278 -0.18477045 26
0.94518018 1.9259489 -0.1100614 31
0.94444019 1.9235921 -0.036370274 28
0.94527453 1.9244424 0.56385797 25
0.94512844 1.9232966 0.48552692 24
0.94804329 1.9283779 0.40987095 26
0.94758666 1.9265996 0.33361951 22
0.945903 1.9223292 0.25836298 26
0.95405453 1.9380414 0.18564172 29
0.94785982 1.9246099 0.11042886 28
0.94049364 1.9088124 0.036475528 24
0.85944831 1.7404913 -0.50987375 4
0.95990604 1.9430766 -0.49151835 4
0.96077883 1.9439888 -0.41368398 24
0.95597148 1.9334123 -0.33555222 25
0.96532989 1.9514819 -0.26262873 28
0.95369285 1.9271104 -0.18477045 24
0.9518972 1.9226378 -0.1100614 25
0.95114905 1.9202837 -0.036370274 24
0.95198631 1.9211311 0.56385797 22
0.95183623 1.9199857 0.48552692 22
0.95476878 1.9250568 0.40987095 24
0.95650107 1.9277041 0.3344008 20
0.95260739 1.9190158 0.25836298 23
0.96302927 1.9391605 0.18607752 28
0.9567939 1.9257612 0.11069055 24
0.94937617 1.9099947 0.036562789 22
0.86551857 1.7374806 -0.50987375 4
0.96668279 1.939714 -0.49151835 5
0.9675588 1.9406233 -0.41368398 17
0.96271455 1.9300635 -0.33555222 24
0.97213596 1.9481003 -0.26262873 24
0.96041393 1.9237697 -0.18477045 24
0.96083373 1.9237703 -0.11032221 22
0.96008074 1.9214239 -0.036456663 22
0.96084607 1.9221162 0.56515121 25
0.96071178 1.9210092 0.48665082 25
0.9614827 1.9217123 0.40987095 27
0.96322423 1.9243537 0.3344008 25
0.9615224 1.9201165 0.25897235 23
0.96979237 1.9357871 0.18607752 31
0.96351022 1.9224095 0.11069055 24
0.95827824 1.9111379 0.03665005 26
0.86940968 1.7301334 -0.50857961 4
0.97125959 1.9319754 -0.49039361 4
0.97432691 1.937234 -0.41368398 14
0.96944582 1.9266913 -0.33555222 19
0.98116142 1.9491276 -0.26323807 25
0.96936369 1.9248544 -0.18520623 31
0.96754307 1.9204047 -0.11032221 24
0.96678191 1.9180608 -0.036456663 29
0.96972442 1.9230634 0.56644452 31
0.9696058 1.9219937 0.48777473 30
0.9703964 1.9227264 0.41082415 33
0.97216153 1.9253881 0.33518213 28
0.97045642 1.9211779 0.25958169 29
0.97879016 1.9368356 0.18651327 33
0.97246772 1.9234908 0.11095222 28
0.96719986 1.9122423 0.036737315 29
0.87574506 1.7269353 -0.50857961 4
0.97799754 1.9285731 -0.49039361 4
0.97886246 1.929444 -0.41273081 11
0.97616535 1.9232956 -0.33555222 16
0.98795921 1.9456909 -0.26323807 29
0.9783327 1.9258997 -0.185642 33
0.97650284 1.9214671 -0.11058301 29
0.97573715 1.9191309 -0.036543053 33
0.97862089 1.9239715 0.5677377 37
0.97851855 1.9229397 0.48889863 32
0.97710204 1.9193273 0.41082415 32
0.98111767 1.9263835 0.33596343 34
0.9771567 1.9177786 0.25958169 35
0.98780721 1.9378451 0.18694907 37
0.98144442 1.9245327 0.11121391 35
0.97614086 1.9133077 0.036824573 32
0.87926835 1.7197214 -0.50728554 4
0.9825049 1.92081 -0.48926884 4
0.98559153 1.9260153 -0.41273081 11
0.9828729 1.9198763 -0.33555222 13
0.99700725 1.9466476 -0.26384741 32
0.98732078 1.926906 -0.1860778 37
0.9854818 1.9224901 -0.11084383 32
0.98471141 1.9201615 -0.036629442 35
0.98533082 1.9205438 0.5677377 34
0.98744977 1.923847 0.49002257 38
0.98603785 1.9202713 0.41177732 34
0.99009275 1.92734 0.33674476 33
0.98611361 1.9187701 0.26019105 35
0.99684298 1.9388149 0.18738484 39
0.99044013 1.9255351 0.11147558 36
0.98510116 1.9143339 0.036911838 36
0.88526595 1.7166418 -0.50728554 4
0.98886913 1.9175414 -0.48926884 4
0.99197304 1.9227364 -0.41273081 13
0.98923409 1.9166064 -0.33555222 13
1.005734 1.9477403 -0.26445675 37
0.99599123 1.9280465 -0.18651357 37
0.99414408 1.9236474 -0.11110463 35
0.99336958 1.9213265 -0.036715835 38
0.99391311 1.9215556 0.569031 35
0.99606299 1.9248887 0.49114645 37
0.99240029 1.9169908 0.41177732 34
0.99647856 1.9240463 0.33674476 33
0.99475408 1.9198959 0.26080036 35
1.0032668 1.9354985 0.18738484 42
0.99911863 1.9266727 0.11173727 36
0.99374604 1.9154942 0.036999099 36
0.88872588 1.7094117 -0.50599146 4
0.99330854 1.9097557 -0.48814404 4
1.0009443 1.9236162 -0.41368398 13
0.99591827 1.9131417 -0.33555222 13
1.014819 1.9486192 -0.26506612 36
1.0050168 1.9289756 -0.18694936 36
1.0031607 1.9245932 -0.11136544 36
1.0000702 1.9178473 -0.036715835 36
1.0006145 1.9180746 0.569031 33
1.002776 1.9214002 0.49114645 36
1.0013576 1.917866 0.41273054 35
1.005475 1.9249333 0.33752605 34
1.0037482 1.9208101 0.26140973 36
1.0123246 1.9363989 0.18782063 42
1.008152 1.927598 0.11199894 37
1.0027441 1.9164435 0.037086364 35
0.89303869 1.7017101 -0.50469732 4
1.0006341 1.9059277 -0.48814404 4
1.008323 1.9197587 -0.41368398 14
1.005554 1.9136752 -0.33633435 14
1.024603 1.9491013 -0.26567549 35
1.0124161 1.9251024 -0.18694936 35
1.0105432 1.9207273 -0.11136544 35
1.0097553 1.918417 -0.036802221 35
1.0102224 1.918492 0.57032424 35
1.0124171 1.921846 0.49227038 37
1.0087142 1.9140068 0.41273054 33
1.0128589 1.9210584 0.33752605 33
1.0111161 1.9169419 0.26140973 37
1.0197523 1.9324976 0.18782063 39
1.015546 1.9237127 0.11199894 35
1.0100952 1.9125791 0.037086364 34
0.89897335 1.6985825 -0.50469732 4
1.0072809 1.9024231 -0.48814404 4
1.015018 1.9162272 -0.41368398 14
1.0122278 1.9101535 -0.33633435 12
1.0314003 1.9455128 -0.26567549 36
1.0214635 1.9259568 -0.18738513 36
1.0195819 1.9215988 -0.11162625 35
1.0187895 1.9192963 -0.036888614 35
1.0169129 1.9149539 0.57032424 35
1.0214052 1.922603 0.49339426 38
1.0176926 1.9148082 0.41368371 34
1.0218769 1.9218715 0.33830738 33
1.0201319 1.9177821 0.26201907 37
1.0288317 1.9333231 0.1882564 40
1.0222548 1.9201561 0.11199894 35
1.0191211 1.9134505 0.037173621 34
0.90262294 1.6911734 -0.50340325 4
1.0139155 1.8988955 -0.48814404 4
1.0240134 1.9170017 -0.41463721 13
1.0188893 1.9066086 -0.33633435 13
1.040525 1.9462771 -0.26628482 35
1.0281801 1.9223795 -0.18738513 36
1.0262834 1.9180281 -0.11162625 36
1.0254829 1.9157283 -0.036888614 37
1.0235913 1.9113926 0.57032424 35
1.0281101 1.9190259 0.49339426 35
1.0266892 1.9155704 0.41463691 33
1.0285794 1.9182929 0.33830738 33
1.0268201 1.9142095 0.26201907 36
1.035574 1.92972 0.1882564 41
1.0313131 1.9209753 0.11226062 37
1.0257882 1.9098846 0.037173621 35
0.90852076 1.6880124 -0.50340325 4
1.0205377 1.8953447 -0.48814404 4
1.0306987 1.9134157 -0.41463721 13
1.0278813 1.9073877 -0.33711654 14
1.0473124 1.9426333 -0.26628482 35
1.0372488 1.9231631 -0.18782091 37
1.0353433 1.9188284 -0.11188706 36
1.0345385 1.9165361 -0.036975004 36
1.032552 1.9120578 0.57161748 33
1.0371183 1.9197121 0.49451819 37
1.0333694 1.911975 0.41463691 33
1.0376182 1.9190351 0.33908868 33
1.0358568 1.9149787 0.26262844 36
1.0446744 1.9304745 0.18869218 43
1.0380121 1.9173638 0.11226062 38
1.0348296 1.9106884 0.037260886 35
0.91440749 1.6848307 -0.50340325 4
1.0271475 1.8917707 -0.48814404 4
1.0397145 1.9141195 -0.41559041 13
1.034533 1.9037882 -0.33711654 13
1.054087 1.9389657 -0.26628482 36
1.0439557 1.9195307 -0.18782091 36
1.042035 1.9152027 -0.11188706 35
1.0412221 1.9129133 -0.036975004 36
1.03922 1.9084418 0.57161748 33
1.043813 1.91608 0.49451819 35
1.0400373 1.9083561 0.41463691 33
1.0443105 1.9154015 0.33908868 33
1.0425351 1.9113513 0.26262844 35
1.0514066 1.9268161 0.18869218 42
1.0446987 1.9137287 0.11226062 37
1.0414928 1.9070646 0.037260886 35
0.92028308 1.6816286 -0.50340325 4
1.0337447 1.8881739 -0.48814404 4
1.0463896 1.9104786 -0.41559041 13
1.0411721 1.9001654 -0.33711654 12
1.0632343 1.9396261 -0.26689416 35
1.0506498 1.915875 -0.18782091 37
1.0511156 1.9159312 -0.11214787 34
1.0502986 1.9136497 -0.037061393 36
1.0481999 1.909036 0.57291073 32
1.0528406 1.9166949 0.49564207 35
1.0490562 1.9090158 0.41559011 33
1.0533693 1.9160721 0.33987001 33
1.051592 1.9120488 0.26323774 36
1.0605271 1.9274981 0.18912795 42
1.0537802 1.9144444 0.1125223 36
1.0505548 1.9077965 0.037348147 33
0.9261474 1.6784059 -0.50340325 4
1.0403293 1.8845539 -0.48814404 4
1.0554248 1.9111108 -0.41654357 13
1.0501868 1.900842 -0.3378987 13
1.0699984 1.935903 -0.26689416 36
1.0597411 1.9165546 -0.18825668 37
1.0577971 1.9122505 -0.11214787 34
1.056972 1.909972 -0.037061393 34
1.0548574 1.9053656 0.57291073 33
1.0595247 1.9130081 0.49564207 36
1.0557134 1.9053422 0.41559011 33
1.0600512 1.9123836 0.33987001 33
1.05826 1.9083663 0.26323774 36
1.0672488 1.9237845 0.18912795 41
1.0628796 1.9151205 0.11278398 35
1.0572078 1.9041178 0.037348147 34
0.93200052 1.6751629 -0.50340325 4
1.0492707 1.8851678 -0.48926884 4
1.0620894 1.907415 -0.41654357 13
1.0568155 1.8971646 -0.3378987 13
1.0791652 1.9364911 -0.2675035 37
1.0664247 1.9128437 -0.18825668 37
1.0644656 1.9085464 -0.11214787 34
1.0660684 1.9106363 -0.037147783 36
1.0638561 1.9058894 0.57420403 34
1.0685713 1.9135519 0.496766 36
1.0647517 1.9059305 0.41654328 34
1.0691297 1.9129828 0.34065133 33
1.0649149 1.9046607 0.26323774 36
1.0763892 1.9243945 0.18956374 40
1.0695581 1.9113988 0.11278398 37
1.06629 1.9047781 0.037435409 34
0.93784225 1.6718993 -0.50340325 4
1.0558448 1.8814938 -0.48926884 4
1.0687411 1.9036961 -0.41654357 13
1.0634314 1.8934641 -0.3378987 13
1.0859183 1.9327124 -0.2675035 36
1.0730952 1.9091096 -0.18825668 35
1.0735686 1.9091715 -0.11240868 34
1.0727314 1.9069035 -0.037147783 36
1.0728711 1.9063731 0.57549721 33
1.0752444 1.9098103 0.496766 36
1.0713981 1.9022021 0.41654328 33
1.0758007 1.9092392 0.34065133 35
1.0715569 1.900932 0.26323774 36
1.0831 1.9206254 0.18956374 39
1.0786769 1.9120022 0.11304566 34
1.0729325 1.9010445 0.037435409 32
0.94605005 1.6728194 -0.50469732 4
1.064805 1.8820372 -0.49039361 4
1.0777974 1.9042253 -0.4174968 13
1.0724678 1.894038 -0.33868089 13
1.0951042 1.9332283 -0.26811287 36
1.0822086 1.9096857 -0.18869248 35
1.0802263 1.9054123 -0.11240868 35
1.0793811 1.9031472 -0.037147783 35
1.079519 1.9026165 0.57549721 33
1.0819043 1.9060454 0.496766 35
1.0804553 1.9027188 0.4174965 33
1.0848979 1.9097662 0.3414326 33
1.0806381 1.9014947 0.26384711 36
1.0922595 1.9211633 0.18999954 41
1.0853446 1.9082253 0.11304566 35
1.0795618 1.8972876 0.037435409 34
0.95188355 1.6695069 -0.50469732 4
1.0713682 1.8783089 -0.49039361 4
1.0844378 1.9004517 -0.4174968 13
1.0790727 1.8902828 -0.33868089 13
1.1018459 1.9293938 -0.26811287 35
1.088868 1.9058965 -0.18869248 35
1.0868709 1.90163 -0.11240868 34
1.0884993 1.903708 -0.037234176 34
1.088552 1.9030293 0.57679051 32
1.0909708 1.9064857 0.49788988 35
1.0870904 1.8989358 0.4174965 33
1.0915576 1.9059675 0.3414326 33
1.0872688 1.8977109 0.26384711 38
1.098959 1.9173388 0.18999954 39
1.0944827 1.9087567 0.11330734 37
1.0886655 1.8978441 0.03752267 31
0.96011215 1.6703613 -0.50599146 3
1.0779182 1.8745576 -0.49039361 4
1.0935125 1.9009092 -0.41844994 12
1.0881275 1.8907846 -0.33946306 13
1.1110499 1.9298365 -0.26872221 35
1.0980002 1.9064002 -0.18912823 35
1.0959948 1.9021508 -0.11266948 34
1.0976344 1.904228 -0.037320562 34
1.0951883 1.8992181 0.57679051 33
1.0976189 1.902666 0.49788988 37
1.0937123 1.8951296 0.4174965 34
1.1006733 1.9064226 0.34221393 34
1.0963686 1.8982015 0.26445645 35
1.108137 1.9178036 0.19043529 39
1.1011388 1.9049246 0.11330734 37
1.0952836 1.8940324 0.03752267 33
0.96564603 1.6671681 -0.50599146 3
1.0838019 1.8711619 -0.49039361 4
1.1019398 1.9017113 -0.41940317 14
1.0940622 1.8873568 -0.33946306 12
1.1171072 1.9263366 -0.26872221 35
1.1039838 1.9029412 -0.18912823 35
1.1019652 1.8986983 -0.11266948 34
1.1036112 1.9007703 -0.037320562 34
1.1035752 1.8999442 0.57808375 34
1.1060388 1.9034207 0.49901381 37
1.1021272 1.8959274 0.41844967 33
1.1066571 1.9029554 0.34221393 31
1.1048222 1.8990374 0.26506582 37
1.1141565 1.914313 0.19043529 38
1.1096301 1.9057708 0.11356901 37
1.1037447 1.8949019 0.037609935 32
0.9687348 1.6597857 -0.50469732 4
1.0878702 1.86316 -0.48926884 4
1.1110469 1.9020915 -0.42035633 13
1.1006436 1.8835263 -0.33946306 13
1.1263292 1.9267099 -0.26933157 34
1.1131341 1.9033757 -0.18956403 35
1.1111078 1.8991501 -0.1129303 35
1.1102395 1.8969064 -0.037320562 35
1.1102005 1.8960804 0.57808375 33
1.1126763 1.8995484 0.49901381 36
1.1087385 1.8920687 0.41844967 31
1.1157905 1.9033414 0.34299523 32
1.1139549 1.8994503 0.26567516 35
1.1208318 1.9104121 0.19043529 38
1.1162758 1.9018859 0.11356901 35
1.1103524 1.8910376 0.037609935 33
0.9751007 1.6560538 -0.50469732 3
1.0950162 1.8589692 -0.48926884 4
1.1183423 1.8978114 -0.42035633 13
1.1103758 1.8835406 -0.34024525 13
1.133719 1.9223709 -0.26933157 36
1.1204344 1.8990875 -0.18956403 35
1.1183918 1.8948698 -0.1129303 32
1.1200567 1.8969344 -0.037406955 35
1.1174728 1.8918037 0.57808375 34
1.1199617 1.895262 0.49901381 37
1.1184934 1.892023 0.41940287 33
1.1230906 1.899043 0.34299523 33
1.12124 1.895159 0.26567516 35
1.1306962 1.9103811 0.19087109 39
1.1261144 1.9018824 0.1138307 34
1.1201531 1.8910614 0.037697192 32
0.98087543 1.65264 -0.50469732 4
1.0990113 1.8509464 -0.48814404 4
1.1274667 1.8981161 -0.42130953 13
1.1169437 1.8796532 -0.34024525 12
1.1429582 1.9226676 -0.26994088 36
1.1296027 1.8994464 -0.18999982 35
1.1275522 1.8952453 -0.1131911 34
1.1266714 1.8930131 -0.037406955 33
1.1265404 1.8920414 0.579377 34
1.1290638 1.8955269 0.50013769 35
1.125091 1.8881072 0.41940287 31
1.1322414 1.8993533 0.34377655 31
1.1303904 1.8954959 0.2662845 34
1.1373578 1.9064226 0.19087109 37
1.1327462 1.8979399 0.1138307 37
1.126753 1.8871365 0.037697192 33
0.98635042 1.6493782 -0.50469732 4
1.1048207 1.8474847 -0.48814404 4
1.1334242 1.8945647 -0.42130953 13
1.1253796 1.8803726 -0.34102744 13
1.1489928 1.9190674 -0.26994088 33
1.1381238 1.9001613 -0.19043559 35
1.1335007 1.8916936 -0.1131911 33
1.1351832 1.893752 -0.037493344 34
1.1324788 1.8884929 0.579377 33
1.1350132 1.8919704 0.50013769 35
1.1335427 1.8887717 0.42035604 33
1.1382028 1.8957868 0.34377655 31
1.1363397 1.8919353 0.2662845 36
1.1459066 1.9071095 0.19130686 38
1.1412756 1.8986516 0.11409239 36
1.1352466 1.8878752 0.037784457 32
0.99181449 1.6460983 -0.50469732 4
1.1112629 1.843617 -0.48814404 4
1.142565 1.8947998 -0.4222627 14
1.1344873 1.8806615 -0.34180957 13
1.1582488 1.9192939 -0.27055025 35
1.1447498 1.8961769 -0.19043559 33
1.1426785 1.8919998 -0.11345191 33
1.1417868 1.8897779 -0.037493344 34
1.1415625 1.8886619 0.58067024 33
1.1441315 1.8921661 0.50126159 36
1.1401287 1.8848034 0.42035604 33
1.1473701 1.8960272 0.34455785 31
1.1429369 1.8879572 0.2662845 35
1.1551369 1.9073585 0.19174264 39
1.1478963 1.8946562 0.11409239 34
1.1418296 1.8839009 0.037784457 31
0.99784112 1.642452 -0.50469732 3
1.1180128 1.8395315 -0.48814404 4
1.1495022 1.8905994 -0.4222627 13
1.1413726 1.8764907 -0.34180957 13
1.1678551 1.9192754 -0.27115959 34
1.1542817 1.8962232 -0.19087137 34
1.1496054 1.887799 -0.11345191 33
1.1513063 1.8898497 -0.037579738 34
1.1484771 1.8844651 0.58067024 33
1.1510589 1.88796 0.50126159 35
1.1470293 1.8806119 0.42035604 32
1.1543118 1.8918091 0.34455785 32
1.1498488 1.8837554 0.2662845 35
1.1621201 1.9031118 0.19174264 37
1.1574358 1.894697 0.11435406 35
1.1513336 1.8839688 0.037871718 32
1.0060904 1.6430777 -0.50599146 3
1.1244271 1.8356178 -0.48814404 4
1.1586593 1.8907605 -0.42321593 13
1.150497 1.8767055 -0.34259176 13
1.1745476 1.915187 -0.27115959 35
1.1608938 1.8921824 -0.19087137 35
1.1587999 1.8880302 -0.11371273 33
1.1578962 1.8858193 -0.037579738 32
1.1575761 1.8845602 0.58196354 33
1.1601928 1.8880814 0.5023855 33
1.1561573 1.8807781 0.42130923 31
1.1634955 1.8919753 0.34533918 32
1.1590178 1.8839571 0.26689386 34
1.1713667 1.9032855 0.19217841 37
1.1666603 1.8948971 0.11461575 34
1.157903 1.8799386 0.037871718 31
1.0146427 1.6434886 -0.50728554 3
1.1308277 1.8316816 -0.48814404 5
1.1652522 1.8867047 -0.42321593 12
1.1570408 1.8726782 -0.34259176 13
1.1838351 1.9152972 -0.27176896 35
1.1701111 1.892355 -0.19130714 34
1.1653833 1.8839738 -0.11371273 33
1.1671026 1.8860173 -0.037666127 35
1.1666895 1.8846145 0.58325672 32
1.1667763 1.88402 0.5023855 35
1.1627154 1.8767308 0.42130923 32
1.1700927 1.8879024 0.34533918 32
1.1655871 1.8798999 0.26689386 37
1.1780033 1.8991851 0.19217841 36
1.1732675 1.8908132 0.11461575 36
1.1670947 1.8801328 0.037958983 32
1.0200872 1.6401149 -0.50728554 3
1.1372145 1.8277231 -0.48814404 4
1.1744245 1.8867924 -0.42416909 13
1.1661808 1.8728198 -0.34337392 13
1.1905135 1.9111531 -0.27176896 33
1.1793439 1.8924863 -0.19174294 34
1.174594 1.8841317 -0.11397354 31
1.173679 1.8819318 -0.037666127 35
1.1732608 1.8805305 0.58325672 34
1.1759254 1.884069 0.5035094 35
1.1718588 1.8768243 0.4222624 32
1.1792917 1.887995 0.34612048 31
1.1747718 1.8800284 0.2675032 34
1.1872658 1.8992852 0.1926142 38
1.182508 1.8909398 0.11487742 34
1.1763021 1.8802857 0.038046245 32
1.0283711 1.6406364 -0.50857961 3
1.1432692 1.8239419 -0.48814404 4
1.1806749 1.8828875 -0.42416909 13
1.172385 1.8689424 -0.34337392 12
1.1994824 1.9113982 -0.27237827 35
1.1856133 1.8885652 -0.19174294 34
1.1808356 1.880226 -0.11397354 33
1.1825727 1.8822625 -0.037752517 32
1.1820607 1.8807189 0.58455002 34
1.1821667 1.8801593 0.5035094 35
1.1806896 1.8770827 0.42321563 31
1.1855462 1.8840739 0.34612048 32
1.1836437 1.8803225 0.26811254 34
1.1935576 1.8953377 0.1926142 38
1.1887721 1.8870081 0.11487742 33
1.1851962 1.8806038 0.038133506 33
1.0363847 1.6413008 -0.50987375 3
1.149629 1.8199401 -0.48814404 4
1.1872402 1.8787547 -0.42416909 12
1.1815406 1.8690128 -0.34415612 12
1.2061472 1.9071996 -0.27237827 34
1.1948614 1.8886244 -0.19217871 33
1.1900619 1.8803118 -0.11423435 33
1.1891358 1.878123 -0.037752517 32
1.1886185 1.8765813 0.58455002 33
1.1913302 1.8801365 0.50463331 34
1.1872346 1.8729498 0.42321563 32
1.1947603 1.884095 0.3469018 33
1.1928583 1.8803697 0.26872188 33
1.2028351 1.8953652 0.19304997 38
1.1980278 1.8870624 0.1151391 34
1.1917534 1.8764552 0.038133506 33
1.0426791 1.6373093 -0.50987375 3
1.1566087 1.8155124 -0.48814404 4
1.1970832 1.8783214 -0.42512229 12
1.1887084 1.8644624 -0.34415612 13
1.2134613 1.9025543 -0.27237827 34
1.2047836 1.8882216 -0.1926145 34
1.1999595 1.8799375 -0.11449515 33
1.1990291 1.877757 -0.03783891 36
1.1958152 1.8720036 0.58455002 34
1.2011641 1.8796536 0.50575721 33
1.1970612 1.8725128 0.4241688 33
1.2046466 1.8836539 0.3476831 31
1.2000695 1.8757756 0.26872188 35
1.2101039 1.8907328 0.19304997 37
1.2079571 1.8866533 0.11540078 36
1.2016461 1.8760753 0.038220771 32
1.048388 1.6336597 -0.50987375 3
1.162939 1.811464 -0.48814404 4
1.2036326 1.8741313 -0.42512229 12
1.1978787 1.8644564 -0.34493828 13
1.2227783 1.9024817 -0.27298763 34
1.2113674 1.8840047 -0.1926145 34
1.2092158 1.8799368 -0.11475597 32
1.2055763 1.8735601 -0.03783891 33
1.2049567 1.8718789 0.58584327 32
1.207718 1.8754493 0.50575721 35
1.2062484 1.8724492 0.42512199 31
1.2112144 1.8794374 0.3476831 32
1.2092991 1.8757463 0.26933125 34
1.2193962 1.8906833 0.19348575 37
1.2145355 1.8824253 0.11540078 33
1.2081932 1.8718656 0.038220771 32
1.0540842 1.6299902 -0.50987375 3
1.169255 1.8073936 -0.48814404 4
1.212834 1.8740392 -0.42607546 13
1.2043796 1.8602636 -0.34493828 12
1.2294118 1.8982017 -0.27298763 34
1.2206447 1.8839447 -0.19305027 35
1.2157706 1.8757044 -0.11475597 32
1.2148288 1.8735349 -0.037925296 35
1.2114834 1.8676615 0.58584327 33
1.2169093 1.8753092 0.50688112 35
1.212777 1.8682271 0.42512199 31
1.2204573 1.8793398 0.34846443 31
1.2158394 1.8715136 0.26933125 33
1.2259885 1.8864154 0.19348575 37
1.2238206 1.8823606 0.11566246 33
1.2147143 1.8676406 0.038220771 31
1.0597675 1.6263008 -0.50987375 3
1.1782174 1.8073823 -0.48926884 4
1.2220495 1.8739055 -0.42702866 13
1.2135642 1.8601844 -0.34572047 12
1.2387426 1.8980547 -0.27359697 33
1.2299367 1.8838433 -0.19348605 34
1.2250408 1.8756294 -0.11501677 34
1.2240958 1.8734683 -0.038011689 35
1.2206379 1.8674641 0.58713651 31
1.2261143 1.8751278 0.50800502 33
1.2219777 1.8680898 0.42607516 33
1.2297142 1.8792007 0.3492457 30
1.2250829 1.8714103 0.26994058 32
1.2352947 1.8862911 0.19392152 38
1.2303839 1.8780771 0.11566246 35
1.2239664 1.8675703 0.038308028 33
1.0654378 1.6225916 -0.50987375 4
1.1871941 1.8073307 -0.49039361 4
1.2312785 1.8737303 -0.42798182 13
1.22005 1.855937 -0.34572047 13
1.2480875 1.8978658 -0.27420634 33
1.2365049 1.8795385 -0.19348605 34
1.2315805 1.8713418 -0.11501677 33
1.230628 1.8691839 -0.038011689 32
1.2298058 1.8672255 0.58842975 30
1.2326522 1.8708364 0.50800502 34
1.2284912 1.8638129 0.42607516 30
1.2389849 1.8790197 0.35002702 32
1.2316078 1.8671225 0.26994058 33
1.2418715 1.8819677 0.19392152 37
1.2396829 1.8779379 0.11592413 34
1.230478 1.8632865 0.038308028 31
1.0710952 1.6188627 -0.50987375 4
1.1961844 1.807238 -0.49151835 4
1.2378117 1.8694209 -0.42798182 13
1.229248 1.8557839 -0.3465026 12
1.2574457 1.8976341 -0.27481568 34
1.2458102 1.8793625 -0.19392182 34
1.240865 1.8711929 -0.11527758 32
1.2399087 1.8690426 -0.038098078 34
1.2363162 1.8629212 0.58842975 32
1.2418697 1.870581 0.50912893 33
1.2377052 1.8636023 0.42702836 30
1.2455363 1.8746835 0.35002702 31
1.2408649 1.8669451 0.27054995 34
1.2511911 1.8817692 0.19435731 38
1.2462305 1.8735992 0.11592413 35
1.2397441 1.8631421 0.038395293 31
1.0764577 1.615302 -0.50987375 4
1.201856 1.8034712 -0.49151835 4
1.2464012 1.869607 -0.42893505 12
1.2378122 1.8560215 -0.34728479 13
1.2634012 1.8936744 -0.27481568 34
1.2517083 1.8754393 -0.19392182 34
1.2495098 1.8714379 -0.11553839 33
1.2457743 1.8651382 -0.038098078 33
1.2448459 1.8630439 0.58972305 30
1.2504479 1.870721 0.51025283 33
1.246282 1.8637847 0.42798153 30
1.2541656 1.874866 0.35080832 31
1.2494838 1.867162 0.27115926 35
1.2570966 1.8778291 0.19435731 36
1.2548889 1.8738236 0.11618582 35
1.2455912 1.8592381 0.038395293 31
1.0818083 1.6117233 -0.50987375 4
1.21086 1.8033097 -0.49264312 4
1.2556565 1.869319 -0.42988822 12
1.2442834 1.8516893 -0.34728479 12
1.2727723 1.8933716 -0.27542502 33
1.2610269 1.8751922 -0.1943576 34
1.2560349 1.867065 -0.11553839 33
1.2550687 1.8649259 -0.038184468 31
1.2540389 1.8626938 0.59101623 32
1.2569703 1.8663448 0.51025283 32
1.2527802 1.8594229 0.42798153 31
1.2607025 1.8704768 0.35080832 31
1.2559938 1.8627892 0.27115926 33
1.2664291 1.8775589 0.19479308 35
1.2614222 1.8694319 0.11618582 33
1.2548705 1.8590224 0.038482554 30
1.0906959 1.6115574 -0.51116782 4
1.2177753 1.798647 -0.49264312 4
1.2628248 1.8644838 -0.42988822 12
1.2541542 1.8509864 -0.34806696 12
1.280033 1.8884705 -0.27542502 34
1.2682177 1.8703363 -0.1943576 32
1.2659976 1.8663608 -0.1157992 32
1.2622201 1.860093 -0.038184468 32
1.2611818 1.857865 0.59101623 31
1.2668642 1.8655349 0.51137674 33
1.2626691 1.8586591 0.42893475 31
1.2706512 1.869707 0.35158965 32
1.2659274 1.8620569 0.27176863 33
1.2764304 1.876801 0.19522887 38
1.2685909 1.8645746 0.11618582 34
1.2648122 1.8583231 0.038569819 31
1.0990355 1.6117306 -0.5124619 4
1.2240463 1.7943853 -0.49264312 4
1.2720921 1.8641189 -0.43084142 12
1.2633922 1.8506762 -0.34884915 13
1.2894158 1.8880891 -0.27603436 34
1.2775484 1.8700107 -0.19479337 35
1.2725048 1.8619303 -0.1157992 31
1.2715267 1.8598022 -0.038270857 32
1.270386 1.857438 0.59230953 32
1.2733684 1.8611014 0.51137674 33
1.2719215 1.8582906 0.42988792 31
1.2771699 1.8652601 0.35158965 31
1.2724196 1.8576267 0.27176863 33
1.2829736 1.872334 0.19522887 35
1.2779149 1.8642533 0.11644749 34
1.2712967 1.853893 0.038569819 29
1.1046549 1.6078844 -0.5124619 4
1.2303025 1.7901016 -0.49264312 4
1.2813721 1.8637115 -0.43179458 12
1.2726431 1.8503236 -0.34963131 12
1.2988117 1.8876652 -0.27664372 33
1.2868924 1.869643 -0.19522917 33
1.2818279 1.8615893 -0.11606 33
1.2780108 1.8553525 -0.038270857 32
1.2768618 1.8529921 0.59230953 30
1.2826222 1.8606565 0.51250064 33
1.2811867 1.85788 0.43084112 30
1.2864773 1.8648555 0.35237095 30
1.2817149 1.8572583 0.27237797 33
1.2923316 1.8719432 0.19566463 36
1.2844144 1.8597811 0.11644749 34
1.2805964 1.8535608 0.038657077 31
1.1102607 1.6040186 -0.5124619 4
1.2365435 1.7857962 -0.49264312 4
1.2878698 1.8592273 -0.43179458 12
1.281907 1.8499293 -0.3504135 12
1.3053931 1.8831199 -0.27664372 33
1.2962492 1.8692323 -0.19566494 32
1.2883183 1.8571036 -0.11606 31
1.2873299 1.8549874 -0.03835725 33
1.2860764 1.852491 0.59360272 30
1.2891095 1.8561679 0.51250064 32
1.2904648 1.8574276 0.43179429 31
1.292979 1.8603536 0.35237095 31
1.291023 1.8568475 0.27298734 31
1.3017021 1.87151 0.19610043 35
1.2937503 1.859385 0.11670918 32
1.2870588 1.8490795 0.038657077 29
1.11005 1.592404 -0.50987375 4
1.2449336 1.785899 -0.49376786 4
1.2965122 1.8591985 -0.43274778 12
1.2877123 1.8458929 -0.3504135 12
1.3141427 1.8830793 -0.27725306 32
1.3021151 1.8651509 -0.19566494 31
1.2970054 1.8571409 -0.11632082 32
1.2960142 1.8550321 -0.038443636 32
1.2918899 1.8484416 0.59360272 30
1.297726 1.856102 0.51362455 32
1.2962936 1.8533643 0.43179429 29
1.3016485 1.8603289 0.35315228 30
1.2996958 1.8568482 0.27359664 32
1.3104321 1.8714914 0.1965362 35
1.2995855 1.8553114 0.11670918 33
1.2957305 1.8491212 0.038744342 30
1.1125494 1.5847614 -0.50857961 4
1.25116 1.7815425 -0.49376786 4
1.3058156 1.8586775 -0.43370095 12
1.2969874 1.8454269 -0.35119566 11
1.3207078 1.8784807 -0.27725306 33
1.3114833 1.8646685 -0.19610073 32
1.3063531 1.8566859 -0.11658162 30
1.3053591 1.8545851 -0.038530029 31
1.301115 1.8478701 0.59489602 31
1.3041972 1.8515607 0.51362455 32
1.3055824 1.8528403 0.43274748 28
1.3109796 1.8598105 0.35393357 30
1.3061696 1.8523 0.27359664 33
1.3169568 1.8669058 0.1965362 35
1.3089325 1.8548435 0.11697085 33
1.3050603 1.848671 0.038831603 29
1.1155609 1.5767304 -0.50728554 4
1.2576813 1.7769449 -0.49376786 4
1.3154556 1.8578849 -0.43465418 12
1.306597 1.8446909 -0.35197783 13
1.3304533 1.8776768 -0.27786243 32
1.3183088 1.8598492 -0.19610073 33
1.3160378 1.8559586 -0.11684243 32
1.3150401 1.8538657 -0.038616419 32
1.3106743 1.8470279 0.59618932 30
1.313795 1.850741 0.51474845 31
1.3123646 1.8480427 0.43274748 30
1.3177873 1.8549929 0.35393357 28
1.3158247 1.8515457 0.27420601 34
1.3266766 1.8661261 0.19697198 36
1.3186162 1.8541026 0.11723254 32
1.3118272 1.8438753 0.038831603 31
1.1182549 1.568894 -0.50599146 4
1.2667048 1.7765108 -0.49489263 4
1.3219327 1.8532817 -0.43465418 12
1.3130282 1.8401186 -0.35197783 11
1.3398825 1.8770602 -0.27847174 32
1.3276875 1.8592896 -0.1965365 32
1.3225082 1.8513534 -0.11684243 31
1.3215033 1.8492641 -0.038616419 33
1.3199223 1.8463705 0.5974825 30
1.3230811 1.8501065 0.51587236 31
1.3216634 1.8474425 0.43370065 28
1.3271285 1.8543978 0.3547149 30
1.3251686 1.8509763 0.27481535 33
1.3331826 1.8614836 0.19697198 37
1.3279879 1.8535471 0.11749421 33
1.3211679 1.8433485 0.038918864 29
1.1209075 1.5610579 -0.50469732 4
1.2728982 1.7720784 -0.49489263 4
1.3312579 1.8526421 -0.43560734 12
1.3223258 1.839534 -0.35275999 12
1.3464266 1.8723718 -0.27847174 33
1.3341696 1.8546438 -0.1965365 32
1.3318791 1.8507785 -0.11710324 31
1.3308712 1.8486973 -0.038702808 31
1.3291819 1.8456713 0.5987758 30
1.3323791 1.8494301 0.51699626 32
1.3309739 1.8467996 0.43465388 29
1.3364818 1.85376 0.3554962 29
1.3316216 1.8463393 0.27481535 31
1.3425864 1.8608578 0.19740775 35
1.33445 1.8489004 0.11749421 32
1.3305206 1.8427784 0.039006125 30
1.1263499 1.5571357 -0.50469732 4
1.2762201 1.7636774 -0.49376786 4
1.3405949 1.8519597 -0.43656054 12
1.3316356 1.8389071 -0.35354218 12
1.3558656 1.8716795 -0.27908111 31
1.3435582 1.8540088 -0.19697228 32
1.3383313 1.846118 -0.11710324 32
1.3373164 1.8440405 -0.038702808 31
1.3356165 1.8410203 0.5987758 30
1.3416884 1.8487111 0.51812023 32
1.3402958 1.846114 0.43560702 29
1.3429444 1.8490834 0.3554962 30
1.3409756 1.845695 0.27542472 33
1.3490739 1.85616 0.19740775 36
1.3438321 1.8482696 0.1177559 32
1.3398857 1.8421658 0.03909339 30
1.1289341 1.5492913 -0.50340325 3
1.2823687 1.7592117 -0.49376786 4
1.3499433 1.8512348 -0.43751371 12
1.3380464 1.8342476 -0.35354218 12
1.3653162 1.8709441 -0.27969044 32
1.3500216 1.8493075 -0.19697228 34
1.3477122 1.8454676 -0.11736406 30
1.3466941 1.8433977 -0.038789198 32
1.3448844 1.8402463 0.60006905 29
1.3510088 1.8479493 0.51924407 30
1.3496294 1.8453865 0.43656024 29
1.3523068 1.8483702 0.35627753 30
1.3474101 1.8410029 0.27542472 30
1.3584876 1.8554587 0.19784354 34
1.3532259 1.8475957 0.11801757 33
1.346308 1.8374776 0.03909339 27
1.1343353 1.545341 -0.50340325 4
1.2885016 1.7547246 -0.49376786 4
1.356397 1.8465112 -0.43751371 12
1.3473653 1.8335451 -0.35432434 12
1.374778 1.8701653 -0.28029981 30
1.3594196 1.8485966 -0.19740805 33
1.3571048 1.844774 -0.11762486 28
1.3560838 1.8427123 -0.038875591 32
1.3541633 1.8394301 0.60136229 30
1.3603402 1.8471451 0.52036798 31
1.358974 1.8446157 0.43751341 30
1.3616805 1.8476142 0.35705879 29
1.3567731 1.8402827 0.27603403 32
1.3679124 1.8547139 0.19827931 34
1.3626314 1.8468788 0.11827926 33
1.3556824 1.8367891 0.039180648 30
1.1368512 1.5374887 -0.50210917 3
1.2917219 1.7462997 -0.49264312 4
1.3657539 1.8457109 -0.43846694 11
1.3566954 1.8328 -0.35510653 12
1.3842512 1.8693435 -0.28090915 31
1.368829 1.8478425 -0.19784385 33
1.3665088 1.8440373 -0.11788567 29
1.3654847 1.8419833 -0.038961977 32
1.3634528 1.8385715 0.60265553 29
1.3696824 1.8462983 0.52149189 32
1.3654046 1.8398607 0.43751341 30
1.3710655 1.846815 0.35784012 30
1.3661475 1.8395196 0.2766434 31
1.3773489 1.8539261 0.19871509 35
1.3720484 1.8461185 0.11854094 30
1.3650687 1.8360577 0.039267913 31
1.1422111 1.5335109 -0.50210917 4
1.2978097 1.74178 -0.49264312 4
1.3721883 1.8409323 -0.43846694 11
1.3630848 1.8280531 -0.35510653 12
1.3937352 1.8684782 -0.28151849 32
1.3782495 1.8470451 -0.1982796 34
1.3759242 1.8432574 -0.11814647 31
1.3748974 1.8412113 -0.03904837 31
1.3698624 1.8338009 0.60265553 31
1.3790354 1.8454088 0.52261579 32
1.3747575 1.8390148 0.43846661 29
1.3804612 1.8459727 0.35862142 33
1.3755331 1.8387134 0.27725273 32
1.3867961 1.8530947 0.19915086 36
1.3784841 1.8413178 0.11854094 34
1.3714693 1.8312815 0.039267913 32
1.147557 1.5295147 -0.50210917 3
1.3038816 1.7372392 -0.49264312 4
1.3815531 1.8400563 -0.43942013 13
1.3724235 1.8272326 -0.35588869 11
1.40323 1.8675692 -0.28212786 34
1.3876815 1.8462044 -0.1987154 37
1.3853508 1.8424343 -0.11840729 33
1.3843211 1.840396 -0.039134759 34
1.3791591 1.8328674 0.60394883 33
1.3883985 1.8444761 0.5237397 37
1.3841211 1.8381257 0.43941984 34
1.389868 1.8450875 0.35940275 37
1.3849298 1.8378644 0.2778621 34
1.3962545 1.8522201 0.19958664 41
1.3879095 1.8404815 0.11880261 36
1.380864 1.830474 0.039355174 33
1.1528891 1.5254996 -0.50210917 3
1.3099378 1.7326772 -0.49264312 4
1.3909284 1.8391374 -0.4403733 11
1.381773 1.8263693 -0.35667089 12
1.4097404 1.8626597 -0.28212786 36
1.3941174 1.8413492 -0.1987154 46
1.3917737 1.8375872 -0.11840729 36
1.387718 1.831568 -0.03904837 36
1.3855486 1.8280421 0.60394883 37
1.3948286 1.8396184 0.5237397 37
1.3905289 1.8332832 0.43941984 34
1.3992853 1.844159 0.36018407 26
1.3913367 1.8330189 0.2778621 38
1.4027115 1.847335 0.19958664 45
1.3913052 1.8316494 0.11854094 38
1.3872452 1.8256427 0.039355174 25
1.1584725 1.5212638 -0.50210917 3
1.3162798 1.7278645 -0.49264312 4
1.3976599 1.8340271 -0.4403733 12
1.3914517 1.8252198 -0.35745302 11
1.4165579 1.8574802 -0.28212786 35
1.3978356 1.8322672 -0.1982796 26
1.3954701 1.8285044 -0.11814647 39
1.3944217 1.8264695 -0.03904837 25
1.3922395 1.8229516 0.60394883 20
1.4015617 1.8344939 0.5237397 25
1.3972389 1.8281742 0.43941984 20
1.4060351 1.839018 0.36018407 19
1.3980457 1.827907 0.2778621 21
1.4094729 1.8421814 0.19958664 28
1.3980092 1.8265378 0.11854094 23
1.3939271 1.820546 0.039355174 16
1.1696546 1.5248749 -0.50469732 3
1.3223029 1.7232593 -0.49264312 4
1.4070419 1.8330307 -0.4413265 11
1.3978144 1.8203516 -0.35745302 12
1.4230331 1.8525242 -0.28212786 23
1.404223 1.8273765 -0.1982796 17
1.3988012 1.8196635 -0.11788567 20
1.3977411 1.8176278 -0.038961977 19
1.3985943 1.8180807 0.60394883 15
1.4079567 1.8295903 0.5237397 17
1.4066057 1.8271749 0.440373 13
1.415459 1.8380115 0.36096537 10
1.4044176 1.8230158 0.2778621 16
1.4189353 1.8411956 0.20002241 19
1.3982794 1.8137379 0.11801757 17
1.4002788 1.8156651 0.039355174 10
1.1690648 1.5131391 -0.50210917 3
1.3283104 1.7186331 -0.49264312 4
1.416434 1.831991 -0.44227967 10
1.4071816 1.8193676 -0.35823521 11
1.4264542 1.8436207 -0.28151849 16
1.4075446 1.8185248 -0.19784385 12
1.4020876 1.8108217 -0.11762486 16
1.4040773 1.8127377 -0.038961977 12
1.404932 1.8131875 0.60394883 9
1.4143345 1.8246645 0.5237397 11
1.4129753 1.8222538 0.440373 9
1.4248933 1.8369619 0.3617467 16
1.4107727 1.8181024 0.2778621 9
1.4284078 1.840166 0.20045821 12
1.3984771 1.8009584 0.11749421 11
1.4096696 1.8147182 0.039442439 11
1.1684072 1.5014261 -0.49952096 3
1.3313085 1.7101414 -0.49151835 4
1.4228202 1.8270355 -0.44227967 10
1.4195936 1.8222361 -0.35979956 10
1.4359314 1.8425444 -0.28212786 12
1.4169462 1.8175287 -0.1982796 11
1.4022586 1.7980417 -0.11710324 9
1.4103965 1.8078256 -0.038961977 11
1.4171958 1.8158875 0.60653532 16
1.4236935 1.8235569 0.5248636 9
1.4223489 1.821179 0.4413262 18
1.4312968 1.8319768 0.3617467 15
1.4201663 1.8170767 0.27847141 17
1.4378905 1.8390929 0.200894 17
1.4201359 1.815731 0.11880261 15
1.4190761 1.8137238 0.039529696 9
nan nan nan 0
1.3372699 1.7054839 -0.49151835 4
1.4322184 1.82592 -0.44323289 10
1.432043 1.8250401 -0.36136392 17
1.4454186 1.8414246 -0.2827372 16
1.4294343 1.8204069 -0.19915117 16
1.420864 1.8088424 -0.11814647 18
1.422876 1.8107531 -0.039134759 10
1.4294956 1.8185238 0.6091218 14
1.4330618 1.8224058 0.52598751 14
1.4317318 1.8200607 0.44227937 12
1.4407369 1.8308504 0.362528 17
1.4265006 1.8121083 0.27847141 14
1.4473829 1.8379756 0.20132977 11
1.4295553 1.8146851 0.11906429 16
1.428493 1.8126858 0.039616961 9
nan nan nan 0
1.343215 1.7008055 -0.49151835 4
1.441626 1.8247607 -0.44418606 10
1.4445289 1.8277792 -0.36292824 17
1.4579931 1.844154 -0.28395587 13
1.4419595 1.8232195 -0.20002273 17
1.4333656 1.8117033 -0.11866809 13
1.4353931 1.8136154 -0.039307538 17
1.4388326 1.8173093 0.61041504 15
1.4454644 1.825031 0.52823532 14
1.4411246 1.8188992 0.44323257 14
1.4501866 1.8296807 0.36330932 13
1.4389839 1.8148955 0.27969012 15
1.4568852 1.8368145 0.20176555 15
1.4451916 1.8214185 0.11984934 16
1.4410279 1.8155198 0.039791483 17
nan nan nan 0
1.3491437 1.6961064 -0.49151835 4
1.451043 1.8235582 -0.44513926 11
1.4539759 1.8265896 -0.36371043 15
1.4675131 1.8429357 -0.28456524 14
1.4514185 1.8220712 -0.20045851 18
1.4490161 1.818404 -0.11945052 14
1.4448314 1.8125032 -0.039393932 20
1.45119 1.8198283 0.61300153 15
1.4548644 1.8237829 0.52935922 16
1.4505264 1.8176941 0.44418573 15
1.4596455 1.8284668 0.36409062 13
1.4484069 1.8137393 0.28029948 16
1.4663968 1.8356097 0.20220132 16
1.4546578 1.8202633 0.12011101 18
1.4504777 1.8143834 0.039878745 22
nan nan nan 0
1.355056 1.6913868 -0.49151835 4
1.4604691 1.822312 -0.44609243 12
1.4665211 1.8292092 -0.36527479 15
1.4770421 1.8416734 -0.28517458 15
1.464004 1.824764 -0.20133008 14
1.4616054 1.8211231 -0.11997214 15
1.4574089 1.8152453 -0.039566711 14
1.4605579 1.8185172 0.61429483 14
1.4642731 1.8224912 0.53048313 15
1.4599373 1.8164454 0.44513896 13
1.4691137 1.8272095 0.36487195 11
1.4578398 1.8125396 0.28090885 15
1.4727954 1.8304797 0.20220132 14
1.4641337 1.8190641 0.1203727 19
1.4599378 1.8132031 0.03996601 33
nan nan nan 0
1.3634211 1.6909142 -0.49264312 4
1.4692683 1.8215351 -0.44704565 11
1.4753617 1.8284363 -0.36605695 14
1.4859378 1.8408859 -0.28578395 13
1.4728587 1.8240311 -0.20176587 13
1.470457 1.8204067 -0.12023295 13
1.4662465 1.814546 -0.0396531 12
1.4692999 1.8176758 0.61558807 13
1.4699914 1.8178822 0.53048313 14
1.4687235 1.815666 0.44609213 12
1.4779534 1.8264241 0.36565322 11
1.4697717 1.8156651 0.28212753 15
1.4816735 1.8297148 0.20263711 15
1.4761271 1.8222153 0.12089606 18
1.4719218 1.8163759 0.040140532 31
1.1747273 1.4470494 -0.48916823 3
1.3693151 1.6861446 -0.49264312 4
1.4787127 1.820205 -0.44799879 10
1.4848498 1.8271077 -0.36683914 14
1.4954849 1.8395383 -0.28639328 15
1.4823595 1.8227429 -0.20220163 13
1.4831047 1.8230093 -0.12075458 14
1.4788829 1.8171719 -0.039825883 13
1.4786855 1.8162817 0.61688131 14
1.4794048 1.8165177 0.53160703 14
1.4781528 1.8143336 0.44704533 7
1.4874399 1.8250822 0.36643454 12
1.4792365 1.81437 0.28273687 13
1.4880514 1.8245316 0.20263711 13
1.4856355 1.8209203 0.12115774 15
1.4814143 1.8151 0.040227797 29
nan nan nan 0
1.3785709 1.6848849 -0.49376786 4
1.4915918 1.8223696 -0.44990519 10
1.4946649 1.825474 -0.36762127 14
1.5053619 1.8378842 -0.28700262 13
1.4953439 1.8250033 -0.20307319 12
1.4929416 1.8214229 -0.12101538 13
1.488703 1.8156052 -0.039912272 13
1.4914584 1.8183184 0.61946785 14
1.4922336 1.8186159 0.53385484 14
1.4879066 1.8126973 0.44799849 7
1.4972529 1.8234348 0.36721584 12
1.4921765 1.8166058 0.28395554 13
1.5010531 1.8267622 0.20350866 11
1.4954699 1.8193202 0.12141941 16
1.491232 1.8135192 0.040315058 23
1.1942642 1.4497894 -0.49305049 3
1.3875424 1.6838225 -0.49489263 4
1.5010661 1.8209393 -0.45085838 11
1.5041698 1.8240557 -0.36840346 14
1.5149261 1.8364464 -0.28761196 14
1.5080459 1.827456 -0.20394474 14
1.505648 1.8239018 -0.12153699 14
1.498215 1.8142525 -0.039998662 11
1.5039487 1.8205484 0.62205434 15
1.5016762 1.8171515 0.53497875 15
1.4973525 1.8112757 0.44895169 8
1.5036088 1.8181974 0.36721584 12
1.501672 1.8152101 0.28456491 14
1.5105959 1.8253486 0.20394443 13
1.5081797 1.8217815 0.12194277 15
1.4975535 1.8083028 0.040315058 27
1.1808153 1.4233098 -0.48528594 4
1.3965226 1.6827176 -0.49601737 3
1.5136838 1.8232414 -0.45276478 8
1.513683 1.8225931 -0.36918563 14
1.5244986 1.8349643 -0.28822133 13
1.5175993 1.8260117 -0.20438054 11
1.5151976 1.8224746 -0.12179781 11
1.5077355 1.8128552 -0.040085051 12
1.5102944 1.8152875 0.62205434 16
1.5111269 1.8156434 0.53610265 17
1.5068064 1.8098098 0.44990486 13
1.5131071 1.8167326 0.36799717 13
1.5111759 1.8137701 0.28517425 13
1.5201478 1.8238909 0.20438023 13
1.5177273 1.8203408 0.12220446 16
1.5070586 1.8069036 0.040402319 27
1.1888731 1.4228857 -0.48658001 4
1.402388 1.6778326 -0.49601737 3
1.5263356 1.8254775 -0.45467114 14
1.5232043 1.8210864 -0.36996782 14
1.5340793 1.8334377 -0.28883067 13
1.5271611 1.8245225 -0.20481631 14
1.5247556 1.8210028 -0.12205861 15
1.5172644 1.8114136 -0.040171444 13
1.5166217 1.8100046 0.62205434 10
1.5205851 1.8140913 0.53722656 13
1.5194219 1.8120613 0.45181125 12
1.5226132 1.8152233 0.36877847 13
1.5206879 1.8122858 0.28578362 14
1.5329098 1.8262037 0.20525178 13
1.527283 1.8188556 0.12246613 15
1.5165721 1.80546 0.04048958 26
1.2311475 1.4630713 -0.50210917 3
1.4113737 1.6766545 -0.49714214 3
1.5421832 1.8314017 -0.45753068 11
1.5327333 1.8195353 -0.37074998 14
1.5468657 1.8356615 -0.29004934 13
1.536731 1.822989 -0.2052521 13
1.5343217 1.8194864 -0.12231942 15
1.5268016 1.8099273 -0.04025783 12
1.5135859 1.7936258 0.61817455 4
1.5206227 1.8013269 0.53497875 6
1.5320716 1.8142467 0.45371762 6
1.5321274 1.8136703 0.36955979 13
1.5302078 1.8107568 0.28639293 13
1.5424906 1.8246454 0.20568755 13
1.5368469 1.8173259 0.12272782 15
1.526094 1.8039719 0.040576845 24
1.1862878 1.3998132 -0.48140365 3
1.420368 1.6754335 -0.49826688 3
1.5549157 1.8334942 -0.45943707 11
1.5422701 1.8179398 -0.37153217 14
1.5564752 1.8340347 -0.29065871 14
1.543085 1.8176137 -0.2052521 13
1.5438958 1.8179256 -0.12258023 15
1.5363469 1.8083969 -0.040344223 11
nan nan nan 0
1.5205898 1.788584 0.53273094 3
1.544755 1.8163656 0.45562398 5
1.5384488 1.8083111 0.36955979 13
1.5365192 1.8054044 0.28639293 14
1.5520793 1.8230428 0.20612334 12
1.5464187 1.8157518 0.12298949 17
1.5356237 1.8024393 0.040664103 26
1.1598136 1.3589278 -0.46846268 4
1.4262077 1.6704654 -0.49826688 3
1.5613065 1.8280553 -0.45943707 10
1.5486065 1.8125452 -0.37153217 14
1.5660919 1.8323629 -0.29126805 13
1.5526572 1.8160022 -0.20568787 14
1.5534775 1.8163198 -0.12284105 14
1.5459001 1.8068216 -0.040430613 11
1.5668983 1.8307172 0.63498682 2
1.555342 1.816573 0.54284608 4
1.5574715 1.8184178 0.45753035 3
1.5479648 1.80668 0.37034109 13
1.5460416 1.8037982 0.2870023 14
1.5616757 1.8213953 0.20655911 13
1.5559982 1.8141327 0.12325118 15
1.5451615 1.8008622 0.040751368 26
nan nan nan 0
1.43203 1.6654767 -0.49826688 3
1.567678 1.8225943 -0.45943707 9
1.558145 1.8108717 -0.3723143 14
1.5757159 1.8306464 -0.29187742 13
1.5589868 1.8105713 -0.20568787 13
1.5598083 1.8108861 -0.12284105 13
1.555461 1.8052019 -0.040517002 12
nan nan nan 0
1.5712181 1.8222021 0.5462178 3
1.5734273 1.8241205 0.46038994 5
1.5574881 1.8050046 0.37112242 12
1.5523286 1.7983905 0.2870023 14
1.5712794 1.8197029 0.20699489 11
1.5623213 1.8086902 0.12325118 15
1.5547066 1.79924 0.040838629 27
nan nan nan 0
1.4314566 1.6531019 -0.49601737 3
1.5772442 1.8208208 -0.46039027 8
1.5676908 1.8091542 -0.3730965 14
1.5853471 1.8288848 -0.29248673 13
1.5685606 1.8088816 -0.20612365 13
1.5693917 1.809202 -0.12310185 14
1.5617529 1.7997612 -0.040517002 12
nan nan nan 0
1.5935414 1.8350998 0.55183733 2
1.5894415 1.8297333 0.46324947 3
1.5670186 1.8032848 0.37190372 12
1.5618526 1.7967063 0.28761163 13
1.5776217 1.8142071 0.20699489 14
1.5719023 1.8069928 0.12351285 15
1.5642596 1.7975734 0.04092589 25
1.2342789 1.4158783 -0.49305049 3
1.4340163 1.6444236 -0.49489263 4
1.5835904 1.8153042 -0.46039027 8
1.5804905 1.8111126 -0.37466085 14
1.5949852 1.8270786 -0.2930961 13
1.5781415 1.807147 -0.20655942 14
1.5756974 1.8037127 -0.12310185 14
1.5713154 1.798063 -0.040603392 11
nan nan nan 0
1.6031446 1.8331937 0.55296123 2
1.6055142 1.8352567 0.46610907 3
1.5765561 1.8015202 0.37268505 12
1.5713836 1.7949774 0.288221 15
1.5872264 1.8124362 0.20743066 13
1.5814905 1.8052506 0.12377454 16
1.5738196 1.795862 0.041013151 28
1.2426471 1.4149737 -0.49434459 3
1.433603 1.6318365 -0.49264312 3
1.5902332 1.8094878 -0.46039027 6
1.5903785 1.8090163 -0.37544301 14
1.6049483 1.8249468 -0.29370543 13
1.5880445 1.8050904 -0.20699522 13
1.5855967 1.8016739 -0.12336266 14
1.5811986 1.7960441 -0.040689785 12
nan nan nan 0
1.6227355 1.8419282 0.55745685 12
1.6219658 1.8404069 0.46896866 16
1.5864142 1.7994342 0.37346631 12
1.5812345 1.792928 0.28883031 14
1.597154 1.8103417 0.20786645 13
1.5914004 1.8031858 0.12403621 16
1.5837001 1.7938293 0.041100416 29
1.23798 1.3997743 -0.4904623 3
1.432834 1.6195247 -0.49039361 3
1.5997926 1.8076012 -0.46134344 5
1.6032307 1.810849 -0.37700737 14
1.6145993 1.8230487 -0.2943148 13
1.5976387 1.8032641 -0.20743097 13
1.591876 1.7961282 -0.12336266 14
1.5907747 1.7942545 -0.040776171 12
1.6117438 1.8172669 0.64015985 17
1.6323886 1.8398972 0.55858076 20
1.6153477 1.8200501 0.4651559 16
1.5959648 1.7975788 0.37424764 12
1.5907789 1.7911081 0.28943968 14
1.6067717 1.808479 0.20830221 14
1.6010021 1.8013518 0.12429789 16
1.589952 1.7882903 0.041100416 26
1.2557073 1.4098706 -0.4956387 3
1.4449604 1.6217883 -0.49264312 3
1.619156 1.8166628 -0.46515623 5
1.6128286 1.8089279 -0.37778956 14
1.6242563 1.8211051 -0.29492414 13
1.6105558 1.8051099 -0.20830254 13
1.6014607 1.7942857 -0.12362346 14
1.6003578 1.79242 -0.040862564 12
1.6116428 1.8044254 0.63757336 15
1.6193243 1.812389 0.55183733 18
1.61842 1.8107407 0.4642027 15
1.6055214 1.7956784 0.37502894 12
1.6003296 1.7892432 0.29004902 15
1.6163962 1.8065716 0.208738 14
1.6106102 1.7994727 0.12455957 16
1.5995194 1.7864538 0.041187678 28
1.2573962 1.4018835 -0.49434459 3
1.4571198 1.623987 -0.49489263 3
1.6320446 1.8183053 -0.46706262 7
1.6224324 1.8069615 -0.37857169 14
1.6339194 1.8191164 -0.29553348 14
1.6201762 1.8031821 -0.20873833 13
1.6110523 1.7923983 -0.12388428 15
1.6099471 1.7905401 -0.040948953 12
1.6211616 1.8023798 0.6388666 16
1.6158646 1.7958603 0.54846561 14
1.6181635 1.797784 0.46229634 17
1.6150844 1.7937335 0.37581027 12
1.609887 1.7873337 0.29065838 14
1.6260265 1.8046186 0.20917377 14
1.6202247 1.7975487 0.12482125 16
1.6090932 1.7845724 0.041274939 28
1.2620381 1.3977062 -0.49434459 3
1.4654794 1.6230171 -0.49601737 3
1.6607788 1.8386657 -0.47373492 7
1.6314119 1.8055197 -0.37935388 14
1.642954 1.8176559 -0.29614282 14
1.6291735 1.8017777 -0.2091741 13
1.6200246 1.7910311 -0.12414508 14
1.6189185 1.7891806 -0.041035343 12
1.6332984 1.8044395 0.64145315 19
1.614958 1.7835518 0.5462178 16
1.6205083 1.7890536 0.46134311 12
1.6240276 1.7923101 0.37659156 13
1.6188271 1.7859443 0.29126769 14
1.6350337 1.8031914 0.20960957 14
1.6258639 1.7924497 0.12482125 16
1.6146916 1.7795085 0.041274939 27
1.2666662 1.3935133 -0.49434459 3
1.4744135 1.6214964 -0.49714214 3
1.6638843 1.8292267 -0.47278175 6
1.6377044 1.7998141 -0.37935388 14
1.6526295 1.81558 -0.29675218 13
1.635453 1.7960799 -0.2091741 13
1.6296293 1.7890568 -0.1244059 14
1.6285212 1.7872137 -0.041121732 12
1.6363332 1.7951577 0.64015985 17
1.6310222 1.7887039 0.54958951 20
1.6300511 1.7870125 0.46229634 12
1.6336029 1.7902783 0.37737289 12
1.6283971 1.7839478 0.29187706 14
1.6446766 1.8011512 0.21004534 13
1.6354783 1.7904501 0.12508292 16
1.6242656 1.7775517 0.0413622 28
1.2717651 1.3888614 -0.49434459 3
1.4836372 1.6196738 -0.49826688 3
1.6672615 1.8194972 -0.47182852 5
1.647627 1.7974398 -0.38013604 14
1.6659809 1.816826 -0.29797086 14
1.6453919 1.7937442 -0.20960988 13
1.6395512 1.7867508 -0.1246667 14
1.6384414 1.784916 -0.041208126 12
1.6461687 1.7927058 0.64145315 18
1.6441591 1.7898902 0.55183733 16
1.6399109 1.7846401 0.46324947 12
1.6434957 1.7879148 0.37815419 13
1.6382837 1.7816205 0.2924864 14
1.6546392 1.798777 0.21048112 13
1.6454108 1.788118 0.12534462 16
1.6341558 1.7752647 0.041449465 27
1.2733314 1.3808632 -0.49305049 3
1.4925854 1.6180662 -0.49939165 3
1.6736026 1.8136661 -0.47182852 5
1.657241 1.7953064 -0.38091823 14
1.6756797 1.8146458 -0.29858023 14
1.6550232 1.7916486 -0.21004565 13
1.6525557 1.7883512 -0.12518832 14
1.6480554 1.7828568 -0.041294511 13
1.6524163 1.7869487 0.64145315 19
1.6570137 1.7912929 0.55408514 17
1.6461304 1.7789049 0.46324947 12
1.6530815 1.7857912 0.37893552 13
1.6478647 1.7795326 0.29309577 15
1.6642931 1.7966443 0.21091689 14
1.6550361 1.7860259 0.12560628 16
1.6471398 1.7768825 0.041623987 27
1.2783839 1.376187 -0.49305049 3
1.4985058 1.6125847 -0.49939165 3
1.6835805 1.8111149 -0.47278175 5
1.667173 1.7928369 -0.38170043 14
1.6856993 1.8121252 -0.29918957 14
1.6649721 1.7892172 -0.21048145 12
1.6625013 1.7859371 -0.12544914 14
1.6545788 1.7768043 -0.041294511 11
1.6622468 1.7844142 0.64274633 20
1.6668897 1.7887721 0.55520904 17
1.6559864 1.7764498 0.4642027 12
1.6629837 1.783332 0.37971681 12
1.6577611 1.7771095 0.29370511 14
1.6742654 1.7941742 0.21135268 12
1.6683856 1.787248 0.12612964 15
1.6570532 1.774487 0.041711248 25
1.2798806 1.3681892 -0.49175641 3
1.5041256 1.6073442 -0.49939165 3
1.6898923 1.8052272 -0.47278175 5
1.6767967 1.790611 -0.38248259 14
1.6954075 1.8098521 -0.29979894 13
1.6746132 1.7870289 -0.2109172 13
1.6721402 1.7837658 -0.12570994 14
1.6641908 1.7746648 -0.041380905 12
1.6717699 1.7821234 0.64403963 20
1.6797911 1.7900481 0.55745685 16
1.6655366 1.7742374 0.4651559 12
1.6725794 1.7811166 0.38049814 12
1.6673522 1.7749293 0.29431444 14
1.6839288 1.7919486 0.21178845 13
1.6780341 1.7850513 0.12639134 16
1.666667 1.7723296 0.04179851 28
1.2846488 1.3637133 -0.49175641 3
1.5097271 1.6020839 -0.49939165 3
1.6961834 1.7993174 -0.47278175 4
1.6864249 1.7883399 -0.38326478 14
1.7051202 1.8075329 -0.30040827 14
1.6842595 1.784795 -0.211353 13
1.6817842 1.7815491 -0.12597075 14
1.6738077 1.7724795 -0.041467294 12
1.6779804 1.7762772 0.64403963 19
1.6893755 1.7877147 0.55858076 17
1.6750914 1.7719793 0.46610907 12
1.685573 1.7824439 0.38206074 12
1.6803584 1.7763087 0.29553315 14
1.6935972 1.7896775 0.21222423 13
1.6876874 1.782809 0.126653 15
1.6762758 1.7701354 0.041885771 28
1.2894012 1.3592206 -0.49175641 3
1.5119566 1.5932702 -0.49826688 3
1.702454 1.7933855 -0.47278175 4
1.6960576 1.7860233 -0.38404691 14
1.7148373 1.805168 -0.30101761 14
1.6939104 1.7825155 -0.21178877 13
1.6879927 1.7756675 -0.12597075 14
1.6834297 1.7702488 -0.041553684 12
1.6874995 1.7739084 0.64533287 17
1.6989642 1.7853361 0.55970466 16
1.6846509 1.7696764 0.46706229 13
1.6951904 1.7801256 0.38284209 12
1.6899718 1.7740256 0.29614249 14
1.7032704 1.7873608 0.21266001 14
1.6973455 1.7805213 0.12691469 16
