# .PCD v0.7 - Point Cloud Data file format
VERSION 0.7
FIELDS x y z intensity
SIZE 4 4 4 4
TYPE F F F F
COUNT 1 1 1 1
WIDTH 1319
HEIGHT 1
VIEWPOINT 0 0 0 1 0 0 0
POINTS 1319
DATA ascii
-0.62160927 2.1706676 -0.03835725 6
-0.62445611 2.1820481 0.5974825 14
-0.62541616 2.1868453 0.51587236 14
-0.62421232 2.184078 0.43370065 13
-0.62625796 2.1926837 0.3547149 13
-0.62071234 2.1747043 0.27298734 13
-0.62803954 2.2018318 0.19697198 12
-0.62231988 2.183224 0.11697085 8
-0.61994559 2.1763351 0.038831603 6
-0.53543586 1.8859063 -0.51505011 4
-0.60485268 2.1318216 -0.50276589 4
-0.62365329 2.1995468 -0.43656054 14
-0.62030107 2.1891797 -0.35432434 12
-0.62291676 2.1998746 -0.27603436 11
-0.62071419 2.1935568 -0.19610073 13
-0.61775154 2.1845419 -0.11658162 8
-0.6167475 2.182446 -0.038530029 5
-0.61552298 2.1795666 0.59618932 14
-0.61645561 2.1843264 0.51474845 14
-0.61525232 2.1815195 0.43274748 13
-0.61726058 2.1901031 0.35393357 15
-0.61177206 2.1720812 0.27237797 13
-0.61900038 2.1992159 0.1965362 13
-0.61199123 2.1757696 0.11644749 9
-0.60963935 2.1688602 0.038657077 7
-0.52852005 1.8878561 -0.51505011 3
-0.59703511 2.1340239 -0.50276589 4
-0.6142658 2.1970909 -0.43560734 13
-0.61094433 2.1866822 -0.35354218 12
-0.61351502 2.1973631 -0.27542502 10
-0.61133158 2.1910191 -0.19566494 12
-0.60839957 2.181982 -0.11632082 7
-0.61411184 2.2039552 -0.038875591 4
-0.60623473 2.177155 0.59489602 14
-0.60713941 2.1818774 0.51362455 14
-0.60593754 2.1790309 0.43179429 13
-0.60790706 2.1875927 0.35315228 15
-0.60247892 2.1695271 0.27176863 14
-0.60960376 2.1966705 0.19610043 13
-0.60401255 2.1779981 0.11644749 9
-0.59901577 2.1614449 0.038482554 7
-0.521927 1.8896894 -0.51505011 3
-0.58958232 2.136095 -0.50276589 4
-0.60528773 2.19449 -0.43465418 13
-0.60199535 2.1840405 -0.35275999 12
-0.60452318 2.1947064 -0.27481568 10
-0.60367978 2.1931398 -0.19566494 13
-0.599455 2.1792779 -0.11606 7
-0.61966532 2.2542896 -0.03973949 12
-0.59863132 2.1792579 0.59489602 14
-0.59822977 2.179285 0.51250064 14
-0.5983277 2.1811328 0.43179429 14
-0.59896153 2.1849382 0.35237095 13
-0.59359097 2.1668303 0.27115926 13
-0.60061705 2.1939807 0.19566463 13
-0.59508872 2.1752772 0.11618582 9
-0.58883059 2.1538782 0.038308028 7
-0.51786667 1.9008194 -0.51763833 3
-0.58212233 2.13814 -0.50276589 4
-0.59762383 2.1965895 -0.43465418 13
-0.59307235 2.1813631 -0.35197783 12
-0.59555739 2.1920147 -0.27420634 9
-0.5947156 2.1904268 -0.19522917 13
-0.59053683 2.1765382 -0.1157992 6
-0.60132688 2.2178388 -0.03904837 9
-0.5897575 2.1766722 0.59360272 14
-0.58934569 2.1766572 0.51137674 14
-0.58942848 2.1784701 0.43084112 14
-0.59004205 2.1822486 0.35158965 14
-0.58472925 2.1640983 0.27054995 13
-0.59165657 2.1912551 0.19522887 13
-0.58749193 2.177341 0.11618582 10
-0.57349968 2.1269593 0.037784457 8
-0.50496209 1.8792945 -0.51116782 4
-0.57465529 2.1401591 -0.50276589 4
-0.58868057 2.1939216 -0.43370095 13
-0.58417529 2.1786501 -0.35119566 12
-0.58661771 2.1892862 -0.27359697 10
-0.58577752 2.1876779 -0.19479337 13
-0.58164495 2.1737628 -0.11553839 5
-0.59099883 2.2102652 -0.038875591 9
-0.58090919 2.1740515 0.59230953 14
-0.58048737 2.1739943 0.51025283 14
-0.5805552 2.175772 0.42988792 14
-0.58114862 2.179523 0.35080832 15
-0.57589376 2.1613307 0.26994058 14
-0.58400398 2.1933072 0.19522887 13
-0.57988805 2.1793785 0.11618582 10
-0.56992561 2.1434424 0.038046245 7
-0.50796002 1.9184827 -0.52152056 3
-0.56680739 2.1422508 -0.50276589 4
-0.58063549 2.1960645 -0.43370095 13
-0.57492483 2.176002 -0.3504135 12
-0.57858962 2.1914215 -0.27359697 10
-0.57775539 2.1898103 -0.19479337 12
-0.57240093 2.171052 -0.11527758 6
-0.5816201 2.207582 -0.038789198 9
-0.57170731 2.1714954 0.59101623 13
-0.57251531 2.1761072 0.51025283 14
-0.57132876 2.1731384 0.42893475 14
-0.5719015 2.176862 0.35002702 14
-0.56670809 2.158627 0.26933125 14
-0.57469726 2.1906149 0.19479308 13
-0.57063007 2.1766593 0.11592413 10
-0.56206566 2.1455171 0.038046245 7
-0.50247997 1.9249172 -0.52281469 3
-0.55932605 2.1442163 -0.50276589 4
-0.57172823 2.1933284 -0.43274778 12
-0.56732559 2.1779957 -0.3504135 12
-0.56968653 2.1886253 -0.27298763 10
-0.56885415 2.1869934 -0.1943576 12
-0.56230682 2.1633713 -0.11475597 5
-0.57265389 2.2047603 -0.038702808 9
-0.56412387 2.1734779 0.59101623 14
-0.56369263 2.1733763 0.50912893 13
-0.5637396 2.1751194 0.42893475 14
-0.56306112 2.1740639 0.3492457 15
-0.55792624 2.1557872 0.26872188 14
-0.56704706 2.1926076 0.19479308 12
-0.56177932 2.1738036 0.11566246 10
-0.55581647 2.1523077 0.038133506 8
nan nan nan 0
-0.55062479 2.1414375 -0.50164115 4
-0.56284714 2.1905565 -0.43179458 13
-0.55849135 2.1751792 -0.34963131 11
-0.56080997 2.1857934 -0.27237827 10
-0.55997956 2.1841404 -0.19392182 12
-0.55723029 2.1749952 -0.11527758 5
-0.56371444 2.2019024 -0.038616419 10
-0.55533648 2.1707547 0.58972305 14
-0.55489606 2.1706107 0.50800502 13
-0.55492866 2.1723182 0.42798153 14
-0.5554688 2.1760161 0.3492457 15
-0.54917115 2.1529133 0.26811254 15
-0.55815977 2.1897471 0.19435731 14
-0.55295545 2.1709127 0.11540078 10
-0.54707354 2.1493886 0.038046245 9
nan nan nan 0
-0.54314643 2.1433465 -0.50164115 4
-0.55399239 2.1877501 -0.43084142 13
-0.54968375 2.1723282 -0.34884915 12
-0.5531767 2.1877379 -0.27237827 11
-0.55235207 2.1860816 -0.19392182 11
-0.55207944 2.1866095 -0.1157992 5
-0.55602491 2.2038569 -0.038616419 10
-0.54657507 2.1679966 0.58842975 14
-0.54612565 2.16781 0.50688112 14
-0.54614431 2.1694825 0.42702836 13
-0.54666489 2.1731524 0.34846443 15
-0.54044282 2.1500039 0.2675032 14
-0.54929924 2.186851 0.19392152 14
-0.54415864 2.1679869 0.1151391 12
-0.53956747 2.1512852 0.038046245 10
nan nan nan 0
-0.53448117 2.1405025 -0.50051636 4
-0.54516405 2.1849079 -0.42988822 13
-0.54090279 2.1694419 -0.34806696 11
-0.54433697 2.18484 -0.27176896 11
-0.54351461 2.1831632 -0.19348605 11
-0.54685426 2.1982143 -0.11632082 12
-0.54712266 2.2009327 -0.038530029 10
-0.53900403 2.1698911 0.58842975 14
-0.53738147 2.1649745 0.50575721 14
-0.53738642 2.1666114 0.42607516 13
-0.53788781 2.170254 0.3476831 15
-0.53293461 2.1518774 0.2675032 15
-0.54046583 2.1839201 0.19348575 14
-0.53538901 2.1650259 0.11487742 10
-0.53085548 2.1483021 0.037958983 11
-0.47093707 1.9129869 -0.51763833 3
-0.52700615 2.1423552 -0.50051636 4
-0.53753394 2.1867976 -0.42988822 12
-0.53214878 2.1665208 -0.34728479 12
-0.53552419 2.1819069 -0.27115959 10
-0.53589064 2.1850471 -0.19348605 10
-0.54155475 2.2098091 -0.11684243 11
-0.53824747 2.1979733 -0.038443636 11
-0.53027838 2.167068 0.58713651 13
-0.52982104 2.166837 0.50575721 15
-0.52865535 2.1637061 0.42512199 13
-0.5303089 2.1721182 0.3476831 15
-0.52424377 2.1489031 0.26689386 15
-0.53283924 2.1857934 0.19348575 14
-0.5278284 2.1668816 0.11487742 12
-0.52217096 2.1452844 0.037871718 11
nan nan nan 0
-0.51952469 2.1441817 -0.50051636 4
-0.52874243 2.1838903 -0.42893505 13
-0.52342176 2.1635652 -0.3465026 13
-0.52790463 2.183763 -0.27115959 10
-0.52709055 2.1820626 -0.19305027 10
-0.53500926 2.2165396 -0.11710324 10
-0.52939975 2.194979 -0.03835725 11
-0.52271068 2.168906 0.58713651 14
-0.52111346 2.1639366 0.50463331 13
-0.51995105 2.1607664 0.4241688 15
-0.52156907 2.1691546 0.3469018 14
-0.51673949 2.1507201 0.26689386 15
-0.52404332 2.1827965 0.19304997 14
-0.51909649 2.1638553 0.11461575 12
-0.51467931 2.1470942 0.037871718 11
-0.46766591 1.9585059 -0.52928513 3
-0.51316774 2.1507211 -0.50164115 4
-0.51997769 2.1809483 -0.42798182 13
-0.51472187 2.1605754 -0.34572047 13
-0.51912946 2.1807647 -0.27055025 11
-0.51947051 2.1838892 -0.19305027 10
-0.52726883 2.2183936 -0.11710324 10
-0.5205794 2.1919494 -0.038270857 12
-0.5140214 2.1660178 0.58584327 14
-0.51355678 2.1657424 0.50463331 14
-0.51127374 2.1577921 0.42321563 14
-0.51285625 2.1661561 0.34612048 14
-0.50808638 2.1476815 0.2662845 14
-0.51642072 2.1846125 0.19304997 15
-0.51039225 2.1607947 0.11435406 12
-0.50603306 2.1440122 0.037784457 12
-0.45087886 1.9178135 -0.51763833 3
-0.50677127 2.1572418 -0.50276589 4
-0.51123989 2.1779716 -0.42702866 13
-0.50717694 2.1623588 -0.34572047 12
-0.51151401 2.1825635 -0.27055025 11
-0.51070851 2.1808395 -0.1926145 9
-0.5183844 2.215359 -0.11684243 10
-0.51064855 2.1840174 -0.038098078 11
-0.5053587 2.163096 0.58455002 14
-0.50488627 2.1627774 0.5035094 14
-0.50262356 2.1547835 0.4222624 13
-0.50417089 2.1631236 0.34533918 14
-0.49946085 2.1446085 0.26567516 13
-0.50766295 2.1815505 0.1926142 14
-0.5028466 2.1625631 0.11435406 12
-0.498546 2.1457655 0.037784457 12
-0.44091502 1.9052598 -0.51375604 4
-0.49923798 2.1589978 -0.50276589 4
-0.50252932 2.1749606 -0.42607546 13
-0.49851483 2.1593041 -0.34493828 12
-0.5027768 2.1794999 -0.26994088 11
-0.50197399 2.1777554 -0.19217871 9
-0.50952744 2.2122891 -0.11658162 10
-0.50190067 2.1809149 -0.038011689 13
-0.49672258 2.1601396 0.58325672 15
-0.49624261 2.1597781 0.5023855 14
-0.49509886 2.1565249 0.4222624 14
-0.49551284 2.1600566 0.34455785 15
-0.49086291 2.1415014 0.26506582 14
-0.49893281 2.1784542 0.19217841 16
-0.49418092 2.1594381 0.11409239 13
-0.48993841 2.1426189 0.037697192 13
-0.43747908 1.9209145 -0.51763833 3
-0.4927797 2.165478 -0.50389069 4
-0.49384594 2.1719153 -0.42512229 13
-0.48988035 2.1562154 -0.34415612 12
-0.49516585 2.1812415 -0.26994088 10
-0.49436915 2.1794941 -0.19217871 9
-0.50069839 2.2091846 -0.11632082 10
-0.4920764 2.1729019 -0.03783891 10
-0.48811337 2.1571496 0.58196354 14
-0.48762619 2.1567452 0.50126159 14
-0.48648661 2.1534522 0.42130923 14
-0.48688245 2.156956 0.34377655 15
-0.48229283 2.1383607 0.26445645 15
-0.49023056 2.1753232 0.19174264 16
-0.48664007 2.16115 0.11409239 13
-0.48245627 2.1443162 0.037697192 12
-0.42971519 1.9177171 -0.51634425 3
-0.48521778 2.1671848 -0.50389069 4
-0.48626152 2.1736259 -0.42512229 13
-0.48127344 2.1530926 -0.34337392 12
-0.48646715 2.1781135 -0.26933157 10
-0.48567343 2.1763451 -0.19174294 9
-0.49189711 2.2060452 -0.11606 11
-0.48340139 2.1697266 -0.037752517 11
-0.47953105 2.1541259 0.58067024 14
-0.47903693 2.1536784 0.50013769 14
-0.47896668 2.1551373 0.42130923 14
-0.4793503 2.1586423 0.34377655 15
-0.47482559 2.1400313 0.26445645 15
-0.48155615 2.1721585 0.19130686 15
-0.47801343 2.1579604 0.1138307 13
-0.47388798 2.1411061 0.037609935 13
-0.42197889 1.914489 -0.51505011 3
-0.47764993 2.1688652 -0.50389069 4
-0.47761637 2.1705163 -0.42416909 12
-0.47375479 2.1547594 -0.34337392 12
-0.47779629 2.1749508 -0.26872221 10
-0.47700572 2.173162 -0.19130714 9
-0.48205423 2.1979942 -0.11553839 11
-0.4747546 2.1665175 -0.037666127 11
-0.47200882 2.1557865 0.58067024 14
-0.47151628 2.1553376 0.50013769 15
-0.47039279 2.1520009 0.42035604 15
-0.47075856 2.1554775 0.34299523 15
-0.46629456 2.136827 0.26384711 15
-0.47290993 2.1689596 0.19087109 16
-0.46941492 2.154737 0.11356901 13
-0.46641123 2.1427474 0.037609935 13
-0.41529351 1.9159503 -0.51505011 3
-0.47110742 2.1752806 -0.50501537 5
-0.46899891 2.1673732 -0.42321593 13
-0.46518686 2.1515734 -0.34259176 12
-0.46915352 2.1717551 -0.26811287 10
-0.46941704 2.1748137 -0.19130714 8
-0.47227359 2.1899016 -0.11501677 11
-0.465083 2.1583872 -0.037493344 13
-0.46346429 2.1526995 0.579377 14
-0.46296528 2.1522071 0.49901381 14
-0.46184671 2.1488314 0.41940287 15
-0.46219474 2.1522791 0.34221393 15
-0.45779166 2.1335893 0.26323774 16
-0.46429178 2.1657267 0.19043529 16
-0.46189064 2.1563623 0.11356901 14
-0.45788258 2.1394739 0.03752267 14
-0.40860307 1.9173883 -0.51505011 3
-0.46351141 2.1769118 -0.50501537 5
-0.46143052 2.1689973 -0.42321593 13
-0.45767364 2.1531839 -0.34259176 12
-0.46053883 2.1685247 -0.2675035 10
-0.46078882 2.1715667 -0.19087137 8
-0.46255544 2.1817677 -0.11449515 13
-0.45651004 2.1551068 -0.037406955 14
-0.45494708 2.1495788 0.57808375 14
-0.45544985 2.15381 0.49901381 14
-0.4533284 2.145628 0.41844967 14
-0.45467907 2.1538794 0.34221393 15
-0.45034122 2.1351743 0.26323774 16
-0.4557021 2.1624603 0.18999954 12
-0.45333198 2.1530757 0.11330734 14
-0.45041165 2.1410592 0.03752267 14
-0.40190765 1.9188029 -0.51505011 3
-0.45590973 2.1785166 -0.50501537 5
-0.45285183 2.1657901 -0.4222627 13
-0.4491449 2.1499343 -0.34180957 12
-0.45195246 2.165261 -0.26689416 10
-0.45218891 2.1682858 -0.19043559 8
-0.45289975 2.1735926 -0.11397354 10
-0.44796559 2.1517928 -0.037320562 14
-0.44645736 2.1464255 0.57679051 14
-0.44693756 2.1506166 0.49788988 14
-0.44583601 2.1471972 0.41844967 14
-0.44615471 2.1506178 0.3414326 15
-0.44187817 2.1318741 0.26262844 15
-0.44714084 2.1591604 0.18956374 12
-0.44581357 2.154645 0.11330734 14
-0.44191661 2.1377242 0.037435409 14
-0.39487219 1.9202631 -0.51505011 3
-0.44792202 2.1801729 -0.50501537 5
-0.44392386 2.1626275 -0.42130953 13
-0.44026983 2.1467285 -0.34102744 11
-0.44401336 2.166903 -0.26689416 9
-0.44323972 2.1650491 -0.18999982 7
-0.44292888 2.1654541 -0.11345191 10
-0.4390749 2.1485224 -0.037234176 15
-0.43858731 2.1480474 0.57679051 15
-0.43807834 2.1474667 0.496766 14
-0.43698296 2.1440077 0.4174965 14
-0.43826932 2.1522384 0.3414326 16
-0.43406147 2.1334794 0.26262844 15
-0.43823189 2.1559036 0.18912795 13
-0.43691963 2.1513712 0.11304566 14
-0.43408504 2.139328 0.037435409 15
-0.38721058 1.9168957 -0.51375604 3
-0.44030908 2.1817231 -0.50501537 6
-0.43637219 2.1641638 -0.42130953 12
-0.43277365 2.148252 -0.34102744 11
-0.43546751 2.1635745 -0.26628482 10
-0.43567961 2.1665831 -0.18999982 7
-0.43438375 2.1620915 -0.1131911 10
-0.4305886 2.1451402 -0.037147783 10
-0.4301368 2.1448295 0.57549721 15
-0.43057963 2.1489828 0.496766 15
-0.42853284 2.140707 0.41654328 15
-0.4297854 2.1489129 0.34065133 15
-0.42563915 2.1301148 0.26201907 15
-0.4297286 2.1525357 0.18869218 12
-0.42843065 2.1479867 0.11278398 14
-0.42563117 2.1359286 0.037348147 15
-0.38051701 1.9182358 -0.51375604 3
-0.43269074 2.1832469 -0.50501537 5
-0.42786184 2.1608591 -0.42035633 12
-0.42431381 2.1449051 -0.34024525 11
-0.42791256 2.1650815 -0.26628482 10
-0.42714918 2.1632037 -0.18956403 7
-0.42586765 2.1586959 -0.1129303 11
-0.4221313 2.1417253 -0.037061393 11
-0.42264733 2.1463177 0.57549721 14
-0.42213511 2.1456921 0.49564207 15
-0.42011115 2.1373737 0.41559011 15
-0.42133003 2.1455536 0.33987001 16
-0.41724563 2.1267178 0.26140973 14
-0.42221221 2.1540225 0.18869218 13
-0.41997051 2.1445687 0.1125223 14
-0.41817936 2.1374002 0.037348147 15
-0.37289557 1.9148116 -0.5124619 4
-0.42506716 2.1847439 -0.50501537 6
-0.41937989 2.1575212 -0.41940317 13
-0.41588265 2.141525 -0.33946306 11
-0.42035243 2.1665621 -0.26628482 9
-0.41959557 2.1646817 -0.18956403 7
-0.41832975 2.1601694 -0.1129303 11
-0.41275346 2.1333692 -0.036888614 11
-0.41423616 2.143038 0.57420403 14
-0.41371891 2.142369 0.49451819 15
-0.41264775 2.1388271 0.41559011 14
-0.41290334 2.1421618 0.33908868 15
-0.40888104 2.1232879 0.26080036 15
-0.41374964 2.1505916 0.1882564 13
-0.41248202 2.1460216 0.1125223 14
-0.40977311 2.1339371 0.037260886 15
-0.36620936 1.9161016 -0.5124619 4
-0.41743839 2.1862142 -0.50501537 6
-0.41184616 2.158972 -0.41940317 13
-0.4084048 2.1429636 -0.33946306 11
-0.41185895 2.163141 -0.26567549 9
-0.41110608 2.1612399 -0.18912823 6
-0.40985459 2.1567109 -0.11266948 11
-0.40437165 2.1298857 -0.036802221 11
-0.40585288 2.1397254 0.57291073 14
-0.40533108 2.1390133 0.49339426 15
-0.40426636 2.1354318 0.41463691 14
-0.40542328 2.1435902 0.33908868 15
-0.40146688 2.1247025 0.26080036 15
-0.40531623 2.1471283 0.18782063 13
-0.40406317 2.1425419 0.11226062 15
-0.40139613 2.1304417 0.037173621 15
-0.35951868 1.9173682 -0.5124619 4
-0.40980452 2.1876581 -0.50501537 7
-0.40340453 2.1555719 -0.41844994 13
-0.40001446 2.1395223 -0.33868089 10
-0.40430564 2.1645656 -0.26567549 9
-0.4026458 2.1577654 -0.18869248 6
-0.40140873 2.1532199 -0.11240868 13
-0.39601919 2.1263695 -0.036715835 11
-0.39749795 2.1363809 0.57161748 14
-0.39697167 2.1356251 0.49227038 14
-0.39591363 2.1320038 0.41368371 14
-0.39703745 2.1401365 0.33830738 15
-0.39314348 2.1212113 0.26019105 16
-0.39781889 2.1485302 0.18782063 13
-0.39567363 2.1390295 0.11199894 15
-0.39304864 2.126914 0.037086364 15
-0.35282362 1.9186115 -0.5124619 3
-0.40128544 2.184284 -0.50389069 8
-0.39587772 2.1569669 -0.41844994 13
-0.391653 2.1360478 -0.3378987 10
-0.39585325 2.161082 -0.26506612 9
-0.39511132 2.1591578 -0.18869248 6
-0.39299217 2.1496961 -0.11214787 13
-0.38859436 2.127739 -0.036715835 12
-0.38917124 2.133004 0.57032424 14
-0.38864085 2.1322048 0.49114645 15
-0.38758984 2.1285443 0.41273054 14
-0.38956457 2.1415095 0.33830738 16
-0.38484928 2.1176877 0.25958169 16
-0.38942692 2.1450047 0.18738484 13
-0.38820463 2.1403975 0.11199894 15
-0.38473064 2.123354 0.036999099 16
-0.34612426 1.9198314 -0.5124619 3
-0.3936584 2.1856713 -0.50389069 9
-0.38747689 2.1535048 -0.4174968 13
-0.38419443 2.1374018 -0.3378987 10
-0.38830727 2.1624506 -0.26506612 8
-0.38669255 2.1556211 -0.18825668 7
-0.38372436 2.1412251 -0.11162625 14
-0.38028377 2.1241612 -0.036629442 12
-0.38172328 2.1343496 0.57032424 14
-0.38119569 2.1335483 0.49114645 15
-0.3801575 2.1298842 0.41273054 15
-0.38122001 2.1379943 0.33752605 15
-0.37745482 2.1190181 0.25958169 15
-0.38106447 2.1414473 0.18694907 13
-0.37985691 2.1368234 0.11173727 15
-0.37644228 2.1197617 0.036911838 16
-0.33942068 1.9210279 -0.5124619 3
-0.38602659 2.187032 -0.50389069 9
-0.37910512 2.1500106 -0.41654357 13
-0.37587449 2.1338665 -0.33711654 10
-0.37989646 2.1589053 -0.26445675 8
-0.37830335 2.1520522 -0.18782091 7
-0.37538415 2.1376336 -0.11136544 11
-0.37286675 2.1254759 -0.036629442 13
-0.37343702 2.1309116 0.569031 15
-0.37290582 2.1300669 0.49002257 14
-0.37187493 2.1263633 0.41177732 14
-0.37290478 2.1344473 0.33674476 15
-0.36920258 2.1154342 0.25897235 16
-0.37358713 2.1427643 0.18694907 13
-0.37153897 2.1332173 0.11147558 15
-0.36904064 2.121063 0.036911838 16
-0.33271301 1.9222009 -0.5124619 3
-0.37839004 2.1883662 -0.50389069 10
-0.37076244 2.1464844 -0.41559041 13
-0.36758384 2.1302989 -0.33633435 10
-0.3723582 2.1602182 -0.26445675 8
-0.37078896 2.1533594 -0.18782091 7
-0.36622721 2.1290889 -0.11084383 12
-0.3645986 2.1218376 -0.036543053 12
-0.36517936 2.1274419 0.5677377 14
-0.3654682 2.1313555 0.49002257 15
-0.36445025 2.1276484 0.41177732 14
-0.36628485 2.1406035 0.33752605 15
-0.36181611 2.1167102 0.25897235 15
-0.3661052 2.1440554 0.18694907 13
-0.36409035 2.134501 0.11147558 15
-0.36163449 2.1223381 0.036911838 16
-0.32600126 1.9233507 -0.5124619 3
-0.37074894 2.1896739 -0.50389069 11
-0.36326757 2.1477654 -0.41559041 13
-0.35932276 2.1266997 -0.33555222 9
-0.36481535 2.1615047 -0.26445675 8
-0.36327007 2.1546407 -0.18782091 7
-0.35879305 2.1303544 -0.11084383 12
-0.35801914 2.1280272 -0.036629442 13
-0.35855147 2.1334667 0.569031 14
-0.35963941 2.1422279 0.49227038 14
-0.35783297 2.1337485 0.41273054 13
-0.35962644 2.14674 0.33830738 13
-0.35442519 2.1179602 0.25897235 15
-0.35944003 2.1502328 0.18738484 11
-0.35745975 2.1406841 0.11173727 14
-0.35504645 2.1285186 0.036999099 14
-0.32007599 1.9292414 -0.51375604 3
-0.3631033 2.1909544 -0.50389069 11
-0.35656989 2.1538625 -0.41654357 11
-0.35270274 2.1328132 -0.33633435 8
-0.3580769 2.1676612 -0.26506612 7
-0.3565577 2.16081 -0.18825668 7
-0.35216662 2.1365206 -0.11110463 10
-0.35302538 2.1440623 -0.036888614 10
-0.35266978 2.144237 0.57161748 12
-0.35294929 2.1482778 0.49339426 13
-0.3519724 2.1446714 0.41463691 13
-0.35292968 2.1528556 0.33908868 16
-0.34863397 2.1289792 0.26019105 12
-0.35273623 2.1563902 0.18782063 12
-0.35159558 2.1517746 0.11226062 14
-0.35003033 2.1445467 0.037260886 16
-0.31377578 1.935169 -0.51505011 3
-0.35507062 2.1922708 -0.50389069 12
-0.35024095 2.1648457 -0.41844994 11
-0.34724683 2.1487174 -0.33868089 8
-0.35171139 2.1787579 -0.26628482 7
-0.34942847 2.1670198 -0.18869248 11
-0.34592155 2.1476564 -0.11162625 10
-0.34675291 2.1552134 -0.037061393 14
-0.34634113 2.1550527 0.57420403 15
-0.34584534 2.1543674 0.49451819 15
-0.34488657 2.1507936 0.41559011 17
-0.34659892 2.1638877 0.34065133 34
-0.34239662 2.1400435 0.26140973 17
-0.34640244 2.167506 0.18869218 23
-0.34449369 2.1579792 0.1125223 24
-0.34452948 2.1606259 0.03752267 32
-0.30777523 1.9410225 -0.51634425 3
-0.34741598 2.1934967 -0.50389069 11
-0.34421608 2.175751 -0.42035633 14
-0.34128594 2.159672 -0.34024525 11
-0.34565151 2.1897764 -0.2675035 12
-0.34263775 2.1731465 -0.18912823 23
-0.33997634 2.1587155 -0.11214787 17
-0.34233522 2.1761649 -0.037406955 35
-0.34256515 2.180105 0.58067024 35
-0.33907852 2.1603746 0.49564207 35
-0.33889723 2.1616826 0.4174965 38
-0.33904341 2.1650846 0.34065133 35
-0.33569127 2.1461289 0.26201907 38
-0.33960319 2.1736228 0.18912795 38
-0.33849868 2.1690357 0.11304566 37
-0.33851877 2.1716955 0.037697192 60
-0.30207741 1.946805 -0.51763833 3
-0.34127018 2.1993914 -0.50501537 12
-0.33813083 2.1816721 -0.42130953 19
-0.33601049 2.1704943 -0.34180957 16
-0.34104553 2.2055647 -0.26933157 19
-0.33656925 2.1791348 -0.18956403 16
-0.33395422 2.1647077 -0.11240868 32
-0.33549693 2.1772296 -0.037406955 31
-0.33497971 2.1763966 0.579377 37
-0.33377045 2.1710601 0.49788988 36
-0.33284938 2.1675878 0.41844967 36
-0.33223996 2.1661389 0.34065133 32
-0.33045039 2.1569836 0.26323774 39
-0.33352634 2.1796029 0.18956374 39
-0.33243719 2.1750243 0.11330734 34
-0.33094665 2.1678052 0.037609935 33
-0.29634461 1.9525708 -0.5189324 4
-0.33359078 2.2005692 -0.50501537 10
-0.33051333 2.1828392 -0.42130953 14
-0.32917053 2.176537 -0.34259176 19
-0.33334464 2.206742 -0.26933157 16
-0.32821748 2.1753709 -0.18912823 19
-0.3263959 2.1658602 -0.11240868 25
-0.32640669 2.1685004 -0.037234176 31
-0.32594454 2.1680005 0.57679051 37
-0.32618999 2.1722119 0.49788988 36
-0.32455304 2.1638827 0.4174965 33
-0.32467669 2.1672854 0.34065133 39
-0.3229191 2.158124 0.26323774 38
-0.32591605 2.1807537 0.18956374 45
-0.32484293 2.1761713 0.11330734 40
-0.32264042 2.1640027 0.03752267 36
-0.28884512 1.9536943 -0.5189324 3
-0.32513878 2.201834 -0.50501537 9
-0.32141322 2.1792364 -0.42035633 13
-0.32081079 2.1777849 -0.34259176 15
-0.32486889 2.2080054 -0.26933157 17
-0.31913808 2.1716874 -0.18869248 23
-0.31735212 2.1621573 -0.11214787 26
-0.31735271 2.1647911 -0.037147783 33
-0.31691787 2.1644568 0.57549721 36
-0.31714198 2.1686277 0.496766 38
-0.31553257 2.1602561 0.41654328 35
-0.31563956 2.1636291 0.33987001 36
-0.31463015 2.159348 0.26323774 39
-0.31682286 2.1770599 0.18912795 45
-0.31576642 2.1724613 0.11304566 40
-0.31361067 2.1602783 0.037435409 34
-0.28271338 1.9594709 -0.52022654 3
-0.31745094 2.2029555 -0.50501537 10
-0.31310508 2.1754868 -0.41940317 12
-0.31320697 2.1788917 -0.34259176 14
-0.31715953 2.2091262 -0.26933157 18
-0.31084853 2.1678574 -0.18825668 18
-0.30909497 2.1583092 -0.11188706 27
-0.30837855 2.1559877 -0.036975004 34
-0.30867755 2.1607687 0.57420403 35
-0.30957013 2.1697216 0.496766 39
-0.3072975 2.1564851 0.41559011 35
-0.30738932 2.1598284 0.33908868 34
-0.30639234 2.1555202 0.26262844 38
-0.30922157 2.1781526 0.18912795 44
-0.30818123 2.1735504 0.11304566 41
-0.30465949 2.1514611 0.037260886 36
-0.27621397 1.9603977 -0.52022654 3
-0.30984893 2.1991179 -0.50389069 11
-0.30558512 2.1715991 -0.41844994 13
-0.30636021 2.1798646 -0.34259176 14
-0.30952799 2.2051969 -0.26872221 17
-0.30334499 2.1638908 -0.18782091 19
-0.30231294 2.1592696 -0.11188706 32
-0.30091149 2.1519949 -0.036888614 33
-0.30121973 2.1569443 0.57291073 35
-0.30207917 2.165858 0.49564207 38
-0.29984406 2.1525784 0.41463691 34
-0.30060253 2.1607835 0.33908868 34
-0.29961908 2.156472 0.26262844 37
-0.30169261 2.1741798 0.18869218 42
-0.30066589 2.1695621 0.11278398 40
-0.29722014 2.1474545 0.037173621 34
-0.26971155 1.9613029 -0.52022654 3
-0.30217069 2.200186 -0.50389069 10
-0.29800296 2.1726527 -0.41844994 13
-0.29807898 2.176028 -0.34180957 14
-0.3004832 2.19643 -0.2675035 17
-0.29511547 2.160001 -0.18738513 18
-0.29409876 2.1553643 -0.11162625 30
-0.29272279 2.1480789 -0.036802221 32
-0.2930375 2.1531971 0.57161748 35
-0.29386094 2.1620717 0.49451819 37
-0.29166812 2.1487482 0.41368371 31
-0.29239473 2.1569257 0.33830738 30
-0.29142392 2.1525867 0.26201907 37
-0.29343405 2.1702833 0.1882564 40
-0.29242268 2.1656499 0.1125223 36
-0.28838617 2.1385703 0.036999099 30
-0.26217875 1.962324 -0.52022654 3
-0.29307601 2.1965008 -0.50276589 11
-0.28901008 2.1689155 -0.4174968 13
-0.28907004 2.1722612 -0.34102744 12
-0.29139355 2.1926484 -0.26689416 15
-0.28616419 2.1561809 -0.18694936 16
-0.28516454 2.1515279 -0.11136544 24
-0.28381664 2.1442311 -0.036715835 26
-0.28413475 2.149518 0.57032424 28
-0.28491941 2.158354 0.49339426 30
-0.28277388 2.1449862 0.41273054 28
-0.28346598 2.153136 0.33752605 27
-0.2825096 2.1487694 0.26140973 31
-0.2844502 2.1664555 0.18782063 36
-0.28345597 2.1618061 0.11226062 34
-0.27887437 2.1297479 0.036824573 28
-0.25532734 1.9632273 -0.52022654 3
-0.28540701 2.1975105 -0.50276589 10
-0.2814374 2.1699111 -0.4174968 13
-0.2808513 2.1683593 -0.34024525 11
-0.2824648 2.1838086 -0.26567549 13
-0.27799788 2.1522267 -0.18651357 15
-0.27701381 2.1475577 -0.11110463 21
-0.27569142 2.1402502 -0.036629442 26
-0.27539733 2.1409161 0.5677377 24
-0.27676284 2.1545031 0.49227038 28
-0.27466023 2.1410918 0.41177732 26
-0.27469334 2.1443155 0.33596343 24
-0.2743775 2.14482 0.26080036 28
-0.27625492 2.1624944 0.18738484 31
-0.27527624 2.1578293 0.11199894 29
-0.27080008 2.1257501 0.036737315 24
-0.24907897 1.9688978 -0.52152056 3
-0.27811822 2.1984448 -0.50276589 10
-0.27362499 2.1659629 -0.41654357 13
-0.2730411 2.1643789 -0.33946306 10
-0.27460119 2.1798093 -0.26506612 12
-0.27023765 2.1481948 -0.1860778 18
-0.26926836 2.1435103 -0.11084383 18
-0.26797038 2.1361923 -0.036543053 24
-0.26709563 2.1322327 0.56515121 25
-0.26901203 2.1505744 0.49114645 25
-0.26695022 2.1371202 0.41082415 23
-0.2669698 2.1403141 0.33518213 29
-0.26665014 2.1407933 0.26019105 27
-0.26846755 2.1584558 0.18694907 29
-0.26750365 2.1537752 0.11173727 30
-0.26375598 2.1266356 0.036737315 30
-0.24313878 1.9745065 -0.52281469 3
-0.27044255 2.1994023 -0.50276589 11
-0.26606268 2.1669049 -0.41654357 14
-0.2648834 2.1604176 -0.33868089 10
-0.26638746 2.1758287 -0.26445675 12
-0.26213297 2.1441808 -0.185642 18
-0.26178446 2.1444373 -0.11084383 26
-0.26051202 2.1371148 -0.036543053 27
-0.25965112 2.133152 0.56515121 26
-0.26091564 2.1466641 0.49002257 28
-0.25948867 2.1380391 0.41082415 27
-0.25949708 2.141233 0.33518213 27
-0.25857952 2.1367841 0.25958169 30
-0.26033396 2.1544349 0.18651327 30
-0.25938582 2.1497386 0.11147558 30
-0.25633103 2.1275432 0.036737315 27
-0.23624498 1.9753431 -0.52281469 3
-0.26314756 2.2002871 -0.50276589 11
-0.25887552 2.1677754 -0.41654357 15
-0.25771773 2.161284 -0.33868089 10
-0.25858396 2.1717722 -0.26384741 12
-0.25502115 2.1450381 -0.185642 18
-0.25408322 2.1403351 -0.11058301 23
-0.25283518 2.1330023 -0.036456663 25
-0.2525759 2.1340013 0.56515121 25
-0.25322381 2.142679 0.48889863 29
-0.25182202 2.1340134 0.40987095 25
-0.25181717 2.137177 0.3344008 27
-0.25149226 2.1376297 0.25958169 27
-0.25260702 2.1503391 0.18607752 31
-0.25225559 2.1505868 0.11147558 29
-0.24927443 2.1283817 0.036737315 27
-0.23025081 1.9809129 -0.52410877 3
-0.25546554 2.2011921 -0.50276589 11
-0.25130698 2.1686656 -0.41654357 16
-0.24960425 2.1572645 -0.3378987 11
-0.25100151 2.1726618 -0.26384741 13
-0.24753204 2.1459153 -0.185642 18
-0.24661049 2.1412091 -0.11058301 25
-0.24538808 2.1338718 -0.036456663 27
-0.24512532 2.1348701 0.56515121 27
-0.2457429 2.1435497 0.48889863 27
-0.2443714 2.1348794 0.40987095 25
-0.2443555 2.1380429 0.3344008 27
-0.244029 2.1384947 0.25958169 29
-0.24509941 2.1512079 0.18607752 31
-0.24418277 2.1464934 0.11121391 30
-0.24184348 2.1292388 0.036737315 25
-0.22264297 1.9817824 -0.52410877 3
-0.24701171 2.2021568 -0.50276589 10
-0.24297808 2.1696146 -0.41654357 16
-0.24131913 2.1582072 -0.3378987 11
-0.2421066 2.1686771 -0.26323807 13
-0.23929051 2.1468499 -0.185642 17
-0.23838705 2.1421402 -0.11058301 25
-0.23719281 2.1347983 -0.036456663 27
-0.23692621 2.1357954 0.56515121 24
-0.23751047 2.1444776 0.48889863 27
-0.23617226 2.135802 0.40987095 26
-0.23614423 2.1389654 0.3344008 26
-0.235816 2.139416 0.25958169 27
-0.23683757 2.1521332 0.18607752 31
-0.23593904 2.1474152 0.11121391 30
-0.23366602 2.1301517 0.036737315 24
-0.2157239 1.9825475 -0.52410877 3
-0.23984942 2.2078493 -0.50389069 10
-0.23540322 2.1704495 -0.41654357 16
-0.23325248 2.1541266 -0.33711654 11
-0.23453504 2.1695092 -0.26323807 12
-0.23179515 2.1476722 -0.185642 19
-0.23090813 2.1429594 -0.11058301 24
-0.22920483 2.1306429 -0.036370274 27
-0.22895373 2.1318076 0.56385797 24
-0.2300234 2.1452937 0.48889863 26
-0.22871549 2.1366134 0.40987095 25
-0.22867639 2.1397767 0.3344008 24
-0.22834662 2.1402261 0.25958169 28
-0.22932379 2.1529467 0.18607752 30
-0.22844173 2.1482255 0.11121391 28
-0.22622234 2.1309552 0.036737315 22
-0.20930788 1.9880917 -0.5254029 3
-0.23214112 2.208673 -0.50389069 10
-0.22782551 2.171258 -0.41654357 15
-0.22573176 2.1549277 -0.33711654 10
-0.22644447 2.1653788 -0.26262873 13
-0.22429696 2.1484683 -0.185642 19
-0.2234264 2.1437523 -0.11058301 24
-0.22176608 2.1314299 -0.036370274 25
-0.22151095 2.1325936 0.56385797 25
-0.22253352 2.1460836 0.48889863 26
-0.22125593 2.1373987 0.40987095 24
-0.22069813 2.1356497 0.33361951 24
-0.2203652 2.1360741 0.25897235 25
-0.2218072 2.1537342 0.18607752 28
-0.22094163 2.1490099 0.11121391 28
-0.21827878 2.1267581 0.03665005 24
-0.20236689 1.9888102 -0.5254029 3
-0.22442999 2.2094698 -0.50389069 10
-0.22024502 2.17204 -0.41654357 13
-0.21820828 2.1557024 -0.33711654 10
-0.21888451 2.1661563 -0.26262873 11
-0.21629614 2.1442821 -0.18520623 21
-0.21544169 2.1395512 -0.11032221 24
-0.21432467 2.1321912 -0.036370274 27
-0.21358323 2.1285481 0.56256473 25
-0.21455535 2.1419992 0.48777473 29
-0.21330531 2.1332741 0.40891778 24
-0.21324198 2.1364069 0.33361951 25
-0.21290757 2.1368301 0.25897235 28
-0.21379493 2.1495388 0.18564172 29
-0.21294551 2.1447992 0.11095222 27
-0.21085368 2.127507 0.03665005 25
-0.19589552 1.9943109 -0.52669698 3
-0.21719153 2.2150881 -0.50501537 10
-0.21218374 2.1679108 -0.41559041 13
-0.21020193 2.1515357 -0.33633435 11
-0.21084017 2.1619675 -0.26201937 13
-0.20880987 2.1450241 -0.18520623 20
-0.20797195 2.14029 -0.11032221 23
-0.20639798 2.1279502 -0.03628388 26
-0.20615192 2.1292808 0.56256473 25
-0.20707707 2.1427352 0.48777473 26
-0.2058575 2.1340055 0.40891778 25
-0.20530988 2.1322224 0.33283818 23
-0.20497252 2.1326201 0.25836298 26
-0.20629033 2.1502719 0.18564172 27
-0.20545746 2.1455297 0.11095222 28
-0.20295034 2.1232536 0.036562789 25
-0.18938825 1.9997908 -0.52799106 3
-0.20945811 2.2158329 -0.50501537 10
-0.20461503 2.1686382 -0.41559041 14
-0.20269039 2.1522565 -0.33633435 13
-0.20329222 2.1626904 -0.26201937 14
-0.20085578 2.1407807 -0.18477045 20
-0.20003411 2.1360314 -0.1100614 25
-0.19896878 2.1286576 -0.03628388 27
-0.19871807 2.1299872 0.56256473 26
-0.19914456 2.1385942 0.48665082 29
-0.19795294 2.1298239 0.40796459 26
-0.19786578 2.132926 0.33283818 26
-0.19752705 2.1333225 0.25836298 26
-0.19832487 2.1460192 0.18520595 30
-0.19750831 2.1412616 0.11069055 30
-0.19553757 2.1239491 0.036562789 27
-0.18284507 2.0052493 -0.52928513 3
-0.20172213 2.2165506 -0.50501537 10
-0.19704384 2.1693394 -0.41559041 14
-0.19517638 2.1529508 -0.33633435 13
-0.19574177 2.1633868 -0.26201937 14
-0.19338183 2.1414688 -0.18477045 23
-0.19257675 2.1367168 -0.1100614 25
-0.19108932 2.1243603 -0.036197495 29
-0.19128183 2.1306679 0.56256473 25
-0.19167827 2.1392763 0.48665082 29
-0.19051726 2.1305017 0.40796459 26
-0.18998027 2.1286848 0.33205691 26
-0.18963887 2.129056 0.25775367 27
-0.19083266 2.1466985 0.18520595 29
-0.19003271 2.141938 0.11069055 28
-0.18768147 2.1196387 0.036475528 26
-0.17542258 2.0010643 -0.52799106 3
-0.19355911 2.212388 -0.50389069 10
-0.18947022 2.1700139 -0.41559041 14
-0.1872313 2.1486993 -0.33555222 13
-0.18775901 2.1591129 -0.26141003 15
-0.1854749 2.1371686 -0.18433468 23
-0.18511705 2.1373758 -0.1100614 27
-0.18367277 2.1250145 -0.036197495 28
-0.18342815 2.1265104 0.56127143 20
-0.18420963 2.1399324 0.48665082 30
-0.18307926 2.1311541 0.40796459 26
-0.18254861 2.1293349 0.33205691 25
-0.18178286 2.1247602 0.2571443 26
-0.18291439 2.1423883 0.18477017 30
-0.18213087 2.1376131 0.11042886 29
-0.1802814 2.120281 0.036475528 26
-0.16843648 2.0016644 -0.52799106 3
-0.18583526 2.2130504 -0.50389069 11
-0.18148442 2.1657708 -0.41463721 14
-0.1797298 2.1493399 -0.33555222 13
-0.18022117 2.1597552 -0.26141003 16
-0.17801365 2.1378031 -0.18433468 23
-0.17724159 2.133033 -0.10980059 26
-0.17625396 2.1256428 -0.036197495 28
-0.17640242 2.1319513 0.56256473 11
-0.17633782 2.1357064 0.48552692 28
-0.17523602 2.1268885 0.40701142 26
-0.17511474 2.1299591 0.33205691 26
-0.17436495 2.1253817 0.2571443 27
-0.17543495 2.1430137 0.18477017 29
-0.17466812 2.1382358 0.11042886 28
-0.172473 2.1159148 0.036388267 27
-0.16106017 1.9974259 -0.52669698 3
-0.17771839 2.2088289 -0.50276589 11
-0.17392336 2.1663911 -0.41463721 14
-0.17183179 2.1450315 -0.33477002 15
-0.17268111 2.1603711 -0.26141003 16
-0.17055024 2.1384113 -0.18433468 25
-0.16979484 2.1336386 -0.10980059 26
-0.16843729 2.1212611 -0.036111102 27
-0.16857797 2.1277392 0.56127143 6
-0.16888174 2.1363091 0.48552692 17
-0.16781071 2.1274872 0.40701142 16
-0.16729124 2.125634 0.33127558 17
-0.16655645 2.1210303 0.25653496 25
-0.16795336 2.1436133 0.18477017 29
-0.16681407 2.1338546 0.11016718 29
-0.16508602 2.116504 0.036388267 26
-0.15408687 1.9979759 -0.52669698 3
-0.17000706 2.2094359 -0.50276589 12
-0.16598448 2.162091 -0.41368398 13
-0.16434316 2.1456182 -0.33477002 15
-0.16476081 2.1560125 -0.26080069 17
-0.16308476 2.1389937 -0.18433468 26
-0.16196729 2.1292396 -0.10953978 27
-0.16103168 2.1218362 -0.036111102 29
-0.16187906 2.1379471 0.56385797 3
-0.16105662 2.1320274 0.48440304 10
-0.1600145 2.1231654 0.40605819 12
-0.15987039 2.126205 0.33127558 12
-0.15915166 2.1215987 0.25653496 27
-0.16009802 2.1392195 0.1843344 30
-0.15936451 2.134424 0.11016718 29
-0.15769704 2.1170673 0.036388267 27
-0.14675714 1.9936852 -0.5254029 3
-0.16229364 2.2100158 -0.50276589 12
-0.15843637 2.1626573 -0.41368398 13
-0.15649261 2.1412535 -0.33398786 16
-0.15723392 2.1565745 -0.26080069 17
-0.15561728 2.13955 -0.18433468 25
-0.15453388 2.129792 -0.10953978 27
-0.1536241 2.1223855 -0.036111102 28
-0.15476309 2.1433163 0.56515121 5
-0.15326343 2.1277173 0.48327911 6
-0.15225051 2.1188157 0.40510502 7
-0.15244757 2.12675 0.33127558 13
-0.15174492 2.1221414 0.25653496 26
-0.15262978 2.1397653 0.1843344 29
-0.15155862 2.1299868 0.1099055 28
-0.14995217 2.112618 0.036301002 25
-0.139797 1.9941853 -0.5254029 3
-0.15423843 2.2057092 -0.50164115 12
-0.15054478 2.1583006 -0.41273081 12
-0.14901729 2.1417868 -0.33398786 16
-0.14936154 2.1521595 -0.26019135 17
-0.14814791 2.14008 -0.18433468 27
-0.14675462 2.1253374 -0.10927898 27
-0.14621465 2.1229088 -0.036111102 27
-0.14794263 2.1534805 0.5677377 5
-0.1455023 2.1233785 0.48215523 8
-0.14485355 2.119334 0.40510502 9
-0.14468701 2.1223423 0.33049428 10
-0.14433633 2.122658 0.25653496 25
-0.14515966 2.140285 0.1843344 29
-0.14412266 2.1305027 0.1099055 28
-0.14257684 2.1131287 0.036301002 25
-0.13283513 1.9946611 -0.5254029 3
-0.14653814 2.2062342 -0.50164115 12
-0.14300999 2.158813 -0.41273081 13
-0.14154015 2.1422939 -0.33398786 18
-0.14184818 2.1526678 -0.26019135 16
-0.14035007 2.1356139 -0.1838989 25
-0.13933492 2.1258368 -0.10927898 27
-0.13847734 2.1184177 -0.036024712 29
-0.14073889 2.1588035 0.569031 5
-0.13808945 2.1238735 0.48215523 18
-0.13745479 2.1198268 0.40510502 18
-0.13727778 2.1228344 0.33049428 10
-0.1366066 2.1181962 0.2559256 26
-0.13736807 2.1358078 0.18389861 29
-0.13668494 2.1309929 0.1099055 30
-0.13519977 2.1136134 0.036301002 27
-0.12617575 1.9999326 -0.52669698 3
-0.13883606 2.2067323 -0.50164115 13
-0.13516611 2.1544003 -0.41177762 13
-0.13375291 2.137846 -0.33320567 17
-0.13402407 2.1481962 -0.25958198 17
-0.13289455 2.1360908 -0.1838989 28
-0.13191351 2.1263101 -0.10927898 27
-0.13108183 2.1188881 -0.036024712 28
-0.13379717 2.1689229 0.57161748 4
-0.1306749 2.1243424 0.48215523 25
-0.13005438 2.1202936 0.40510502 24
-0.12986685 2.1233008 0.33049428 15
-0.12921189 2.1186604 0.2559256 26
-0.12991188 2.1362743 0.18389861 30
-0.12924555 2.1314571 0.1099055 30
-0.12751938 2.1090827 0.036213744 25
-0.1191939 2.000361 -0.52669698 3
-0.13084333 2.2023399 -0.50051636 13
-0.1273548 2.1499596 -0.41082445 14
-0.12628962 2.1382997 -0.33320567 19
-0.12652466 2.1486511 -0.25958198 18
-0.12543739 2.1365416 -0.1838989 27
-0.1244905 2.1267576 -0.10927898 26
-0.12339346 2.114342 -0.035938323 28
-0.1273476 2.1886637 0.57679051 5
-0.12325877 2.1247859 0.48215523 26
-0.12265239 2.1207347 0.40510502 24
-0.12245437 2.1237411 0.33049428 27
-0.12181558 2.1190984 0.2559256 26
-0.12245409 2.1367147 0.18389861 30
-0.12151977 2.1269102 0.10964382 29
-0.12015653 2.109515 0.036213744 25
-0.11248107 2.0055871 -0.52799106 3
-0.12261102 2.1930547 -0.49826688 14
-0.11984926 2.1503911 -0.41082445 14
-0.11855084 2.1337969 -0.33242351 18
-0.1190237 2.1490796 -0.25958198 20
-0.11770414 2.1319933 -0.18346313 27
-0.11679159 2.1221933 -0.10901816 27
-0.11601228 2.1147597 -0.035938323 28
-0.11944325 2.1842721 0.57549721 18
-0.11557595 2.1203382 0.4810313 28
-0.1152489 2.12115 0.40510502 24
-0.11504038 2.1241555 0.33049428 20
-0.1141503 2.1145551 0.25531626 27
-0.1147272 2.1321554 0.18346284 30
-0.11409473 2.1273212 0.10964382 29
-0.11252534 2.1049292 0.03612648 26
-0.10573317 2.0107901 -0.52928513 3
-0.11444514 2.1837389 -0.49601737 11
-0.11208623 2.1458943 -0.40987125 14
-0.11110178 2.1341977 -0.33242351 20
-0.11126415 2.1445262 -0.25897264 19
-0.11026138 2.132391 -0.18346313 27
-0.10938304 2.1225882 -0.10901816 27
-0.10837328 2.1101594 -0.035851933 29
-0.11033668 2.1557345 0.5677377 31
-0.10817389 2.1207287 0.4810313 27
-0.107844 2.1215394 0.40510502 26
-0.10762499 2.1245444 0.33049428 27
-0.10676843 2.1149409 0.25531626 28
-0.10728389 2.1325431 0.18346284 32
-0.1066683 2.1277065 0.10964382 32
-0.10517707 2.1053092 0.03612648 26
-0.098713562 2.011147 -0.52928513 3
-0.1063458 2.1743932 -0.49376786 11
-0.10435607 2.1413703 -0.40891808 15
-0.10365137 2.1345725 -0.33242351 21
-0.10377769 2.1449015 -0.25897264 20
-0.10281727 2.1327629 -0.18346313 29
-0.10197316 2.122957 -0.10901816 28
-0.10100679 2.1105247 -0.035851933 27
-0.10212097 2.1416335 0.56385797 28
-0.1007705 2.1210935 0.4810313 29
-0.1002057 2.1169999 0.40415183 24
-0.099975646 2.1199737 0.32971296 30
-0.099152349 2.1103435 0.25470692 27
-0.099606372 2.127929 0.18302706 30
-0.099007964 2.1230783 0.10938215 31
-0.097827539 2.1056635 0.03612648 26
-0.092132621 2.0211289 -0.5318734 3
-0.098755099 2.174751 -0.49376786 11
-0.096880667 2.1417217 -0.40891808 16
-0.095977366 2.1299877 -0.33164132 22
-0.096067414 2.1402929 -0.25836328 21
-0.09514942 2.1281326 -0.18302734 28
-0.094339892 2.1183121 -0.10875736 28
-0.093639068 2.1108644 -0.035851933 28
-0.093578637 2.117851 0.5573917 24
-0.0933659 2.1214323 0.4810313 28
-0.092815384 2.1173368 0.40415183 25
-0.092574947 2.1203098 0.32971296 26
-0.091785274 2.1106765 0.25470692 27
-0.092177913 2.1282635 0.18302706 31
-0.091596439 2.1234109 0.10938215 29
-0.090476803 2.1059921 0.03612648 25
-0.084873907 2.0166125 -0.53057927 3
-0.090959199 2.1702151 -0.49264312 10
-0.089199372 2.1371424 -0.40796486 16
-0.088541746 2.1303098 -0.33164132 20
-0.088595808 2.1406152 -0.25836328 20
-0.087720275 2.1284518 -0.18302734 29
-0.086945027 2.1186283 -0.10875736 27
-0.086270206 2.1111784 -0.035851933 29
-0.085989028 2.1133389 0.55609846 24
-0.085762933 2.1168773 0.47990742 29
-0.085423939 2.1176476 0.40415183 27
-0.08497493 2.1156855 0.32893166 24
-0.084417075 2.1109841 0.25470692 28
-0.084550165 2.1235955 0.18259129 31
-0.08418379 2.1237175 0.10938215 29
-0.083124965 2.1062951 0.03612648 25
-0.078951553 2.0458529 -0.53834385 3
-0.08338318 2.1705196 -0.49264312 10
-0.081738815 2.1374407 -0.40796486 15
-0.080917194 2.1256714 -0.33085918 23
-0.081123136 2.1409113 -0.25836328 22
-0.080290057 2.1287448 -0.18302734 29
-0.079549104 2.1189189 -0.10875736 29
-0.078900293 2.1114666 -0.035851933 31
-0.078611575 2.1136262 0.55609846 26
-0.078373134 2.1171639 0.47990742 30
-0.077850744 2.1130283 0.40319866 27
-0.077589296 2.1159692 0.32893166 25
-0.076866865 2.1063066 0.25409758 27
-0.077136919 2.1238778 0.18259129 30
-0.076770119 2.1239986 0.10938215 30
-0.075772122 2.1065724 0.03612648 30
-0.071132138 2.0268092 -0.53316748 3
-0.075806141 2.1707973 -0.49264312 10
-0.07410682 2.132808 -0.40701169 16
-0.073496722 2.1259408 -0.33085918 21
-0.073649459 2.1411815 -0.25836328 24
-0.072688513 2.1240344 -0.18259157 29
-0.072152212 2.1191838 -0.10875736 30
-0.071529418 2.1117294 -0.035851933 33
-0.071233161 2.1138878 0.55609846 28
-0.070982367 2.1174245 0.47990742 31
-0.070474416 2.1132872 0.40319866 27
-0.070038967 2.1112914 0.32815033 26
-0.069514014 2.1065621 0.25409758 29
-0.069722734 2.1241341 0.18259129 31
-0.06935551 2.1242537 0.10938215 30
-0.068418346 2.1068242 0.03612648 32
-0.064056814 2.0270452 -0.53316748 2
-0.06807515 2.1661789 -0.49151835 11
-0.066661477 2.1330535 -0.40701169 16
-0.066075355 2.1261845 -0.33085918 24
-0.066174895 2.1414256 -0.25836328 26
-0.065273799 2.1242752 -0.18259157 32
-0.06460195 2.1144316 -0.10849655 30
-0.064157672 2.1119661 -0.035851933 33
-0.06385389 2.1141236 0.55609846 29
-0.06359075 2.1176593 0.47990742 30
-0.063097246 2.1135204 0.40319866 28
-0.062668763 2.1115232 0.32815033 27
-0.062013954 2.1018312 0.25348821 29
-0.062307701 2.1243644 0.18259129 34
-0.061794549 2.1194921 0.10912047 34
-0.061063744 2.1070502 0.03612648 34
nan nan nan 0
-0.060513359 2.1664035 -0.49151835 11
-0.059215326 2.1332734 -0.40701169 17
-0.058517016 2.1214654 -0.33007699 25
-0.058699522 2.1416435 -0.25836328 28
-0.057722699 2.1195109 -0.18215577 36
-0.057220813 2.1146441 -0.10849655 32
-0.056785144 2.1121771 -0.035851933 36
-0.056473829 2.1143336 0.55609846 31
-0.056198351 2.1178684 0.47990742 34
-0.055719301 2.1137276 0.40319866 28
-0.055297788 2.1117289 0.32815033 27
-0.054676816 2.1020348 0.25348821 30
-0.054891903 2.1245689 0.18259129 37
-0.054395769 2.1196947 0.10912047 38
-0.053581022 2.1022527 0.036039218 31
-0.050260447 2.0419276 -0.53704977 2
-0.052831806 2.1617315 -0.49039361 12
-0.051768452 2.133467 -0.40701169 17
-0.051111363 2.1216567 -0.33007699 26
-0.051223435 2.1418352 -0.25836328 24
-0.050323874 2.1196995 -0.18215577 32
-0.049838979 2.114831 -0.10849655 35
-0.049411923 2.1123626 -0.035851933 32
-0.049093086 2.1145177 0.55609846 29
-0.048693027 2.1131809 0.47878349 29
-0.048228458 2.1090024 0.40224546 28
-0.047814097 2.1069717 0.32736903 27
-0.047339011 2.1022129 0.25348821 28
-0.047475442 2.1247478 0.18259129 33
-0.046996318 2.1198719 0.10912047 32
-0.046242464 2.102427 0.036039218 26
-0.043132484 2.0420907 -0.53704977 2
-0.045285631 2.1619027 -0.49039361 12
-0.044219013 2.1287274 -0.40605849 17
-0.043603387 2.1168849 -0.32929483 28
-0.043746725 2.1420012 -0.25836328 23
-0.042823598 2.1148825 -0.18172 28
-0.042456537 2.1149921 -0.10849655 32
-0.041938636 2.1075237 -0.03576554 29
-0.041616488 2.1098473 0.55480522 27
-0.041316353 2.1133378 0.47878349 27
-0.040866375 2.1091578 0.40224546 28
-0.040459104 2.1071258 0.32736903 27
-0.040000629 2.1023653 0.25348821 25
-0.040058397 2.1249006 0.18259129 30
-0.039503057 2.1150305 0.10885879 28
-0.038810853 2.0975771 0.035951953 23
-0.035918862 2.0373998 -0.53575563 2
-0.037653878 2.1571763 -0.48926884 13
-0.036788095 2.1288688 -0.40605849 19
-0.036213815 2.1170242 -0.32929483 23
-0.036269475 2.1421409 -0.25836328 24
-0.035357568 2.1100388 -0.18128422 26
-0.034990791 2.1101351 -0.10823574 27
-0.034499735 2.1026587 -0.035679154 24
-0.034251496 2.1099796 0.55480522 25
-0.033860952 2.108598 0.47765961 25
-0.033425838 2.1043799 0.40129229 26
-0.033026043 2.1023161 0.32658771 27
-0.032584682 2.0975304 0.25287887 26
-0.032564368 2.1200469 0.1821555 28
-0.032119982 2.1151555 0.10885879 27
-0.031413671 2.0927012 0.035864696 23
-0.02901162 2.0520003 -0.53963798 2
-0.030055676 2.1524231 -0.48814404 13
-0.029289059 2.1240764 -0.40510532 18
-0.028756572 2.1121995 -0.32851264 23
-0.028725097 2.1372921 -0.25775397 22
-0.027991943 2.1101491 -0.18128422 25
-0.027624834 2.1102445 -0.10823574 27
-0.02709531 2.0977674 -0.035592761 25
-0.026824549 2.1052568 0.55351192 23
-0.026500363 2.1087034 0.47765961 24
-0.026079977 2.1044836 0.40129229 28
-0.025687389 2.1024187 0.32658771 29
-0.025262736 2.0976312 0.25287887 26
-0.025163824 2.1201477 0.1821555 27
-0.02467813 2.1102619 0.10859711 27
-0.024051005 2.0877993 0.035777431 24
-0.021745788 2.0424304 -0.53704977 2
-0.022491116 2.1476433 -0.48701933 13
-0.021874471 2.1241655 -0.40510532 20
-0.021383444 2.112287 -0.32851264 25
-0.021264382 2.1373794 -0.25775397 22
-0.020577295 2.1052535 -0.18084845 25
-0.020210605 2.1053348 -0.10797492 26
-0.019772569 2.0978491 -0.035592761 27
-0.019475667 2.1053376 0.55351192 25
-0.019095236 2.1039112 0.47653568 27
-0.018690109 2.0996537 0.40033907 28
-0.018348422 2.1024954 0.32658771 27
-0.01789804 2.0927439 0.25226954 28
-0.017721245 2.1152418 0.18171974 30
-0.017311789 2.1103354 0.10859711 28
-0.016763078 2.0878706 0.035777431 25
-0.014650803 2.0473232 -0.53834385 2
-0.014960293 2.142837 -0.48589453 13
-0.014426205 2.1193209 -0.4041521 20
-0.014010055 2.1123488 -0.32851264 25
-0.013771356 2.1324778 -0.2571446 22
-0.013228463 2.1053123 -0.18084845 27
-0.012861492 2.1053925 -0.10797492 27
-0.012419924 2.0929067 -0.035506371 26
-0.012098731 2.1005633 0.55221874 27
-0.0117511 2.1039648 0.47653568 25
-0.011360836 2.0997062 0.40033907 27
-0.010983372 2.0976083 0.32580641 26
-0.010592891 2.0927937 0.25226954 28
-0.010337565 2.1152906 0.18171974 29
-0.00992171 2.1053896 0.10833542 29
-0.009452261 2.082917 0.035690166 27
-0.0074865203 2.0425322 -0.53704977 2
-0.0074632987 2.1380045 -0.48476982 15
-0.0070283073 2.1193583 -0.4041521 20
-0.0066364971 2.1123848 -0.32851264 26
-0.006327536 2.1325128 -0.2571446 23
-0.0058794711 2.1053457 -0.18084845 28
-0.0054991506 2.1004317 -0.10771412 29
-0.005114241 2.0929372 -0.035506371 30
-0.0047663227 2.1005929 0.55221874 26
-0.004396616 2.0991211 0.4754118 27
-0.0040314244 2.0997331 0.40033907 27
-0.0036612861 2.0976336 0.32580641 26
-0.0032876139 2.0928178 0.25226954 28
-0.0029468047 2.110333 0.18128394 32
-0.0025724682 2.1054113 0.10833542 30
-0.0021814669 2.0829372 0.035690166 26
-0.0003575501 2.0473757 -0.53834385 2
-2.2468444e-07 2.1331456 -0.48364502 13
0.00036882047 2.1144617 -0.40319896 21
0.00073541928 2.1074569 -0.32773048 27
0.0011163612 2.1325219 -0.2571446 22
0.0014661154 2.1003723 -0.18041267 28
0.0018327571 2.1004381 -0.10771412 30
0.0021915045 2.0929422 -0.035506371 29
0.0025602421 2.0957663 0.55092543 27
0.0029307101 2.0991237 0.4754118 30
0.003290327 2.094826 0.3993859 28
0.0036608442 2.0976336 0.32580641 26
0.0040177037 2.0928166 0.25226954 27
0.0044196495 2.1103303 0.18128394 32
0.0047768047 2.1054075 0.10833542 30
0.0050893542 2.0829322 0.035690166 28
0.0067891264 2.0473645 -0.53834385 2
0.0074288375 2.1282609 -0.48252031 14
0.0077496665 2.1144474 -0.40319896 21
0.008091812 2.1074414 -0.32773048 28
0.008560244 2.1325049 -0.2571446 25
0.0087977741 2.1003544 -0.18041267 28
0.0091646425 2.1004188 -0.10771412 30
0.0094972234 2.092922 -0.035506371 29
0.0098758163 2.0957448 0.55092543 28
0.010234192 2.0942285 0.47428787 27
0.010602615 2.0948019 0.3993859 27
0.01098293 2.0976083 0.32580641 27
0.011322972 2.0927896 0.25226954 27
0.011758232 2.1053212 0.18084818 32
0.012126019 2.1053782 0.10833542 33
0.012360114 2.082902 0.035690166 29
0.014293047 2.0473258 -0.53834385 2
0.015194392 2.1233475 -0.48139551 16
0.015499452 2.1144049 -0.40319896 22
0.015815916 2.1073976 -0.32773048 28
0.016376209 2.1324592 -0.2571446 26
0.016495898 2.1003082 -0.18041267 29
0.016863002 2.1003711 -0.10771412 30
0.017127091 2.0878739 -0.035419982 29
0.017557038 2.0956945 0.55092543 28
0.017909855 2.094177 0.47428787 27
0.018280376 2.0947487 0.3993859 28
0.018627016 2.0926154 0.32502508 26
0.018993355 2.0927343 0.25226954 27
0.019474542 2.1052639 0.18084818 34
