# .PCD v0.7 - Point Cloud Data file format
VERSION 0.7
FIELDS x y z intensity
SIZE 4 4 4 4
TYPE F F F F
COUNT 1 1 1 1
WIDTH 1331
HEIGHT 1
VIEWPOINT 0 0 0 1 0 0 0
POINTS 1331
DATA ascii
-0.70987201 1.8377655 -0.51763833 3
-0.80862993 2.0945244 -0.50951445 4
-0.85661626 2.2199724 -0.45467114 11
-0.85251683 2.2104969 -0.36918563 11
-0.8598243 2.2306042 -0.28883067 11
-0.85896236 2.2295272 -0.20568787 15
-0.85167444 2.2117612 -0.12179781 11
-0.85050923 2.2098856 -0.04025783 11
-0.8529948 2.2174983 0.62593406 14
-0.8511942 2.2139704 0.53835046 12
-0.8517552 2.2165844 0.45371762 14
-0.85122335 2.2163556 0.36955979 9
-0.8460381 2.204004 0.28517425 8
-0.8594169 2.2400255 0.20655911 5
-0.85930431 2.2409012 0.12377454 9
-0.84563124 2.2063966 0.040576845 13
-0.70345271 1.8402323 -0.51763833 4
-0.80131376 2.0973341 -0.50951445 4
-0.84711087 2.2183635 -0.45371795 12
-0.84303468 2.2088456 -0.36840346 11
-0.85026407 2.2289553 -0.28822133 11
-0.84940004 2.2278578 -0.2052521 15
-0.84217072 2.2100549 -0.12153699 11
-0.83923149 2.2034974 -0.040085051 10
-0.84353089 2.2159486 0.62464082 14
-0.84172821 2.2123742 0.53722656 12
-0.84226811 2.2149563 0.45276445 14
-0.84172702 2.2146969 0.36877847 10
-0.83657724 2.2023046 0.28456491 8
-0.84805661 2.2336984 0.20568755 5
-0.84970528 2.2392187 0.12351285 9
-0.83615148 2.2046604 0.04048958 13
-0.69702482 1.8426765 -0.51763833 3
-0.79398781 2.1001186 -0.50951445 4
-0.83762729 2.2167156 -0.45276478 12
-0.8335743 2.2071548 -0.36762127 10
-0.84072584 2.2272666 -0.28761196 10
-0.83985996 2.2261488 -0.20481631 14
-0.83268934 2.2083089 -0.12127619 11
-0.82977176 2.2017355 -0.039998662 10
-0.83408809 2.2143598 0.62334752 14
-0.83056736 2.2061799 0.53497875 12
-0.83280277 2.213289 0.45181125 14
-0.8322528 2.2129993 0.36799717 9
-0.82713854 2.2005656 0.28395554 9
-0.83850271 2.2319822 0.20525178 5
-0.84012872 2.2374966 0.12325118 9
-0.82669419 2.2028852 0.040402319 12
-0.69026637 1.8452189 -0.51763833 3
-0.7845791 2.0984514 -0.50838971 4
-0.82777876 2.2151728 -0.45181155 11
-0.82375133 2.205569 -0.36683914 11
-0.83082134 2.2256837 -0.28700262 10
-0.82995403 2.2245455 -0.20438054 14
-0.82110071 2.2019892 -0.12075458 10
-0.81995046 2.2000773 -0.039912272 10
-0.82428056 2.2128758 0.62205434 14
-0.82077587 2.2046432 0.53385484 12
-0.82297343 2.2117267 0.45085809 14
-0.82241464 2.2114058 0.36721584 10
-0.81733853 2.198931 0.28334624 9
-0.82858181 2.2303712 0.20481598 5
-0.83018416 2.2358799 0.12298949 9
-0.81687528 2.2012134 0.040315058 12
-0.68382114 1.8476171 -0.51763833 3
-0.77724934 2.1011775 -0.50838971 4
-0.81833935 2.2134452 -0.45085838 11
-0.8143357 2.2037985 -0.36605695 10
-0.82132775 2.2239149 -0.28639328 10
-0.82045907 2.2227561 -0.20394474 15
-0.81168109 2.2001572 -0.12049376 11
-0.81053632 2.1982355 -0.039825883 10
-0.81488103 2.2112076 0.62076104 14
-0.81139129 2.2029231 0.53273094 12
-0.81355238 2.2099795 0.44990486 14
-0.81469041 2.214263 0.36721584 10
-0.80794501 2.1971126 0.28273687 9
-0.81907308 2.228575 0.20438023 5
-0.82065278 2.2340772 0.12272782 8
-0.80745757 2.1993608 0.040227797 12
-0.67736757 1.8499929 -0.51763833 3
-0.76823574 2.0993023 -0.50726491 4
-0.81060797 2.2162883 -0.45085838 12
-0.80494255 2.2019897 -0.36527479 11
-0.81185693 2.2221072 -0.28578395 10
-0.8109867 2.220928 -0.20350897 14
-0.8022843 2.1982865 -0.12023295 10
-0.80114496 2.1963549 -0.03973949 10
-0.80550325 2.209501 0.61946785 14
-0.80202883 2.2011645 0.53160703 13
-0.80415368 2.2081943 0.44895169 15
-0.80526721 2.2124529 0.36643454 11
-0.79857415 2.195256 0.28212753 10
-0.80958688 2.2267392 0.20394443 5
-0.81114411 2.2322352 0.12246613 8
-0.79978168 2.2021639 0.040227797 10
-0.67090577 1.8523461 -0.51763833 4
-0.76090318 2.1019711 -0.50726491 4
-0.80119687 2.2144887 -0.44990519 12
-0.79557192 2.2001417 -0.3644926 11
-0.80240852 2.2202599 -0.28517458 10
-0.80153704 2.2190602 -0.20307319 15
-0.79291052 2.1963773 -0.11997214 10
-0.79177654 2.1944354 -0.0396531 10
-0.79614723 2.2077558 0.61817455 14
-0.79434043 2.2039506 0.53160703 12
-0.79477721 2.2063696 0.44799849 15
-0.79586649 2.2106035 0.36565322 11
-0.78922617 2.1933606 0.28151816 10
-0.80180919 2.2295516 0.20394443 5
-0.80165833 2.2303545 0.12220446 8
-0.79039961 2.200237 0.040140532 11
-0.6644358 1.8546767 -0.51763833 3
-0.75356126 2.1046143 -0.50726491 4
-0.79180819 2.2126508 -0.44895202 12
-0.78622401 2.1982553 -0.36371043 10
-0.79298306 2.2183743 -0.28456524 11
-0.7921105 2.2171543 -0.20263742 14
-0.7835598 2.1944292 -0.11971132 10
-0.78243142 2.1924775 -0.039566711 9
-0.78681338 2.2059724 0.61688131 14
-0.78500634 2.2021205 0.53048313 13
-0.78542346 2.2045069 0.44704533 15
-0.78648853 2.2087157 0.36487195 11
-0.77990121 2.1914268 0.28090885 11
-0.7923525 2.227644 0.20350866 5
-0.7921955 2.2284343 0.12194277 8
-0.78271455 2.2029827 0.040140532 10
-0.65795773 1.8569847 -0.51763833 3
-0.74621022 2.1072319 -0.50726491 4
-0.78244215 2.2107742 -0.44799879 12
-0.77689904 2.1963308 -0.36292824 10
-0.78358048 2.2164497 -0.28395587 10
-0.78270692 2.215209 -0.20220163 15
-0.77423239 2.1924427 -0.11945052 10
-0.77310973 2.1904809 -0.039480317 9
-0.77750158 2.2041504 0.61558807 14
-0.77569491 2.2002528 0.52935922 13
-0.77609235 2.202606 0.44609213 15
-0.77713346 2.2067895 0.36409062 11
-0.77059925 2.1894541 0.28029948 11
-0.78291887 2.2256975 0.20307288 5
-0.78275591 2.2264755 0.1216811 7
-0.77336264 2.2009847 0.040053267 9
-0.65147161 1.8592701 -0.51763833 3
-0.73885006 2.1098239 -0.50726491 5
-0.77309889 2.208859 -0.44704565 12
-0.76759714 2.1943679 -0.36214611 10
-0.77420115 2.2144871 -0.28334656 11
-0.77332669 2.2132256 -0.20176587 15
-0.7649284 2.190418 -0.11918971 10
-0.76381141 2.1884465 -0.039393932 9
-0.76821226 2.2022908 0.61429483 14
-0.766406 2.1983464 0.52823532 13
-0.76678407 2.2006667 0.44513896 16
-0.76780158 2.2048249 0.36330932 11
-0.76132071 2.187444 0.27969012 11
-0.77350861 2.2237124 0.20263711 6
-0.77497929 2.2291944 0.1216811 7
-0.76403433 2.1989486 0.03996601 10
-0.6433965 1.8569692 -0.51634425 4
-0.7314809 2.11239 -0.50726491 4
-0.76377857 2.2069058 -0.44609243 12
-0.75831831 2.1923666 -0.36136392 10
-0.76484483 2.2124856 -0.2827372 10
-0.76396978 2.2112036 -0.20133008 14
-0.75564802 2.188355 -0.11892891 10
-0.75616765 2.1910994 -0.039393932 8
-0.75894529 2.2003932 0.61300153 14
-0.75872767 2.2010083 0.52823532 13
-0.75749886 2.198689 0.44418573 15
-0.75849271 2.202822 0.362528 12
-0.7520656 2.1853955 0.27908078 12
-0.76412165 2.2216887 0.20220132 6
-0.7655701 2.227164 0.12141941 7
-0.75472957 2.1968741 0.039878745 9
-0.63691056 1.8592038 -0.51634425 3
-0.7241028 2.1149306 -0.50726491 4
-0.7528922 2.2002704 -0.44418606 11
-0.74746484 2.1856546 -0.35979956 10
-0.75551218 2.2104459 -0.28212786 11
-0.75463641 2.2091434 -0.20089431 14
-0.74639136 2.1862538 -0.11866809 11
-0.7469002 2.1889939 -0.039307538 8
-0.74970096 2.1984575 0.61170834 14
-0.74946839 2.1990316 0.52711141 13
-0.74823684 2.1966739 0.44323257 16
-0.74920726 2.2007813 0.3617467 12
-0.74283397 2.1833088 0.27847141 11
-0.7531547 2.2149107 0.20132977 6
-0.75618458 2.2250953 0.12115774 7
-0.74384087 2.190028 0.039704222 9
-0.63041681 1.8614157 -0.51634425 4
-0.71671593 2.1174452 -0.50726491 5
-0.74363446 2.1982358 -0.44323289 12
-0.7382493 2.1835723 -0.35901737 10
-0.74620306 2.2083681 -0.28151849 10
-0.74532676 2.2070448 -0.20045851 14
-0.7387554 2.1888459 -0.11866809 10
-0.73765689 2.1868508 -0.039221149 8
-0.74047941 2.1964843 0.61041504 14
-0.74023217 2.1970174 0.52598751 14
-0.73899806 2.1946204 0.44227937 11
-0.74152058 2.203383 0.3617467 13
-0.73362631 2.181185 0.2778621 11
-0.74383163 2.212805 0.200894 7
-0.74682283 2.2229881 0.12089606 7
-0.73460054 2.1878722 0.039616961 9
-0.6223821 1.8590252 -0.51505011 4
-0.70777452 2.1153142 -0.50614017 4
-0.73440003 2.1961634 -0.44227967 12
-0.73062271 2.186136 -0.35901737 10
-0.73691761 2.2062521 -0.28090915 10
-0.73604101 2.2049084 -0.20002273 14
-0.72953016 2.1866748 -0.11840729 10
-0.72843742 2.1846697 -0.039134759 7
-0.73128086 2.1944735 0.6091218 14
-0.73101926 2.1949656 0.5248636 13
-0.72823262 2.1878724 0.440373 11
-0.73226583 2.2012715 0.36096537 13
-0.72444236 2.179023 0.27725273 12
-0.73296177 2.205934 0.20002241 7
-0.73748499 2.2208426 0.12063438 7
-0.72538424 2.1856782 0.039529696 8
-0.61588913 1.8611864 -0.51505011 4
-0.7003864 2.1177721 -0.50614017 4
-0.72518915 2.1940532 -0.4413265 11
-0.72143823 2.183984 -0.35823521 11
-0.72765607 2.2040985 -0.28029981 10
-0.72677928 2.2027342 -0.19958696 15
-0.72032911 2.1844659 -0.11814647 9
-0.71924239 2.1824512 -0.03904837 8
-0.72210526 2.1924253 0.60782856 15
-0.72182947 2.1928761 0.5237397 13
-0.71905732 2.1857388 0.43941984 12
-0.7230351 2.1991231 0.36018407 13
-0.71528256 2.1768239 0.2766434 12
-0.72370303 2.2037468 0.19958664 7
-0.72661412 2.2139149 0.12011101 7
-0.71619225 2.1834466 0.039442439 8
-0.60938865 1.8633249 -0.51505011 4
-0.69147605 2.1155729 -0.50501537 5
-0.7144779 2.1872399 -0.43942013 11
-0.71227765 2.1817942 -0.35745302 10
-0.71841854 2.2019069 -0.27969044 10
-0.71754175 2.2005219 -0.19915117 15
-0.71115237 2.1822197 -0.11788567 10
-0.71007156 2.1801949 -0.038961977 8
-0.71295303 2.19034 0.60653532 15
-0.71266341 2.1907494 0.52261579 13
-0.70990568 2.1835675 0.43846661 12
-0.71382821 2.1969366 0.35940275 13
-0.70614696 2.1745875 0.27603403 12
-0.71446854 2.2015219 0.19915086 8
-0.7173413 2.2116883 0.11984934 7
-0.70702469 2.1811779 0.039355174 8
-0.60288072 1.8654407 -0.51505011 4
-0.6840871 2.1179738 -0.50501537 5
-0.70533085 2.1850493 -0.43846694 11
-0.70314115 2.1795673 -0.35667089 11
-0.70920521 2.1996782 -0.27908111 11
-0.70832849 2.1982722 -0.1987154 14
-0.70200014 2.1799357 -0.11762486 10
-0.70092553 2.1779017 -0.038875591 7
-0.70382398 2.1882172 0.60524201 14
-0.70352095 2.1885855 0.52149189 14
-0.70077795 2.1813591 0.43751341 12
-0.70464534 2.1947126 0.35862142 13
-0.69703567 2.1723137 0.27542472 12
-0.70525849 2.1992595 0.19871509 8
-0.7065689 2.204669 0.11932597 7
-0.69788182 2.1788716 0.039267913 8
-0.59636545 1.8675337 -0.51505011 3
-0.67668986 2.1203487 -0.50501537 5
-0.69620788 2.182822 -0.43751371 11
-0.69402897 2.1773031 -0.35588869 10
-0.7000162 2.1974115 -0.27847174 10
-0.69913965 2.1959851 -0.1982796 15
-0.69287246 2.1776149 -0.11736406 9
-0.69180393 2.1755707 -0.038789198 7
-0.6947186 2.1860578 0.60394883 15
-0.69440228 2.1863842 0.52036798 14
-0.69167447 2.1791139 0.43656024 12
-0.69548684 2.1924515 0.35784012 14
-0.68794882 2.1700027 0.27481535 13
-0.69607288 2.1969595 0.19827931 8
-0.69736153 2.2023616 0.11906429 7
-0.68876356 2.176528 0.039180648 7
-0.58984292 1.8696041 -0.51505011 3
-0.66928428 2.1226978 -0.50501537 5
-0.68710899 2.1805575 -0.43656054 11
-0.68494117 2.1750021 -0.35510653 10
-0.69085175 2.1951082 -0.27786243 10
-0.68997556 2.193661 -0.19784385 14
-0.68376964 2.1752567 -0.11710324 9
-0.68270731 2.173203 -0.038702808 7
-0.68563694 2.1838615 0.60265553 15
-0.68530756 2.1841462 0.51924407 14
-0.68259501 2.1768312 0.43560702 13
-0.68635267 2.1901534 0.35705879 14
-0.67888677 2.1676552 0.27420601 13
-0.686912 2.1946225 0.19784354 9
-0.68817896 2.200017 0.11880261 7
-0.67967021 2.1741474 0.03909339 7
-0.58331311 1.8716516 -0.51505011 4
-0.6618706 2.1250212 -0.50501537 5
-0.67803442 2.178256 -0.43560734 11
-0.67587793 2.1726642 -0.35432434 10
-0.68171185 2.1927671 -0.27725306 10
-0.68083608 2.1912994 -0.19740805 14
-0.6746918 2.1728618 -0.11684243 8
-0.67363554 2.1707978 -0.038616419 6
-0.67800963 2.1862414 0.60265553 16
-0.67623699 2.1818717 0.51812023 14
-0.67354017 2.1745124 0.43465388 12
-0.67724305 2.1878181 0.35627753 13
-0.67131609 2.1700118 0.27420601 13
-0.6777758 2.1922479 0.19740775 9
-0.67902118 2.1976352 0.11854094 8
-0.67060184 2.1717298 0.039006125 7
-0.57535547 1.8690606 -0.51375604 3
-0.65444887 2.1273186 -0.50501537 5
-0.67042679 2.1806097 -0.43560734 11
-0.66683936 2.1702898 -0.35354218 10
-0.67259675 2.1903892 -0.27664372 10
-0.67172164 2.1889007 -0.19697228 14
-0.66563886 2.1704297 -0.11658162 9
-0.66605395 2.1731362 -0.038616419 6
-0.66895956 2.1839767 0.60136229 15
-0.66719067 2.1795602 0.51699626 14
-0.66450971 2.1721566 0.43370065 13
-0.66815817 2.185446 0.3554962 14
-0.66228706 2.1675956 0.27359664 13
-0.66866469 2.1898367 0.19697198 10
-0.66988862 2.1952164 0.11827926 8
-0.66155875 2.169276 0.038918864 6
-0.56882769 1.8710575 -0.51375604 4
-0.64701915 2.1295903 -0.50501537 5
-0.66138494 2.1782401 -0.43465418 11
-0.65782559 2.1678784 -0.35275999 10
-0.66350663 2.1879747 -0.27603436 10
-0.66263223 2.1864655 -0.1965365 14
-0.65661126 2.1679616 -0.11632082 9
-0.65701598 2.1706631 -0.038530029 6
-0.65993357 2.1816754 0.60006905 15
-0.65816861 2.177212 0.51587236 14
-0.65550393 2.1697643 0.43274748 13
-0.65909803 2.1830373 0.3547149 14
-0.65328312 2.165143 0.27298734 14
-0.65957874 2.1873884 0.1965362 9
-0.66078109 2.1927605 0.11801757 9
-0.65254092 2.166785 0.038831603 6
-0.55951566 1.8637803 -0.51116782 3
-0.63818169 2.1271694 -0.50389069 5
-0.65377742 2.1805353 -0.43465418 10
-0.64883679 2.1654308 -0.35197783 10
-0.65444148 2.1855233 -0.27542502 10
-0.65499598 2.188765 -0.1965365 14
-0.647609 2.1654563 -0.11606 8
-0.64800334 2.1681533 -0.038443636 6
-0.65093189 2.1793382 0.5987758 15
-0.64917129 2.1748278 0.51474845 14
-0.64792603 2.1720393 0.43274748 13
-0.65006286 2.1805918 0.35393357 14
-0.64430451 2.1626542 0.27237797 14
-0.65051794 2.1849036 0.19610043 10
-0.65169889 2.190268 0.1177559 9
-0.64354223 2.1642597 0.038744342 6
-0.55542427 1.8750801 -0.51375604 3
-0.62899798 2.1248226 -0.50276589 5
-0.64438856 2.1782103 -0.43370095 10
-0.63949561 2.1630585 -0.35119566 10
-0.64502054 2.1831477 -0.27481568 10
-0.64555883 2.1863737 -0.19610073 14
-0.63966781 2.1678152 -0.11606 8
-0.63863826 2.1657188 -0.03835725 6
-0.64157444 2.1770763 0.5974825 15
-0.63981932 2.172519 0.51362455 14
-0.63857496 2.1696908 0.43179429 13
-0.64067274 2.1782219 0.35315228 15
-0.63497412 2.1602399 0.27176863 14
-0.64110166 2.1824942 0.19566463 10
-0.64226037 2.1878507 0.11749421 9
-0.63420451 2.1618047 0.038657077 6
-0.54616451 1.8677363 -0.51116782 3
-0.62157714 2.1270053 -0.50276589 5
-0.63540536 2.175735 -0.43274778 11
-0.63055772 2.1605372 -0.3504135 10
-0.63739598 2.1853859 -0.27481568 10
-0.63652921 2.1838319 -0.19566494 14
-0.63070047 2.1652412 -0.1157992 8
-0.6296773 2.1631346 -0.038270857 6
-0.63262206 2.174665 0.59618932 16
-0.63223195 2.1747391 0.51362455 14
-0.63099742 2.1719067 0.43179429 13
-0.63168836 2.1757021 0.35237095 15
-0.62604666 2.1576769 0.27115926 14
-0.6320923 2.1799347 0.19522887 10
-0.63322979 2.1852837 0.11723254 9
-0.62386709 2.1544034 0.038482554 7
-0.54130799 1.8741772 -0.5124619 3
-0.61354011 2.1242673 -0.50164115 5
-0.62720573 2.1730044 -0.43179458 10
-0.62376708 2.1625075 -0.3504135 10
-0.62915277 2.1826093 -0.27420634 10
-0.62966537 2.1858208 -0.19566494 14
-0.62251371 2.1624134 -0.11553839 7
-0.6214965 2.1602981 -0.038184468 6
-0.62578708 2.1766417 0.59618932 15
-0.62405127 2.1720319 0.51250064 14
-0.62281656 2.1691606 0.43084112 12
-0.62485009 2.177676 0.35237095 15
-0.61926502 2.1596329 0.27115926 14
-0.62386853 2.1771216 0.19479308 10
-0.62636143 2.1872623 0.11723254 10
-0.61572671 2.1515448 0.038395293 7
nan nan nan 0
-0.6061213 2.1263959 -0.50164115 5
-0.61827207 2.1704602 -0.43084142 10
-0.61486262 2.1599216 -0.34963131 10
-0.62017226 2.1800187 -0.27359697 10
-0.62066954 2.1832147 -0.19522917 14
-0.61359715 2.1597703 -0.11527758 7
-0.61122102 2.1528358 -0.038011689 5
-0.61686701 2.1741664 0.59489602 15
-0.61513668 2.1695096 0.51137674 14
-0.61390287 2.166599 0.42988792 12
-0.61589932 2.1750922 0.35158965 16
-0.61037147 2.1570063 0.27054995 14
-0.61626518 2.179286 0.19479308 10
-0.61736476 2.1846302 0.11697085 10
-0.60685402 2.1488695 0.038308028 7
nan nan nan 0
-0.59964186 2.1332932 -0.50276589 4
-0.60898536 2.1679862 -0.42988822 10
-0.60560727 2.1574063 -0.34884915 10
-0.61083752 2.1774988 -0.27298763 10
-0.61131901 2.1806786 -0.19479337 13
-0.60433006 2.1571965 -0.11501677 7
-0.6073696 2.1695039 -0.038270857 5
-0.60759282 2.1717613 0.59360272 16
-0.60586917 2.1670578 0.51025283 14
-0.60463709 2.1641073 0.42893475 13
-0.60659498 2.1725783 0.35080832 16
-0.6011278 2.1544487 0.26994058 14
-0.60827357 2.18153 0.19479308 10
-0.60801327 2.1820683 0.11670918 11
-0.59897387 2.1510794 0.038308028 8
-0.52294385 1.8843968 -0.51375604 4
-0.59219164 2.1353731 -0.50276589 4
-0.6001032 2.1653688 -0.42893505 10
-0.59675473 2.1547477 -0.34806696 10
-0.60190916 2.1748347 -0.27237827 9
-0.60370332 2.1827991 -0.19479337 13
-0.59546626 2.1544802 -0.11475597 7
-0.60511672 2.1908863 -0.038616419 4
-0.59872329 2.1692133 0.59230953 15
-0.59700549 2.1644626 0.50912893 14
-0.59577489 2.1614728 0.42798153 13
-0.59769613 2.1699212 0.35002702 14
-0.59228671 2.1517494 0.26933125 14
-0.6006549 2.18364 0.19479308 11
-0.59906924 2.1793628 0.11644749 12
-0.59013736 2.1483366 0.038220771 8
nan nan nan 0
-0.5847342 2.1374273 -0.50276589 4
-0.59124666 2.1627157 -0.42798182 10
-0.58922958 2.1568174 -0.34806696 10
-0.59300691 2.1721351 -0.27176896 10
-0.59476924 2.180088 -0.1943576 12
-0.58925533 2.1613629 -0.11501677 5
-0.60140783 2.2074556 -0.038875591 12
-0.58987886 2.1666298 0.59101623 15
-0.58816749 2.1618323 0.50800502 14
-0.58693868 2.158803 0.42702836 13
-0.5888232 2.1672285 0.3492457 15
-0.58477211 2.1538036 0.26933125 15
-0.59302896 2.1857233 0.19479308 10
-0.59015167 2.1766217 0.11618582 11
-0.58263469 2.1503835 0.038220771 7
-0.5072577 1.8786762 -0.51116782 4
-0.57853878 2.1441593 -0.50389069 5
-0.58241594 2.1600273 -0.42702866 10
-0.58041251 2.1540928 -0.34728479 9
-0.58542109 2.174192 -0.27176896 10
-0.58586138 2.1773407 -0.19392182 13
nan nan nan 0
-0.59888774 2.2288535 -0.039221149 11
-0.58105981 2.164011 0.58972305 15
-0.57935506 2.1591666 0.50688112 15
-0.57812822 2.1560977 0.42607516 12
-0.57997632 2.1645005 0.34846443 16
-0.57596666 2.1510377 0.26872188 15
-0.58410823 2.1829686 0.19435731 10
-0.5799706 2.1690209 0.11566246 13
-0.57383436 2.1475742 0.038133506 9
-0.50318217 1.8897697 -0.51375604 3
-0.57105076 2.1461656 -0.50389069 5
-0.57361114 2.1573036 -0.42607546 10
-0.57162166 2.1513331 -0.3465026 11
-0.5765546 2.1714253 -0.27115959 10
-0.5782575 2.1793725 -0.19392182 11
-0.57671142 2.1750767 -0.11553839 5
-0.58726269 2.2164326 -0.038961977 10
-0.57226628 2.1613572 0.58842975 15
-0.57056844 2.1564658 0.50575721 15
-0.57059842 2.1581025 0.42607516 14
-0.57115579 2.161737 0.3476831 15
-0.56718785 2.148237 0.26811254 15
-0.57394338 2.1753619 0.19348575 13
-0.57239574 2.1710322 0.11566246 12
-0.56506085 2.1447301 0.038046245 8
-0.48677158 1.8541437 -0.50340325 4
-0.56355578 2.1481459 -0.50389069 4
-0.56483263 2.1545448 -0.42512229 9
-0.56285709 2.1485381 -0.34572047 11
-0.5689714 2.173425 -0.27115959 9
-0.56938601 2.176559 -0.19348605 12
nan nan nan 0
-0.57825881 2.2136323 -0.038875591 11
-0.56349832 2.1586683 0.58713651 15
-0.56180769 2.1537299 0.50463331 14
-0.56182379 2.1553319 0.42512199 13
-0.56111664 2.1541591 0.34612048 16
-0.5584355 2.145401 0.2675032 15
-0.5650925 2.1725314 0.19304997 12
-0.5635578 2.1681845 0.11540078 13
-0.55631405 2.1418507 0.037958983 8
-0.48392665 1.8698583 -0.50728554 4
-0.55605388 2.1501 -0.50389069 4
-0.55730838 2.1565034 -0.42512229 10
-0.55411905 2.1457081 -0.34493828 10
-0.56014121 2.1705923 -0.27055025 10
-0.56054115 2.1737101 -0.19305027 12
-0.56525058 2.1935558 -0.11632082 12
-0.56928164 2.2107961 -0.038789198 11
-0.5559597 2.1606221 0.58713651 15
-0.55428642 2.1556778 0.50463331 14
-0.55307543 2.1525259 0.4241688 13
-0.55236572 2.1513214 0.34533918 16
-0.55094326 2.1473372 0.2675032 16
-0.55626851 2.1696658 0.1926142 13
-0.55598605 2.1701384 0.11540078 13
-0.54759431 2.1389363 0.037871718 9
-0.47859037 1.8762158 -0.50857961 4
-0.5485453 2.1520278 -0.50389069 4
-0.54856592 2.1536794 -0.42416909 10
-0.54540765 2.1428435 -0.34415612 9
-0.55133778 2.1677248 -0.26994088 10
-0.55172318 2.1708262 -0.1926145 12
-0.55636102 2.1906757 -0.11606 12
-0.55910158 2.2030783 -0.038616419 12
-0.54722714 2.1578679 0.58584327 15
-0.54556155 2.1528771 0.5035094 14
-0.54435343 2.1496851 0.42321563 13
-0.54485279 2.1532366 0.34533918 16
-0.54222775 2.1444361 0.26689386 15
-0.5474714 2.166765 0.19217841 12
-0.5484075 2.172066 0.11540078 13
-0.53890175 2.1359875 0.037784457 9
-0.47994652 1.9107465 -0.51763833 4
-0.540654 2.1540239 -0.50389069 5
-0.53947455 2.1509147 -0.42321593 10
-0.53755003 2.1448281 -0.34415612 10
-0.54218334 2.164917 -0.26933157 10
-0.54255378 2.1680017 -0.19217871 12
-0.54590535 2.1830122 -0.11553839 12
-0.54981118 2.2002628 -0.038530029 11
-0.53931445 2.1598592 0.58584327 16
-0.53648764 2.1501348 0.5023855 15
-0.53528333 2.1469035 0.4222624 13
-0.5357632 2.1504266 0.34455785 16
-0.53316545 2.1415932 0.2662845 15
-0.53952616 2.1687572 0.19217841 12
-0.53923821 2.1692159 0.1151391 14
-0.52986413 2.1330962 0.037697192 11
-0.46283194 1.8702163 -0.50599146 3
-0.53313178 2.1558981 -0.50389069 4
-0.53078568 2.1480196 -0.4222627 10
-0.52887607 2.1418967 -0.34337392 10
-0.53343421 2.161978 -0.26872221 10
-0.53379035 2.1650462 -0.19174294 11
-0.54305959 2.2042973 -0.11658162 11
-0.5397374 2.1924598 -0.03835725 9
-0.53061819 2.1570387 0.58455002 16
-0.52781606 2.1472633 0.50126159 14
-0.5266152 2.1439922 0.42130923 13
-0.52825356 2.1522837 0.34455785 15
-0.52568662 2.1434412 0.2662845 16
-0.5307669 2.1657896 0.19174264 12
-0.531663 2.1710849 0.1151391 13
-0.52122027 2.1300786 0.037609935 10
-0.47231457 1.9375114 -0.52410877 3
-0.52560306 2.1577458 -0.50389069 5
-0.52212369 2.1450903 -0.42130953 11
-0.52022922 2.1389315 -0.34259176 10
-0.52471232 2.1590047 -0.26811287 10
-0.52505422 2.1620557 -0.19130714 10
-0.53300685 2.1964748 -0.11606 12
-0.5297249 2.1846137 -0.038184468 9
-0.52194804 2.1541834 0.58325672 15
-0.52031755 2.1490927 0.50126159 15
-0.5179739 2.1410465 0.42035604 13
-0.51957709 2.1493146 0.34377655 16
-0.5170362 2.1404393 0.26567516 15
-0.52320367 2.1676292 0.19174264 12
-0.52291054 2.1680737 0.11487742 14
-0.51261693 2.1270235 0.03752267 12
-0.454274 1.8921865 -0.51116782 4
-0.5180679 2.1595676 -0.50389069 5
-0.51348859 2.1421268 -0.42035633 10
-0.51160938 2.1359317 -0.34180957 10
-0.51717275 2.1608231 -0.26811287 10
-0.5163455 2.1590312 -0.19087137 9
-0.5253365 2.1983221 -0.11606 11
-0.51977366 2.1767244 -0.038011689 11
-0.51330447 2.1512945 0.58196354 14
-0.51168269 2.1461565 0.50013769 14
-0.50935966 2.1380672 0.41940287 13
-0.51207137 2.1511152 0.34377655 14
-0.50841302 2.1374028 0.26506582 14
-0.5144822 2.1645961 0.19130686 13
-0.51418555 2.1650276 0.11461575 15
-0.50518912 2.1287999 0.03752267 12
nan nan nan 0
-0.51052642 2.1613626 -0.50389069 5
-0.50488055 2.1391289 -0.41940317 10
-0.50301689 2.1328981 -0.34102744 10
-0.5084886 2.1577847 -0.2675035 10
-0.50766426 2.155972 -0.19043559 10
-0.51651615 2.1952822 -0.1157992 11
-0.51102817 2.1736588 -0.037925296 10
-0.50468743 2.1483712 0.58067024 15
-0.50418812 2.1479297 0.50013769 14
-0.50077242 2.1350532 0.41844967 13
-0.50343257 2.1480811 0.34299523 17
-0.49981749 2.1343324 0.26445645 16
-0.50578839 2.1615291 0.19087109 13
-0.50548828 2.1619473 0.11435406 13
-0.49661785 2.1256821 0.037435409 13
nan nan nan 0
-0.50408208 2.1678767 -0.50501537 5
-0.49741054 2.1408784 -0.41940317 10
-0.49445185 2.1298304 -0.34024525 9
-0.49983197 2.1547122 -0.26689416 10
-0.50013542 2.1577311 -0.19043559 10
-0.50772339 2.1922071 -0.11553839 10
-0.50118327 2.1656883 -0.037752517 12
-0.49609697 2.1454141 0.579377 15
-0.49559057 2.1449294 0.49901381 14
-0.49221259 2.1320059 0.4174965 14
-0.49482122 2.1450131 0.34221393 16
-0.49124953 2.1312284 0.26384711 16
-0.4971222 2.1584272 0.19043529 14
-0.49681881 2.1588326 0.11409239 14
-0.48919481 2.1274028 0.037435409 13
nan nan nan 0
-0.49651173 2.1696229 -0.50501537 6
-0.48884031 2.1378167 -0.41844994 11
-0.48701432 2.1315434 -0.34024525 10
-0.49230757 2.1564438 -0.26689416 10
-0.49149275 2.1546075 -0.18999982 9
-0.49895847 2.1890979 -0.11527758 10
-0.49251044 2.1625502 -0.037666127 12
-0.48860505 2.1471329 0.579377 16
-0.48702008 2.1418955 0.49788988 15
-0.48476753 2.1337111 0.4174965 13
-0.48514417 2.1370952 0.34065133 12
-0.48270932 2.1280901 0.26323774 17
-0.48848391 2.1552918 0.18999954 14
-0.48707432 2.1508138 0.11356901 15
-0.48066247 2.1242213 0.037348147 13
-0.4320578 1.9171907 -0.51634425 3
-0.48893529 2.1713428 -0.50501537 6
-0.48137495 2.1395102 -0.41844994 10
-0.47848767 2.1284118 -0.33946306 10
-0.48368955 2.153307 -0.26628482 10
-0.48396876 2.1563101 -0.18999982 9
-0.49022138 2.1859539 -0.11501677 10
-0.48277253 2.1544995 -0.037493344 13
-0.48005193 2.1441119 0.57808375 15
-0.47847691 2.138828 0.496766 15
-0.47624579 2.1306002 0.41654328 14
-0.47660482 2.1339557 0.33987001 12
-0.47419715 2.1249189 0.26262844 16
-0.47987351 2.152122 0.18956374 15
-0.47847784 2.1476274 0.11330734 15
-0.47324461 2.1258862 0.037348147 15
-0.42431757 1.913972 -0.51505011 4
-0.48135293 2.1730363 -0.50501537 6
-0.47284305 2.136385 -0.4174968 11
-0.46998894 2.1252477 -0.33868089 10
-0.47617015 2.1549823 -0.26628482 11
-0.47643888 2.1579864 -0.18999982 8
-0.48151243 2.182776 -0.11475597 11
-0.47309682 2.1464074 -0.037320562 11
-0.47152594 2.141058 0.57679051 15
-0.47100812 2.1404853 0.496766 14
-0.4688057 2.1322496 0.41654328 13
-0.46915302 2.1356065 0.33987001 12
-0.46571288 2.1217136 0.26201907 17
-0.47235826 2.153784 0.18956374 15
-0.46884072 2.1395299 0.11278398 16
-0.465821 2.1275251 0.037348147 15
-0.41763398 1.9154414 -0.51505011 4
-0.47376469 2.1747034 -0.50501537 6
-0.46433884 2.1332266 -0.41654357 11
-0.46256757 2.1268752 -0.33868089 10
-0.46759117 2.1517818 -0.26567549 10
-0.46996003 2.1645036 -0.19043559 9
-0.47389019 2.1844435 -0.11475597 11
-0.46348351 2.1382742 -0.037147783 11
-0.463027 2.1379702 0.57549721 15
-0.46250308 2.1373544 0.49564207 15
-0.46135992 2.133873 0.41654328 13
-0.46169549 2.1372311 0.33987001 11
-0.45725682 2.1184754 0.26140973 16
-0.46483728 2.1554198 0.18956374 14
-0.45926595 2.131391 0.11226062 12
-0.4583917 2.1291382 0.037348147 13
-0.40993294 1.9121654 -0.51375604 4
-0.46617067 2.1763439 -0.50501537 6
-0.45688966 2.1348345 -0.41654357 10
-0.45514059 2.1284769 -0.33868089 10
-0.46111408 2.1582541 -0.26628482 10
-0.46344149 2.1710021 -0.19087137 8
-0.46626216 2.1860843 -0.11475597 12
-0.45810065 2.149658 -0.037320562 10
-0.45757294 2.1490216 0.57808375 13
-0.45605335 2.1437213 0.496766 12
-0.45492899 2.1402714 0.4174965 11
-0.45628425 2.1484914 0.3414326 11
-0.45191947 2.1297681 0.26262844 14
-0.45834371 2.161902 0.18999954 14
-0.45182323 2.1329811 0.11226062 11
-0.4530271 2.1405072 0.03752267 12
-0.39927214 1.8946811 -0.50857961 4
-0.45857096 2.177958 -0.50501537 6
-0.45044535 2.1412194 -0.4174968 9
-0.44872376 2.1348851 -0.33946306 8
-0.45459747 2.1647072 -0.26689416 8
-0.45790616 2.1823564 -0.19174294 8
-0.45862848 2.1876986 -0.11475597 10
-0.45264396 2.1610301 -0.037493344 11
-0.45204735 2.1600606 0.58067024 14
-0.45056182 2.1548378 0.49901381 14
-0.44946274 2.1514556 0.41940287 13
-0.4508 2.15974 0.34299523 17
-0.44752187 2.1459072 0.26445645 15
-0.45181045 2.1683648 0.19043529 16
-0.44946325 2.1589868 0.11356901 13
-0.44758865 2.1518643 0.037697192 18
-0.39167666 1.8913339 -0.50728554 4
-0.45096567 2.1795454 -0.50501537 6
-0.44495571 2.1523921 -0.41940317 9
-0.44326681 2.1461115 -0.34102744 9
-0.44904447 2.1760018 -0.26811287 11
-0.45229721 2.1936982 -0.1926145 14
-0.45098919 2.1892862 -0.11475597 12
-0.44711342 2.1723902 -0.037666127 17
-0.4474231 2.175818 0.58455002 25
-0.44499832 2.1659422 0.50126159 22
-0.44392386 2.1626275 0.42130923 27
-0.4452427 2.1709759 0.34455785 36
-0.44301715 2.1620414 0.2662845 25
-0.44623673 2.1796882 0.19130686 35
-0.44492608 2.1752183 0.11435406 28
-0.44207647 2.1632097 0.037871718 32
-0.39084953 1.9210858 -0.51505011 4
-0.44432539 2.1858807 -0.50614017 6
-0.43939352 2.1635525 -0.42130953 13
-0.43773687 2.1573255 -0.34259176 16
-0.44341809 2.1872835 -0.26933157 21
-0.444637 2.1952636 -0.1926145 23
-0.44235402 2.1859531 -0.11449515 19
-0.44150904 2.183738 -0.03783891 31
-0.44269425 2.1915691 0.58842975 37
-0.43839884 2.1722581 0.5023855 38
-0.43734238 2.1689754 0.4222624 36
-0.43766186 2.1725168 0.34455785 31
-0.43840519 2.1781702 0.26811254 38
-0.4396075 2.186116 0.19174264 40
-0.43929747 2.1865489 0.11487742 36
-0.43550667 2.1696415 0.037958983 66
-0.38698035 1.9366465 -0.5189324 4
-0.43669254 2.1874182 -0.50614017 6
-0.43375883 2.1747 -0.42321593 17
-0.43213394 2.1685266 -0.34415612 19
-0.43771839 2.1985524 -0.27055025 25
-0.4369714 2.1968024 -0.1926145 15
-0.43472096 2.1874838 -0.11449515 24
-0.43193647 2.1754587 -0.037666127 22
-0.43316197 2.1836259 0.58584327 33
-0.43176079 2.1785545 0.5035094 34
-0.42976856 2.1704886 0.4222624 31
-0.43007571 2.1740313 0.34455785 36
-0.42887479 2.16995 0.26689386 34
-0.43197384 2.1876371 0.19174264 36
-0.43069592 2.1831703 0.11461575 29
-0.42793053 2.1711483 0.037958983 70
-0.38300726 1.9522034 -0.52281469 4
-0.42905435 2.1889293 -0.50614017 5
-0.42616504 2.1762009 -0.42321593 16
-0.42550996 2.1748683 -0.34493828 19
-0.43099338 2.2049375 -0.27115959 22
-0.42834574 2.1934257 -0.19217871 16
-0.42612636 2.1840873 -0.11423435 15
-0.42338359 2.1720462 -0.037579738 25
-0.42461386 2.1803842 0.58455002 35
-0.42322305 2.1752656 0.5023855 36
-0.421253 2.1671574 0.42130923 33
-0.42154288 2.1706715 0.34377655 37
-0.42035243 2.1665621 0.2662845 37
-0.42338705 2.1842418 0.19130686 42
-0.42212325 2.1797583 0.11435406 36
-0.41939956 2.1677203 0.037871718 70
-0.37527719 1.9487858 -0.52152056 4
-0.42141095 2.1904137 -0.50614017 6
-0.41856608 2.1776752 -0.42321593 15
-0.41791564 2.1763403 -0.34493828 18
-0.42329407 2.2064283 -0.27115959 28
-0.41974902 2.1900153 -0.19174294 16
-0.41756085 2.1806571 -0.11397354 17
-0.41485986 2.1686008 -0.037493344 26
-0.41518694 2.172365 0.58196354 35
-0.41562739 2.1767297 0.5023855 38
-0.41276589 2.1637933 0.42035604 33
-0.41303867 2.1672783 0.34299523 34
-0.41185895 2.163141 0.26567516 37
-0.41482928 2.1808133 0.19087109 40
-0.41357976 2.1763134 0.11409239 36
-0.41089779 2.1642597 0.037784457 70
-0.36757571 1.9453384 -0.52022654 4
-0.41285866 2.1870837 -0.50501537 6
-0.41096202 2.1791229 -0.42321593 15
-0.40940189 2.1729329 -0.34415612 18
-0.41467163 2.2030153 -0.27055025 22
-0.41118136 2.1865721 -0.19130714 16
-0.40902445 2.1771941 -0.11371273 17
-0.40636533 2.1651223 -0.037406955 24
-0.40671131 2.1690538 0.58067024 35
-0.40712962 2.1733787 0.50126159 35
-0.40430748 2.1603966 0.41940287 34
-0.40456334 2.1638525 0.34221393 33
-0.40430564 2.1645656 0.26567516 37
-0.40630057 2.1773512 0.19043529 39
-0.4059805 2.1777437 0.11409239 35
-0.40242526 2.1607659 0.037697192 70
-0.3604432 1.9466726 -0.52022654 4
-0.40483984 2.1885824 -0.50501537 6
-0.40208039 2.1757877 -0.4222627 15
-0.40143496 2.1744189 -0.34415612 17
-0.40569425 2.19964 -0.26994088 22
-0.40226188 2.183166 -0.19087137 15
-0.39923397 2.1688571 -0.1131911 18
-0.39752281 2.1616802 -0.037320562 25
-0.39788592 2.1657796 0.579377 33
-0.39828154 2.1700644 0.50013769 36
-0.39550126 2.1570361 0.41844967 32
-0.39573988 2.1604631 0.3414326 31
-0.39547607 2.1611509 0.26506582 37
-0.39742172 2.1739261 0.18999954 41
-0.39709884 2.174305 0.1138307 34
-0.39360565 2.1573086 0.037609935 68
-0.35364586 1.9479189 -0.52022654 4
-0.39632842 2.1851888 -0.50389069 6
-0.39448306 2.1771781 -0.4222627 16
-0.39296272 2.1709473 -0.34337392 21
-0.39713055 2.1961594 -0.26933157 19
-0.3928678 2.1747537 -0.18999982 14
-0.39077407 2.1653237 -0.1129303 18
-0.38908774 2.1581347 -0.037234176 19
-0.38946736 2.1624017 0.57808375 28
-0.38984141 2.1666462 0.49901381 30
-0.38710111 2.1535728 0.4174965 29
-0.38732326 2.1569705 0.34065133 27
-0.38705358 2.1576335 0.26445645 31
-0.38895226 2.1703973 0.18956374 35
-0.38862672 2.1707625 0.11356901 34
-0.38518614 2.1537495 0.03752267 62
-0.3468442 1.9491414 -0.52022654 3
-0.38869825 2.186559 -0.50389069 6
-0.38602266 2.1737094 -0.42130953 15
-0.38451976 2.1674435 -0.34259176 19
-0.38773003 2.1877592 -0.26811287 17
-0.3844057 2.171207 -0.18956403 12
-0.38234359 2.1617575 -0.11266948 16
-0.38068217 2.1545565 -0.037147783 16
-0.38107729 2.1589918 0.57679051 25
-0.38143003 2.1631958 0.49788988 29
-0.37872988 2.1500769 0.41654328 26
-0.37893572 2.1534455 0.33987001 23
-0.37866047 2.1540837 0.26384711 29
-0.38051227 2.1668358 0.18912795 31
-0.37932146 2.1622701 0.11304566 29
-0.37680945 2.1501555 0.037435409 61
-0.34086782 1.955098 -0.52152056 3
-0.38106337 2.1879025 -0.50389069 6
-0.37843266 2.1750436 -0.42130953 15
-0.37695161 2.1687725 -0.34259176 19
-0.37924194 2.1842096 -0.2675035 15
-0.37597317 2.1676276 -0.18912823 12
-0.37394291 2.1581593 -0.11240868 15
-0.37230647 2.1509464 -0.037061393 17
-0.37189284 2.1507905 0.57420403 22
-0.3730475 2.1597133 0.496766 27
-0.37038782 2.146549 0.41559011 22
-0.3705776 2.1498883 0.33908868 26
-0.37029684 2.1505015 0.26323774 27
-0.37210193 2.1632421 0.18869218 30
-0.3709259 2.1586602 0.11278398 24
-0.36845592 2.1465304 0.037348147 64
-0.3348541 1.9610367 -0.52281469 3
-0.37342384 2.1892192 -0.50389069 7
-0.37001356 2.1715128 -0.42035633 17
-0.36855018 2.1652064 -0.34180957 17
-0.37078345 2.1806276 -0.26689416 14
-0.36757037 2.1640165 -0.18869248 14
-0.36557195 2.1545286 -0.11214787 17
-0.36396053 2.1473038 -0.036975004 23
-0.36438292 2.1520755 0.57420403 27
-0.36469385 2.1561983 0.49564207 29
-0.36207497 2.1429892 0.41463691 27
-0.36307085 2.1511686 0.33908868 28
-0.36196288 2.1468875 0.26262844 31
-0.3645485 2.1645277 0.18869218 32
-0.36256003 2.1550176 0.1125223 31
-0.3609609 2.1478035 0.037348147 64
-0.32800677 1.9621936 -0.52281469 3
-0.36577979 2.1905093 -0.50389069 8
-0.36243132 2.172791 -0.42035633 21
-0.36098996 2.1664798 -0.34180957 20
-0.36316937 2.1819084 -0.26689416 14
-0.35919735 2.1603727 -0.18825668 14
-0.3572309 2.150866 -0.11188706 18
-0.35646281 2.148561 -0.036975004 18
-0.35607883 2.1485691 0.57291073 25
-0.35636941 2.1526518 0.49451819 28
-0.35459235 2.1442399 0.41463691 24
-0.35475475 2.1475503 0.33830738 26
-0.35446668 2.1481378 0.26262844 27
-0.35618055 2.1608722 0.1882564 29
-0.35422423 2.1513433 0.11226062 26
-0.35265014 2.1441176 0.037260886 64
-0.32193509 1.9680928 -0.52410877 4
-0.35813123 2.1917729 -0.50389069 8
-0.354054 2.1691988 -0.41940317 17
-0.35263067 2.1628528 -0.34102744 15
-0.35475317 2.1782649 -0.26628482 14
-0.35165405 2.1616132 -0.18825668 15
-0.34891993 2.1471713 -0.11162625 18
-0.34815976 2.1448579 -0.036888614 22
-0.34780374 2.1450317 0.57161748 25
-0.34885308 2.1538825 0.49451819 28
-0.34632143 2.140619 0.41368371 27
-0.34725621 2.1487756 0.33830738 25
-0.34617519 2.1444626 0.26201907 27
-0.34863552 2.1621022 0.1882564 32
-0.34671247 2.1525667 0.11226062 29
-0.34516364 2.1453354 0.037260886 64
-0.31506318 1.9692045 -0.52410877 4
-0.35047835 2.1930096 -0.50389069 8
-0.34647992 2.1704214 -0.41940317 17
-0.34507874 2.1640704 -0.34102744 15
-0.34714743 2.1794899 -0.26628482 12
-0.34332386 2.1579087 -0.18782091 14
-0.34142277 2.1483762 -0.11162625 19
-0.34067068 2.14606 -0.036888614 21
-0.34031406 2.1462326 0.57161748 24
-0.34057033 2.150275 0.49339426 27
-0.33884719 2.1418149 0.41368371 24
-0.33898261 2.1450965 0.33752605 25
-0.33868751 2.145658 0.26201907 27
-0.34031051 2.158386 0.18782063 30
-0.33841968 2.1488314 0.11199894 28
-0.33689597 2.1415887 0.037173621 61
-0.30893382 1.9750642 -0.5254029 4
-0.34282118 2.1942196 -0.50389069 8
-0.33890164 2.1716177 -0.41940317 18
-0.33676201 2.1603823 -0.34024525 14
-0.338774 2.1757848 -0.26567549 13
-0.33578926 2.1590941 -0.18782091 14
-0.33392149 2.149555 -0.11162625 19
-0.33317745 2.1472361 -0.036888614 19
-0.33282027 2.1474075 0.57161748 23
-0.33306238 2.1514509 0.49339426 25
-0.33136877 2.1429846 0.41368371 23
-0.33149275 2.1462667 0.33752605 24
-0.33043906 2.1419225 0.26140973 26
-0.33277428 2.1595609 0.18782063 30
-0.33091679 2.1499996 0.11199894 26
-0.32941839 2.1427515 0.037173621 62
-0.30276737 1.9809046 -0.52669698 4
-0.33589503 2.2002187 -0.50501537 7
-0.33057928 2.1679351 -0.41844994 17
-0.3292188 2.1615446 -0.34024525 13
-0.33117703 2.176954 -0.26567549 11
-0.32750225 2.1553283 -0.18738513 14
-0.32641608 2.1507072 -0.11162625 19
-0.32568017 2.148386 -0.036888614 19
-0.32459933 2.1437807 0.57032424 24
-0.32555041 2.1526003 0.49339426 24
-0.32315329 2.1392753 0.41273054 23
-0.32326213 2.1425278 0.33674476 24
-0.32296032 2.1430628 0.26140973 24
-0.32449257 2.1557837 0.18738484 29
-0.32340991 2.1511416 0.11199894 25
-0.32193679 2.1438882 0.037173621 63
-0.29550499 1.9820009 -0.52669698 4
-0.32782859 2.2014351 -0.50501537 7
-0.32263121 2.1691322 -0.41844994 17
-0.32056841 2.1578517 -0.33946306 12
-0.32246745 2.173244 -0.26506612 11
-0.3196004 2.1565142 -0.18738513 14
-0.31853113 2.1518893 -0.11162625 19
-0.31780377 2.1495652 -0.036888614 19
-0.31603423 2.140178 0.569031 23
-0.31694767 2.1489592 0.49227038 25
-0.31531027 2.1404452 0.41273054 21
-0.31540719 2.143698 0.33674476 22
-0.3143819 2.1393223 0.26080036 27
-0.31658906 2.1569586 0.18738484 30
-0.31479916 2.1473722 0.11173727 26
-0.31335267 2.1401076 0.037086364 64
-0.28858471 1.9830203 -0.52669698 3
-0.32014215 2.2025659 -0.50501537 7
-0.31435239 2.1653876 -0.4174968 17
-0.31303418 2.1589575 -0.33946306 12
-0.31487945 2.1743565 -0.26506612 10
-0.31135783 2.1526871 -0.18694936 15
-0.31030384 2.148046 -0.11136544 21
-0.30958456 2.1457136 -0.036802221 22
-0.30787277 2.1364875 0.5677377 25
-0.30944446 2.1500523 0.49227038 26
-0.30713844 2.1366746 0.41177732 24
-0.30722049 2.1398973 0.33596343 24
-0.30691236 2.1404066 0.26080036 28
-0.30905792 2.1580505 0.18738484 28
-0.30730152 2.148458 0.11173727 26
-0.30587378 2.1411893 0.037086364 63
-0.28200716 1.9839665 -0.52669698 4
-0.31322101 2.2035608 -0.50501537 7
-0.30754808 2.1663647 -0.4174968 18
-0.30555686 2.155041 -0.33868089 12
-0.30804697 2.1753349 -0.26506612 9
-0.30459344 2.1536546 -0.18694936 16
-0.303554 2.1490104 -0.11136544 20
-0.30284208 2.1466756 -0.036802221 23
-0.30115929 2.1374443 0.5677377 26
-0.30200943 2.1461892 0.49114645 28
-0.30042434 2.1376288 0.41177732 26
-0.30049634 2.140852 0.33596343 26
-0.2994976 2.1364455 0.26019105 28
-0.30158609 2.154078 0.18694907 28
-0.29985896 2.1444676 0.11147558 28
-0.29846066 2.1371875 0.036999099 64
-0.27542654 1.9848907 -0.52669698 4
-0.30552721 2.2046409 -0.50501537 8
-0.29931125 2.1625631 -0.41654357 19
-0.29803246 2.1560946 -0.33868089 12
-0.30045176 2.1763968 -0.26506612 10
-0.2963936 2.1497705 -0.18651357 17
-0.29536963 2.1451104 -0.11110463 21
-0.29466587 2.1427672 -0.036715835 24
-0.2936964 2.1384826 0.5677377 25
-0.294516 2.1472304 0.49114645 29
-0.29296082 2.1386645 0.41177732 25
-0.29235214 2.1369948 0.33518213 26
-0.2920382 2.1374781 0.26019105 27
-0.29406512 2.1551178 0.18694907 30
-0.29237154 2.1455014 0.11147558 27
-0.2909987 2.1382163 0.036999099 66
-0.26844856 1.9907202 -0.52799106 4
-0.2970598 2.2057977 -0.50501537 8
-0.29035121 2.1588321 -0.41559041 18
-0.2897515 2.157223 -0.33868089 12
-0.29209277 2.1775346 -0.26506612 10
-0.2881369 2.1508927 -0.18651357 18
-0.2871308 2.1462286 -0.11110463 22
-0.28577405 2.1389272 -0.036629442 24
-0.28548309 2.1395946 0.5677377 18
-0.2862691 2.1483455 0.49114645 29
-0.2847468 2.1397736 0.41177732 26
-0.28414455 2.1381018 0.33518213 26
-0.28382874 2.1385837 0.26019105 26
-0.28513342 2.151293 0.18651327 28
-0.28347608 2.1416583 0.11121391 28
-0.28213131 2.1343617 0.036911838 66
-0.26149803 1.991645 -0.52799106 3
-0.28935832 2.2068212 -0.50501537 9
-0.2828137 2.1598325 -0.41559041 17
-0.28221959 2.1582212 -0.33868089 11
-0.28448996 2.1785407 -0.26506612 9
-0.27998304 2.1469462 -0.1860778 19
-0.2789925 2.1422665 -0.11084383 23
-0.27830604 2.1399119 -0.036629442 24
-0.27739072 2.1357884 0.56644452 10
-0.27876821 2.1493316 0.49114645 24
-0.27664539 2.1358869 0.41082415 26
-0.27604595 2.1341827 0.3344008 24
-0.27636197 2.1395614 0.26019105 25
-0.27698508 2.1473351 0.18607752 27
-0.27599859 2.1426349 0.11121391 27
-0.27467263 2.1353345 0.036911838 64
-0.25489202 1.9925013 -0.52799106 3
-0.28203863 2.2077687 -0.50501537 9
-0.27502874 2.1558893 -0.41463721 17
-0.27506113 2.1591451 -0.33868089 10
-0.27726412 2.1794722 -0.26506612 17
-0.27223423 2.1429217 -0.185642 21
-0.27125856 2.1382263 -0.11058301 22
-0.27058002 2.1358633 -0.036543053 26
-0.27030668 2.1366966 0.56644452 7
-0.27163926 2.1502442 0.49114645 13
-0.26956099 2.1367924 0.41082415 15
-0.26896721 2.1350865 0.3344008 16
-0.26864597 2.1355419 0.25958169 27
-0.26986274 2.1482418 0.18607752 28
-0.26889184 2.1435382 0.11121391 27
-0.26697531 2.1312721 0.036824573 64
-0.24793537 1.9933789 -0.52799106 3
-0.27433038 2.2087398 -0.50501537 10
-0.26750159 2.1568363 -0.41463721 16
-0.26691565 2.1551912 -0.3378987 10
-0.26965466 2.1804268 -0.26506612 13
-0.26475239 2.1438589 -0.185642 17
-0.26379308 2.1391602 -0.11058301 23
-0.26312283 2.1367948 -0.036543053 25
-0.26461488 2.1520083 0.57032424 5
-0.26531935 2.1608508 0.49339426 6
-0.26150325 2.1328487 0.40987095 9
-0.26151273 2.1360123 0.3344008 10
-0.26118991 2.1364667 0.25958169 25
-0.26175874 2.1442263 0.18564172 29
-0.26080367 2.1395073 0.11095222 28
-0.25953418 2.1321912 0.036824573 66
-0.24097566 1.9942322 -0.52799106 3
-0.26661876 2.2096839 -0.50501537 11
-0.25997123 2.1577568 -0.41463721 16
-0.25939098 2.1561096 -0.3378987 9
-0.26144999 2.1764276 -0.26445675 13
-0.25667408 2.1398244 -0.18520623 17
-0.2557306 2.1351101 -0.11032221 25
-0.25566241 2.1377003 -0.036543053 27
-0.25996494 2.176898 0.57679051 10
-0.25835183 2.1666017 0.49451819 5
-0.25347629 2.1288745 0.40891778 6
-0.25347203 2.1320081 0.33361951 7
-0.25314566 2.1324375 0.25897235 25
-0.2542724 2.1451271 0.18564172 29
-0.25333381 2.1404047 0.11095222 29
-0.25150314 2.1281195 0.036737315 63
-0.23401302 1.9950612 -0.52799106 3
-0.25890389 2.2106011 -0.50501537 11
-0.25243765 2.1586511 -0.41463721 16
-0.25129044 2.152097 -0.33711654 10
-0.25385126 2.1773269 -0.26445675 14
-0.24920313 2.1407073 -0.18520623 17
-0.24827613 2.1359899 -0.11032221 26
-0.24819887 2.1385798 -0.036543053 26
-0.25292051 2.1825895 0.57808375 9
-0.25246733 2.1820095 0.49788988 11
-0.24604361 2.1297464 0.40891778 15
-0.24602841 2.13288 0.33361951 6
-0.24570051 2.1333082 0.25897235 23
-0.24678294 2.1460016 0.18564172 30
-0.24529128 2.1363153 0.11069055 29
-0.24407308 2.1289842 0.036737315 68
-0.22669919 1.9959054 -0.52799106 3
-0.25025097 2.2066946 -0.50389069 12
-0.24397188 2.1546848 -0.41368398 16
-0.24340093 2.1530035 -0.33711654 9
-0.24531263 2.1733112 -0.26384741 13
-0.24079755 2.1366565 -0.18477045 18
-0.24044566 2.1368854 -0.11032221 26
-0.23980078 2.1345069 -0.036456663 27
-0.24276569 2.1643028 0.57291073 15
-0.24338369 2.1732364 0.49564207 20
-0.23769063 2.125756 0.40796459 24
-0.23820934 2.1337674 0.33361951 10
-0.23733012 2.129262 0.25836298 25
-0.23836492 2.1419413 0.18520595 30
-0.23745964 2.1371999 0.11069055 28
-0.23571713 2.124896 0.03665005 64
-0.21920249 1.9918838 -0.52669698 3
-0.24201454 2.2027116 -0.50276589 13
-0.23644914 2.1555233 -0.41368398 15
-0.23534641 2.1489308 -0.33633435 10
-0.23718542 2.1692209 -0.26323807 13
-0.23333776 2.1374841 -0.18477045 18
-0.23298508 2.1377118 -0.11032221 26
-0.2323485 2.1353312 -0.036456663 27
-0.23416616 2.155534 0.57032424 6
-0.23369487 2.1546984 0.49114645 24
-0.2302689 2.1265726 0.40796459 25
-0.23022887 2.1296759 0.33283818 16
-0.22989617 2.1300774 0.25836298 26
-0.2308867 2.1427605 0.18520595 31
-0.22946392 2.1330514 0.11042886 29
-0.22829179 2.1257067 0.03665005 66
-0.21224818 1.9926369 -0.52669698 3
-0.23380902 2.1986988 -0.50164115 14
-0.22840534 2.1514544 -0.41273081 15
-0.22732334 2.1448283 -0.33555222 10
-0.22908983 2.1651008 -0.26262873 14
-0.2253519 2.1333323 -0.18433468 19
-0.22499798 2.1335464 -0.1100614 26
-0.22436996 2.1311574 -0.036370274 29
-0.22563079 2.1467314 0.5677377 6
-0.22515529 2.1458099 0.48889863 20
-0.22284438 2.1273637 0.40796459 24
-0.2227935 2.1304665 0.33283818 25
-0.22194412 2.1259313 0.25775367 26
-0.22288933 2.1385992 0.18477017 30
-0.22201677 2.1338394 0.11042886 29
-0.22087695 2.1264899 0.03665005 65
-0.20529129 1.9933656 -0.52669698 3
-0.22563443 2.1946549 -0.50051636 11
-0.22039285 2.147356 -0.41177762 14
-0.21933176 2.140696 -0.33477002 10
-0.22153081 2.1658871 -0.26262873 14
-0.21790381 2.1341059 -0.18433468 18
-0.21754916 2.1343188 -0.1100614 28
-0.21692948 2.1319275 -0.036370274 26
-0.21764785 2.1427009 0.56644452 19
-0.21668066 2.1368887 0.48665082 27
-0.21541713 2.1281283 0.40796459 23
-0.21535543 2.1312313 0.33283818 19
-0.21452188 2.126693 0.25775367 26
-0.21542287 2.1393642 0.18477017 32
-0.21456693 2.1346014 0.11042886 27
-0.21295364 2.1222737 0.036562789 65
-0.19880991 1.9988761 -0.52799106 4
-0.2170096 2.1857331 -0.49826688 12
-0.21289583 2.1481123 -0.41177762 14
-0.21137181 2.1365342 -0.33398786 11
-0.21348135 2.1617084 -0.26201937 15
-0.21045306 2.1348536 -0.18433468 21
-0.20960867 2.130096 -0.10980059 28
-0.20899761 2.1276965 -0.03628388 28
-0.20969577 2.1386406 0.56515121 28
-0.2087456 2.1327827 0.48552692 23
-0.20798726 2.1288674 0.40796459 25
-0.20743538 2.1270547 0.33205691 25
-0.20661618 2.1224892 0.2571443 27
-0.20747206 2.1351457 0.1843344 29
-0.20663245 2.1303675 0.11016718 27
-0.20554423 2.1230042 0.036562789 65
-0.19183131 1.9995579 -0.52799106 4
-0.20891427 2.181628 -0.49714214 11
-0.20492922 2.1439564 -0.41082445 15
-0.20344357 2.1323428 -0.33320567 11
-0.20546381 2.1575 -0.26141003 15
-0.20252839 2.1306164 -0.1838989 22
-0.20217198 2.1308148 -0.10980059 29
-0.20156929 2.128413 -0.03628388 27
-0.20177473 2.1345513 0.56385797 24
-0.20084189 2.128648 0.48440304 27
-0.20009467 2.1246939 0.40701142 24
-0.20000932 2.1277657 0.33205691 27
-0.19920605 2.1231976 0.2571443 26
-0.20001775 2.1358569 0.1843344 30
-0.19919482 2.1310759 0.11016718 27
-0.1976679 2.1187308 0.036475528 66
-0.18529481 2.0050242 -0.52928513 3
-0.2008502 2.1774924 -0.49601737 11
-0.19699417 2.139771 -0.40987125 12
-0.19599906 2.13304 -0.33320567 11
-0.19747825 2.1532621 -0.26080069 15
-0.19508992 2.1313105 -0.1838989 23
-0.19427852 2.1265349 -0.10953978 30
-0.19368458 2.1241255 -0.036197495 27
-0.19388479 2.1304328 0.56256473 29
-0.19341029 2.1293364 0.48440304 27
-0.19267689 2.1253796 0.40701142 25
-0.1925808 2.1284509 0.33205691 27
-0.1913472 2.1189375 0.25653496 26
-0.19211386 2.1315808 0.18389861 30
-0.19130743 2.126785 0.1099055 28
-0.19027096 2.1194079 0.036475528 64
-0.17872249 2.0104697 -0.53057927 3
-0.1928176 2.1733277 -0.49489263 11
-0.18952377 2.1404455 -0.40987125 12
-0.18811746 2.128792 -0.33242351 11
-0.18996075 2.1539385 -0.26080069 16
-0.18764907 2.1319785 -0.1838989 24
-0.18641745 2.1222262 -0.10927898 25
-0.18626882 2.1247885 -0.036197495 28
-0.18644701 2.1310964 0.56256473 29
-0.18555255 2.1251447 0.48327911 26
-0.18483065 2.1211491 0.40605819 26
-0.1847221 2.1241903 0.33127558 26
-0.18352047 2.1146483 0.2559256 27
-0.18467209 2.1322384 0.18389861 29
-0.1838824 2.12744 0.1099055 27
-0.18287167 2.120059 0.036475528 65
-0.17170355 2.0110812 -0.53057927 3
-0.18523009 2.1739874 -0.49489263 11
-0.18205106 2.141094 -0.40987125 13
-0.18068546 2.1294355 -0.33242351 12
-0.18202223 2.1496434 -0.26019135 16
-0.18020593 2.1326206 -0.1838989 24
-0.17900836 2.122864 -0.10927898 24
-0.17885078 2.1254258 -0.036197495 30
-0.17860278 2.1269212 0.56127143 28
-0.17813328 2.1257796 0.48327911 28
-0.17742534 2.1217813 0.40605819 25
-0.17730618 2.1248221 0.33127558 27
-0.17613783 2.1152761 0.2559256 28
-0.17722805 2.1328702 0.18389861 30
-0.17604251 2.1230927 0.10964382 29
-0.17505795 2.1157024 0.036388267 71
-0.16507658 2.0164819 -0.5318734 3
-0.17724366 2.169765 -0.49376786 12
-0.17417739 2.1368246 -0.40891808 13
-0.17285088 2.1251311 -0.33164132 12
-0.17451745 2.1502657 -0.26019135 17
-0.17276061 2.1332366 -0.1838989 27
-0.1711949 2.1184988 -0.10901816 27
-0.17143057 2.1260371 -0.036197495 34
-0.17117734 2.1275315 0.56127143 29
-0.17032196 2.121532 0.48215523 29
-0.16962595 2.1174953 0.40510502 25
-0.16988808 2.1254282 0.33127558 29
-0.16835853 2.1109309 0.25531626 28
-0.16978186 2.1334758 0.18389861 31
-0.16863048 2.1236942 0.10964382 32
-0.1676717 2.1163006 0.036388267 75
-0.15841398 2.0218608 -0.53316748 3
-0.16966867 2.1703703 -0.49376786 13
-0.16671742 2.1374195 -0.40891808 12
