# .PCD v0.7 - Point Cloud Data file format
VERSION 0.7
FIELDS x y z intensity
SIZE 4 4 4 4
TYPE F F F F
COUNT 1 1 1 1
WIDTH 1567
HEIGHT 1
VIEWPOINT 0 0 0 1 0 0 0
POINTS 1567
DATA ascii
2.4356875 0.86778873 -0.49470508 2
2.9902413 1.0647775 -0.49667984 4
nan nan nan 0
nan nan nan 0
nan nan nan 0
nan nan nan 0
nan nan nan 0
3.0526342 1.0833939 0.73840553 2
3.0891504 1.0957466 0.62910426 2
3.0616276 1.0853826 0.50785172 3
nan nan nan 0
nan nan nan 0
3.0626838 1.0839522 0.1682601 2
3.0571394 1.0813894 0.055934958 46
1.8169103 0.6409049 -0.50599146 2
2.0761092 0.73192847 -0.49939165 2
2.4340727 0.85765016 -0.49375188 2
2.9846239 1.0510523 -0.49511549 4
nan nan nan 0
nan nan nan 0
nan nan nan 0
nan nan nan 0
3.080183 1.0816838 0.8638925 3
3.0885773 1.084026 0.74627286 3
3.1068511 1.0898309 0.63196379 3
nan nan nan 0
3.0944519 1.0842685 0.39790338 8
3.1199877 1.0926045 0.28587085 3
3.0900133 1.0815024 0.16956849 3
3.0797708 1.0773141 0.056284007 43
1.8191365 0.6345588 -0.50599146 2
2.0786517 0.72467703 -0.49939165 2
2.4370515 0.84914845 -0.49375188 2
2.9882746 1.0406277 -0.49511549 4
nan nan nan 0
nan nan nan 0
nan nan nan 0
nan nan nan 0
3.1158781 1.0820162 0.87294525 2
nan nan nan 0
3.101362 1.0757622 0.63005745 2
3.087795 1.0704526 0.51097697 2
3.1075964 1.0767096 0.39912206 6
3.1379025 1.0865966 0.28717816 3
3.1079249 1.0756086 0.17035353 4
3.102411 1.0730939 0.056633055 44
1.8167747 0.62663019 -0.50469732 2
2.0811684 0.71741682 -0.49939165 2
2.4492817 0.84383392 -0.49565825 2
2.9872193 1.0285826 -0.4943333 4
nan nan nan 0
nan nan nan 0
nan nan nan 0
nan nan nan 0
nan nan nan 0
nan nan nan 0
nan nan nan 0
nan nan nan 0
3.1160309 1.067464 0.39973143 2
3.1228266 1.069183 0.28543505 2
3.135282 1.072836 0.17166193 2
3.1203289 1.0671111 0.056894843 44
1.8189509 0.62028468 -0.50469732 2
2.0790484 0.70857608 -0.49826688 2
2.4568589 0.83686185 -0.49661148 2
2.9907913 1.0181489 -0.4943333 4
nan nan nan 0
nan nan nan 0
nan nan nan 0
nan nan nan 0
nan nan nan 0
nan nan nan 0
nan nan nan 0
nan nan nan 0
3.1197381 1.0565804 0.39973143 2
nan nan nan 0
nan nan nan 0
3.1429782 1.0626173 0.057243891 45
1.8211051 0.61393154 -0.50469732 2
2.0815094 0.70131451 -0.49826688 2
2.4830232 0.8361125 -0.5013774 2
2.9943273 1.0077029 -0.4943333 4
nan nan nan 0
nan nan nan 0
nan nan nan 0
nan nan nan 0
3.1819849 1.0677663 0.88846427 2
nan nan nan 0
nan nan nan 0
nan nan nan 0
nan nan nan 0
nan nan nan 0
nan nan nan 0
3.1608925 1.0563936 0.057505675 43
1.8232369 0.60757095 -0.50469732 2
2.0839446 0.69404447 -0.49826688 2
2.4719555 0.82278973 -0.49851784 3
2.9978266 0.99724454 -0.4943333 4
nan nan nan 0
nan nan nan 0
nan nan nan 0
nan nan nan 0
nan nan nan 0
nan nan nan 0
nan nan nan 0
nan nan nan 0
nan nan nan 0
nan nan nan 0
3.1984947 1.0571821 0.17454042 4
3.1835487 1.0516258 0.057854723 41
1.8253467 0.60120296 -0.50469732 2
2.0909822 0.68828923 -0.49939165 2
2.4701498 0.81262201 -0.49756464 2
3.0012894 0.98677415 -0.4943333 4
nan nan nan 0
nan nan nan 0
nan nan nan 0
nan nan nan 0
3.1985409 1.0485351 0.89105082 2
3.2494988 1.0646119 0.77999008 2
nan nan nan 0
nan nan nan 0
3.1966674 1.04545 0.40826228 2
3.2463439 1.0610691 0.29545796 3
3.2164042 1.0506622 0.17532544 17
3.2062101 1.0467129 0.058203775 40
1.8274342 0.59482765 -0.50469732 2
2.0933721 0.68098611 -0.49939165 2
2.4636357 0.80095959 -0.49565825 3
3.0047154 0.97629166 -0.4943333 3
nan nan nan 0
nan nan nan 0
nan nan nan 0
nan nan nan 0
nan nan nan 0
3.2578301 1.0547632 0.78111392 2
nan nan nan 0
nan nan nan 0
3.2144639 1.0388637 0.41009033 2
3.2737272 1.0573856 0.29763687 3
3.2105486 1.0363606 0.17480208 16
3.2288752 1.0416542 0.05855282 39
1.8294994 0.58844507 -0.50469732 3
2.0957365 0.67367476 -0.49939165 2
2.4664164 0.79235494 -0.49565825 3
3.0034032 0.9642877 -0.49355114 3
nan nan nan 0
nan nan nan 0
nan nan nan 0
nan nan nan 0
nan nan nan 0
nan nan nan 0
3.2576241 1.0415207 0.65674675 2
nan nan nan 0
3.2322533 1.0321658 0.41191834 2
3.2773983 1.0459517 0.29763687 2
3.2093899 1.0236303 0.17454042 5
3.2467806 1.0349318 0.058814604 43
1.8361452 0.58351809 -0.50599146 3
2.1027184 0.66782981 -0.50051636 2
2.4738457 0.78522575 -0.49661148 3
3.0067508 0.95379794 -0.49355114 3
nan nan nan 0
nan nan nan 0
nan nan nan 0
nan nan nan 0
nan nan nan 0
nan nan nan 0
3.2940025 1.0404919 0.66341907 3
nan nan nan 0
nan nan nan 0
nan nan nan 0
nan nan nan 0
3.264679 1.028097 0.059076395 41
1.8381708 0.57710522 -0.50599146 3
2.1050367 0.66048586 -0.50051636 2
2.4765718 0.77658558 -0.49661148 3
3.0053492 0.94181979 -0.49276894 3
nan nan nan 0
nan nan nan 0
nan nan nan 0
nan nan nan 0
nan nan nan 0
nan nan nan 0
3.3491547 1.0450701 0.67390412 2
3.3226249 1.0361553 0.54457331 2
3.2772839 1.0213884 0.41679314 2
nan nan nan 0
nan nan nan 0
3.2777948 1.0196649 0.059250917 35
1.8447869 0.57211584 -0.50728554 3
2.1073294 0.65313387 -0.50051636 2
2.4839559 0.7693882 -0.49756464 3
3.0086186 0.93132347 -0.49276894 3
nan nan nan 0
nan nan nan 0
nan nan nan 0
nan nan nan 0
nan nan nan 0
nan nan nan 0
nan nan nan 0
3.3451004 1.0303662 0.54769856 3
nan nan nan 0
nan nan nan 0
nan nan nan 0
3.3243427 1.0214318 0.060036272 35
1.8467727 0.56567287 -0.50728554 3
2.1095965 0.64577395 -0.50051636 2
2.4866261 0.76071292 -0.49756464 2
3.0118511 0.92081577 -0.49276894 3
nan nan nan 0
nan nan nan 0
nan nan nan 0
nan nan nan 0
nan nan nan 0
nan nan nan 0
3.3751514 1.0273805 0.67771685 2
3.3817503 1.0287445 0.5531677 4
nan nan nan 0
nan nan nan 0
nan nan nan 0
3.3518074 1.0170796 0.060472585 41
1.8487359 0.559223 -0.50728554 3
2.1118379 0.63840616 -0.50051636 2
2.4845681 0.75060892 -0.49661148 2
3.0150468 0.9102968 -0.49276894 3
nan nan nan 0
nan nan nan 0
nan nan nan 0
nan nan nan 0
nan nan nan 0
nan nan nan 0
3.3834176 1.0170057 0.67867005 2
3.4042399 1.0226167 0.55629295 2
3.3828638 1.0155519 0.42898008 5
3.4096546 1.0229459 0.30809554 2
3.3750324 1.0119168 0.18265249 3
3.3936481 1.0168526 0.061170679 60
1.8506767 0.55276626 -0.50728554 3
2.1140532 0.63103056 -0.50051636 2
2.4871731 0.74193156 -0.49661148 2
3.0134735 0.8983559 -0.49198681 3
nan nan nan 0
nan nan nan 0
nan nan nan 0
nan nan nan 0
nan nan nan 0
nan nan nan 0
nan nan nan 0
3.8197091 1.1329005 0.62426692 6
3.3863881 1.0037372 0.42898008 2
3.470515 1.0280139 0.3133249 2
3.4072709 1.0086333 0.18422256 3
3.4451153 1.0191823 0.062043298 45
1.852595 0.5463028 -0.50728554 3
2.1162431 0.62364733 -0.50051636 2
2.4850392 0.73185849 -0.49565825 2
3.0165911 0.88783151 -0.49198681 3
nan nan nan 0
nan nan nan 0
nan nan nan 0
nan nan nan 0
nan nan nan 0
3.8797693 1.1374654 0.92384988 10
3.8803053 1.1368871 0.77780163 12
3.856817 1.1292745 0.62973613 11
3.8518834 1.1270999 0.48808673 11
3.8613243 1.1291307 0.34862298 10
3.8373206 1.1213846 0.20751205 8
3.8277562 1.1178646 0.068936996 66
1.8498536 0.53848296 -0.50599146 3
2.1137295 0.61489564 -0.49939165 2
2.4875789 0.72317964 -0.49565825 2
3.0196719 0.87729615 -0.49198681 3
3.8685331 1.1231811 -0.48991531 17
3.8780315 1.125205 -0.34993085 11
3.8684695 1.1216987 -0.20838639 12
nan nan nan 0
nan nan nan 0
nan nan nan 0
3.879535 1.1219717 0.77684844 13
3.8654804 1.1171761 0.63051742 13
3.8653297 1.1164016 0.48930538 16
3.8843844 1.1211705 0.35036609 12
3.869997 1.116286 0.20908214 11
3.8364389 1.1058811 0.069024265 60
1.851722 0.53202242 -0.50599146 3
2.1158631 0.60751367 -0.49939165 2
2.4853702 0.71313834 -0.49470508 2
3.0274627 0.86811143 -0.49276894 3
3.8438058 1.1014682 -0.48625922 16
3.8819356 1.1116613 -0.34993085 13
3.8675609 1.1068146 -0.20812559 15
3.8435645 1.0992216 -0.068421036 12
3.8587186 1.102827 1.0643466 11
3.8876157 1.1103519 0.92384988 14
3.8456695 1.0976456 0.76922292 11
3.8503597 1.0982575 0.62739217 11
3.8357947 1.0933791 0.48503998 12
3.8930647 1.1089692 0.35080189 13
3.8882768 1.1068717 0.20986716 12
3.8354669 1.0911148 0.068936996 62
1.8582141 0.52687287 -0.50728554 3
2.1179707 0.60012424 -0.49939165 2
2.4831219 0.70312107 -0.49375188 2
3.0304747 0.85753828 -0.49276894 3
3.8428519 1.0866935 -0.48564988 13
3.8714125 1.0940405 -0.34862351 13
3.837764 1.0838083 -0.20629992 11
3.8377554 1.0830827 -0.068248257 12
3.8532481 1.0867289 1.0617601 11
3.8445737 1.0835582 0.91261083 9
3.8494775 1.084215 0.76922292 12
3.849416 1.0834726 0.62661088 11
3.8348105 1.0786394 0.48443061 12
3.8873219 1.0926775 0.34993032 13
3.8776956 1.0892415 0.20908214 12
3.8344393 1.0763687 0.068849742 62
1.860042 0.5203833 -0.50728554 3
2.1200526 0.59272748 -0.49939165 2
2.4855609 0.69444913 -0.49375188 3
3.0334496 0.84695476 -0.49276894 3
3.8370614 1.0706054 -0.48443118 14
3.8464203 1.0724932 -0.34600884 10
3.8415239 1.0704054 -0.20629992 11
3.8366966 1.0683388 -0.068161868 12
3.8477116 1.0706824 1.0591736 11
3.8436389 1.0688263 0.91148686 10
3.8437808 1.068143 0.76731664 12
3.8436577 1.0673862 0.62504828 11
3.8242064 1.0612656 0.48260257 13
3.8671136 1.072446 0.34775141 10
3.8766623 1.0743656 0.20882046 12
3.8333552 1.0616431 0.068762474 64
1.8571917 0.51260245 -0.50599146 2
2.1174121 0.58402807 -0.49826688 2
2.483238 0.6844644 -0.49279872 3
3.0363874 0.83636087 -0.49276894 3
3.8312054 1.054571 -0.4832125 15
3.8501403 1.0590601 -0.34600884 10
3.8356075 1.0543426 -0.2057783 11
3.8404026 1.0549397 -0.068161868 12
3.8467679 1.0559663 1.0578803 11
3.8426476 1.054114 0.91036296 10
3.8380182 1.0521239 0.76541018 12
3.8330708 1.0500484 0.62270433 11
3.8183143 1.0452894 0.48138386 13
3.8420064 1.0510546 0.34513673 10
3.8755724 1.0595102 0.20855878 12
3.8273926 1.0456209 0.068587951 61
1.8589697 0.50611651 -0.50599146 3
2.114737 0.5753544 -0.49714214 2
2.480876 0.6745044 -0.49184549 2
3.0392885 0.82575679 -0.49276894 3
3.8300738 1.0398909 -0.48260313 14
3.8490067 1.04431 -0.34557304 11
3.8296263 1.0383341 -0.20525669 12
3.8344111 1.038913 -0.067989089 13
3.8411067 1.0400076 1.0552938 11
3.832195 1.0368769 0.90699124 10
3.8369293 1.0374391 0.76445699 11
3.8414805 1.0379503 0.62348568 7
3.8123574 1.0293673 0.48016518 13
3.840843 1.0363395 0.34470096 12
3.8696055 1.0433757 0.20803542 13
3.8261924 1.0309538 0.06850069 58
1.8653893 0.50087684 -0.50728554 3
2.1167326 0.56796902 -0.49714214 2
2.4832151 0.66584039 -0.49184549 3
3.0421524 0.81514269 -0.49276894 3
3.8336804 1.026515 -0.48260313 10
3.8622518 1.033443 -0.34644461 7
3.8235798 1.0223802 -0.20473507 10
3.8380141 1.0255221 -0.067989089 8
3.8353808 1.0241013 1.0527073 7
3.8263767 1.0209817 0.90474349 6
3.8500128 1.0265685 0.76636338 7
3.8641684 1.0296208 0.62661088 6
3.8207231 1.0173304 0.48077455 8
3.8492506 1.0242069 0.34513673 7
3.8780494 1.0311451 0.2082971 8
3.839431 1.0201592 0.068675213 51
1.8671263 0.49436235 -0.50728554 3
2.1139922 0.55933064 -0.49601737 2
2.4902694 0.65842295 -0.49279872 2
3.0402045 0.80325717 -0.49198681 3
3.846837 1.0156604 -0.48382184 7
3.8947327 1.0275791 -0.34905931 6
3.8464382 1.014119 -0.2057783 6
3.8560731 1.0159396 -0.068248257 7
3.8716273 1.019315 1.0617601 6
3.8581872 1.0150565 0.91148686 6
3.8630662 1.0156193 0.76826972 6
3.8868446 1.0211455 0.62973613 5
3.8386512 1.007768 0.48260257 7
3.8672562 1.0145562 0.34644407 5
3.9154344 1.0264652 0.21012886 7
3.8623128 1.0118184 0.069024265 48
1.8735137 0.48906168 -0.50857961 3
2.1159317 0.55194801 -0.49601737 2
2.4973023 0.65096438 -0.49375188 2
3.04299 0.79264003 -0.49198681 3
3.8551614 1.0034764 -0.48443118 6
3.9175782 1.0189931 -0.35080242 5
3.8789504 1.0082229 -0.20734316 6
3.8934669 1.0112706 -0.068852983 7
3.9032114 1.0130744 1.0695195 6
3.8947189 1.0101447 0.9193542 5
3.9045987 1.0119798 0.77589524 6
3.9190707 1.0150007 0.63442397 5
3.8757765 1.0030663 0.48686799 7
3.8900635 1.0060394 0.34818718 5
3.9431655 1.0190383 0.21143726 6
3.8900232 1.0045804 0.069460578 48
1.8752093 0.48251891 -0.50857961 3
2.1178455 0.5445587 -0.49601737 2
2.5043132 0.64346462 -0.49470508 2
3.0457382 0.78201312 -0.49198681 3
3.8970969 0.99988002 -0.48930594 5
3.9500608 1.0127342 -0.35341707 5
3.906631 1.0008729 -0.20864721 6
3.9211886 1.0038732 -0.069284938 6
3.934799 1.0066259 1.0772791 6
3.926543 1.0037837 0.92609763 5
3.936641 1.0056332 0.78161442 6
3.9513001 1.0086434 0.63911182 5
3.9081068 0.99689096 0.49052411 6
3.9273379 1.0010664 0.35123762 5
3.9708922 1.0114303 0.21274567 6
3.9225743 0.99839413 0.069984145 48
1.8815637 0.4771575 -0.50987375 3
2.1244564 0.53835952 -0.49714214 2
2.5065441 0.63471901 -0.49470508 2
3.0484495 0.77137679 -0.49198681 2
3.9486766 0.99843609 -0.49539945 9
3.9777176 1.0050406 -0.35559598 5
3.9343076 0.9933418 -0.20995125 6
3.953753 0.99751735 -0.069803283 6
3.9663882 0.99996895 1.0850385 6
3.9583695 0.99721265 0.93284112 5
3.9686861 0.99907506 0.78733355 6
3.9835339 1.0020735 0.64379972 5
3.9404409 0.99050206 0.49418014 7
3.9597938 0.99463201 0.35385233 5
3.9986126 1.0036408 0.21405403 6
3.9551301 0.99199307 0.07050772 48
1.8879035 0.47175756 -0.51116782 3
2.1263227 0.53094053 -0.49714214 2
2.5087445 0.62596571 -0.49470508 2
3.0463319 0.75953627 -0.49120462 3
3.9425068 0.98224705 -0.49418074 8
4.0053692 0.9971664 -0.35777488 5
3.9668236 0.98683494 -0.2115161 6
3.9814692 0.98974049 -0.07023523 6
3.9979792 0.99310374 1.0927981 5
3.9854689 0.98925769 0.93846059 5
4.0007329 0.99230522 0.79305267 5
4.015769 0.99529064 0.64848763 5
3.9727778 0.98389953 0.49783626 6
3.9922523 0.98798311 0.35646698 5
4.0311747 0.99686885 0.21562412 6
3.9876878 0.98537648 0.071031287 48
1.884768 0.46433917 -0.50987375 3
2.12798 0.52425784 -0.49714214 2
2.5106986 0.61808115 -0.49470508 2
3.048703 0.74996221 -0.49120462 3
3.9552114 0.97222573 -0.49539945 7
4.0375047 0.99170685 -0.36038953 5
3.9941509 0.98031896 -0.21282014 6
4.0136905 0.98437208 -0.070753567 6
4.0292258 0.98743665 1.1005577 5
4.0169506 0.9836852 0.94520408 5
4.0324364 0.98673147 0.7987718 6
4.0476589 0.98970777 0.65317541 5
4.0047741 0.97848111 0.50149232 7
4.0243692 0.98252445 0.35908166 5
4.0633917 0.99130011 0.21719421 6
4.0247636 0.98113215 0.071642123 47
1.8816042 0.45694673 -0.50857961 3
2.1297972 0.51682663 -0.49714214 2
2.5128407 0.60931343 -0.49470508 2
3.0513022 0.73931569 -0.49120462 3
3.9634042 0.95958126 -0.49600875 7
4.0699902 0.98463482 -0.36300424 5
4.0266685 0.97341037 -0.21438502 6
4.0462594 0.97739881 -0.071271911 6
4.0608177 0.98016542 1.1083171 6
4.0487771 0.97651142 0.95194751 5
4.0644865 0.97954959 0.80449092 6
4.0798969 0.98251027 0.65786332 5
4.0371156 0.97146225 0.50514841 6
4.0568328 0.97545773 0.36169636 5
4.0911021 0.98294252 0.2185026 6
4.0573301 0.97407931 0.07216569 47
1.8833449 0.44971853 -0.50857961 3
2.1317658 0.508645 -0.49714214 2
2.5103874 0.59852201 -0.49375188 2
3.0541186 0.72759408 -0.49120462 3
3.9574044 0.94205743 -0.49479008 6
4.1028152 0.97591567 -0.36561888 5
4.0595236 0.96486962 -0.21594985 5
4.0840302 0.96994132 -0.071876645 6
4.0974469 0.97237229 1.1173699 5
4.0809402 0.96770275 0.95869088 5
4.0968742 0.97072583 0.81021005 6
4.1124735 0.97366405 0.66255116 5
4.0697923 0.96280879 0.50880444 6
4.0896325 0.96674865 0.36431101 5
4.1240025 0.97411358 0.22007269 6
4.0902338 0.96538347 0.072689272 46
1.8802018 0.44203639 -0.50728554 3
2.1335285 0.50120068 -0.49714214 2
2.5124612 0.58975548 -0.49375188 2
3.0566397 0.71692878 -0.49120462 3
3.9558365 0.92710531 -0.49418074 6
4.1352954 0.96840262 -0.36823359 5
4.0969 0.95865685 -0.21777551 5
4.1165996 0.96250874 -0.072394989 6
4.1290359 0.96465647 1.1251295 5
4.1175046 0.96120465 0.96655822 5
4.1289172 0.96310896 0.81592917 6
4.1398959 0.96490794 0.66645771 5
4.102129 0.95535064 0.51246059 6
4.1269407 0.96036983 0.36736143 5
4.1565585 0.9664973 0.22164278 5
4.127667 0.95901322 0.073300101 46
1.8816574 0.43579897 -0.50728554 3
2.1398385 0.49559471 -0.49826688 2
2.5143015 0.58185947 -0.49375188 2
3.058877 0.7073226 -0.49120462 3
3.9538944 0.91355586 -0.49357137 6
4.1722908 0.9632498 -0.37128401 5
4.1290841 0.95251572 -0.21934037 5
4.1488314 0.95630848 -0.072913326 6
4.1649919 0.95926803 1.1341822 6
4.1394954 0.95263499 0.97105384 5
4.1510563 0.95453268 0.8197419 6
4.1717858 0.95853281 0.67114562 5
4.1341314 0.94912153 0.51611668 6
4.1590672 0.95408225 0.36997613 5
4.188776 0.96012777 0.22321284 5
4.1550236 0.95162803 0.073736414 46
1.8830922 0.42955676 -0.50728554 3
2.1463056 0.48920497 -0.49939165 2
2.5211031 0.57416928 -0.49470508 3
3.0613272 0.69664079 -0.49120462 3
3.9570591 0.89974862 -0.49357137 7
4.2096281 0.95640463 -0.37433451 5
4.1615996 0.94472909 -0.22090523 5
4.1862721 0.94956177 -0.07351806 6
4.1871572 0.94899404 1.1393552 6
4.1855612 0.94786441 0.98116899 5
4.1926608 0.94870293 0.82736742 6
4.2088251 0.95158827 0.67661476 5
4.1616225 0.9401527 0.51916337 7
4.1963835 0.94723576 0.37302655 5
4.2164555 0.95099324 0.22452125 5
4.1973352 0.94591093 0.074434511 46
1.8799415 0.42159519 -0.50599146 3
2.152838 0.48240027 -0.50051636 2
2.5231907 0.56492513 -0.49470508 3
3.0638602 0.68541574 -0.49120462 2
3.9554873 0.8841567 -0.49296206 6
4.2519946 0.94965488 -0.37782073 5
4.1991472 0.93708235 -0.22273089 5
4.2238803 0.94182783 -0.074122787 6
4.2283211 0.94204336 1.1497012 6
4.2127857 0.93781048 0.98678851 4
4.2200661 0.93865824 0.83213335 6
4.2508521 0.9447273 0.6828652 6
4.1892643 0.9302724 0.52221012 6
4.2192774 0.93616456 0.37476969 4
4.2589111 0.94417846 0.22661468 5
4.2349405 0.93808883 0.07504534 46
1.8814015 0.41503039 -0.50599146 3
2.1545088 0.47488251 -0.50051636 2
2.5299406 0.55716974 -0.49565825 3
3.0662339 0.67471671 -0.49120462 2
3.9585495 0.8703441 -0.49296206 6
4.2796092 0.94015068 -0.37999964 6
4.2365322 0.92991245 -0.22455655 5
4.2662077 0.93564576 -0.07481391 6
4.2693267 0.93554884 1.1600473 6
nan nan nan 0
4.2712665 0.93441147 0.84166527 6
nan nan nan 0
4.2458191 0.92729145 0.5289129 7
4.2565851 0.9288646 0.37782016 5
4.3109665 0.93994331 0.22923149 5
4.2919207 0.93500596 0.076005228 49
1.8828388 0.40846056 -0.50599146 3
2.1609147 0.46839109 -0.50164115 2
2.5318701 0.54833519 -0.49565825 3
3.0685704 0.66400945 -0.49120462 2
3.9615633 0.85652089 -0.49296206 5
4.3607631 0.9420343 -0.3869721 8
4.2739182 0.92249286 -0.2263822 6
4.621305 0.9966296 -0.081034005 19
nan nan nan 0
nan nan nan 0
4.619997 0.99381626 0.91029483 23
4.6677508 1.0032364 0.74927664 26
nan nan nan 0
nan nan nan 0
4.651094 0.99710888 0.24728738 20
4.6715612 1.0006438 0.0827244 79
1.8795298 0.40087831 -0.50469732 3
2.1577713 0.45982978 -0.50051636 2
2.5337684 0.53949398 -0.49565825 3
3.0660393 0.65226656 -0.49042246 2
3.964529 0.84268725 -0.49296206 5
4.3786416 0.92991084 -0.38827944 23
4.6532145 0.98737437 -0.24646451 26
4.6736608 0.99086052 -0.081897907 20
4.68683 0.99279785 1.2725602 14
4.6656566 0.98746181 1.0913117 14
4.6570525 0.98479164 0.91696715 15
4.6615605 0.98489505 0.74771398 9
4.6455026 0.98065531 0.57827002 29
4.6674871 0.98444533 0.41398978 16
4.6740894 0.98498583 0.24833409 15
4.6456742 0.97815096 0.082200833 13
1.8809177 0.39431506 -0.50469732 3
2.1593633 0.45229495 -0.50051636 2
2.5356364 0.5306462 -0.49565825 3
3.0682974 0.64156008 -0.49042246 2
3.9625883 0.82782847 -0.49235269 5
4.3574815 0.90953219 -0.38610053 22
4.6712966 0.97418368 -0.24724692 16
4.6526203 0.96944153 -0.081465952 11
4.7328234 0.98529118 1.2841994 11
4.6833844 0.97414607 1.0946834 9
4.665267 0.96952814 0.91792035 8
4.6504636 0.96560508 0.74537009 10
4.6391788 0.9624173 0.57705128 9
4.6611404 0.96612489 0.41311821 12
4.6530523 0.96360147 0.2470257 8
4.6343737 0.95888972 0.081939042 12
1.8775523 0.3867726 -0.50340325 3
2.160929 0.4447546 -0.50051636 2
2.5374732 0.52179193 -0.49565825 3
3.0705183 0.63084584 -0.49042246 2
3.9751766 0.81598717 -0.49357137 5
4.3459916 0.89131415 -0.38479319 14
4.6502109 0.95286036 -0.24594288 9
4.636385 0.94918424 -0.081120394 10
4.7456975 0.97070032 1.286786 10
4.643796 0.94901252 1.0845683 15
4.6397681 0.94734597 0.91220117 11
4.6392894 0.94640464 0.74302614 11
4.6279216 0.9432444 0.57522327 11
4.6547227 0.94786078 0.41224667 13
4.6417089 0.94436705 0.24624066 9
4.6327934 0.94171113 0.08185178 13
1.878891 0.38021639 -0.50340325 3
2.1624684 0.43720886 -0.50051636 2
2.539279 0.51293135 -0.49565825 2
3.0727017 0.62012386 -0.49042246 2
3.9828658 0.80308717 -0.49418074 5
4.3441935 0.87515467 -0.38435742 16
4.6388235 0.93366659 -0.24516046 12
4.6298685 0.93102342 -0.080947615 8
4.7727337 0.95888561 1.2932522 9
4.6423035 0.9318381 1.0834444 10
4.6334224 0.92921412 0.91029483 12
4.6328797 0.92826426 0.74146348 11
4.631186 0.92708421 0.57522327 12
4.6531186 0.93063015 0.41181087 12
4.6351843 0.92620182 0.24571729 9
4.6262469 0.92357635 0.081677258 12
1.8802067 0.3736555 -0.50340325 3
2.1592031 0.42870903 -0.49939165 2
2.5362399 0.50310946 -0.49470508 2
3.0748475 0.60939437 -0.49042246 2
3.9905131 0.79014349 -0.49479008 6
4.3374496 0.85805202 -0.38348588 16
4.637156 0.91650027 -0.24489965 12
4.623281 0.91291952 -0.080774829 7
4.8139596 0.94969827 1.3035983 7
4.6359677 0.91374344 1.0811965 11
4.6270061 0.91113824 0.90838844 11
4.6264005 0.91018021 0.73990083 11
4.6246548 0.90899843 0.57400459 12
4.6416764 0.91150266 0.41050357 12
4.6285901 0.90809387 0.24519394 8
4.6196318 0.9054991 0.081502736 11
1.8814995 0.36709008 -0.50340325 3
2.1606863 0.4211694 -0.49939165 2
2.5379806 0.49425325 -0.49470508 2
3.076956 0.59865743 -0.49042246 2
3.9981184 0.77715605 -0.49539945 7
4.3404179 0.84290624 -0.38348588 15
4.6305232 0.89840591 -0.24437803 12
4.6166239 0.89487308 -0.080602057 7
4.845696 0.9383983 1.3113577 7
4.6295624 0.89570439 1.0789487 11
4.6157007 0.89218682 0.9055289 11
4.624701 0.89308923 0.73911959 11
4.6229267 0.89190966 0.57339525 12
4.6399388 0.8943519 0.41006777 12
4.6219249 0.89004308 0.24467057 8
4.6129456 0.88747901 0.081328206 11
1.878026 0.35961187 -0.50210917 2
2.1573582 0.41270918 -0.49826688 2
2.5396905 0.48539105 -0.49470508 2
3.0790269 0.58791322 -0.49042246 2
4.0008068 0.76319522 -0.49539945 6
4.3286548 0.82495278 -0.38217852 14
4.628726 0.88130301 -0.24411722 12
4.6098967 0.87688416 -0.080429271 7
4.8584318 0.92328137 1.3139442 6
4.6230879 0.87772137 1.0767009 11
4.6139646 0.87515497 0.90457571 12
4.6180849 0.87510151 0.73755693 11
4.6162591 0.87392092 0.57217652 12
4.6332436 0.87629867 0.4091962 12
4.6200981 0.8729772 0.24440892 9
4.6111026 0.870444 0.081240945 12
1.8839546 0.35427472 -0.50340325 3
2.1538563 0.4050293 -0.49714214 2
2.5412028 0.47740996 -0.49470508 3
3.0808587 0.5782373 -0.49042246 2
4.0031848 0.75062257 -0.49539945 5
4.3312249 0.81134981 -0.38217852 5
4.6216559 0.86492008 -0.24359562 11
4.6077151 0.86147875 -0.080342889 7
4.8423176 0.90446639 1.3087713 5
4.6210332 0.86229944 1.075577 11
4.611866 0.85975587 0.90362251 12
4.6159563 0.85968482 0.73677564 10
4.6141038 0.85850656 0.57156724 12
4.6261797 0.85991812 0.40832466 12
4.617908 0.85754675 0.24414723 9
4.6039844 0.85412979 0.081066422 11
1.8851191 0.34802535 -0.50340325 2
2.1504657 0.3966248 -0.49601737 2
2.5428536 0.46853662 -0.49470508 2
3.0828583 0.56747955 -0.49042246 2
4.0057802 0.73664433 -0.49539945 5
4.4222131 0.81242645 -0.39002255 14
4.6197357 0.84788084 -0.2433348 11
4.6008592 0.84358633 -0.080170102 8
4.7836847 0.87624514 1.2919589 4
4.6144304 0.84440982 1.0733292 11
4.6051826 0.841887 0.90171617 12
4.6140714 0.84267974 0.73599434 10
4.6073079 0.84061348 0.5703485 12
4.6242528 0.84287125 0.40788886 12
4.6159611 0.84052759 0.24388555 8
4.6020188 0.83715892 0.080979161 11
1.886382 0.34111369 -0.50340325 3
2.1519051 0.38874024 -0.49601737 2
2.5397236 0.45834175 -0.49375188 2
3.0849175 0.55617648 -0.49042246 2
4.0084534 0.72195745 -0.49539945 4
4.4545746 0.80150509 -0.39263725 10
4.6129832 0.82917625 -0.24281317 12
4.5989995 0.82583404 -0.080083713 7
4.7345705 0.8493253 1.2777332 6
4.6126986 0.82663202 1.0722053 10
4.6082373 0.82500243 0.90171617 11
4.6074057 0.82402366 0.73443168 11
4.6005869 0.82197559 0.56912982 12
4.6224074 0.82504159 0.40745309 12
4.6091795 0.8218506 0.2433622 9
4.6001344 0.81940937 0.0808919 12
1.8875612 0.3345269 -0.50340325 3
2.1532488 0.38122633 -0.49601737 2
2.5413079 0.44947368 -0.49375188 2
3.0868402 0.54540473 -0.49042246 2
4.006062 0.70709836 -0.49479008 3
4.5014925 0.79373521 -0.39655921 7
4.6109324 0.81220269 -0.24255238 13
4.596931 0.80890924 -0.079997323 7
4.699451 0.82610375 1.2673873 9
4.6107569 0.80968291 1.0710814 11
4.6014199 0.80721539 0.89980972 11
4.615119 0.80878836 0.73521304 7
4.5985398 0.80505568 0.56852049 13
4.6252594 0.80890143 0.40745309 13
4.61202 0.80575651 0.2433622 9
4.6029668 0.80334693 0.0808919 11
1.8934759 0.32876226 -0.50469732 3
2.1593668 0.37454042 -0.49714214 2
2.5428615 0.4406001 -0.49375188 2
3.0887253 0.53462631 -0.49042246 2
4.0085058 0.69311029 -0.49479008 3
4.5680437 0.78903878 -0.40222436 15
4.608819 0.79525357 -0.24229157 12
4.5849466 0.79031032 -0.079738148 9
4.6927862 0.80805534 1.2648007 6
4.6087537 0.79275751 1.0699575 4
4.6042094 0.79114854 0.89980972 4
4.637383 0.79601556 0.73833829 4
4.5915394 0.78732145 0.56730175 9
4.6231456 0.79191041 0.40701732 8
4.6000395 0.78712612 0.24257714 7
4.6008153 0.78643239 0.080804639 15
1.894612 0.3221508 -0.50469732 3
2.160661 0.36700052 -0.49714214 2
2.544384 0.43172118 -0.49375188 3
3.0905726 0.52384138 -0.49042246 2
4.0060077 0.67828524 -0.49418074 3
4.6100597 0.77973384 -0.40571058 21
4.6066432 0.77832907 -0.24203075 11
4.592607 0.77513307 -0.079824544 14
4.6860533 0.79006374 1.2622142 6
4.6451235 0.78232926 1.0778248 6
4.6747069 0.78647268 0.91315442 9
4.6790957 0.78637129 0.74458873 6
4.5844712 0.76964587 0.56608307 5
4.6160569 0.77412015 0.40614575 11
4.5978351 0.77023935 0.24231547 8
4.6035323 0.77036768 0.080804639 30
1.8957249 0.31553543 -0.50469732 3
2.1667347 0.36025518 -0.49826688 2
2.5458755 0.42283699 -0.49375188 3
3.0923822 0.51305008 -0.49042246 2
4.0083508 0.66429752 -0.49418074 4
4.5930972 0.76038295 -0.40396747 10
4.5994797 0.76061481 -0.24150915 14
4.6051497 0.76072675 -0.079997323 16
4.7030783 0.77606046 1.266094 3
4.6670551 0.76927942 1.0823205 3
4.6580515 0.76696044 0.90934163 5
4.6525736 0.76522434 0.73990083 3
4.5773354 0.75202924 0.56486434 4
4.6138158 0.75719571 0.40570998 4
4.6004958 0.7541852 0.24231547 4
4.576592 0.74944633 0.080281064 42
1.9015816 0.3096925 -0.50599146 3
2.1679788 0.35268965 -0.49826688 2
2.5473359 0.41394767 -0.49375188 3
3.0941544 0.50225252 -0.49042246 2
4.0057464 0.6495074 -0.49357137 3
4.5957232 0.74434543 -0.40396747 5
4.6070356 0.74535245 -0.24176994 9
nan nan nan 0
4.667614 0.75348127 1.2557479 2
4.6697121 0.75298369 1.0823205 2
4.646163 0.74835455 0.9064821 3
4.6357126 0.74584126 0.73677564 3
4.6191316 0.74234647 0.5697391 6
4.6606927 0.74819136 0.40963197 4
nan nan nan 0
4.5742435 0.73267573 0.080193803 25
1.9074205 0.30381253 -0.50728554 3
2.1691968 0.34511989 -0.49826688 2
2.5487654 0.40505326 -0.49375188 2
3.1007659 0.49222311 -0.49120462 2
4.0079894 0.63552082 -0.49357137 3
nan nan nan 0
4.5898819 0.72614539 -0.24072671 4
4.5955338 0.72621745 -0.079738148 6
4.7083817 0.74320811 1.266094 5
4.7011871 0.74123156 1.0890639 2
nan nan nan 0
4.6724381 0.73502731 0.74224484 2
4.6216946 0.72621816 0.5697391 3
4.697721 0.73732424 0.41268241 3
4.669776 0.73210311 0.24571729 3
4.655798 0.72907913 0.081589989 40
1.9084693 0.29715255 -0.50728554 3
2.1703882 0.33754587 -0.49826688 3
2.5501637 0.39615396 -0.49375188 2
3.1024654 0.48139641 -0.49120462 2
4.0052791 0.62076634 -0.49296206 3
4.6057305 0.71300536 -0.40440327 2
nan nan nan 0
nan nan nan 0
4.730041 0.72971392 1.2712669 2
4.7278218 0.72852677 1.0946834 2
nan nan nan 0
nan nan nan 0
nan nan nan 0
4.710113 0.72243196 0.41355398 2
nan nan nan 0
4.7077322 0.7203849 0.082462616 37
1.909495 0.2904889 -0.50728554 3
2.1667371 0.32923591 -0.49714214 3
2.5515311 0.3872498 -0.49375188 2
3.1138918 0.4720442 -0.49276894 2
4.007422 0.60678154 -0.49296206 3
nan nan nan 0
4.6540856 0.7030341 -0.2438564 2
nan nan nan 0
5.4584999 0.8225981 1.4678413 21
4.7785139 0.71927106 1.1059225 2
4.7556734 0.71498418 0.92649895 2
nan nan nan 0
nan nan nan 0
nan nan nan 0
nan nan nan 0
4.7744942 0.71355361 0.083597019 42
1.9104973 0.28382179 -0.50728554 3
2.1678731 0.32167056 -0.49714214 3
2.5528674 0.37834093 -0.49375188 2
3.1155207 0.46117181 -0.49276894 2
4.0046058 0.59206349 -0.49235269 4
nan nan nan 0
nan nan nan 0
nan nan nan 0
5.5139008 0.81127304 1.4820671 22
4.8291984 0.70967013 1.1171615 2
4.8212719 0.7076456 0.93889046 3
nan nan nan 0
nan nan nan 0
nan nan nan 0
nan nan nan 0
4.8363185 0.70554322 0.084644169 45
1.9114765 0.27715117 -0.50728554 3
2.164161 0.31340304 -0.49601737 2
2.5541723 0.36942744 -0.49375188 2
3.1366622 0.45311806 -0.49589765 2
4.0066481 0.57808125 -0.49235269 4
nan nan nan 0
nan nan nan 0
nan nan nan 0
5.5453839 0.79613924 1.4898266 15
4.8846965 0.70041561 1.1295245 2
4.8625822 0.69637847 0.94651592 3
4.8484654 0.69349331 0.76880938 2
nan nan nan 0
nan nan nan 0
nan nan nan 0
4.9030933 0.69781423 0.085778572 50
1.9076504 0.26980087 -0.50599146 3
2.1652417 0.30584681 -0.49601737 2
2.5554464 0.36050949 -0.49375188 2
3.1284447 0.44078833 -0.4943333 2
4.003727 0.56340027 -0.49174336 3
nan nan nan 0
nan nan nan 0
nan nan nan 0
5.5959616 0.78347415 1.5027591 15
4.8919358 0.68403512 1.1306484 2
nan nan nan 0
4.9291167 0.68747985 0.78131032 2
4.9040051 0.68310499 0.60325319 2
nan nan nan 0
nan nan nan 0
4.964921 0.68894035 0.086825714 58
1.9085804 0.26314026 -0.50599146 3
2.1662962 0.29828683 -0.49601737 2
2.5566893 0.35158712 -0.49375188 2
3.1152866 0.42784953 -0.49198681 2
4.0056696 0.54942125 -0.49174336 3
nan nan nan 0
nan nan nan 0
nan nan nan 0
5.6560884 0.77177167 1.5182781 14
nan nan nan 0
nan nan nan 0
4.9608474 0.67426056 0.78599817 2
4.9161954 0.66731775 0.60447192 1
nan nan nan 0
nan nan nan 0
4.9970207 0.67562443 0.087349296 71
1.9047006 0.25583357 -0.50469732 3
2.1673241 0.29072323 -0.49601737 2
2.5627658 0.34331214 -0.49470508 2
3.1069715 0.41566285 -0.49042246 2
4.0075626 0.5354355 -0.49174336 4
nan nan nan 0
nan nan nan 0
nan nan nan 0
5.7114129 0.75902253 1.5325038 15
nan nan nan 0
nan nan nan 0
5.0023375 0.6621241 0.79224867 2
4.9922934 0.65990806 0.61361212 4
nan nan nan 0
nan nan nan 0
5.0290871 0.66209263 0.087872863 59
1.9055821 0.24918336 -0.50469732 3
2.1683257 0.2831561 -0.49601737 3
2.5639484 0.33436435 -0.49470508 3
3.0839183 0.40162617 -0.48651159 2
4.014329 0.52208328 -0.49235269 5
5.0465717 0.65543592 -0.44188029 2
nan nan nan 0
nan nan nan 0
5.7715068 0.74651599 1.5480229 15
nan nan nan 0
nan nan nan 0
nan nan nan 0
5.0191779 0.64564353 0.61665887 4
5.0771246 0.65219682 0.44449428 4
nan nan nan 0
5.06112 0.64834517 0.088396437 47
1.9016492 0.24192062 -0.50340325 3
2.174134 0.27619949 -0.49714214 2
2.5651 0.32541245 -0.49470508 2
3.114697 0.39458281 -0.49120462 2
4.0161266 0.50806749 -0.49235269 4
nan nan nan 0
nan nan nan 0
nan nan nan 0
5.8267908 0.73299634 1.5622487 15
nan nan nan 0
nan nan nan 0
nan nan nan 0
5.0607953 0.63304722 0.62153363 3
5.0941978 0.63632244 0.44580162 2
5.081893 0.63388467 0.26639 2
5.1576095 0.64241493 0.090054408 44
1.9024822 0.23528114 -0.50340325 3
2.1750851 0.26860869 -0.49714214 2
2.5662203 0.31645662 -0.49470508 2
3.1209567 0.38431162 -0.49198681 2
4.0178757 0.49404553 -0.49235269 3
5.1597891 0.63354319 -0.45146742 6
nan nan nan 0
nan nan nan 0
5.8868442 0.71968579 1.5777677 15
5.1836257 0.63279682 1.1958348 13
nan nan nan 0
nan nan nan 0
5.102386 0.62016815 0.6264084 18
5.1458349 0.62453777 0.45015943 2
5.1237302 0.62094754 0.26848346 2
5.2590809 0.63641948 0.091799647 55
1.908087 0.22921485 -0.50469732 3
2.1760094 0.26101458 -0.49714214 2
2.5721827 0.30808058 -0.49565825 2
3.1271827 0.37400153 -0.49276894 2
4.0245037 0.48060599 -0.49296206 2
5.2015362 0.62024635 -0.45495367 4
nan nan nan 0
nan nan nan 0
5.9420781 0.70539546 1.5919935 14
5.16645 0.61240476 1.1913391 2
nan nan nan 0
nan nan nan 0
5.0946627 0.60119057 0.62518972 3
5.2370253 0.61706322 0.45800346 2
5.1655378 0.60772604 0.27057689 2
5.3059564 0.62330741 0.092585012 68
1.9088755 0.22255298 -0.50469732 3
2.1817462 0.25398061 -0.49826688 2
2.5732422 0.29910013 -0.49565825 2
3.1333747 0.36365271 -0.49355114 2
4.0261569 0.46655494 -0.49296206 2
5.2383056 0.60609341 -0.45800415 3
nan nan nan 0
5.2129064 0.60131061 -0.090018585 2
6.0020823 0.69128084 1.6075125 14
5.2847199 0.6077252 1.218313 2
5.2897367 0.60736668 1.0265838 2
5.307518 0.60846978 0.8391273 2
5.2199936 0.59751272 0.64042342 2
5.273788 0.60273784 0.46105388 3
nan nan nan 0
5.2882314 0.60251862 0.09223596 52
1.9144398 0.21643096 -0.50599146 3
2.1826193 0.24636334 -0.49826688 3
2.5742707 0.29011601 -0.49565825 2
3.1346252 0.35271296 -0.49355114 2
4.027761 0.45249817 -0.49296206 2
5.304738 0.59502244 -0.46366924 3
5.2135577 0.58387357 -0.27202377 2
5.294466 0.59199893 -0.091400832 2
6.0668588 0.67729175 1.6243248 13
5.344914 0.59575081 1.2317998 2
5.3308496 0.59324121 1.0342093 2
5.3390603 0.59321159 0.84381521 2
5.2763047 0.5853067 0.6471262 2
nan nan nan 0
nan nan nan 0
5.2952719 0.5846042 0.092323229 41
1.9199845 0.21027276 -0.50728554 3
2.1834662 0.2387431 -0.49826688 3
2.5752676 0.28112838 -0.49565825 2
3.1358373 0.34176892 -0.49355114 2
4.0293159 0.43843591 -0.49296206 2
5.3810611 0.58457106 -0.47020596 5
5.3098817 0.57590085 -0.27697918 3
5.3710532 0.58158696 -0.092696682 5
6.1364131 0.66337782 1.6424303 13
nan nan nan 0
nan nan nan 0
nan nan nan 0
5.3770027 0.57748431 0.65931314 2
5.3818727 0.57705712 0.47020525 2
5.3801398 0.57592154 0.28156745 5
nan nan nan 0
1.9207067 0.20356949 -0.50728554 3
2.1842861 0.23111992 -0.49826688 3
2.5713525 0.2716217 -0.49470508 2
3.1370111 0.33082077 -0.49355114 2
4.0258861 0.42384866 -0.49235269 2
5.4524198 0.57307315 -0.47630686 10
5.3515873 0.56153089 -0.27906564 2
5.3680782 0.56231403 -0.092610285 2
6.2059422 0.64898652 1.6605359 13
nan nan nan 0
5.4666719 0.56974834 1.0599453 3
nan nan nan 0
5.4184752 0.56281322 0.66418791 2
nan nan nan 0
5.4119167 0.56022257 0.2831375 2
nan nan nan 0
1.9214056 0.19686373 -0.50728554 3
2.1850798 0.22349393 -0.49826688 3
2.5722849 0.26264435 -0.49470508 2
3.1381466 0.31986851 -0.49355114 2
4.0273409 0.40979311 -0.49235269 2
5.4989862 0.55856746 -0.48022887 10
nan nan nan 0
nan nan nan 0
6.275445 0.63411778 1.6786413 13
nan nan nan 0
5.5272312 0.55656368 1.0713836 13
nan nan nan 0
5.4697862 0.54885072 0.67028135 3
5.5542793 0.55634975 0.48502171 2
5.498302 0.54977345 0.28758606 6
nan nan nan 0
1.9172751 0.1896801 -0.50599146 3
2.1809986 0.21538645 -0.49714214 3
2.5683012 0.25318226 -0.49375188 2
3.1392441 0.3089124 -0.49355114 2
4.0287471 0.39573258 -0.49235269 2
5.4860315 0.53791088 -0.47892153 6
nan nan nan 0
nan nan nan 0
6.3449192 0.61877167 1.6967469 13
6.4049716 0.62349963 1.4756873 22
5.5340252 0.53774136 1.0723369 3
5.6171746 0.5448314 0.88678718 2
5.5062466 0.53310192 0.67454678 2
5.5561876 0.53695834 0.48502171 2
5.5598278 0.5363307 0.29072621 7
nan nan nan 0
1.9179255 0.18298641 -0.50599146 3
2.1817369 0.20777202 -0.49714214 3
2.5691695 0.24421568 -0.49375188 2
3.1403034 0.2979525 -0.49355114 2
4.0251632 0.38119933 -0.49174336 2
5.4928346 0.51922649 -0.47935733 6
nan nan nan 0
nan nan nan 0
6.4191699 0.60340017 1.7161456 13
6.436213 0.60386902 1.4824306 19
nan nan nan 0
5.6534629 0.52843779 0.89225644 2
5.577251 0.52033228 0.68307763 2
nan nan nan 0
5.5865245 0.51923048 0.29203463 2
nan nan nan 0
1.9185525 0.17629048 -0.50599146 3
2.1824491 0.20015508 -0.49714214 2
2.5700064 0.23524612 -0.49375188 2
3.1413243 0.286989 -0.49355114 2
4.0264692 0.36714655 -0.49174336 2
5.4946132 0.50004977 -0.47935733 6
nan nan nan 0
nan nan nan 0
6.4933906 0.58751786 1.7355446 14
6.4965091 0.58665687 1.4959174 13
nan nan nan 0
5.7192163 0.5144521 0.90241349 2
5.6482334 0.50707328 0.69160849 2
nan nan nan 0
nan nan nan 0
nan nan nan 0
1.9191266 0.16992736 -0.50599146 3
2.1830671 0.19329773 -0.49714214 2
2.5707326 0.22717105 -0.49375188 2
3.137291 0.27668497 -0.49276894 2
4.0226593 0.35406011 -0.49113399 2
5.4961572 0.48278549 -0.47935733 5
nan nan nan 0
nan nan nan 0
6.5673771 0.57341701 1.7549433 13
6.5759783 0.57301152 1.5138999 13
nan nan nan 0
nan nan nan 0
5.719018 0.49532139 0.70013934 2
nan nan nan 0
nan nan nan 0
nan nan nan 0
1.9196795 0.16356237 -0.50599146 3
2.1837285 0.18567623 -0.49714214 2
2.5715098 0.21819615 -0.49375188 2
3.128396 0.26489875 -0.49120462 2
4.0189257 0.33959842 -0.49052468 2
5.4978094 0.46359736 -0.47935733 5
nan nan nan 0
nan nan nan 0
6.6415334 0.55653876 1.7743421 12
6.6507654 0.5561434 1.5307585 13
nan nan nan 0
nan nan nan 0
5.7948971 0.48151961 0.70927954 3
5.8608189 0.48596734 0.51116842 10
nan nan nan 0
nan nan nan 0
1.9154525 0.15613292 -0.50469732 3
2.18925 0.17806616 -0.49826688 2
2.5722923 0.20876962 -0.49375188 2
3.1195014 0.25263354 -0.48964027 2
4.0201435 0.32486603 -0.49052468 2
5.4994712 0.4434438 -0.47935733 5
nan nan nan 0
nan nan nan 0
6.7205601 0.53836328 1.7950342 13
6.7256074 0.53758627 1.5476171 14
nan nan nan 0
nan nan nan 0
5.8658834 0.46577656 0.71781039 2
5.8873873 0.4664501 0.51334733 3
nan nan nan 0
nan nan nan 0
1.9159858 0.1494458 -0.50469732 3
2.1898582 0.17042315 -0.49826688 2
2.5730057 0.19978938 -0.49375188 2
3.0957458 0.23983568 -0.48572943 2
4.0262008 0.31121358 -0.49113399 2
5.4960194 0.42386132 -0.47892153 5
nan nan nan 0
nan nan nan 0
6.7946343 0.52043384 1.8144329 16
6.7954535 0.51930362 1.5633518 15
6.0089388 0.45814383 1.1628897 2
5.9769077 0.45465243 0.94226027 2
5.9367528 0.45055577 0.72634125 3
6.0032153 0.45454603 0.52337021 4
5.9531479 0.4497101 0.31087556 3
5.965426 0.44959053 0.10375455 22
1.9164958 0.14275685 -0.50469732 3
2.1904397 0.16277809 -0.49826688 2
2.5736871 0.1908067 -0.49375188 2
3.1113389 0.23012081 -0.48807591 2
4.0074654 0.29569685 -0.4886966 2
5.4974656 0.40467405 -0.47892153 5
nan nan nan 0
6.0411615 0.44257596 -0.1040138 16
6.8638477 0.50164163 1.8325385 27
6.8506751 0.49947688 1.5757147 27
6.0888276 0.4428629 1.1781408 3
6.0818963 0.44129169 0.95866776 4
6.007586 0.43484581 0.7348721 3
6.0594139 0.43753415 0.52816379 4
6.0244045 0.43394926 0.31453907 2
6.0168233 0.43234763 0.10462717 23
1.9169824 0.13606615 -0.50469732 3
2.1909945 0.15513103 -0.49826688 2
2.5743375 0.18182167 -0.49375188 2
3.1219757 0.21995297 -0.48964027 2
4.0629292 0.28553343 -0.49539945 2
5.493876 0.38513353 -0.47848576 5
nan nan nan 0
6.0277076 0.42044207 -0.10375462 2
6.9137387 0.4810316 1.8454709 10
6.9544444 0.48264411 1.5993167 8
6.1393023 0.4249959 1.1876726 2
6.1573024 0.4251622 0.97038746 3
6.0734305 0.41830575 0.74279362 4
6.105628 0.4194527 0.53208584 2
nan nan nan 0
nan nan nan 0
1.9174457 0.12937382 -0.50469732 3
2.1915226 0.1474821 -0.49826688 2
2.5749564 0.17283446 -0.49375188 2
3.1325793 0.20971362 -0.49120462 2
4.0193357 0.26837379 -0.48991531 2
5.4951863 0.36595401 -0.47848576 4
nan nan nan 0
6.1388817 0.40666881 -0.10565521 2
7.0406795 0.46517396 1.8790956 7
7.0581784 0.46509287 1.6229187 7
6.2240095 0.40903497 1.2038769 5
6.2178855 0.40754262 0.97976315 2
6.1392317 0.40131128 0.75071514 4
nan nan nan 0
nan nan nan 0
nan nan nan 0
1.9178855 0.12267989 -0.50469732 3
2.192024 0.13983135 -0.49826688 2
2.5804427 0.16415675 -0.49470508 2
3.1431491 0.19940294 -0.49276894 2
4.0202479 0.25434205 -0.48991531 2
5.4914594 0.34645638 -0.47804996 4
nan nan nan 0
6.1751904 0.38742888 -0.10625995 2
7.1338482 0.44632468 1.9036672 7
7.1521482 0.44621649 1.6442729 7
nan nan nan 0
6.3326392 0.39286894 0.99773329 2
6.1901278 0.38294318 0.75680864 2
nan nan nan 0
nan nan nan 0
nan nan nan 0
1.9183022 0.11598448 -0.50469732 3
2.1876361 0.13188575 -0.49714214 2
2.5809999 0.15514831 -0.49470508 2
3.1438262 0.1884301 -0.49276894 2
nan nan nan 0
5.4926353 0.32728547 -0.47804996 4
nan nan nan 0
nan nan nan 0
7.2269697 0.42683059 1.9282391 7
7.2460713 0.42668962 1.6656271 7
nan nan nan 0
6.3882036 0.37393597 1.0063277 3
6.2657413 0.36567029 0.76594877 2
6.3732309 0.37082729 0.5551821 4
6.3289618 0.36714312 0.33023986 3
nan nan nan 0
1.9186953 0.10928764 -0.50469732 3
2.183219 0.12397246 -0.49601737 2
2.586426 0.14641541 -0.49565825 2
3.1444647 0.17745495 -0.49276894 2
nan nan nan 0
5.4887719 0.3078317 -0.47761422 4
nan nan nan 0
6.3873873 0.355993 -0.10988833 2
7.3248644 0.40695971 1.9541041 7
7.3399429 0.40651247 1.6869813 7
nan nan nan 0
6.4683676 0.35597673 1.0188287 2
6.3859062 0.35032067 0.78057307 2
6.4391427 0.3521139 0.56084722 4
6.4000053 0.34885341 0.33390337 5
nan nan nan 0
1.923888 0.1028473 -0.50599146 3
2.1787736 0.11609164 -0.49489263 2
2.5869212 0.1373862 -0.49565825 3
3.1401334 0.1662166 -0.49198681 2
4.0573821 0.21405914 -0.49418074 2
5.4898129 0.28867045 -0.47761422 4
nan nan nan 0
6.4485011 0.336824 -0.11092502 2
7.4227071 0.38641053 1.9799691 7
7.4337626 0.38568512 1.7083355 6
nan nan nan 0
nan nan nan 0
6.4763017 0.33260927 0.79154134 2
6.4851031 0.33192644 0.56476921 2
6.4660106 0.32981777 0.33730522 3
nan nan nan 0
1.9242352 0.096131049 -0.50599146 3
2.1742995 0.10824335 -0.49376786 2
2.5873852 0.12835532 -0.49565825 3
3.1357622 0.15501064 -0.49120462 2
4.0581045 0.19989495 -0.49418074 2
5.490787 0.26950565 -0.47761422 4
nan nan nan 0
6.5245376 0.31796259 -0.11222087 2
7.5204935 0.36518317 2.0058341 8
7.527524 0.36420766 1.7296897 7
7.5882225 0.36581701 1.4679099 5
6.7025409 0.32194707 1.0555502 2
6.5567355 0.31379652 0.80129087 2
6.6255312 0.31592998 0.57697099 2
6.5718603 0.31222114 0.3428005 2
nan nan nan 0
1.924559 0.089413628 -0.50599146 3
2.174664 0.10065296 -0.49376786 2
2.5829146 0.11909682 -0.49470508 3
3.131351 0.14383724 -0.49042246 2
4.0339894 0.18459401 -0.49113399 2
5.491694 0.2503376 -0.47761422 3
nan nan nan 0
6.6504612 0.30083349 -0.11438062 2
7.6182222 0.34327781 2.0316994 8
7.6212254 0.34208027 1.7510439 7
7.6924253 0.34393081 1.487927 26
7.7544994 0.34535006 1.2219694 19
6.6817379 0.29640567 0.81652457 3
6.7261157 0.29719809 0.58568656 6
6.6826534 0.29410905 0.34855744 6
7.7196655 0.33839887 0.13420901 55
1.9248594 0.082695119 -0.50599146 3
2.1798699 0.093269631 -0.49489263 2
2.5784106 0.10987107 -0.49375188 2
3.1269 0.13269652 -0.48964027 2
3.9999011 0.16904478 -0.48686856 2
5.4925346 0.23116648 -0.47761422 3
nan nan nan 0
6.9461703 0.28991732 -0.11947764 25
7.7158875 0.32069451 2.0575643 7
7.729466 0.31990755 1.7757697 7
7.7720451 0.32031101 1.5031779 20
7.8148704 0.32070974 1.2313451 31
7.7637053 0.31725267 0.94936216 26
7.8269973 0.31847069 0.68199366 30
7.8311219 0.31726947 0.4087438 22
7.7957268 0.31447265 0.13551793 86
1.9203104 0.075785153 -0.50469732 3
2.1801822 0.085659891 -0.49489263 2
2.5787785 0.10087007 -0.49375188 2
3.1224093 0.12158865 -0.4888581 2
4.0153437 0.1556582 -0.4886966 2
5.4982848 0.21218462 -0.47804996 3
6.9536862 0.26713464 -0.36148128 27
6.9471402 0.2656689 -0.11947764 25
7.8231392 0.29780099 2.0860157 7
7.8279071 0.29661429 1.7982479 6
7.8270688 0.29521453 1.5136631 25
7.8652935 0.29528153 1.2391582 11
7.8044391 0.29163286 0.95423692 34
7.847971 0.29188794 0.6837368 25
7.837172 0.29011655 0.40900549 23
7.886703 0.29057169 0.13708864 39
1.9205632 0.069081552 -0.50469732 3
2.1755989 0.077874839 -0.49376786 2
2.5742097 0.091693118 -0.49279872 2
3.1228149 0.11068866 -0.4888581 2
4.0208225 0.14181603 -0.48930594 2
5.498992 0.19299074 -0.47804996 3
6.9545765 0.24286014 -0.36148128 12
6.9380326 0.24107 -0.11930486 5
7.9399786 0.27449638 2.1170537 7
7.9603624 0.27381006 1.8285934 15
7.9016323 0.2704092 1.5279608 5
8.0044765 0.27253008 1.2610348 5
7.8798079 0.26690859 0.96337712 12
7.90868 0.26650465 0.68896616 3
7.9179821 0.26543459 0.41319236 4
8.0325661 0.2678723 0.13961925 7
1.9207927 0.06237711 -0.50469732 3
2.1758575 0.070280097 -0.49376786 3
2.5843256 0.083022088 -0.49470508 3
3.1231821 0.099787332 -0.4888581 2
4.0262532 0.12793751 -0.48991531 2
5.4996324 0.17379451 -0.47804996 3
7.0502052 0.22156262 -0.36643663 4
7.0637522 0.22075427 -0.12146462 3
8.0567484 0.25037959 2.1480918 6
8.0781431 0.24963318 1.8555671 12
8.0791435 0.2482527 1.5622756 12
8.1337223 0.24850883 1.2813489 6
8.0295038 0.24392195 0.98165745 6
8.1734343 0.24686645 0.71206242 16
8.1434507 0.24453825 0.42496794 10
8.1533804 0.24341212 0.14171353 7
1.9209988 0.055671915 -0.50469732 3
2.1760895 0.062684514 -0.49376786 3
2.5845997 0.074000597 -0.49470508 2
3.1235116 0.088884778 -0.4888581 2
4.0365968 0.11416307 -0.49113399 2
5.5002055 0.15459614 -0.47804996 3
7.2356124 0.20210996 -0.37608659 6
nan nan nan 0
8.1879301 0.22585043 2.1830096 6
8.2007208 0.22477083 1.8836647 12
8.1829987 0.22285584 1.5822927 14
8.2628965 0.22358854 1.301663 8
8.1543303 0.21922661 0.99689114 7
8.258893 0.22059524 0.71947068 10
8.2440825 0.21875978 0.43020156 10
8.2741203 0.21811172 0.14380781 9
1.9211813 0.048966043 -0.50469732 3
2.176295 0.055088162 -0.49376786 3
2.5946558 0.065224908 -0.49661148 2
3.1188657 0.077857904 -0.48807591 2
4.0220871 0.099703074 -0.48930594 2
5.5007114 0.13539588 -0.47804996 3
7.3660579 0.1800236 -0.3828676 5
7.3999724 0.17956017 -0.12725276 7
8.3093805 0.20017582 2.2153411 7
8.3183508 0.19893925 1.9106385 11
8.2867718 0.19673687 1.6023095 13
8.3919945 0.19776949 1.3219771 6
8.2741203 0.19354671 1.0115155 9
8.3691635 0.19430844 0.72905779 8
8.3795748 0.19308688 0.43726689 9
8.3897839 0.19185705 0.14581484 7
1.926169 0.042365771 -0.50599146 3
2.1764741 0.047491137 -0.49376786 2
2.5948677 0.056167472 -0.49661148 2
3.1240559 0.067076571 -0.4888581 2
4.0819497 0.086930737 -0.49661812 2
5.5011506 0.116194 -0.47804996 3
7.4864521 0.15681987 -0.38912705 8
8.510149 0.17677745 -0.14643137 14
8.4355783 0.17375551 2.2489655 7
8.4310274 0.17218967 1.9364882 12
8.4149971 0.17039298 1.6270925 13
8.5210104 0.1710518 1.3422912 5
8.3938265 0.16703314 1.0261399 8
8.4992704 0.16764742 0.74038804 9
8.5099955 0.16637312 0.44407055 9
8.5153599 0.16499123 0.1479964 6
1.9263053 0.035641927 -0.50599146 3
2.1814981 0.039982818 -0.49489263 2
2.5901401 0.04702026 -0.49565825 2
3.1242709 0.056171168 -0.4888581 2
4.0623808 0.072328173 -0.49418074 2
5.4965429 0.096902907 -0.47761422 2
nan nan nan 0
8.6206818 0.14897071 -0.14833197 19
8.5616913 0.14645658 2.2825902 8
8.5631046 0.1449858 1.9668337 11
8.5087852 0.14258061 1.645203 12
8.6499414 0.14343582 1.3626053 12
8.5233727 0.13984901 1.0419829 7
8.6143513 0.13983786 0.75041091 12
8.6353359 0.13867098 0.45061255 9
8.6258535 0.13701282 0.14991617 5
1.9264179 0.02891765 -0.50599146 3
2.1767526 0.032295451 -0.49376786 2
2.5804732 0.037834786 -0.49375188 3
3.1244481 0.045265086 -0.4888581 2
4.0824571 0.058431465 -0.49661812 2
5.4918666 0.077645376 -0.47717842 3
nan nan nan 0
8.7261229 0.12032551 -0.15014616 12
8.6828852 0.11821357 2.3149214 8
8.6902199 0.11679642 1.9960552 11
8.7202702 0.11567805 1.6861901 16
8.7787809 0.11492176 1.3829192 28
8.6280174 0.11144201 1.0547791 6
8.7492619 0.11148076 0.76217699 12
8.7506008 0.10997032 0.45663118 12
8.7762442 0.1087606 0.15253402 19
1.9216778 0.022137389 -0.50469732 3
2.176852 0.024696968 -0.49376786 2
2.5756814 0.028772196 -0.49279872 2
3.1295252 0.034412753 -0.48964027 2
nan nan nan 0
5.4871235 0.058421683 -0.47674263 3
8.7309208 0.091434553 -0.45406848 8
8.8014736 0.090637118 -0.15144201 24
8.8039856 0.089126229 2.3472528 7
8.8172426 0.087721378 2.0252769 11
8.8482294 0.0864852 1.7109729 13
8.8778954 0.085225545 1.3985455 16
8.7722673 0.082680345 1.0724502 17
8.8342714 0.081722744 0.76958519 25
8.8408041 0.080240034 0.46134141 26
8.8865499 0.079104111 0.15445378 16
1.9217433 0.015429346 -0.50469732 3
2.1769252 0.017098185 -0.49376786 3
2.5757661 0.019781215 -0.49279872 3
3.1197495 0.023414334 -0.48807591 2
nan nan nan 0
5.4872937 0.039267693 -0.47674263 2
8.7311869 0.060957398 -0.45406848 5
8.9917049 0.061206806 -0.15472485 9
8.939476 0.059290975 2.3834639 7
8.9685249 0.057918269 2.0601177 10
9.0055418 0.056585494 1.7414751 12
9.0707397 0.055411957 1.4290166 11
8.9064932 0.052854061 1.0889025 13
9.0287571 0.052003749 0.78658056 8
9.0207815 0.050383341 0.47076192 11
9.0717411 0.049084593 0.15768248 12
1.9217855 0.008721116 -0.50469732 3
2.1720998 0.0094779395 -0.49264312 3
2.5709114 0.010769432 -0.49184549 2
3.1198123 0.012524234 -0.48807591 2
4.0431433 0.0155252 -0.49174336 2
5.4824166 0.020094967 -0.47630686 2
8.7213593 0.030444637 -0.45354685 5
9.14184 0.030316886 -0.15731655 8
9.1086721 0.028617108 2.4287276 8
9.1148329 0.027045613 2.0938349 10
9.1529322 0.025561159 1.7700707 12
9.2190351 0.024136726 1.452456 10
9.0852814 0.022200849 1.110839 10
9.1783133 0.020826256 0.79965395 8
9.1706963 0.019208377 0.47861227 10
9.2168341 0.017696368 0.16021307 12
1.9218043 0.0020127792 -0.50469732 3
