# .PCD v0.7 - Point Cloud Data file format
VERSION 0.7
FIELDS x y z intensity
SIZE 4 4 4 4
TYPE F F F F
COUNT 1 1 1 1
WIDTH 1440
HEIGHT 1
VIEWPOINT 0 0 0 1 0 0 0
POINTS 1440
DATA ascii
44.027828 -10.34285 0.7887615 111
1.8469882 -0.43558851 -0.49822688 3
2.0855865 -0.49224314 -0.48589453 2
2.4543133 -0.57972276 -0.48231363 3
2.954458 -0.69840425 -0.47477898 2
3.7365623 -0.88397455 -0.4667601 2
5.0393019 -1.1930979 -0.44972432 3
7.8208055 -1.8530844 -0.41781604 2
18.074278 -4.2859039 -0.32033485 2
9.0599518 -2.1500316 2.4830441 14
10.579412 -2.5125678 2.4995646 14
12.682137 -3.0142949 2.5240426 13
15.675953 -3.7287567 2.5431652 10
20.671335 -4.920794 2.6043477 2
29.865311 -7.1149206 2.6826537 3
44.046585 -10.501501 2.3710804 16
43.981731 -10.494151 0.78858691 27
1.8454565 -0.44203302 -0.49822688 3
2.0885932 -0.50065583 -0.48701933 2
2.4522748 -0.5882864 -0.48231363 2
2.9520023 -0.708713 -0.47477898 2
3.7382791 -0.89817154 -0.46736944 2
5.0351062 -1.2106811 -0.44972432 3
7.8191438 -1.8815409 -0.41807681 2
18.034906 -4.3431163 -0.3199029 2
9.0523911 -2.1816435 2.4830441 15
10.575314 -2.5506239 2.5006886 13
12.676309 -3.0596969 2.5249958 13
15.667642 -3.7846127 2.5439463 7
20.644384 -4.9905882 2.6031289 7
29.835453 -7.2179556 2.6822181 3
44.029076 -10.659888 2.3721273 18
43.930256 -10.64408 0.78832513 17
1.8439022 -0.4484722 -0.49822688 3
2.0868328 -0.50794333 -0.48701933 2
2.4502063 -0.59684283 -0.48231363 2
2.9495103 -0.71901315 -0.47477898 2
3.7399426 -0.9123913 -0.46797881 2
5.0308495 -1.2282495 -0.44972432 3
7.8125286 -1.9088234 -0.41807681 3
17.990499 -4.3989196 -0.31938455 2
9.0494118 -2.2143769 2.4843376 16
10.571078 -2.5886817 2.5018125 14
12.670319 -3.1050951 2.525949 12
15.654336 -3.8392799 2.5439463 10
20.612379 -5.0590711 2.601301 8
29.834263 -7.3279972 2.6843967 3
41.392635 -10.174666 2.2318668 2
38.989773 -9.591238 0.70019048 4
1.8423256 -0.45490587 -0.49822688 3
2.0897768 -0.51639336 -0.48814404 3
2.4433432 -0.60421371 -0.48136041 3
2.9469826 -0.72930443 -0.47477898 2
3.7415524 -0.9266336 -0.46858817 2
5.0265317 -1.245803 -0.44972432 3
7.8106637 -1.9372845 -0.41833761 3
18.013849 -4.4713259 -0.32007569 2
9.0416269 -2.2459517 2.4843376 13
10.571433 -2.6279166 2.50406 14
12.664165 -3.1504889 2.5269022 12
15.645631 -3.8950934 2.5447278 11
20.580149 -5.1273923 2.599473 8
29.77467 -7.4236584 2.6813464 3
nan nan nan 0
34.493767 -8.6130514 0.61990947 3
1.8407264 -0.46133405 -0.49822688 3
2.0879614 -0.52368492 -0.48814404 2
2.4459796 -0.6139338 -0.48231363 3
2.9444189 -0.73958689 -0.47477898 2
3.743108 -0.94089824 -0.46919748 2
5.0173221 -1.2621261 -0.44928852 3
7.8086958 -1.9657559 -0.41859844 3
18.022371 -4.5402851 -0.32050762 2
9.0337315 -2.2774992 2.4843376 13
10.566919 -2.6659937 2.5051839 14
12.653091 -3.1946757 2.5269022 6
15.631939 -3.949683 2.5447278 12
20.547691 -5.1955495 2.5976448 8
29.782375 -7.5360994 2.6843967 6
nan nan nan 0
nan nan nan 0
1.8391049 -0.46775654 -0.49822688 3
2.0861208 -0.53097004 -0.48814404 3
2.4485781 -0.62367964 -0.4832668 3
2.9370339 -0.74864054 -0.47399682 2
3.7398009 -0.95395839 -0.46919748 2
5.0128856 -1.2796321 -0.44928852 3
7.8017864 -1.9930015 -0.41859844 3
18.011257 -4.6044059 -0.32059404 2
9.0257273 -2.3090189 2.4843376 11
10.562269 -2.704071 2.5063081 14
12.646616 -3.2400417 2.5278552 12
15.618056 -4.0042248 2.5447278 11
20.534237 -5.2684755 2.5982542 8
29.64975 -7.6127615 2.6748097 3
nan nan nan 0
28.685644 -7.3758955 0.51632941 22
1.8374609 -0.47417337 -0.49822688 3
2.0842545 -0.53824872 -0.48814404 3
2.4558904 -0.6346792 -0.48517317 3
2.9344027 -0.75888819 -0.47399682 2
3.7316437 -0.96576351 -0.46858817 2
5.0035667 -1.2958739 -0.44885278 3
7.7996159 -2.0214753 -0.41885924 3
17.937006 -4.6521873 -0.31955734 2
9.0222874 -2.3417242 2.4856308 11
10.552766 -2.7409239 2.5063081 7
12.635229 -3.2841671 2.5278552 12
15.603984 -4.0587173 2.5447278 12
20.515722 -5.3401217 2.5982542 7
27.25149 -7.0984812 2.4604065 3
27.500366 -7.1684341 1.4873879 3
nan nan nan 0
1.8357944 -0.48058441 -0.49822688 3
2.0823629 -0.5455209 -0.48814404 3
2.4631557 -0.64573735 -0.48707953 2
2.926959 -0.76787335 -0.47321463 2
3.7234497 -0.97752333 -0.46797881 2
5.00383 -1.3145971 -0.44928852 3
7.7925124 -2.0486887 -0.41885924 3
17.935163 -4.7185869 -0.31981653 3
9.0234003 -2.375663 2.4882174 13
10.543135 -2.7777433 2.5063081 15
12.628435 -3.3295035 2.5288086 12
15.589722 -4.1131606 2.5447278 12
20.516151 -5.41677 2.6006918 6
25.280993 -6.6795263 2.2843521 3
25.36566 -6.7066321 1.3730338 3
24.365971 -6.446867 0.43927705 26
1.8341057 -0.48698962 -0.49822688 4
2.0757377 -0.55153525 -0.48701933 2
2.4466565 -0.65054768 -0.48422 3
2.9242606 -0.77808565 -0.47321463 2
3.715219 -0.98923773 -0.46736944 2
5.0040236 -1.3333383 -0.44972432 3
7.7901382 -2.0771637 -0.41912007 3
nan nan nan 0
9.0243845 -2.4096382 2.490804 5
10.523959 -2.8120134 2.50406 14
12.616736 -3.3735647 2.5288086 13
15.580039 -4.1688304 2.5455089 12
20.54985 -5.5024714 2.6073947 6
23.251232 -6.2301488 2.1026323 3
23.581779 -6.3231306 1.2775207 3
nan nan nan 0
1.8323946 -0.49338886 -0.49822688 3
2.0737998 -0.55877763 -0.48701933 3
2.4348927 -0.65652853 -0.48231363 2
2.9215269 -0.78828847 -0.47321463 2
3.7117434 -1.0022002 -0.46736944 2
5.0041475 -1.3520967 -0.45016012 3
7.7828398 -2.1043439 -0.41912007 3
nan nan nan 0
9.0392284 -2.4474354 2.4972701 22
10.509377 -2.8474574 2.5029361 14
12.604883 -3.4175847 2.5288086 13
15.57016 -4.224483 2.5462904 12
20.540094 -5.5767703 2.608613 6
21.936333 -5.95997 1.9854077 4
22.070726 -6.0006204 1.1966616 2
20.856817 -5.67449 0.37662292 26
1.8306613 -0.49978215 -0.49822688 3
2.067137 -0.56472921 -0.48589453 2
2.4231169 -0.66243517 -0.48040724 2
2.9187574 -0.79848164 -0.47321463 2
3.7082224 -1.0151505 -0.46736944 2
5.0042014 -1.3708723 -0.45059589 3
7.7754469 -2.1314981 -0.41912007 3
nan nan nan 0
9.012001 -2.4738595 2.4920971 15
10.494676 -2.8828342 2.5018125 14
12.592876 -3.4615631 2.5288086 13
15.56008 -4.280117 2.5470717 11
20.506149 -5.644484 2.6067851 9
20.474756 -5.6396871 1.8546741 10
20.595928 -5.6769309 1.1176343 15
19.993509 -5.5146389 0.36135206 41
1.8289056 -0.50616926 -0.49822688 3
2.0651531 -0.57194138 -0.48589453 3
2.4160597 -0.66957855 -0.47945404 2
2.9159524 -0.80866522 -0.47321463 2
3.7046564 -1.0280885 -0.46736944 2
4.9993858 -1.3883319 -0.45059589 3
7.7679596 -2.1586266 -0.41912007 3
16.682673 -4.6390591 -0.29856449 26
8.9940052 -2.5027125 2.4895105 12
10.479856 -2.9181433 2.5006886 14
12.580717 -3.5054996 2.5288086 13
15.554558 -4.3370585 2.5486343 10
20.065668 -5.59866 2.5531626 9
19.423487 -5.4231353 1.7609818 4
19.537247 -5.4585729 1.0611115 4
18.963068 -5.3017197 0.34302703 24
1.8271275 -0.51255023 -0.49822688 3
2.0631442 -0.57914668 -0.48589453 2
2.4137077 -0.67800808 -0.47945404 3
2.9083579 -0.8175025 -0.47243246 2
3.7058225 -1.0423576 -0.46797881 2
4.9945092 -1.4057745 -0.45059589 3
7.7603769 -2.1857285 -0.41912007 3
16.565331 -4.6687851 -0.29675031 4
8.9759159 -2.5314703 2.4869239 12
10.464917 -2.9533834 2.4995646 14
12.573128 -3.5507269 2.5297618 13
15.544079 -4.3926706 2.5494158 7
nan nan nan 0
18.143936 -5.1342163 1.646372 2
18.172882 -5.145833 0.98784113 2
16.74633 -4.7450476 0.30314827 38
1.8253273 -0.51892501 -0.49822688 4
2.0657959 -0.5876779 -0.48701933 3
2.4160471 -0.68777323 -0.48040724 2
2.9054866 -0.82764959 -0.47243246 2
3.6973886 -1.0539266 -0.46736944 2
4.9895716 -1.4232 -0.45059589 3
7.7527003 -2.2128038 -0.41912007 4
16.534512 -4.7224617 -0.29649115 29
8.9623814 -2.5614593 2.4856308 12
10.454544 -2.9898951 2.4995646 14
12.560657 -3.5945938 2.5297618 13
15.533397 -4.4482622 2.5501969 11
16.796316 -4.8130937 2.140635 4
16.708651 -4.7911286 1.5173815 29
16.714964 -4.7960963 0.90933722 29
16.662394 -4.7841597 0.30192661 84
1.8188637 -0.52395648 -0.49693277 3
2.0637319 -0.59488529 -0.48701933 3
2.4136317 -0.69620264 -0.48040724 3
2.9025798 -0.83778656 -0.47243246 3
3.6936872 -1.0668265 -0.46736944 2
4.9845734 -1.4406081 -0.45059589 3
7.7449288 -2.2398524 -0.41912007 4
16.407475 -4.7481856 -0.2945042 8
8.9533854 -2.5927281 2.4856308 12
10.444043 -3.0263698 2.4995646 15
12.552747 -3.6397836 2.530715 13
15.527263 -4.5052099 2.5517595 11
16.636433 -4.8301821 2.1223545 38
nan nan nan 0
nan nan nan 0
16.256773 -4.7291832 0.2948584 70
1.8170238 -0.53030235 -0.49693277 3
2.0569663 -0.60071969 -0.48589453 3
2.4158981 -0.70600033 -0.48136041 2
2.8996377 -0.84791338 -0.47243246 3
3.6899409 -1.0797133 -0.46736944 2
4.9795141 -1.4579989 -0.45059589 3
7.7370629 -2.2668736 -0.41912007 4
16.251678 -4.7646418 -0.29199886 19
8.9442797 -2.6239655 2.4856308 12
10.433416 -3.0628078 2.4995646 14
12.544675 -3.684962 2.5316682 12
15.501965 -4.5565968 2.5501969 11
16.243349 -4.777597 2.0742161 32
16.239969 -4.7796826 1.4777256 34
16.240416 -4.7828941 0.88526261 32
16.230576 -4.7830753 0.29468387 26
1.8151617 -0.53664166 -0.49693277 3
2.0548568 -0.60789615 -0.48589453 3
2.4134188 -0.71442908 -0.48136041 3
2.8966603 -0.85802978 -0.47243246 3
3.6861494 -1.092587 -0.46736944 2
4.9743948 -1.4753717 -0.45059589 4
7.7291031 -2.2938673 -0.41912007 3
16.220572 -4.8170724 -0.2917397 14
8.9350662 -2.6551709 2.4856308 12
10.427331 -3.1005974 2.5006886 14
12.541143 -3.7315285 2.5335746 13
15.504897 -4.6163182 2.5533223 12
16.212303 -4.8300166 2.0723879 33
16.227959 -4.8377647 1.4781613 27
16.223621 -4.8395548 0.88526261 23
16.223362 -4.8425608 0.2948584 26
1.8133721 -0.54265803 -0.49693277 3
2.0482697 -0.61295199 -0.48476982 2
2.4111626 -0.72200745 -0.48136041 3
2.8892195 -0.86570823 -0.47165027 3
3.6826987 -1.104162 -0.46736944 2
4.9697351 -1.490992 -0.45059589 3
7.7266412 -2.3195734 -0.41938087 3
16.205359 -4.8680067 -0.2917397 12
8.9266806 -2.6832283 2.4856308 12
10.422204 -3.1347437 2.5018125 14
12.53406 -3.7723236 2.5345278 8
15.490318 -4.6650052 2.5533223 13
16.19705 -4.8809252 2.0723879 31
16.212681 -4.8887219 1.4781613 29
16.208338 -4.8904986 0.88526261 24
16.208067 -4.8935041 0.2948584 26
1.8115625 -0.54866844 -0.49693277 3
2.0461175 -0.62009805 -0.48476982 2
2.4086277 -0.73041964 -0.48136041 3
2.8814547 -0.87435424 -0.47086814 3
3.6740735 -1.1155684 -0.4667601 2
4.9645 -1.5083305 -0.45059589 3
7.7184973 -2.3465302 -0.41938087 3
nan nan nan 0
8.9172602 -2.7143717 2.4856308 12
10.420519 -3.1739438 2.50406 14
12.530205 -3.8189144 2.5364339 11
nan nan nan 0
16.189407 -4.940331 2.0736067 30
16.200281 -4.9467402 1.4785972 29
16.200718 -4.949965 0.885786 24
nan nan nan 0
1.8095394 -0.55530447 -0.49693277 3
2.0484884 -0.62902331 -0.48589453 3
2.4012425 -0.73780119 -0.48040724 3
2.8687899 -0.88200688 -0.46930379 3
3.66996 -1.1290271 -0.4667601 2
4.9636993 -1.5279815 -0.45103166 4
7.7241597 -2.3792133 -0.42016327 4
16.179665 -4.9867892 -0.2919125 10
8.9072514 -2.7470367 2.4856308 12
10.408816 -3.2121155 2.50406 13
12.530193 -3.8691587 2.5392935 13
nan nan nan 0
16.180674 -5.0025663 2.0748255 32
16.1868 -5.007556 1.4790329 28
16.187237 -5.0107865 0.88604772 23
12.471695 -3.8630199 0.22723031 3
1.80759 -0.56161755 -0.49693277 3
2.0462801 -0.63617009 -0.48589453 3
2.3939657 -0.74472058 -0.47945404 2
2.8515477 -0.88761222 -0.46695724 3
3.6659966 -1.1418308 -0.4667601 2
4.9583354 -1.5452988 -0.45103166 3
7.6967416 -2.4002156 -0.41912007 4
12.363397 -3.857872 -0.22314589 17
8.8976088 -2.7781122 2.4856308 11
10.416142 -3.2542412 2.5085559 14
12.493188 -3.9055514 2.5345278 10
12.281822 -3.8418283 2.0298443 35
12.464175 -3.901258 1.5989257 2
12.319045 -3.8581932 1.1260523 12
12.33886 -3.8667641 0.67565715 11
12.262554 -3.8452091 0.22365257 9
1.8009126 -0.56678903 -0.4956387 3
2.0439346 -0.64366579 -0.48589453 3
2.3865387 -0.75201482 -0.47850087 2
2.8765342 -0.90696776 -0.47165027 2
3.661787 -1.1552596 -0.4667601 2
4.9526381 -1.5634617 -0.45103166 3
7.6974158 -2.4314175 -0.4196417 4
12.210935 -3.8594675 -0.22064056 3
8.8873663 -2.8107049 2.4856308 12
10.413435 -3.2953362 2.5108037 14
11.99214 -3.7972209 2.435396 3
12.258244 -3.8838346 2.0282817 34
12.21799 -3.8734274 1.5690677 8
12.06743 -3.8280141 1.1042633 3
12.096164 -3.839453 0.66309655 2
11.729028 -3.7251737 0.21414101 2
1.7989231 -0.57307196 -0.4956387 3
2.0370336 -0.64931697 -0.48476982 3
2.3792229 -0.75884932 -0.47754765 2
2.887465 -0.9215076 -0.47399682 2
3.6624596 -1.1695442 -0.46736944 2
4.9471507 -1.5807401 -0.45103166 3
7.674613 -2.4537096 -0.41885924 5
nan nan nan 0
8.8775015 -2.8417103 2.4856308 11
10.401869 -3.3316662 2.5108037 6
11.857285 -3.8001103 2.4106131 5
nan nan nan 0
11.717674 -3.7598779 1.506305 2
11.584483 -3.7193704 1.0611212 10
nan nan nan 0
11.535094 -3.7079625 0.21082506 33
1.7970129 -0.57903427 -0.4956387 3
2.0349836 -0.65571332 -0.48476982 3
2.376827 -0.76632005 -0.47754765 2
2.8939555 -0.93360668 -0.47556117 2
3.6587675 -1.1810443 -0.46736944 2
4.9468999 -1.5978051 -0.45146742 3
nan nan nan 0
nan nan nan 0
nan nan nan 0
nan nan nan 0
nan nan nan 0
4.7578073 -1.5422338 0.78521693 19
11.550024 -3.7461455 1.4861965 4
nan nan nan 0
nan nan nan 0
4.7576542 -1.5458555 0.086651191 85
1.7950828 -0.58499014 -0.4956387 3
2.0373144 -0.66432303 -0.48589453 3
2.3834701 -0.77765703 -0.47945404 2
2.8765953 -0.93910491 -0.47321463 3
3.6546223 -1.1938087 -0.46736944 2
4.9412928 -1.6150633 -0.45146742 3
nan nan nan 0
4.7686744 -1.5604856 -0.086044639 33
4.7549396 -1.5569099 1.3294632 24
4.7495856 -1.5560749 1.1441351 23
4.7470737 -1.5561693 0.96272016 30
4.7477021 -1.5572931 0.78443557 12
nan nan nan 0
4.7686691 -1.5660143 0.43577874 30
4.7562432 -1.5628532 0.26037139 21
4.7522287 -1.5624534 0.086651191 24
1.7929267 -0.59156555 -0.4956387 3
2.0348656 -0.67178565 -0.48589453 3
2.3852644 -0.78792721 -0.48040724 2
2.8590674 -0.94499254 -0.47086814 2
3.6502223 -1.2071955 -0.46736944 2
4.9353399 -1.6331631 -0.45146742 3
4.762208 -1.576794 -0.26002657 32
4.7724142 -1.5810976 -0.086217418 28
4.744617 -1.5728073 1.3281701 14
4.7484751 -1.5750064 1.1452591 13
4.7553134 -1.5781959 0.96557975 20
4.7466493 -1.5762402 0.78521693 12
4.75528 -1.5800277 0.61056536 31
4.7581706 -1.5819105 0.43534294 19
4.750483 -1.5802753 0.26037139 13
4.751214 -1.5814396 0.086738452 63
1.795432 -0.59934968 -0.49693277 3
2.0417502 -0.68197149 -0.48814404 2
2.3871548 -0.79780436 -0.48136041 3
2.846384 -0.95183438 -0.46930379 2
3.6365736 -1.2167804 -0.46615076 2
4.9248853 -1.6487995 -0.45103166 4
4.7661443 -1.5965797 -0.2605482 26
4.752646 -1.5929806 -0.08595825 15
4.7482562 -1.5924312 1.3307565 12
4.7568049 -1.5962219 1.1486307 12
4.7497754 -1.5947855 0.96557975 13
4.7598438 -1.5990903 0.78834218 13
4.7450318 -1.595036 0.60995609 9
4.7667828 -1.6032735 0.43665025 14
4.7544022 -1.600033 0.26089472 13
4.7598782 -1.602801 0.087000236 65
1.793329 -0.60561323 -0.49693277 3
2.0393572 -0.68909436 -0.48814404 2
2.3797057 -0.80456018 -0.48040724 2
2.8290102 -0.95701677 -0.46695724 2
3.6276031 -1.2278759 -0.46554142 2
4.9143825 -1.6643827 -0.45059589 3
4.7605419 -1.6132069 -0.2605482 15
4.7659945 -1.6159821 -0.086303808 15
4.7609639 -1.6152028 1.3359296 15
4.7604313 -1.6159486 1.1508787 16
4.7534752 -1.6145127 0.96748608 13
4.7635851 -1.6188738 0.78990471 13
4.7253394 -1.6067965 0.60812795 3
4.7705889 -1.6231117 0.43752185 14
4.7676954 -1.6230559 0.26194146 13
4.7684512 -1.6242419 0.087262027 64
1.7912041 -0.61186945 -0.49693277 3
2.0323293 -0.69463319 -0.48701933 2
2.367594 -0.80968547 -0.47850087 2
2.8583596 -0.97807789 -0.47243246 2
3.6139047 -1.2373161 -0.46432272 2
4.9038305 -1.6799126 -0.45016012 3
4.769052 -1.6346714 -0.2613306 14
4.7697825 -1.6358521 -0.086476594 15
4.7598653 -1.6333796 1.3372228 14
4.7685857 -1.6373023 1.1542504 16
4.7617364 -1.6358796 0.97034562 13
4.7672458 -1.6387028 0.79146737 12
4.7854033 -1.6458782 0.61665887 4
4.774313 -1.6429958 0.43839338 13
4.7714429 -1.6429394 0.26246482 12
4.7769322 -1.6457622 0.087523811 66
1.7890574 -0.61811817 -0.49693277 3
2.0252876 -0.70013136 -0.48589453 2
2.3647535 -0.81794494 -0.47850087 2
2.850261 -0.98643422 -0.47165027 2
3.6048741 -1.2482996 -0.46371335 2
4.8979368 -1.6970199 -0.45016012 3
4.7727528 -1.6545799 -0.26185223 15
4.7782125 -1.6574069 -0.086735763 15
4.7678232 -1.6547354 1.3411026 13
4.7720466 -1.6571344 1.1564982 15
4.7699065 -1.6573242 0.97320527 13
4.7754908 -1.6601987 0.79381132 12
4.7936902 -1.6674635 0.61848688 24
4.7826624 -1.6645633 0.43970072 13
4.7798252 -1.6645111 0.26324984 14
4.7806001 -1.6657168 0.08769834 64
1.7823294 -0.62276632 -0.4956387 3
2.0182326 -0.70558888 -0.48476982 2
2.3618839 -0.82619447 -0.47850087 2
2.8514616 -0.99800897 -0.47243246 2
3.6332815 -1.2723571 -0.46797881 2
4.8966837 -1.7157538 -0.45059589 3
4.7763715 -1.6745335 -0.26237383 13
4.7865505 -1.6790402 -0.086994931 13
4.7711325 -1.6745671 1.343689 14
4.7800231 -1.6786246 1.1598699 16
4.7733536 -1.6772183 0.9751116 12
4.7836432 -1.6817719 0.79615521 12
4.7925224 -1.6858335 0.61909622 32
4.7909179 -1.6862086 0.44100806 13
4.788115 -1.6861615 0.2640349 13
4.7889018 -1.6873782 0.087960124 65
1.7892522 -0.63220203 -0.49822688 3
2.0157573 -0.7126295 -0.48476982 3
2.3589854 -0.83443397 -0.47850087 2
2.8526161 -1.009604 -0.47321463 2
3.6007497 -1.2750924 -0.46432272 2
4.89536 -1.7344995 -0.45103166 3
4.7846165 -1.6962014 -0.26315629 14
4.7900834 -1.6990807 -0.08716771 15
4.7789135 -1.6960576 1.3475689 15
4.7879081 -1.7001908 1.1632416 14
4.7813454 -1.6988001 0.97797126 14
4.7870507 -1.7017683 0.79771787 12
4.7959599 -1.7058784 0.6203149 30
4.7990804 -1.7079318 0.4423154 14
4.7916074 -1.7062147 0.26455826 15
4.7971106 -1.7091177 0.088221908 65
1.7688421 -0.6319443 -0.49305049 3
2.0132575 -0.71966147 -0.48476982 3
nan nan nan 0
nan nan nan 0
3.6102936 -1.2926723 -0.46615076 2
4.8939648 -1.7532568 -0.45146742 4
4.7880669 -1.716262 -0.2636779 14
4.7982407 -1.7208538 -0.087426879 15
4.7820559 -1.7159913 1.3501554 11
4.795701 -1.7218325 1.1666133 13
4.7892437 -1.7204579 0.98083079 14
4.795023 -1.723479 0.80006176 12
4.7993159 -1.7259678 0.62153363 17
4.8071499 -1.7297328 0.44362271 13
4.7950191 -1.726313 0.26508161 15
4.8052254 -1.730935 0.088483691 67
1.7893373 -0.64631855 -0.49952096 3
2.0153151 -0.72834057 -0.48589453 2
nan nan nan 0
nan nan nan 0
nan nan nan 0
4.8924985 -1.7720255 -0.45190322 3
4.7914357 -1.7363675 -0.26419953 15
4.8016043 -1.7410005 -0.087599657 16
4.7896571 -1.7376146 1.354035 13
4.7988205 -1.7418867 1.1688612 14
4.7924361 -1.7405161 0.98273712 14
4.8029027 -1.7452662 0.80240571 13
4.8025899 -1.7461014 0.62275231 16
4.8151255 -1.7516106 0.44493008 14
4.8030391 -1.7481632 0.26586664 14
4.8085494 -1.7511193 0.088658221 64
nan nan nan 0
nan nan nan 0
nan nan nan 0
nan nan nan 0
3.559237 -1.3024958 -0.46066663 3
4.9003148 -1.7942303 -0.45321056 3
4.7994113 -1.758235 -0.26498196 14
4.8095794 -1.7629122 -0.087858833 13
4.7971668 -1.7593122 1.3579149 14
4.8064322 -1.7636621 1.1722327 16
4.8001547 -1.7623091 0.98559672 15
4.810689 -1.7671295 0.80474967 13
4.8057818 -1.7662791 0.62397099 15
4.8230066 -1.7735651 0.44623742 10
4.8062797 -1.7683667 0.26639 13
4.8164816 -1.7730747 0.088920005 64
1.7621275 -0.65043259 -0.49305049 3
nan nan nan 0
nan nan nan 0
nan nan nan 0
3.550014 -1.31319 -0.46005729 3
4.8800082 -1.8061382 -0.45190322 2
4.8026094 -1.7784451 -0.26550356 16
4.8174601 -1.7849007 -0.088118002 16
4.8045826 -1.7810832 1.3617946 17
4.813951 -1.7855117 1.1756046 16
4.8031764 -1.7824693 0.98750305 15
4.8183804 -1.7890682 0.80709356 14
4.8135433 -1.7882283 0.62579906 17
4.8307924 -1.795596 0.44754472 14
4.8094378 -1.7886139 0.26691335 15
4.8196344 -1.7933635 0.089094535 63
1.7643714 -0.6582678 -0.49434459 3
nan nan nan 0
nan nan nan 0
nan nan nan 0
nan nan nan 0
4.8643432 -1.8196712 -0.45103166 4
4.8104014 -1.8004495 -0.26628599 16
4.8252454 -1.8069654 -0.08837717 12
4.8119044 -1.8029273 1.3656744 14
4.8213749 -1.8074353 1.1789763 15
4.8107119 -1.8043958 0.99036258 14
4.8259773 -1.8110822 0.80943751 12
4.8165641 -1.8085089 0.62701774 16
4.8338213 -1.8159511 0.44841629 13
4.8171868 -1.8106614 0.26769841 14
4.8273826 -1.8154553 0.089356318 65
nan nan nan 0
nan nan nan 0
2.3272169 -0.87845373 -0.47564128 3
nan nan nan 0
nan nan nan 0
4.8439841 -1.8313552 -0.44972432 5
4.8180981 -1.8225296 -0.26706842 14
4.8329353 -1.8291065 -0.088636346 15
4.8191328 -1.8248442 1.3695542 12
4.8287044 -1.8294324 1.182348 12
4.8181534 -1.8263967 0.99322224 13
4.8334785 -1.8331709 0.81178141 11
4.824142 -1.8305929 0.62884575 15
4.841423 -1.8381171 0.44972363 12
4.8248405 -1.832785 0.26848346 12
4.8303623 -1.8358474 0.089530841 64
nan nan nan 0
nan nan nan 0
nan nan nan 0
nan nan nan 0
nan nan nan 0
4.8329091 -1.8464751 -0.44928852 5
4.8256989 -1.8446856 -0.26785085 14
4.8405294 -1.851323 -0.088895515 13
4.8262658 -1.8468333 1.3734338 10
4.8359389 -1.8515027 1.1857197 13
4.8254995 -1.8484714 0.99608177 14
4.8408847 -1.855334 0.81412542 12
4.8269897 -1.8509747 0.63006449 16
4.8489285 -1.8603581 0.45103094 9
4.8323984 -1.8549838 0.26926848 12
4.837925 -1.8580743 0.089792624 69
nan nan nan 0
nan nan nan 0
2.3625638 -0.90974301 -0.48422 2
nan nan nan 0
nan nan nan 0
4.8317318 -1.8634412 -0.44972432 4
4.8338556 -1.8652295 -0.26863328 15
4.8440166 -1.8701217 -0.089068294 15
4.8339562 -1.8672073 1.3773136 12
4.8437319 -1.871955 1.1890914 12
4.8334026 -1.8689325 0.9989413 14
4.8488498 -1.8758785 0.81646931 11
4.8350353 -1.8715043 0.6318925 16
4.8523493 -1.87918 0.45190254 12
4.84517 -1.877372 0.2703152 14
4.8460474 -1.878685 0.090054408 67
nan nan nan 0
nan nan nan 0
nan nan nan 0
nan nan nan 0
nan nan nan 0
4.8251977 -1.8802958 -0.44972432 4
4.8412714 -1.8875327 -0.26941571 12
4.8514318 -1.8924698 -0.089327469 15
4.8409066 -1.8893374 1.3811933 13
4.8507829 -1.8941678 1.1924632 13
4.8405647 -1.8911514 1.0018009 14
4.8560715 -1.8981866 0.8188132 12
4.8423381 -1.893793 0.63372058 16
4.8550377 -1.8997365 0.45277408 11
4.8525352 -1.8997341 0.27110025 13
4.8534245 -1.901059 0.090316191 63
nan nan nan 0
nan nan nan 0
2.2644837 -0.89109087 -0.46515623 3
nan nan nan 0
nan nan nan 0
4.8225765 -1.9006357 -0.45016012 4
4.8479228 -1.9116027 -0.27019814 13
4.8534303 -1.9147531 -0.089500241 16
4.8470945 -1.9132314 1.3850732 13
4.8570685 -1.918148 1.1958348 13
4.8515272 -1.9169387 1.0056137 13
4.8625255 -1.9222654 0.82115722 14
4.848876 -1.917848 0.63554859 15
4.8616023 -1.9238629 0.45408145 15
4.8591328 -1.9238667 0.27188528 13
4.860033 -1.9252044 0.09057799 66
nan nan nan 0
nan nan nan 0
nan nan nan 0
nan nan nan 0
nan nan nan 0
4.8205404 -1.9193006 -0.45059589 4
4.8551369 -1.9340569 -0.27098054 16
4.8606486 -1.9372356 -0.089759409 16
4.8538451 -1.9355059 1.3889529 13
4.8639193 -1.9405069 1.1992066 13
4.8584819 -1.9393206 1.0084733 13
4.8741312 -1.9465536 0.82428241 12
4.8559771 -1.9402864 0.63737667 15
4.8641071 -1.9445192 0.45495296 13
4.8662963 -1.9463797 0.27267033 12
4.8672051 -1.9477358 0.090839773 63
nan nan nan 0
nan nan nan 0
nan nan nan 0
nan nan nan 0
nan nan nan 0
4.8141489 -1.9352756 -0.45059589 4
4.8579621 -1.953873 -0.27150217 15
4.8681116 -1.9589425 -0.090018585 16
4.8608413 -1.9570026 1.3928326 12
4.8710151 -1.9620867 1.2025783 13
4.8611288 -1.9590906 1.0103796 14
4.8813901 -1.9682466 0.82662636 11
4.8633232 -1.9619486 0.63920468 15
4.8714886 -1.9662313 0.45626029 14
4.8737049 -1.9681151 0.27345535 14
4.8746276 -1.9694772 0.091101557 65
nan nan nan 0
nan nan nan 0
nan nan nan 0
nan nan nan 0
nan nan nan 0
4.8119798 -1.9539422 -0.45103166 4
4.8649898 -1.9764566 -0.2722846 13
4.8751383 -1.9815708 -0.090277754 17
4.8674026 -1.9794167 1.3967124 12
4.8776746 -1.984586 1.20595 12
4.8678989 -1.9815991 1.0132391 12
4.8836374 -1.9889994 0.8281889 10
4.8702326 -1.9845308 0.6410327 15
4.8784332 -1.9888653 0.45756766 14
4.8806748 -1.9907728 0.2742404 15
4.8816085 -1.9921476 0.091363341 63
nan nan nan 0
nan nan nan 0
nan nan nan 0
nan nan nan 0
nan nan nan 0
4.8097382 -1.9726174 -0.45146742 4
4.8673 -1.9972177 -0.27280623 13
4.8820653 -2.004272 -0.090536922 16
4.8738666 -2.0019002 1.4005922 11
4.8842368 -2.0071561 1.2093217 11
4.8745708 -2.0041785 1.0160987 13
4.8857989 -2.0097919 0.82975161 14
4.8770437 -2.0071855 0.64286077 14
4.8852777 -2.0115716 0.45887497 17
4.8875461 -2.0135033 0.27502546 15
4.8884916 -2.0148907 0.091625132 67
nan nan nan 0
nan nan nan 0
nan nan nan 0
nan nan nan 0
nan nan nan 0
4.8028235 -1.9893944 -0.45146742 6
4.8787498 -2.021842 -0.27384946 15
4.8935113 -2.0289602 -0.090882488 15
4.8802323 -2.0244527 1.4044719 14
4.8907003 -2.0297956 1.2126935 16
4.8811445 -2.0268283 1.0189582 14
4.8878756 -2.0306234 0.83131415 14
4.8837552 -2.0299115 0.64468879 17
4.8966231 -2.0362623 0.46061811 13
4.8943181 -2.0363057 0.27581048 14
4.8952742 -2.0377059 0.091886915 66
nan nan nan 0
nan nan nan 0
nan nan nan 0
nan nan nan 0
nan nan nan 0
4.7958498 -2.0061474 -0.45146742 4
4.8900871 -2.0465705 -0.27489269 14
4.9002333 -2.0518219 -0.091141663 14
4.890955 -2.0489404 1.409645 11
4.8970652 -2.0525048 1.2160652 15
4.8876185 -2.0495486 1.0218178 13
4.8898654 -2.0514944 0.8328768 13
4.8903675 -2.0527089 0.64651686 14
4.9032631 -2.0591283 0.46192542 13
4.90099 -2.05918 0.2765955 13
4.901957 -2.0605931 0.092148699 64
nan nan nan 0
nan nan nan 0
2.3100383 -0.97437334 -0.47945404 2
nan nan nan 0
3.5510538 -1.4992936 -0.46858817 2
4.7934065 -2.0248139 -0.45190322 5
4.8967109 -2.0694587 -0.27567512 13
4.9068546 -2.0747554 -0.091400832 15
4.8971176 -2.0716457 1.4135246 11
4.9033308 -2.0752833 1.2194368 16
4.8939943 -2.0723388 1.0246774 14
4.9008641 -2.0762565 0.83600205 13
4.8968797 -2.075577 0.64834487 17
4.9098024 -2.0820651 0.46323279 14
4.9075623 -2.0821257 0.27738056 14
4.9085402 -2.0835516 0.09241049 66
1.7461549 -0.74299783 -0.49822688 3
nan nan nan 0
nan nan nan 0
nan nan nan 0
3.5275378 -1.5038947 -0.46615076 2
4.7863088 -2.0415337 -0.45190322 4
4.9078274 -2.0943782 -0.27671835 14
4.9179735 -2.0997229 -0.09174639 15
4.9076228 -2.0963161 1.4186976 12
4.9094973 -2.0981302 1.2228086 16
4.9047832 -2.0971282 1.0284902 14
4.9117494 -2.1011205 0.8391273 13
4.9032931 -2.0985157 0.65017295 17
4.9208202 -2.1070333 0.46497589 14
4.9140334 -2.1051424 0.27816561 14
4.9196177 -2.1085508 0.092759535 66
nan nan nan 0
nan nan nan 0
2.3031797 -0.99047649 -0.47945404 2
2.7614975 -1.1881461 -0.47008595 2
3.51315 -1.5122745 -0.46493205 2
4.7791533 -2.0582285 -0.45190322 5
4.9142437 -2.1174245 -0.27750078 14
4.9243865 -2.1228139 -0.092005558 15
4.9135809 -2.1191728 1.4225775 12
4.9200368 -2.1229756 1.2273042 15
4.9109516 -2.1200724 1.0313498 14
4.9225197 -2.1260855 0.84225255 13
4.9096041 -2.1215241 0.65200096 16
4.9271517 -2.130127 0.46628323 13
4.9249868 -2.1302116 0.27921233 14
4.9259915 -2.1316669 0.093021318 66
1.745356 -0.75709194 -0.49952096 3
1.9791617 -0.85892147 -0.48926884 2
2.2952061 -0.99655533 -0.47850087 2
2.757333 -1.1977782 -0.47008595 2
3.4896438 -1.5166161 -0.46249467 2
4.7719398 -2.0748985 -0.45190322 6
4.9205594 -2.1405413 -0.27828321 14
4.9306984 -2.1459756 -0.092264727 15
4.9238667 -2.1440244 1.4277505 12
4.9259958 -2.1459744 1.2306759 16
4.9170198 -2.143085 1.0342093 13
4.9286489 -2.1491773 0.84459645 13
4.9203639 -2.1465869 0.65443832 15
4.9333806 -2.1532905 0.46759054 14
4.9312482 -2.1533844 0.27999735 12
4.9322639 -2.1548529 0.093283102 62
1.7294307 -0.75736761 -0.4956387 3
1.9627644 -0.85995948 -0.48589453 2
2.2917132 -1.0045609 -0.47850087 3
2.7214768 -1.193512 -0.46461076 2
3.4934177 -1.5327759 -0.46371335 2
4.764668 -2.091543 -0.45190322 7
4.931344 -2.1657352 -0.27932644 14
4.9369087 -2.1692071 -0.092523903 14
4.9296169 -2.1670296 1.4316303 11
4.9318547 -2.1690404 1.2340477 15
4.9229875 -2.1661663 1.0370688 14
4.9391971 -2.1743276 0.8477217 14
4.926466 -2.1697497 0.65626639 14
4.9395089 -2.1765234 0.46889791 14
4.937408 -2.1766269 0.2807824 13
4.9384336 -2.1781087 0.093544886 66
1.7267764 -0.76339984 -0.4956387 3
1.9597507 -0.86680555 -0.48589453 2
2.2612619 -1.0006372 -0.47278175 2
2.7624509 -1.2229962 -0.47243246 2
3.4925838 -1.5469707 -0.46432272 2
4.757338 -2.1081622 -0.45190322 4
4.9374485 -2.189007 -0.28010887 14
4.9430161 -2.1925077 -0.092783071 15
4.9396811 -2.1920605 1.4368032 12
4.9376121 -2.1921737 1.2374194 15
4.928853 -2.1893148 1.0399284 14
4.9406033 -2.1955664 0.84928435 13
4.9370012 -2.1949978 0.65870374 17
4.9455347 -2.1998258 0.47020525 14
4.9480276 -2.2019689 0.28182912 14
4.9445024 -2.2014341 0.093806684 63
1.7152804 -0.7654863 -0.49305049 3
1.9478158 -0.86966872 -0.48364502 2
2.2667184 -1.0125282 -0.47468811 2
2.7446392 -1.2265868 -0.47008595 2
3.491693 -1.5611783 -0.46493205 2
4.7499504 -2.1247554 -0.45190322 4
4.9480076 -2.2143872 -0.2811521 14
4.9490209 -2.2158773 -0.09304224 13
4.9452229 -2.2152133 1.4406829 12
4.9432678 -2.2153733 1.2407911 15
4.9301381 -2.2105227 1.0418347 13
4.9599447 -2.2249267 0.85397214 13
4.9428921 -2.2183137 0.66053182 16
4.9560013 -2.2252362 0.47194836 14
4.9539757 -2.2253656 0.28261417 14
4.9504671 -2.2248282 0.094068468 64
1.7171363 -0.77315301 -0.49434459 3
1.9450741 -0.87578362 -0.48364502 2
2.2680013 -1.0216601 -0.47564128 2
2.7452745 -1.2372324 -0.47086814 3
3.4867711 -1.5721402 -0.46493205 2
4.7432518 -2.1396673 -0.45190322 5
4.9501286 -2.2340288 -0.28167373 14
4.9602604 -2.2396433 -0.093387797 14
4.9514441 -2.2367032 1.4445628 14
4.9584823 -2.2409246 1.2464106 14
4.9455309 -2.2361109 1.0466007 13
4.9664297 -2.2466044 0.85631615 15
4.944941 -2.2379236 0.6617505 16
4.9671359 -2.2490129 0.47369146 16
4.9606047 -2.2470989 0.28339919 14
4.9616671 -2.2486238 0.094417512 67
1.714563 -0.77884299 -0.49434459 3
1.9375699 -0.88055217 -0.48252031 2
2.2733576 -1.0336337 -0.47754765 2
2.7409391 -1.2468077 -0.47086814 3
3.485779 -1.5863574 -0.46554142 2
4.735754 -2.1562114 -0.45190322 5
4.9604764 -2.2595739 -0.28271696 15
4.9615107 -2.2610908 -0.093560584 14
4.9523954 -2.2579806 1.4471493 15
4.9594946 -2.2622631 1.2486584 16
4.9510918 -2.259474 1.0494604 10
4.9495721 -2.2598243 0.85475349 4
4.9596701 -2.2654808 0.66479725 17
4.9683161 -2.2704785 0.474563 14
4.9618125 -2.2685533 0.28392255 14
4.9401493 -2.2596912 0.094155729 44
1.7116969 -0.78512192 -0.49434459 3
1.9343295 -0.88764781 -0.48252031 3
2.2695539 -1.041959 -0.47754765 2
2.736351 -1.2568452 -0.47086814 3
3.4799414 -1.5991226 -0.46554142 2
4.7278194 -2.1735542 -0.45190322 8
4.9566975 -2.2798262 -0.28297776 10
4.9077749 -2.2583621 -0.092696682 4
4.9133759 -2.2619784 1.4380965 5
4.9157681 -2.2641199 1.2396672 4
4.8937411 -2.2550099 1.0389752 6
4.8874369 -2.2531393 0.8453778 31
4.9107747 -2.2649374 0.65931314 4
4.9102111 -2.2657168 0.46976945 7
4.9081306 -2.2657962 0.28130576 5
4.8819094 -2.254725 0.093195841 75
1.7089459 -0.7910921 -0.49434459 3
1.9312192 -0.89439446 -0.48252031 3
2.2703564 -1.0519384 -0.47850087 2
2.7319469 -1.2663893 -0.47086814 3
3.4743381 -1.6112602 -0.46554142 2
4.7156849 -2.1879478 -0.45146742 9
4.8762441 -2.2634771 -0.27880481 9
4.8635883 -2.2586343 -0.092005558 35
4.8704085 -2.262835 1.4277505 33
4.8636541 -2.2607288 1.228428 33
4.8546858 -2.2575908 1.032303 32
4.8571534 -2.2597697 0.8414712 28
4.8578458 -2.2611232 0.65321964 33
4.8571181 -2.261816 0.46541163 21
4.8639836 -2.2660458 0.27921233 30
4.8649468 -2.2675285 0.093021318 26
1.706174 -0.79705262 -0.49434459 3
1.9280854 -0.90113026 -0.48252031 3
2.2666707 -1.0598571 -0.47850087 3
2.72751 -1.2759179 -0.47086814 3
3.4641979 -1.6212745 -0.46493205 2
4.6944857 -2.1980588 -0.45016012 10
4.83214 -2.2635398 -0.27671835 10
4.8511481 -2.2734764 -0.091919169 21
4.8581071 -2.2777719 1.4264572 32
4.8513222 -2.2756236 1.2273042 29
4.8290019 -2.2661822 1.0284902 15
4.7866511 -2.2473271 0.83053291 6
4.8499236 -2.2780666 0.65321964 32
4.8446856 -2.2766383 0.46497589 10
4.8379688 -2.2745128 0.27816561 14
4.7755728 -2.246196 0.091450602 13
1.7033814 -0.80300337 -0.49434459 3
1.9249281 -0.90785503 -0.48252031 3
2.2629573 -1.0677627 -0.47850087 3
2.727505 -1.2875389 -0.47165027 3
3.4585173 -1.6333569 -0.46493205 2
4.6597629 -2.2016649 -0.44754541 17
4.7655244 -2.2526529 -0.27332783 8
4.7482762 -2.2455137 -0.090104975 9
4.7715406 -2.2575347 1.4031786 7
4.7596798 -2.2529402 1.20595 7
4.7412133 -2.2452123 1.0113328 10
4.7073684 -2.2301908 0.81803191 6
4.7701907 -2.2609732 0.64347011 8
4.7466965 -2.2508523 0.45626029 7
4.762331 -2.2592843 0.2742404 10
4.7044749 -2.2328427 0.090228938 10
1.7005681 -0.8089444 -0.49434459 3
1.9261465 -0.91666228 -0.48364502 2
2.2592163 -1.0756555 -0.47850087 3
2.7229941 -1.2970518 -0.47165027 3
3.452795 -1.6454194 -0.46493205 3
4.6160803 -2.2007685 -0.44405919 15
4.6990433 -2.2413287 -0.26993731 7
4.6727309 -2.2297792 -0.088809125 8
4.7069693 -2.2471263 1.3863664 15
4.6858416 -2.2380443 1.1890914 7
4.6713457 -2.2321219 0.9979881 9
4.637176 -2.216789 0.80709356 17
4.6772051 -2.2369277 0.6318925 8
4.6848931 -2.2416093 0.45103094 15
4.6778522 -2.2392437 0.26979184 9
4.6290188 -2.216861 0.088920005 22
1.697734 -0.8148756 -0.49434459 3
1.922935 -0.9233802 -0.48364502 2
2.2554479 -1.083535 -0.47850087 2
2.7184498 -1.306549 -0.47165027 2
3.4470303 -1.6574619 -0.46493205 3
4.5545068 -2.1909571 -0.43882984 9
4.6327009 -2.2295685 -0.26654679 6
4.5973539 -2.2135453 -0.087513275 8
4.6207728 -2.2258146 1.3630879 14
4.6077771 -2.2205455 1.171109 7
4.5927854 -2.2143087 0.98273712 9
4.5626869 -2.200779 0.79537386 10
4.6067948 -2.2230451 0.62336165 7
4.6052709 -2.2233007 0.44405851 11
4.6025648 -2.2229848 0.26586664 9
4.5582347 -2.2025552 0.08769834 11
1.6948791 -0.82079685 -0.49434459 3
1.9197001 -0.93008685 -0.48364502 3
2.2516518 -1.0914015 -0.47850087 2
2.7094293 -1.3138754 -0.47086814 3
3.4412236 -1.6694841 -0.46493205 3
4.4840961 -2.176393 -0.43272892 6
4.562007 -2.2151916 -0.26289546 17
4.5266452 -2.198997 -0.086303808 7
4.5391269 -2.2060401 1.3411026 16
4.5298929 -2.2025297 1.1531265 7
4.5144072 -2.1959743 0.96748608 9
4.4928083 -2.1864378 0.78443557 11
4.5320768 -2.206526 0.61422145 7
4.5303116 -2.206645 0.43752185 12
4.5274482 -2.206228 0.26194146 9
4.4876065 -2.1877825 0.086476669 11
1.6920037 -0.82670808 -0.49434459 3
1.9164418 -0.93678224 -0.48364502 3
2.2478285 -1.0992545 -0.47850087 2
2.7048266 -1.3233252 -0.47086814 3
3.435375 -1.6814861 -0.46493205 3
4.4138441 -2.1613646 -0.42662802 7
4.4914708 -2.2003486 -0.25924414 12
4.4560938 -2.1839824 -0.08509434 8
4.4620132 -2.1878495 1.3204106 11
4.4565654 -2.1861429 1.1362679 8
4.4450264 -2.1814454 0.9541415 11
4.4230857 -2.1716354 0.77349722 12
4.4575315 -2.1895132 0.60508126 7
4.4599962 -2.1916902 0.43142092 12
4.4525061 -2.1889744 0.25801626 9
4.4171391 -2.1725442 0.085254997 11
1.6891077 -0.83260924 -0.49434459 3
1.9131602 -0.94346613 -0.48364502 3
2.2439775 -1.1070942 -0.47850087 3
2.700191 -1.3327587 -0.47086814 3
3.4339342 -1.6956649 -0.46554142 3
4.3437519 -2.1458726 -0.4205271 7
4.4210939 -2.1850407 -0.25559282 12
4.385704 -2.1685026 -0.083884887 8
4.3850827 -2.1691477 1.2997185 12
4.3834081 -2.1692717 1.1194093 8
4.3758025 -2.1664588 0.94079685 11
4.3535218 -2.1563737 0.76255894 12
4.3920546 -2.1764143 0.5971598 8
4.3898416 -2.1762719 0.42532003 13
4.3822131 -2.1734431 0.25435272 9
4.3468328 -2.156841 0.084033333 12
1.6905154 -0.84065068 -0.4956387 3
1.9098551 -0.95013857 -0.48364502 3
2.2400994 -1.1149204 -0.47850087 3
2.6955223 -1.3421761 -0.47086814 3
3.4324365 -1.709854 -0.46615076 3
4.2782803 -2.1321397 -0.41486195 8
4.3553481 -2.1714964 -0.2522023 13
4.3154769 -2.1525581 -0.08267542 8
4.3213029 -2.1564059 1.2829063 12
4.3191419 -2.1562691 1.1047986 8
4.3111296 -2.153209 0.9284054 10
4.2885375 -2.1428604 0.75240189 11
4.3222842 -2.1606658 0.58862889 8
4.319849 -2.1603909 0.41921914 13
4.3165493 -2.1596828 0.2509509 9
4.2811613 -2.1429114 0.08289893 12
1.6875708 -0.84654653 -0.4956387 3
1.906527 -0.95679939 -0.48364502 3
2.2361939 -1.122733 -0.47850087 2
2.6908207 -1.351577 -0.47086814 2
3.4264472 -1.721825 -0.46615076 3
4.2129583 -2.117976 -0.40919682 8
4.2852907 -2.1552765 -0.24855098 13
4.2498817 -2.1383972 -0.081552342 8
4.2576661 -2.1432452 1.266094 13
4.2550211 -2.1428447 1.0901878 8
4.246603 -2.1395347 0.91601396 10
4.2237 -2.1289201 0.74224484 11
4.2571101 -2.1466918 0.58070737 7
4.2589164 -2.1485353 0.41398978 12
4.2510352 -2.1454902 0.24754907 10
4.2156405 -2.1285498 0.081764519 12
1.6846055 -0.85243213 -0.4956387 3
1.9031755 -0.96344858 -0.48364502 3
2.2322612 -1.1305319 -0.47850087 2
2.6904914 -1.3631933 -0.47165027 2
3.4248428 -1.7360189 -0.4667601 3
4.1566734 -2.1078885 -0.40440327 9
4.2243066 -2.1431129 -0.24542128 13
4.1844382 -2.123805 -0.080429271 8
4.1984806 -2.1318538 1.2505749 13
4.1953902 -2.1312058 1.0767009 8
4.1866012 -2.1276603 0.90457571 10
4.1590137 -2.1145537 0.73208779 11
4.1920862 -2.1322894 0.57278585 8
4.1981192 -2.1362805 0.40876046 13
4.190124 -2.1331327 0.24440892 9
4.1547279 -2.1160264 0.080717377 13
1.6816196 -0.8583073 -0.4956387 3
1.8998008 -0.97008604 -0.48364502 2
2.2283015 -1.1383171 -0.47850087 2
2.6857166 -1.3725766 -0.47165027 3
3.4187622 -1.7479633 -0.4667601 3
4.096076 -2.095166 -0.39917392 8
4.1634603 -2.1305501 -0.24229157 13
4.1235995 -2.1110606 -0.07939259 8
4.135129 -2.1178741 1.2337626 12
4.1315575 -2.116955 1.0620902 8
4.1223664 -2.1131542 0.89218426 10
4.0988746 -2.1020155 0.7227121 12
4.1272159 -2.1174598 0.56486434 8
4.1374602 -2.1236279 0.4035311 13
4.1293507 -2.1203763 0.24126875 10
4.0895081 -2.1008193 0.079582967 13
1.6786133 -0.86417198 -0.4956387 3
1.8920718 -0.97448105 -0.48252031 2
2.2199512 -1.1438402 -0.47754765 2
2.6809089 -1.3819431 -0.47165027 2
3.4170504 -1.7621609 -0.46736944 3
4.0356188 -2.0820463 -0.39394456 8
4.1071897 -2.1198788 -0.23942265 14
4.062901 -2.0979178 -0.078355908 8
4.0762177 -2.105695 1.2182436 12
4.0722041 -2.1045222 1.0486033 8
4.0626445 -2.1004801 0.88074601 11
4.0388737 -2.0890834 0.71333635 11
4.0669084 -2.1044843 0.55755222 7
4.0769415 -2.1105781 0.39830172 13
4.0731521 -2.1095178 0.23839027 11
4.0333228 -2.089783 0.078623094 13
1.6755866 -0.87002623 -0.4956387 3
1.8886588 -0.98107964 -0.48252031 2
2.2159448 -1.1515824 -0.47754765 2
2.676069 -1.3912928 -0.47165027 2
3.4108784 -1.7740779 -0.46736944 3
3.9797218 -2.0708292 -0.38915098 9
4.0510459 -2.1088409 -0.23655376 13
4.0023451 -2.0843771 -0.077319227 8
4.0174417 -2.0931306 1.2027246 13
4.0129886 -2.091701 1.0351164 8
4.0074143 -2.089685 0.87026095 11
3.9790137 -2.0757587 0.70396066 12
4.006743 -2.091114 0.55024004 8
4.0209804 -2.0994377 0.39350817 14
4.0126548 -2.0959821 0.23525012 10
3.9728341 -2.0760648 0.077575937 13
1.6725395 -0.87586981 -0.4956387 3
1.8852227 -0.98766631 -0.48252031 3
2.216259 -1.1615889 -0.47850087 2
2.671196 -1.4006256 -0.47165027 3
3.404665 -1.7859732 -0.46736944 3
3.9239535 -2.059248 -0.38435742 9
3.9950299 -2.0974376 -0.23368487 13
3.9463606 -2.0727642 -0.076368935 8
3.9588044 -2.0801818 1.1872054 13
3.953913 -2.0784922 1.0216296 8
3.9523091 -2.0785296 0.85977584 11
3.9192967 -2.0620415 0.69458485 12
3.9555035 -2.0819726 0.54414654 9
3.9651475 -2.0879326 0.38871461 13
3.9567201 -2.0843771 0.23237164 10
3.9169147 -2.0642812 0.076616056 13
1.6737425 -0.88395816 -0.49693277 3
1.8774559 -0.99196506 -0.48139551 3
2.2121909 -1.1693181 -0.47850087 3
2.6619253 -1.4076328 -0.47086814 3
3.3984098 -1.7978469 -0.46736944 4
3.8683145 -2.0473027 -0.37956384 10
3.9391429 -2.0856688 -0.23081596 12
3.8860879 -2.0584459 -0.075332254 8
3.9045749 -2.0691113 1.1729797 13
3.8949788 -2.0648971 1.0081428 8
3.8886595 -2.0624163 0.84738433 10
3.8553622 -2.0456188 0.68442786 12
3.8999939 -2.0701723 0.53744376 8
3.9094441 -2.0760634 0.38392103 13
3.9009151 -2.072407 0.22949316 10
3.86554 -2.0544786 0.075743437 13
1.6706467 -0.88979524 -0.49693277 3
1.873982 -0.99851257 -0.48139551 3
2.2080956 -1.1770329 -0.47850087 3
2.6569955 -1.4169161 -0.47086814 3
3.3921137 -1.8096986 -0.46736944 4
3.8172019 -2.0373399 -0.37520605 9
3.8833878 -2.0735359 -0.22794707 13
3.8347833 -2.0484438 -0.074468352 8
3.8376923 -2.0508585 1.1548742 12
3.8190022 -2.0417278 0.99016023 8
3.816515 -2.0412545 0.83308655 10
3.8002992 -2.0334346 0.6758334 10
3.8446157 -2.0580103 0.53074098 8
3.853873 -2.0638311 0.37912747 13
3.8496449 -2.0624316 0.22687636 10
3.8098762 -2.0419817 0.074783556 14
1.6676868 -0.89533043 -0.49693277 3
1.8751281 -1.0066993 -0.48252031 2
2.2043869 -1.183964 -0.47850087 3
2.6525309 -1.4252563 -0.47086814 3
3.3864117 -1.8203464 -0.46736944 4
3.7669144 -2.0257308 -0.37084827 9
3.8284853 -2.0597034 -0.22507818 13
3.7799056 -2.0344183 -0.07351806 8
3.7504313 -2.0193989 1.1303024 7
3.7525184 -2.0213678 0.97442561 4
3.7452707 -2.018307 0.81878877 4
3.7112982 -2.0008354 0.66098857 3
3.7944517 -2.0465202 0.52464747 9
3.7991509 -2.0499105 0.37433392 13
3.7948134 -2.0484254 0.22399788 11
3.7594543 -2.0301862 0.073910944 14
1.6647087 -0.90085572 -0.49693277 3
1.8673184 -1.0109192 -0.48139551 2
2.2045567 -1.193989 -0.47945404 3
2.6475399 -1.4345067 -0.47086814 3
3.3800368 -1.8321559 -0.46736944 4
3.7160342 -2.0151234 -0.36649045 9
3.7729936 -2.0468636 -0.22220926 13
3.7288425 -2.0237536 -0.072654158 8
3.624512 -1.9679493 1.0940914 6
3.6598153 -1.9879446 0.95194751 17
3.6648867 -1.9915279 0.80258459 21
3.6956131 -2.0090604 0.65942591 7
3.7393289 -2.0336714 0.51794469 8
3.7482193 -2.0393541 0.36997613 14
3.7437844 -2.0377882 0.2213811 11
3.7084396 -2.0193887 0.073038317 14
1.6612375 -0.90724111 -0.49693277 3
1.863423 -1.0180818 -0.48139551 2
2.2042627 -1.2047993 -0.48040724 3
2.6420121 -1.444662 -0.47086814 3
3.3773308 -1.8475026 -0.46797881 3
3.6689441 -2.0078559 -0.36256844 9
3.7169294 -2.0349593 -0.21934037 13
3.6771972 -2.0140409 -0.071790248 7
3.6254001 -1.9864936 1.0966779 11
3.639338 -1.9949569 0.94857574 16
3.6399982 -1.996145 0.7987718 18
3.6575634 -2.006608 0.65395677 16
3.6879869 -2.0241363 0.51185119 9
3.6966999 -2.029758 0.36561832 13
3.6921685 -2.0281088 0.21876429 10
3.661227 -2.0119445 0.072252959 13
1.6580604 -0.91303432 -0.49693277 3
1.8641251 -1.0269308 -0.48252031 2
2.2000439 -1.2124861 -0.48040724 3
2.6369534 -1.4538754 -0.47086814 3
3.3708613 -1.8592803 -0.46797881 3
3.6183021 -1.9965862 -0.35821068 9
3.6660893 -2.0237899 -0.21673228 14
3.6263826 -2.0026965 -0.070926353 8
3.5888507 -1.9827869 1.0876251 8
3.5982399 -1.9887938 0.93958449 11
3.5857589 -1.9827127 0.78828669 10
3.6202869 -2.0026298 0.64848763 22
3.6374774 -2.0129681 0.50575775 8
3.6460152 -2.0185242 0.36126056 13
3.6457548 -2.0192115 0.21640916 10
3.6104498 -2.000489 0.071380332 13
1.6548632 -0.91881651 -0.49693277 3
1.8605291 -1.0334315 -0.48252031 2
2.2000885 -1.2225425 -0.48136041 3
2.6318624 -1.4630713 -0.47086814 3
3.3686879 -1.8734477 -0.46858817 3
3.5721369 -1.9874094 -0.35428864 8
3.6153736 -2.0122912 -0.2141242 14
3.5800595 -1.993454 -0.070148841 8
3.5397141 -1.9717982 1.0746926 6
3.5529733 -1.9799968 0.92946935 8
3.5359459 -1.9713167 0.77875489 10
3.570143 -1.9911988 0.64067447 14
3.5914245 -2.00389 0.50027364 9
3.5998034 -2.0093892 0.35733855 14
3.5950902 -2.0075812 0.21379238 11
3.5641689 -1.9911304 0.070594981 14
1.6516459 -0.92458749 -0.49693277 3
1.8569103 -1.0399197 -0.48252031 2
2.1958077 -1.2302148 -0.48136041 3
2.6267393 -1.4722493 -0.47086814 3
3.3621278 -1.8851953 -0.46858817 3
3.5260799 -1.9779346 -0.35036662 8
3.5691381 -2.0029068 -0.21177691 13
3.5294864 -1.9814656 -0.069284938 8
3.4949098 -1.9628562 1.0630534 7
3.5035653 -1.968522 0.91823035 8
3.4862559 -1.959597 0.76922292 9
3.5244286 -1.9818633 0.63364267 14
3.5411549 -1.9920822 0.49418014 9
3.5493596 -1.9975134 0.35298073 13
3.5489018 -1.9980716 0.21143726 12
3.5136385 -1.9790256 0.069722362 13
1.6442024 -0.92797333 -0.4956387 3
1.8532691 -1.0463953 -0.48252031 2
2.1872263 -1.2354581 -0.48040724 3
2.6215839 -1.4814093 -0.47086814 3
3.3512065 -1.8944772 -0.46797881 3
3.4801333 -1.9681629 -0.34644461 8
3.5186658 -1.9907653 -0.20916881 13
3.4833922 -1.9716111 -0.068507425 8
3.446008 -1.9512457 1.0501208 7
3.4585202 -1.9591278 0.90811521 8
3.4409618 -1.9499749 0.76064426 9
3.4745276 -1.9697976 0.62582964 14
3.4953282 -1.9823964 0.48869604 8
3.5033753 -1.9877687 0.34905878 14
3.5028241 -1.988264 0.20908214 11
3.4675837 -1.9690613 0.068936996 14
1.6409531 -0.93370706 -0.4956387 3
1.8538392 -1.055268 -0.48364502 2
2.1786351 -1.2406566 -0.47945404 3
2.6163969 -1.4905514 -0.47086814 3
3.3402612 -1.9037064 -0.46736944 4
3.4342983 -1.9580948 -0.34252259 8
3.4726605 -1.9807705 -0.20682155 13
3.4374101 -1.9614593 -0.067729913 8
3.4014249 -1.9417124 1.0384815 6
3.4135835 -1.9494432 0.89800006 9
3.3957779 -1.9400607 0.75206554 9
3.4290411 -1.9598585 0.61879778 13
3.4496133 -1.9724153 0.48321193 8
3.4575026 -1.9777271 0.34513673 14
3.4568584 -1.9781593 0.20672701 11
3.4216421 -1.9587998 0.068151645 14
1.6336582 -0.93674105 -0.49434459 3
1.8505148 -1.0610869 -0.48364502 2
2.174727 -1.2474948 -0.47945404 3
2.6117015 -1.4987637 -0.47086814 3
3.3299603 -1.9117199 -0.4667601 5
3.3892562 -1.9465481 -0.33860058 8
3.4274554 -1.9692825 -0.20447426 13
3.3922229 -1.9498268 -0.066952407 8
3.3618121 -1.9331278 1.0281355 7
3.3694339 -1.938293 0.88788486 9
3.3513789 -1.9286853 0.74348688 10
3.3886275 -1.9509089 0.61254728 14
3.4046957 -1.960951 0.4777278 9
3.4167459 -1.9686856 0.34165052 13
3.4116936 -1.9665678 0.2043719 11
3.3764944 -1.9470632 0.067366287 14
1.6305428 -0.94215333 -0.49434459 3
1.8425817 -1.0651017 -0.48252031 2
2.16611 -1.2526213 -0.47850087 3
2.6064537 -1.507871 -0.47086814 3
3.3189716 -1.9208459 -0.46615076 6
3.3436456 -1.9359052 -0.33467856 8
3.3816738 -1.958711 -0.20212698 14
3.3464658 -1.939098 -0.066174895 9
3.3174367 -1.9230509 1.0164962 7
3.3247161 -1.9280457 0.87776977 9
3.3064163 -1.9182048 0.73490822 9
3.3433554 -1.9404149 0.60551554 13
3.3592043 -1.950397 0.4722437 9
3.3710892 -1.9580843 0.3377285 13
3.3659534 -1.955887 0.20201679 12
3.3351011 -1.9387381 0.06666819 15
1.6270787 -0.94812322 -0.49434459 3
1.8386656 -1.071848 -0.48252031 2
2.1615045 -1.2605522 -0.47850087 3
2.605175 -1.5199025 -0.47165027 3
3.311909 -1.9329977 -0.46615076 7
3.2978148 -1.9255434 -0.33075655 8
3.3399796 -1.9509444 -0.2000405 13
3.3048055 -1.9311724 -0.065483771 8
3.277009 -1.9156967 1.0061502 7
3.2839818 -1.9205421 0.86877853 9
3.2654712 -1.9104815 0.72728264 9
3.3021231 -1.9326986 0.59926498 14
3.3134897 -1.9401277 0.46675956 9
3.3295064 -1.9502864 0.33424225 13
3.3242984 -1.9480152 0.19992335 11
3.2891576 -1.9281943 0.065882832 15
1.6237592 -0.95379698 -0.49434459 3
1.8349129 -1.0782596 -0.48252031 2
2.1570911 -1.2680894 -0.47850087 3
2.6041107 -1.5314904 -0.47243246 3
3.300864 -1.9420301 -0.46554142 10
3.256732 -1.9168308 -0.3272703 8
3.2944248 -1.9397899 -0.19769323 14
3.2635844 -1.9223981 -0.064792648 8
3.2370131 -1.9075074 0.99580419 7
3.2394843 -1.9097255 0.85866338 9
3.2249599 -1.9019215 0.71965712 9
3.2613287 -1.9241377 0.59301454 13
3.2725062 -1.9315021 0.4618848 8
3.2883656 -1.9416366 0.33075604 13
3.2830851 -1.9392915 0.1978299 11
3.2479753 -1.9193171 0.065184735 15
1.6204199 -0.95945925 -0.49434459 3
1.8311379 -1.084658 -0.48252031 2
2.1526515 -1.2756113 -0.47850087 3
2.6029971 -1.5430895 -0.47321463 3
3.2727222 -1.9408833 -0.46249467 16
3.2157509 -1.9078554 -0.32378408 9
3.2532828 -1.9308901 -0.19560675 12
3.222465 -1.9133598 -0.064101525 9
3.1929622 -1.896596 0.98416495 6
3.1992919 -1.9011112 0.84967214 9
3.1845486 -1.8931024 0.71203166 4
3.2206352 -1.9153155 0.58676404 13
3.2273591 -1.9200767 0.45640066 8
3.2473261 -1.9327234 0.32726982 13
3.2419739 -1.9303043 0.19573647 11
3.2111907 -1.9127349 0.064573899 14
1.6170609 -0.96510965 -0.49434459 3
1.8273406 -1.0910434 -0.48252031 2
2.1481857 -1.2831178 -0.47850087 3
2.6018341 -1.5546995 -0.47399682 3
3.2233307 -1.9268318 -0.4564012 10
3.1791475 -1.9011736 -0.32073361 9
3.2122433 -1.9217266 -0.19352028 13
3.1814492 -1.9040579 -0.063410401 8
3.1531711 -1.8878815 0.9738189 6
3.1591988 -1.8922396 0.8406809 9
3.1442382 -1.8840245 0.70440614 9
3.1800427 -1.9062327 0.5805136 13
3.1865883 -1.9109126 0.4515259 8
3.2063894 -1.9235477 0.32378358 13
3.2009652 -1.9210535 0.19364302 11
3.1702056 -1.9033457 0.063875802 14
1.6136823 -0.97074831 -0.49434459 3
1.8276953 -1.0999273 -0.48364502 2
2.1436937 -1.2906085 -0.47850087 3
2.5963912 -1.5637722 -0.47399682 3
3.1868296 -1.9201434 -0.45213574 8
3.1383643 -1.8916886 -0.31724739 9
3.1713078 -1.9123005 -0.1914338 13
3.1405377 -1.8944935 -0.062719285 8
3.1134803 -1.8789126 0.9634729 7
3.1192071 -1.8831114 0.83168966 9
3.1040308 -1.8746885 0.69678068 8
3.1437807 -1.8994445 0.57504439 13
3.1501682 -1.9040542 0.44726047 8
3.1655567 -1.9141098 0.32029736 13
3.1600616 -1.9115405 0.19154958 12
