# .PCD v0.7 - Point Cloud Data file format
VERSION 0.7
FIELDS x y z intensity
SIZE 4 4 4 4
TYPE F F F F
COUNT 1 1 1 1
WIDTH 1377
HEIGHT 1
VIEWPOINT 0 0 0 1 0 0 0
POINTS 1377
DATA ascii
2.2742 -1.0077868 -0.47564128 2
2.7347224 -1.2124332 -0.46773943 2
3.4781637 -1.5427626 -0.46249467 2
4.7016001 -2.0864081 -0.44667387 6
4.8587193 -2.1571474 -0.27567512 17
4.8687663 -2.1626253 -0.091400832 15
4.8546739 -2.1573801 1.4122314 17
4.8563294 -2.1591311 1.2171891 15
4.8514671 -2.1579833 1.0237242 14
4.8627491 -2.1640186 0.83600205 14
4.8497114 -2.1592307 0.6471262 15
4.8670321 -2.1679602 0.46279699 14
4.8647809 -2.1679749 0.27711889 13
4.8657274 -2.1694148 0.092323229 55
1.7192887 -0.76835483 -0.49434459 3
1.9429127 -0.86869985 -0.48252031 3
2.2751489 -1.0177232 -0.47659451 2
2.7304735 -1.2219718 -0.46773943 2
3.4682279 -1.5528663 -0.46188533 2
4.6942883 -2.102807 -0.44667387 4
4.8693862 -2.1822627 -0.27671835 16
4.8748732 -2.1857433 -0.09166 16
4.8647404 -2.18222 1.4174045 14
4.8665433 -2.1840491 1.2216847 15
4.8618155 -2.1829469 1.027537 14
4.8686805 -2.1870506 0.83834594 13
4.8557243 -2.1822488 0.64895421 17
4.8730636 -2.1910639 0.46410432 14
4.8753977 -2.1931365 0.27816561 14
4.8718014 -2.1925411 0.092585012 52
1.7164609 -0.77465123 -0.49434459 3
1.9397157 -0.87581515 -0.48252031 2
2.2714036 -1.0260553 -0.47659451 2
2.7259765 -1.2319713 -0.46773943 2
3.4579911 -1.5635231 -0.46127596 2
4.6910882 -2.1220512 -0.44710967 4
4.8750019 -2.2062714 -0.27750078 16
4.8804913 -2.2097821 -0.091919169 15
4.8699079 -2.2060142 1.4212842 12
4.8718181 -2.2079046 1.2250564 13
4.8716626 -2.208859 1.0313498 13
4.8786221 -2.2130408 0.8414712 13
4.8657703 -2.2082353 0.65139163 15
4.8786058 -2.2150874 0.46541163 14
4.8809652 -2.2171862 0.27895063 13
4.8819375 -2.2186558 0.092934057 53
1.7137464 -0.78063804 -0.49434459 3
1.9366467 -0.88258076 -0.48252031 2
2.267808 -1.0339777 -0.47659451 2
2.7216594 -1.2414792 -0.46773943 2
3.4525123 -1.5755842 -0.46127596 2
4.6836519 -2.1384134 -0.44710967 5
4.8854384 -2.2315731 -0.27854401 17
4.8818421 -2.2309606 -0.092091948 15
4.8841405 -2.2330415 1.4277505 15
4.881804 -2.2330034 1.229552 14
4.8683858 -2.2278934 1.032303 13
4.8888288 -2.2382803 0.84459645 15
4.8670559 -2.2293398 0.6526103 15
4.884429 -2.2383289 0.466719 16
4.8822732 -2.2383721 0.27947399 14
4.8877954 -2.2419364 0.093195841 56
1.7110111 -0.78661537 -0.49434459 3
1.9379802 -0.89137131 -0.48364502 2
2.264185 -1.0418875 -0.47659451 2
2.7173095 -1.2509719 -0.46773943 3
3.4469914 -1.5876261 -0.46127596 2
4.6761594 -2.1547494 -0.44710967 6
4.8866882 -2.252794 -0.27906564 17
4.8967233 -2.2584567 -0.092523903 15
4.885087 -2.2541237 1.430337 16
4.8916726 -2.2581985 1.2340477 16
4.8828597 -2.2551639 1.0370688 10
4.8899522 -2.259475 0.8461591 6
4.8817682 -2.2567277 0.65565705 17
4.8946695 -2.2637284 0.46846214 15
4.8925567 -2.263788 0.28052071 15
4.87994 -2.2589843 0.093195841 35
1.7082548 -0.79258311 -0.49434459 3
1.9392759 -0.90018189 -0.48476982 2
2.2605343 -1.0497847 -0.47659451 2
2.7129261 -1.2604495 -0.46773943 2
3.4414287 -1.5996486 -0.46127596 2
4.6686091 -2.1710591 -0.44710967 7
4.8969035 -2.2782631 -0.28010887 16
4.8661485 -2.2649875 -0.092091948 5
4.8509183 -2.258929 1.4225775 5
4.8572631 -2.2629149 1.2273042 4
4.8438163 -2.2576795 1.0303965 5
4.8193731 -2.2473104 0.83522075 28
4.8468761 -2.2611654 0.65200096 4
4.8461156 -2.2618406 0.46454012 6
4.8439069 -2.2618392 0.27816561 4
4.8086138 -2.2463818 0.091974176 46
1.7054778 -0.79854125 -0.49434459 3
1.9405336 -0.90901238 -0.48589453 2
2.2568562 -1.057669 -0.47659451 2
2.7085097 -1.2699118 -0.46773943 3
3.4358237 -1.6116517 -0.46127596 2
4.6519833 -2.1831098 -0.4462381 8
4.8211236 -2.2635119 -0.27619675 7
4.8039126 -2.2564547 -0.091055267 33
4.7992907 -2.2553062 1.409645 31
4.7964253 -2.2549818 1.2138174 33
4.7781658 -2.2474155 1.018005 31
4.7936249 -2.2557085 0.8320955 25
4.7805834 -2.250591 0.64407945 34
4.793129 -2.257519 0.46018231 34
4.8043642 -2.2638354 0.27633384 30
4.7871776 -2.2567582 0.091712393 65
1.70268 -0.80448955 -0.49434459 3
1.9373488 -0.91578054 -0.48589453 2
2.2531505 -1.0655404 -0.47659451 2
2.7040606 -1.2793584 -0.46773943 3
3.4346626 -1.6257583 -0.46188533 2
4.6488371 -2.201467 -0.44667387 10
4.7770944 -2.2632244 -0.27411029 12
4.7914896 -2.2710686 -0.090968877 25
4.7826614 -2.2679064 1.4070585 33
4.7841229 -2.2696226 1.2126935 32
4.7614231 -2.2598717 1.0160987 16
4.7321873 -2.2470078 0.82271975 6
4.7726984 -2.2672646 0.64407945 34
4.7807207 -2.2720985 0.45974657 16
4.7783952 -2.2720156 0.27528712 19
4.720582 -2.245537 0.09057799 40
1.6998614 -0.81042814 -0.49434459 3
1.9341403 -0.92253762 -0.48589453 2
2.2494173 -1.0733989 -0.47659451 3
2.699578 -1.2887896 -0.46773943 3
3.4334447 -1.6398765 -0.46249467 2
4.6051698 -2.2005012 -0.44318765 15
4.7196107 -2.2561965 -0.27124137 11
4.6978431 -2.246798 -0.089327469 7
4.6962934 -2.2470639 1.3837799 7
4.7102537 -2.2547541 1.1958348 8
4.6826768 -2.242558 1.0008477 10
4.6575089 -2.2315042 0.81100017 16
4.7021022 -2.2538791 0.63554859 8
4.7053919 -2.2564659 0.45320985 10
4.6939034 -2.2519643 0.27083856 8
4.6406035 -2.2273893 0.089181788 33
1.6926699 -0.81426316 -0.49305049 3
1.9265184 -0.92717069 -0.48476982 2
2.2456567 -1.0812443 -0.47659451 3
2.6950629 -1.298205 -0.46773943 3
3.4276998 -1.6518514 -0.46249467 3
4.57054 -2.2035835 -0.44057295 16
4.6577377 -2.2466261 -0.26811165 10
4.6179323 -2.2284198 -0.087945215 7
4.6188288 -2.229846 1.3630879 6
4.6233864 -2.2330415 1.1756046 7
4.6085291 -2.2268577 0.98654985 10
4.5829964 -2.2155068 0.79928046 11
4.6227236 -2.235707 0.62579906 7
4.6212635 -2.2359965 0.44580162 9
4.6141057 -2.2335269 0.26665169 7
4.5698085 -2.213069 0.087960124 31
1.6898173 -0.82016671 -0.49305049 3
1.9232702 -0.93388987 -0.48476982 2
2.2418687 -1.0890766 -0.47659451 2
2.690515 -1.3076047 -0.46773943 3
3.4263761 -1.6659764 -0.46310404 3
4.5090704 -2.1933784 -0.43534359 10
4.582521 -2.2300966 -0.26419953 8
4.5471983 -2.2138884 -0.086735763 7
4.5502267 -2.2163453 1.3449823 16
4.5454879 -2.2150187 1.1576221 7
4.5345488 -2.2106676 0.97225207 10
4.5086532 -2.1990173 0.78756082 11
4.5479903 -2.2191856 0.61665887 7
4.546289 -2.2193379 0.43926495 8
4.5434685 -2.2189431 0.26298818 8
4.4991713 -2.198282 0.086738452 31
1.6869441 -0.8260603 -0.49305049 3
1.9199986 -0.94059759 -0.48476982 2
2.2380536 -1.0968956 -0.47659451 3
2.6859341 -1.3169883 -0.46773943 3
3.4205399 -1.6779265 -0.46310404 3
4.4477286 -2.1827714 -0.43011427 7
4.5074773 -2.2130699 -0.26028737 8
4.467648 -2.1944826 -0.085353516 7
4.4817762 -2.2023933 1.3268769 12
4.4634004 -2.1943305 1.1385157 7
4.4607387 -2.1939886 0.95795429 10
4.4389138 -2.1842163 0.77662247 10
4.4689765 -2.1999779 0.60690933 7
4.471487 -2.2021835 0.43272823 10
4.4685097 -2.2016864 0.25906298 7
4.4286938 -2.1830292 0.085516788 32
1.6797204 -0.82980472 -0.49175641 3
1.9123361 -0.94513535 -0.48364502 2
2.234211 -1.1047012 -0.47659451 2
2.6813207 -1.3263559 -0.46773943 3
3.4146619 -1.6898563 -0.46310404 3
4.3731241 -2.1651325 -0.42357755 7
4.4326086 -2.1955469 -0.25637525 7
4.4062076 -2.1834278 -0.084316835 6
4.4091516 -2.1858451 1.307478 13
4.3902426 -2.1774254 1.1216571 8
4.3914976 -2.1790032 0.94460958 11
4.3693328 -2.1689556 0.76568419 11
4.3990426 -2.1846607 0.59837842 7
4.4013228 -2.1867509 0.42662737 9
4.3982 -2.1861563 0.25539947 7
4.3583775 -2.1673112 0.084295116 30
1.681136 -0.83781719 -0.49305049 3
1.9090253 -0.95180488 -0.48364502 3
2.2303412 -1.1124933 -0.47659451 2
2.6766746 -1.3357074 -0.46773943 3
3.4087424 -1.7017654 -0.46310404 3
4.307611 -2.1514516 -0.41791245 7
4.3623848 -2.17976 -0.25272393 7
4.3448987 -2.1719704 -0.083280146 20
4.3453379 -2.1731381 1.2906657 14
4.3303299 -2.1665773 1.1081703 8
4.3268056 -2.1657584 0.93221813 11
4.3043289 -2.1554475 0.75552714 12
4.3337088 -2.1711056 0.5904569 7
4.3357739 -2.1730871 0.42096224 10
4.328053 -2.1701627 0.25173596 8
4.2837582 -2.1488881 0.082986191 29
1.6782012 -0.84368032 -0.49305049 3
1.9056913 -0.95846277 -0.48364502 2
2.2264445 -1.1202718 -0.47659451 2
2.6719959 -1.3450426 -0.46773943 3
3.4027815 -1.7136537 -0.46310404 3
4.2422471 -2.1373401 -0.4122473 8
4.292326 -2.1635103 -0.24907261 7
4.2837248 -2.1601126 -0.082243465 13
4.2773552 -2.1578372 1.2725602 14
4.2661977 -2.1531427 1.0935595 8
4.2622604 -2.1520889 0.91982669 12
4.2394733 -2.1415119 0.74537009 11
4.2685227 -2.1571212 0.58253539 7
4.2703748 -2.1589928 0.41529712 10
4.2625279 -2.1559598 0.24833409 8
4.2182422 -2.134485 0.08185178 31
1.6795534 -0.85171753 -0.49434459 3
1.8979893 -0.96290487 -0.48252031 2
2.2225204 -1.1280367 -0.47659451 2
2.6672843 -1.3543615 -0.46773943 3
3.3967788 -1.7255212 -0.46310404 3
4.1770349 -2.1227987 -0.40658218 8
4.2313361 -2.1513245 -0.24594288 8
4.2182307 -2.1455877 -0.081120394 12
4.2138371 -2.1442788 1.2557479 14
4.2065544 -2.1414971 1.0800726 8
4.2022376 -2.1402233 0.90838844 11
4.1791687 -2.1293926 0.73599434 11
4.2034883 -2.1427085 0.57461393 7
4.2095652 -2.1467316 0.41006777 10
4.2016039 -2.1435959 0.24519394 8
4.1573324 -2.1219239 0.080804639 33
1.6722704 -0.85537571 -0.49305049 3
1.8902797 -0.96730489 -0.48139551 2
2.2185693 -1.1357878 -0.47659451 3
2.6625407 -1.3636638 -0.46773943 3
3.3863182 -1.7351044 -0.46249467 3
4.1164083 -2.1101003 -0.40135282 8
4.1704845 -2.1387393 -0.24281317 7
4.1573396 -2.1329145 -0.080083713 13
4.1504664 -2.1303036 1.2389357 14
4.1470447 -2.1294618 1.0665858 8
4.1379838 -2.1257219 0.89599699 11
4.1146083 -2.1146212 0.72583729 11
4.1386075 -2.1278684 0.56669247 8
4.1488938 -2.1340728 0.40483844 9
4.1408181 -2.1308329 0.24205379 8
4.0921178 -2.1066756 0.079670236 32
1.6692743 -0.86120784 -0.49305049 3
1.8868915 -0.97389734 -0.48139551 2
2.214591 -1.1435252 -0.47659451 3
2.6577642 -1.3729495 -0.46773943 3
3.3802409 -1.7469144 -0.46249467 3
4.0603476 -2.0992925 -0.39655921 9
4.1142087 -2.1280501 -0.23994428 8
4.0965886 -2.1198428 -0.079047032 12
4.0872459 -2.1159127 1.2221234 14
4.0833449 -2.1147966 1.051975 8
4.0782423 -2.1130569 0.88455874 11
4.0545874 -2.1016984 0.7164616 11
4.0782876 -2.1148865 0.55938023 7
4.0883627 -2.1210167 0.39960909 10
4.0846047 -2.119972 0.2391753 8
4.0359344 -2.0956056 0.078710347 33
1.6619738 -0.86480016 -0.49175641 3
1.8791591 -0.97822827 -0.4802708 2
2.2105858 -1.1512486 -0.47659451 3
2.6529555 -1.3822184 -0.46773943 3
3.3741224 -1.758703 -0.46249467 3
3.9999957 -2.0858166 -0.39132988 8
4.0580583 -2.1169944 -0.23707539 8
4.0359807 -2.1063733 -0.07801035 13
4.0284581 -2.1033418 1.2066044 13
4.0241165 -2.101969 1.0384881 8
4.0186396 -2.1000011 0.87312049 11
3.9947073 -2.0883825 0.70708591 11
4.0181093 -2.1015098 0.55206805 8
4.0323868 -2.1098733 0.3948155 10
4.0240955 -2.1064298 0.23603514 9
3.9798789 -2.0841694 0.077750467 34
1.658945 -0.87059623 -0.49175641 3
1.875733 -0.9847818 -0.4802708 2
2.2065539 -1.158958 -0.47659451 3
2.6481144 -1.3914706 -0.46773943 3
3.3679631 -1.7704701 -0.46249467 4
3.9441974 -2.0742636 -0.38653633 9
4.0020356 -2.1055727 -0.23420648 8
3.9755173 -2.0925066 -0.076973669 14
3.9740825 -2.0926373 1.1923786 13
3.965029 -2.0887542 1.0250013 7
3.9635208 -2.0888433 0.86263543 11
3.9393387 -2.0769775 0.69849139 11
3.9624639 -2.0900543 0.54536527 8
3.9765394 -2.0983655 0.39002195 10
3.9681463 -2.0948222 0.23315668 9
3.9239533 -2.0723679 0.076790586 34
1.6560488 -0.87609273 -0.49175641 3
1.8726299 -0.99066979 -0.4802708 2
2.2072401 -1.1681802 -0.47754765 3
2.6437302 -1.399783 -0.46773943 3
3.36677 -1.7833652 -0.46310404 3
3.8892484 -2.0609894 -0.38174275 9
3.9468734 -2.0924087 -0.23133759 8
3.9203422 -2.0792198 -0.076023377 14
3.9205568 -2.0802104 1.1781528 14
3.9068072 -2.0737889 1.0115144 8
3.9049189 -2.0736604 0.85119712 11
3.88482 -2.0638564 0.68989706 12
3.9076741 -2.0768723 0.53866249 8
3.9215505 -2.0851252 0.3852284 10
3.9130549 -2.0814843 0.23027821 8
3.8732905 -2.0611997 0.075917967 33
1.657396 -0.88385212 -0.49305049 3
1.8691605 -0.99720043 -0.4802708 2
2.2031488 -1.1758778 -0.47754765 3
2.6388278 -1.4090028 -0.46773943 2
3.3605244 -1.7951066 -0.46310404 3
3.8337071 -2.0487289 -0.37694916 10
3.8911083 -2.0802774 -0.2284687 8
3.8645685 -2.0669558 -0.075073078 12
3.8706863 -2.0710969 1.1652203 15
3.8522954 -2.0621212 0.99915147 8
3.8500607 -2.0617895 0.84071207 11
3.8297071 -2.0517499 0.68130267 12
3.8522856 -2.0647118 0.53195965 8
3.8659606 -2.0729098 0.38043481 10
3.8573644 -2.0691674 0.22739972 9
3.8176167 -2.0487041 0.074958086 32
1.6541454 -0.88992083 -0.49305049 3
1.8654931 -1.0040445 -0.4802708 2
2.1988242 -1.1839448 -0.47754765 3
2.629298 -1.4163231 -0.46695724 3
3.3539224 -1.8074116 -0.46310404 3
3.7823284 -2.0391293 -0.37259138 10
3.8395102 -2.0708222 -0.2258606 7
3.8129704 -2.0573671 -0.074209183 13
3.8205674 -2.0623274 1.1522877 14
3.7975557 -2.0507617 0.98678851 8
3.7949755 -2.0502238 0.83022702 11
3.7787149 -2.0422912 0.67348951 11
3.8010375 -2.0552132 0.52586621 8
3.8101451 -2.0609972 0.37564126 9
3.8014493 -2.0571511 0.22452125 8
3.7661188 -2.038882 0.074085459 33
1.6510289 -0.89568949 -0.49305049 3
1.861977 -1.0105503 -0.4802708 2
2.1946781 -1.191613 -0.47754765 2
2.6243382 -1.4254924 -0.46695724 3
3.351953 -1.8214772 -0.46371335 4
3.7358024 -2.0309086 -0.36866936 9
3.7840075 -2.0579703 -0.2229917 8
3.7574604 -2.0443821 -0.073258884 13
3.7412288 -2.0363972 1.1303024 13
3.7347496 -2.0337155 0.97217774 8
3.7231424 -2.0282376 0.81592917 11
3.7281988 -2.0318358 0.66567636 12
3.7459111 -2.0423369 0.51916337 8
3.7591996 -2.0504334 0.37128344 9
3.7504146 -2.0464911 0.22190444 8
3.7150989 -2.0280616 0.07321284 34
1.647735 -0.90173471 -0.49305049 3
1.8582605 -1.0173678 -0.4802708 2
2.1902959 -1.1996489 -0.47754765 3
2.6190958 -1.4351015 -0.46695724 3
3.3452544 -1.8337506 -0.46371335 4
3.6846597 -2.020637 -0.36431155 9
3.7326627 -2.0478089 -0.2203836 7
3.7061172 -2.0340869 -0.072394989 13
3.674469 -2.0175514 1.1121969 5
3.676028 -2.0192428 0.95869088 3
3.6382549 -1.9993206 0.7987718 4
3.6774499 -2.0216951 0.65786332 11
3.6949162 -2.0321372 0.51306993 8
3.703655 -2.0377855 0.36648989 10
3.699146 -2.0361457 0.21928765 9
3.6638489 -2.0175502 0.07234022 35
1.6403487 -0.90514761 -0.49175641 3
1.8504329 -1.0214938 -0.479146 2
2.1817985 -1.2049143 -0.47659451 3
2.6183929 -1.4466233 -0.46773943 3
3.3388331 -1.8454164 -0.46371335 3
3.6383529 -2.0117941 -0.36038953 9
3.6774299 -2.0342395 -0.21751472 8
3.6552525 -2.0228047 -0.07153108 13
3.5955703 -1.9905968 1.0902116 17
3.6007652 -1.9942939 0.94070846 23
3.588321 -1.9882201 0.78923988 22
3.6271763 -2.0105765 0.65005016 12
3.6443989 -2.0209548 0.50697643 8
3.6529632 -2.0265377 0.3621321 11
3.6483576 -2.0248156 0.21667084 9
3.6130733 -2.0060656 0.071467601 36
1.6373382 -0.91058224 -0.49175641 3
1.8514723 -1.0296699 -0.4802708 2
2.1780024 -1.2117628 -0.47659451 3
2.6138353 -1.4548421 -0.46773943 3
3.333019 -1.8558966 -0.46371335 3
3.5928521 -2.0013988 -0.35646752 9
3.6274042 -2.0214758 -0.21490662 8
3.6095808 -2.0123687 -0.070753567 13
3.5682082 -1.9901197 1.0837454 17
3.5647001 -1.9889789 0.93284112 17
3.5563421 -1.9851294 0.78352082 19
3.577724 -1.9978836 0.64223713 12
3.5990398 -2.0106111 0.50149232 8
3.6030986 -2.0137038 0.35777435 10
3.6027544 -2.0143366 0.21431573 9
3.5674889 -1.9954367 0.070682235 33
1.6343096 -0.91600686 -0.49175641 3
1.8478668 -1.0361265 -0.4802708 2
2.1737592 -1.219358 -0.47659451 3
2.6087413 -1.4639572 -0.46773943 3
3.330848 -1.8699492 -0.46432272 3
3.5467584 -1.9919761 -0.35254553 9
3.5811479 -2.0121126 -0.21255933 9
3.5589547 -2.0004606 -0.069889672 13
3.5191405 -1.9788896 1.0708128 9
3.5195191 -1.9799111 0.92272598 11
3.5066166 -1.9734586 0.7739889 10
3.5319972 -1.9885541 0.63520533 12
3.5530829 -2.0012424 0.49600819 8
3.5526526 -2.0018167 0.35341653 10
3.5565543 -2.0048332 0.2119606 9
3.5169566 -1.9833208 0.069809623 35
1.6309413 -0.92199075 -0.49175641 3
1.8482974 -1.0452905 -0.48139551 2
2.1692755 -1.2273171 -0.47659451 3
2.6033578 -1.4735088 -0.46773943 3
3.3196535 -1.8796995 -0.46371335 3
3.5004282 -1.9828672 -0.34862351 9
3.530308 -2.000607 -0.20995125 9
3.5124581 -1.9913014 -0.069112159 13
3.4740531 -1.97033 1.0591736 8
3.4741013 -1.9711589 0.91261083 9
3.4609425 -1.9644912 0.76541018 10
3.4860349 -1.9795387 0.62817353 11
3.5068889 -1.99219 0.49052411 8
3.5063171 -1.9926748 0.34949452 10
3.5101166 -1.9956447 0.2096055 9
3.4705539 -1.9739532 0.069024265 36
1.627713 -0.92767817 -0.49175641 3
1.8488697 -1.054149 -0.48252031 2
2.1649783 -1.2348818 -0.47659451 3
2.6024878 -1.4850348 -0.4685216 3
3.3130717 -1.8912758 -0.46371335 4
3.4545572 -1.9728426 -0.3447015 9
3.4842832 -1.9906253 -0.20760398 8
3.4664223 -1.9812236 -0.068334647 13
3.425226 -1.9584709 1.046241 8
3.4291379 -1.9615021 0.90249562 9
3.411463 -1.9521822 0.75587833 11
3.4405301 -1.9696127 0.62114173 12
3.4611552 -1.9822222 0.48503998 8
3.4604433 -1.9826167 0.34557253 10
3.4641407 -1.9855382 0.20725037 9
3.4246104 -1.9636747 0.068238907 36
1.6244649 -0.93335432 -0.49175641 3
1.862074 -1.0703076 -0.48701933 2
2.1606545 -1.2424314 -0.47659451 3
2.5972881 -1.4941101 -0.4685216 3
3.3021488 -1.9003538 -0.46310404 4
3.4087994 -1.9625223 -0.34077948 8
3.4383719 -1.9803468 -0.20525669 8
3.4248321 -1.9733448 -0.067643523 13
3.3807085 -1.9487073 1.0346018 8
3.384285 -1.9515557 0.89238054 9
3.3663638 -1.9420044 0.74729961 10
3.3951375 -1.9593936 0.61410993 11
3.415534 -1.9719595 0.47955585 8
3.4189959 -1.974754 0.34208629 10
3.4226022 -1.9776336 0.20515694 9
3.3787818 -1.9531 0.067453548 36
1.6211969 -0.93901908 -0.49175641 3
1.8541113 -1.0743583 -0.48589453 2
2.1563044 -1.2499659 -0.47659451 3
2.592057 -1.5031673 -0.4685216 3
3.295495 -1.9118689 -0.46310404 4
3.3674643 -1.9544072 -0.33729324 9
3.392575 -1.9697725 -0.2029094 8
3.3790166 -1.9626889 -0.06686601 13
3.3363013 -1.9386568 1.0229626 8
3.3437552 -1.9437689 0.88338923 9
3.3256207 -1.9340036 0.73967409 10
3.3541276 -1.9513651 0.60785943 12
3.3700273 -1.9614027 0.47407171 8
3.3776457 -1.966626 0.33860007 11
3.3768473 -1.9669503 0.20280182 9
3.3373883 -1.9447464 0.066755451 36
1.6179093 -0.94467241 -0.49175641 3
1.8419362 -1.0759094 -0.48364502 2
2.1519282 -1.2574853 -0.47659451 3
2.5867941 -1.5122061 -0.4685216 3
3.2845173 -1.9208553 -0.46249467 5
3.3219285 -1.9435122 -0.33337122 8
3.3468947 -1.9589028 -0.20056213 8
3.3376322 -1.9542637 -0.066174895 14
3.2961738 -1.9307616 1.0126165 8
3.2991188 -1.9332602 0.87327415 10
3.2849746 -1.925742 0.73204863 10
3.3089554 -1.9405763 0.60082763 11
3.3289168 -1.953064 0.46919695 8
3.3363948 -1.958234 0.33511385 11
3.3355143 -1.9584998 0.20070837 11
3.2960947 -1.9361278 0.066057354 36
1.6146019 -0.95031416 -0.49175641 3
1.8339713 -1.0798604 -0.48252031 2
2.1475255 -1.2649893 -0.47659451 3
2.5857546 -1.5237336 -0.46930379 3
3.2735171 -1.9297884 -0.46188533 6
3.2808008 -1.9348538 -0.32988498 9
3.3056319 -1.9502759 -0.19847564 8
3.2963476 -1.9455738 -0.065483771 13
3.2561424 -1.9226102 1.0022705 8
3.2587912 -1.9249413 0.86428291 10
3.2402015 -1.9147234 0.72346991 8
3.2681508 -1.9320092 0.59457713 12
3.2836342 -1.9419359 0.46371281 8
3.2995305 -1.9521143 0.33206338 10
3.2899852 -1.9472423 0.19835328 10
3.2549026 -1.9272451 0.065359257 37
1.6071211 -0.95348012 -0.4904623 3
1.8218117 -1.0812826 -0.4802708 2
2.1430967 -1.2724777 -0.47659451 3
2.58042 -1.5327504 -0.46930379 3
3.2667611 -1.9412034 -0.46188533 7
3.2397745 -1.9259323 -0.32639876 9
3.2644713 -1.941385 -0.19638918 8
3.2551653 -1.9366196 -0.064792648 13
3.2162082 -1.9142028 0.99192441 8
3.2185624 -1.9163648 0.8552916 9
3.1997631 -1.905928 0.71584439 4
3.2316899 -1.9257094 0.58910799 12
3.2427335 -1.9330572 0.45883805 8
3.2584724 -1.9432104 0.32857716 10
3.2488639 -1.9382489 0.19625983 10
3.2138131 -1.9180984 0.06466116 37
1.5996381 -0.95660543 -0.48916823 3
1.8180262 -1.0876353 -0.4802708 2
2.1386418 -1.2799507 -0.47659451 3
2.5792909 -1.5442853 -0.47008595 3
3.2557077 -1.9500446 -0.46127596 13
3.1988504 -1.916748 -0.32291251 9
3.2234132 -1.9322305 -0.19430271 8
3.2140858 -1.9274021 -0.064101525 14
3.1763728 -1.9055405 0.98157841 8
3.1784337 -1.9075313 0.84630042 9
3.1594255 -1.8968736 0.70821887 9
3.1910794 -1.9166359 0.58285755 11
3.2019351 -1.9239167 0.45396328 8
3.2175169 -1.9340435 0.32509091 10
3.2078457 -1.9289924 0.19416638 9
3.1771111 -1.9112657 0.064050324 36
1.5921528 -0.95969015 -0.48787412 2
1.8142185 -1.0939748 -0.4802708 3
2.134161 -1.2874082 -0.47659451 3
2.5781131 -1.5558308 -0.47086814 3
3.2191412 -1.9434431 -0.45701057 16
3.1622944 -1.9098769 -0.31986207 9
3.1824591 -1.9228137 -0.19221623 8
3.173111 -1.9179214 -0.063410401 13
3.1366377 -1.8966235 0.97123241 8
3.1384063 -1.8984411 0.83730918 9
3.1191907 -1.8875611 0.70059341 8
3.1547964 -1.90986 0.57738835 12
3.1612403 -1.9145151 0.44908851 8
3.1766653 -1.9246145 0.32160467 10
3.1669323 -1.9194736 0.19207294 10
3.1362216 -1.9016085 0.063352227 37
1.5887932 -0.96524197 -0.48787412 2
1.8103887 -1.1003009 -0.4802708 2
2.1296542 -1.29485 -0.47659451 3
2.5726664 -1.5648208 -0.47086814 3
3.1699421 -1.9288709 -0.45091707 9
3.1215711 -1.9001843 -0.31637582 10
3.1416106 -1.9131345 -0.19012977 8
3.1322417 -1.9081786 -0.062719285 13
3.0970037 -1.8874526 0.96088642 8
3.0984814 -1.8890951 0.82831794 9
3.0748696 -1.8754355 0.69201469 9
3.1143844 -1.900282 0.57113785 11
3.1206505 -1.9048532 0.44421375 8
3.1401703 -1.9175204 0.31855425 10
3.1303859 -1.9122958 0.1902412 9
3.0997047 -1.8942963 0.062741399 37
1.589533 -0.97330403 -0.48916823 2
1.8023826 -1.1040688 -0.479146 2
2.1209362 -1.2997112 -0.47564128 3
2.5713985 -1.5763725 -0.47165027 3
3.1293459 -1.9191684 -0.4460423 7
3.0851998 -1.8928356 -0.31332538 10
3.1008687 -1.9031938 -0.1880433 9
3.0957398 -1.9007899 -0.062114555 13
3.0574729 -1.8780286 0.95054042 8
3.0628114 -1.882044 0.8204506 9
3.034853 -1.8655939 0.68438917 9
3.0782845 -1.8930326 0.5656687 12
3.0843942 -1.897532 0.43994832 8
3.0995221 -1.9075844 0.31506801 10
3.0896766 -1.9022688 0.18814775 10
3.0590205 -1.8841304 0.062043298 36
1.5861259 -0.97884661 -0.48916823 3
1.8026632 -1.1129129 -0.4802708 2
2.1205626 -1.3096861 -0.47659451 3
2.5658803 -1.5853386 -0.47165027 4
3.088856 -1.909206 -0.4411675 8
3.0489185 -1.8852564 -0.31027493 9
3.0644815 -1.8956189 -0.18621762 8
3.0593278 -1.8931694 -0.061509822 13
3.0221522 -1.8708938 0.94148761 8
3.0272288 -1.8747677 0.81258327 9
2.9991152 -1.858081 0.67771685 9
3.042274 -1.8855547 0.5601995 11
3.0440092 -1.8873657 0.43507352 8
3.0632145 -1.9000138 0.31201756 10
3.0533185 -1.8946136 0.186316 10
3.0226932 -1.876341 0.06143247 39
1.5826994 -0.98437721 -0.48916823 3
1.8070405 -1.124346 -0.48252031 2
2.115978 -1.3170803 -0.47659451 3
2.564523 -1.5968961 -0.47243246 4
3.0484746 -1.8989849 -0.43629274 8
3.0127275 -1.8774471 -0.30722445 9
3.0281851 -1.8878137 -0.18439196 9
3.0230074 -1.8853185 -0.060905088 13
2.9828212 -1.8609793 0.93114161 8
2.9917345 -1.8672658 0.80471593 9
2.9676309 -1.8529414 0.67199773 10
3.0063534 -1.8778484 0.55473036 11
3.0079422 -1.879571 0.4308081 8
3.026998 -1.892213 0.30896711 11
3.0212855 -1.8893756 0.18474592 10
2.9864573 -1.8683206 0.060821634 39
1.5792537 -0.98989588 -0.48916823 3
1.8072321 -1.1332351 -0.48364502 2
2.1113677 -1.3244585 -0.47659451 3
2.5589333 -1.6058382 -0.47243246 3
3.0124054 -1.8911438 -0.43202728 8
2.9808474 -1.8720576 -0.30460978 9
2.9962089 -1.8824344 -0.18282712 9
2.9867797 -1.8772374 -0.060300358 14
2.9476855 -1.8533839 0.9220888 8
2.9563298 -1.8595393 0.7968486 10
2.9445274 -1.8528327 0.668185 9
2.9705238 -1.8699145 0.54926115 12
2.9761665 -1.874192 0.42715204 8
2.9908741 -1.8841829 0.30591667 11
2.9851022 -1.8812747 0.18291415 10
2.9545441 -1.8627367 0.060298059 38
1.5757886 -0.99540251 -0.48916823 3
1.8156208 -1.1473442 -0.48701933 2
2.1067314 -1.3318205 -0.47659451 3
2.5533123 -1.6147609 -0.47243246 3
2.9806223 -1.8857276 -0.42837122 9
2.9490414 -1.8664685 -0.3019951 11
2.960089 -1.8741844 -0.18100145 8
2.9506452 -1.8689264 -0.059695628 14
2.9126396 -1.8455662 0.91303611 9
2.9210162 -1.8515884 0.78898126 10
2.933897 -1.8604712 0.6672318 9
2.934787 -1.8617539 0.54379201 12
2.940275 -1.8659554 0.42288661 8
2.959048 -1.8785934 0.30330199 11
2.9532275 -1.8756216 0.18134408 10
2.9184866 -1.854272 0.059687223 40
1.5723044 -1.000897 -0.48916823 3
1.7992768 -1.1458243 -0.48364502 3
2.1020699 -1.339166 -0.47659451 3
2.5476601 -1.6236637 -0.47243246 4
2.9447296 -1.8774451 -0.42410579 8
2.9173112 -1.8606803 -0.29938045 16
2.928273 -1.8683909 -0.17943659 9
2.9188197 -1.863076 -0.059177287 14
2.8817551 -1.8401259 0.9052766 9
2.8899002 -1.8460369 0.78223783 9
2.9149768 -1.8627721 0.66437227 7
2.8991432 -1.8533667 0.53832281 13
2.9044776 -1.8574909 0.41862118 8
2.9231019 -1.8701205 0.30025154 11
2.9172237 -1.8670775 0.17951232 11
2.8867352 -1.8482745 0.059163652 40
1.5728662 -1.0089871 -0.4904623 3
1.7870659 -1.1468354 -0.48139551 3
2.0973823 -1.3464955 -0.47659451 3
2.5419769 -1.6325467 -0.47243246 4
2.9131067 -1.8716174 -0.4204497 9
2.8856578 -1.8546935 -0.29676577 16
2.8923335 -1.8596979 -0.17761093 9
2.8828664 -1.8543218 -0.058572553 14
2.8468828 -1.831879 0.89622378 9
2.8547618 -1.8376536 0.77437049 10
2.9084568 -1.8729359 0.66437227 10
2.8677464 -1.8474281 0.53363496 12
2.8729472 -1.8514879 0.41496509 8
2.891438 -1.8641191 0.29763687 11
2.8855119 -1.8610114 0.17794225 11
2.8550613 -1.8420777 0.058640081 41
1.5693346 -1.0144712 -0.4904623 3
1.7789607 -1.1504209 -0.4802708 3
2.0926695 -1.3538086 -0.47659451 3
2.5321167 -1.6387266 -0.47165027 4
2.8815606 -1.8655921 -0.41679361 9
2.8540816 -1.8485087 -0.2941511 13
2.8606815 -1.8534921 -0.17604607 9
2.8512056 -1.8480589 -0.058054212 14
2.8161561 -1.8260391 0.88846427 9
2.8238053 -1.8316993 0.76762706 10
2.8730795 -1.864374 0.65769988 25
2.8322837 -1.838604 0.52816576 12
2.8414941 -1.8452879 0.41130903 9
2.8598521 -1.8579192 0.29502219 11
2.853878 -1.8547468 0.17637217 11
2.8234661 -1.8356829 0.058116511 38
1.5657839 -1.019943 -0.4904623 3
1.7749342 -1.1566236 -0.4802708 3
2.0879312 -1.3611051 -0.47659451 3
2.526381 -1.6475554 -0.47165027 4
2.8500924 -1.8593698 -0.41313753 10
2.8225846 -1.8421263 -0.29153642 12
2.8291082 -1.8470881 -0.17448123 9
2.8196235 -1.8415977 -0.057535872 13
2.781462 -1.8173654 0.87941152 9
2.7888474 -1.8228856 0.75975972 10
2.8295822 -1.8502162 0.64912122 23
2.8010514 -1.8322585 0.52347791 12
2.8101199 -1.8388908 0.40765294 8
2.8283448 -1.851522 0.29240751 11
2.8223238 -1.8482842 0.17480208 11
2.7877688 -1.8263502 0.057505675 41
1.562214 -1.0254024 -0.4904623 3
1.7668136 -1.1601382 -0.479146 3
2.0831673 -1.3683851 -0.47659451 3
2.5206146 -1.6563641 -0.47165027 4
2.8187029 -1.8529505 -0.40948144 10
2.7911668 -1.8355465 -0.28892171 12
2.7934434 -1.8377423 -0.17265557 9
2.7881219 -1.8349388 -0.057017531 14
2.7508967 -1.8111281 0.87165201 9
2.7580545 -1.8165305 0.75301629 10
2.794416 -1.8411785 0.6424489 14
2.7698979 -1.8257176 0.51879007 12
2.7788248 -1.8322973 0.40399686 8
2.7927592 -1.8421849 0.28935707 11
2.7908494 -1.8416243 0.173232 11
2.7563436 -1.8195451 0.056982104 40
1.5588051 -1.0305772 -0.4904623 3
1.7631602 -1.165683 -0.479146 3
2.0829518 -1.3776304 -0.47754765 3
2.5153987 -1.6642747 -0.47165027 4
2.7921762 -1.848101 -0.40643471 10
2.760468 -1.8278067 -0.28630704 12
2.7626793 -1.8299648 -0.17109071 9
2.7615068 -1.8298815 -0.056585576 14
2.7210393 -1.8037497 0.8638925 9
2.7279718 -1.8090305 0.74627286 10
2.7558968 -1.8282413 0.63482338 14
2.7394593 -1.8180255 0.51410222 12
2.7482479 -1.824549 0.40034077 9
2.7620628 -1.8344152 0.28674239 11
2.7600968 -1.8338038 0.17166193 10
2.7256329 -1.8115919 0.056458529 39
1.555379 -1.0357407 -0.4904623 3
1.7590804 -1.1718305 -0.479146 3
2.0781302 -1.3848928 -0.47754765 3
2.5095739 -1.6730448 -0.47165027 4
2.7609353 -1.8413149 -0.40277863 9
2.7292101 -1.8208452 -0.28369236 14
2.7313559 -1.8229657 -0.16952586 9
2.7301564 -1.822854 -0.056067236 14
2.6906283 -1.7971412 0.85613298 9
2.6973345 -1.8023014 0.73952943 10
2.7250147 -1.8214846 0.62910426 13
2.7084646 -1.811106 0.50941437 12
2.7171125 -1.817575 0.39668468 8
2.7308052 -1.8274244 0.28412771 11
2.7287834 -1.8267612 0.17009185 11
2.69437 -1.8044045 0.055934958 40
1.5515724 -1.0414345 -0.4904623 3
1.7547737 -1.1782701 -0.479146 3
2.0771148 -1.395237 -0.47850087 3
2.5034251 -1.6822318 -0.47165027 4
2.7335749 -1.8375787 -0.3997319 10
2.7018516 -1.8169383 -0.28151348 14
2.6997986 -1.816242 -0.167961 9
2.6985717 -1.8161008 -0.055548895 13
2.6599846 -1.7908069 0.84837347 9
2.6664648 -1.7958459 0.73278606 10
2.6938968 -1.8150047 0.62338513 13
2.6813323 -1.8072199 0.50550777 12
2.6857438 -1.8108751 0.39302862 9
2.7034419 -1.8234944 0.28194883 11
2.6972356 -1.8199933 0.16852178 11
2.6670203 -1.8002828 0.055498648 40
1.5519283 -1.0495498 -0.49175641 3
1.7506502 -1.1843882 -0.479146 3
2.0762968 -1.40523 -0.47945404 3
2.4975376 -1.69096 -0.47165027 4
2.7024901 -1.8304114 -0.39607581 10
2.6707513 -1.8095945 -0.27889881 14
2.6727762 -1.8116472 -0.16665696 9
2.6673896 -1.8086756 -0.055030555 13
2.629735 -1.7838132 0.84061396 9
2.6319594 -1.7859927 0.72491866 10
2.6631787 -1.8078566 0.61766601 13
2.6504941 -1.7999218 0.50081992 12
2.6547759 -1.8035066 0.38937253 9
2.6723423 -1.8161217 0.27933416 12
2.6702197 -1.8153609 0.16721338 11
2.6359172 -1.7927128 0.054975078 39
1.5482552 -1.0549606 -0.49175641 3
1.7505307 -1.1932359 -0.4802708 3
2.0713789 -1.4124693 -0.47945404 3
2.4875405 -1.696885 -0.47086814 4
2.6755881 -1.8258468 -0.39302906 10
2.6438498 -1.8048645 -0.2767199 14
2.6416955 -1.8040702 -0.1650921 9
2.6362927 -1.8010552 -0.054512214 13
2.6035545 -1.7793555 0.83414769 9
2.6015775 -1.7786709 0.71817523 9
2.6325438 -1.8005165 0.61194688 13
2.6238155 -1.7952192 0.49691334 12
2.6238928 -1.7959441 0.38571647 9
2.6413271 -1.8085543 0.27671948 12
2.6391504 -1.8077406 0.16564329 11
2.6090238 -1.7877738 0.054538768 41
1.5445633 -1.0603586 -0.49175641 3
1.7463548 -1.1993392 -0.4802708 3
2.0704815 -1.4224705 -0.48040724 3
2.4775321 -1.7027607 -0.47008595 4
2.6446619 -1.8183055 -0.38937297 10
2.6170135 -1.7999687 -0.27454099 15
2.6148145 -1.7991288 -0.16378805 9
2.6093996 -1.796074 -0.054080263 13
2.5734594 -1.7719982 0.82638818 9
2.5712793 -1.7711587 0.7114318 6
2.6019926 -1.7929845 0.60622776 13
2.5972028 -1.7903525 0.49300683 13
2.5971801 -1.7910056 0.38266972 9
2.6144977 -1.8036212 0.27454057 12
2.6122761 -1.8027616 0.16433489 12
2.5780828 -1.7798288 0.054015197 41
1.5408525 -1.0657437 -0.49175641 3
1.7461641 -1.2081997 -0.48139551 3
2.0655036 -1.4296892 -0.48040724 3
2.4715731 -1.7113984 -0.47008595 4
2.6179008 -1.8133966 -0.38632622 10
2.5902443 -1.7949082 -0.27236211 14
2.5838966 -1.791177 -0.1622232 9
2.5784652 -1.7880785 -0.053561922 13
2.547416 -1.7672054 0.81992191 9
2.5450678 -1.7662343 0.70581228 4
2.5755587 -1.7880607 0.60146183 14
2.5665996 -1.7825049 0.48831898 13
2.5664587 -1.783071 0.37901363 9
2.5836453 -1.7956803 0.27192593 12
2.5813696 -1.794767 0.16276482 11
2.5513339 -1.7745442 0.053578883 41
1.537123 -1.0711159 -0.49175641 3
1.741936 -1.2142876 -0.48139551 3
2.0605004 -1.4368904 -0.48040724 4
2.461534 -1.7171899 -0.46930379 4
2.5912068 -1.8083231 -0.38327953 10
2.5635421 -1.7896823 -0.27018321 14
2.5571601 -1.7858909 -0.16091916 9
2.5517175 -1.7827525 -0.053129975 14
2.5174789 -1.7594857 0.8121624 9
2.5229156 -1.7639409 0.70131665 9
2.5451689 -1.7801609 0.5957427 14
2.5401297 -1.7772969 0.4844124 13
2.5398903 -1.7777898 0.37596691 9
2.5569608 -1.7904032 0.26974702 12
2.554641 -1.7894435 0.16145642 12
2.5246532 -1.7690948 0.053142574 42
1.5333748 -1.0764748 -0.49175641 3
1.7416736 -1.2231606 -0.48252031 3
2.0554721 -1.444074 -0.48040724 4
2.4555249 -1.7257718 -0.46930379 4
2.5645797 -1.8030856 -0.38023278 10
2.5369084 -1.7842925 -0.26800433 14
2.5304923 -1.7804397 -0.15961511 9
2.5250382 -1.7772615 -0.05269802 14
2.4876273 -1.7515788 0.80440289 9
2.5008104 -1.7615143 0.69682103 9
2.5188777 -1.7748984 0.59097672 14
2.5137279 -1.771926 0.48050588 13
2.5133903 -1.7723449 0.37292019 9
2.5303445 -1.7849616 0.26756814 12
2.5279808 -1.7839552 0.16014802 12
2.4980421 -1.763481 0.052706264 41
1.5296079 -1.0818207 -0.49175641 3
1.7373934 -1.2292328 -0.48252031 3
2.0504189 -1.4512402 -0.48040724 4
2.4535165 -1.7371863 -0.47008595 4
2.5380213 -1.7976844 -0.37718606 11
2.510344 -1.7787384 -0.26582542 14
2.5038939 -1.7748245 -0.15831105 9
2.4984286 -1.771606 -0.052266069 14
2.4618011 -1.7462796 0.79793668 9
2.4787531 -1.7589548 0.69232541 9
2.492655 -1.7694741 0.58621085 13
2.4873943 -1.7663927 0.47659931 13
2.4869597 -1.766737 0.36987343 9
2.5037975 -1.7793564 0.26538923 13
2.5013907 -1.7783029 0.15883961 12
2.4715011 -1.7577031 0.052269954 42
1.5297555 -1.0899559 -0.49305049 3
1.7370592 -1.2381176 -0.48364502 3
2.0453405 -1.4583888 -0.48040724 3
2.4474375 -1.7457402 -0.47008595 5
2.5115321 -1.7921197 -0.37413931 10
2.483849 -1.7730209 -0.26364651 14
2.4773657 -1.7690456 -0.15700702 9
2.4718897 -1.7657869 -0.051834121 13
2.4321127 -1.7380133 0.79017711 9
2.4527807 -1.7534299 0.68670589 9
2.466501 -1.7638886 0.58144486 14
2.4611306 -1.7606971 0.47269273 13
2.4605989 -1.7609663 0.36682671 10
2.4773211 -1.7735878 0.26321036 13
2.4748709 -1.7724869 0.15753123 12
2.4450312 -1.7517618 0.051833645 41
1.5220181 -1.092473 -0.49175641 3
1.7327268 -1.2441735 -0.48364502 3
2.0402374 -1.4655194 -0.48040724 4
2.4413288 -1.7542727 -0.47008595 5
2.4851129 -1.7863926 -0.37109256 11
2.4533815 -1.7642323 -0.26103184 14
2.4509087 -1.7631031 -0.15570298 9
2.4454222 -1.759804 -0.051402166 14
2.4064322 -1.7323833 0.78371084 8
2.430831 -1.7505921 0.68221027 9
2.4404166 -1.7581421 0.57667893 14
2.434937 -1.7548403 0.46878621 13
2.4302835 -1.752131 0.36317062 10
2.4549556 -1.7705698 0.26146722 13
2.4484222 -1.7665075 0.15622282 12
2.418633 -1.7456568 0.051397335 41
1.518387 -1.0975142 -0.49175641 3
1.7288096 -1.2496109 -0.48364502 3
2.0356233 -1.4719217 -0.48040724 4
2.4318042 -1.7590393 -0.46930379 6
2.4593859 -1.7796443 -0.36804584 10
2.4276531 -1.7573276 -0.25885296 14
2.4251366 -1.7561512 -0.15439893 9
2.4236872 -1.7557465 -0.051056605 13
2.3814232 -1.7257639 0.77724457 9
2.4095411 -1.7467818 0.67771465 10
2.4150145 -1.7513926 0.571913 14
2.409425 -1.747981 0.46487963 13
2.4046848 -1.7451828 0.3601239 10
2.4292276 -1.7636418 0.25928834 13
2.4267004 -1.7624539 0.1551761 12
2.3969593 -1.7414929 0.051048286 42
1.5147392 -1.1025432 -0.49175641 3
1.7244371 -1.255638 -0.48364502 3
2.0344403 -1.4819083 -0.48136041 4
2.4256494 -1.7675172 -0.46930379 7
2.4331069 -1.7736017 -0.36499909 11
2.401381 -1.751117 -0.25667405 14
2.3988221 -1.7498925 -0.15309489 9
2.3973522 -1.7494613 -0.050624654 14
2.35588 -1.7198274 0.77077836 9
2.387691 -1.7436888 0.67321903 10
2.3890693 -1.7453347 0.56714702 14
2.3873596 -1.7447249 0.46175441 13
2.3785467 -1.7389213 0.35707715 10
2.4029543 -1.7574089 0.25710946 12
2.4003847 -1.7561727 0.15386769 12
2.3706949 -1.7350862 0.050611973 42
1.5145822 -1.1109442 -0.49305049 3
1.7237513 -1.2648321 -0.48476982 3
2.0289953 -1.4893548 -0.48136041 4
2.415174 -1.7734728 -0.4685216 10
2.4105916 -1.7707555 -0.3625617 11
2.3788915 -1.7481089 -0.25493094 14
2.3762999 -1.7468431 -0.15205164 9
2.3748138 -1.7463893 -0.050279092 14
2.3301082 -1.7141403 0.76431209 9
2.3655877 -1.7408774 0.6687234 10
2.3668454 -1.7424397 0.56333429 14
2.3610659 -1.7388204 0.45784783 14
2.3561754 -1.735853 0.35463977 11
2.3804581 -1.7543838 0.25536633 13
2.3778558 -1.7531066 0.15282097 12
2.3482258 -1.731894 0.050262928 44
1.510695 -1.1162242 -0.49305049 3
1.7193257 -1.2708414 -0.48476982 3
2.0237839 -1.4964284 -0.48136041 4
2.3930876 -1.7701453 -0.46539292 16
2.3844495 -1.7643996 -0.35951498 11
2.3527575 -1.7415845 -0.25275204 14
2.3501236 -1.7402699 -0.1507476 9
2.3486178 -1.7397895 -0.049847145 14
2.3047078 -1.7078851 0.75784576 9
2.347755 -1.7404201 0.66535175 9
2.3410361 -1.7360724 0.5585683 14
2.3391166 -1.7352818 0.45472261 13
2.3301759 -1.7292795 0.35159305 10
2.3543231 -1.7478371 0.25318745 13
2.3516791 -1.746511 0.15151259 13
2.3221014 -1.7251736 0.049826618 42
1.5067894 -1.1214907 -0.49305049 3
1.7109715 -1.2739257 -0.48364502 3
2.018548 -1.5034837 -0.48136041 4
2.3552139 -1.7548828 -0.45913553 15
2.3623598 -1.7608486 -0.35707757 11
2.3306913 -1.7378768 -0.25100893 15
2.3280253 -1.736521 -0.14970437 9
2.3224969 -1.7330283 -0.049415193 14
2.2793798 -1.7014742 0.75137955 9
2.3377616 -1.7456895 0.66422778 8
2.3192327 -1.7324837 0.55475557 14
2.3132653 -1.7286551 0.45081607 14
2.3082259 -1.7255172 0.34915566 10
2.3322518 -1.7441124 0.25144431 13
2.3295758 -1.7427453 0.15046588 12
2.3000553 -1.7212874 0.04947757 43
1.5028656 -1.1267436 -0.49305049 3
1.7104117 -1.2828134 -0.48476982 3
2.0093617 -1.5075748 -0.48040724 4
2.3253753 -1.7453067 -0.4544425 13
2.3363559 -1.7541857 -0.35403085 11
2.3046975 -1.7310449 -0.24883004 14
2.3019898 -1.7296398 -0.14840032 10
2.3004482 -1.7291096 -0.049069632 14
2.2579856 -1.6978098 0.74620652 9
2.3238668 -1.7479818 0.66198003 7
2.2935612 -1.7258132 0.54998964 15
2.291434 -1.724839 0.44769084 14
2.2823663 -1.7186377 0.34610891 10
2.306257 -1.7372582 0.24926542 14
2.3075275 -1.7388465 0.14941916 12
2.2740726 -1.714259 0.04904126 42
1.4989233 -1.1319827 -0.49305049 3
1.7059234 -1.2887762 -0.48476982 3
2.0001712 -1.5116203 -0.47945404 4
2.2956331 -1.7355438 -0.44974947 11
2.3104274 -1.7473625 -0.3509841 12
2.282752 -1.7270583 -0.24708691 15
2.2800126 -1.7256113 -0.14735709 10
2.2744699 -1.7220409 -0.048637681 15
2.2327943 -1.6911007 0.73974025 10
2.3216345 -1.7590253 0.66310394 10
2.2718763 -1.7219495 0.54617691 15
2.2696583 -1.7208921 0.44456559 14
2.2605374 -1.7145977 0.34367153 10
2.2843065 -1.7332547 0.24752231 13
2.2815576 -1.7317964 0.14811075 12
2.2521489 -1.7100936 0.048692212 44
1.4949628 -1.137208 -0.49305049 3
1.7014143 -1.294723 -0.48476982 3
1.9948825 -1.518593 -0.47945404 4
2.2738452 -1.7315787 -0.44662076 9
2.2885232 -1.7433873 -0.34854671 11
2.2608626 -1.7229394 -0.24534379 16
2.2580914 -1.7214506 -0.14631385 10
2.2525439 -1.7178434 -0.048292119 14
2.2115178 -1.6871662 0.73456728 9
2.2922421 -1.7493838 0.65636045 22
2.2502465 -1.7179554 0.54236418 15
2.2479382 -1.7168142 0.44144034 14
2.2387645 -1.7104266 0.34123415 10
2.2624125 -1.7291193 0.24577919 13
2.2596321 -1.7276189 0.14706403 12
2.2302821 -1.7057962 0.048343163 42
1.4909842 -1.1424195 -0.49305049 3
1.7007512 -1.303618 -0.48589453 3
1.9895694 -1.5255471 -0.47945404 4
2.2521131 -1.7274827 -0.44349208 9
2.2666748 -1.7392807 -0.34610933 12
2.2390304 -1.7186893 -0.24360067 15
2.2362278 -1.7171582 -0.14527062 10
2.2306757 -1.7135141 -0.047946557 14
2.1826365 -1.6772182 0.72680777 9
2.2552204 -1.7336202 0.64736921 24
2.2247815 -1.7108394 0.53759819 15
2.226274 -1.7126055 0.43831509 15
2.2170484 -1.7061244 0.33879676 10
2.2405756 -1.7248526 0.24403608 14
2.2377636 -1.72331 0.14601731 13
2.208473 -1.7013671 0.047994114 45
1.4908108 -1.1505678 -0.49434459 3
1.7039028 -1.3155012 -0.48814404 3
1.9842321 -1.5324827 -0.47945404 4
2.2265296 -1.7202369 -0.43958122 11
2.2448831 -1.7350428 -0.34367192 12
2.2133148 -1.7112612 -0.24142179 15
2.2144213 -1.7127342 -0.14422737 10
2.2088649 -1.709053 -0.047600996 14
2.1576715 -1.6700455 0.72034144 7
2.2260413 -1.7235852 0.64062583 16
2.2032745 -1.7065724 0.53378546 14
2.208571 -1.7112917 0.43597117 14
2.1953897 -1.7016917 0.33635938 11
2.218796 -1.7204543 0.24229297 14
2.2159531 -1.7188694 0.1449706 13
2.186722 -1.6968067 0.04764507 44
1.4867853 -1.1557646 -0.49434459 3
1.7031465 -1.3244317 -0.48926884 3
1.9788706 -1.5393997 -0.47945404 5
2.2049217 -1.7158668 -0.43645251 12
2.2231491 -1.7306743 -0.34123453 12
2.1916084 -1.706735 -0.23967867 15
2.1887345 -1.7051107 -0.14292334 11
2.187113 -1.7044611 -0.047255438 15
2.1213562 -1.6538105 0.70999545 5
2.1969604 -1.7133681 0.6338824 17
2.1818244 -1.7021763 0.52997267 15
2.1870108 -1.7068368 0.43284592 15
2.1777012 -1.7001827 0.33453134 11
2.1970744 -1.7159252 0.24054985 14
2.194201 -1.7142977 0.14392388 13
2.1650302 -1.6921155 0.047296021 44
nan nan nan 0
1.698513 -1.3303688 -0.48926884 3
1.9734851 -1.5462978 -0.47945404 5
2.183372 -1.711367 -0.43332383 12
2.201473 -1.7261753 -0.33879715 12
2.1699607 -1.7020781 -0.23793554 16
2.1670563 -1.700411 -0.1418801 10
2.1654203 -1.6997378 -0.046909876 15
2.1193693 -1.6641883 0.71128875 11
2.1718094 -1.7059786 0.62826282 17
2.1604321 -1.6976514 0.52615994 14
2.1655092 -1.7022524 0.4297207 14
2.1561489 -1.6955034 0.33209395 11
2.1754119 -1.7112657 0.23880674 14
2.172508 -1.7095952 0.14287716 13
2.1433978 -1.6872935 0.046946973 43
nan nan nan 0
1.6900338 -1.333272 -0.48814404 3
1.9680755 -1.5531771 -0.47945404 4
2.1618803 -1.7067375 -0.43019515 12
2.1798556 -1.7215461 -0.33635977 13
2.1483724 -1.6972911 -0.23619244 15
2.1454375 -1.6955808 -0.14083686 11
2.1477091 -1.6979849 -0.046650708 14
2.1097589 -1.6685799 0.70999545 15
2.1505578 -1.7014575 0.6237672 17
2.1390982 -1.6929981 0.52234721 16
2.1440663 -1.6975387 0.42659545 15
2.134656 -1.6906946 0.32965657 12
2.1538088 -1.7064757 0.23706363 14
2.1508749 -1.7047623 0.14183044 14
2.1218257 -1.6823412 0.04659792 45
nan nan nan 0
1.6853696 -1.3391632 -0.48814404 3
1.9626418 -1.5600375 -0.47945404 4
2.1443133 -1.7050529 -0.42784861 13
2.1582973 -1.7167872 -0.33392239 13
2.1268444 -1.6923746 -0.23444931 16
2.1238792 -1.6906205 -0.13979362 11
2.1261253 -1.6930147 -0.046305142 15
2.0963659 -1.6699156 0.70740896 13
2.1293645 -1.6968091 0.61927158 17
2.1216609 -1.6912758 0.51948762 15
2.122683 -1.6926966 0.42347023 14
2.1132231 -1.6857564 0.32721916 11
2.132266 -1.7015563 0.23532051 14
2.129302 -1.6997995 0.14078373 13
2.1003141 -1.677259 0.046248872 46
nan nan nan 0
1.6806847 -1.3450382 -0.48814404 3
1.9571844 -1.5668789 -0.47945404 4
2.1229298 -1.7001793 -0.4247199 13
2.1367996 -1.7118992 -0.331485 14
2.1092637 -1.6904433 -0.23314197 16
2.1023817 -1.6855307 -0.13875039 11
2.1085029 -1.6910427 -0.046045974 15
2.0829895 -1.6711781 0.70482248 15
2.1082301 -1.6920335 0.61477602 17
2.100435 -1.68638 0.51567489 16
2.1013596 -1.6877257 0.42034498 15
2.091851 -1.6806895 0.32478178 11
2.1069014 -1.6933868 0.23314162 14
2.1077902 -1.6947067 0.139737 13
2.0827603 -1.6751807 0.045987088 45
nan nan nan 0
1.6759794 -1.3508966 -0.48814404 3
1.951703 -1.5737011 -0.47945404 4
2.1016068 -1.6951774 -0.42159122 12
2.1153619 -1.7068819 -0.32904762 13
2.0878465 -1.6852814 -0.23139885 15
2.0809462 -1.6803117 -0.13770714 11
2.0870311 -1.6858269 -0.045700416 16
2.0696299 -1.6723676 0.70223594 19
2.0871551 -1.6871312 0.61028039 16
2.0792692 -1.6813568 0.5118621 15
2.080097 -1.6826267 0.4172197 15
2.0705402 -1.6754938 0.32234439 11
2.0893629 -1.6913289 0.23183426 16
2.0863402 -1.6894848 0.13869028 13
2.0613618 -1.6698534 0.04563804 46
1.4622548 -1.1866481 -0.49434459 3
1.6712538 -1.3567386 -0.48814404 3
1.9461979 -1.5805044 -0.47945404 4
2.0803449 -1.6900474 -0.41846254 13
2.0939853 -1.7017357 -0.32661018 13
2.0664914 -1.6799908 -0.22965574 15
2.0634465 -1.6781138 -0.13692473 12
2.0695 -1.6836369 -0.045441244 15
2.0562875 -1.6734846 0.69964945 25
2.0699186 -1.6851785 0.60690868 17
2.06197 -1.6793059 0.50900251 16
2.0588958 -1.6774 0.41409445 14
2.0492914 -1.6701703 0.31990701 13
2.0680041 -1.6860222 0.23009115 15
2.0649524 -1.684134 0.13764356 14
2.0438993 -1.6675577 0.045376252 46
1.4543642 -1.1886886 -0.49305049 3
1.6665077 -1.3625641 -0.48814404 3
1.9406691 -1.5872883 -0.47945404 4
2.0591443 -1.6847898 -0.41533384 13
2.0726712 -1.6964616 -0.32417279 14
2.0490527 -1.6777275 -0.22834839 16
2.042125 -1.6726507 -0.1358815 11
2.0481424 -1.6781766 -0.045095682 16
2.0429628 -1.6745287 0.69706297 13
2.0489533 -1.6800369 0.602413 18
2.0409155 -1.674042 0.50518978 15
2.0377567 -1.6720461 0.41096923 15
2.0319409 -1.6678675 0.31807896 13
2.0505581 -1.683748 0.22878383 14
2.0474858 -1.681824 0.13685852 15
2.0226159 -1.6619867 0.045027204 47
1.4539349 -1.1968275 -0.49434459 3
1.6655021 -1.37147 -0.48926884 4
1.9351165 -1.5940528 -0.47945404 4
2.0380061 -1.6794052 -0.41220516 15
2.0514193 -1.6910595 -0.32173541 13
2.0278122 -1.672194 -0.22660528 16
2.0208671 -1.6670593 -0.13483825 10
2.0268486 -1.6725881 -0.04475012 16
2.0222063 -1.6693507 0.69188994 13
2.0318067 -1.6778722 0.59904134 17
2.0199232 -1.6686517 0.50137705 16
2.0204871 -1.669711 0.4086253 15
2.0146317 -1.6654642 0.31625095 11
2.0331526 -1.6813723 0.22747648 15
2.0262136 -1.6762297 0.13581181 14
2.0013967 -1.6562877 0.044678159 48
1.4534663 -1.2049779 -0.4956387 4
1.6569546 -1.3741652 -0.48814404 4
1.9295405 -1.6007979 -0.47945404 5
2.0169308 -1.6738935 -0.40907648 14
2.0302308 -1.6855298 -0.31929803 14
2.0104675 -1.669715 -0.22529794 15
1.999673 -1.66134 -0.13379502 14
2.0056188 -1.6668714 -0.044404563 15
2.0015111 -1.6640484 0.68671691 13
2.0109541 -1.6724927 0.59454572 18
2.0027668 -1.6662749 0.49851748 16
1.9994628 -1.6641167 0.40550008 16
1.9973642 -1.6629601 0.31442288 11
2.0157893 -1.6788963 0.22616915 15
2.008842 -1.6737038 0.13502677 14
1.9802418 -1.6504608 0.044329111 45
1.4344223 -1.1976626 -0.4904623 3
1.6484087 -1.3768176 -0.48701933 4
1.9239408 -1.6075234 -0.47945404 4
1.9997081 -1.6714224 -0.40672994 14
2.0129132 -1.6830566 -0.31747001 14
1.9893444 -1.6639401 -0.22355483 17
1.9823731 -1.6586974 -0.13301259 11
1.9844538 -1.6610272 -0.044059001 16
1.9808779 -1.658622 0.68154395 13
1.9938987 -1.6701168 0.59117401 17
1.9818896 -1.6606463 0.49470475 16
1.9822873 -1.6615686 0.40315613 15
1.9801388 -1.660356 0.31259486 12
1.9946516 -1.6731182 0.22442605 15
1.9876872 -1.6678675 0.13398004 16
1.9629812 -1.6477206 0.044067323 47
1.4598044 -1.2275287 -0.50081509 3
1.6398643 -1.3794272 -0.48589453 4
1.9183178 -1.6142296 -0.47945404 4
1.9825273 -1.6688516 -0.40438342 14
1.9918414 -1.6772861 -0.3150326 15
1.9720953 -1.6612469 -0.22224748 17
1.9612981 -1.6527367 -0.13196936 12
1.9671766 -1.6582775 -0.043799829 17
1.9603069 -1.653072 0.67637092 13
1.976885 -1.6676424 0.58780229 18
1.9648273 -1.6580578 0.49184516 16
1.9613802 -1.6557353 0.40003088 16
1.962956 -1.6576521 0.31076682 11
1.9773841 -1.6704274 0.22311871 16
1.970412 -1.6651272 0.133195 14
1.9419464 -1.6416528 0.043718275 47
1.4333972 -1.2138897 -0.49305049 4
1.6276047 -1.3788446 -0.48364502 4
1.908927 -1.6177425 -0.47850087 4
1.9653889 -1.6661812 -0.40203691 14
1.9746195 -1.6745992 -0.31320456 17
1.9548897 -1.6584537 -0.22094014 17
1.9479029 -1.653111 -0.13144773 13
1.9461318 -1.6521924 -0.043454267 17
1.9434805 -1.6505252 0.67249113 12
1.9561999 -1.6619152 0.58330667 18
1.9478073 -1.6553706 0.48898563 16
1.944301 -1.6529751 0.39768693 15
1.9458164 -1.6548487 0.30893877 11
1.9563659 -1.6644092 0.22137558 15
1.9493778 -1.6590503 0.13214828 14
1.9247847 -1.6386994 0.043456491 47
nan nan nan 0
1.6227819 -1.3845178 -0.48364502 4
1.8995349 -1.6212096 -0.47754765 4
1.9445378 -1.6602052 -0.3989082 13
1.9536673 -1.6685895 -0.31076717 16
1.9377277 -1.6555607 -0.21963282 17
1.9307332 -1.6501679 -0.1306653 11
1.9289534 -1.6492293 -0.043195099 16
1.9230254 -1.6447421 0.66731817 13
1.9392807 -1.6592312 0.57993495 17
1.9271013 -1.6493932 0.48517281 16
1.927265 -1.6501162 0.39534304 16
1.9249514 -1.6487176 0.30650139 12
1.9354144 -1.6582649 0.21963248 14
1.9322013 -1.6560967 0.13136324 15
1.9114622 -1.6389 0.043281965 48
1.4360942 -1.233057 -0.49693277 4
1.6221205 -1.3927827 -0.48476982 4
1.890709 -1.6239712 -0.47659451 5
1.9280752 -1.6566507 -0.39656168 14
1.937125 -1.6650141 -0.30893913 18
1.9211866 -1.6518977 -0.21832547 17
1.9141833 -1.6464573 -0.12988289 14
1.912394 -1.645499 -0.042935926 17
1.9068673 -1.641323 0.66343844 13
1.9192905 -1.6525995 0.57543933 18
1.9107534 -1.6458294 0.48231328 16
1.9108477 -1.6464915 0.39299908 15
1.9047263 -1.6417964 0.30406398 12
1.9188783 -1.6545788 0.21832512 15
1.9156462 -1.6523749 0.1305782 15
1.894949 -1.6350991 0.043020178 49
1.4137282 -1.2220209 -0.4904623 4
1.620934 -1.401623 -0.48589453 4
1.885029 -1.6305611 -0.47659451 5
1.907343 -1.6504451 -0.39343297 14
1.9200447 -1.662022 -0.30711108 14
1.9041125 -1.6488123 -0.21701814 18
1.897102 -1.6433213 -0.12910046 13
1.8953043 -1.6423432 -0.042676758 16
1.8901776 -1.6384784 0.65955865 14
1.9024674 -1.6497133 0.57206756 17
1.8938733 -1.6428401 0.47945368 17
1.8901684 -1.6402045 0.38987383 16
1.8839929 -1.6354221 0.30162659 13
1.9018084 -1.6514695 0.2170178 15
1.898558 -1.6492281 0.12979317 16
1.8779094 -1.6318663 0.042758394 48
1.4347353 -1.2493961 -0.49952096 4
1.6157861 -1.4075546 -0.48589453 4
1.8753393 -1.6342343 -0.47564128 5
