# .PCD v0.7 - Point Cloud Data file format
VERSION 0.7
FIELDS x y z intensity
SIZE 4 4 4 4
TYPE F F F F
COUNT 1 1 1 1
WIDTH 834
HEIGHT 1
VIEWPOINT 0 0 0 1 0 0 0
POINTS 834
DATA ascii
nan nan nan 0
8.639910697937012 1.4830570220947266 0.45741623640060425 48
8.645735740661621 1.4825035333633423 0.15244676172733307 48
1.8801603317260742 0.3207065463066101 -0.5008150935173035 119
2.1172447204589844 0.3607667088508606 -0.4870193302631378 119
2.515125274658203 0.42811161279678345 -0.4880327582359314 119
2.988058090209961 0.5080751776695251 -0.4739968180656433 119
3.888228416442871 0.6604375839233398 -0.4795564115047455 119
5.306982040405273 0.9004680514335632 -0.467591255903244 119
8.64799976348877 1.465806245803833 -0.4561549425125122 119
nan nan nan 0
9.047829627990723 1.5303272008895874 2.446833372116089 107
9.804166793823242 1.656491994857788 2.2848987579345703 51
9.852935791015625 1.6629632711410522 1.9330657720565796 51
9.972209930419922 1.6813040971755981 1.5938730239868164 51
8.685079574584961 1.4627364873886108 1.0767155885696411 48
nan nan nan 0
nan nan nan 0
nan nan nan 0
1.8812683820724487 0.3141416013240814 -0.5008150935173035 119
2.1184911727905273 0.3533739447593689 -0.4870193302631378 119
2.502079486846924 0.4169093668460846 -0.48517316579818726 119
2.9800703525543213 0.4960201382637024 -0.4724324643611908 119
3.880718946456909 0.6452332139015198 -0.47833770513534546 119
5.315006732940674 0.8827539086341858 -0.4680270552635193 119
8.648138046264648 1.4347928762435913 -0.4558941423892975 119
nan nan nan 0
9.053116798400879 1.4987350702285767 2.446833372116089 107
9.973319053649902 1.6492853164672852 2.3231115341186523 51
10.008803367614746 1.653358817100525 1.9626147747039795 51
10.124197006225586 1.6706055402755737 1.6173123121261597 51
8.905585289001465 1.4679243564605713 1.1035268306732178 48
nan nan nan 0
8.940744400024414 1.470514178276062 0.4728553593158722 48
9.055456161499023 1.4877580404281616 0.15951497852802277 48
1.8823535442352295 0.3075728416442871 -0.5008150935173035 119
2.1245198249816895 0.34676164388656616 -0.48814404010772705 119
2.498675584793091 0.40738317370414734 -0.4842199981212616 119
2.991532325744629 0.48720237612724304 -0.4739968180656433 119
3.8829474449157715 0.6316830515861511 -0.47833770513534546 119
5.318055629730225 0.8641956448554993 -0.4680270552635193 119
8.687594413757324 1.4101966619491577 -0.4577198028564453 119
nan nan nan 0
9.053525924682617 1.4663524627685547 2.445539951324463 107
10.1281099319458 1.6385834217071533 2.35795259475708 51
10.184103965759277 1.6458183526992798 1.995976209640503 51
10.295733451843262 1.6620144844055176 1.6438769102096558 51
9.023343086242676 1.4549999237060547 1.1175419092178345 48
nan nan nan 0
nan nan nan 0
9.0507230758667 1.454553246498108 0.15934047102928162 48
1.883415699005127 0.30100029706954956 -0.5008150935173035 119
2.130528211593628 0.3401115834712982 -0.48926883935928345 119
2.495234966278076 0.3978857696056366 -0.48326680064201355 119
3.007845401763916 0.47908738255500793 -0.4763433039188385 119
nan nan nan 0
5.316120624542236 0.8448450565338135 -0.467591255903244 119
8.697395324707031 1.380645751953125 -0.45798060297966003 119
nan nan nan 0
9.058588981628418 1.4347407817840576 2.445539951324463 107
10.292570114135742 1.628343105316162 2.3950414657592773 51
10.354623794555664 1.636307954788208 2.0283846855163574 51
10.467329978942871 1.6522458791732788 1.6704415082931519 51
9.199943542480469 1.4505459070205688 1.138869047164917 48
nan nan nan 0
nan nan nan 0
nan nan nan 0
1.8844548463821411 0.2944241166114807 -0.5008150935173035 119
2.1317026615142822 0.3326725959777832 -0.48926883935928345 119
2.4966087341308594 0.38917332887649536 -0.48326680064201355 119
3.0143790245056152 0.4693449139595032 -0.47712549567222595 119
3.8970704078674316 0.6060851216316223 -0.4795564115047455 119
5.319036960601807 0.8262832760810852 -0.467591255903244 119
8.687358856201172 1.3479807376861572 -0.4571981728076935 119
nan nan nan 0
9.058769226074219 1.4023728370666504 2.444246768951416 107
10.466710090637207 1.618463397026062 2.434378147125244 107
10.525199890136719 1.625626564025879 2.060792922973633 51
10.653624534606934 1.643558382987976 1.6993499994277954 51
9.361906051635742 1.4426090717315674 1.1583681106567383 48
nan nan nan 0
9.375142097473145 1.4412986040115356 0.49509814381599426 48
nan nan nan 0
1.8854711055755615 0.28784435987472534 -0.5008150935173035 119
2.137667417526245 0.32596397399902344 -0.49039360880851746 119
2.4979519844055176 0.38045617938041687 -0.48326680064201355 119
3.025763511657715 0.4603053629398346 -0.47868984937667847 119
nan nan nan 0
5.316964626312256 0.8069639205932617 -0.46715548634529114 119
8.687074661254883 1.3168997764587402 -0.45693740248680115 119
nan nan nan 0
9.06360912322998 1.3707431554794312 2.444246768951416 107
10.544557571411133 1.5928335189819336 2.4512367248535156 107
10.700677871704102 1.6145062446594238 2.0941545963287354 51
10.864401817321777 1.6372696161270142 1.7321650981903076 51
9.553365707397461 1.4379907846450806 1.1815232038497925 48
9.618149757385254 1.4460254907608032 0.8475895524024963 48
nan nan nan 0
nan nan nan 0
1.8864643573760986 0.2812610864639282 -0.5008150935173035 119
2.138792037963867 0.3185001313686371 -0.49039360880851746 119
2.4944100379943848 0.37101230025291443 -0.4823136329650879 119
3.0273520946502686 0.4497407078742981 -0.47868984937667847 119
3.9012067317962646 0.5788638591766357 -0.4795564115047455 119
5.314822196960449 0.7876691222190857 -0.46671971678733826 119
8.68667984008789 1.285836935043335 -0.45667657256126404 119
nan nan nan 0
9.068338394165039 1.3390969038009644 2.444246768951416 107
10.540412902832031 1.5545945167541504 2.448988676071167 107
10.905340194702148 1.6064724922180176 2.133235454559326 51
10.95311164855957 1.611556887626648 1.7454472780227661 51
9.681077003479004 1.4226731061935425 1.1967568397521973 48
9.775914192199707 1.4348666667938232 0.8610987663269043 48
nan nan nan 0
9.8368558883667 1.440304160118103 0.1728660762310028 48
1.887434720993042 0.2746743857860565 -0.5008150935173035 119
2.139890670776367 0.31103238463401794 -0.49039360880851746 119
2.500547170639038 0.3630080223083496 -0.48326680064201355 119
3.0289034843444824 0.4391705393791199 -0.47868984937667847 119
3.9081151485443115 0.56595379114151 -0.4801657497882843 119
5.317539215087891 0.7691121101379395 -0.46671971678733826 119
8.69111442565918 1.2555068731307983 -0.45667657256126404 119
nan nan nan 0
9.072957038879395 1.3074344396591187 2.444246768951416 107
10.55059814453125 1.5184862613677979 2.450112819671631 107
11.032341003417969 1.58585524559021 2.1570651531219482 51
11.22753620147705 1.6119139194488525 1.7884193658828735 51
9.862834930419922 1.4142297506332397 1.2186933755874634 48
9.93371295928955 1.4226235151290894 0.8746078610420227 48
9.933433532714844 1.4208143949508667 0.5238829255104065 48
9.975447654724121 1.4250471591949463 0.17522215843200684 48
1.8836003541946411 0.2674054801464081 -0.4995209574699402 119
2.145786762237549 0.3042447865009308 -0.4915183484554291 119
2.4969394207000732 0.35358911752700806 -0.4823136329650879 119
3.0255279541015625 0.427903413772583 -0.477907657623291 119
3.9198944568634033 0.5536966919898987 -0.48138442635536194 119
5.325123310089111 0.7512415647506714 -0.46715548634529114 119
8.695444107055664 1.2251616716384888 -0.45667657256126404 119
nan nan nan 0
9.077466011047363 1.2757558822631836 2.444246768951416 107
10.551009178161621 1.480971336364746 2.448988676071167 107
11.295430183410645 1.583450198173523 2.2075841426849365 51
11.423837661743164 1.599418044090271 1.8188904523849487 51
10.024988174438477 1.4017852544784546 1.2381924390792847 48
nan nan nan 0
10.111417770385742 1.410272240638733 0.5330416560173035 48
10.222981452941895 1.4240134954452515 0.17949798703193665 48
1.884476661682129 0.2611577808856964 -0.4995209574699402 119
2.1467320919036865 0.2975021302700043 -0.4915183484554291 119
2.4980380535125732 0.3457430303096771 -0.4823136329650879 119
3.026857376098633 0.41839635372161865 -0.477907657623291 119
3.8970344066619873 0.5379859805107117 -0.47833770513534546 119
5.332391738891602 0.7351887822151184 -0.467591255903244 119
8.704197883605957 1.198519229888916 -0.45693740248680115 119
nan nan nan 0
9.081428527832031 1.2472319602966309 2.444246768951416 107
10.555609703063965 1.4478169679641724 2.448988676071167 107
11.504590034484863 1.5759345293045044 2.2476179599761963 51
11.683241844177246 1.5983295440673828 1.8595185279846191 51
nan nan nan 0
nan nan nan 0
10.269168853759766 1.3993993997573853 0.5411537885665894 48
10.316568374633789 1.4040248394012451 0.18106870353221893 48
1.8853323459625244 0.25490719079971313 -0.4995209574699402 119
2.1477575302124023 0.2900068163871765 -0.4915183484554291 119
2.504093647003174 0.3376770615577698 -0.48326680064201355 119
3.0234053134918213 0.4071689546108246 -0.47712549567222595 119
3.928399085998535 0.5283485054969788 -0.48199379444122314 119
5.339861869812012 0.7172338962554932 -0.4680270552635193 119
8.718225479125977 1.169456124305725 -0.4574589729309082 119
nan nan nan 0
9.085726737976074 1.2155241966247559 2.444246768951416 107
10.555769920349121 1.410317063331604 2.4478647708892822 107
11.719223976135254 1.5636799335479736 2.288605213165283 51
11.879667282104492 1.5829774141311646 1.8899896144866943 51
nan nan nan 0
nan nan nan 0
10.437332153320312 1.3852232694625854 0.5497891902923584 48
10.569201469421387 1.4008475542068481 0.1854318082332611 48
1.8862539529800415 0.24799539148807526 -0.4995209574699402 119
2.148806095123291 0.28213292360305786 -0.4915183484554291 119
2.505314588546753 0.3284968435764313 -0.48326680064201355 119
3.0248773097991943 0.39608487486839294 -0.47712549567222595 119
3.935230016708374 0.5145901441574097 -0.48260313272476196 119
5.34245491027832 0.6976575255393982 -0.4680270552635193 119
8.732356071472168 1.1387859582901 -0.45798060297966003 119
nan nan nan 0
9.090121269226074 1.1822152137756348 2.444246768951416 107
10.560868263244629 1.3716187477111816 2.4478647708892822 107
11.93418025970459 1.5478631258010864 2.329592227935791 51
12.149863243103027 1.5736808776855469 1.932180404663086 51
11.943599700927734 1.5448458194732666 1.47400963306427 51
nan nan nan 0
nan nan nan 0
10.723012924194336 1.3812607526779175 0.18804965913295746 48
1.8871080875396729 0.24140962958335876 -0.4995209574699402 119
2.14977765083313 0.27463048696517944 -0.4915183484554291 119
2.50644588470459 0.319749653339386 -0.48326680064201355 119
3.0262415409088135 0.3855237364768982 -0.47712549567222595 119
nan nan nan 0
5.344857692718506 0.6790045499801636 -0.4680270552635193 119
8.746184349060059 1.1095541715621948 -0.45850223302841187 119
11.078047752380371 1.40341317653656 -0.1923045814037323 48
9.094192504882812 1.1504775285720825 2.444246768951416 107
10.570425033569336 1.3353567123413086 2.448988676071167 107
12.173257827758789 1.5356833934783936 2.375345230102539 51
12.390474319458008 1.5608887672424316 1.969683289527893 51
12.086790084838867 1.52048921585083 1.491071343421936 51
12.378453254699707 1.5549851655960083 1.0881394147872925 51
12.121537208557129 1.5205621719360352 0.638236939907074 51
12.468894958496094 1.5619187355041504 0.21867863833904266 51
1.8879802227020264 0.23449140787124634 -0.4995209574699402 119
2.1507697105407715 0.2667493224143982 -0.4915183484554291 119
2.507601022720337 0.310560941696167 -0.48326680064201355 119
3.022732734680176 0.37382322549819946 -0.4763433039188385 119
3.904334306716919 0.4821596145629883 -0.47833770513534546 119
5.347310543060303 0.6594101786613464 -0.4680270552635193 119
8.760104179382324 1.0787107944488525 -0.4590238630771637 119
11.197239875793457 1.3768335580825806 -0.19429156184196472 48
9.093555450439453 1.1165494918823242 2.44295334815979 107
10.575248718261719 1.2966052293777466 2.448988676071167 107
12.42240047454834 1.5208792686462402 2.423004627227783 51
12.626510620117188 1.543631911277771 2.0064051151275635 51
12.36322021484375 1.5092538595199585 1.5245853662490845 51
12.591733932495117 1.5349195003509521 1.1064420938491821 51
12.59294605255127 1.5328367948532104 0.662834882736206 51
12.727633476257324 1.546976923942566 0.223129004240036 51
1.8839925527572632 0.22732116281986237 -0.4982268810272217 119
2.1468513011932373 0.2586573660373688 -0.49039360880851746 119
2.50866961479187 0.30180588364601135 -0.48326680064201355 119
3.024019479751587 0.3632696568965912 -0.4763433039188385 119
nan nan nan 0
5.349579811096191 0.6407405734062195 -0.4680270552635193 119
8.768773078918457 1.0487186908721924 -0.45928463339805603 119
12.924480438232422 1.543440580368042 -0.22426894307136536 119
9.097397804260254 1.0848002433776855 2.44295334815979 107
10.584547996520996 1.2602589130401611 2.450112819671631 107
12.607969284057617 1.4989477396011353 2.4582724571228027 107
12.881933212280273 1.5292389392852783 2.0462517738342285 51
12.683820724487305 1.5034757852554321 1.5635836124420166 51
12.883909225463867 1.52491295337677 1.131717324256897 51
12.846151351928711 1.5181705951690674 0.6759188771247864 51
12.931548118591309 1.5259677171707153 0.22661948204040527 51
1.889571189880371 0.2213052213191986 -0.4995209574699402 119
2.1477410793304443 0.2511618733406067 -0.49039360880851746 119
2.5048329830169678 0.29247790575027466 -0.4823136329650879 119
3.025269031524658 0.35271164774894714 -0.4763433039188385 119
nan nan nan 0
5.356731414794922 0.6226382255554199 -0.46846285462379456 119
8.772380828857422 1.0181035995483398 -0.45928463339805603 119
13.073803901672363 1.5150049924850464 -0.22677427530288696 119
9.096329689025879 1.0524826049804688 2.441660165786743 107
10.598563194274902 1.224422574043274 2.4523606300354004 107
12.627753257751465 1.456615924835205 2.461132287979126 107
13.152125358581543 1.5147764682769775 2.08844256401062 51
12.91578197479248 1.4852718114852905 1.591613531112671 51
13.042555809020996 1.4975440502166748 1.1452264785766602 51
13.059720993041992 1.4972054958343506 0.6869094371795654 51
13.239771842956543 1.5155060291290283 0.23194247484207153 51
1.8903322219848633 0.21470803022384644 -0.4995209574699402 119
2.143763780593872 0.24311433732509613 -0.48926883935928345 119
2.505838632583618 0.28373265266418457 -0.4823136329650879 119
3.0264816284179688 0.3421493470668793 -0.4763433039188385 119
nan nan nan 0
5.3638224601745605 0.6044937968254089 -0.46889862418174744 119
8.775880813598633 0.9874760508537292 -0.45928463339805603 119
13.377091407775879 1.5028471946716309 -0.23195767402648926 119
9.095148086547852 1.0201855897903442 2.4403669834136963 107
10.607614517211914 1.1879615783691406 2.453484535217285 107
12.627883911132812 1.411982536315918 2.460179090499878 107
13.45672607421875 1.5022814273834229 2.1361024379730225 51
13.172429084777832 1.4682154655456543 1.622690200805664 51
13.349678993225098 1.4856131076812744 1.1718089580535889 51
13.377511024475098 1.48634672164917 0.7033951878547668 51
13.488450050354004 1.496289610862732 0.23621830344200134 51
1.8910702466964722 0.20810824632644653 -0.4995209574699402 119
2.144599199295044 0.23562972247600555 -0.48926883935928345 119
2.5068140029907227 0.27498388290405273 -0.4823136329650879 119
3.0276577472686768 0.3315828740596771 -0.4763433039188385 119
3.9304192066192627 0.4297572672367096 -0.4807750880718231 119
5.365899562835693 0.5857669115066528 -0.46889862418174744 119
8.774312019348145 0.9562955498695374 -0.4590238630771637 119
nan nan nan 0
9.093852996826172 0.9879098534584045 2.4390735626220703 107
10.621383666992188 1.1519774198532104 2.4557323455810547 107
12.637615203857422 1.3684228658676147 2.461132287979126 107
13.746665954589844 1.4860854148864746 2.1814184188842773 51
13.493254661560059 1.4563078880310059 1.6616883277893066 51
13.711349487304688 1.4774255752563477 1.203184962272644 51
14.668425559997559 1.5779626369476318 0.7711702585220337 51
nan nan nan 0
1.8917852640151978 0.2015058994293213 -0.4995209574699402 119
2.14056396484375 0.22762706875801086 -0.48814404010772705 119
2.5028774738311768 0.265713632106781 -0.48136040568351746 119
3.028796672821045 0.32101234793663025 -0.4763433039188385 119
3.9121546745300293 0.41394615173339844 -0.47833770513534546 119
5.3679118156433105 0.5670328736305237 -0.46889862418174744 119
8.777596473693848 0.9256616830825806 -0.4590238630771637 119
nan nan nan 0
9.097245216369629 0.956160306930542 2.4390735626220703 107
10.639876365661621 1.116420030593872 2.459104061126709 107
12.637433052062988 1.3237895965576172 2.460179090499878 107
14.061212539672852 1.4704515933990479 2.2306408882141113 51
13.799346923828125 1.4406323432922363 1.6988584995269775 51
14.627984046936035 1.5245600938796997 1.2833682298660278 51
14.693709373474121 1.5288176536560059 0.7722170352935791 51
13.851613998413086 1.4387574195861816 0.24241390824317932 51
1.897281289100647 0.19539588689804077 -0.5008150935173035 119
2.141345500946045 0.22015371918678284 -0.48814404010772705 119
2.5037899017333984 0.25697535276412964 -0.48136040568351746 119
3.0298986434936523 0.3104379177093506 -0.4763433039188385 119
3.9135758876800537 0.4002876579761505 -0.47833770513534546 119
5.369858264923096 0.5482919216156006 -0.46889862418174744 119
8.780773162841797 0.8950164914131165 -0.4590238630771637 119
13.869559288024902 1.4112660884857178 -0.24025113880634308 119
9.095723152160645 0.9239111542701721 2.4377806186676025 107
10.653402328491211 1.0802561044692993 2.4613518714904785 107
12.641976356506348 1.2796686887741089 2.460179090499878 107
14.356160163879395 1.4506535530090332 2.276738405227661 51
14.08080005645752 1.4203464984893799 1.7329819202423096 51
13.92947769165039 1.4026265144348145 1.2214877605438232 51
nan nan nan 0
14.413668632507324 1.4463000297546387 0.25218725204467773 51
1.8979518413543701 0.18877194821834564 -0.5008150935173035 119
2.1372530460357666 0.21219636499881744 -0.4870193302631378 119
2.5095558166503906 0.2487180083990097 -0.4823136329650879 119
3.030963897705078 0.2998597025871277 -0.4763433039188385 119
3.934704065322876 0.3885751962661743 -0.4807750880718231 119
5.3766961097717285 0.5300328731536865 -0.4693343937397003 119
8.783843994140625 0.8643604516983032 -0.4590238630771637 119
14.725178718566895 1.4464131593704224 -0.25502386689186096 119
9.098893165588379 0.8921555280685425 2.4377806186676025 107
10.69105052947998 1.046384334564209 2.469219207763672 107
12.641481399536133 1.2350549697875977 2.45922589302063 107
14.656052589416504 1.4292932748794556 2.3236169815063477 51
14.391915321350098 1.4009982347488403 1.770761489868164 51
14.658102989196777 1.4243282079696655 1.285111427307129 51
14.669234275817871 1.4228253364562988 0.770385205745697 51
14.826659202575684 1.4354825019836426 0.2593427300453186 51
1.8985673189163208 0.18247707188129425 -0.5008150935173035 119
2.137909173965454 0.20548094809055328 -0.4870193302631378 119
2.5103249549865723 0.24083279073238373 -0.4823136329650879 119
3.031890869140625 0.2903361916542053 -0.4763433039188385 119
3.9359052181243896 0.37621206045150757 -0.4807750880718231 119
5.378334999084473 0.5131388902664185 -0.4693343937397003 119
8.786517143249512 0.836760938167572 -0.4590238630771637 119
14.95858383178711 1.4219071865081787 -0.2589978277683258 119
9.101651191711426 0.8635661602020264 2.4377806186676025 107
10.660332679748535 1.0095769166946411 2.4613518714904785 107
12.645298957824707 1.1953344345092773 2.45922589302063 107
15.024308204650879 1.417571783065796 2.3814339637756348 51
14.722342491149902 1.3864883184432983 1.8109784126281738 51
14.974928855895996 1.4076390266418457 1.3125654458999634 51
14.961968421936035 1.403786540031433 0.7855626344680786 51
15.169562339782715 1.4205927848815918 0.26527655124664307 51
1.8991619348526 0.17618019878864288 -0.5008150935173035 119
2.138613224029541 0.19801698625087738 -0.4870193302631378 119
2.50626277923584 0.23161697387695312 -0.48136040568351746 119
3.032886028289795 0.27975112199783325 -0.4763433039188385 119
3.947078227996826 0.3633808195590973 -0.48199379444122314 119
5.380093097686768 0.49436187744140625 -0.4693343937397003 119
8.794355392456055 0.8065412044525146 -0.45928463339805603 119
15.297012329101562 1.40021550655365 -0.2647859454154968 119
9.104609489440918 0.8317902088165283 2.4377806186676025 107
10.658941268920898 0.9719168543815613 2.4602279663085938 107
12.654282569885254 1.1516317129135132 2.460179090499878 107
15.388203620910645 1.3977303504943848 2.438469648361206 51
15.087891578674316 1.3677977323532104 1.8554606437683105 51
15.336921691894531 1.3876749277114868 1.343941569328308 51
15.33974552154541 1.3852312564849854 0.8051886558532715 51
15.582711219787598 1.4044300317764282 0.2724320590496063 51
1.8997949361801147 0.16921822726726532 -0.5008150935173035 119
2.13932466506958 0.19017726182937622 -0.4870193302631378 119
2.5070948600769043 0.22242949903011322 -0.48136040568351746 119
3.033890962600708 0.2686331570148468 -0.4763433039188385 119
3.953326940536499 0.3493484556674957 -0.48260313272476196 119
5.381868839263916 0.47463953495025635 -0.4693343937397003 119
8.807201385498047 0.7751783728599548 -0.45980626344680786 119
15.64068603515625 1.3738864660263062 -0.27066048979759216 119
9.107597351074219 0.7984145283699036 2.4377806186676025 107
10.647870063781738 0.9315693974494934 2.4568560123443604 107
12.658418655395508 1.1052436828613281 2.460179090499878 107
15.54082202911377 1.3541817665100098 2.4619088172912598 107
15.44383430480957 1.3430147171020508 1.8987243175506592 51
15.694230079650879 1.3620295524597168 1.3748818635940552 51
15.717809677124023 1.361311912536621 0.8248146176338196 51
15.961304664611816 1.379594326019287 0.278976708650589 51
1.9003740549087524 0.16258569061756134 -0.5008150935173035 119
2.1399755477905273 0.1827084720134735 -0.4870193302631378 119
2.5078561305999756 0.21367675065994263 -0.48136040568351746 119
3.0348100662231445 0.25804129242897034 -0.4763433039188385 119
3.9545223712921143 0.3355466425418854 -0.48260313272476196 119
5.388456344604492 0.45627066493034363 -0.4697701632976532 119
8.819803237915039 0.7452716827392578 -0.4603278934955597 119
16.028966903686523 1.351626992225647 -0.2773125171661377 119
9.110328674316406 0.7666182518005371 2.4377806186676025 107
10.641347885131836 0.893580436706543 2.45460844039917 107
12.671982765197754 1.0618705749511719 2.462085485458374 107
15.56021785736084 1.301160454750061 2.4642527103424072 107
15.83912467956543 1.3216991424560547 1.9468626976013184 51
16.095993041992188 1.3403048515319824 1.409744143486023 51
16.095664978027344 1.3374488353729248 0.8444406390190125 51
16.36957550048828 1.357332468032837 0.2860449254512787 51
1.9009300470352173 0.1559511423110962 -0.5008150935173035 119
2.145455837249756 0.1756349354982376 -0.48814404010772705 119
2.5085866451263428 0.2049214094877243 -0.48136040568351746 119
3.040614604949951 0.24784748256206512 -0.47712549567222595 119
3.955669641494751 0.3217407464981079 -0.48260313272476196 119
5.390016078948975 0.43745866417884827 -0.4697701632976532 119
8.832305908203125 0.715286374092102 -0.4608495235443115 119
16.487041473388672 1.3323105573654175 -0.28517404198646545 119
9.11294937133789 0.7348126173019409 2.4377806186676025 107
10.639546394348145 0.8560390472412109 2.453484535217285 107
12.685396194458008 1.018416166305542 2.463991641998291 107
15.544973373413086 1.2452597618103027 2.461127519607544 107
16.259187698364258 1.2996174097061157 1.998047947883606 51
16.547441482543945 1.319751501083374 1.448964238166809 51
16.5233154296875 1.3149250745773315 0.8666833639144897 51
16.79781723022461 1.3338195085525513 0.29346221685409546 51
1.9014627933502197 0.14931471645832062 -0.5008150935173035 119
2.1460559368133545 0.1681448221206665 -0.48814404010772705 119
2.519073247909546 0.19692860543727875 -0.48326680064201355 119
3.041461229324341 0.2372322529554367 -0.47712549567222595 119
3.95676851272583 0.30793091654777527 -0.48260313272476196 119
5.391510486602783 0.4186413288116455 -0.4697701632976532 119
8.844705581665039 0.6852229237556458 -0.46137115359306335 119
16.95513916015625 1.3105828762054443 -0.2932083308696747 119
9.115458488464355 0.7029979825019836 2.4377806186676025 107
10.64246940612793 0.8188948631286621 2.453484535217285 107
12.698661804199219 0.9748811721801758 2.465898036956787 107
15.54430103302002 1.190613031387329 2.460346221923828 107
16.66443634033203 1.2734839916229248 2.0474047660827637 51
16.97907257080078 1.2945475578308105 1.4864412546157837 51
16.9659366607666 1.2905677556991577 0.8897112607955933 51
17.24602699279785 1.308846354484558 0.30122852325439453 51
1.9067884683609009 0.14303773641586304 -0.502109169960022 119
2.146629810333252 0.16065266728401184 -0.48814404010772705 119
2.519745349884033 0.18813420832157135 -0.48326680064201355 119
3.0422708988189697 0.22661413252353668 -0.47712549567222595 119
nan nan nan 0
5.3979058265686035 0.4001871943473816 -0.47020596265792847 119
8.852023124694824 0.6547132134437561 -0.4616319239139557 119
17.428266525268555 1.28597092628479 -0.30132901668548584 119
9.122673988342285 0.6715293526649475 2.4390735626220703 107
10.640403747558594 0.7813838720321655 2.4523606300354004 107
12.726463317871094 0.9323416948318481 2.4706640243530273 107
15.543437004089355 1.1359859704971313 2.4595649242401123 107
17.104345321655273 1.247063159942627 2.101027488708496 51
17.445499420166016 1.2688754796981812 1.5269687175750732 51
17.43846321105957 1.2653040885925293 0.9143090844154358 51
17.739137649536133 1.284008264541626 0.30978021025657654 51
1.9120935201644897 0.13672541081905365 -0.5034032464027405 119
2.1471774578094482 0.15315856039524078 -0.48814404010772705 119
2.5301785469055176 0.18003423511981964 -0.48517316579818726 119
3.047969341278076 0.21634288132190704 -0.477907657623291 119
nan nan nan 0
5.404238700866699 0.38169345259666443 -0.47064176201820374 119
8.859233856201172 0.6241608262062073 -0.4618927240371704 119
17.916383743286133 1.2591228485107422 -0.3097088634967804 119
9.124961853027344 0.6396811604499817 2.4390735626220703 107
10.64306640625 0.7442371845245361 2.4523606300354004 107
12.700261116027832 0.885863184928894 2.464944839477539 107
15.547307968139648 1.081722378730774 2.4595649242401123 107
17.593774795532227 1.2210222482681274 2.160743236541748 51
17.92188262939453 1.2406501770019531 1.5683674812316895 51
17.901052474975586 1.2360690832138062 0.9383836984634399 51
18.23227882385254 1.2557430267333984 0.31833186745643616 51
1.907740592956543 0.129722461104393 -0.502109169960022 119
2.1476991176605225 0.1456625759601593 -0.48814404010772705 119
2.5258946418762207 0.17086993157863617 -0.4842199981212616 119
3.043778657913208 0.2053697258234024 -0.47712549567222595 119
nan nan nan 0
5.405538082122803 0.36282679438591003 -0.47064176201820374 119
8.866341590881348 0.5935660004615784 -0.4621535539627075 119
18.389556884765625 1.227883219718933 -0.31782954931259155 119
9.1271390914917 0.6078252196311951 2.4390735626220703 107
10.645600318908691 0.7070814371109009 2.4523606300354004 107
12.698378562927246 0.84120112657547 2.463991641998291 107
15.555917739868164 1.027771234512329 2.460346221923828 107
18.083223342895508 1.1915791034698486 2.220459222793579 51
18.428098678588867 1.2110741138458252 1.6123812198638916 51
18.4184513092041 1.2072116136550903 0.9653366804122925 51
18.74538803100586 1.225354552268982 0.32723259925842285 51
1.9033621549606323 0.12275160104036331 -0.5008150935173035 119
2.1530561447143555 0.13847751915454865 -0.48926883935928345 119
2.5215771198272705 0.16173765063285828 -0.48326680064201355 119
3.0444769859313965 0.19474369287490845 -0.47712549567222595 119
nan nan nan 0
5.411742210388184 0.3442719578742981 -0.47107750177383423 119
8.868359565734863 0.5626131296157837 -0.4621535539627075 119
18.82280731201172 1.190829873085022 -0.32525908946990967 119
9.129205703735352 0.5759618878364563 2.4390735626220703 107
10.652865409851074 0.6702229380607605 2.453484535217285 107
12.686542510986328 0.7959483861923218 2.461132287979126 107
15.564338684082031 0.9737729430198669 2.461127519607544 107
18.59248924255371 1.159969687461853 2.2826128005981445 51
18.98403549194336 1.1810717582702637 1.660752773284912 51
18.955793380737305 1.1759934425354004 0.9933363795280457 51
19.32835578918457 1.1957204341888428 0.33735498785972595 51
1.8989583253860474 0.11581286787986755 -0.4995209574699402 119
2.1535263061523438 0.1309611052274704 -0.48926883935928345 119
2.5172274112701416 0.15263766050338745 -0.4823136329650879 119
3.045138359069824 0.18411529064178467 -0.47712549567222595 119
nan nan nan 0
5.417882919311523 0.3256782293319702 -0.4715133011341095 119
8.875253677368164 0.5319520831108093 -0.46241435408592224 119
nan nan nan 0
9.131159782409668 0.5440914630889893 2.4390735626220703 107
10.655139923095703 0.6330334544181824 2.453484535217285 107
12.679443359375 0.7510787844657898 2.45922589302063 107
15.572572708129883 0.9197285771369934 2.4619088172912598 107
19.2156925201416 1.131528615951538 2.358781099319458 51
19.584732055664062 1.1498297452926636 1.7130460739135742 51
19.56292152404785 1.1451232433319092 1.0249996185302734 51
19.8115234375 1.1562055349349976 0.3457321524620056 51
1.8945294618606567 0.10890639573335648 -0.4982268810272217 119
2.15397047996521 0.12344309687614441 -0.48926883935928345 119
2.517744779586792 0.14384996891021729 -0.4823136329650879 119
3.0408318042755127 0.17320381104946136 -0.4763433039188385 119
3.957395076751709 0.22471772134304047 -0.48199379444122314 119
5.418986797332764 0.30676430463790894 -0.4715133011341095 119
8.877057075500488 0.5009684562683105 -0.46241435408592224 119
17.278350830078125 0.9720624685287476 -0.29839175939559937 119
9.133004188537598 0.5122144818305969 2.4390735626220703 107
10.662148475646973 0.5961081385612488 2.45460844039917 107
12.67708683013916 0.7065414786338806 2.4582724571228027 107
15.575688362121582 0.8653645515441895 2.4619088172912598 107
19.824052810668945 1.0979273319244385 2.4331214427948 51
19.862163543701172 1.0965609550476074 1.7370140552520752 51
20.71348762512207 1.1399351358413696 1.0851860046386719 51
20.77884292602539 1.1398942470550537 0.3625737130641937 51
1.8948980569839478 0.10229259729385376 -0.4982268810272217 119
2.1592533588409424 0.11618536710739136 -0.49039360880851746 119
2.5133302211761475 0.13479764759540558 -0.48136040568351746 119
3.0414180755615234 0.16258828341960907 -0.4763433039188385 119
3.96311092376709 0.21116651594638824 -0.48260313272476196 119
5.420024871826172 0.2878466546535492 -0.4715133011341095 119
8.878750801086426 0.4699786901473999 -0.46241435408592224 119
17.281639099121094 0.9117438793182373 -0.29839175939559937 119
9.129913330078125 0.4800776243209839 2.4377806186676025 107
10.664164543151855 0.558886706829071 2.45460844039917 107
12.679475784301758 0.6622859239578247 2.4582724571228027 107
15.578615188598633 0.8109899759292603 2.4619088172912598 107
20.2985897064209 1.0531495809555054 2.49100923538208 51
20.820940017700195 1.07660710811615 1.820683479309082 51
20.856966018676758 1.074819803237915 1.092513084411621 51
20.812652587890625 1.0688941478729248 0.36309731006622314 51
1.9000670909881592 0.09592103958129883 -0.4995209574699402 119
2.1547799110412598 0.10840266197919846 -0.48926883935928345 119
2.5137853622436523 0.12602367997169495 -0.48136040568351746 119
3.0419669151306152 0.1519707590341568 -0.4763433039188385 119
3.958867311477661 0.19708463549613953 -0.48199379444122314 119
5.42099666595459 0.2689254879951477 -0.4715133011341095 119
8.880337715148926 0.43898317217826843 -0.46241435408592224 119
17.294700622558594 0.8519060015678406 -0.29856449365615845 119
9.126709938049316 0.44796860218048096 2.4364871978759766 107
10.670916557312012 0.5218964219093323 2.4557323455810547 107
12.681711196899414 0.6180222630500793 2.4582724571228027 107
15.576416969299316 0.756365954875946 2.461127519607544 107
20.317012786865234 0.9830074310302734 2.492837429046631 107
nan nan nan 0
21.59373664855957 1.037224531173706 1.1309798955917358 51
nan nan nan 0
1.9052146673202515 0.08951465040445328 -0.5008150935173035 119
2.1551451683044434 0.10088041424751282 -0.48926883935928345 119
2.5142102241516113 0.11724816262722015 -0.48136040568351746 119
3.0424790382385254 0.1413513869047165 -0.4763433039188385 119
3.9248287677764893 0.18165825307369232 -0.47772833704948425 119
5.416926860809326 0.2497715950012207 -0.47107750177383423 119
8.876827239990234 0.40775322914123535 -0.4621535539627075 119
17.207677841186523 0.7874175906181335 -0.29700952768325806 119
9.128218650817871 0.4161076843738556 2.4364871978759766 107
10.672674179077148 0.4846447706222534 2.4557323455810547 107
12.68379020690918 0.5737510919570923 2.4582724571228027 107
15.574029922485352 0.7017672657966614 2.460346221923828 107
20.300491333007812 0.9111917614936829 2.4903998374938965 107
22.007261276245117 0.9839518070220947 1.923962950706482 60
21.956377029418945 0.9778369665145874 1.1498209238052368 60
nan nan nan 0
1.905515432357788 0.08286365866661072 -0.5008150935173035 119
2.1554839611053467 0.09335693717002869 -0.48926883935928345 119
2.514604091644287 0.10847120732069016 -0.48136040568351746 119
3.0429539680480957 0.1307302862405777 -0.4763433039188385 119
3.9353554248809814 0.1683812141418457 -0.4789470434188843 119
5.4177656173706055 0.23086147010326385 -0.47107750177383423 119
8.868219375610352 0.37634140253067017 -0.4616319239139557 119
17.205326080322266 0.7271355986595154 -0.29692310094833374 119
9.124789237976074 0.38403862714767456 2.4351940155029297 107
10.674300193786621 0.4473872482776642 2.4557323455810547 107
12.68571662902832 0.5294728875160217 2.4582724571228027 107
15.571449279785156 0.6471943259239197 2.4595649242401123 107
20.2985897064209 0.8401190638542175 2.489790678024292 107
22.149913787841797 0.9128692746162415 1.9361648559570312 60
22.18914794921875 0.9106069803237915 1.1618582010269165 60
22.15139389038086 0.9051849246025085 0.3863089978694916 60
1.9106189012527466 0.0764046460390091 -0.502109169960022 119
2.1509287357330322 0.08563851565122604 -0.48814404010772705 119
2.514967441558838 0.0996929481625557 -0.48136040568351746 119
3.043391466140747 0.12010760605335236 -0.4763433039188385 119
3.94087815284729 0.15483808517456055 -0.4795564115047455 119
5.423515319824219 0.21214322745800018 -0.4715133011341095 119
8.854511260986328 0.3448004126548767 -0.4608495235443115 119
16.543357849121094 0.6413173079490662 -0.28543323278427124 119
9.126073837280273 0.35218483209609985 2.4351940155029297 107
10.670928955078125 0.40993720293045044 2.45460844039917 107
12.687487602233887 0.48518824577331543 2.4582724571228027 107
15.568678855895996 0.5926480293273926 2.4587836265563965 107
20.31627655029297 0.769822359085083 2.4916186332702637 107
22.157941818237305 0.8357337713241577 1.9366005659103394 60
22.16225242614746 0.8320228457450867 1.1602880954742432 60
22.1494197845459 0.8276698589324951 0.3862217366695404 60
1.9108740091323853 0.06973487883806229 -0.502109169960022 119
2.146346092224121 0.0779530256986618 -0.4870193302631378 119
2.5153000354766846 0.09091346710920334 -0.48136040568351746 119
3.048727512359619 0.10966096818447113 -0.47712549567222595 119
3.9463541507720947 0.14125843346118927 -0.4801657497882843 119
5.424222946166992 0.19321033358573914 -0.4715133011341095 119
8.85067081451416 0.313713401556015 -0.4605886936187744 119
nan nan nan 0
9.122420310974121 0.32015731930732727 2.4339005947113037 107
10.662556648254395 0.3723461925983429 2.4523606300354004 107
12.689104080200195 0.440897673368454 2.4582724571228027 107
15.570652961730957 0.5382996201515198 2.4587836265563965 107
20.328758239746094 0.6992418169975281 2.492837429046631 107
22.155746459960938 0.758212685585022 1.9361648559570312 60
22.160032272338867 0.7544872164726257 1.1600264310836792 60
22.147178649902344 0.7501797080039978 0.38613447546958923 60
1.9159327745437622 0.06322354823350906 -0.5034032464027405 119
2.1466050148010254 0.07046040147542953 -0.4870193302631378 119
2.5156021118164062 0.08213286846876144 -0.48136040568351746 119
3.0490918159484863 0.09901825338602066 -0.47712549567222595 119
3.9815444946289062 0.1286037117242813 -0.4844311773777008 119
5.424864292144775 0.17427508533000946 -0.4715133011341095 119
8.851712226867676 0.28281688690185547 -0.4605886936187744 119
16.517452239990234 0.5248556137084961 -0.28491488099098206 119
9.123481750488281 0.2883121967315674 2.4339005947113037 107
10.658921241760254 0.3349716067314148 2.4512367248535156 107
12.69056510925293 0.39660176634788513 2.4582724571228027 107
15.572437286376953 0.4839446246623993 2.4587836265563965 107
20.34099578857422 0.628583550453186 2.494055986404419 107
22.143320083618164 0.6804111003875732 1.9348573684692383 60
22.15753936767578 0.6769771575927734 1.1597647666931152 60
22.149662017822266 0.6728670597076416 0.38613447546958923 60
1.9161417484283447 0.05653530731797218 -0.5034032464027405 119
2.151707649230957 0.06310975551605225 -0.48814404010772705 119
2.515873432159424 0.07335128635168076 -0.48136040568351746 119
3.0543551445007324 0.08851739764213562 -0.477907657623291 119
3.9571657180786133 0.11399024724960327 -0.48138442635536194 119
5.430418491363525 0.1554802656173706 -0.4719490706920624 119
8.857636451721191 0.2520589828491211 -0.4608495235443115 119
nan nan nan 0
9.124433517456055 0.25646352767944336 2.4339005947113037 107
10.655155181884766 0.29762694239616394 2.450112819671631 107
12.691872596740723 0.3523010015487671 2.4582724571228027 107
15.578968048095703 0.4297198951244354 2.4595649242401123 107
20.35795021057129 0.5579842925071716 2.4958839416503906 107
22.125646591186523 0.6025699973106384 1.9331144094467163 60
22.144794464111328 0.5992236137390137 1.1589797735214233 60
22.016944885253906 0.5919186472892761 0.3837783932685852 60
1.9114993810653687 0.04972079396247864 -0.502109169960022 119
2.156785011291504 0.055724337697029114 -0.48926883935928345 119
2.5161139965057373 0.06456880271434784 -0.48136040568351746 119
3.059582471847534 0.07798100262880325 -0.47868984937667847 119
3.962500810623169 0.10030205547809601 -0.48199379444122314 119
5.4309282302856445 0.13652361929416656 -0.4719490706920624 119
8.8584623336792 0.22113850712776184 -0.4608495235443115 119
17.245384216308594 0.4274939000606537 -0.2974414527416229 119
9.125272750854492 0.22461174428462982 2.4339005947113037 107
10.656129837036133 0.2604316771030426 2.450112819671631 107
12.688117980957031 0.3078768849372864 2.4573192596435547 107
15.585310935974121 0.37545546889305115 2.460346221923828 107
20.33000373840332 0.4862064719200134 2.492227792739868 107
21.978225708007812 0.5217867493629456 1.9200409650802612 60
21.992006301879883 0.5182734131813049 1.1508677005767822 60
21.97389793395996 0.514009416103363 0.38299304246902466 60
1.9116613864898682 0.04304811358451843 -0.502109169960022 119
2.161837339401245 0.048304248601198196 -0.49039360880851746 119
2.516324281692505 0.05578552931547165 -0.48136040568351746 119
3.0598361492156982 0.06730059534311295 -0.47868984937667847 119
nan nan nan 0
5.441330909729004 0.1177808865904808 -0.47282060980796814 119
8.86417293548584 0.19032254815101624 -0.46111032366752625 119
17.24677085876465 0.36729371547698975 -0.2974414527416229 119
9.126001358032227 0.1927572339773178 2.4339005947113037 107
10.65210247039795 0.2231312245130539 2.448988676071167 107
12.689114570617676 0.2635852098464966 2.4573192596435547 107
15.591463088989258 0.3211519718170166 2.461127519607544 107
20.30677032470703 0.41473186016082764 2.4891812801361084 107
21.969955444335938 0.44486358761787415 1.919169545173645 60
21.988689422607422 0.4414035975933075 1.1506059169769287 60
21.970556259155273 0.4372035562992096 0.3829057514667511 60
1.9069712162017822 0.03628303483128548 -0.5008150935173035 119
2.1619927883148193 0.04075773432850838 -0.49039360880851746 119
2.5214109420776367 0.047093238681554794 -0.4823136329650879 119
3.0600523948669434 0.05661936104297638 -0.47868984937667847 119
3.948218584060669 0.07236354053020477 -0.4801657497882843 119
5.446689605712891 0.09887679666280746 -0.4732564091682434 119
8.859790802001953 0.1592898815870285 -0.4608495235443115 119
17.22295570373535 0.3066440522670746 -0.29700952768325806 119
9.126618385314941 0.16090038418769836 2.4339005947113037 107
10.647944450378418 0.18586206436157227 2.4478647708892822 107
12.685051918029785 0.21920554339885712 2.4563660621643066 107
15.592489242553711 0.26672565937042236 2.461127519607544 107
20.283283233642578 0.3434254229068756 2.4861345291137695 107
21.966392517089844 0.3680879771709442 1.9187337160110474 60
21.990095138549805 0.3646460771560669 1.1506059169769287 60
21.971948623657227 0.36050930619239807 0.3829057514667511 60
1.9070862531661987 0.02962624281644821 -0.5008150935173035 119
2.15725040435791 0.03313589468598366 -0.48926883935928345 119
2.5215601921081543 0.03829158470034599 -0.4823136329650879 119
3.0602314472198486 0.0459374375641346 -0.47868984937667847 119
nan nan nan 0
5.451982021331787 0.07993672788143158 -0.4736922085285187 119
8.855299949645996 0.12829014658927917 -0.4605886936187744 119
17.238916397094727 0.24673748016357422 -0.29726868867874146 119
9.127123832702637 0.12904155254364014 2.4339005947113037 107
10.648529052734375 0.14869265258312225 2.4478647708892822 107
12.685738563537598 0.17492511868476868 2.4563660621643066 107
15.593324661254883 0.21229609847068787 2.461127519607544 107
20.264511108398438 0.27235469222068787 2.4836971759796143 107
21.96256446838379 0.2913426458835602 1.9182980060577393 60
21.981250762939453 0.2877534031867981 1.1500825881958008 60
21.96807861328125 0.2837461531162262 0.3828185200691223 60
1.9023487567901611 0.02291092649102211 -0.4995209574699402 119
2.157352924346924 0.02560548484325409 -0.48926883935928345 119
2.5216784477233887 0.029489465057849884 -0.4823136329650879 119
3.0554349422454834 0.03519807010889053 -0.477907657623291 119
nan nan nan 0
5.452227592468262 0.06090526655316353 -0.4736922085285187 119
8.850700378417969 0.0973237007856369 -0.4603278934955597 119
17.254669189453125 0.18672320246696472 -0.29752781987190247 119
9.127518653869629 0.09718116372823715 2.4339005947113037 107
10.644112586975098 0.11147045344114304 2.4467411041259766 107
12.681365013122559 0.13059201836585999 2.4554131031036377 107
15.584094047546387 0.15776395797729492 2.4595649242401123 107
20.265336990356445 0.20161671936511993 2.4836971759796143 107
21.958465576171875 0.21462851762771606 1.917862057685852 60
21.97213363647461 0.21092690527439117 1.1495592594146729 60
21.958934783935547 0.2069672793149948 0.38264399766921997 60
1.9024170637130737 0.0162703488022089 -0.4995209574699402 119
2.152557373046875 0.0180339477956295 -0.48814404010772705 119
2.5266740322113037 0.02072724513709545 -0.48326680064201355 119
3.055539131164551 0.024532396346330643 -0.477907657623291 119
nan nan nan 0
5.452407360076904 0.04187307134270668 -0.4736922085285187 119
8.845993041992188 0.06639091670513153 -0.4600670635700226 119
17.2302188873291 0.12630878388881683 -0.2970958948135376 119
9.127802848815918 0.06531958281993866 2.4339005947113037 107
10.644436836242676 0.0743148922920227 2.4467411041259766 107
12.681743621826172 0.08632500469684601 2.4554131031036377 107
15.574673652648926 0.1032988503575325 2.4580023288726807 107
20.26591682434082 0.13087624311447144 2.4836971759796143 107
21.9541015625 0.13794657588005066 1.917426347732544 60
21.97772979736328 0.13425906002521515 1.1498209238052368 60
21.959524154663086 0.13031503558158875 0.38264399766921997 60
1.9072918891906738 0.009654021821916103 -0.5008150935173035 119
2.1526072025299072 0.010520009323954582 -0.48814404010772705 119
2.526731014251709 0.011907381005585194 -0.48326680064201355 119
3.0506677627563477 0.013844015076756477 -0.47712549567222595 119
nan nan nan 0
5.447539329528809 0.02281949855387211 -0.4732564091682434 119
8.841177940368652 0.035492196679115295 -0.45980626344680786 119
17.215559005737305 0.06610574573278427 -0.2968367338180542 119
9.132805824279785 0.033474911004304886 2.4351940155029297 107
10.644631385803223 0.03715841844677925 2.4467411041259766 107
12.681967735290527 0.04205693304538727 2.4554131031036377 107
15.565061569213867 0.048901427537202835 2.456439733505249 107
20.281139373779297 0.060178376734256744 2.485525369644165 107
nan nan nan 0
nan nan nan 0
21.9598445892334 0.05366120859980583 0.38264399766921997 60
1.9073139429092407 0.0029962719418108463 -0.5008150935173035 119
2.1526310443878174 0.003005943726748228 -0.48814404010772705 119
2.526757001876831 0.003087372286245227 -0.48326680064201355 119
3.055635929107666 0.003200284671038389 -0.477907657623291 119
nan nan nan 0
5.452566623687744 0.0038073761388659477 -0.4736922085285187 119
8.841248512268066 0.004630508832633495 -0.45980626344680786 119
17.230680465698242 0.006017062347382307 -0.2970958948135376 119
9.132866859436035 0.00159526860807091 2.4351940155029297 107
10.644696235656738 -0.0 2.4467411041259766 107
12.682037353515625 -0.0022134329192340374 2.4554131031036377 107
15.555261611938477 -0.005429810844361782 2.4548771381378174 107
20.301076889038086 -0.010629619471728802 2.487962484359741 107
nan nan nan 0
22.262741088867188 -0.019427910447120667 1.1647366285324097 80
nan nan nan 0
1.9073128700256348 -0.0036617822479456663 -0.5008150935173035 119
2.1575000286102295 -0.004518664442002773 -0.48926883935928345 119
2.526752471923828 -0.00573302898555994 -0.48326680064201355 119
3.055628538131714 -0.007466323673725128 -0.477907657623291 119
3.968719244003296 -0.010390105657279491 -0.48260313272476196 119
5.457528114318848 -0.015240331180393696 -0.47412797808647156 119
8.84121036529541 -0.02623247727751732 -0.45980626344680786 119
22.869728088378906 -0.07184760272502899 -0.3945440351963043 119
9.137646675109863 -0.030301693826913834 2.4364871978759766 107
10.644631385803223 -0.03715692088007927 2.4467411041259766 107
12.681951522827148 -0.046481989324092865 2.4554131031036377 107
15.555147171020508 -0.05972777307033539 2.4548771381378174 107
20.29595184326172 -0.08147361129522324 2.4873533248901367 107
23.871997833251953 -0.09999537467956543 2.0852010250091553 80
22.9166316986084 -0.09999330341815948 1.1990166902542114 80
nan nan nan 0
1.9072884321212769 -0.010319524444639683 -0.5008150935173035 119
2.157471179962158 -0.012049717828631401 -0.48926883935928345 119
2.526717185974121 -0.014553005807101727 -0.48326680064201355 119
3.055583953857422 -0.018132410943508148 -0.477907657623291 119
3.963696002960205 -0.024213140830397606 -0.48199379444122314 119
5.457441329956055 -0.03429056704044342 -0.47412797808647156 119
8.841065406799316 -0.05709390342235565 -0.45980626344680786 119
nan nan nan 0
9.13748550415039 -0.06219784915447235 2.4364871978759766 107
10.644436836242676 -0.07431339472532272 2.4467411041259766 107
12.68171215057373 -0.09074997901916504 2.4554131031036377 107
15.554844856262207 -0.11402500420808792 2.4548771381378174 107
20.29058265686035 -0.1522819548845291 2.486743688583374 107
25.39563751220703 -0.19502833485603333 2.2185494899749756 80
25.547452926635742 -0.20065335929393768 1.3369219303131104 80
26.728322982788086 -0.2145933359861374 0.46589195728302 80
1.9072407484054565 -0.016977140679955482 -0.5008150935173035 119
2.162287950515747 -0.01962484046816826 -0.49039360880851746 119
2.526650905609131 -0.02337280474603176 -0.48326680064201355 119
3.0604403018951416 -0.028844822198152542 -0.47868984937667847 119
3.9586246013641357 -0.03800123557448387 -0.48138442635536194 119
5.45728874206543 -0.05334038287401199 -0.47412797808647156 119
8.845804214477539 -0.08800429850816727 -0.4600670635700226 119
22.783687591552734 -0.230645090341568 -0.3930754065513611 119
9.137212753295898 -0.09409324824810028 2.4364871978759766 107
10.639240264892578 -0.11141793429851532 2.445617198944092 107
12.681318283081055 -0.13501685857772827 2.4554131031036377 107
15.55928897857666 -0.16837428510189056 2.455658197402954 107
20.270078659057617 -0.22289012372493744 2.484306573867798 107
27.317337036132812 -0.3051503002643585 2.3867599964141846 80
27.264127731323242 -0.3093149960041046 1.426939845085144 80
