# .PCD v0.7 - Point Cloud Data file format
VERSION 0.7
FIELDS x y z intensity
SIZE 4 4 4 4
TYPE F F F F
COUNT 1 1 1 1
WIDTH 796
HEIGHT 1
VIEWPOINT 0 0 0 1 0 0 0
POINTS 796
DATA ascii
1.960769772529602 -1.662853717803955 -0.4918454885482788 119
2.4129414558410645 -2.0470473766326904 -0.4951154887676239 119
3.203768730163574 -2.718916416168213 -0.5112424492835999 119
3.480762243270874 -2.95503568649292 -0.396123468875885 109
3.473489761352539 -2.949904680252075 -0.2360321581363678 109
3.484774589538574 -2.960535764694214 -0.07835590839385986 109
3.4702301025390625 -2.9492223262786865 1.209190845489502 109
3.473788022994995 -2.9532902240753174 1.0429837703704834 109
3.4689905643463135 -2.9502549171447754 0.876933217048645 109
3.4821667671203613 -2.962508201599121 0.7172428369522095 109
3.4758594036102295 -2.9581878185272217 0.5557242035865784 109
3.4842183589935303 -2.966350793838501 0.396994411945343 109
3.4731369018554688 -2.9579622745513916 0.2370818704366684 109
3.4768214225769043 -2.9621472358703613 0.07905939221382141 109
nan nan nan 0
nan nan nan 0
nan nan nan 0
nan nan nan 0
3.198030948638916 -2.7333078384399414 -0.5118517875671387 119
3.481783390045166 -2.9768781661987305 -0.39743080735206604 109
3.4745547771453857 -2.971747875213623 -0.23681457340717316 109
3.4820163249969482 -2.979182004928589 -0.07852869480848312 109
3.4709227085113525 -2.9707398414611816 1.2130706310272217 109
3.474560260772705 -2.9749038219451904 1.0463554859161377 109
3.4661266803741455 -2.968731641769409 0.8788396716117859 109
3.4793055057525635 -2.981072187423706 0.7188054919242859 109
3.476815938949585 -2.9799914360046387 0.5575522184371948 109
3.481405258178711 -2.9849793910980225 0.39786598086357117 109
3.47416090965271 -2.9798200130462646 0.23786692321300507 109
3.4778425693511963 -2.984031915664673 0.07932118326425552 109
nan nan nan 0
nan nan nan 0
nan nan nan 0
2.3274662494659424 -2.002643585205078 -0.480254203081131 119
3.1884706020355225 -2.7444543838500977 -0.5118517875671387 119
3.4826948642730713 -2.9987640380859375 -0.3987381160259247 109
3.4755101203918457 -2.9936342239379883 -0.2375970035791397 109
3.4829578399658203 -3.001108169555664 -0.07878786325454712 109
3.467848300933838 -2.9891438484191895 1.215657114982605 109
3.475224494934082 -2.9965591430664062 1.049727201461792 109
3.466892957687378 -2.9904303550720215 0.8816992044448853 109
3.480095386505127 -3.002877950668335 0.7211494445800781 109
3.4739065170288086 -2.9985954761505127 0.5587709546089172 109
3.482274293899536 -3.0068793296813965 0.3991732895374298 109
3.475074052810669 -3.001720905303955 0.23865194618701935 109
3.474970579147339 -3.002690553665161 0.07949570566415787 109
nan nan nan 0
nan nan nan 0
nan nan nan 0
nan nan nan 0
3.1826212406158447 -2.7588181495666504 -0.5124611854553223 119
3.4834954738616943 -3.0206921100616455 -0.4000454545021057 109
3.4763545989990234 -3.015563488006592 -0.23837941884994507 109
3.4800121784210205 -3.0198006629943848 -0.07896063476800919 109
3.4683351516723633 -3.0107290744781494 1.2195367813110352 109
3.472100257873535 -3.0150604248046875 1.0519750118255615 109
3.463843584060669 -3.008951187133789 0.8836055397987366 109
3.47704815864563 -3.021486282348633 0.7227120995521545 109
3.474654197692871 -3.0204708576202393 0.5605989694595337 109
3.4792747497558594 -3.0255534648895264 0.40004482865333557 109
3.472109317779541 -3.0203869342803955 0.23917530477046967 109
3.472010850906372 -3.0213658809661865 0.07967023551464081 109
1.415878176689148 -1.2342790365219116 -0.4930504858493805 119
1.6260641813278198 -1.4180065393447876 -0.48926883935928345 119
1.9077719449996948 -1.6642554998397827 -0.4842199981212616 119
2.39528751373291 -2.0902788639068604 -0.4974619746208191 119
3.176710605621338 -2.773174524307251 -0.5130705237388611 119
3.4841854572296143 -3.0426623821258545 -0.40135282278060913 109
3.473328113555908 -3.034250020980835 -0.2389010488986969 109
3.480743408203125 -3.0417990684509277 -0.07921981066465378 109
3.4650774002075195 -3.0291755199432373 1.222123384475708 109
3.4725568294525146 -3.036783456802368 1.0553467273712158 109
3.464402437210083 -3.030719757080078 0.8864651322364807 109
3.473912239074707 -3.040109634399414 0.7242746353149414 109
3.471558094024658 -3.039119243621826 0.5618177056312561 109
3.476186752319336 -3.044243097305298 0.4009164273738861 109
3.4728124141693115 -3.0423593521118164 0.23996035754680634 109
3.472722291946411 -3.043351650238037 0.07993201911449432 109
1.415407419204712 -1.2421531677246094 -0.4943445920944214 119
1.6325867176055908 -1.432748556137085 -0.4926431179046631 119
1.928354024887085 -1.6929080486297607 -0.49089235067367554 119
2.355313301086426 -2.068464994430542 -0.49042245745658875 119
3.167982816696167 -2.7831406593322754 -0.5130705237388611 119
3.4858338832855225 -3.06345796585083 -0.40266016125679016 109
3.4750287532806396 -3.055037021636963 -0.23968346416950226 109
3.478677749633789 -3.059321641921997 -0.07939258962869644 109
3.4664225578308105 -3.049617052078247 1.2260030508041382 109
3.4703142642974854 -3.0541152954101562 1.0575945377349854 109
3.465916156768799 -3.051318407058716 0.8893246650695801 109
3.47175669670105 -3.0575361251831055 0.7258372902870178 109
3.4731645584106445 -3.059852361679077 0.5636457204818726 109
3.4740796089172363 -3.0617356300354004 0.40178799629211426 109
3.4707281589508057 -3.0598583221435547 0.24048370122909546 109
3.4706428050994873 -3.0608599185943604 0.08010653406381607 109
1.4148998260498047 -1.250037670135498 -0.4956386983394623 119
1.616623878479004 -1.4287596940994263 -0.48926883935928345 119
1.904046893119812 -1.6833738088607788 -0.4861263632774353 119
2.388770341873169 -2.1126623153686523 -0.4990263283252716 119
3.1582484245300293 -2.794182062149048 -0.5130705237388611 119
3.4713892936706543 -3.072305679321289 -0.4022243618965149 109
3.471820831298828 -3.0737686157226562 -0.2402050942182541 109
3.4754629135131836 -3.078075408935547 -0.0795653760433197 109
3.466601848602295 -3.0713071823120117 1.2298829555511475 109
3.4705705642700195 -3.0759048461914062 1.0609662532806396 109
3.466262102127075 -3.073166608810425 0.8921842575073242 109
3.4721474647521973 -3.0794670581817627 0.7281812429428101 109
3.4698867797851562 -3.0785441398620605 0.5648643374443054 109
3.4745466709136963 -3.0837626457214355 0.4030953049659729 109
3.4712278842926025 -3.081900119781494 0.24126875400543213 109
3.471151113510132 -3.0829155445098877 0.08036833256483078 109
1.4139164686203003 -1.2584261894226074 -0.4969327747821808 119
1.633208155632019 -1.4541131258010864 -0.49601736664772034 119
1.9125252962112427 -1.7033991813659668 -0.4899391233921051 119
2.3220152854919434 -2.0688400268554688 -0.48651158809661865 119
3.151690721511841 -2.8090407848358154 -0.5136798024177551 119
3.4415159225463867 -3.068434238433838 -0.4000454545021057 109
3.471710443496704 -3.0964431762695312 -0.24098752439022064 109
3.475348711013794 -3.1007776260375977 -0.0798245444893837 109
3.4661316871643066 -3.0936405658721924 1.2337626218795776 109
3.4665424823760986 -3.095094680786133 1.0632140636444092 109
3.462296724319458 -3.0923898220062256 0.8940906524658203 109
3.468202829360962 -3.0987534523010254 0.7297438979148865 109
3.4696810245513916 -3.101163148880005 0.5666924715042114 109
3.4706473350524902 -3.103116750717163 0.40396684408187866 109
3.471073865890503 -3.104588508605957 0.2420537918806076 109
3.4672794342041016 -3.1022839546203613 0.08054284751415253 109
1.4059187173843384 -1.260130524635315 -0.4956386983394623 119
1.6172406673431396 -1.4500483274459839 -0.4926431179046631 119
1.9065675735473633 -1.7100646495819092 -0.4899391233921051 119
2.355212926864624 -2.1132116317749023 -0.4951154887676239 119
3.1418659687042236 -2.8200249671936035 -0.5136798024177551 119
3.419665575027466 -3.0704457759857178 -0.3987381160259247 0
3.4683101177215576 -3.1152162551879883 -0.24150915443897247 109
3.4719412326812744 -3.119572639465332 -0.07999732345342636 109
3.4624955654144287 -3.112178087234497 1.236349105834961 109
3.466586112976074 -3.1169486045837402 1.0665857791900635 109
3.4624288082122803 -3.1143035888671875 0.8969501852989197 109
3.4683785438537598 -3.120750665664673 0.7320877909660339 109
3.469900369644165 -3.123215436935425 0.5685204863548279 109
3.4708991050720215 -3.125211715698242 0.4052742123603821 109
3.4676356315612793 -3.123368978500366 0.24257713556289673 109
3.467571496963501 -3.1244077682495117 0.08080463856458664 109
1.4015114307403564 -1.2650303840637207 -0.4956386983394623 119
1.6121692657470703 -1.455684781074524 -0.4926431179046631 119
1.900586724281311 -1.7167093753814697 -0.4899391233921051 119
2.3551502227783203 -2.1280415058135986 -0.4966798424720764 119
3.1320033073425293 -2.83097505569458 -0.5136798024177551 119
3.3978428840637207 -3.0723419189453125 -0.39743080735206604 0
3.46852445602417 -3.137352466583252 -0.24229156970977783 109
3.4647374153137207 -3.135026693344116 -0.08008371293544769 109
3.4623539447784424 -3.133969306945801 1.2402288913726807 109
3.466519355773926 -3.138840675354004 1.0699574947357178 109
3.4624500274658203 -3.136255979537964 0.899809718132019 109
3.468442916870117 -3.1427862644195557 0.7344316840171814 109
3.4663310050964355 -3.141974687576294 0.5697391033172607 109
3.471038818359375 -3.147345542907715 0.4065815508365631 109
3.4678072929382324 -3.1455185413360596 0.2433622032403946 109
3.464048385620117 -3.1432113647460938 0.08097916096448898 109
1.3970870971679688 -1.2699148654937744 -0.4956386983394623 119
1.6070780754089355 -1.461303472518921 -0.4926431179046631 119
1.8909519910812378 -1.720030665397644 -0.48898595571517944 119
2.340402603149414 -2.1296024322509766 -0.4951154887676239 119
3.1221022605895996 -2.841890573501587 -0.5136798024177551 119
3.376049280166626 -3.0741233825683594 -0.396123468875885 115
3.4649341106414795 -3.156165361404419 -0.24281316995620728 109
3.4574685096740723 -3.1504690647125244 -0.08017010241746902 109
3.4585318565368652 -3.152543306350708 1.242815375328064 109
3.4627418518066406 -3.157487392425537 1.0722053050994873 109
3.4587342739105225 -3.1549389362335205 0.9017161726951599 109
3.468395471572876 -3.164860725402832 0.7367756366729736 109
3.466338634490967 -3.164092779159546 0.5715672373771667 109
3.4710657596588135 -3.16951847076416 0.40788885951042175 109
3.4678659439086914 -3.1677069664001465 0.24414722621440887 109
3.4641270637512207 -3.165400743484497 0.0812409445643425 109
1.3926457166671753 -1.2747838497161865 -0.4956386983394623 119
1.601967453956604 -1.4669042825698853 -0.4926431179046631 119
1.8849364519119263 -1.7266209125518799 -0.48898595571517944 119
2.3293135166168213 -2.134422540664673 -0.49433329701423645 119
3.115821361541748 -2.8561246395111084 -0.5142892003059387 119
3.3542842864990234 -3.0757899284362793 -0.3948161005973816 115
3.464935064315796 -3.1783671379089355 -0.24359561502933502 109
3.4427664279937744 -3.1591384410858154 -0.08008371293544769 109
3.4581806659698486 -3.1743948459625244 1.2466950416564941 109
3.4624645709991455 -3.179441213607788 1.0755770206451416 109
3.4585442543029785 -3.1769540309906006 0.9045757055282593 109
3.464599847793579 -3.183631658554077 0.73833829164505 109
3.466233491897583 -3.186248779296875 0.5733952522277832 109
3.470980405807495 -3.19173002243042 0.4091961979866028 109
3.464137077331543 -3.1865530014038086 0.244670569896698 109
3.4640934467315674 -3.187629461288452 0.08150273561477661 109
1.3917385339736938 -1.2829108238220215 -0.4969327747821808 119
1.6004186868667603 -1.4757896661758423 -0.4937678575515747 119
1.878898024559021 -1.7331900596618652 -0.48898595571517944 119
2.3182194232940674 -2.1391913890838623 -0.4935511350631714 119
3.1167726516723633 -2.877082347869873 -0.5161172747612 119
3.3325493335723877 -3.0773422718048096 -0.39350879192352295 115
3.46482253074646 -3.20060658454895 -0.24437803030014038 109
3.4500763416290283 -3.188101053237915 -0.08051566034555435 109
3.457719087600708 -3.1962826251983643 1.2505749464035034 109
3.462076425552368 -3.2014312744140625 1.078948736190796 109
3.458242893218994 -3.1990060806274414 0.9074352383613586 109
3.4643402099609375 -3.205768585205078 0.7406821846961975 109
3.462373971939087 -3.205071210861206 0.5746139287948608 109
3.470782518386841 -3.213979482650757 0.4105035662651062 109
3.463982105255127 -3.208805799484253 0.24545563757419586 109
3.4639461040496826 -3.2098958492279053 0.08176451921463013 109
1.387251853942871 -1.2877609729766846 -0.4969327747821808 119
1.5952574014663696 -1.4813672304153442 -0.4937678575515747 119
1.8800287246704102 -1.746419072151184 -0.49089235067367554 119
2.3107383251190186 -2.147270441055298 -0.4935511350631714 119
3.113980293273926 -2.894702196121216 -0.5173359513282776 119
3.3108441829681396 -3.07878041267395 -0.3922014534473419 115
3.4609410762786865 -3.2194833755493164 -0.24489964544773102 109
3.457226037979126 -3.217153310775757 -0.08094761520624161 109
3.457146644592285 -3.218205451965332 1.2544546127319336 109
3.4615769386291504 -3.2234575748443604 1.0823204517364502 109
3.4578299522399902 -3.221095085144043 0.9102948307991028 109
3.463967800140381 -3.22794246673584 0.7430261373519897 109
3.4620554447174072 -3.2272894382476807 0.5764420032501221 109
3.470470666885376 -3.2362663745880127 0.41181087493896484 109
3.4637136459350586 -3.231095552444458 0.24624066054821014 109
3.4636850357055664 -3.2321996688842773 0.08202630281448364 109
1.3827482461929321 -1.292595624923706 -0.4969327747821808 119
1.5900766849517822 -1.486926794052124 -0.4937678575515747 119
1.8775055408477783 -1.7563239336013794 -0.4918454885482788 119
2.3068344593048096 -2.1586973667144775 -0.49433329701423645 119
3.1147255897521973 -2.9157285690307617 -0.519163966178894 119
3.285534143447876 -3.076700448989868 -0.390458345413208 115
3.4606144428253174 -3.241786003112793 -0.24568209052085876 109
3.4605660438537598 -3.242875099182129 -0.08129317313432693 109
3.4564626216888428 -3.2401626110076904 1.2583343982696533 109
3.460965394973755 -3.245518684387207 1.0856921672821045 109
3.4573042392730713 -3.2432196140289307 0.9131544232368469 109
3.4634833335876465 -3.250152826309204 0.745370090007782 109
3.458005666732788 -3.246147632598877 0.5776606202125549 109
3.4664149284362793 -3.2551801204681396 0.4126824140548706 109
3.4596924781799316 -3.2500038146972656 0.24676401913166046 109
3.463310718536377 -3.2545409202575684 0.08228808641433716 109
1.3782278299331665 -1.2974144220352173 -0.4969327747821808 119
1.5813301801681519 -1.4891283512115479 -0.4926431179046631 119
1.8785088062286377 -1.769598126411438 -0.4937518835067749 119
2.3028793334960938 -2.17012357711792 -0.4951154887676239 119
3.0973072052001953 -2.9197752475738525 -0.5179452896118164 119
3.2639029026031494 -3.0778982639312744 -0.3891509771347046 115
3.4601736068725586 -3.264124870300293 -0.24646450579166412 109
3.4637691974639893 -3.2686595916748047 -0.08163873851299286 109
3.4556679725646973 -3.262155055999756 1.262214183807373 109
3.4602420330047607 -3.2676150798797607 1.0890638828277588 109
3.4566659927368164 -3.2653796672821045 0.9160139560699463 109
3.4628851413726807 -3.2723987102508545 0.7477139830589294 109
3.457472324371338 -3.2684261798858643 0.5794887542724609 109
3.465888261795044 -3.2775275707244873 0.413989782333374 109
3.4592084884643555 -3.2723548412323 0.24754907190799713 109
3.462822675704956 -3.276918888092041 0.08254987746477127 109
1.3736906051635742 -1.3022174835205078 -0.4969327747821808 119
1.5761224031448364 -1.4946390390396118 -0.4926431179046631 119
1.872320294380188 -1.7761446237564087 -0.4937518835067749 119
2.295290231704712 -2.1781489849090576 -0.4951154887676239 119
3.07989764213562 -2.9237353801727295 -0.516726553440094 119
3.238691568374634 -3.0755527019500732 -0.3874078392982483 115
3.455998659133911 -3.2830612659454346 -0.24698610603809357 109
3.463209867477417 -3.2910614013671875 -0.08189790695905685 109
3.454761266708374 -3.2841806411743164 1.2660939693450928 109
3.4594063758850098 -3.289746046066284 1.092435598373413 109
3.452359199523926 -3.2841920852661133 0.9179203510284424 109
3.4621737003326416 -3.294679641723633 0.7500578761100769 109
3.4568259716033936 -3.290740489959717 0.5813167691230774 109
3.4616405963897705 -3.296475648880005 0.4148613214492798 109
3.4586105346679688 -3.294741630554199 0.2483340948820114 109
3.458601236343384 -3.295883893966675 0.08272439986467361 109
1.3691366910934448 -1.3070045709609985 -0.4969327747821808 119
1.5673719644546509 -1.4967669248580933 -0.4915183484554291 119
1.8625599145889282 -1.7792789936065674 -0.49279871582984924 119
2.287672996520996 -2.186147689819336 -0.4951154887676239 119
3.0660860538482666 -2.931039333343506 -0.5161172747612 119
3.2171366214752197 -3.0765116214752197 -0.38610053062438965 115
3.4553420543670654 -3.305459976196289 -0.2477685511112213 109
3.4625370502471924 -3.313499927520752 -0.08215708285570145 109
3.4537429809570312 -3.3062398433685303 1.269973635673523 109
3.458458662033081 -3.31191086769104 1.0958073139190674 109
3.451507568359375 -3.3064091205596924 0.9207798838615417 109
3.4613492488861084 -3.3169960975646973 0.7524018883705139 109
3.4560651779174805 -3.313089609146118 0.5831447839736938 109
3.46089768409729 -3.3188815116882324 0.4161686897277832 109
3.4542958736419678 -3.3137080669403076 0.24885746836662292 109
3.4578964710235596 -3.3183209896087646 0.08298619091510773 109
1.3680477142333984 -1.3151228427886963 -0.4982268810272217 119
1.5621378421783447 -1.5022289752960205 -0.4915183484554291 119
1.8563376665115356 -1.7857697010040283 -0.49279871582984924 119
2.2800281047821045 -2.194119930267334 -0.4951154887676239 119
3.0558359622955322 -2.9417240619659424 -0.5161172747612 119
3.1920268535614014 -3.0739026069641113 -0.38435742259025574 115
3.454571008682251 -3.3278934955596924 -0.24855098128318787 109
3.458148956298828 -3.3325042724609375 -0.08232985436916351 109
3.4526126384735107 -3.328331232070923 1.2738534212112427 109
3.457397937774658 -3.334108591079712 1.0991790294647217 109
3.447009801864624 -3.3252525329589844 0.9226862192153931 109
3.4604108333587646 -3.339346170425415 0.7547457814216614 109
3.455190896987915 -3.3354737758636475 0.5849727988243103 109
3.460040807723999 -3.341322422027588 0.41747599840164185 109
3.4534807205200195 -3.3361523151397705 0.2496425062417984 109
3.4570775032043457 -3.3407933712005615 0.08324797451496124 109
1.3634488582611084 -1.3198901414871216 -0.4982268810272217 119
1.556884527206421 -1.507672667503357 -0.4915183484554291 119
1.850092887878418 -1.7922385931015015 -0.49279871582984924 119
2.2759013175964355 -2.2055017948150635 -0.49589765071868896 119
3.045548915863037 -2.9523730278015137 -0.5161172747612 119
3.1705501079559326 -3.0746233463287354 -0.3830500841140747 115
3.4536848068237305 -3.3503618240356445 -0.24933339655399323 109
3.4572582244873047 -3.354999542236328 -0.08258902281522751 109
3.4513704776763916 -3.3504559993743896 1.2777332067489624 109
3.456223964691162 -3.3563392162323 1.102550745010376 109
3.445943593978882 -3.347524881362915 0.925545871257782 109
3.4593582153320312 -3.3617300987243652 0.7570896744728088 109
3.454202651977539 -3.3578925132751465 0.5868008732795715 109
3.459069013595581 -3.363797426223755 0.4187833368778229 109
3.4525516033172607 -3.3586320877075195 0.2504275441169739 109
3.4561429023742676 -3.363300085067749 0.08350975811481476 109
1.3588331937789917 -1.324641466140747 -0.4982268810272217 119
1.5516122579574585 -1.5130980014801025 -0.4915183484554291 119
1.8438255786895752 -1.7986856698989868 -0.49279871582984924 119
2.268188953399658 -2.213432788848877 -0.49589765071868896 119
3.0352249145507812 -2.9629859924316406 -0.5161172747612 119
3.1455438137054443 -3.0717520713806152 -0.3813069760799408 115
3.4455409049987793 -3.3658862113952637 -0.24959421157836914 109
3.4562528133392334 -3.3775296211242676 -0.0828481987118721 109
3.4500153064727783 -3.3726115226745605 1.2816129922866821 109
3.45493745803833 -3.378602981567383 1.1059224605560303 109
3.44476318359375 -3.3698298931121826 0.9284054040908813 109
3.458191156387329 -3.3841471672058105 0.7594336271286011 109
3.453099012374878 -3.3803441524505615 0.588628888130188 109
3.457982301712036 -3.3863062858581543 0.4200906753540039 109
3.451507091522217 -3.381145715713501 0.25121256709098816 109
3.4515230655670166 -3.3823421001434326 0.0836842879652977 109
1.3542011976242065 -1.3293765783309937 -0.4982268810272217 119
1.546321153640747 -1.5185048580169678 -0.4915183484554291 119
1.8375356197357178 -1.8051109313964844 -0.49279871582984924 119
2.260448694229126 -2.221336841583252 -0.49589765071868896 119
3.0248632431030273 -2.973562717437744 -0.5161172747612 119
3.12414813041687 -3.0722360610961914 -0.37999963760375977 115
3.4230921268463135 -3.3673882484436035 -0.24881179630756378 109
3.4551315307617188 -3.400092840194702 -0.0831073671579361 109
3.448547601699829 -3.394798755645752 1.2854926586151123 109
3.4535369873046875 -3.400897741317749 1.1092941761016846 109
3.4434690475463867 -3.392167329788208 0.9312649369239807 109
3.4569106101989746 -3.40659761428833 0.7617775797843933 109
3.451881170272827 -3.4028289318084717 0.5904569029808044 109
3.4567806720733643 -3.408848524093628 0.42139801383018494 109
3.450347900390625 -3.4036929607391357 0.25199761986732483 109
3.4503703117370605 -3.4049036502838135 0.08394607156515121 109
1.3495525121688843 -1.3340955972671509 -0.4982268810272217 119
1.541011095046997 -1.5238932371139526 -0.4915183484554291 119
1.831223487854004 -1.811514139175415 -0.49279871582984924 119
2.252681255340576 -2.2292137145996094 -0.49589765071868896 119
3.01446533203125 -2.9841034412384033 -0.5161172747612 119
3.0992472171783447 -3.0691030025482178 -0.3782564699649811 115
3.397127866744995 -3.365260362625122 -0.2477685511112213 116
3.453895092010498 -3.42268967628479 -0.08336653560400009 109
3.4469664096832275 -3.4170162677764893 1.289372444152832 109
3.4520227909088135 -3.4232234954833984 1.1126658916473389 109
3.442061424255371 -3.414536952972412 0.9341245889663696 109
3.455514907836914 -3.42907977104187 0.7641214728355408 109
3.450547933578491 -3.4253461360931396 0.5922849774360657 109
3.4554636478424072 -3.4314236640930176 0.42270535230636597 109
3.44907283782959 -3.4262731075286865 0.2527826726436615 109
3.4491021633148193 -3.4274985790252686 0.08420785516500473 109
1.341464638710022 -1.3353909254074097 -0.4969327747821808 119
1.5356824398040771 -1.5292631387710571 -0.4915183484554291 119
1.8248889446258545 -1.8178951740264893 -0.49279871582984924 119
2.2448861598968506 -2.237063407897949 -0.49589765071868896 119
3.004030704498291 -2.994607925415039 -0.5161172747612 119
3.077934503555298 -3.0693511962890625 -0.37694916129112244 115
3.3712198734283447 -3.362992286682129 -0.24672532081604004 116
3.452542543411255 -3.4453189373016357 -0.08362570405006409 109
3.445272922515869 -3.4392647743225098 1.2932522296905518 109
3.450394868850708 -3.44558048248291 1.1160376071929932 109
3.4440114498138428 -3.4404067993164062 0.937937319278717 109
3.4540038108825684 -3.4515931606292725 0.766465425491333 109
3.4491000175476074 -3.4478960037231445 0.5941130518913269 109
3.4540305137634277 -3.4540305137634277 0.424012690782547 109
3.4476821422576904 -3.448885440826416 0.2535676956176758 109
3.4477181434631348 -3.4501256942749023 0.08446963876485825 109
1.3367950916290283 -1.340065360069275 -0.4969327747821808 119
1.5303349494934082 -1.5346143245697021 -0.4915183484554291 119
1.8219975233078003 -1.827730417251587 -0.4937518835067749 119
2.237063407897949 -2.2448859214782715 -0.49589765071868896 119
2.9935591220855713 -3.005075454711914 -0.5161172747612 119
3.053142786026001 -3.0659584999084473 -0.3752060532569885 115
3.345369577407837 -3.3605847358703613 -0.24568209052085876 116
3.4510743618011475 -3.4679806232452393 -0.08388488739728928 109
3.4434654712677 -3.4615423679351807 1.2971320152282715 109
3.448653221130371 -3.4679677486419678 1.1194093227386475 109
3.4423623085021973 -3.462850570678711 0.9407968521118164 109
3.452378034591675 -3.4741382598876953 0.7688093781471252 109
3.447535753250122 -3.4704768657684326 0.5959410667419434 109
3.4524824619293213 -3.4766695499420166 0.425320029258728 109
3.4461753368377686 -3.471529960632324 0.25435271859169006 109
3.446218252182007 -3.472785234451294 0.08473142981529236 109
1.3321090936660767 -1.3447234630584717 -0.4969327747821808 119
1.5249687433242798 -1.5399467945098877 -0.4915183484554291 119
1.8156063556671143 -1.8340791463851929 -0.4937518835067749 119
2.232687473297119 -2.2561914920806885 -0.4966798424720764 119
2.983051300048828 -3.0155067443847656 -0.5161172747612 119
3.0284128189086914 -3.0624308586120605 -0.3734629154205322 115
3.323087215423584 -3.361588478088379 -0.24489964544773102 116
3.4494898319244385 -3.4906740188598633 -0.08414404839277267 109
3.4415440559387207 -3.483849287033081 1.3010116815567017 109
3.4467966556549072 -3.490384817123413 1.1227810382843018 109
3.440598249435425 -3.4853246212005615 0.9436563849449158 109
3.450636386871338 -3.496713638305664 0.7711533308029175 109
3.4458560943603516 -3.493088722229004 0.5977690815925598 109
3.450817823410034 -3.4993398189544678 0.42662736773490906 109
3.4480581283569336 -3.4977617263793945 0.2553994655609131 109
3.448111057281494 -3.499037027359009 0.08508047461509705 109
1.3274070024490356 -1.349365234375 -0.4969327747821808 119
1.5195841789245605 -1.5452605485916138 -0.4915183484554291 119
1.8091932535171509 -1.8404057025909424 -0.4937518835067749 119
2.2247982025146484 -2.2639713287353516 -0.4966798424720764 119
2.9725069999694824 -3.0259010791778564 -0.5161172747612 119
3.007234811782837 -3.062321662902832 -0.3721556067466736 115
3.2973413467407227 -3.358914852142334 -0.24385640025138855 116
3.4477882385253906 -3.513397693634033 -0.08440321683883667 109
3.4428911209106445 -3.5096325874328613 1.3061846494674683 109
3.4448254108428955 -3.5128302574157715 1.126152753829956 109
3.4387192726135254 -3.5078279972076416 0.9465159177780151 109
3.448779344558716 -3.5193190574645996 0.7734972238540649 109
3.444060802459717 -3.5157310962677 0.599597156047821 109
3.4490365982055664 -3.5220401287078857 0.4279347062110901 109
3.446305990219116 -3.5204806327819824 0.25618448853492737 109
3.4463655948638916 -3.52177095413208 0.08534225821495056 109
1.3226888179779053 -1.3539904356002808 -0.4969327747821808 119
1.5141808986663818 -1.5505554676055908 -0.4915183484554291 119
1.8061866760253906 -1.8502219915390015 -0.49470508098602295 119
2.2168819904327393 -2.2717232704162598 -0.4966798424720764 119
2.961926221847534 -3.0362586975097656 -0.5161172747612 119
2.982616424560547 -3.0585358142852783 -0.3704124689102173 115
3.2716546058654785 -3.356102705001831 -0.24281316995620728 116
3.4459707736968994 -3.5361528396606445 -0.08466240018606186 109
3.440730094909668 -3.532008171081543 1.3100645542144775 109
3.446138381958008 -3.538795232772827 1.1306483745574951 109
3.43672513961792 -3.5303614139556885 0.949375569820404 109
3.4468061923980713 -3.5419535636901855 0.7758411169052124 109
3.4421491622924805 -3.5384035110473633 0.6014251708984375 109
3.447139024734497 -3.5447707176208496 0.42924201488494873 109
3.4444375038146973 -3.543229818344116 0.25696954131126404 109
3.4479877948760986 -3.5481204986572266 0.08569131046533585 109
1.3213173151016235 -1.3620659112930298 -0.4982268810272217 119
1.5087591409683228 -1.5558316707611084 -0.4915183484554291 119
1.8031333684921265 -1.860039472579956 -0.4956582486629486 119
2.2089388370513916 -2.2794480323791504 -0.4966798424720764 119
2.9513099193573 -3.046579122543335 -0.5161172747612 119
2.961527109146118 -3.058194160461426 -0.36910516023635864 115
3.246027946472168 -3.35315203666687 -0.241769939661026 116
3.444035768508911 -3.5589375495910645 -0.08492156863212585 109
3.4384546279907227 -3.5544111728668213 1.3139442205429077 109
3.443925380706787 -3.561310291290283 1.1340200901031494 109
3.4380266666412354 -3.5564522743225098 0.9531883001327515 109
3.4481489658355713 -3.568169116973877 0.7789663672447205 109
3.443568706512451 -3.5646743774414062 0.6038625836372375 109
3.445125102996826 -3.5675313472747803 0.43054938316345215 109
3.4424519538879395 -3.5660085678100586 0.2577545642852783 109
3.4494669437408447 -3.574523687362671 0.08604035526514053 109
1.3167932033538818 -1.3664400577545166 -0.4982268810272217 119
1.5072447061538696 -1.5640720129013062 -0.4926431179046631 119
1.79728102684021 -1.8656951189041138 -0.4956582486629486 119
2.2017669677734375 -2.2863762378692627 -0.4966798424720764 119
2.9417240619659424 -3.0558359622955322 -0.5161172747612 119
2.9415431022644043 -3.056715488433838 -0.3677977919578552 115
3.221630811691284 -3.3489396572113037 -0.24072670936584473 116
3.4432337284088135 -3.580549716949463 -0.08518073707818985 109
3.437312364578247 -3.575641393661499 1.3178240060806274 109
3.442847728729248 -3.582650661468506 1.1373918056488037 109
3.437037706375122 -3.5778543949127197 0.9560478329658508 109
3.4471845626831055 -3.5896706581115723 0.7813103199005127 109
3.4426631927490234 -3.5862152576446533 0.605690598487854 109
3.44769549369812 -3.592712163925171 0.43229249119758606 109
3.4416022300720215 -3.587615728378296 0.258539617061615 109
3.448601245880127 -3.596168041229248 0.08630213886499405 109
1.3155944347381592 -1.3742878437042236 -0.4995209574699402 119
1.5017759799957275 -1.5693237781524658 -0.4926431179046631 119
1.7907575368881226 -1.8719573020935059 -0.4956582486629486 119
2.193772554397583 -2.2940478324890137 -0.4966798424720764 119
2.931039333343506 -3.0660860538482666 -0.5161172747612 119
2.920531988143921 -3.056161880493164 -0.3664904534816742 115
3.1995744705200195 -3.3493332862854004 -0.23994427919387817 116
3.4410719871520996 -3.6033935546875 -0.08543989807367325 109
3.438150405883789 -3.6015923023223877 1.322996973991394 109
3.4404115676879883 -3.6052205562591553 1.140763521194458 109
3.4346914291381836 -3.6004843711853027 0.9589073657989502 109
3.4482662677764893 -3.6159777641296387 0.7844355702400208 109
3.4438211917877197 -3.612578868865967 0.6081279516220093 109
3.4454421997070312 -3.615542411804199 0.4335998296737671 109
3.439390182495117 -3.6104531288146973 0.2593246400356293 109
3.449817180633545 -3.6226649284362793 0.08665119111537933 109
1.3105485439300537 -1.3791004419326782 -0.4995209574699402 119
1.4993691444396973 -1.5783494710922241 -0.4937678575515747 119
1.7838844060897827 -1.87850821018219 -0.4956582486629486 119
2.185349464416504 -2.3020730018615723 -0.4966798424720764 119
2.9197821617126465 -3.076807975769043 -0.5161172747612 119
2.902454137802124 -3.0596179962158203 -0.36561888456344604 115
3.1735336780548096 -3.3465452194213867 -0.2389010488986969 116
3.4381604194641113 -3.626866102218628 -0.08569908142089844 109
3.434893846511841 -3.624687433242798 1.3268768787384033 109
3.4372262954711914 -3.6284170150756836 1.1441351175308228 109
3.434971570968628 -3.6273045539855957 0.9627201557159424 109
3.4451749324798584 -3.6393513679504395 0.786779522895813 109
3.4407906532287598 -3.635990619659424 0.6099560856819153 109
3.4424362182617188 -3.6390018463134766 0.43490713834762573 109
3.439856767654419 -3.6375463008880615 0.2603713870048523 109
3.44681978225708 -3.646184206008911 0.08691298216581345 109
1.3057266473770142 -1.383666753768921 -0.4995209574699402 119
1.493850588798523 -1.583573579788208 -0.4937678575515747 119
1.7773163318634033 -1.8847236633300781 -0.4956582486629486 119
2.1773006916046143 -2.309687376022339 -0.4966798424720764 119
2.909024238586426 -3.0869815349578857 -0.5161172747612 119
2.8815104961395264 -3.058854103088379 -0.364311546087265 115
3.1515634059906006 -3.3466973304748535 -0.23811863362789154 116
3.428905487060547 -3.6424851417541504 -0.08578546345233917 109
3.435460090637207 -3.650724411010742 1.33204984664917 109
3.4378929138183594 -3.654587745666504 1.1486307382583618 109
3.4323766231536865 -3.6500000953674316 0.9655797481536865 109
3.4425981044769287 -3.6621501445770264 0.7891234159469604 109
3.4382731914520264 -3.6588287353515625 0.6117841005325317 109
3.4433541297912598 -3.6655173301696777 0.43665024638175964 109
3.437392473220825 -3.6604509353637695 0.2611564099788666 109
3.444335699081421 -3.669127941131592 0.08717476576566696 109
1.3008887767791748 -1.3882161378860474 -0.4995209574699402 119
1.4916446208953857 -1.5923341512680054 -0.4948926270008087 119
1.7707265615463257 -1.8909162282943726 -0.4956582486629486 119
2.169224977493286 -2.3172733783721924 -0.4966798424720764 119
2.898230791091919 -3.0971169471740723 -0.5161172747612 115
2.860607624053955 -3.057981491088867 -0.36300423741340637 115
3.126220226287842 -3.343090057373047 -0.23707538843154907 116
3.3991005420684814 -3.6361725330352783 -0.08535351604223251 0
3.432588577270508 -3.673280954360962 1.3359296321868896 109
3.4350926876068115 -3.6772470474243164 1.1520025730133057 109
3.4330146312713623 -3.6763086318969727 0.9693925380706787 109
3.439903736114502 -3.6849749088287354 0.7914673686027527 109
3.435637950897217 -3.6816933155059814 0.6136121153831482 109
3.4407310485839844 -3.688441514968872 0.43795761466026306 109
3.438215494155884 -3.6870346069335938 0.2622031271457672 109
3.4417333602905273 -3.69209885597229 0.08743654936552048 109
1.2960351705551147 -1.3927485942840576 -0.4995209574699402 119
1.48275887966156 -1.5939639806747437 -0.4937678575515747 119
1.7674579620361328 -1.9006803035736084 -0.49661147594451904 119
2.161123037338257 -2.324831485748291 -0.4966798424720764 119
2.884023666381836 -3.103579044342041 -0.5155079364776611 115
2.83974552154541 -3.056999921798706 -0.36169689893722534 115
3.1043384075164795 -3.3430051803588867 -0.23629294335842133 116
3.3727827072143555 -3.63335919380188 -0.08500795811414719 116
3.432886838912964 -3.69940185546875 1.3411026000976562 109
3.4354896545410156 -3.703502893447876 1.1564981937408447 109
3.430173397064209 -3.699066638946533 0.9722520709037781 109
3.4404494762420654 -3.711447238922119 0.7945926189422607 109
3.43625807762146 -3.708223819732666 0.6160494685173035 109
3.4413750171661377 -3.7150461673736572 0.439700722694397 109
3.435502529144287 -3.7100048065185547 0.2629881799221039 109
3.442409038543701 -3.7187652587890625 0.08778559416532516 109
1.2911655902862549 -1.3972642421722412 -0.4995209574699402 119
1.477185845375061 -1.5991301536560059 -0.4937678575515747 119
1.7574825286865234 -1.9032319784164429 -0.4956582486629486 119
2.156344175338745 -2.3359897136688232 -0.4974619746208191 119
2.866441249847412 -3.106332778930664 -0.5142892003059387 115
2.818925380706787 -3.055910110473633 -0.3603895306587219 115
3.079110622406006 -3.3391377925872803 -0.23524971306324005 116
3.3465256690979004 -3.6304070949554443 -0.08466240018606186 116
3.4297711849212646 -3.722017765045166 1.3449822664260864 109
3.435744285583496 -3.7298059463500977 1.1609938144683838 109
3.430539608001709 -3.7254605293273926 0.9760648012161255 109
3.437507152557373 -3.734334707260132 0.7969365119934082 109
3.4333741664886475 -3.7311513423919678 0.6178775429725647 109
3.438502311706543 -3.7380332946777344 0.441008061170578 109
3.4326701164245605 -3.7330005168914795 0.26377320289611816 109
3.439556837081909 -3.741800308227539 0.08804738521575928 109
1.2862803936004639 -1.4017627239227295 -0.4995209574699402 119
1.468301773071289 -1.6006866693496704 -0.4926431179046631 119
1.7508282661437988 -1.9093552827835083 -0.4956582486629486 119
2.148177146911621 -2.3435022830963135 -0.4974619746208191 119
2.845522880554199 -3.1053431034088135 -0.5124611854553223 115
2.7981479167938232 -3.0547127723693848 -0.3590822219848633 115
3.0606918334960938 -3.342500686645508 -0.2347281128168106 116
3.32033109664917 -3.627316474914551 -0.08431683480739594 116
3.429800271987915 -3.748220205307007 1.3501553535461426 109
3.4325690269470215 -3.752560615539551 1.164365530014038 109
3.4274511337280273 -3.748279094696045 0.9789243340492249 109
3.4377787113189697 -3.7608914375305176 0.8000617623329163 109
3.4337198734283447 -3.757767915725708 0.62031489610672 109
3.438870429992676 -3.764723777770996 0.4427511692047119 109
3.4297189712524414 -3.756021499633789 0.26455825567245483 109
3.439955949783325 -3.7685530185699463 0.08839643746614456 109
1.2813794612884521 -1.406244158744812 -0.4995209574699402 119
1.462705373764038 -1.605802297592163 -0.4926431179046631 119
1.7441526651382446 -1.9154551029205322 -0.4956582486629486 119
2.14330792427063 -2.3546390533447266 -0.49824416637420654 119
2.8279857635498047 -3.1079154014587402 -0.5112424492835999 115
2.7774133682250977 -3.053407669067383 -0.35777488350868225 115
3.0456464290618896 -3.3494699001312256 -0.2344672977924347 116
3.297560691833496 -3.6277859210968018 -0.08405765891075134 116
3.429687976837158 -3.774467945098877 1.3553283214569092 109
3.4325523376464844 -3.7789454460144043 1.1688611507415771 109
3.427544593811035 -3.7747554779052734 0.982737123966217 109
3.4345879554748535 -3.783838987350464 0.8024057149887085 109
3.430586576461792 -3.780756711959839 0.6221429705619812 109
3.4357478618621826 -3.7877726554870605 0.44405850768089294 109
3.4300034046173096 -3.782766580581665 0.26560497283935547 109
3.4368526935577393 -3.79164981842041 0.08865822106599808 109
1.2764629125595093 -1.4107083082199097 -0.4995209574699402 119
1.457091212272644 -1.6108983755111694 -0.4926431179046631 119
1.7341641187667847 -1.9178911447525024 -0.49470508098602295 119
2.135075569152832 -2.3621060848236084 -0.49824416637420654 119
2.807138442993164 -3.1067216396331787 -0.5094144344329834 115
2.7567214965820312 -3.051994562149048 -0.35646751523017883 115
3.033936023712158 -3.3600807189941406 -0.2344672977924347 116
3.2714788913726807 -3.6244301795959473 -0.08371210098266602 116
3.4261982440948486 -3.7971744537353516 1.359208106994629 109
3.4291300773620605 -3.8017578125 1.172232747077942 109
3.4242076873779297 -3.797632932662964 0.9855967164039612 109
3.434584856033325 -3.810478448867798 0.8055309057235718 109
3.4306564331054688 -3.8074564933776855 0.6245803833007812 109
3.4358391761779785 -3.814546823501587 0.44580161571502686 109
3.433483600616455 -3.81326961517334 0.26691335439682007 109
3.436974287033081 -3.818486452102661 0.08900726586580276 109
1.2715308666229248 -1.4151554107666016 -0.4995209574699402 119
1.4514591693878174 -1.6159746646881104 -0.4926431179046631 119
1.724179744720459 -1.9202806949615479 -0.4937518835067749 119
2.1301159858703613 -2.3732197284698486 -0.4990263283252716 119
2.7863340377807617 -3.105419874191284 -0.5075863599777222 115
2.7360739707946777 -3.0504751205444336 -0.3551601767539978 115
3.018855571746826 -3.3669328689575195 -0.23420648276805878 116
3.2487969398498535 -3.624659538269043 -0.08345293253660202 116
3.4258151054382324 -3.8234996795654297 1.364381194114685 109
3.4288411140441895 -3.828221082687378 1.176728367805481 109
3.42402720451355 -3.8241896629333496 0.9894095063209534 109
3.4311439990997314 -3.833483934402466 0.8078749179840088 109
3.427272319793701 -3.830503225326538 0.6264083981513977 109
3.432464838027954 -3.8376548290252686 0.4471089839935303 109
3.443448066711426 -3.8512871265411377 0.2687451243400574 109
3.4336185455322266 -3.841642379760742 0.08926904946565628 109
1.2665833234786987 -1.4195852279663086 -0.4995209574699402 119
1.4490522146224976 -1.6246669292449951 -0.4937678575515747 119
1.7141995429992676 -1.9226237535476685 -0.49279871582984924 119
2.121819019317627 -2.380640745162964 -0.4990263283252716 119
2.7688746452331543 -3.1077165603637695 -0.5063676834106445 115
2.715470790863037 -3.0488486289978027 -0.35385286808013916 115
3.000443696975708 -3.3699920177459717 -0.23368486762046814 116
3.222829818725586 -3.6210403442382812 -0.0831073671579361 116
3.422078847885132 -3.846259593963623 1.3682608604431152 109
3.4251708984375 -3.851088523864746 1.1801002025604248 109
3.4237024784088135 -3.850790500640869 0.9932222366333008 109
3.4308645725250244 -3.8602027893066406 0.8110001683235168 109
3.427065134048462 -3.857283592224121 0.628845751285553 109
3.4355862140655518 -3.8682339191436768 0.4492878317832947 109
3.4366142749786377 -3.8707516193389893 0.2692684829235077 109
3.4301438331604004 -3.8648221492767334 0.0895308405160904 109
1.264823079109192 -1.4276129007339478 -0.5008150935173035 119
1.4433722496032715 -1.6297152042388916 -0.4937678575515747 119
1.7074779272079468 -1.928595781326294 -0.49279871582984924 119
2.1134960651397705 -2.3880326747894287 -0.4990263283252716 119
2.7481443881988525 -3.1062121391296387 -0.5045396685600281 115
2.701511859893799 -3.054577589035034 -0.3534170687198639 115
2.968817949295044 -3.357999324798584 -0.23212000727653503 116
3.2002387046813965 -3.621030330657959 -0.0828481987118721 116
3.4214234352111816 -3.8726601600646973 1.3734338283538818 109
3.424607515335083 -3.8776276111602783 1.1845958232879639 109
3.4232337474823 -3.8774361610412598 0.9970349669456482 109
3.430440664291382 -3.8869664669036865 0.8141254186630249 109
3.423429250717163 -3.8803870677948 0.6306738257408142 109
3.4319467544555664 -3.8914098739624023 0.4505952000617981 109
3.4362897872924805 -3.897705554962158 0.2703152000904083 109
3.429853677749634 -3.8917739391326904 0.08987989276647568 109
1.2598320245742798 -1.4320191144943237 -0.5008150935173035 119
1.440892219543457 -1.6384021043777466 -0.4948926270008087 119
1.7039763927459717 -1.9382305145263672 -0.4937518835067749 119
2.105147361755371 -2.3953957557678223 -0.4990263283252716 119
2.727458953857422 -3.1046011447906494 -0.5027115941047668 115
2.677685499191284 -3.049018621444702 -0.35167396068573 115
2.9471957683563232 -3.3570852279663086 -0.23133759200572968 116
3.1710917949676514 -3.613391876220703 -0.08241625130176544 116
3.4206252098083496 -3.8991024494171143 1.378606915473938 109
3.423900604248047 -3.9042105674743652 1.189091444015503 109
3.4193851947784424 -3.9004342555999756 0.9998944997787476 109
3.4298713207244873 -3.913773536682129 0.8172506093978882 109
3.4262144565582275 -3.910977840423584 0.6337205767631531 109
3.4281868934631348 -3.914607048034668 0.4519025385379791 109
3.429241180419922 -3.9171900749206543 0.27083855867385864 109
3.4294168949127197 -3.918771266937256 0.09022893756628036 109
1.255076289176941 -1.43618905544281 -0.5008150935173035 119
1.4357378482818604 -1.642920732498169 -0.4948926270008087 119
1.7011079788208008 -1.9472707509994507 -0.49470508098602295 119
2.0943634510040283 -2.398277521133423 -0.49824416637420654 119
2.704637289047241 -3.0981998443603516 -0.5002742409706116 115
2.6549935340881348 -3.0424039363861084 -0.34993085265159607 115
2.916940450668335 -3.3437514305114746 -0.22977271676063538 116
3.1531527042388916 -3.615800142288208 -0.08224346488714218 116
3.4210541248321533 -3.9243924617767334 1.3837798833847046 109
3.424422025680542 -3.929640054702759 1.193587064743042 109
3.420010805130005 -3.9259610176086426 1.0037072896957397 109
3.430532217025757 -3.939426898956299 0.8203758597373962 109
3.4204280376434326 -3.929208755493164 0.6349392533302307 109
nan nan nan 0
nan nan nan 0
3.39084529876709 -3.8993465900421143 0.0895308405160904 0
1.2503069639205933 -1.4403431415557861 -0.5008150935173035 119
1.4299942255020142 -1.647922396659851 -0.4948926270008087 119
1.700732946395874 -1.9606122970581055 -0.49661147594451904 119
2.09244966506958 -2.4130356311798096 -0.49980852007865906 119
2.6905553340911865 -3.103872060775757 -0.49966487288475037 115
2.6410951614379883 -3.0478885173797607 -0.3494950532913208 115
2.8954429626464844 -3.342590808868408 -0.22899030148983002 116
3.1274216175079346 -3.6116676330566406 -0.08189790695905685 116
3.419978380203247 -3.9509167671203613 1.3889528512954712 109
3.423435926437378 -3.956306219100952 1.198082685470581 109
3.4191300868988037 -3.952723979949951 1.0075199604034424 109
3.4296810626983643 -3.966320514678955 0.8235011100769043 109
nan nan nan 0
nan nan nan 0
nan nan nan 0
3.3674111366271973 -3.8998072147369385 0.08926904946565628 116
1.2450194358825684 -1.444916009902954 -0.5008150935173035 119
1.4271240234375 -1.6568435430526733 -0.49601736664772034 119
1.699940800666809 -1.974271535873413 -0.49851784110069275 119
2.0835912227630615 -2.4206886291503906 -0.49980852007865906 119
nan nan nan 0
nan nan nan 0
2.8799169063568115 -3.3493945598602295 -0.2287294864654541 116
3.1109044551849365 -3.619314670562744 -0.08181151002645493 116
3.4149177074432373 -3.9744153022766113 1.392832636833191 109
3.4216103553771973 -3.9836106300354004 1.2025783061981201 109
3.4174094200134277 -3.9801251888275146 1.0113327503204346 109
3.4279866218566895 -3.993854284286499 0.8266263604164124 109
nan nan nan 0
nan nan nan 0
nan nan nan 0
3.3368282318115234 -3.893144130706787 0.08883273601531982 116
1.2399680614471436 -1.4492532014846802 -0.5008150935173035 119
1.4213318824768066 -1.6618151664733887 -0.49601736664772034 119
1.7026078701019287 -1.9913852214813232 -0.5013774037361145 119
2.0334174633026123 -2.379143714904785 -0.4896402657032013 119
2.658604860305786 -3.1117262840270996 -0.4978368282318115 115
2.59980845451355 -3.0439846515655518 -0.34688040614128113 115
nan nan nan 0
nan nan nan 0
3.413562774658203 -4.0010085105896 1.3980056047439575 109
3.420330286026001 -4.0103583335876465 1.2070739269256592 109
3.4162330627441406 -4.006970405578613 1.0151455402374268 109
3.4268381595611572 -4.020830154418945 0.8297516107559204 109
nan nan nan 0
nan nan nan 0
1.9312838315963745 -2.2684483528137207 0.15412938594818115 117
3.34913969039917 -3.935225486755371 0.0895308405160904 116
1.2349016666412354 -1.4535727500915527 -0.5008150935173035 119
1.4155223369598389 -1.6667662858963013 -0.49601736664772034 119
1.71152925491333 -2.0160250663757324 -0.50614333152771 119
1.980364203453064 -2.3335132598876953 -0.47868984937667847 119
1.9767311811447144 -2.33005690574646 -0.3704832196235657 119
1.9383955001831055 -2.285677433013916 -0.2588529586791992 0
2.837090492248535 -3.3465659618377686 -0.2271646410226822 116
3.0564723014831543 -3.6066198348999023 -0.08103400468826294 116
3.4120635986328125 -4.027640342712402 1.4031785726547241 109
3.4157564640045166 -4.033426761627197 1.2104456424713135 109
3.4149107933044434 -4.033855438232422 1.0189582109451294 109
3.4223527908325195 -4.044077396392822 0.8320955038070679 109
1.9189872741699219 -2.268404483795166 0.3601239025592804 117
1.9287697076797485 -2.280775308609009 0.25798100233078003 117
1.9201301336288452 -2.271362781524658 0.1538676917552948 117
1.9123649597167969 -2.2629783153533936 0.05104828625917435 117
1.2298203706741333 -1.4578744173049927 -0.5008150935173035 119
1.4096956253051758 -1.6716973781585693 -0.49601736664772034 119
1.694991111755371 -2.010728597640991 -0.5032837390899658 119
1.9658420085906982 -2.3328590393066406 -0.47712549567222595 119
1.968585729598999 -2.336942672729492 -0.3704832196235657 119
1.9368219375610352 -2.3000497817993164 -0.25972452759742737 0
1.9089549779891968 -2.2677597999572754 -0.15283407270908356 117
1.9269397258758545 -2.2899363040924072 -0.05105660483241081 117
3.4104201793670654 -4.054310321807861 1.4083516597747803 109
3.414198637008667 -4.060240745544434 1.214941143989563 109
3.4134421348571777 -4.060780048370361 1.0227710008621216 109
3.420923948287964 -4.071122646331787 0.8352207541465759 109
nan nan nan 0
1.9207963943481445 -2.287493944168091 0.25798100233078003 117
1.9025592803955078 -2.266578197479248 0.15308266878128052 117
1.9301615953445435 -2.3002769947052 0.05174638330936432 117
1.2247238159179688 -1.462158441543579 -0.5008150935173035 119
1.4038517475128174 -1.6766078472137451 -0.49601736664772034 119
1.6848114728927612 -2.012869358062744 -0.5023306012153625 119
1.986208438873291 -2.3737943172454834 -0.4841650724411011 119
nan nan nan 0
nan nan nan 0
1.907431721687317 -2.282071828842163 -0.1533556878566742 117
1.9061130285263062 -2.2813031673431396 -0.050711046904325485 117
3.4086320400238037 -4.081017971038818 1.4135246276855469 109
3.4124951362609863 -4.087092876434326 1.219436764717102 109
3.411827325820923 -4.087743282318115 1.0265837907791138 109
3.4193477630615234 -4.098207473754883 0.8383459448814392 109
1.9031041860580444 -2.2817461490631104 0.3601239025592804 117
1.9096102714538574 -2.2903592586517334 0.25754523277282715 117
