# .PCD v0.7 - Point Cloud Data file format
VERSION 0.7
FIELDS x y z intensity
SIZE 4 4 4 4
TYPE F F F F
COUNT 1 1 1 1
WIDTH 796
HEIGHT 1
VIEWPOINT 0 0 0 1 0 0 0
POINTS 796
DATA ascii
0.5218615531921387 2.1375200748443604 -0.1129302978515625 44
0.5228574275970459 2.1399781703948975 -0.037406954914331436 44
0.5207224488258362 2.1296277046203613 0.5767905116081238 44
0.5197765827178955 2.124152660369873 0.4956420660018921 44
0.5181130766868591 2.1157548427581787 0.4155901074409485 44
0.5204487442970276 2.1236884593963623 0.33987000584602356 44
0.5162293910980225 2.10488224029541 0.261409729719162 44
0.525585949420929 2.1414170265197754 0.18956373631954193 44
0.5224587917327881 2.127072334289551 0.11278398334980011 44
0.5210700035095215 2.1198208332061768 0.03743540868163109 44
0.4568980038166046 1.8517829179763794 -0.5008150935173035 119
0.5136926174163818 2.0804073810577393 -0.4858945310115814 119
0.5343175530433655 2.1623146533966064 -0.42512229084968567 0
0.5308088064193726 2.1465063095092773 -0.3441561162471771 44
0.5349429249763489 2.1616051197052 -0.26872220635414124 44
0.5324645638465881 2.1499814987182617 -0.19043558835983276 44
0.529319703578949 2.135685443878174 -0.1129302978515625 44
0.5303241610527039 2.1381402015686035 -0.037406954914331436 44
0.5281530618667603 2.1277971267700195 0.5767905116081238 44
0.5271881222724915 2.1223254203796387 0.4956420660018921 44
0.5254952907562256 2.1139333248138428 0.4155901074409485 44
0.5278586745262146 2.121858596801758 0.33987000584602356 44
0.5235736966133118 2.103067398071289 0.261409729719162 44
0.533057689666748 2.1395695209503174 0.18956373631954193 44
0.5298804640769958 2.1252355575561523 0.11278398334980011 44
0.5284664034843445 2.1179890632629395 0.03743540868163109 44
0.46453243494033813 1.8548617362976074 -0.502109169960022 119
0.520951509475708 2.078601598739624 -0.4858945310115814 119
0.5418621897697449 2.1604363918304443 -0.42512229084968567 0
0.5395004749298096 2.149430274963379 -0.3449382781982422 44
0.5424850583076477 2.159724712371826 -0.26872220635414124 44
0.5411804914474487 2.152940273284912 -0.19087137281894684 44
0.5367714166641235 2.1338248252868652 -0.1129302978515625 44
0.5390048623085022 2.1411237716674805 -0.03749334439635277 44
0.5355772376060486 2.1259405612945557 0.5767905116081238 44
0.5345931649208069 2.1204721927642822 0.4956420660018921 44
0.5340718030929565 2.1168453693389893 0.41654327511787415 44
0.5352621078491211 2.1200032234191895 0.33987000584602356 44
0.5309115648269653 2.101227045059204 0.261409729719162 44
0.5405229926109314 2.137695789337158 0.18956373631954193 44
0.5385205149650574 2.128213405609131 0.11304565519094467 44
0.5370835065841675 2.1209776401519775 0.03752266988158226 44
0.47100430727005005 1.8532289266586304 -0.502109169960022 119
0.5282039642333984 2.076770305633545 -0.4858945310115814 119
0.5494002103805542 2.158531665802002 -0.42512229084968567 119
0.5470001101493835 2.147533893585205 -0.3449382781982422 44
0.5512464642524719 2.1626272201538086 -0.26933157444000244 44
0.5486923456192017 2.15103816986084 -0.19087137281894684 44
0.5454515218734741 2.1367759704589844 -0.11319109797477722 44
0.5464754700660706 2.1392292976379395 -0.03749334439635277 44
0.5441910624504089 2.128737211227417 0.5780837535858154 44
0.543199360370636 2.1233134269714355 0.49676600098609924 44
0.5414577126502991 2.1149682998657227 0.41654327511787415 44
0.5438847541809082 2.12290620803833 0.34065133333206177 44
0.5394754409790039 2.104168176651001 0.2620190680027008 44
0.5492194890975952 2.140620708465576 0.1899995356798172 44
0.5459461212158203 2.1263206005096436 0.11304565519094467 44
0.5444838404655457 2.1190900802612305 0.03752266988158226 44
0.47626441717147827 1.846896767616272 -0.5008150935173035 119
0.5354500412940979 2.07491397857666 -0.4858945310115814 119
0.5581588745117188 2.161353349685669 -0.42607545852661133 0
0.5544930696487427 2.14561128616333 -0.3449382781982422 44
0.5587920546531677 2.1606898307800293 -0.26933157444000244 44
0.5561975240707397 2.1491098403930664 -0.19087137281894684 44
0.55290687084198 2.1348588466644287 -0.11319109797477722 44
0.5539395213127136 2.1373088359832764 -0.03749334439635277 44
0.5516183972358704 2.1268246173858643 0.5780837535858154 44
0.5506078004837036 2.1214046478271484 0.49676600098609924 44
0.5500709414482117 2.1178159713745117 0.4174965023994446 44
0.551291823387146 2.120994806289673 0.34065133333206177 44
0.5468171238899231 2.1022722721099854 0.2620190680027008 44
0.5566883087158203 2.13869047164917 0.1899995356798172 44
0.5546236634254456 2.1292338371276855 0.11330734193325043 44
0.5531384944915771 2.122014045715332 0.03760993480682373 44
0.4827083647251129 1.8452231884002686 -0.5008150935173035 119
0.5426896214485168 2.0730321407318115 -0.4858945310115814 119
0.5656999349594116 2.1593918800354004 -0.42607545852661133 119
0.5632316470146179 2.148439884185791 -0.34572046995162964 44
0.5663309097290039 2.1587259769439697 -0.26933157444000244 44
0.5636959671974182 2.147155284881592 -0.19087137281894684 44
0.5603556036949158 2.132915735244751 -0.11319109797477722 44
0.5626677870750427 2.1401970386505127 -0.0375797376036644 44
0.5590390563011169 2.1248862743377686 0.5780837535858154 44
0.5592498779296875 2.124180793762207 0.4978898763656616 44
0.5574601292610168 2.1158828735351562 0.4174965023994446 44
0.5599510073661804 2.1238327026367188 0.3414326012134552 44
0.5541520714759827 2.1003506183624268 0.2620190680027008 44
0.5654218792915344 2.141550064086914 0.1904352903366089 44
0.5620527267456055 2.1272850036621094 0.11330734193325043 44
0.5605423450469971 2.120070219039917 0.03760993480682373 44
0.48790785670280457 1.838858723640442 -0.4995209574699402 119
0.549922525882721 2.0711252689361572 -0.4858945310115814 119
0.5732342004776001 2.1574039459228516 -0.42607545852661133 119
0.5707277059555054 2.146460771560669 -0.34572046995162964 44
0.5751388669013977 2.161531925201416 -0.26994088292121887 44
0.5724690556526184 2.1499876976013184 -0.19130714237689972 44
0.5677974820137024 2.1309468746185303 -0.11319109797477722 44
0.5701350569725037 2.1382198333740234 -0.0375797376036644 44
0.567698061466217 2.1275885105133057 0.5793769955635071 44
0.5666612386703491 2.122215747833252 0.4978898763656616 44
0.5648425817489624 2.113924264907837 0.4174965023994446 44
0.5673612356185913 2.1218650341033936 0.3414326012134552 44
0.5627630949020386 2.1031978130340576 0.262628436088562 44
0.5728937983512878 2.1395633220672607 0.1904352903366089 44
0.5694748163223267 2.125310182571411 0.11330734193325043 44
0.5679393410682678 2.118100643157959 0.03760993480682373 44
0.4930688142776489 1.832480788230896 -0.4982268810272217 119
0.558415412902832 2.073897361755371 -0.4870193302631378 119
0.5807614326477051 2.1553897857666016 -0.42607545852661133 119
0.5782167315483093 2.1444554328918457 -0.34572046995162964 44
0.5826805233955383 2.159510850906372 -0.26994088292121887 44
0.5799704194068909 2.1479761600494385 -0.19130714237689972 44
0.5752323865890503 2.1289520263671875 -0.11319109797477722 44
0.5789002180099487 2.141042709350586 -0.03766612708568573 44
0.575121283531189 2.125593900680542 0.5793769955635071 44
0.5740657448768616 2.120224714279175 0.4978898763656616 44
0.5722180604934692 2.1119396686553955 0.4174965023994446 44
0.5760567784309387 2.124638319015503 0.3422139286994934 44
0.5701012015342712 2.1012206077575684 0.262628436088562 44
0.5803588032722473 2.1375505924224854 0.1904352903366089 44
0.5768901109695435 2.123309373855591 0.11330734193325043 44
0.5753294825553894 2.116105318069458 0.03760993480682373 44
0.4991428554058075 1.8308357000350952 -0.4982268810272217 119
0.5652896165847778 2.0720341205596924 -0.4870193302631378 119
0.5891984701156616 2.1581871509552 -0.4270286560058594 119
0.5866262912750244 2.147289991378784 -0.3465026021003723 44
0.5898385047912598 2.157566785812378 -0.26994088292121887 44
0.5870901942253113 2.14604115486145 -0.19130714237689972 44
0.5822890400886536 2.12703275680542 -0.11319109797477722 44
0.5859970450401306 2.139111280441284 -0.03766612708568573 44
0.5834437608718872 2.12833309173584 0.5806702375411987 44
0.5823823809623718 2.1230080127716064 0.4990138113498688 44
0.5792183876037598 2.11003041267395 0.4174965023994446 44
0.5830991864204407 2.1227164268493652 0.3422139286994934 44
0.5783812999725342 2.1041035652160645 0.26323774456977844 44
0.5861229300498962 2.130811929702759 0.1899995356798172 44
0.583928108215332 2.121384620666504 0.11330734193325043 44
0.5836710929870605 2.1190054416656494 0.037697192281484604 44
0.5055306553840637 1.8290821313858032 -0.4982268810272217 119
0.5725189447402954 2.0700483322143555 -0.4870193302631378 119
0.5967283844947815 2.1561172008514404 -0.4270286560058594 119
0.5941181182861328 2.1452293395996094 -0.3465026021003723 44
0.5973662734031677 2.1554949283599854 -0.26994088292121887 44
0.5959087610244751 2.1487786769866943 -0.191742941737175 44
0.5910455584526062 2.129798650741577 -0.11345191299915314 44
0.5934603214263916 2.1370527744293213 -0.03766612708568573 44
0.5908694863319397 2.1262834072113037 0.5806702375411987 44
0.5897895693778992 2.120962142944336 0.4990138113498688 44
0.5865802764892578 2.1079957485198975 0.4174965023994446 44
0.5905053019523621 2.1206679344177246 0.3422139286994934 44
0.5857224464416504 2.102071762084961 0.26323774456977844 44
0.5935572981834412 2.1287529468536377 0.1899995356798172 44
0.5926713943481445 2.124142646789551 0.11356901377439499 44
0.5910706520080566 2.1169533729553223 0.037697192281484604 44
0.5109274983406067 1.8225666284561157 -0.4969327747821808 119
0.5787863731384277 2.0632452964782715 -0.4858945310115814 119
0.6059534549713135 2.1586413383483887 -0.42798182368278503 119
0.6019768118858337 2.1430373191833496 -0.3465026021003723 44
0.6052625179290771 2.1532909870147705 -0.26994088292121887 44
0.6037804484367371 2.1465799808502197 -0.191742941737175 44
0.5988476872444153 2.1276180744171143 -0.11345191299915314 44
0.6012890338897705 2.1348633766174316 -0.03766612708568573 44
0.5986587405204773 2.124103546142578 0.5806702375411987 44
0.5975593328475952 2.118786334991455 0.4990138113498688 44
0.5943025350570679 2.1058318614959717 0.4174965023994446 44
0.5982739329338074 2.1184895038604736 0.3422139286994934 44
0.5934230089187622 2.0999107360839844 0.26323774456977844 44
0.6013555526733398 2.12656307220459 0.1899995356798172 44
0.6004527807235718 2.1219561100006104 0.11356901377439499 44
0.5988192558288574 2.114774465560913 0.037697192281484604 44
0.5186062455177307 1.8254178762435913 -0.4982268810272217 119
0.5859848856925964 2.0612123012542725 -0.4858945310115814 119
0.6134848594665527 2.156512975692749 -0.42798182368278503 119
0.6108058094978333 2.145672559738159 -0.34728479385375977 44
0.6141347289085388 2.155937910079956 -0.2705502510070801 44
0.6112697720527649 2.1444594860076904 -0.191742941737175 44
0.6062707901000977 2.1255147457122803 -0.11345191299915314 44
0.6101095080375671 2.1375584602355957 -0.03775251656770706 44
0.6073960065841675 2.126645088195801 0.5819635391235352 44
0.6049515604972839 2.116687536239624 0.4990138113498688 44
0.6016495823860168 2.1037442684173584 0.4174965023994446 44
0.6056652665138245 2.1163880825042725 0.3422139286994934 44
0.6021157503128052 2.102597713470459 0.26384711265563965 44
0.6101471185684204 2.129239082336426 0.1904352903366089 44
0.609232485294342 2.124647378921509 0.11383070051670074 44
0.6075828671455383 2.1174750328063965 0.037784457206726074 44
0.527647078037262 1.8328787088394165 -0.5008150935173035 119
0.5931763052940369 2.0591542720794678 -0.4858945310115814 119
0.6223682761192322 2.1590747833251953 -0.42893505096435547 119
0.6182918548583984 2.1435275077819824 -0.34728479385375977 44
0.6216566562652588 2.153780937194824 -0.2705502510070801 44
0.618751585483551 2.14231276512146 -0.191742941737175 44
0.6136865615844727 2.1233856678009033 -0.11345191299915314 44
0.6175673007965088 2.13541579246521 -0.03775251656770706 44
0.6148156523704529 2.124511957168579 0.5819635391235352 44
0.6136916875839233 2.1192426681518555 0.5001376867294312 44
0.6103553771972656 2.1063456535339355 0.41844967007637024 44
0.6130490899085999 2.1142611503601074 0.3422139286994934 44
0.6094514727592468 2.1004831790924072 0.26384711265563965 44
0.6175758242607117 2.12709641456604 0.1904352903366089 44
0.6166452169418335 2.1225075721740723 0.11383070051670074 44
0.6149641275405884 2.1153430938720703 0.037784457206726074 44
0.5353940725326538 1.8356621265411377 -0.502109169960022 119
0.6003604531288147 2.0570712089538574 -0.4858945310115814 119
0.6299010515213013 2.1568892002105713 -0.42893505096435547 119
0.6257703900337219 2.1413562297821045 -0.34728479385375977 44
0.6291709542274475 2.151597738265991 -0.2705502510070801 44
0.6276246905326843 2.1449203491210938 -0.19217871129512787 44
0.6224979162216187 2.1260225772857666 -0.11371272802352905 44
0.625017523765564 2.133247137069702 -0.03775251656770706 44
0.6222278475761414 2.1223528385162354 0.5819635391235352 44
0.621085524559021 2.1170876026153564 0.5001376867294312 44
0.6177042126655579 2.1042022705078125 0.41844967007637024 44
0.6204255223274231 2.1121082305908203 0.3422139286994934 44
0.6167798638343811 2.0983428955078125 0.26384711265563965 44
0.6264025568962097 2.129706382751465 0.19087108969688416 44
0.6240504384040833 2.120342254638672 0.11383070051670074 44
0.6223443150520325 2.1131834983825684 0.037784457206726074 44
0.5445354580879211 1.8430454730987549 -0.504697322845459 119
0.6075373291969299 2.0549628734588623 -0.4858945310115814 119
0.6374261379241943 2.154677152633667 -0.42893505096435547 119
0.6346431374549866 2.1438939571380615 -0.34806695580482483 44
0.6380870938301086 2.154146909713745 -0.2711595892906189 44
0.6351080536842346 2.142716407775879 -0.19217871129512787 44
0.6299152970314026 2.1238365173339844 -0.11371272802352905 44
0.6324601173400879 2.1310524940490723 -0.03775251656770706 44
0.6296324729919434 2.1201679706573486 0.5819635391235352 44
0.6284717321395874 2.1149067878723145 0.5001376867294312 44
0.6264445185661316 2.106738328933716 0.4194028675556183 44
0.6292027831077576 2.1146633625030518 0.34299522638320923 44
0.6255167722702026 2.10093355178833 0.26445645093917847 44
0.6338328123092651 2.127506971359253 0.19087108969688416 44
0.6328744292259216 2.1229360103607178 0.1140923872590065 44
0.6297168731689453 2.1109983921051025 0.037784457206726074 44
0.5523501634597778 1.8457603454589844 -0.5059914588928223 119
0.6161043047904968 2.057497024536133 -0.4870193302631378 119
0.646352231502533 2.1571404933929443 -0.42988821864128113 119
0.6421228051185608 2.1416656970977783 -0.34806695580482483 44
0.6456025838851929 2.1519062519073486 -0.2711595892906189 44
0.644015908241272 2.1452572345733643 -0.19261449575424194 44
0.6373250484466553 2.1216249465942383 -0.11371272802352905 44
0.6413341760635376 2.133619546890259 -0.03783890977501869 44
0.6384204626083374 2.122582197189331 0.583256721496582 44
0.6358502507209778 2.1126999855041504 0.5001376867294312 44
0.6337945461273193 2.104538679122925 0.4194028675556183 44
0.6365805268287659 2.1124539375305176 0.34299522638320923 44
0.6328465938568115 2.0987372398376465 0.26445645093917847 44
0.6426941156387329 2.13004994392395 0.19130685925483704 44
0.6402810215950012 2.120713949203491 0.1140923872590065 44
0.6370818018913269 2.1087872982025146 0.037784457206726074 44
0.5559881925582886 1.8345770835876465 -0.5034032464027405 119
0.6232825517654419 2.0553336143493652 -0.4870193302631378 119
0.6538781523704529 2.1548712253570557 -0.42988821864128113 119
0.6495947241783142 2.139411211013794 -0.34806695580482483 44
0.6531102061271667 2.149639844894409 -0.2711595892906189 44
0.6515002846717834 2.142996072769165 -0.19261449575424194 44
0.6461802124977112 2.124164342880249 -0.11397353559732437 44
0.648777961730957 2.1313679218292236 -0.03783890977501869 44
0.6458258032798767 2.1203408241271973 0.583256721496582 44
0.6446415185928345 2.1151280403137207 0.5012615919113159 44
0.6411369442939758 2.10231351852417 0.4194028675556183 44
0.6453918814659119 2.1149425506591797 0.34377655386924744 44
0.6401686668395996 2.096515417098999 0.26445645093917847 44
0.6501254439353943 2.127793550491333 0.19130685925483704 44
0.6476798057556152 2.1184661388397217 0.1140923872590065 44
0.6459014415740967 2.1113312244415283 0.037871718406677246 44
0.5595548748970032 1.8233908414840698 -0.5008150935173035 119
0.6304532289505005 2.053145408630371 -0.4870193302631378 119
0.6613960862159729 2.1525754928588867 -0.42988821864128113 119
0.6585100293159485 2.1418511867523193 -0.3488491475582123 44
0.6620692014694214 2.152090311050415 -0.2717689573764801 44
0.6589767932891846 2.1407086849212646 -0.19261449575424194 44
0.653590977191925 2.1218957901000977 -0.11397353559732437 44
0.6562139391899109 2.1290900707244873 -0.03783890977501869 44
0.6532232165336609 2.1180734634399414 0.583256721496582 44
0.6520207524299622 2.1128649711608887 0.5012615919113159 44
0.6499195694923401 2.1047523021698 0.42035603523254395 44
0.652770459651947 2.1126768589019775 0.34377655386924744 44
0.6474830508232117 2.0942680835723877 0.26445645093917847 44
0.6575488448143005 2.1255111694335938 0.19130685925483704 44
0.6565471291542053 2.120961904525757 0.11435405910015106 44
0.6532673835754395 2.1090636253356934 0.037871718406677246 44
0.5644832849502563 1.8168143033981323 -0.4995209574699402 119
0.6376162171363831 2.0509324073791504 -0.4870193302631378 119
0.6703639626502991 2.1549408435821533 -0.4308414161205292 0
0.6659824848175049 2.1395394802093506 -0.3488491475582123 44
0.6695773005485535 2.149766206741333 -0.2717689573764801 44
0.6679272055625916 2.143150806427002 -0.19305026531219482 44
0.662480354309082 2.124368190765381 -0.11423435062170029 44
0.6651309132575989 2.131558895111084 -0.037925295531749725 44
0.6620522737503052 2.1203911304473877 0.5845500230789185 44
0.6593920588493347 2.1105761528015137 0.5012615919113159 44
0.6572625041007996 2.102470636367798 0.42035603523254395 44
0.6601411700248718 2.1103854179382324 0.34377655386924744 44
0.6562718152999878 2.096731185913086 0.2650658190250397 44
0.6664530038833618 2.1279563903808594 0.1917426437139511 44
0.6639466881752014 2.118657350540161 0.11435405910015106 44
0.6621212959289551 2.1115410327911377 0.037958983331918716 44
0.5679236054420471 1.8056186437606812 -0.4969327747821808 119
0.6447713971138 2.048694133758545 -0.4870193302631378 119
0.6778820157051086 2.152587652206421 -0.4308414161205292 0
0.6749309301376343 2.141911745071411 -0.34963130950927734 44
0.6785696744918823 2.152148723602295 -0.27237826585769653 44
0.6754041314125061 2.140806198120117 -0.19305026531219482 44
0.6698917150497437 2.1220428943634033 -0.11423435062170029 44
0.6725673675537109 2.1292240619659424 -0.037925295531749725 44
0.6694497466087341 2.1180672645568848 0.5845500230789185 44
0.6682243347167969 2.1129066944122314 0.5023854970932007 44
0.6660783886909485 2.1048433780670166 0.421309232711792 44
0.6689944863319397 2.112776279449463 0.34455785155296326 44
0.6635867357254028 2.0944275856018066 0.2650658190250397 44
0.6738768815994263 2.125617027282715 0.1917426437139511 44
0.6713381409645081 2.1163268089294434 0.11435405910015106 44
0.6694878935813904 2.1092169284820557 0.037958983331918716 44
0.5727577805519104 1.7990232706069946 -0.4956386983394623 119
0.6519187092781067 2.046431064605713 -0.4870193302631378 119
0.6853918433189392 2.1502084732055664 -0.4308414161205292 0
0.6824035048484802 2.139542818069458 -0.34963130950927734 44
0.686077892780304 2.1497671604156494 -0.27237826585769653 44
0.6828728318214417 2.1384356021881104 -0.19305026531219482 44
0.6772949695587158 2.1196916103363037 -0.11423435062170029 44
0.6799957156181335 2.126863479614258 -0.037925295531749725 44
0.6768391132354736 2.1157174110412598 0.5845500230789185 44
0.6770811080932617 2.115201711654663 0.5035094022750854 44
0.6734216213226318 2.1025054454803467 0.421309232711792 44
0.6763653755187988 2.1104280948638916 0.34455785155296326 44
0.6724091172218323 2.0968244075775146 0.2656751573085785 44
0.6812925934791565 2.1232519149780273 0.1917426437139511 44
0.6787214279174805 2.1139705181121826 0.11435405910015106 44
0.6768463850021362 2.1068670749664307 0.037958983331918716 44
0.5805152654647827 1.8016098737716675 -0.4969327747821808 119
0.659058153629303 2.044142961502075 -0.4870193302631378 119
0.6944001913070679 2.1524736881256104 -0.43179458379745483 0
0.6913848519325256 2.141847610473633 -0.3504135012626648 44
0.695103108882904 2.1520814895629883 -0.27298763394355774 44
0.6918649673461914 2.1407785415649414 -0.1934860497713089 44
0.6862262487411499 2.122065305709839 -0.11449515074491501 44
0.6874156594276428 2.124476909637451 -0.037925295531749725 44
0.6842202544212341 2.113342046737671 0.5845500230789185 44
0.684460461139679 2.1128251552581787 0.5035094022750854 44
0.6807566285133362 2.100142002105713 0.421309232711792 44
0.685251772403717 2.1127524375915527 0.34533917903900146 44
0.6797243356704712 2.0944645404815674 0.2656751573085785 44
0.6902382373809814 2.1255979537963867 0.192178413271904 44
0.6860964298248291 2.111588478088379 0.11435405910015106 44
0.6857423186302185 2.109246015548706 0.03804624453186989 44
0.5882977843284607 1.804164171218872 -0.4982268810272217 119
0.6661894917488098 2.041829824447632 -0.4870193302631378 119
0.7019094824790955 2.1500368118286133 -0.43179458379745483 0
0.6988570690155029 2.139421224594116 -0.3504135012626648 44
0.7026110887527466 2.149641990661621 -0.27298763394355774 44
0.6993334889411926 2.138350248336792 -0.1934860497713089 44
0.6936295032501221 2.119657039642334 -0.11449515074491501 44
0.696382999420166 2.1268155574798584 -0.038011688739061356 44
0.6930966973304749 2.115530252456665 0.5858432650566101 44
0.6918313503265381 2.1104233264923096 0.5035094022750854 44
0.6880833506584167 2.097752809524536 0.421309232711792 44
0.6926224827766418 2.110347270965576 0.34533917903900146 44
0.6870312094688416 2.0920791625976562 0.2656751573085785 44
0.6976538300514221 2.123175621032715 0.192178413271904 44
0.6934630274772644 2.1091806888580322 0.11435405910015106 44
0.6931007504463196 2.106839418411255 0.03804624453186989 44
0.5945919156074524 1.8020997047424316 -0.4982268810272217 119
0.673312783241272 2.039492130279541 -0.4870193302631378 119
0.7109498977661133 2.1522345542907715 -0.4327477812767029 0
0.7063208222389221 2.1369686126708984 -0.3504135012626648 44
0.7101104259490967 2.147176504135132 -0.27298763394355774 44
0.7083582282066345 2.140624761581421 -0.19392181932926178 44
0.7025937438011169 2.1219630241394043 -0.11475596576929092 44
0.7038027048110962 2.1243717670440674 -0.038011688739061356 44
0.7004770636558533 2.113097906112671 0.5858432650566101 44
0.7007277011871338 2.112619638442993 0.5046333074569702 44
0.6969476938247681 2.09999680519104 0.42226240038871765 44
0.6999847292900085 2.107916831970215 0.34533917903900146 44
0.6958945989608765 2.0943777561187744 0.2662844955921173 44
0.7050607800483704 2.1207275390625 0.192178413271904 44
0.702397346496582 2.111485004425049 0.11461574584245682 44
0.7020295262336731 2.1091504096984863 0.03813350573182106 44
0.6024079918861389 1.8045942783355713 -0.4995209574699402 119
0.6804277896881104 2.0371294021606445 -0.4870193302631378 119
0.7184582352638245 2.1497397422790527 -0.4327477812767029 0
0.7153419852256775 2.1391732692718506 -0.35119566321372986 44
0.7191758155822754 2.149390697479248 -0.27359697222709656 44
0.7158260345458984 2.138139247894287 -0.19392181932926178 44
0.7115824222564697 2.124232053756714 -0.11501676589250565 44
0.7112138867378235 2.1219022274017334 -0.038011688739061356 44
0.709384560585022 2.1152193546295166 0.5871365070343018 44
0.7080978155136108 2.1101608276367188 0.5046333074569702 44
0.7042738199234009 2.097551107406616 0.42226240038871765 44
0.7073384523391724 2.1054606437683105 0.34533917903900146 44
0.7032010555267334 2.091935873031616 0.2662844955921173 44
0.7140471339225769 2.1229746341705322 0.19261419773101807 44
0.7097635269165039 2.109020471572876 0.11461574584245682 44
0.7093875408172607 2.106687068939209 0.03813350573182106 44
0.6071583032608032 1.7979047298431396 -0.4982268810272217 119
0.6875345706939697 2.0347416400909424 -0.4870193302631378 119
0.7259578704833984 2.147218704223633 -0.4327477812767029 0
0.7228047251701355 2.1366631984710693 -0.35119566321372986 44
0.7266741991043091 2.146867275238037 -0.27359697222709656 44
0.7232851982116699 2.135627508163452 -0.19392181932926178 44
0.718993067741394 2.121735095977783 -0.11501676589250565 44
0.7202216386795044 2.124140977859497 -0.03809807822108269 44
0.7167637348175049 2.1127302646636963 0.5871365070343018 44
0.7170254588127136 2.1122896671295166 0.505757212638855 44
0.7131698727607727 2.0997273921966553 0.4232156276702881 44
0.7162726521492004 2.107654333114624 0.3461204767227173 44
0.712096631526947 2.0941669940948486 0.2668938636779785 44
0.7214533686637878 2.120469093322754 0.19261419773101807 44
0.7187302112579346 2.1112568378448486 0.11487741768360138 44
0.7183489203453064 2.1089303493499756 0.03822077065706253 44
0.6134304404258728 1.7957744598388672 -0.4982268810272217 119
0.6946330070495605 2.0323293209075928 -0.4870193302631378 119
0.7350368499755859 2.149315595626831 -0.43370094895362854 0
0.7318575978279114 2.1387996673583984 -0.3519778251647949 44
0.7357712984085083 2.149013042449951 -0.27420634031295776 44
0.7323498725891113 2.1378021240234375 -0.19435760378837585 44
0.7280139923095703 2.123936176300049 -0.11527758091688156 44
0.7276319265365601 2.1216139793395996 -0.03809807822108269 44
0.7257018685340881 2.114783763885498 0.5884297490119934 44
0.7243943214416504 2.109773874282837 0.505757212638855 44
0.7220897078514099 2.101867198944092 0.42416879534721375 44
0.7236253619194031 2.1051414012908936 0.3461204767227173 44
0.7194023728370667 2.0916686058044434 0.2668938636779785 44
0.7304715514183044 2.122647762298584 0.19304996728897095 44
0.7260954976081848 2.1087350845336914 0.11487741768360138 44
0.7257061004638672 2.106409788131714 0.03822077065706253 44
0.6181180477142334 1.7890573740005493 -0.4969327747821808 119
0.7033146619796753 2.034496784210205 -0.48814404010772705 119
0.742534875869751 2.1467366218566895 -0.43370094895362854 0
0.7393189072608948 2.1362321376800537 -0.3519778251647949 44
0.7432683110237122 2.1464316844940186 -0.27420634031295776 44
0.7398077249526978 2.13523268699646 -0.19435760378837585 44
0.7354234457015991 2.121381998062134 -0.11527758091688156 44
0.7366716861724854 2.1237845420837402 -0.03818446770310402 44
0.7346630096435547 2.116800546646118 0.5897230505943298 44
0.7333526611328125 2.11183500289917 0.5068811178207397 44
0.7294222116470337 2.0993340015411377 0.42416879534721375 44
0.7325910329818726 2.1072676181793213 0.3469018042087555 44
0.7283296585083008 2.093831777572632 0.26750320196151733 44
0.7378765344619751 2.1200850009918213 0.19304996728897095 44
0.7350940108299255 2.110903263092041 0.11513910442590714 44
0.7330543994903564 2.1038639545440674 0.03822077065706253 44
0.6243592500686646 1.7868887186050415 -0.4969327747821808 119
0.7120199203491211 2.036628246307373 -0.48926883935928345 119
0.751644492149353 2.1487648487091064 -0.434654176235199 0
0.7467712759971619 2.133638381958008 -0.3519778251647949 44
0.7507562041282654 2.1438241004943848 -0.27420634031295776 44
0.7489036321640015 2.1373379230499268 -0.19479337334632874 44
0.7428240180015564 2.1188018321990967 -0.11527758091688156 44
0.7440804839134216 2.1212000846862793 -0.03818446770310402 44
0.7420475482940674 2.1142232418060303 0.5897230505943298 44
0.7407198548316956 2.109262228012085 0.5068811178207397 44
0.7383729219436646 2.1014058589935303 0.4251219928264618 44
0.7399422526359558 2.1046974658966064 0.3469018042087555 44
0.7372809052467346 2.0959582328796387 0.26811254024505615 44
0.7469263076782227 2.12219500541687 0.19348575174808502 44
0.7424579858779907 2.1083242893218994 0.11513910442590714 44
0.7420551180839539 2.1060073375701904 0.038308028131723404 44
0.6289837956428528 1.7801446914672852 -0.4956386983394623 119
0.7207486033439636 2.038723945617676 -0.49039360880851746 119
0.7591404914855957 2.146127939224243 -0.434654176235199 0
0.7558621168136597 2.135673999786377 -0.35275998711586 44
0.758234977722168 2.141190528869629 -0.27420634031295776 44
0.7563597559928894 2.1347107887268066 -0.19479337334632874 44
0.750215470790863 2.1161961555480957 -0.11527758091688156 44
0.753151535987854 2.1233012676239014 -0.03827085718512535 44
0.7510384917259216 2.1161718368530273 0.5910162329673767 44
0.7480780482292175 2.106663703918457 0.5068811178207397 44
0.7473468780517578 2.103440284729004 0.42607516050338745 44
0.7489386796951294 2.106755018234253 0.3476831018924713 44
0.7445927262306213 2.093372106552124 0.26811254024505615 44
0.7543295621871948 2.119574785232544 0.19348575174808502 44
0.7498128414154053 2.105719804763794 0.11513910442590714 44
0.7494019269943237 2.1034042835235596 0.038308028131723404 44
0.6384435892105103 1.7870346307754517 -0.4982268810272217 119
0.7295005321502686 2.040782928466797 -0.4915183484554291 119
0.7682802081108093 2.1480865478515625 -0.43560734391212463 0
0.7649763822555542 2.1376724243164062 -0.35354217886924744 44
0.7673773169517517 2.143202543258667 -0.2748156785964966 44
0.7654865980148315 2.136746644973755 -0.195229172706604 44
0.7592825889587402 2.1182644367218018 -0.11553838849067688 44
0.7605586647987366 2.120659351348877 -0.03827085718512535 44
0.7584207653999329 2.113537311553955 0.5910162329673767 44
0.7554271221160889 2.1040396690368652 0.5068811178207397 44
0.7563442587852478 2.105438470840454 0.4270283579826355 44
0.7562880516052246 2.104127883911133 0.3476831018924713 44
0.7535747289657593 2.0954296588897705 0.26872187852859497 44
0.7634100914001465 2.121615409851074 0.1939215213060379 44
0.7588499188423157 2.107787609100342 0.1154007762670517 44
0.756739616394043 2.1007754802703857 0.038308028131723404 44
0.6413961052894592 1.7757103443145752 -0.4956386983394623 119
0.7366197109222412 2.038224220275879 -0.4915183484554291 119
0.7774428725242615 2.150007486343384 -0.4365605413913727 0
0.7724335789680481 2.1349892616271973 -0.35354217886924744 44
0.7748538255691528 2.1405110359191895 -0.2748156785964966 44
0.7729405760765076 2.134061813354492 -0.195229172706604 44
0.7666720747947693 2.1156013011932373 -0.11553838849067688 44
0.7696605920791626 2.1226913928985596 -0.03835725039243698 44
0.7657937407493591 2.11087703704834 0.5910162329673767 44
0.7627670168876648 2.1013898849487305 0.5068811178207397 44
0.7636889815330505 2.102785587310791 0.4270283579826355 44
0.76194167137146 2.0968337059020996 0.3469018042087555 44
0.7625803351402283 2.0974507331848145 0.2693312466144562 44
0.7708112597465515 2.1189377307891846 0.1939215213060379 44
0.7662028670310974 2.105125904083252 0.1154007762670517 44
0.7640681266784668 2.098121166229248 0.038308028131723404 44
0.6525603532791138 1.787070393562317 -0.4995209574699402 119
0.7420582175254822 2.031064510345459 -0.49039360880851746 119
0.7866281867027283 2.151890516281128 -0.43751370906829834 0
0.7815776467323303 2.13691782951355 -0.3543243408203125 44
0.7840264439582825 2.142453670501709 -0.2754250168800354 44
0.7820976376533508 2.1360278129577637 -0.19566494226455688 44
0.7740522027015686 2.112912178039551 -0.11553838849067688 44
0.7770655155181885 2.1199920177459717 -0.03835725039243698 44
0.7731574177742004 2.1081910133361816 0.5910162329673767 44
0.770097553730011 2.0987143516540527 0.5068811178207397 44
0.7710244059562683 2.100106716156006 0.4270283579826355 44
0.7675533294677734 2.0895252227783203 0.3461204767227173 44
0.7716091275215149 2.0994341373443604 0.269940584897995 44
0.7799221277236938 2.1209092140197754 0.19435730576515198 44
0.7735463976860046 2.102438449859619 0.1154007762670517 44
0.7731143236160278 2.100132703781128 0.038395293056964874 44
nan nan nan 0
0.7491434216499329 2.0284619331359863 -0.49039360880851746 119
0.7941349148750305 2.1491315364837646 -0.43751370906829834 119
0.7907446026802063 2.138808488845825 -0.35510653257369995 44
0.7932219505310059 2.1443583965301514 -0.2760343551635742 44
0.7912779450416565 2.137956142425537 -0.19610072672367096 44
0.7814229726791382 2.1101973056793213 -0.11553838849067688 44
0.7861977219581604 2.1219542026519775 -0.038443636149168015 44
0.7805116772651672 2.1054794788360596 0.5910162329673767 44
0.7791130542755127 2.100581407546997 0.5080050230026245 44
0.7783504128456116 2.097402811050415 0.4270283579826355 44
0.7679664492607117 2.06831431388855 0.34299522638320923 44
0.7823893427848816 2.106031894683838 0.27115926146507263 44
0.7890560626983643 2.12284255027771 0.19479307532310486 44
0.7808805704116821 2.0997254848480225 0.1154007762670517 44
0.7804467082023621 2.097419023513794 0.038395293056964874 44
nan nan nan 0
0.7548684477806091 2.0211384296417236 -0.48926883935928345 119
0.8037247061729431 2.150804281234741 -0.4384669363498688 119
0.7985784411430359 2.1358957290649414 -0.35510653257369995 44
0.8010761141777039 2.141436815261841 -0.2760343551635742 44
0.7991085648536682 2.1350414752960205 -0.19610072672367096 44
0.7891519665718079 2.1073191165924072 -0.11553838849067688 44
0.7939698100090027 2.119058609008789 -0.038443636149168015 44
0.7899187803268433 2.1071269512176514 0.5923095345497131 44
0.7868068218231201 2.0977118015289307 0.5080050230026245 44
0.7860326170921326 2.0945358276367188 0.4270283579826355 44
0.7911658883094788 2.1070964336395264 0.35002702474594116 44
0.791848361492157 2.1077961921691895 0.27176862955093384 44
0.7985839247703552 2.124598979949951 0.19522887468338013 44
0.7885712385177612 2.096849203109741 0.1154007762670517 44
0.7898831963539124 2.0992257595062256 0.038482554256916046 44
0.6647299528121948 1.7619467973709106 -0.4943445920944214 119
0.7619189023971558 2.01849102973938 -0.48926883935928345 119
0.8112275004386902 2.1479856967926025 -0.4384669363498688 119
0.8077748417854309 2.1377148628234863 -0.355888694524765 44
0.8103012442588806 2.1432693004608154 -0.2766437232494354 44
0.8083187341690063 2.1368980407714844 -0.19653649628162384 44
0.7947357296943665 2.099881887435913 -0.11527758091688156 44
0.8031322956085205 2.1209495067596436 -0.038530029356479645 44
0.7972692251205444 2.1043567657470703 0.5923095345497131 44
0.7958512306213379 2.099508047103882 0.5091289281845093 44
0.7933390736579895 2.0917792320251465 0.4270283579826355 44
0.8020204305648804 2.1135566234588623 0.3515896499156952 44
0.7992011308670044 2.1050193309783936 0.27176862955093384 44
0.8077641129493713 2.1264545917510986 0.19566462934017181 44
0.7958858013153076 2.094083786010742 0.1154007762670517 44
0.7972123026847839 2.0964534282684326 0.038482554256916046 44
nan nan nan 0
0.7672237753868103 2.0112674236297607 -0.48814404010772705 119
0.8187204003334045 2.1451408863067627 -0.4384669363498688 119
0.8152319192886353 2.1348822116851807 -0.355888694524765 44
0.817777693271637 2.140427827835083 -0.2766437232494354 44
0.8157730102539062 2.134063482284546 -0.19653649628162384 44
0.80562824010849 2.1064224243164062 -0.1157992035150528 44
0.810530960559845 2.118133068084717 -0.038530029356479645 44
0.8063368201255798 2.1060714721679688 0.59360271692276 44
0.8031750321388245 2.096717357635498 0.5091289281845093 44
0.8006359338760376 2.0889973640441895 0.4270283579826355 44
0.8182342648506165 2.1338000297546387 0.35549619793891907 44
0.8083218336105347 2.1068499088287354 0.27237796783447266 44
0.8169668912887573 2.128272294998169 0.19610042870044708 44
0.8049809336662292 2.095954179763794 0.11566246300935745 44
0.8063123226165771 2.0983266830444336 0.038569819182157516 44
0.6579151153564453 1.7076891660690308 -0.4801095128059387 119
0.774239718914032 2.0085771083831787 -0.48814404010772705 119
0.8262033462524414 2.142270088195801 -0.4384669363498688 119
0.8244569897651672 2.1366310119628906 -0.35667088627815247 44
0.8270315527915955 2.1421897411346436 -0.27725306153297424 44
0.8250120878219604 2.1358492374420166 -0.19697228074073792 44
0.8147760033607483 2.1082546710968018 -0.11606000363826752 44
0.819722592830658 2.1199536323547363 -0.03861641883850098 44
0.815426230430603 2.1077487468719482 0.5948960185050964 44
0.8122478127479553 2.098444700241089 0.510252833366394 44
0.8096955418586731 2.090766668319702 0.42798152565956116 44
0.8238933682441711 2.1263256072998047 0.35471490025520325 44
0.8174649477005005 2.108642816543579 0.27298733592033386 44
0.8261921405792236 2.130051374435425 0.19653619825839996 44
0.8104857206344604 2.0884764194488525 0.1154007762670517 44
0.8154414296150208 2.1001596450805664 0.03865707665681839 44
nan nan nan 0
0.7812462449073792 2.005862236022949 -0.48814404010772705 119
0.8354583978652954 2.1439461708068848 -0.4394201338291168 119
0.8319101929664612 2.133740186691284 -0.35667088627815247 44
0.8345041275024414 2.1392898559570312 -0.27725306153297424 44
0.8324625492095947 2.1329565048217773 -0.19697228074073792 44
0.8239465355873108 2.110049247741699 -0.11632081866264343 44
0.8271175622940063 2.117079257965088 -0.03861641883850098 44
0.8227786421775818 2.104889392852783 0.5948960185050964 44
0.8213422894477844 2.1001338958740234 0.5113767385482788 44
0.8205657601356506 2.097069263458252 0.42988792061805725 44
0.8331109881401062 2.128035545349121 0.35549619793891907 44
0.8248205780982971 2.105776309967041 0.27298733592033386 44
0.8336224555969238 2.1271543502807617 0.19653619825839996 44
0.8177709579467773 2.085634708404541 0.1154007762670517 44
0.8227673768997192 2.0973002910614014 0.03865707665681839 44
0.6963366270065308 1.7704720497131348 -0.4995209574699402 119
0.7882431745529175 2.0031230449676514 -0.48814404010772705 119
0.8429371118545532 2.141016960144043 -0.4394201338291168 119
0.8411632180213928 2.135417938232422 -0.35745301842689514 44
0.843786358833313 2.1409811973571777 -0.27786242961883545 44
0.8417299389839172 2.134671211242676 -0.1974080502986908 44
0.8349719047546387 2.1164498329162598 -0.11684243381023407 44
0.8363381028175354 2.1188297271728516 -0.03870280832052231 44
0.8318951725959778 2.106496810913086 0.5961893200874329 44
0.8304584622383118 2.10178542137146 0.5125006437301636 44
0.8314899206161499 2.1033213138580322 0.43179428577423096 44
0.8405341506004333 2.125114679336548 0.35549619793891907 44
0.8339921236038208 2.10749888420105 0.2735966444015503 44
0.842876136302948 2.1288628578186035 0.19697198271751404 44
0.8268851637840271 2.087409496307373 0.11566246300935745 44
0.8319253325462341 2.0990633964538574 0.03874434158205986 44
0.7093343138694763 1.7861075401306152 -0.504697322845459 119
0.7945323586463928 2.000636577606201 -0.48814404010772705 119
0.8514715433120728 2.1429195404052734 -0.4403733015060425 119
0.8478676080703735 2.1327648162841797 -0.35745301842689514 44
0.8505082130432129 2.138319730758667 -0.27786242961883545 44
0.8484320640563965 2.13201642036438 -0.1974080502986908 44
0.8397696614265442 2.1091771125793457 -0.11658161878585815 44
0.8429904580116272 2.1161916255950928 -0.03870280832052231 44
0.8385087847709656 2.1038730144500732 0.5961893200874329 44
0.8388619422912598 2.103691577911377 0.5136245489120483 44
0.8399124145507812 2.105257749557495 0.432747483253479 44
0.847206175327301 2.1224634647369385 0.35549619793891907 44
0.8406088948249817 2.1048684120178223 0.2735966444015503 44
0.8495599627494812 2.126204252243042 0.19697198271751404 44
0.8389992713928223 2.098710775375366 0.11644749343395233 44
0.8403721451759338 2.101080894470215 0.03883160278201103 44
0.7008734941482544 1.7478841543197632 -0.4943445920944214 119
0.8015110492706299 1.9978511333465576 -0.48814404010772705 119
0.8589465618133545 2.1399343013763428 -0.4403733015060425 119
0.8571476340293884 2.1343748569488525 -0.3582352101802826 44
0.8598173260688782 2.1399426460266113 -0.2784717381000519 44
0.8577268719673157 2.1336634159088135 -0.19784384965896606 44
0.8471269011497498 2.1062328815460205 -0.11658161878585815 44
0.8503721952438354 2.11323618888855 -0.03870280832052231 44
0.8476513028144836 2.1054134368896484 0.5974825024604797 44
0.8462001085281372 2.10075044631958 0.5136245489120483 44
0.8509254455566406 2.1114180088043213 0.4346538782119751 44
0.8546097874641418 2.119493246078491 0.35549619793891907 44
0.849807858467102 2.1065239906311035 0.2742060124874115 44
0.8569766283035278 2.1232259273529053 0.19697198271751404 44
0.8500593900680542 2.1050291061401367 0.11697085201740265 44
0.8495739698410034 2.1027700901031494 0.038918863981962204 44
nan nan nan 0
0.8106586337089539 1.9994149208068848 -0.48926883935928345 119
0.8686290979385376 2.14132022857666 -0.4413264989852905 119
0.8649647831916809 2.1312191486358643 -0.3582352101802826 44
0.8676548004150391 2.136776924133301 -0.2784717381000519 44
0.865541398525238 2.130505323410034 -0.19784384965896606 44
0.8548409342765808 2.1031136512756348 -0.11658161878585815 44
0.8599951267242432 2.1147360801696777 -0.03878919780254364 44
0.8571826815605164 2.10676646232605 0.5987758040428162 44
0.8557309508323669 2.1021475791931152 0.5147484540939331 44
0.8605096936225891 2.112830638885498 0.43560701608657837 44
0.8642359972000122 2.120920181274414 0.3562775254249573 44
0.8575229644775391 2.1033949851989746 0.2742060124874115 44
0.8666340708732605 2.124682664871216 0.19740775227546692 44
0.8615421056747437 2.111145257949829 0.11749421060085297 44
0.8572753071784973 2.099642038345337 0.038918863981962204 44
nan nan nan 0
0.8157867193222046 1.9920644760131836 -0.48814404010772705 119
0.8779593110084534 2.1428167819976807 -0.4422796666622162 119
0.8742719292640686 2.132756233215332 -0.35901737213134766 44
0.8769914507865906 2.13832688331604 -0.2790811061859131 44
0.8748638033866882 2.1320788860321045 -0.19827960431575775 44
0.8640733957290649 2.104736328125 -0.11684243381023407 44
0.8673717379570007 2.1117212772369385 -0.03878919780254364 44
0.8663672208786011 2.1082286834716797 0.6000690460205078 44
0.864916205406189 2.1036534309387207 0.5158723592758179 44
0.8678796887397766 2.109813928604126 0.43560701608657837 44
0.8716341257095337 2.1178905963897705 0.3562775254249573 44
0.8667494058609009 2.104977607727051 0.2748153507709503 44
0.8740453124046326 2.1216444969177246 0.19740775227546692 44
0.8689061403274536 2.1081249713897705 0.11749421060085297 44
0.866504967212677 2.1012582778930664 0.039006125181913376 44
nan nan nan 0
0.8190112709999084 1.9802007675170898 -0.4858945310115814 119
0.8873105645179749 2.1442744731903076 -0.4432328939437866 119
0.8817113041877747 2.1296913623809814 -0.35901737213134766 44
0.8863494396209717 2.1398375034332275 -0.2796904444694519 44
0.8823007941246033 2.129012107849121 -0.19827960431575775 44
0.8714150190353394 2.1017072200775146 -0.11684243381023407 44
0.8766533136367798 2.1132984161376953 -0.03887559100985527 44
0.8737210631370544 2.105191707611084 0.6000690460205078 44
0.8722540736198425 2.100621461868286 0.5158723592758179 44
0.877122163772583 2.111304521560669 0.4365602433681488 44
0.8809171319007874 2.1193954944610596 0.3570587933063507 44
0.8740918636322021 2.1019394397735596 0.2748153507709503 44
0.8814458847045898 2.1185805797576904 0.19740775227546692 44
0.874340832233429 2.1004695892333984 0.1172325387597084 44
0.8738344311714172 2.0982208251953125 0.039006125181913376 44
nan nan nan 0
0.8240407705307007 1.9728343486785889 -0.4847698211669922 119
0.89478999376297 2.1411643028259277 -0.4432328939437866 119
0.8910449147224426 2.1311566829681396 -0.3597995638847351 44
0.8938134908676147 2.136730670928955 -0.2796904444694519 44
0.8916500806808472 2.130514144897461 -0.19871540367603302 44
0.8806744813919067 2.1032583713531494 -0.11710324138402939 44
0.8859562873840332 2.1148362159729004 -0.038961976766586304 44
0.8829311728477478 2.106583595275879 0.6013622879981995 44
0.8814654350280762 2.1020572185516357 0.5169962644577026 44
0.8844866752624512 2.1082301139831543 0.4365602433681488 44
0.8883098363876343 2.116307497024536 0.3570587933063507 44
0.8833453059196472 2.1034510135650635 0.2754247188568115 44
0.8907652497291565 2.1200830936431885 0.197843536734581 44
0.8816675543785095 2.097404718399048 0.1172325387597084 44
0.8811532258987427 2.0951578617095947 0.039006125181913376 44
nan nan nan 0
0.819561779499054 1.9430127143859863 -0.4780212938785553 119
0.9041668772697449 2.142549753189087 -0.4441860616207123 119
0.898478627204895 2.128033399581909 -0.3597995638847351 44
0.903197705745697 2.138169050216675 -0.2802998125553131 44
0.9010205268859863 2.131976842880249 -0.1991511732339859 44
0.8899554014205933 2.1047701835632324 -0.1173640564084053 44
0.8952808380126953 2.116335153579712 -0.039048369973897934 44
0.8902791738510132 2.1034886837005615 0.6013622879981995 44
0.8887976408004761 2.0989675521850586 0.5169962644577026 44
0.8918403387069702 2.1051297187805176 0.4365602433681488 44
0.8976190090179443 2.1177408695220947 0.3578401207923889 44
0.8906823396682739 2.1003549098968506 0.2754247188568115 44
0.9001057147979736 2.1215460300445557 0.19827930629253387 44
0.8889834880828857 2.0943145751953125 0.1172325387597084 44
0.890415608882904 2.0966708660125732 0.039093390107154846 44
0.7414106130599976 1.7415815591812134 -0.4969327747821808 119
0.8377935290336609 1.9670333862304688 -0.4847698211669922 119
0.9116402864456177 2.13938045501709 -0.4441860616207123 119
0.9078381657600403 2.129427194595337 -0.36058175563812256 44
0.9106557965278625 2.1350033283233643 -0.2802998125553131 44
0.9084570407867432 2.1288187503814697 -0.1991511732339859 44
0.8992576003074646 2.106243133544922 -0.11762485653162003 44
0.9026627540588379 2.113197088241577 -0.039048369973897934 44
0.899514377117157 2.104809522628784 0.6026555299758911 44
0.8980344533920288 2.100332021713257 0.5181202292442322 44
0.9011135101318359 2.1065163612365723 0.43751341104507446 44
0.9050058126449585 2.1145946979522705 0.3578401207923889 44
0.8999618887901306 2.101794958114624 0.27603402733802795 44
0.9094672203063965 2.12296986579895 0.19871509075164795 44
0.898255467414856 2.095787763595581 0.11749421060085297 44
0.8977289199829102 2.093549966812134 0.039093390107154846 44
0.747485339641571 1.738982915878296 -0.4969327747821808 119
0.8446546792984009 1.964097023010254 -0.4847698211669922 119
0.9210425615310669 2.1406941413879395 -0.4451392590999603 119
0.915265679359436 2.1262452602386475 -0.36058175563812256 44
0.9200658202171326 2.1363697052001953 -0.28090915083885193 44
0.9158824682235718 2.1256346702575684 -0.1991511732339859 44
0.9066043496131897 2.103091239929199 -0.11762485653162003 44
0.9120135307312012 2.114623785018921 -0.039134759455919266 44
0.9068560004234314 2.101656675338745 0.6026555299758911 44
0.9072914123535156 2.1016573905944824 0.5192440748214722 44
0.9084611535072327 2.103358030319214 0.43751341104507446 44
0.9143404960632324 2.1159558296203613 0.35862141847610474 44
0.9072930812835693 2.0986406803131104 0.27603402733802795 44
0.9168722033500671 2.1197822093963623 0.19871509075164795 44
0.907548725605011 2.097222089767456 0.11775589734315872 44
0.9070175290107727 2.0949912071228027 0.03918064758181572 44
0.7497055530548096 1.7275022268295288 -0.4943445920944214 119
0.8534457683563232 1.96560537815094 -0.4858945310115814 119
0.9285093545913696 2.1374661922454834 -0.4451392590999603 119
0.9246504902839661 2.1275665760040283 -0.3613639175891876 44
0.9294964075088501 2.1376962661743164 -0.28151848912239075 44
0.925283670425415 2.1269922256469727 -0.19958695769309998 44
0.9159325957298279 2.1044921875 -0.11788567155599594 44
0.9193893671035767 2.1114275455474854 -0.039134759455919266 44
0.9161155819892883 2.1029064655303955 0.6039488315582275 44
0.9165686368942261 2.1029438972473145 0.5203679800033569 44
0.9177597165107727 2.1046736240386963 0.4384666085243225 44
0.9236958622932434 2.1172780990600586 0.35940274596214294 44
0.916598379611969 2.1000092029571533 0.27664339542388916 44
0.9262592792510986 2.121133327484131 0.19915086030960083 44
0.9168629050254822 2.0986168384552 0.11801756918430328 44
0.9143248796463013 2.0918123722076416 0.03918064758181572 44
0.7615456581115723 1.7381458282470703 -0.4982268810272217 119
0.8603018522262573 1.9626144170761108 -0.4858945310115814 119
