# .PCD v0.7 - Point Cloud Data file format
VERSION 0.7
FIELDS x y z intensity
SIZE 4 4 4 4
TYPE F F F F
COUNT 1 1 1 1
WIDTH 774
HEIGHT 1
VIEWPOINT 0 0 0 1 0 0 0
POINTS 774
DATA ascii
3.7219152450561523 -1.115212082862854 0.608640730381012 101
3.7397427558898926 -1.121265172958374 0.4746810793876648 101
3.729304313659668 -1.118844985961914 0.33729273080825806 101
3.738133668899536 -1.1222050189971924 0.20254014432430267 101
3.6706347465515137 -1.10263991355896 0.0662318766117096 101
1.807702660560608 -0.5447449684143066 -0.4956386983394623 119
2.0516457557678223 -0.6186469793319702 -0.4858945310115814 119
2.4002468585968018 -0.7242201566696167 -0.47945404052734375 119
2.9394044876098633 -0.8874585628509521 -0.480254203081131 119
3.6471235752105713 -1.1018260717391968 -0.4631040394306183 119
3.593451976776123 -1.0862959623336792 -0.3250914216041565 101
3.678457260131836 -1.1126935482025146 -0.19873645901679993 101
3.649188995361328 -1.104535460472107 -0.06522459536790848 101
3.7484705448150635 -1.1353002786636353 1.0384814739227295 101
3.7294070720672607 -1.1302372217178345 0.8901326656341553 101
3.7050211429595947 -1.1235527992248535 0.7444400787353516 101
3.666015863418579 -1.112423062324524 0.6000463366508484 101
3.6740734577178955 -1.1155683994293213 0.4667595624923706 101
3.677717447280884 -1.1173760890960693 0.3329349458217621 101
3.6816437244415283 -1.1192708015441895 0.19966165721416473 101
3.6189351081848145 -1.1008965969085693 0.06535925716161728 101
1.8057901859283447 -0.5510517358779907 -0.4956386983394623 119
2.054133415222168 -0.6272276043891907 -0.4870193302631378 119
2.4117865562438965 -0.7368969321250916 -0.4823136329650879 119
2.941011428833008 -0.8991574048995972 -0.48103639483451843 119
3.6005444526672363 -1.1014841794967651 -0.45761987566947937 119
3.5467729568481445 -1.0857112407684326 -0.3211694061756134 101
3.6268081665039062 -1.110903263092041 -0.19612836837768555 101
3.597513198852539 -1.1026170253753662 -0.06436069309711456 101
3.6798388957977295 -1.128551959991455 1.0203759670257568 101
3.6742050647735596 -1.127525806427002 0.8777697682380676 101
3.649463653564453 -1.120630145072937 0.7339549660682678 101
3.610182046890259 -1.1092575788497925 0.59145188331604 101
3.6179773807525635 -1.1123439073562622 0.46005675196647644 101
3.6309475898742676 -1.117025375366211 0.329012930393219 101
3.625221014022827 -1.11595618724823 0.196783185005188 101
3.567293167114258 -1.0988057851791382 0.06448663771152496 101
1.8038556575775146 -0.5573517680168152 -0.4956386983394623 119
2.051931381225586 -0.6343940496444702 -0.4870193302631378 119
2.423266649246216 -0.7496628761291504 -0.48517316579818726 119
2.9425723552703857 -0.9108783006668091 -0.4818185567855835 119
3.5445315837860107 -1.0978938341140747 -0.4509170651435852 119
3.5048999786376953 -1.086288571357727 -0.3176831901073456 101
3.5752172470092773 -1.1087661981582642 -0.19352027773857117 101
3.541121482849121 -1.098869800567627 -0.06341040134429932 101
3.62052583694458 -1.124203085899353 1.0048569440841675 101
3.619067430496216 -1.1244429349899292 0.8654068112373352 101
3.5939722061157227 -1.1173336505889893 0.7234699130058289 101
3.5544159412384033 -1.1057162284851074 0.5828575491905212 101
3.5429954528808594 -1.1028417348861694 0.4509165287017822 101
3.574714422225952 -1.113399624824524 0.32421937584877014 101
3.564099073410034 -1.1107755899429321 0.1936430186033249 101
3.5109376907348633 -1.0948798656463623 0.06352675706148148 101
1.8018990755081177 -0.5636449456214905 -0.4956386983394623 119
2.0497043132781982 -0.6415526866912842 -0.4870193302631378 119
2.4300031661987305 -0.7610509991645813 -0.48707953095436096 119
2.9393749237060547 -0.9211443066596985 -0.4818185567855835 119
3.5075302124023438 -1.0998656749725342 -0.4466516375541687 119
3.4583139419555664 -1.085095763206482 -0.3137611448764801 101
3.5189220905303955 -1.104786992073059 -0.19065138697624207 101
3.4943392276763916 -1.0977392196655273 -0.06263289600610733 101
3.561288356781006 -1.119454026222229 0.9893379211425781 101
3.5639970302581787 -1.1209890842437744 0.8530438542366028 101
3.5385496616363525 -1.1136637926101685 0.7129848599433899 101
3.49871826171875 -1.1017991304397583 0.5742630958557129 101
3.5249242782592773 -1.1107280254364014 0.44908851385116577 101
3.523301601409912 -1.1108927726745605 0.3198615610599518 101
3.512582302093506 -1.108186960220337 0.1910262256860733 101
3.464188575744629 -1.0935840606689453 0.06274139881134033 101
1.799920678138733 -0.5699313879013062 -0.4956386983394623 119
2.0520968437194824 -0.650175154209137 -0.48814404010772705 119
2.436689615249634 -0.7724953293800354 -0.48898595571517944 119
2.945556163787842 -0.9343854784965515 -0.4833828806877136 119
3.4563679695129395 -1.0970885753631592 -0.44055816531181335 119
3.4307684898376465 -1.089622139930725 -0.3115822374820709 101
3.4674572944641113 -1.1019407510757446 -0.18804329633712769 101
3.4333155155181885 -1.0917505025863647 -0.061596207320690155 101
3.5067317485809326 -1.115769863128662 0.9751121997833252 101
3.5136380195617676 -1.1186425685882568 0.8418048024177551 101
3.483196258544922 -1.1096205711364746 0.7024998068809509 101
3.447798252105713 -1.0990068912506104 0.5664499998092651 101
3.473745107650757 -1.107945442199707 0.4429950416088104 101
3.4624602794647217 -1.105012059211731 0.31463223695755005 101
3.4563710689544678 -1.1037334203720093 0.18814775347709656 101
3.412729501724243 -1.0904536247253418 0.06186877563595772 101
1.7979202270507812 -0.5762107968330383 -0.4956386983394623 119
2.0498147010803223 -0.6573342680931091 -0.48814404010772705 119
2.429304361343384 -0.7794966101646423 -0.4880327582359314 119
2.946978807449341 -0.9461713433265686 -0.4841650724411011 119
3.4288928508758545 -1.1015572547912598 -0.4375114440917969 119
3.4222021102905273 -1.1000667810440063 -0.31114646792411804 101
3.416055917739868 -1.0987489223480225 -0.1854351907968521 101
3.4152073860168457 -1.0991337299346924 -0.06133703887462616 101
3.4660370349884033 -1.1161600351333618 0.9647662043571472 101
3.4540648460388184 -1.112970232963562 0.8283179402351379 101
3.427915334701538 -1.1052045822143555 0.6920146942138672 101
3.4016401767730713 -1.097388744354248 0.5594182014465332 101
3.42262864112854 -1.1048191785812378 0.43690159916877747 101
3.4206631183624268 -1.104844093322754 0.31114599108695984 101
3.419239044189453 -1.1050430536270142 0.18631599843502045 101
3.4041457176208496 -1.1008214950561523 0.061781514436006546 101
1.7958979606628418 -0.582483172416687 -0.4956386983394623 119
2.0475077629089355 -0.6644854545593262 -0.48814404010772705 119
2.4219002723693848 -0.7864558100700378 -0.48707953095436096 119
2.948354721069336 -0.9579785466194153 -0.48494723439216614 119
3.4344661235809326 -1.1165883541107178 -0.4387301206588745 0
3.4230780601501465 -1.11354660987854 -0.3115822374820709 101
3.40745210647583 -1.1091210842132568 -0.1851743906736374 101
3.4113497734069824 -1.1110483407974243 -0.06133703887462616 101
3.4116058349609375 -1.1117902994155884 0.9505404233932495 108
3.408470630645752 -1.1114267110824585 0.818202793598175 108
3.40537166595459 -1.1110737323760986 0.6882019639015198 101
3.393094062805176 -1.1077232360839844 0.5586368441581726 101
3.409316301345825 -1.113677740097046 0.43568286299705505 101
3.4073169231414795 -1.113682746887207 0.3102744519710541 101
3.4106149673461914 -1.115419626235962 0.1860543191432953 101
3.3955307006835938 -1.1111425161361694 0.061694253236055374 101
1.7892649173736572 -0.5872424244880676 -0.4943445920944214 119
2.045175790786743 -0.6716285347938538 -0.48814404010772705 119
2.414477586746216 -0.7933728098869324 -0.4861263632774353 119
2.944992780685425 -0.9682644009590149 -0.48494723439216614 119
3.4305474758148193 -1.1285700798034668 -0.4387301206588745 0
3.4191701412200928 -1.1254886388778687 -0.3115822374820709 108
3.3988168239593506 -1.1194463968276978 -0.18491357564926147 101
3.402702569961548 -1.1213845014572144 -0.06125064939260483 108
3.3985302448272705 -1.1206670999526978 0.9479538798332214 108
3.3953168392181396 -1.1202646493911743 0.8159549832344055 108
3.3968117237091064 -1.1214152574539185 0.6872487664222717 108
3.398585796356201 -1.1226588487625122 0.560199499130249 108
3.395984172821045 -1.1224567890167236 0.4344641864299774 108
3.4034085273742676 -1.1255697011947632 0.3102744519710541 108
3.406700611114502 -1.127318024635315 0.1860543191432953 108
3.3963775634765625 -1.1245598793029785 0.061781514436006546 108
1.7873077392578125 -0.5931726098060608 -0.4943445920944214 119
2.043055772781372 -0.6780503988265991 -0.48814404010772705 119
2.4073145389556885 -0.7994073033332825 -0.48517316579818726 119
2.9466230869293213 -0.9790686964988708 -0.4857294261455536 119
3.426985025405884 -1.139341950416565 -0.4387301206588745 0
3.4156174659729004 -1.136224627494812 -0.3115822374820709 108
3.4000210762023926 -1.1316956281661987 -0.1851743906736374 108
3.4039061069488525 -1.1336486339569092 -0.06133703887462616 108
3.3904106616973877 -1.1298115253448486 0.9466606378555298 108
3.401024580001831 -1.1340079307556152 0.818202793598175 108
3.3839597702026367 -1.128974437713623 0.6853424310684204 108
3.3950419425964355 -1.133330225944519 0.560199499130249 108
3.3924410343170166 -1.133120059967041 0.4344641864299774 108
3.399855613708496 -1.1362563371658325 0.3102744519710541 108
3.403142213821411 -1.1380149126052856 0.1860543191432953 108
3.397568702697754 -1.136810541152954 0.06186877563595772 108
1.785330891609192 -0.5990962982177734 -0.4943445920944214 119
2.0406763553619385 -0.6851778626441956 -0.48814404010772705 119
2.3998570442199707 -0.8062424063682556 -0.4842199981212616 119
2.9431874752044678 -0.9893484711647034 -0.4857294261455536 119
3.4229869842529297 -1.1512974500656128 -0.4387301206588745 0
3.411630392074585 -1.1481404304504395 -0.3115822374820709 108
3.396049976348877 -1.143557071685791 -0.1851743906736374 108
3.399928092956543 -1.1455236673355103 -0.06133703887462616 108
3.386446237564087 -1.1416393518447876 0.9466606378555298 108
3.397045373916626 -1.1458728313446045 0.818202793598175 108
3.3846490383148193 -1.142349362373352 0.6862955689430237 108
3.3910653591156006 -1.145174264907837 0.560199499130249 108
3.3931667804718018 -1.1465436220169067 0.43507352471351624 108
3.4005870819091797 -1.1497124433517456 0.31071022152900696 108
3.399148941040039 -1.149887204170227 0.1860543191432953 108
3.398314952850342 -1.150266170501709 0.06195604056119919 108
1.7830173969268799 -0.6059470176696777 -0.4943445920944214 119
2.0380303859710693 -0.6930084228515625 -0.48814404010772705 119
2.3967435359954834 -0.8154512643814087 -0.4842199981212616 119
2.934691905975342 -0.9990505576133728 -0.48494723439216614 119
3.423238754272461 -1.166032314300537 -0.4393394887447357 0
3.4071967601776123 -1.1612316370010376 -0.3115822374820709 108
3.396359920501709 -1.1581999063491821 -0.1854351907968521 108
3.400236129760742 -1.1601842641830444 -0.06142342835664749 108
3.386608600616455 -1.1561944484710693 0.9479538798332214 108
3.39262056350708 -1.1589081287384033 0.818202793598175 108
3.3848824501037598 -1.1569244861602783 0.6872487664222717 108
3.386643171310425 -1.1581865549087524 0.560199499130249 108
3.3887393474578857 -1.1595640182495117 0.43507352471351624 108
3.3961474895477295 -1.1627612113952637 0.31071022152900696 108
3.399432420730591 -1.1645487546920776 0.18631599843502045 108
3.393873453140259 -1.1633062362670898 0.06195604056119919 108
1.7808912992477417 -0.612167239189148 -0.4943445920944214 119
2.040205955505371 -0.7017027139663696 -0.48926883935928345 119
2.403164863586426 -0.8270068764686584 -0.4861263632774353 119
2.9311866760253906 -1.0092884302139282 -0.48494723439216614 119
3.4191477298736572 -1.1779744625091553 -0.4393394887447357 0
3.407831907272339 -1.174741268157959 -0.3120180368423462 108
3.392296314239502 -1.170048475265503 -0.1854351907968521 108
3.396165370941162 -1.1720463037490845 -0.06142342835664749 108
3.382552146911621 -1.1680089235305786 0.9479538798332214 108
3.3931593894958496 -1.1723345518112183 0.8193266987800598 108
3.3808231353759766 -1.1687328815460205 0.6872487664222717 108
3.387246608734131 -1.1716153621673584 0.5609807968139648 108
3.3893606662750244 -1.1730087995529175 0.43568286299705505 108
3.3967747688293457 -1.176238775253296 0.31114599108695984 108
3.3953468799591064 -1.176407814025879 0.18631599843502045 108
3.3945131301879883 -1.1767897605895996 0.06204329803586006 108
1.7788515090942383 -0.6180694699287415 -0.4943445920944214 119
2.0333893299102783 -0.7065097689628601 -0.48814404010772705 119
2.4051907062530518 -0.8361642360687256 -0.48707953095436096 119
2.9326658248901367 -1.020114541053772 -0.4857294261455536 119
3.420117139816284 -1.190341591835022 -0.43994882702827454 0
3.4041244983673096 -1.185441493988037 -0.3120180368423462 108
3.3933188915252686 -1.182342767715454 -0.18569600582122803 108
3.3971869945526123 -1.1843554973602295 -0.06150982156395912 108
3.3834261894226074 -1.180220365524292 0.9492471218109131 108
3.3894598484039307 -1.1829886436462402 0.8193266987800598 108
3.3817684650421143 -1.1809663772583008 0.6882019639015198 108
3.388211488723755 -1.1838799715042114 0.5617621541023254 108
3.3856589794158936 -1.183651089668274 0.43568286299705505 108
3.3930628299713135 -1.1869041919708252 0.31114599108695984 108
3.3963468074798584 -1.188718318939209 0.1865776777267456 108
3.390801429748535 -1.1874417066574097 0.06204329803586006 108
1.776792049407959 -0.6239649653434753 -0.4943445920944214 119
2.0446999073028564 -0.7184484004974365 -0.4915183484554291 119
2.4068877696990967 -0.8461827635765076 -0.4880327582359314 119
2.9290871620178223 -1.0303453207015991 -0.4857294261455536 119
3.4159412384033203 -1.202272653579712 -0.43994882702827454 0
3.4046640396118164 -1.1989715099334717 -0.31245383620262146 108
3.3891711235046387 -1.1941804885864258 -0.18569600582122803 108
3.3930323123931885 -1.1962066888809204 -0.06150982156395912 108
3.383840799331665 -1.193630337715149 0.9505404233932495 108
3.3899037837982178 -1.1964343786239624 0.8204506039619446 108
3.382254123687744 -1.194398283958435 0.6891551613807678 108
3.3840584754943848 -1.1956998109817505 0.5617621541023254 108
3.386185646057129 -1.1971161365509033 0.43629223108291626 108
3.393594741821289 -1.200402021408081 0.3115817606449127 108
3.396883964538574 -1.2022325992584229 0.18683935701847076 108
3.3866360187530518 -1.1992706060409546 0.06204329803586006 108
1.7699424028396606 -0.6288561224937439 -0.4930504858493805 119
2.0374627113342285 -0.7243059873580933 -0.49039360880851746 119
2.4176437854766846 -0.8599334359169006 -0.49089235067367554 119
2.925291061401367 -1.0410739183425903 -0.4857294261455536 119
3.416187047958374 -1.216449499130249 -0.44055816531181335 0
3.4002466201782227 -1.211441993713379 -0.31245383620262146 108
3.389474868774414 -1.2082710266113281 -0.18595680594444275 108
3.393333673477173 -1.210314154624939 -0.061596207320690155 108
3.3839919567108154 -1.2076479196548462 0.9518336057662964 108
3.385495901107788 -1.2088508605957031 0.8204506039619446 108
3.3824756145477295 -1.2084381580352783 0.6901082992553711 108
3.384303569793701 -1.2097572088241577 0.5625434517860413 108
3.3864481449127197 -1.2111904621124268 0.43690159916877747 108
3.389172315597534 -1.2128320932388306 0.3115817606449127 108
3.3924548625946045 -1.214674711227417 0.18683935701847076 108
3.3869240283966064 -1.213361382484436 0.06213056296110153 108
1.7677364349365234 -0.6350305676460266 -0.4930504858493805 119
2.0349221229553223 -0.7314136624336243 -0.49039360880851746 119
2.410008668899536 -0.8667062520980835 -0.4899391233921051 119
2.9216392040252686 -1.051278829574585 -0.4857294261455536 119
3.4165892601013184 -1.2300477027893066 -0.4411675035953522 0
3.4006834030151367 -1.224991798400879 -0.31288960576057434 108
3.3899338245391846 -1.2217881679534912 -0.18621762096881866 108
3.3937911987304688 -1.22384774684906 -0.061682600528001785 108
3.379755973815918 -1.219452977180481 0.9518336057662964 108
3.385838508605957 -1.2223155498504639 0.8215745091438293 108
3.378236770629883 -1.2202378511428833 0.6901082992553711 108
3.3800601959228516 -1.2215633392333984 0.5625434517860413 108
3.386866331100464 -1.2246915102005005 0.4375109076499939 108
3.3896021842956543 -1.2263495922088623 0.312017560005188 108
3.3928890228271484 -1.2282086610794067 0.18710103631019592 108
3.3826680183410645 -1.2251765727996826 0.06213056296110153 108
1.7337324619293213 -0.6296566128730774 -0.4839918315410614 119
nan nan nan 0
2.397742748260498 -0.8717592358589172 -0.4880327582359314 119
2.917951822280884 -1.061470866203308 -0.4857294261455536 119
3.4122745990753174 -1.2419663667678833 -0.4411675035953522 0
3.3963863849639893 -1.236854910850525 -0.31288960576057434 108
3.385648250579834 -1.2336137294769287 -0.18621762096881866 108
3.389498472213745 -1.2356867790222168 -0.061682600528001785 108
3.3800158500671387 -1.2328981161117554 0.9531269073486328 108
3.3861277103424072 -1.2357971668243408 0.8226984143257141 108
3.378567695617676 -1.2337062358856201 0.6910615563392639 108
3.3804142475128174 -1.2350492477416992 0.5633247494697571 108
3.3872320652008057 -1.2382104396820068 0.4381202757358551 108
3.3899786472320557 -1.2398852109909058 0.31245335936546326 108
3.3932700157165527 -1.241760492324829 0.18736271560192108 108
3.3830652236938477 -1.2386956214904785 0.062217824161052704 108
1.7677937746047974 -0.6490205526351929 -0.4943445920944214 119
nan nan nan 0
2.390078067779541 -0.8784304261207581 -0.48707953095436096 119
2.914228677749634 -1.0716499090194702 -0.4857294261455536 119
3.412576198577881 -1.255583643913269 -0.4417768716812134 0
3.3967227935791016 -1.250423789024353 -0.3133253753185272 108
3.386007070541382 -1.2471500635147095 -0.18647843599319458 108
3.38985538482666 -1.2492395639419556 -0.06176899001002312 108
3.380223512649536 -1.246359944343567 0.9544201493263245 108
3.386364221572876 -1.249295711517334 0.8238223195075989 108
3.378844976425171 -1.2471916675567627 0.6920146942138672 108
3.3760826587677 -1.246841549873352 0.5633247494697571 108
3.3828892707824707 -1.2500264644622803 0.4381202757358551 108
3.3856301307678223 -1.2517108917236328 0.31245335936546326 108
3.3889148235321045 -1.253597617149353 0.18736271560192108 108
3.383409261703491 -1.2522324323654175 0.062305089086294174 108
1.7700453996658325 -0.6568677425384521 -0.4956386983394623 119
nan nan nan 0
2.363992214202881 -0.8782215714454651 -0.4823136329650879 119
2.9104702472686768 -1.0818159580230713 -0.4857294261455536 119
3.4128239154815674 -1.269217848777771 -0.4423862099647522 0
3.397005558013916 -1.264009952545166 -0.3137611448764801 108
3.386312484741211 -1.2607040405273438 -0.1867392510175705 108
3.3854739665985107 -1.2610646486282349 -0.06176899001002312 108
3.375852346420288 -1.2581515312194824 0.9544201493263245 108
3.386547803878784 -1.2628109455108643 0.8249462246894836 108
3.3744709491729736 -1.2589784860610962 0.6920146942138672 108
3.3763363361358643 -1.2603458166122437 0.5641060471534729 108
3.3831543922424316 -1.2635637521743774 0.4387296140193939 108
3.3859059810638428 -1.2652647495269775 0.31288912892341614 108
3.389195680618286 -1.2671682834625244 0.18762439489364624 108
3.383699655532837 -1.2657866477966309 0.06239234656095505 108
1.7813076972961426 -0.66813063621521 -0.4995209574699402 119
2.0108277797698975 -0.7546190023422241 -0.4870193302631378 119
2.374697208404541 -0.8916440606117249 -0.48517316579818726 119
2.9066762924194336 -1.0919687747955322 -0.4857294261455536 119
3.413018226623535 -1.2828692197799683 -0.4429955780506134 0
3.3925726413726807 -1.2758599519729614 -0.3137611448764801 108
3.3865649700164795 -1.274275302886963 -0.1870000660419464 108
3.385730266571045 -1.274635910987854 -0.06185537949204445 108
3.375959634780884 -1.2716304063796997 0.9557133913040161 108
3.3821191787719727 -1.2746244668960571 0.8249462246894836 108
3.374648332595825 -1.2724816799163818 0.6929678916931152 108
3.3765370845794678 -1.2738670110702515 0.5648874044418335 108
3.383366107940674 -1.2771179676055908 0.4393389821052551 108
3.3861284255981445 -1.2788360118865967 0.313324898481369 108
3.3894224166870117 -1.280755877494812 0.1878860741853714 108
3.383936882019043 -1.279358148574829 0.06247961148619652 108
1.778964638710022 -0.6743444800376892 -0.4995209574699402 119
nan nan nan 0
2.376159429550171 -0.9016693234443665 -0.4861263632774353 119
2.9028468132019043 -1.102108359336853 -0.4857294261455536 119
3.4085195064544678 -1.2947750091552734 -0.4429955780506134 0
3.392754316329956 -1.2894641160964966 -0.31419694423675537 108
3.3820960521698 -1.2860889434814453 -0.1870000660419464 108
3.3859329223632812 -1.2882243394851685 -0.06194177269935608 108
3.376013994216919 -1.2851251363754272 0.9570066332817078 108
3.3822021484375 -1.2881566286087036 0.8260701298713684 108
3.374772548675537 -1.286001443862915 0.6939210891723633 108
3.3766841888427734 -1.2874048948287964 0.5656687021255493 108
3.378887414932251 -1.2889204025268555 0.4393389821052551 108
3.3816440105438232 -1.2906478643417358 0.313324898481369 108
3.3895955085754395 -1.2943607568740845 0.18814775347709656 108
3.3841207027435303 -1.2929469347000122 0.06256687641143799 108
1.7765998840332031 -0.6805500984191895 -0.4995209574699402 119
2.023707151412964 -0.7756128907203674 -0.4915183484554291 119
2.3821632862091064 -0.9134728312492371 -0.4880327582359314 119
2.903592824935913 -1.1140034198760986 -0.48651158809661865 119
3.4086122512817383 -1.3084436655044556 -0.44360488653182983 0
3.388232707977295 -1.3012992143630981 -0.31419694423675537 108
3.382246971130371 -1.2996777296066284 -0.18726086616516113 108
3.3860816955566406 -1.3018295764923096 -0.06202816218137741 108
3.371507406234741 -1.2969017028808594 0.9570066332817078 108
3.3822319507598877 -1.30170476436615 0.8271940350532532 108
3.37026309967041 -1.2977737188339233 0.6939210891723633 108
3.3767783641815186 -1.3009593486785889 0.5664499998092651 108
3.378998041152954 -1.3024919033050537 0.43994832038879395 108
3.381765127182007 -1.3042364120483398 0.3137606680393219 108
3.3897151947021484 -1.307982087135315 0.18840943276882172 108
3.379586935043335 -1.3047517538070679 0.06256687641143799 108
1.7742135524749756 -0.6867474913597107 -0.4995209574699402 119
2.011901378631592 -0.7791534066200256 -0.48926883935928345 119
2.378960132598877 -0.9217826128005981 -0.4880327582359314 119
2.899686574935913 -1.1241321563720703 -0.48651158809661865 119
3.408651113510132 -1.3221286535263062 -0.44421425461769104 0
3.38366961479187 -1.3131184577941895 -0.31419694423675537 108
3.3823444843292236 -1.3132834434509277 -0.18752168118953705 108
3.3861770629882812 -1.3154516220092773 -0.06211455538868904 108
3.371461868286133 -1.3104125261306763 0.9582998752593994 108
3.3776674270629883 -1.3135030269622803 0.8271940350532532 108
3.370286703109741 -1.3113099336624146 0.6948742866516113 108
3.3768186569213867 -1.3145301342010498 0.567231297492981 108
3.3744308948516846 -1.3142788410186768 0.43994832038879395 108
3.381833076477051 -1.317841649055481 0.31419646739959717 108
3.3897809982299805 -1.3216203451156616 0.18867111206054688 108
3.379669189453125 -1.3183575868606567 0.06265413761138916 108
1.7718054056167603 -0.6929364800453186 -0.4995209574699402 119
2.0273170471191406 -0.7932725548744202 -0.4937678575515747 119
2.380298614501953 -0.9318705201148987 -0.48898595571517944 119
2.900343418121338 -1.1360481977462769 -0.4872937798500061 119
3.4086356163024902 -1.3358296155929565 -0.44482359290122986 0
3.3837027549743652 -1.32673978805542 -0.31463271379470825 108
3.38238787651062 -1.326905369758606 -0.18778248131275177 108
3.3862178325653076 -1.3290899991989136 -0.062200941145420074 108
3.3713626861572266 -1.3239383697509766 0.9595931172370911 108
3.377596855163574 -1.3270670175552368 0.8283179402351379 108
3.3702569007873535 -1.3248622417449951 0.6958274245262146 108
3.376805543899536 -1.3281170129776 0.5680125951766968 108
3.374441146850586 -1.3278671503067017 0.44055765867233276 108
3.3772125244140625 -1.3296384811401367 0.31419646739959717 108
3.3897926807403564 -1.3352748155593872 0.18893279135227203 108
3.379697799682617 -1.3319798707962036 0.06274139881134033 108
1.7738676071166992 -0.7008917927742004 -0.5008150935173035 119
2.006412982940674 -0.7931800484657288 -0.48926883935928345 119
2.3770315647125244 -0.9401736259460449 -0.48898595571517944 119
2.896360158920288 -1.146165370941162 -0.4872937798500061 119
3.4131805896759033 -1.3513736724853516 -0.4460422992706299 0
3.3836817741394043 -1.3403775691986084 -0.3150685131549835 108
3.3777353763580322 -1.338703989982605 -0.18778248131275177 108
3.3815579414367676 -1.3409020900726318 -0.062200941145420074 108
3.3712100982666016 -1.3374797105789185 0.9608864188194275 108
3.377471923828125 -1.3406463861465454 0.8294418454170227 108
3.370173454284668 -1.3384302854537964 0.6967806816101074 108
3.3767385482788086 -1.3417197465896606 0.5687938928604126 108
3.374396800994873 -1.3414713144302368 0.4411669969558716 108
3.37717866897583 -1.3432599306106567 0.31463223695755005 108
3.385111093521118 -1.3470991849899292 0.18893279135227203 108
3.3796725273132324 -1.3456182479858398 0.0628286600112915 108
1.7714102268218994 -0.7070794105529785 -0.5008150935173035 119
2.017205238342285 -0.8055996298789978 -0.4926431179046631 119
2.373735189437866 -0.9484653472900391 -0.48898595571517944 119
2.8969271183013916 -1.1581016778945923 -0.4880759119987488 119
3.4130501747131348 -1.3651227951049805 -0.4466516375541687 0
3.3789825439453125 -1.3521807193756104 -0.3150685131549835 108
3.3776774406433105 -1.3523423671722412 -0.18804329633712769 108
3.381497621536255 -1.354556679725647 -0.062287334352731705 108
3.371004581451416 -1.3510363101959229 0.9621796607971191 108
3.377293825149536 -1.3542410135269165 0.8305657505989075 108
3.3700361251831055 -1.3520135879516602 0.6977338194847107 108
3.376617670059204 -1.355338215827942 0.5695752501487732 108
3.3742990493774414 -1.3550915718078613 0.4417763650417328 108
3.377091407775879 -1.3568973541259766 0.31506800651550293 108
3.3850209712982178 -1.3607697486877441 0.1891944855451584 108
3.3749547004699707 -1.3574073314666748 0.0628286600112915 108
1.7689313888549805 -0.7132584452629089 -0.5008150935173035 119
2.0188987255096436 -0.8144586682319641 -0.4937678575515747 119
2.3704099655151367 -0.956745445728302 -0.48898595571517944 119
2.892866849899292 -1.1682066917419434 -0.4880759119987488 119
3.408264398574829 -1.3770281076431274 -0.4466516375541687 0
3.378859758377075 -1.3658338785171509 -0.3155042827129364 108
3.3775651454925537 -1.3659964799880981 -0.1883040964603424 108
3.37674880027771 -1.3663520812988281 -0.062287334352731705 108
3.370744466781616 -1.364607334136963 0.9634729027748108 108
3.377061605453491 -1.3678507804870605 0.8316896557807922 108
3.3652961254119873 -1.3637690544128418 0.6977338194847107 108
3.3764426708221436 -1.3689721822738647 0.570356547832489 108
3.3695483207702637 -1.3668617010116577 0.4417763650417328 108
3.3723342418670654 -1.3686773777008057 0.31506800651550293 108
3.3848764896392822 -1.3744558095932007 0.18945614993572235 108
3.3748273849487305 -1.3710614442825317 0.06291592121124268 108
1.7619580030441284 -0.7176072001457214 -0.4995209574699402 119
2.0160434246063232 -0.8215008974075317 -0.4937678575515747 119
2.3625104427337646 -0.9631607532501221 -0.4880327582359314 119
2.8887712955474854 -1.178297519683838 -0.4880759119987488 119
3.408031702041626 -1.390791893005371 -0.4472609758377075 0
3.378682851791382 -1.3795028924942017 -0.3159400522708893 108
3.377398729324341 -1.3796663284301758 -0.18856491148471832 108
3.376586437225342 -1.3800221681594849 -0.06237372010946274 108
3.370431661605835 -1.3781932592391968 0.9647662043571472 108
3.3767757415771484 -1.3814754486083984 0.832813560962677 108
3.365057945251465 -1.3773671388626099 0.6986870169639587 108
3.376213788986206 -1.3826215267181396 0.5711378455162048 108
3.3693487644195557 -1.380496859550476 0.4423857033252716 108
3.3721446990966797 -1.3823298215866089 0.3155037760734558 108
3.3846781253814697 -1.3881577253341675 0.1897178441286087 108
3.370021104812622 -1.382833480834961 0.06291592121124268 108
1.7594422101974487 -0.7237531542778015 -0.4995209574699402 119
2.0086586475372314 -0.8266792297363281 -0.4926431179046631 119
2.3591339588165283 -0.9714016318321228 -0.4880327582359314 119
2.884640693664551 -1.1883740425109863 -0.4880759119987488 119
3.4077446460723877 -1.4045709371566772 -0.4478703439235687 0
3.3738467693328857 -1.3912882804870605 -0.3159400522708893 108
3.3771779537200928 -1.393351674079895 -0.18882571160793304 108
3.3763697147369385 -1.3937077522277832 -0.06246011331677437 108
3.3700640201568604 -1.3917934894561768 0.9660593867301941 108
3.3719329833984375 -1.3932541608810425 0.832813560962677 108
3.3647654056549072 -1.3909801244735718 0.6996402144432068 108
3.3759303092956543 -1.3962856531143188 0.5719191431999207 108
3.3690950870513916 -1.3941471576690674 0.4429950416088104 108
3.371901273727417 -1.3959977626800537 0.3159395754337311 108
3.384424924850464 -1.4018746614456177 0.18997950851917267 108
3.3697917461395264 -1.3965024948120117 0.06300318241119385 108
1.7524452209472656 -0.7280374765396118 -0.4982268810272217 119
2.0012617111206055 -0.8318156599998474 -0.4915183484554291 119
2.351196765899658 -0.9777459502220154 -0.48707953095436096 119
2.880474805831909 -1.1984361410140991 -0.4880759119987488 119
3.4028208255767822 -1.4164576530456543 -0.4478703439235687 0
3.373567819595337 -1.4049715995788574 -0.31637582182884216 108
3.372293710708618 -1.4051316976547241 -0.18882571160793304 108
3.376098394393921 -1.407408595085144 -0.0625464990735054 108
3.369642972946167 -1.4054077863693237 0.9673526883125305 108
3.3715453147888184 -1.4068920612335205 0.833937406539917 108
3.3644189834594727 -1.404607892036438 0.7005934119224548 108
3.3710358142852783 -1.4080613851547241 0.5719191431999207 108
3.3687868118286133 -1.4078125953674316 0.44360437989234924 108
3.37160325050354 -1.409680724143982 0.31637534499168396 108
3.3841171264648438 -1.4156068563461304 0.19024120271205902 108
3.3695085048675537 -1.4101868867874146 0.06309044361114502 108
1.7498931884765625 -0.734150230884552 -0.4982268810272217 119
1.99385404586792 -0.8369108438491821 -0.49039360880851746 119
2.3477694988250732 -0.9859471917152405 -0.48707953095436096 119
2.8808271884918213 -1.2103965282440186 -0.48885810375213623 119
3.402430534362793 -1.4302500486373901 -0.44847968220710754 0
3.368643045425415 -1.4167389869689941 -0.31637582182884216 108
3.3719706535339355 -1.4188312292099 -0.18908652663230896 108
3.3757729530334473 -1.4211245775222778 -0.06263289600610733 108
3.3691680431365967 -1.4190362691879272 0.9686459302902222 108
3.371103525161743 -1.4205442667007446 0.8350613713264465 108
3.364018201828003 -1.4182502031326294 0.7015465497970581 108
3.3706510066986084 -1.4217393398284912 0.5727005004882812 108
3.368424654006958 -1.4214928150177002 0.44421374797821045 108
3.371250867843628 -1.4233787059783936 0.31681114435195923 108
3.379155158996582 -1.4274109601974487 0.19024120271205902 108
3.3691701889038086 -1.4238861799240112 0.06317770481109619 108
1.7473199367523193 -0.7402540445327759 -0.4982268810272217 119
1.986434817314148 -0.8419643044471741 -0.48926883935928345 119
2.344313621520996 -0.994136393070221 -0.48707953095436096 119
2.876584529876709 -1.220445156097412 -0.48885810375213623 119
3.3974173069000244 -1.4421180486679077 -0.44847968220710754 0
3.3682620525360107 -1.4304362535476685 -0.31681162118911743 108
3.3715932369232178 -1.43254554271698 -0.18934732675552368 108
3.375392198562622 -1.4348552227020264 -0.06271928548812866 108
3.368638753890991 -1.4326785802841187 0.9699391722679138 108
3.370607614517212 -1.4342106580734253 0.8361852765083313 108
3.363563299179077 -1.4319065809249878 0.7024998068809509 108
3.370210886001587 -1.4354315996170044 0.5734817981719971 108
3.3680074214935303 -1.4351874589920044 0.44482308626174927 108
3.3708436489105225 -1.43709135055542 0.3172468841075897 108
3.378744602203369 -1.4411567449569702 0.19050286710262299 108
3.3687775135040283 -1.4376002550125122 0.06326497346162796 108
1.7447253465652466 -0.7463487982749939 -0.4982268810272217 119
1.9879628419876099 -0.8508101105690002 -0.49039360880851746 119
2.3408291339874268 -1.002313494682312 -0.48707953095436096 119
2.8768460750579834 -1.2324235439300537 -0.4896402657032013 119
3.3969242572784424 -1.4559235572814941 -0.44908902049064636 0
3.363248348236084 -1.4421849250793457 -0.31681162118911743 108
3.3711607456207275 -1.4462743997573853 -0.1896081417798996 108
3.3749570846557617 -1.4486006498336792 -0.06280567497015 108
3.3680548667907715 -1.4463342428207397 0.9712324142456055 108
3.3700571060180664 -1.4478907585144043 0.8373091816902161 108
3.363054037094116 -1.4455772638320923 0.7034529447555542 108
3.3697166442871094 -1.4491380453109741 0.5742630958557129 108
3.3675360679626465 -1.4488967657089233 0.4454324245452881 108
3.3703818321228027 -1.4508183002471924 0.317682683467865 108
3.378279685974121 -1.4549169540405273 0.19076456129550934 108
3.3683297634124756 -1.4513288736343384 0.06335222721099854 108
1.7421094179153442 -0.752434492111206 -0.4982268810272217 119
1.984980821609497 -0.8577442169189453 -0.49039360880851746 119
2.3373162746429443 -1.0104783773422241 -0.48707953095436096 119
2.8770594596862793 -1.2444186210632324 -0.49042245745658875 119
3.396376132965088 -1.4697431325912476 -0.4496983587741852 0
3.362764596939087 -1.4558950662612915 -0.3172473907470703 108
3.370673656463623 -1.4600178003311157 -0.1898689568042755 108
3.374466896057129 -1.4623603820800781 -0.06289206445217133 108
3.362985610961914 -1.4580821990966797 0.9712324142456055 108
3.3694519996643066 -1.461584448814392 0.8384330868721008 108
3.357987403869629 -1.4573076963424683 0.7034529447555542 108
3.3691678047180176 -1.4628586769104004 0.5750443935394287 108
3.3670096397399902 -1.4626201391220093 0.4460417628288269 108
3.3744332790374756 -1.4665449857711792 0.31855425238609314 108
3.373180389404297 -1.466700553894043 0.19076456129550934 108
3.3678276538848877 -1.4650720357894897 0.0634394958615303 108
1.7394722700119019 -0.7585110068321228 -0.4982268810272217 119
1.986439824104309 -0.866615891456604 -0.4915183484554291 119
2.3337745666503906 -1.018631100654602 -0.48707953095436096 119
2.8772237300872803 -1.2564301490783691 -0.4912046194076538 119
3.395772695541382 -1.4835765361785889 -0.4503077268600464 0
3.3576622009277344 -1.467624306678772 -0.3172473907470703 108
3.370131492614746 -1.4737753868103027 -0.19012977182865143 108
3.373922109603882 -1.4761345386505127 -0.06297845393419266 108
3.362300395965576 -1.4717490673065186 0.9725257158279419 108
3.3687925338745117 -1.4752916097640991 0.8395569920539856 108
3.3573756217956543 -1.4709901809692383 0.7044061422348022 108
3.3640408515930176 -1.4746103286743164 0.5750443935394287 108
3.3664283752441406 -1.4763574600219727 0.4466511309146881 108
3.373854875564575 -1.480316400527954 0.318990021944046 108
3.3726119995117188 -1.4804731607437134 0.1910262256860733 108
3.3672702312469482 -1.478829264640808 0.06352675706148148 108
1.736814022064209 -0.7645782828330994 -0.4982268810272217 119
1.9878613948822021 -0.8755083084106445 -0.4926431179046631 119
2.330204725265503 -1.0267711877822876 -0.48707953095436096 119
2.8773391246795654 -1.2684578895568848 -0.49198681116104126 119
3.395113945007324 -1.4974236488342285 -0.4509170651435852 0
3.3570756912231445 -1.4813467264175415 -0.3176831901073456 108
3.369534492492676 -1.4875470399856567 -0.19039057195186615 108
3.373321771621704 -1.4899225234985352 -0.06306484341621399 108
3.361560106277466 -1.485428810119629 0.9738188982009888 108
3.3680782318115234 -1.4890117645263672 0.8406808972358704 108
3.3567092418670654 -1.4846858978271484 0.7053593397140503 108
3.363389253616333 -1.488342523574829 0.5758256912231445 108
3.3657925128936768 -1.4901084899902344 0.44726046919822693 108
3.3732211589813232 -1.4941015243530273 0.3194257915019989 108
3.3719887733459473 -1.4942597150802612 0.19128791987895966 108
3.3666579723358154 -1.4926005601882935 0.06361401826143265 108
1.7342690229415894 -0.7703335285186768 -0.4982268810272217 119
1.9851012229919434 -0.8817490339279175 -0.4926431179046631 119
2.3314528465270996 -1.036080002784729 -0.4880327582359314 119
2.877852439880371 -1.2794973850250244 -0.49276894330978394 119
3.394927501678467 -1.5100992918014526 -0.4515264332294464 0
3.3569560050964355 -1.4939110279083252 -0.3181189298629761 108
3.369406223297119 -1.500156283378601 -0.19065138697624207 108
3.3731911182403564 -1.502547025680542 -0.06315123289823532 108
3.361288547515869 -1.497948169708252 0.9751121997833252 108
3.367833375930786 -1.5015695095062256 0.8418048024177551 108
3.356511116027832 -1.4972237348556519 0.7063125371932983 108
3.3632068634033203 -1.500914216041565 0.5766069889068604 108
3.365626096725464 -1.5026984214782715 0.44786980748176575 108
3.373058557510376 -1.5067229270935059 0.3198615610599518 108
3.3718364238739014 -1.506882905960083 0.19154958426952362 108
3.36651611328125 -1.505210280418396 0.06370127946138382 108
1.7317049503326416 -0.7760803699493408 -0.4982268810272217 119
1.9820111989974976 -0.8886730074882507 -0.4926431179046631 119
2.327822208404541 -1.044211983680725 -0.4880327582359314 119
2.8778743743896484 -1.2915571928024292 -0.4935511350631714 119
3.3896355628967285 -1.5219405889511108 -0.4515264332294464 0
3.356264352798462 -1.507660984992981 -0.31855472922325134 108
3.3687031269073486 -1.5139552354812622 -0.1909121870994568 108
3.372485399246216 -1.5163625478744507 -0.06323762238025665 108
3.3604440689086914 -1.5116535425186157 0.9764054417610168 108
3.3670144081115723 -1.5153157711029053 0.8429287075996399 108
3.3557395935058594 -1.5109460353851318 0.7072656750679016 108
3.362449884414673 -1.5146732330322266 0.577388346195221 108
3.364884614944458 -1.5164763927459717 0.44847914576530457 108
3.372319459915161 -1.5205353498458862 0.32029736042022705 108
3.371107578277588 -1.5206968784332275 0.19181127846240997 108
3.365797758102417 -1.5190088748931885 0.06378854066133499 108
1.7288488149642944 -0.7824221849441528 -0.4982268810272217 119
1.9787406921386719 -0.8959314227104187 -0.4926431179046631 119
2.323979139328003 -1.052736759185791 -0.4880327582359314 119
2.8731212615966797 -1.3020964860916138 -0.4935511350631714 119
3.388554096221924 -1.5364032983779907 -0.45213574171066284 0
3.3507161140441895 -1.5199521780014038 -0.31855472922325134 108
3.3676788806915283 -1.528355598449707 -0.1911730021238327 108
3.3714568614959717 -1.5307799577713013 -0.06332401186227798 108
3.359278440475464 -1.5259575843811035 0.9776986837387085 108
3.365873336791992 -1.5296621322631836 0.8440526127815247 108
3.354647636413574 -1.5252668857574463 0.7082188725471497 108
3.361370801925659 -1.529031753540039 0.5781696438789368 108
3.363821029663086 -1.5308549404144287 0.44908851385116577 108
3.3667237758636475 -1.5328853130340576 0.32029736042022705 108
3.3700549602508545 -1.5351122617721558 0.19207294285297394 108
3.3647568225860596 -1.5334080457687378 0.06387580186128616 108
1.7305001020431519 -0.7904587984085083 -0.4995209574699402 119
1.975601315498352 -0.902833104133606 -0.4926431179046631 119
2.3202903270721436 -1.0608426332473755 -0.4880327582359314 119
2.85957670211792 -1.308009147644043 -0.49198681116104126 119
3.387683153152466 -1.5502872467041016 -0.45274510979652405 0
3.349919080734253 -1.53371262550354 -0.3189904987812042 108
3.3668625354766846 -1.5421808958053589 -0.19143380224704742 108
3.370637893676758 -1.5446218252182007 -0.06341040134429932 108
3.3583219051361084 -1.5396872758865356 0.9789919257164001 108
3.3649418354034424 -1.5434330701828003 0.8451765179634094 108
3.353764057159424 -1.5390146970748901 0.7091721296310425 108
3.360501766204834 -1.5428165197372437 0.5789509415626526 108
3.35845685005188 -1.542587399482727 0.44908851385116577 108
3.365878105163574 -1.5467077493667603 0.32073312997817993 108
3.3692123889923096 -1.5489522218704224 0.1923346370458603 108
3.3639256954193115 -1.547232985496521 0.06396306306123734 108
1.7277302742004395 -0.7964945435523987 -0.4995209574699402 119
1.9724377393722534 -0.909723699092865 -0.4926431179046631 119
2.31657338142395 -1.068935513496399 -0.4880327582359314 119
2.8505096435546875 -1.315913200378418 -0.4912046194076538 119
3.386756658554077 -1.5641840696334839 -0.45335447788238525 0
3.3490664958953857 -1.5474859476089478 -0.3194262981414795 108
3.3659915924072266 -1.5560194253921509 -0.19169461727142334 108
3.369762897491455 -1.5584766864776611 -0.06349679827690125 108
3.3573102951049805 -1.5534287691116333 0.9802852272987366 108
3.363955020904541 -1.5572162866592407 0.8463004231452942 108
3.352825164794922 -1.5527746677398682 0.7101252675056458 108
3.359576463699341 -1.556613564491272 0.5797322392463684 108
3.3575541973114014 -1.5563883781433105 0.4496978521347046 108
3.3649775981903076 -1.5605430603027344 0.3211688995361328 108
3.368314266204834 -1.562804937362671 0.19259630143642426 108
3.3630387783050537 -1.5610706806182861 0.06405032426118851 108
1.7249394655227661 -0.8025206327438354 -0.4995209574699402 119
1.973666787147522 -0.918658971786499 -0.4937678575515747 119
2.3128278255462646 -1.0770153999328613 -0.4880327582359314 119
2.8324697017669678 -1.31959867477417 -0.48885810375213623 119
3.3857741355895996 -1.5780930519104004 -0.4539638161659241 0
3.352673053741455 -1.563377022743225 -0.32029783725738525 108
3.3650643825531006 -1.5698703527450562 -0.19195541739463806 108
3.3688323497772217 -1.572344183921814 -0.06358318030834198 108
3.356243371963501 -1.5671818256378174 0.9815784096717834 108
3.362913131713867 -1.5710113048553467 0.847424328327179 108
3.3518311977386475 -1.5665470361709595 0.7110784649848938 108
3.358596086502075 -1.5704230070114136 0.580513596534729 108
3.356595993041992 -1.5702017545700073 0.4503071904182434 108
3.364021062850952 -1.5743908882141113 0.3216046690940857 108
3.367360830307007 -1.576670527458191 0.1928579956293106 108
3.3620965480804443 -1.5749210119247437 0.06413759291172028 108
1.7221276760101318 -0.8085368871688843 -0.4995209574699402 119
1.9704480171203613 -0.9255428314208984 -0.4937678575515747 119
2.309054136276245 -1.0850820541381836 -0.4880327582359314 119
2.836784601211548 -1.3336801528930664 -0.49042245745658875 119
3.384735584259033 -1.592014193534851 -0.4545731842517853 0
3.3562092781066895 -1.5793122053146362 -0.3211694061756134 108
3.364081859588623 -1.5837339162826538 -0.19221623241901398 108
3.363323450088501 -1.5840939283370972 -0.06358318030834198 108
3.3551218509674072 -1.580946683883667 0.9828717112541199 108
3.3618154525756836 -1.5848177671432495 0.8485482335090637 108
3.3507816791534424 -1.5803312063217163 0.7120316624641418 108
3.357560396194458 -1.5842446088790894 0.5812948942184448 108
3.3555822372436523 -1.5840274095535278 0.4509165287017822 108
3.363008975982666 -1.588250994682312 0.32204046845436096 108
3.3663511276245117 -1.5905481576919556 0.19311966001987457 108
3.361098051071167 -1.5887837409973145 0.06422484666109085 108
1.7149304151535034 -0.8124755620956421 -0.4982268810272217 119
1.9672054052352905 -0.9324153065681458 -0.4937678575515747 119
2.3008174896240234 -1.0910325050354004 -0.48707953095436096 119
2.8410351276397705 -1.34780752658844 -0.49198681116104126 119
3.379157781600952 -1.6038193702697754 -0.4545731842517853 0
3.3641741275787354 -1.597427248954773 -0.32247674465179443 108
3.3630428314208984 -1.597609519958496 -0.1924770325422287 108
3.362288475036621 -1.5979704856872559 -0.06366957724094391 108
3.3539445400238037 -1.5947225093841553 0.9841649532318115 108
3.3606626987457275 -1.5986360311508179 0.8496721386909485 108
3.349677324295044 -1.5941272974014282 0.7129848599433899 108
3.356468677520752 -1.5980780124664307 0.5820761919021606 108
3.354513168334961 -1.597865104675293 0.45152589678764343 108
3.3574445247650146 -1.599980354309082 0.32204046845436096 108
3.365285873413086 -1.604438066482544 0.19338135421276093 108
3.360044002532959 -1.602658748626709 0.06431211531162262 108
1.7120839357376099 -0.8184568285942078 -0.4982268810272217 119
1.963938593864441 -0.939276397228241 -0.4937678575515747 119
2.296995162963867 -1.0990571975708008 -0.48707953095436096 119
2.836313247680664 -1.35771644115448 -0.49198681116104126 119
3.3780148029327393 -1.6177486181259155 -0.4551824927330017 119
3.3675618171691895 -1.6134653091430664 -0.3233482837677002 108
3.3619487285614014 -1.611497402191162 -0.19273784756660461 108
3.3611979484558105 -1.6118590831756592 -0.06375596672296524 108
3.3527119159698486 -1.6085094213485718 0.9854581952095032 108
3.3594541549682617 -1.6124653816223145 0.8507960438728333 108
3.3485167026519775 -1.6079347133636475 0.7139379978179932 108
3.350870132446289 -1.609784483909607 0.5820761919021606 108
3.3533878326416016 -1.6117146015167236 0.45213523507118225 108
3.3608169555664062 -1.6160072088241577 0.3229120373725891 108
3.364164113998413 -1.6183397769927979 0.1936430186033249 108
3.367943286895752 -1.6208816766738892 0.06457389891147614 108
1.7092164754867554 -0.8244282007217407 -0.4982268810272217 119
1.9606480598449707 -0.9461261034011841 -0.4937678575515747 119
2.293144702911377 -1.1070685386657715 -0.48707953095436096 119
2.849344491958618 -1.3762000799179077 -0.4951154887676239 119
3.372347116470337 -1.6295301914215088 -0.4551824927330017 119
3.3708784580230713 -1.6295461654663086 -0.32421988248825073 108
3.360797882080078 -1.6253968477249146 -0.19299866259098053 108
3.364551305770874 -1.6279367208480835 -0.0639287456870079 108
3.355771541595459 -1.6244115829467773 0.9880447387695312 108
3.3581900596618652 -1.6263058185577393 0.851919949054718 108
3.3473007678985596 -1.6217535734176636 0.714891254901886 108
3.354118585586548 -1.625779628753662 0.5836387872695923 108
3.356672525405884 -1.6277412176132202 0.4533539414405823 108
3.3551554679870605 -1.627728819847107 0.3229120373725891 108
3.3629870414733887 -1.6322534084320068 0.19390471279621124 108
3.3667619228363037 -1.6348117589950562 0.06466116011142731 108
1.706328272819519 -0.8303894400596619 -0.4982268810272217 119
1.9573334455490112 -0.9529643058776855 -0.4937678575515747 119
2.289266347885132 -1.115066409111023 -0.48707953095436096 119
2.831204891204834 -1.3796476125717163 -0.49276894330978394 119
3.380021095275879 -1.6478163003921509 -0.45701056718826294 119
3.392030715942383 -1.6544039249420166 -0.3268345594406128 108
3.373053789138794 -1.6458770036697388 -0.194041907787323 108
3.408266067504883 -1.6637953519821167 -0.06487903743982315 108
3.350080966949463 -1.6361154317855835 0.9880447387695312 108
3.3524928092956543 -1.6380181312561035 0.851919949054718 108
3.346029043197632 -1.635583519935608 0.7158443927764893 108
3.3839149475097656 -1.654834270477295 0.5898892879486084 108
3.3465123176574707 -1.6372672319412231 0.45274460315704346 108
3.3897175788879395 -1.6591384410858154 0.3268340528011322 108
3.375206232070923 -1.6527659893035889 0.19495142996311188 108
3.4059293270111084 -1.6685476303100586 0.06553377956151962 108
1.7034193277359009 -0.8363405466079712 -0.4982268810272217 119
1.9539949893951416 -0.9597908854484558 -0.4937678575515747 119
2.2809550762176514 -1.120885968208313 -0.4861263632774353 119
2.8175082206726074 -1.385164499282837 -0.4912046194076538 119
3.409874439239502 -1.6771270036697388 -0.46188533306121826 0
3.413050413131714 -1.6794289350509644 -0.32944920659065247 108
3.407606363296509 -1.6774888038635254 -0.19638918340206146 108
3.4428012371063232 -1.695561170578003 -0.06565655022859573 0
3.357346773147583 -1.6542035341262817 0.9919244050979614 0
3.3860843181610107 -1.6690973043441772 0.8620350360870361 0
3.3843207359313965 -1.6689621210098267 0.7253762483596802 0
3.4091200828552246 -1.6819318532943726 0.5953584909439087 0
3.3986291885375977 -1.6774934530258179 0.46066609025001526 0
3.4196345806121826 -1.6886037588119507 0.3303202688694 0
3.4097065925598145 -1.6844414472579956 0.1973065435886383 0
3.440420389175415 -1.7003616094589233 0.06631913781166077 0
1.7004895210266113 -0.8422815203666687 -0.4982268810272217 119
