# .PCD v0.7 - Point Cloud Data file format
VERSION 0.7
FIELDS x y z intensity
SIZE 4 4 4 4
TYPE F F F F
COUNT 1 1 1 1
WIDTH 741
HEIGHT 1
VIEWPOINT 0 0 0 1 0 0 0
POINTS 741
DATA ascii
0.009379545226693153 -0.9265313148498535 0.10907305777072906 50
0.009299872443079948 -0.9347789883613586 0.07844016700983047 50
0.00910933781415224 -0.9319788813591003 0.04684067890048027 50
0.008813178166747093 -0.9180737137794495 0.015358117409050465 50
0.007765135727822781 -0.9268692135810852 -0.2381136119365692 50
0.007587165106087923 -0.9248956441879272 -0.20470558106899261 50
0.007557815406471491 -0.9413471817970276 -0.17538677155971527 50
0.007320715114474297 -0.9320791959762573 -0.14157330989837646 50
0.007268019951879978 -0.9464017748832703 -0.11151057481765747 50
0.0069783697836101055 -0.9298180937767029 -0.07800450921058655 50
0.006795517168939114 -0.9270133972167969 -0.04642400145530701 50
0.006605669390410185 -0.9230942726135254 -0.015291064977645874 50
0.0065049827098846436 -0.9317503571510315 0.23925165832042694 50
0.006329166702926159 -0.9298129677772522 0.20567460358142853 50
0.0061457809060812 -0.9266323447227478 0.17252707481384277 50
0.0059875487349927425 -0.9271746873855591 0.14063586294651031 50
0.005821860395371914 -0.9265605211257935 0.10907305777072906 50
0.0057105193845927715 -0.9348077774047852 0.07844016700983047 50
0.0055307382717728615 -0.9320070147514343 0.04684067890048027 50
0.005287971813231707 -0.9181007742881775 0.015358117409050465 50
0.0045297108590602875 -0.9268906712532043 -0.2381136119365692 50
0.0043586306273937225 -0.9249164462089539 -0.20470558106899261 50
0.004271853715181351 -0.9413678646087646 -0.17538677155971527 50
0.0040671080350875854 -0.9320989847183228 -0.14157330989837646 50
0.003964416682720184 -0.9464213848114014 -0.11151057481765747 50
0.003732656594365835 -0.9298367500305176 -0.07800450921058655 50
0.003559595439583063 -0.9270315170288086 -0.04642400145530701 50
0.0033834287896752357 -0.9231116771697998 -0.015291064977645874 50
0.0032525276765227318 -0.9317674040794373 0.23925165832042694 50
0.0030834749341011047 -0.9298294186592102 0.20567460358142853 50
0.002911193063482642 -0.9266481399536133 0.17252707481384277 50
0.00273641524836421 -0.9222513437271118 0.1398545503616333 50
0.002587525174021721 -0.9265751838684082 0.10907305777072906 50
0.0024473967496305704 -0.9348220229148865 0.07844016700983047 50
0.002277393126860261 -0.9320206046104431 0.04684067890048027 50
0.002076493576169014 -0.918113648891449 0.015358117409050465 50
0.0014560057315975428 -0.9269005656242371 -0.2381136119365692 50
0.001452903263270855 -0.9249255657196045 -0.20470558106899261 50
0.0013144436525180936 -0.9413766264915466 -0.17538677155971527 50
0.0011388170532882214 -0.932107150554657 -0.14157330989837646 50
0.000991131877526641 -0.9464291930198669 -0.11151057481765747 50
0.0008114746888168156 -0.9298439025878906 -0.07800450921058655 50
0.0006437412812374532 -0.9220449924468994 -0.04616319388151169 50
0.0004833757702726871 -0.9231178164482117 -0.015291064977645874 50
0.00032528286101296544 -0.9317730665206909 0.23925165832042694 50
0.00016231938207056373 -0.9298344850540161 0.20567460358142853 50
3.2534806848616427e-08 -0.9266526699066162 0.17252707481384277 50
-0.00016093155136331916 -0.9222553968429565 0.1398545503616333 50
-0.0003234044706914574 -0.9265787601470947 0.10907305777072906 50
-0.0004894405137747526 -0.9348251223564148 0.07844016700983047 50
-0.0006506422651000321 -0.9320231676101685 0.04684067890048027 50
-0.0008011750178411603 -0.9181156754493713 0.015358117409050465 50
-0.0016177153447642922 -0.9269002676010132 -0.2381136119365692 50
-0.001775698154233396 -0.9249250292778015 -0.20470558106899261 50
-0.0019715819507837296 -0.9413754940032959 -0.17538677155971527 50
-0.002114851027727127 -0.9321054816246033 -0.14157330989837646 50
-0.002312528435140848 -0.9464268684387207 -0.11151057481765747 50
-0.0024342909455299377 -0.9298410415649414 -0.07800450921058655 50
-0.002574800280854106 -0.922041654586792 -0.04616319388151169 50
-0.002738909563049674 -0.9231138229370117 -0.015291064977645874 50
-0.002912040799856186 -0.9269387125968933 0.2379584014415741 50
-0.0030834097415208817 -0.9298294186592102 0.20567460358142853 50
-0.0032345890067517757 -0.9266470670700073 0.17252707481384277 50
-0.0033802026882767677 -0.9222491979598999 0.1398545503616333 50
-0.003557765856385231 -0.9265719652175903 0.10907305777072906 50
-0.003752585966140032 -0.9348176717758179 0.07844016700983047 50
-0.003883091267198324 -0.9270220994949341 0.04657899960875511 50
-0.004005991853773594 -0.918107271194458 0.015358117409050465 50
-0.005014963913708925 -0.926888108253479 -0.2381136119365692 50
-0.005165705922991037 -0.9249122738838196 -0.20470558106899261 50
-0.0054218824952840805 -0.9413619637489319 -0.17538677155971527 50
-0.0055311741307377815 -0.932091474533081 -0.14157330989837646 50
-0.005781340878456831 -0.9464120268821716 -0.11151057481765747 50
-0.00584231223911047 -0.9298259019851685 -0.07800450921058655 50
-0.005954233929514885 -0.9220259785652161 -0.04616319388151169 50
-0.006122272461652756 -0.9230976104736328 -0.015291064977645874 50
-0.006309421267360449 -0.9269217848777771 0.2379584014415741 50
-0.006491384003311396 -0.9298118352890015 0.20567460358142853 50
-0.006630898453295231 -0.9266289472579956 0.17252707481384277 50
-0.006760392338037491 -0.9222306609153748 0.1398545503616333 50
-0.006953797768801451 -0.9265527129173279 0.10907305777072906 50
-0.0071788388304412365 -0.9347976446151733 0.07844016700983047 50
-0.007280770689249039 -0.9270016551017761 0.04657899960875511 50
-0.007370995823293924 -0.9180864095687866 0.015358117409050465 50
-0.008207387290894985 -0.9220355153083801 -0.23681952059268951 50
-0.008394220843911171 -0.9248886108398438 -0.20470558106899261 50
-0.00870781484991312 -0.9413372874259949 -0.17538677155971527 50
-0.008784747682511806 -0.9320665001869202 -0.14157330989837646 50
-0.00908489990979433 -0.9463860988616943 -0.11151057481765747 50
-0.009087975136935711 -0.9297998547554016 -0.07800450921058655 50
-0.009172668680548668 -0.9219995737075806 -0.04616319388151169 50
-0.009344447404146194 -0.9230706095695496 -0.015291064977645874 50
-0.00954494345933199 -0.9268941283226013 0.2379584014415741 50
-0.009736993350088596 -0.9297835230827332 0.20567460358142853 50
-0.009865396656095982 -0.9266001582145691 0.17252707481384277 50
-0.00997953675687313 -0.9222014546394348 0.1398545503616333 50
-0.010188027285039425 -0.9265227913856506 0.10907305777072906 50
-0.010441848076879978 -0.9347668886184692 0.07844016700983047 50
-0.010516566224396229 -0.9269705414772034 0.04657899960875511 50
-0.010575670748949051 -0.9180551171302795 0.015358117409050465 50
-0.01142584253102541 -0.922001302242279 -0.23681952059268951 50
-0.011622633785009384 -0.9248536825180054 -0.20470558106899261 50
-0.011993642896413803 -0.9413011074066162 -0.17538677155971527 50
-0.012038213200867176 -0.9320301413536072 -0.14157330989837646 50
-0.012388348579406738 -0.9463486671447754 -0.11151057481765747 50
-0.012333526276051998 -0.9297624230384827 -0.07800450921058655 50
-0.012390992604196072 -0.9219619631767273 -0.04616319388151169 50
-0.012566507793962955 -0.9230323433876038 -0.015291064977645874 50
-0.01278034970164299 -0.9268551468849182 0.2379584014415741 50
-0.012982483953237534 -0.9297438859939575 0.20567460358142853 50
-0.013099774718284607 -0.92656010389328 0.17252707481384277 50
-0.013198559172451496 -0.9221609830856323 0.1398545503616333 50
-0.013350244611501694 -0.9215193390846252 0.10846371203660965 50
-0.01370472926646471 -0.934724748134613 0.07844016700983047 50
-0.013752233237028122 -0.9269282221794128 0.04657899960875511 50
-0.013780216686427593 -0.9180125594139099 0.015358117409050465 50
-0.014644158072769642 -0.9219557642936707 -0.23681952059268951 50
-0.014850903302431107 -0.9248074889183044 -0.20470558106899261 50
-0.015279323793947697 -0.9412535429000854 -0.17538677155971527 50
-0.015291531570255756 -0.9319824576377869 -0.14157330989837646 50
-0.015691645443439484 -0.9462996125221252 -0.11151057481765747 50
-0.015578928403556347 -0.9297137260437012 -0.07800450921058655 50
-0.015609164722263813 -0.9219130873680115 -0.04616319388151169 50
-0.01578841544687748 -0.9229828715324402 -0.015291064977645874 50
-0.01601560041308403 -0.9268049001693726 0.2379584014415741 50
-0.01622781716287136 -0.9296929240226746 0.20567460358142853 50
-0.016333993524312973 -0.9265087246894836 0.17252707481384277 50
-0.016417421400547028 -0.9221093058586121 0.1398545503616333 50
-0.016566867008805275 -0.921467125415802 0.10846371203660965 50
-0.016967445611953735 -0.9346712231636047 0.07844016700983047 50
-0.01698773354291916 -0.926874577999115 0.04657899960875511 50
-0.016984593123197556 -0.9179589152336121 0.015358117409050465 50
-0.017862295731902122 -0.9218990802764893 -0.23681952059268951 50
-0.018078994005918503 -0.924750030040741 -0.20470558106899261 50
-0.018564818426966667 -0.941194474697113 -0.17538677155971527 50
-0.018544664606451988 -0.9319233894348145 -0.14157330989837646 50
-0.018994752317667007 -0.9462391138076782 -0.11151057481765747 50
-0.0188241396099329 -0.9296537041664124 -0.07800450921058655 50
-0.018827145919203758 -0.9218529462814331 -0.04616319388151169 50
-0.019010130316019058 -0.9229221343994141 -0.015291064977645874 50
-0.0192506555467844 -0.9267433881759644 0.2379584014415741 50
-0.01947295106947422 -0.9296305775642395 0.20567460358142853 50
-0.01956801302731037 -0.9264460802078247 0.17252707481384277 50
-0.019636083394289017 -0.9220463633537292 0.1398545503616333 50
-0.01978328637778759 -0.921403706073761 0.10846371203660965 50
-0.020229952409863472 -0.9346063137054443 0.07844016700983047 50
-0.020223025232553482 -0.9268096089363098 0.04657899960875511 50
-0.020188765600323677 -0.9178940057754517 0.015358117409050465 50
-0.02108021453022957 -0.9218310713768005 -0.23681952059268951 50
-0.02130686491727829 -0.9246813058853149 -0.20470558106899261 50
-0.021850086748600006 -0.941123902797699 -0.17538677155971527 50
-0.02179756946861744 -0.9318529963493347 -0.14157330989837646 50
-0.022297626361250877 -0.9461669921875 -0.11151057481765747 50
-0.02206912264227867 -0.9295822978019714 -0.07800450921058655 50
-0.022044898942112923 -0.921781599521637 -0.04616319388151169 50
-0.022231614217162132 -0.9228501915931702 -0.015291064977645874 50
-0.02248547598719597 -0.926670491695404 0.2379584014415741 50
-0.022717850282788277 -0.9295569658279419 0.20567460358142853 50
-0.022801794111728668 -0.9263721108436584 0.17252707481384277 50
-0.022854506969451904 -0.9219722151756287 0.1398545503616333 50
-0.022999465465545654 -0.9213290214538574 0.10846371203660965 50
-0.02349221333861351 -0.9345300197601318 0.07844016700983047 50
-0.023458071053028107 -0.9267333745956421 0.04657899960875511 50
-0.02339269034564495 -0.9178178906440735 0.015358117409050465 50
-0.02429787628352642 -0.921751856803894 -0.23681952059268951 50
-0.024534473195672035 -0.9246013164520264 -0.20470558106899261 50
-0.025135090574622154 -0.9410419464111328 -0.17538677155971527 50
-0.02505021169781685 -0.9317712187767029 -0.14157330989837646 50
-0.02560023032128811 -0.9460833668708801 -0.11151057481765747 50
-0.025313833728432655 -0.929499626159668 -0.07800450921058655 50
-0.025262383744120598 -0.921699047088623 -0.04616319388151169 50
-0.02545282617211342 -0.922766923904419 -0.015291064977645874 50
-0.0257200226187706 -0.9265863299369812 0.2379584014415741 50
-0.02596247009932995 -0.9294719696044922 0.20567460358142853 50
-0.02603529579937458 -0.9262868762016296 0.17252707481384277 50
-0.026072651147842407 -0.9218868017196655 0.1398545503616333 50
-0.026215363293886185 -0.9212431311607361 0.10846371203660965 50
-0.026754187420010567 -0.9344422817230225 0.07844016700983047 50
-0.02669283002614975 -0.9266458749771118 0.04657899960875511 50
-0.026596330106258392 -0.9177306890487671 0.015358117409050465 50
-0.027515241876244545 -0.9216614961624146 -0.23681952059268951 50
-0.027761785313487053 -0.9245100021362305 -0.20470558106899261 50
-0.02841978520154953 -0.940948486328125 -0.17538677155971527 50
-0.028302548453211784 -0.9316781163215637 -0.14157330989837646 50
-0.02890252135694027 -0.9459882974624634 -0.11151057481765747 50
-0.028558239340782166 -0.9294055700302124 -0.07800450921058655 50
-0.0284795593470335 -0.9216052889823914 -0.04616319388151169 50
-0.028673728927969933 -0.92267245054245 -0.015291064977645874 50
-0.02895425632596016 -0.9264909625053406 0.2379584014415741 50
-0.0292067751288414 -0.9293756484985352 0.20567460358142853 50
-0.029268480837345123 -0.9261903166770935 0.17252707481384277 50
-0.02929047867655754 -0.9217901825904846 0.1398545503616333 50
-0.029430942609906197 -0.9211459755897522 0.10846371203660965 50
-0.030015839263796806 -0.934343159198761 0.07844016700983047 50
-0.029927266761660576 -0.9265470504760742 0.04657899960875511 50
-0.029799645766615868 -0.9176322221755981 0.015358117409050465 50
-0.030732275918126106 -0.9215598106384277 -0.23681952059268951 50
-0.03098875656723976 -0.9244074821472168 -0.20470558106899261 50
-0.0317041352391243 -0.9408435225486755 -0.17538677155971527 50
-0.03155453875660896 -0.9315736293792725 -0.14157330989837646 50
-0.032204460352659225 -0.9458816051483154 -0.11151057481765747 50
-0.03180229663848877 -0.9293001890182495 -0.07800450921058655 50
-0.031696390360593796 -0.9215002059936523 -0.04616319388151169 50
-0.03189428523182869 -0.9225667715072632 -0.015291064977645874 50
-0.032188136130571365 -0.9263842701911926 0.2379584014415741 50
-0.03245072439312935 -0.9292681217193604 0.20567460358142853 50
-0.03250131383538246 -0.9260825514793396 0.17252707481384277 50
-0.03250794857740402 -0.9216822981834412 0.1398545503616333 50
-0.03282195329666138 -0.9259973168373108 0.10907305777072906 50
-0.03327712416648865 -0.934232771396637 0.07844016700983047 50
-0.03316133841872215 -0.9264369010925293 0.04657899960875511 50
-0.033002596348524094 -0.9175226092338562 0.015358117409050465 50
-0.033948931843042374 -0.9214469194412231 -0.23681952059268951 50
-0.034215353429317474 -0.9242936968803406 -0.20470558106899261 50
-0.034988101571798325 -0.9407271146774292 -0.17538677155971527 50
-0.03480614349246025 -0.9314578175544739 -0.14157330989837646 50
-0.035506006330251694 -0.9457634091377258 -0.11151057481765747 50
-0.035045966506004333 -0.9291835427284241 -0.07800450921058655 50
-0.0349128320813179 -0.9213839769363403 -0.04616319388151169 50
-0.03511444479227066 -0.9224498271942139 -0.015291064977645874 50
-0.03542162477970123 -0.9262662529945374 0.2379584014415741 50
-0.03569427505135536 -0.9291491508483887 0.20567460358142853 50
-0.035733748227357864 -0.9259634613990784 0.17252707481384277 50
-0.03572501987218857 -0.9215632081031799 0.1398545503616333 50
-0.0360540896654129 -0.925877034664154 0.10907305777072906 50
-0.03653800114989281 -0.9341108798980713 0.07844016700983047 50
-0.03659103438258171 -0.9313048124313354 0.04684067890048027 50
-0.036205146461725235 -0.9174018502235413 0.015358117409050465 50
-0.03735983744263649 -0.9261484742164612 -0.2381136119365692 50
-0.03744153305888176 -0.924168586730957 -0.20470558106899261 50
-0.03827163577079773 -0.940599262714386 -0.17538677155971527 50
-0.03805732727050781 -0.9313306212425232 -0.14157330989837646 50
-0.03880712389945984 -0.9456337094306946 -0.11151057481765747 50
-0.038289207965135574 -0.9290555715560913 -0.07800450921058655 50
-0.03812884911894798 -0.9212564826011658 -0.04616319388151169 50
-0.038334183394908905 -0.922321617603302 -0.015291064977645874 50
-0.03865468129515648 -0.9261369705200195 0.2379584014415741 50
-0.03893739730119705 -0.9290189146995544 0.20567460358142853 50
-0.03896574303507805 -0.9258331060409546 0.17252707481384277 50
-0.03894165903329849 -0.9214329123497009 0.1398545503616333 50
-0.03928578272461891 -0.9257455468177795 0.10907305777072906 50
-0.03979843482375145 -0.9339776635169983 0.07844016700983047 50
-0.0398416705429554 -0.9311714172363281 0.04684067890048027 50
-0.039407260715961456 -0.9172699451446533 0.015358117409050465 50
-0.04059247300028801 -0.9260124564170837 -0.2381136119365692 50
-0.040667254477739334 -0.9240322709083557 -0.20470558106899261 50
-0.041554708033800125 -0.9404599070549011 -0.17538677155971527 50
-0.041089192032814026 -0.9262585639953613 -0.1407911330461502 50
-0.04210776463150978 -0.9454925060272217 -0.11151057481765747 50
-0.04153198376297951 -0.9289162158966064 -0.07800450921058655 50
-0.041568294167518616 -0.9261059165000916 -0.04642400145530701 50
-0.04177848994731903 -0.9271763563156128 -0.01537745539098978 50
-0.04188726842403412 -0.9259964227676392 0.2379584014415741 50
-0.04218003898859024 -0.9288772940635681 0.20567460358142853 50
-0.04219726473093033 -0.9256914258003235 0.17252707481384277 50
-0.042157821357250214 -0.9212913513183594 0.1398545503616333 50
-0.04228927940130234 -0.9206452965736389 0.10846371203660965 50
-0.043058380484580994 -0.9338330626487732 0.07844016700983047 50
-0.043091822415590286 -0.9310266971588135 0.04684067890048027 50
-0.04260889068245888 -0.9171267747879028 0.015358117409050465 50
-0.043824613094329834 -0.925865113735199 -0.2381136119365692 50
-0.04389248043298721 -0.9238846898078918 -0.20470558106899261 50
-0.04483727365732193 -0.9403091669082642 -0.17538677155971527 50
-0.0443221852183342 -0.9261094331741333 -0.1407911330461502 50
-0.045407891273498535 -0.9453397989273071 -0.11151057481765747 50
-0.04477425292134285 -0.928765594959259 -0.07800450921058655 50
-0.04480075463652611 -0.9259551763534546 -0.04642400145530701 50
-0.04477221891283989 -0.9220315217971802 -0.015291064977645874 50
-0.04511934146285057 -0.9258444905281067 0.2379584014415741 50
-0.04542217031121254 -0.9287244081497192 0.20567460358142853 50
-0.04542827606201172 -0.9255384802818298 0.17252707481384277 50
-0.045373473316431046 -0.9211385846138 0.1398545503616333 50
-0.045502670109272 -0.9204920530319214 0.10846371203660965 50
-0.04631780460476875 -0.9336770176887512 0.07844016700983047 50
-0.04634144902229309 -0.9308705925941467 0.04684067890048027 50
-0.045809999108314514 -0.9169724583625793 0.015358117409050465 50
-0.04705621674656868 -0.9257065057754517 -0.2381136119365692 50
-0.04711717367172241 -0.9237258434295654 -0.20470558106899261 50
-0.04811929166316986 -0.9401469230651855 -0.17538677155971527 50
-0.04755464196205139 -0.9259491562843323 -0.1407911330461502 50
-0.04870746657252312 -0.9451755285263062 -0.11151057481765747 50
-0.04801597818732262 -0.9286036491394043 -0.07800450921058655 50
-0.048032667487859726 -0.9257931709289551 -0.04642400145530701 50
-0.04799043387174606 -0.9218696355819702 -0.015291064977645874 50
-0.04835086688399315 -0.9256813526153564 0.2379584014415741 50
-0.048408765345811844 -0.9236948490142822 0.20455069839954376 50
-0.04865873232483864 -0.9253742694854736 0.17252707481384277 50
-0.04884875938296318 -0.9259063601493835 0.14063586294651031 50
-0.048715509474277496 -0.9203276038169861 0.10846371203660965 50
-0.04931250587105751 -0.9285356998443604 0.078004390001297 50
-0.04959050938487053 -0.9307031631469727 0.04684067890048027 50
-0.0492774173617363 -0.9217990636825562 0.015445378609001637 50
-0.05028724670410156 -0.9255366325378418 -0.2381136119365692 50
-0.05034129321575165 -0.9235557317733765 -0.20470558106899261 50
-0.051400721073150635 -0.9399732351303101 -0.17538677155971527 50
-0.050786517560482025 -0.9257774949073792 -0.1407911330461502 50
-0.052006449550390244 -0.9449996948242188 -0.11151057481765747 50
-0.051257118582725525 -0.9284303784370422 -0.07800450921058655 50
-0.051263995468616486 -0.9256198406219482 -0.04642400145530701 50
-0.05120806768536568 -0.9216964840888977 -0.015291064977645874 50
-0.05158180370926857 -0.9255070090293884 0.2379584014415741 50
-0.05163276195526123 -0.9235202074050903 0.20455069839954376 50
-0.051888592541217804 -0.9251987934112549 0.17252707481384277 50
-0.05208047479391098 -0.9257301688194275 0.14063586294651031 50
-0.05192776024341583 -0.9201520085334778 0.10846371203660965 50
-0.05283491685986519 -0.9333308935165405 0.07844016700983047 50
-0.05312204733490944 -0.9355095028877258 0.04710235819220543 50
-0.052494797855615616 -0.9216213822364807 0.015445378609001637 50
-0.053517669439315796 -0.9253554344177246 -0.2381136119365692 50
-0.05356479436159134 -0.923374354839325 -0.20470558106899261 50
-0.054681528359651566 -0.9397880434989929 -0.17538677155971527 50
-0.05430549383163452 -0.9305245876312256 -0.14157330989837646 50
-0.05530479550361633 -0.9448124170303345 -0.11151057481765747 50
-0.05449762940406799 -0.9282458424568176 -0.07800450921058655 50
-0.054494697600603104 -0.9254352450370789 -0.04642400145530701 50
-0.05442507565021515 -0.9215121269226074 -0.015291064977645874 50
-0.05481211096048355 -0.9253212809562683 0.2379584014415741 50
-0.05485614016652107 -0.9233343601226807 0.20455069839954376 50
-0.05540977418422699 -0.9299116730690002 0.17348027229309082 50
-0.05531156063079834 -0.9255427718162537 0.14063586294651031 50
-0.05513937398791313 -0.9199650883674622 0.10846371203660965 50
-0.055793654173612595 -0.9281688332557678 0.078004390001297 50
-0.05638725683093071 -0.9353184103965759 0.04710235819220543 50
-0.0557115338742733 -0.9214325547218323 0.015445378609001637 50
-0.05645175278186798 -0.9203423857688904 -0.23681952059268951 50
-0.056488532572984695 -0.9183191657066345 -0.2035808265209198 50
-0.05796166881918907 -0.9395914673805237 -0.17538677155971527 50
-0.05755329877138138 -0.9303293824195862 -0.14157330989837646 50
-0.0586024709045887 -0.9446136355400085 -0.11151057481765747 50
-0.057737480849027634 -0.9280499219894409 -0.07800450921058655 50
-0.057724740356206894 -0.9252393841743469 -0.04642400145530701 50
-0.057641420513391495 -0.9213165640830994 -0.015291064977645874 50
-0.058041755110025406 -0.9251243472099304 0.2379584014415741 50
-0.058078840374946594 -0.9231373071670532 0.20455069839954376 50
-0.05865543335676193 -0.9297125935554504 0.17348027229309082 50
-0.05854197219014168 -0.9253440499305725 0.14063586294651031 50
-0.05835030972957611 -0.9197670221328735 0.10846371203660965 50
-0.05903322994709015 -0.927968442440033 0.078004390001297 50
-0.05965178832411766 -0.9351158142089844 0.04710235819220543 50
-0.058927591890096664 -0.9212324619293213 0.015445378609001637 50
-0.05966399982571602 -0.920139729976654 -0.23681952059268951 50
-0.05969372019171715 -0.9181163311004639 -0.2035808265209198 50
-0.06092178821563721 -0.9344854950904846 -0.17443357408046722 50
-0.060800403356552124 -0.9301227927207947 -0.14157330989837646 50
-0.06189943104982376 -0.944403350353241 -0.11151057481765747 50
-0.060649991035461426 -0.9228724837303162 -0.07756873220205307 50
-0.06095407158136368 -0.9250322580337524 -0.04642400145530701 50
-0.06085706502199173 -0.9211097359657288 -0.015291064977645874 50
-0.06127068027853966 -0.9249160885810852 0.2379584014415741 50
-0.06130083650350571 -0.9229289293289185 0.20455069839954376 50
-0.06190037727355957 -0.9295021295547485 0.17348027229309082 50
-0.06177166849374771 -0.9251340627670288 0.14063586294651031 50
-0.06156054511666298 -0.9195577502250671 0.10846371203660965 50
-0.0622720830142498 -0.927756667137146 0.078004390001297 50
-0.06291558593511581 -0.9349018931388855 0.04710235819220543 50
-0.06214293837547302 -0.9210211634635925 0.015445378609001637 50
-0.06287552416324615 -0.9199258685112 -0.23681952059268951 50
-0.0628981813788414 -0.9179023504257202 -0.2035808265209198 50
-0.06418338418006897 -0.9342671632766724 -0.17443357408046722 50
-0.06370743364095688 -0.9249781370162964 -0.1407911330461502 50
-0.06519563496112823 -0.944181501865387 -0.11151057481765747 50
-0.06387104839086533 -0.9226551651954651 -0.07756873220205307 50
-0.06418266892433167 -0.9248138666152954 -0.04642400145530701 50
-0.06407196819782257 -0.9208916425704956 -0.015291064977645874 50
-0.06449887156486511 -0.9246965646743774 0.2379584014415741 50
-0.06452208757400513 -0.9227093458175659 0.20455069839954376 50
-0.06514456868171692 -0.9292804002761841 0.17348027229309082 50
-0.06500061601400375 -0.9249128103256226 0.14063586294651031 50
-0.06477002054452896 -0.919337272644043 0.10846371203660965 50
-0.06551018357276917 -0.9275336265563965 0.078004390001297 50
-0.06617861986160278 -0.9346765875816345 0.04710235819220543 50
-0.06500356644392014 -0.9158119559288025 0.015358117409050465 50
-0.0660862848162651 -0.9197008013725281 -0.23681952059268951 50
-0.06610187143087387 -0.9176772832870483 -0.2035808265209198 50
-0.067090705037117 -0.9291418790817261 -0.17348039150238037 50
-0.06693582981824875 -0.9247501492500305 -0.1407911330461502 50
-0.06849104166030884 -0.9439481496810913 -0.11151057481765747 50
-0.06709132343530655 -0.9224265813827515 -0.07756873220205307 50
-0.06741048395633698 -0.9245842099189758 -0.04642400145530701 50
-0.06728608906269073 -0.9206624031066895 -0.015291064977645874 50
-0.06737338751554489 -0.9196488857269287 0.23666515946388245 50
-0.06774255633354187 -0.922478437423706 0.20455069839954376 50
-0.06802763789892197 -0.9241523146629333 0.17252707481384277 50
-0.06786534935235977 -0.9197551012039185 0.1398545503616333 50
-0.06797871738672256 -0.919105589389801 0.10846371203660965 50
-0.06874747574329376 -0.9272993803024292 0.078004390001297 50
-0.06907080858945847 -0.9294605255126953 0.04684067890048027 50
-0.06819995492696762 -0.9155794978141785 0.015358117409050465 50
-0.06929623335599899 -0.9194645285606384 -0.23681952059268951 50
-0.06930476427078247 -0.9174408912658691 -0.2035808265209198 50
-0.07033360004425049 -0.9289020299911499 -0.17348039150238037 50
-0.06978968530893326 -0.9195865392684937 -0.14000895619392395 50
-0.07178562134504318 -0.9437033534049988 -0.11151057481765747 50
-0.07031078636646271 -0.9221867918968201 -0.07756873220205307 50
-0.07025700807571411 -0.9193646311759949 -0.04616319388151169 50
-0.07049939036369324 -0.9204219579696655 -0.015291064977645874 50
-0.07058314979076385 -0.9194080829620361 0.23666515946388245 50
-0.07096219062805176 -0.9222363829612732 0.20455069839954376 50
-0.07125311344861984 -0.9239092469215393 0.17252707481384277 50
-0.07107548415660858 -0.9195125699043274 0.1398545503616333 50
-0.07080324739217758 -0.9139147400856018 0.10785436630249023 50
-0.0719839334487915 -0.9270537495613098 0.078004390001297 50
-0.07231481373310089 -0.9292137026786804 0.04684067890048027 50
-0.07100675255060196 -0.9103516936302185 0.015270855277776718 50
-0.07250534743070602 -0.9192169904708862 -0.23681952059268951 50
-0.07212286442518234 -0.9123367071151733 -0.20245607197284698 50
-0.07318798452615738 -0.9237579107284546 -0.17252719402313232 50
-0.07260831445455551 -0.9144143462181091 -0.1392267942428589 50
-0.07468564063310623 -0.9384998679161072 -0.11090122163295746 50
-0.07313338667154312 -0.9169704914093018 -0.07713295519351959 50
-0.07306791841983795 -0.9141364693641663 -0.04590238630771637 50
-0.0737118348479271 -0.9201701879501343 -0.015291064977645874 50
-0.07379204779863358 -0.9191560745239258 0.23666515946388245 50
-0.0741809606552124 -0.9219831228256226 0.20455069839954376 50
-0.07408323138952255 -0.9187625050544739 0.17157389223575592 50
-0.07428474724292755 -0.9192588925361633 0.1398545503616333 50
-0.07399297505617142 -0.9136620759963989 0.10785436630249023 50
-0.0752195194363594 -0.9267967939376831 0.078004390001297 50
-0.07515314221382141 -0.9239789247512817 0.04657899960875511 50
-0.07377788424491882 -0.90511554479599 0.015183593146502972 50
-0.07515744864940643 -0.9141581058502197 -0.23552542924880981 50
-0.0749887004494667 -0.9121056199073792 -0.20245607197284698 50
-0.07608968764543533 -0.9235234260559082 -0.17252719402313232 50
-0.07548066228628159 -0.9141817688941956 -0.1392267942428589 50
-0.07763364911079407 -0.9382606744766235 -0.11090122163295746 50
-0.07560216635465622 -0.9117722511291504 -0.07669717073440552 50
-0.07593940198421478 -0.9139024019241333 -0.04590238630771637 50
-0.07618740946054459 -0.9149520397186279 -0.015204674564301968 50
-0.07627766579389572 -0.9141066074371338 0.2353719025850296 50
-0.07667110115289688 -0.9168903231620789 0.203426793217659 50
-0.07696924358606339 -0.918525218963623 0.17157389223575592 50
-0.07675906270742416 -0.9140997529029846 0.1390732377767563 50
-0.07644683122634888 -0.9084798693656921 0.10724502056837082 50
-0.07771223783493042 -0.9215925931930542 0.07756861299276352 50
-0.07805553078651428 -0.9237383008003235 0.04657899960875511 50
-0.07577741146087646 -0.8949164748191833 0.015009067952632904 50
-0.07777679711580276 -0.9090918302536011 -0.23423133790493011 50
-0.07775594294071198 -0.906984269618988 -0.20133131742477417 50
-0.07889281958341599 -0.9183619022369385 -0.17157401144504547 50
-0.07824774831533432 -0.9089925289154053 -0.13844461739063263 50
-0.08048181980848312 -0.9330396056175232 -0.11029187589883804 50
-0.07835546135902405 -0.9065403342247009 -0.07626139372587204 50
-0.07869820296764374 -0.9086571335792542 -0.04564157500863075 50
-0.0789484977722168 -0.9097000360488892 -0.015118285082280636 50
-0.07904959470033646 -0.909023106098175 0.23407864570617676 50
-0.07944824546575546 -0.9117634892463684 0.20230288803577423 50
-0.07974808663129807 -0.9133612513542175 0.17062070965766907 50
-0.07951897382736206 -0.9089064002037048 0.13829192519187927 50
-0.0791841596364975 -0.9032636880874634 0.1066356748342514 50
-0.08092872053384781 -0.9213157296180725 0.07756861299276352 50
-0.08084172010421753 -0.9184862971305847 0.04631732031702995 50
-0.07802241295576096 -0.8846867084503174 0.014834544621407986 50
-0.0808367133140564 -0.9039760828018188 -0.23293724656105042 50
-0.08080316334962845 -0.9018266201019287 -0.20020656287670135 50
-0.08154072612524033 -0.9082749485969543 -0.16966763138771057 50
-0.08085258305072784 -0.8988482356071472 -0.1368802785873413 50
-0.08317289501428604 -0.9228382706642151 -0.10907318443059921 50
-0.08138777315616608 -0.9012720584869385 -0.07582561671733856 50
-0.08173666149377823 -0.9033754467964172 -0.045380767434835434 50
-0.08198954910039902 -0.9044113755226135 -0.01503189466893673 50
-0.08210249990224838 -0.9039027690887451 0.2327854037284851 50
-0.08250700682401657 -0.906599760055542 0.20117898285388947 50
-0.08280883729457855 -0.9081602096557617 0.16966751217842102 50
-0.0825590193271637 -0.9036763310432434 0.13751062750816345 50
-0.08219947665929794 -0.8980109095573425 0.10602632910013199 50
-0.0835559070110321 -0.9110778570175171 0.07669705152511597 50
-0.08345408737659454 -0.9082247018814087 0.045793961733579636 50
-0.0809604749083519 -0.8794023990631104 0.01474728249013424 50
-0.08354472368955612 -0.8988794684410095 -0.23164314031600952 50
-0.08304721117019653 -0.8918373584747314 -0.19795705378055573 50
-0.08425475656986237 -0.9030976891517639 -0.16871444880962372 50
-0.08353005349636078 -0.8936434388160706 -0.13609810173511505 50
-0.0859309732913971 -0.9176012277603149 -0.1084638386964798 50
-0.08360271900892258 -0.8910639882087708 -0.07495405524969101 50
-0.08442223817110062 -0.8981133103370667 -0.045119959861040115 50
-0.08420855551958084 -0.8941651582717896 -0.014859113842248917 50
-0.0848035216331482 -0.8988022208213806 0.23149214684963226 50
-0.08475412428379059 -0.8966053128242493 0.19893117249011993 50
-0.08505287766456604 -0.8980927467346191 0.16776114702224731 50
-0.08524645119905472 -0.8984661102294922 0.13672931492328644 50
-0.08439438045024872 -0.8878375887870789 0.10480763018131256 50
-0.08626344054937363 -0.9058220982551575 0.07626127451658249 50
-0.08614964038133621 -0.9029572606086731 0.04553228244185448 50
-0.08308496326208115 -0.8691607713699341 0.014572758227586746 50
-0.08575442433357239 -0.888967752456665 -0.22905495762825012 50
-0.0856911689043045 -0.8866928219795227 -0.1968322992324829 50
-0.0864606499671936 -0.8930271863937378 -0.16680806875228882 50
-0.08569542318582535 -0.8835156559944153 -0.13453374803066254 50
-0.08817354589700699 -0.9074167609214783 -0.10724514722824097 50
-0.08623000234365463 -0.8858091831207275 -0.07451827079057693 50
-0.08658742159605026 -0.8878738880157471 -0.04459833726286888 50
-0.08635705709457397 -0.8839147090911865 -0.014686333015561104 50
-0.08699946105480194 -0.8888869881629944 0.22890564799308777 50
-0.08693249523639679 -0.8866065144538879 0.1966833621263504 50
-0.08770747482776642 -0.8929056525230408 0.16680794954299927 50
-0.08741489797830582 -0.8883334398269653 0.1351666897535324 50
-0.0865192636847496 -0.8776599764823914 0.10358893871307373 50
-0.08893530070781708 -0.900558590888977 0.07582549750804901 50
-0.0883178636431694 -0.8927132487297058 0.04500892013311386 50
-0.0851256474852562 -0.8589163422584534 0.014398234896361828 50
-0.08837646245956421 -0.8838573098182678 -0.22776086628437042 50
-0.08830022066831589 -0.8815407156944275 -0.1957075446844101 50
-0.08908732235431671 -0.8878361582756042 -0.16585488617420197 50
-0.08828502893447876 -0.8782975077629089 -0.13375157117843628 50
-0.09084327518939972 -0.9021657109260559 -0.10663579404354095 50
-0.0883217304944992 -0.8755912184715271 -0.07364671677350998 50
-0.08918416500091553 -0.882598340511322 -0.04433752968907356 50
-0.08893849700689316 -0.878633975982666 -0.014599943533539772 50
-0.08961448073387146 -0.883772611618042 0.22761239111423492 50
-0.0895344465970993 -0.8814505338668823 0.19555945694446564 50
-0.08983003348112106 -0.882827877998352 0.16490158438682556 50
-0.09001443535089493 -0.8831096887588501 0.1343853771686554 50
-0.08907824754714966 -0.8724156022071838 0.10297958552837372 50
-0.09106466174125671 -0.8903324007987976 0.07495393604040146 50
-0.09092455357313156 -0.8874323964118958 0.0447472408413887 50
-0.08812330663204193 -0.8586139678955078 0.014398234896361828 50
-0.09081050008535385 -0.8787553906440735 -0.22646677494049072 50
-0.0905684307217598 -0.8764128684997559 -0.19458279013633728 50
-0.09137070924043655 -0.8826697468757629 -0.1649017035961151 50
-0.09053449332714081 -0.873103678226471 -0.13296939432621002 50
-0.09265162795782089 -0.8920034766197205 -0.10541710257530212 50
-0.09107205271720886 -0.875309407711029 -0.07364671677350998 50
-0.091438889503479 -0.8773475289344788 -0.044076722115278244 50
-0.0911792740225792 -0.8733780384063721 -0.014513553120195866 50
-0.09138581156730652 -0.8738794922828674 0.22502589225769043 50
-0.09179558604955673 -0.8763193488121033 0.19443556666374207 50
-0.09209086000919342 -0.877659797668457 0.16394838690757751 50
-0.09227213263511658 -0.8779110312461853 0.13360406458377838 50
-0.09129896759986877 -0.8671959638595581 0.1023702397942543 50
-0.09333888441324234 -0.8850884437561035 0.07451815903186798 50
-0.09318752586841583 -0.8821768164634705 0.044485561549663544 50
-0.09082028269767761 -0.8583328723907471 0.014398234896361828 50
-0.09321168065071106 -0.8736469745635986 -0.22517266869544983 50
-0.09310942143201828 -0.8712471127510071 -0.19345802068710327 50
-0.09392881393432617 -0.8774648904800415 -0.16394849121570587 50
-0.09305515140295029 -0.8678720593452454 -0.13218723237514496 50
-0.09576473385095596 -0.8916746377944946 -0.10541710257530212 50
-0.09359413385391235 -0.8700338006019592 -0.0732109323143959 50
-0.09450084716081619 -0.8770229816436768 -0.044076722115278244 50
-0.09369092434644699 -0.8680840134620667 -0.01442716270685196 50
-0.0944356620311737 -0.8735551238059998 0.22502589225769043 50
-0.09432945400476456 -0.8711498379707336 0.1933116465806961 50
-0.09462465345859528 -0.8724532723426819 0.16299518942832947 50
-0.09480269253253937 -0.8726739287376404 0.13282275199890137 50
-0.09378865361213684 -0.8619383573532104 0.10176089406013489 50
-0.09642785042524338 -0.8847572207450867 0.07451815903186798 50
-0.09626632183790207 -0.8818461894989014 0.044485561549663544 50
-0.0938158631324768 -0.8580105900764465 0.014398234896361828 50
-0.09641313552856445 -0.8732995390892029 -0.22517266869544983 50
-0.0963020771741867 -0.8708999752998352 -0.19345802068710327 50
-0.0971442461013794 -0.8771147131919861 -0.16394849121570587 50
-0.09569095075130463 -0.8626168370246887 -0.1314050555229187 50
-0.09848421066999435 -0.8863852620124817 -0.10480774939060211 50
-0.09678234159946442 -0.8696848750114441 -0.0732109323143959 50
-0.09716153144836426 -0.8717082738876343 -0.04381591081619263 50
-0.09687197953462601 -0.8677347898483276 -0.01442716270685196 50
-0.09710005670785904 -0.8684031963348389 0.22373265027999878 50
-0.09752174466848373 -0.8707982301712036 0.1933116465806961 50
-0.09782171994447708 -0.8721005320549011 0.16299518942832947 50
-0.09800056368112564 -0.8723205327987671 0.13282275199890137 50
-0.09639227390289307 -0.8566572070121765 0.10115154832601547 50
-0.09967000037431717 -0.8843978643417358 0.07451815903186798 50
-0.09893776476383209 -0.8765257596969604 0.044223882257938385 50
-0.09696000069379807 -0.8576610088348389 0.014398234896361828 50
-0.09946092963218689 -0.8729576468467712 -0.22517266869544983 50
-0.0993414968252182 -0.870558500289917 -0.19345802068710327 50
-0.10020536184310913 -0.8767703175544739 -0.16394849121570587 50
-0.09870146214962006 -0.8622775673866272 -0.1314050555229187 50
-0.10157767683267593 -0.8860360980033875 -0.10480774939060211 50
-0.09981751441955566 -0.8693417310714722 -0.0732109323143959 50
-0.10020377486944199 -0.8713638186454773 -0.04381591081619263 50
-0.09990035742521286 -0.8673913478851318 -0.01442716270685196 50
-0.10013075917959213 -0.868058979511261 0.22373265027999878 50
-0.10056080669164658 -0.8704525232315063 0.1933116465806961 50
-0.10086531937122345 -0.8717538118362427 0.16299518942832947 50
-0.10104493051767349 -0.8719732165336609 0.13282275199890137 50
-0.09938198328018188 -0.8563154935836792 0.10115154832601547 50
-0.10275652259588242 -0.8840445876121521 0.07451815903186798 50
-0.10199680924415588 -0.8761751055717468 0.044223882257938385 50
-0.09995320439338684 -0.8573172688484192 0.014398234896361828 50
-0.10250750929117203 -0.8726052045822144 -0.22517266869544983 50
-0.1023797020316124 -0.8702064752578735 -0.19345802068710327 50
-0.10326524823904037 -0.8764151334762573 -0.16394849121570587 50
-0.10171076655387878 -0.8619277477264404 -0.1314050555229187 50
-0.10466989874839783 -0.8856760859489441 -0.10480774939060211 50
-0.10285147279500961 -0.868988037109375 -0.0732109323143959 50
-0.10324478894472122 -0.8710086941719055 -0.04381591081619263 50
-0.10292751342058182 -0.8670373558998108 -0.01442716270685196 50
-0.10316023975610733 -0.8677040934562683 0.22373265027999878 50
-0.10359863936901093 -0.8700961470603943 0.1933116465806961 50
-0.10332654416561127 -0.8665226697921753 0.16204200685024261 50
-0.10408807545900345 -0.8716151714324951 0.13282275199890137 50
-0.10237047076225281 -0.855963408946991 0.10115154832601547 50
-0.10584178566932678 -0.8836804628372192 0.07451815903186798 50
-0.10505460947751999 -0.8758137226104736 0.044223882257938385 50
-0.10294520109891891 -0.8569632172584534 0.014398234896361828 50
-0.10555285215377808 -0.8722419738769531 -0.22517266869544983 50
-0.1054166704416275 -0.8698437213897705 -0.19345802068710327 50
-0.10691525787115097 -0.8809220194816589 -0.1649017035961151 50
-0.10471884161233902 -0.861567497253418 -0.1314050555229187 50
-0.10776085406541824 -0.8853053450584412 -0.10480774939060211 50
-0.10588418692350388 -0.8686237335205078 -0.0732109323143959 50
-0.10628455132246017 -0.8706430196762085 -0.04381591081619263 50
-0.1059534102678299 -0.8666728138923645 -0.01442716270685196 50
-0.10618846863508224 -0.8673387765884399 0.22373265027999878 50
-0.1066352054476738 -0.8697292804718018 0.1933116465806961 50
-0.10694880038499832 -0.8710283637046814 0.16299518942832947 50
-0.10712994635105133 -0.8712465167045593 0.13282275199890137 50
-0.10535772144794464 -0.855600893497467 0.10115154832601547 50
-0.10892576724290848 -0.8833056092262268 0.07451815903186798 50
-0.10811112821102142 -0.8754416704177856 0.044223882257938385 50
-0.10593592375516891 -0.8565986752510071 0.014398234896361828 50
-0.10859689861536026 -0.8718682527542114 -0.22517266869544983 50
-0.10845234990119934 -0.869470477104187 -0.19345802068710327 50
-0.10998959839344025 -0.8805434107780457 -0.1649017035961151 50
-0.10833859443664551 -0.8660969138145447 -0.13218723237514496 50
-0.11085048317909241 -0.8849238157272339 -0.10480774939060211 50
-0.10891560465097427 -0.8682488203048706 -0.0732109323143959 50
-0.10932301729917526 -0.8702667355537415 -0.04381591081619263 50
-0.10897801071405411 -0.8662976622581482 -0.01442716270685196 50
-0.1092153936624527 -0.8669627904891968 0.22373265027999878 50
-0.1096704825758934 -0.8693517446517944 0.1933116465806961 50
-0.10998860001564026 -0.8706497550010681 0.16299518942832947 50
-0.11017051339149475 -0.8708672523498535 0.13282275199890137 50
-0.10896740108728409 -0.8601512908935547 0.10176089406013489 50
-0.11200840771198273 -0.8829200267791748 0.07451815903186798 50
-0.1111663356423378 -0.8750589489936829 0.044223882257938385 50
-0.10892537236213684 -0.8562235832214355 0.014398234896361828 50
-0.11163962632417679 -0.8714838624000549 -0.22517266869544983 50
-0.11148671060800552 -0.8690866231918335 -0.19345802068710327 50
-0.11306259781122208 -0.8801541328430176 -0.1649017035961151 50
-0.11136117577552795 -0.8657134771347046 -0.13218723237514496 50
-0.11393877118825912 -0.8845314979553223 -0.10480774939060211 50
-0.11194569617509842 -0.8678633570671082 -0.0732109323143959 50
-0.1123601496219635 -0.8698797821998596 -0.04381591081619263 50
-0.11200129240751266 -0.8659120202064514 -0.01442716270685196 50
-0.1122409999370575 -0.8665763139724731 0.22373265027999878 50
-0.11270441114902496 -0.8689635992050171 0.1933116465806961 50
-0.11302708089351654 -0.87026047706604 0.16299518942832947 50
-0.11320973932743073 -0.8704773783683777 0.13282275199890137 50
-0.11196921765804291 -0.8597656488418579 0.10176089406013489 50
-0.11508969217538834 -0.8825236558914185 0.07451815903186798 50
-0.11422017961740494 -0.8746656179428101 0.044223882257938385 50
-0.11191347986459732 -0.8558381795883179 0.014398234896361828 50
-0.11405059695243835 -0.8663005828857422 -0.22387857735157013 50
-0.11451970040798187 -0.86869215965271 -0.19345802068710327 50
-0.11613421142101288 -0.8797540664672852 -0.1649017035961151 50
-0.11438240110874176 -0.8653194904327393 -0.13218723237514496 50
-0.11767686903476715 -0.8890482187271118 -0.10541710257530212 50
-0.11497441679239273 -0.8674672842025757 -0.0732109323143959 50
-0.11539590358734131 -0.8694822788238525 -0.04381591081619263 50
-0.11502321064472198 -0.8655157685279846 -0.01442716270685196 50
-0.11526522040367126 -0.8661792278289795 0.22373265027999878 50
-0.11638050526380539 -0.8733943104743958 0.19443556666374207 50
-0.1160641685128212 -0.8698606491088867 0.16299518942832947 50
-0.11624757200479507 -0.8700768947601318 0.13282275199890137 50
-0.11496968567371368 -0.8593695759773254 0.10176089406013489 50
-0.11816957592964172 -0.8821165561676025 0.07451815903186798 50
-0.11793646961450577 -0.879210352897644 0.044485561549663544 50
-0.11490023136138916 -0.8554423451423645 0.014398234896361828 50
-0.11707384884357452 -0.8658971190452576 -0.22387857735157013 50
-0.11755131185054779 -0.8682871460914612 -0.19345802068710327 50
-0.11920443177223206 -0.8793433904647827 -0.1649017035961151 50
-0.11740223318338394 -0.8649149537086487 -0.13218723237514496 50
-0.12077950686216354 -0.8886319994926453 -0.10541710257530212 50
-0.11800174415111542 -0.867060661315918 -0.0732109323143959 50
-0.11910446733236313 -0.8740216493606567 -0.044076722115278244 50
-0.11804372072219849 -0.8651090264320374 -0.01442716270685196 50
-0.118288055062294 -0.8657715916633606 0.22373265027999878 50
-0.11942850798368454 -0.8729827404022217 0.19443556666374207 50
-0.11909982562065125 -0.8694502711296082 0.16299518942832947 50
-0.11995510011911392 -0.8745585680007935 0.13360406458377838 50
-0.11796873062849045 -0.8589630126953125 0.10176089406013489 50
-0.12124801427125931 -0.8816986680030823 0.07451815903186798 50
-0.12100476026535034 -0.8787933588027954 0.044485561549663544 50
-0.11788558959960938 -0.8550360202789307 0.014398234896361828 50
-0.12009569257497787 -0.8654832243919373 -0.22387857735157013 50
-0.1205814778804779 -0.8678715229034424 -0.19345802068710327 50
-0.12227317690849304 -0.8789218664169312 -0.1649017035961151 50
-0.12042063474655151 -0.8644998669624329 -0.13218723237514496 50
-0.12388068437576294 -0.8882049918174744 -0.10541710257530212 50
-0.1210276335477829 -0.866643488407135 -0.0732109323143959 50
-0.12215464562177658 -0.8736005425453186 -0.044076722115278244 50
-0.12106280028820038 -0.8646916747093201 -0.01442716270685196 50
-0.12130943685770035 -0.8653534054756165 0.22373265027999878 50
-0.12247505784034729 -0.8725605607032776 0.19443556666374207 50
-0.12213405221700668 -0.86902916431427 0.16299518942832947 50
-0.1230071410536766 -0.8741345405578613 0.13360406458377838 50
-0.1209663599729538 -0.8585459589958191 0.10176089406013489 50
-0.1243249773979187 -0.8812701106071472 0.07451815903186798 50
-0.12407159060239792 -0.8783655762672424 0.044485561549663544 50
-0.12086949497461319 -0.8546193242073059 0.014398234896361828 50
-0.12379655987024307 -0.8698402047157288 -0.22517266869544983 50
-0.12361018359661102 -0.8674452900886536 -0.19345802068710327 50
-0.12534044682979584 -0.8784897327423096 -0.1649017035961151 50
-0.12343756854534149 -0.8640742301940918 -0.13218723237514496 50
-0.12698033452033997 -0.8877671360969543 -0.10541710257530212 50
-0.12405204772949219 -0.8662157654762268 -0.0732109323143959 50
-0.12520334124565125 -0.8731688261032104 -0.044076722115278244 50
-0.12408039718866348 -0.8642637729644775 -0.01442716270685196 50
-0.12501657009124756 -0.8697054386138916 0.22502589225769043 50
-0.12552011013031006 -0.8721277117729187 0.19443556666374207 50
-0.12516678869724274 -0.8685975670814514 0.16299518942832947 50
-0.1260576844215393 -0.8736997842788696 0.13360406458377838 50
-0.12396251410245895 -0.85811847448349 0.10176089406013489 50
-0.12740042805671692 -0.8808307647705078 0.07451815903186798 50
-0.12713690102100372 -0.8779271245002747 0.044485561549663544 50
-0.12385194003582001 -0.8541921973228455 0.014398234896361828 50
-0.12683211266994476 -0.8694027662277222 -0.22517266869544983 50
-0.12663738429546356 -0.8670085668563843 -0.19345802068710327 50
-0.12840619683265686 -0.8780468702316284 -0.1649017035961151 50
-0.1264529973268509 -0.8636381030082703 -0.13218723237514496 50
-0.13007844984531403 -0.88731849193573 -0.10541710257530212 50
-0.1270749568939209 -0.8657774329185486 -0.0732109323143959 50
-0.12825049459934235 -0.8727265000343323 -0.044076722115278244 50
-0.12782420217990875 -0.8687714338302612 -0.014513553120195866 50
-0.12805163860321045 -0.8692637085914612 0.22502589225769043 50
-0.12856364250183105 -0.8716842532157898 0.19443556666374207 50
-0.12819799780845642 -0.8681554198265076 0.16299518942832947 50
-0.12910670042037964 -0.8732544779777527 0.13360406458377838 50
-0.12695714831352234 -0.8576805591583252 0.10176089406013489 50
-0.13047431409358978 -0.8803806304931641 0.07451815903186798 50
-0.13020065426826477 -0.8774780631065369 0.044485561549663544 50
-0.12683287262916565 -0.8537546992301941 0.014398234896361828 50
-0.1298661231994629 -0.8689547181129456 -0.22517266869544983 50
-0.12966303527355194 -0.866561233997345 -0.19345802068710327 50
-0.13147036731243134 -0.8775932788848877 -0.1649017035961151 50
-0.12946689128875732 -0.8631914258003235 -0.13218723237514496 50
-0.13317497074604034 -0.8868590593338013 -0.10541710257530212 50
-0.13009630143642426 -0.8653285503387451 -0.0732109323143959 50
-0.1312960982322693 -0.8722735047340393 -0.044076722115278244 50
-0.130855992436409 -0.8683199882507324 -0.014513553120195866 50
-0.1303645819425583 -0.8640356063842773 0.22373265027999878 50
-0.1316056102514267 -0.8712301850318909 0.19443556666374207 50
-0.13122764229774475 -0.8677025437355042 0.16299518942832947 50
-0.13215413689613342 -0.8727984428405762 0.13360406458377838 50
-0.12995024025440216 -0.8572322130203247 0.10176089406013489 50
-0.1335466355085373 -0.8799198865890503 0.07451815903186798 50
-0.13326284289360046 -0.8770182132720947 0.044485561549663544 50
-0.12981227040290833 -0.853306770324707 0.014398234896361828 50
-0.13289853930473328 -0.8684961795806885 -0.22517266869544983 50
