# .PCD v0.7 - Point Cloud Data file format
VERSION 0.7
FIELDS x y z intensity
SIZE 4 4 4 4
TYPE F F F F
COUNT 1 1 1 1
WIDTH 821
HEIGHT 1
VIEWPOINT 0 0 0 1 0 0 0
POINTS 821
DATA ascii
4.8011884689331055 -24.15923500061035 -3.895221471786499 113
1.537389874458313 -7.743103981018066 -0.9645969271659851 111
1.5329346656799316 -7.727725982666016 -0.6859167814254761 111
4.7968926429748535 -24.203903198242188 -1.2868316173553467 113
4.786823749542236 -24.175222396850586 -0.4252125322818756 113
0.9887727499008179 -4.998244762420654 1.3540350198745728 114
1.031417727470398 -5.21859884262085 1.2183129787445068 114
1.0771046876907349 -5.454763412475586 1.0723369121551514 114
1.1362730264663696 -5.759697914123535 0.9227274656295776 117
1.141743540763855 -5.792751789093018 0.7202478051185608 117
nan nan nan 0
4.772688388824463 -24.259347915649414 1.2937448024749756 113
4.738587379455566 -24.108230590820312 0.4281947612762451 113
0.3764209449291229 -1.9239650964736938 -0.5150501132011414 119
0.43351563811302185 -2.217841863632202 -0.5128887295722961 119
4.724264621734619 -24.191499710083008 -4.779289722442627 113
4.713990688323975 -24.161306381225586 -3.8928749561309814 113
1.5084528923034668 -7.738680839538574 -0.9633782505989075 111
1.5040462017059326 -7.7232513427734375 -0.6850451827049255 111
4.706654071807861 -24.191091537475586 -1.2852667570114136 113
4.698592185974121 -24.172157287597656 -0.42486700415611267 113
0.9713195562362671 -5.0016655921936035 1.3540350198745728 114
1.012266993522644 -5.217384338378906 1.217189073562622 114
1.0580575466156006 -5.458490371704102 1.0723369121551514 114
1.107710599899292 -5.719992637634277 0.9156956672668457 117
1.1205734014511108 -5.791829586029053 0.7196384072303772 117
nan nan nan 0
4.686084747314453 -24.266054153442383 1.293221354484558 113
nan nan nan 0
0.3697027266025543 -1.925267219543457 -0.5150501132011414 119
0.4248533248901367 -2.2145566940307617 -0.5117639303207397 119
4.63332462310791 -24.174100875854492 -4.772617340087891 113
4.6286940574646 -24.17276382446289 -3.892092704772949 113
1.480498194694519 -7.739024639129639 -0.9627688527107239 111
1.4761428833007812 -7.723562717437744 -0.6846094131469727 111
4.618436813354492 -24.187753677368164 -1.2842235565185547 113
4.6113762855529785 -24.173677444458008 -0.4246078133583069 113
0.9529504776000977 -5.000281810760498 1.3527418375015259 114
0.9931375980377197 -5.216100215911865 1.2160651683807373 114
1.0371628999710083 -5.4525065422058105 1.0704303979873657 114
1.0840492248535156 -5.704417705535889 0.9125704169273376 117
1.0994236469268799 -5.790830135345459 0.7190291285514832 117
nan nan nan 0
nan nan nan 0
nan nan nan 0
0.36208587884902954 -1.9218000173568726 -0.5137560367584229 119
0.4162193238735199 -2.2112388610839844 -0.5106391906738281 119
4.545284271240234 -24.17082977294922 -4.768804550170898 113
4.536993026733398 -24.149946212768555 -3.8858354091644287 113
1.452559471130371 -7.739267826080322 -0.9621595740318298 111
1.4473376274108887 -7.718876361846924 -0.6837378740310669 111
4.528461933135986 -24.174283981323242 -1.2826586961746216 113
4.522368431091309 -24.165058135986328 -0.42417585849761963 113
0.9346027970314026 -4.9988298416137695 1.3514485359191895 114
0.9740293622016907 -5.21474552154541 1.214941143989563 114
1.0172233581542969 -5.451268196105957 1.0694772005081177 114
1.063225507736206 -5.703312397003174 0.9117891788482666 114
1.0782945156097412 -5.7897539138793945 0.7184197306632996 117
nan nan nan 0
nan nan nan 0
nan nan nan 0
0.35537534952163696 -1.923052191734314 -0.5137560367584229 119
0.40938258171081543 -2.217468738555908 -0.5117639303207397 119
4.4573235511779785 -24.16724395751953 -4.764991760253906 113
4.449981689453125 -24.151065826416016 -3.883488655090332 113
1.423738718032837 -7.734529972076416 -0.9609408378601074 111
1.4194841384887695 -7.718983173370361 -0.6833020448684692 111
4.439538955688477 -24.165386199951172 -1.281354546546936 113
4.434379577636719 -24.161027908325195 -0.4238303005695343 113
0.9162768125534058 -4.997311115264893 1.3501553535461426 114
0.955820620059967 -5.218113899230957 1.214941143989563 114
0.9973052144050598 -5.449957847595215 1.0685241222381592 114
1.044198751449585 -5.711846351623535 0.9125704169273376 114
1.0580779314041138 -5.793482303619385 0.7184197306632996 117
nan nan nan 0
nan nan nan 0
nan nan nan 0
0.3486604690551758 -1.9242810010910034 -0.5137560367584229 119
0.4016396701335907 -2.2188844680786133 -0.5117639303207397 119
4.369443416595459 -24.1633358001709 -4.761178970336914 113
4.36126184463501 -24.142152786254883 -3.879577875137329 113
1.3958500623703003 -7.7345685958862305 -0.9603314995765686 111
1.391647458076477 -7.718989372253418 -0.6828663349151611 111
4.350733757019043 -24.156166076660156 -1.28005051612854 113
4.346473693847656 -24.156679153442383 -0.42348477244377136 113
0.8988274335861206 -5.000479221343994 1.3501553535461426 114
0.9367390871047974 -5.216623306274414 1.2138173580169678 114
0.9782752394676208 -5.45340633392334 1.0685241222381592 114
1.0242544412612915 -5.715456485748291 0.9125704169273376 114
1.0369738340377808 -5.792255401611328 0.7178103923797607 117
nan nan nan 0
nan nan nan 0
4.3118486404418945 -24.15772819519043 0.4276711940765381 113
0.34194135665893555 -1.9254863262176514 -0.5137560367584229 119
0.3947429060935974 -2.225069999694824 -0.5128887295722961 119
4.282501220703125 -24.1639404296875 -4.75831937789917 113
4.273519515991211 -24.137775421142578 -3.8764491081237793 113
1.3679786920547485 -7.7345075607299805 -0.9597221612930298 111
1.3629614114761353 -7.713989734649658 -0.6819947361946106 111
4.262914657592773 -24.15153694152832 -1.2790073156356812 113
4.258652210235596 -24.15201187133789 -0.42313918471336365 113
0.8805291056632996 -4.9988298416137695 1.3488620519638062 114
0.9176796674728394 -5.215063095092773 1.212693452835083 114
0.9583836197853088 -5.451953887939453 1.0675709247589111 114
1.0042973756790161 -5.718997001647949 0.9125704169273376 114
1.0158913135528564 -5.790951251983643 0.7172010540962219 114
nan nan nan 0
4.237760543823242 -24.20642852783203 1.2858943939208984 113
4.226634979248047 -24.167709350585938 0.4275839328765869 113
0.33521804213523865 -1.9266681671142578 -0.5137560367584229 119
0.3869735896587372 -2.2264344692230225 -0.5128887295722961 119
4.19476842880249 -24.15939712524414 -4.754506587982178 113
4.1850175857543945 -24.128219604492188 -3.8725383281707764 113
1.3401246070861816 -7.734345436096191 -0.959112823009491 111
1.3351765871047974 -7.713791847229004 -0.6815589666366577 111
4.176032066345215 -24.15151023864746 -1.2782249450683594 113
4.170915603637695 -24.147022247314453 -0.4227936267852783 113
0.8622534275054932 -4.9971137046813965 1.3475688695907593 114
0.8986424803733826 -5.213433265686035 1.2115695476531982 114
0.9393469095230103 -5.455265998840332 1.0675709247589111 114
0.9843282699584961 -5.72246789932251 0.9125704169273376 114
0.9948304891586304 -5.789571285247803 0.7165916562080383 114
nan nan nan 0
4.149863243103027 -24.20138931274414 1.284847617149353 113
nan nan nan 0
0.32767942547798157 -1.923065423965454 -0.5124619007110596 119
0.3791995048522949 -2.227771520614624 -0.5128887295722961 119
4.106297016143799 -24.14969825744629 -4.7497406005859375 113
4.097460746765137 -24.123205184936523 -3.8694095611572266 113
1.3122882843017578 -7.73408317565918 -0.9585034251213074 111
1.3065775632858276 -7.708584308624268 -0.680687427520752 111
4.088367938995361 -24.14624786376953 -1.277181625366211 113
4.083266735076904 -24.1417179107666 -0.422448068857193 113
0.8440002202987671 -4.995329856872559 1.3462755680084229 114
0.8804386854171753 -5.216538429260254 1.2115695476531982 114
0.9194827079772949 -5.453671455383301 1.066617727279663 114
0.9635270833969116 -5.720999717712402 0.9117891788482666 114
0.973791778087616 -5.78811502456665 0.7159823775291443 114
nan nan nan 0
4.06453275680542 -24.210803985595703 1.2845860719680786 113
nan nan nan 0
0.3201700448989868 -1.9194337129592896 -0.5111678242683411 119
0.37142080068588257 -2.229081630706787 -0.5128887295722961 119
4.0187506675720215 -24.14451789855957 -4.745927810668945 113
4.009180068969727 -24.11300277709961 -3.8654987812042236 113
1.2844702005386353 -7.733720779418945 -0.9578940868377686 111
1.2788463830947876 -7.708184242248535 -0.6802515983581543 111
4.001607894897461 -24.145593643188477 -1.2763992547988892 113
3.9957056045532227 -24.136096954345703 -0.42210251092910767 113
0.8257701396942139 -4.993480682373047 1.3449822664260864 114
0.8614301681518555 -5.214773178100586 1.2104456424713135 114
0.9004402160644531 -5.45684814453125 1.066617727279663 114
0.9427478909492493 -5.719455242156982 0.9110078811645508 114
0.952775239944458 -5.786581993103027 0.7153730392456055 114
nan nan nan 0
nan nan nan 0
nan nan nan 0
0.31346800923347473 -1.9205396175384521 -0.5111678242683411 119
0.3636375963687897 -2.2303645610809326 -0.5128887295722961 119
3.9312901496887207 -24.139020919799805 -4.742115020751953 113
3.9218132495880127 -24.10735321044922 -3.862370014190674 113
1.2566707134246826 -7.733259677886963 -0.9572848081588745 111
1.251133918762207 -7.707684516906738 -0.6798158288002014 111
3.914102792739868 -24.139698028564453 -1.2753559350967407 113
3.908233642578125 -24.130157470703125 -0.42175695300102234 113
0.8083346486091614 -4.99633264541626 1.3449822664260864 114
0.8432219624519348 -5.217748641967773 1.2104456424713135 114
0.8806045055389404 -5.455111503601074 1.065664529800415 114
0.9219914078712463 -5.717835426330566 0.9102265238761902 114
0.9317812919616699 -5.784972667694092 0.7147636413574219 114
nan nan nan 0
3.887488842010498 -24.189289093017578 1.2819691896438599 113
nan nan nan 0
0.3075235188007355 -1.926391363143921 -0.5124619007110596 119
0.3558499813079834 -2.2316203117370605 -0.5128887295722961 119
3.84391713142395 -24.133209228515625 -4.738302230834961 113
3.8353116512298584 -24.106266021728516 -3.8600234985351562 113
1.2288899421691895 -7.732697486877441 -0.9566754102706909 111
1.2234406471252441 -7.707085132598877 -0.6793800592422485 111
3.8259057998657227 -24.128557205200195 -1.2740520238876343 113
3.8216331005096436 -24.12883949279785 -0.42149776220321655 113
0.7901345491409302 -4.994353294372559 1.34368896484375 114
0.8242430686950684 -5.215847969055176 1.2093217372894287 114
0.8607920408248901 -5.453304767608643 1.064711332321167 114
0.9012576937675476 -5.7161407470703125 0.9094452261924744 114
0.9108101725578308 -5.783287525177002 0.7141543030738831 114
nan nan nan 0
3.7929527759552 -24.138587951660156 1.2785674333572388 113
nan nan nan 0
0.3015420138835907 -1.9322251081466675 -0.5137560367584229 119
0.34730759263038635 -2.2280349731445312 -0.5117639303207397 119
3.7566323280334473 -24.127079010009766 -4.734489440917969 113
3.748106002807617 -24.099987030029297 -3.8568947315216064 113
1.200366735458374 -7.727132320404053 -0.9554566740989685 111
1.1957666873931885 -7.706387042999268 -0.6789442896842957 111
3.7378342151641846 -24.117094039916992 -1.2727479934692383 113
3.734325885772705 -24.122272491455078 -0.4211522340774536 113
0.7719581723213196 -4.992308616638184 1.3423959016799927 114
0.8060312867164612 -5.218693256378174 1.2093217372894287 114
0.841002881526947 -5.451425552368164 1.063758134841919 114
0.8812990784645081 -5.719252109527588 0.9094452261924744 114
0.8898622989654541 -5.781526565551758 0.7135449647903442 114
nan nan nan 0
3.7170064449310303 -24.205968856811523 1.2814457416534424 113
nan nan nan 0
0.2947954535484314 -1.9332659244537354 -0.5137560367584229 119
0.3395282030105591 -2.229233741760254 -0.5117639303207397 119
3.6694371700286865 -24.120635986328125 -4.730676651000977 113
3.6617329120635986 -24.098278045654297 -3.854548454284668 113
1.1726421117782593 -7.726368427276611 -0.9548473954200745 111
1.1681125164031982 -7.705589771270752 -0.6785085201263428 111
3.6498894691467285 -24.105308532714844 -1.2714439630508423 113
3.6471099853515625 -24.115386962890625 -0.4208066463470459 113
0.7545270323753357 -4.9949727058410645 1.3423959016799927 114
0.787082850933075 -5.2166571617126465 1.208197832107544 114
0.8219687342643738 -5.454327583312988 1.063758134841919 114
0.8605948090553284 -5.717410087585449 0.9086639285087585 114
0.8696755170822144 -5.784597873687744 0.7135449647903442 114
nan nan nan 0
3.627305030822754 -24.18423080444336 1.2796140909194946 113
nan nan nan 0
0.2887566387653351 -1.939060091972351 -0.5150501132011414 119
0.332461416721344 -2.2352242469787598 -0.5128887295722961 119
3.583054780960083 -24.118732452392578 -4.727817058563232 113
3.5754175186157227 -24.09625816345215 -3.8522019386291504 113
1.1442097425460815 -7.720596790313721 -0.953628659248352 111
1.140478491783142 -7.704692840576172 -0.6780726909637451 111
3.56207275390625 -24.09320640563965 -1.2701399326324463 113
3.559988260269165 -24.10818862915039 -0.42046108841896057 113
0.736382007598877 -4.9927978515625 1.3411026000976562 114
0.7681586146354675 -5.214552879333496 1.2070739269256592 114
0.8022100329399109 -5.45230770111084 1.062804937362671 114
0.8399140238761902 -5.7154927253723145 0.9078826308250427 114
0.8487575650215149 -5.782688617706299 0.7129356265068054 114
nan nan nan 0
nan nan nan 0
nan nan nan 0
0.2819862961769104 -1.9400562047958374 -0.5150501132011414 119
0.32465699315071106 -2.2363712787628174 -0.5128887295722961 119
3.496025562286377 -24.111661911010742 -4.72400426864624 113
3.488452911376953 -24.089040756225586 -3.8490731716156006 113
1.1165424585342407 -7.719631671905518 -0.9530193209648132 111
1.1128649711608887 -7.7036967277526855 -0.6776369214057922 111
3.4743847846984863 -24.080781936645508 -1.2688357830047607 113
3.4736742973327637 -24.10562515258789 -0.4202019274234772 113
0.7182613015174866 -4.990556716918945 1.3398092985153198 114
0.7499516606330872 -5.217202663421631 1.2070739269256592 114
0.7824755907058716 -5.450216293334961 1.0618517398834229 114
0.8199580907821655 -5.718389987945557 0.9078826308250427 114
0.8278635144233704 -5.780703067779541 0.7123262882232666 114
nan nan nan 0
nan nan nan 0
nan nan nan 0
0.27521252632141113 -1.9410285949707031 -0.5150501132011414 119
0.31684863567352295 -2.2374908924102783 -0.5128887295722961 119
3.4097769260406494 -24.10913848876953 -4.721145153045654 113
3.402273178100586 -24.086402893066406 -3.846726655960083 113
1.0888959169387817 -7.718568325042725 -0.9524099826812744 111
1.0852724313735962 -7.702602386474609 -0.6772011518478394 111
3.390305757522583 -24.092761993408203 -1.2688357830047607 113
3.3874216079711914 -24.102750778198242 -0.4199427664279938 113
0.7008365988731384 -4.993033409118652 1.3398092985153198 114
0.7310592532157898 -5.214963436126709 1.2059500217437744 114
0.7634459733963013 -5.452914237976074 1.0618517398834229 114
0.7993083000183105 -5.7163262367248535 0.9071012735366821 114
0.8069936633110046 -5.778642654418945 0.711716890335083 114
nan nan nan 0
nan nan nan 0
nan nan nan 0
0.2677741050720215 -1.9371933937072754 -0.5137560367584229 119
0.309702605009079 -2.2434091567993164 -0.5140134692192078 119
3.3235881328582764 -24.106307983398438 -4.71828556060791 113
3.3161540031433105 -24.083452224731445 -3.8443799018859863 113
1.0612703561782837 -7.717405796051025 -0.9518006443977356 111
1.0577008724212646 -7.701408863067627 -0.6767653822898865 111
3.304828643798828 -24.09455680847168 -1.2683141231536865 113
3.3012309074401855 -24.099567413330078 -0.419683575630188 113
0.6827487945556641 -4.990664482116699 1.3385159969329834 114
0.712191641330719 -5.212656021118164 1.2048259973526 114
0.7437435984611511 -5.450682640075684 1.0608986616134644 114
0.7786828279495239 -5.714188098907471 0.9063199758529663 114
0.7861483097076416 -5.7765069007873535 0.711107611656189 114
nan nan nan 0
nan nan nan 0
3.2722692489624023 -24.138757705688477 0.4245297610759735 113
0.26165497303009033 -1.942902684211731 -0.5150501132011414 119
0.3005709648132324 -2.2348196506500244 -0.5117639303207397 119
3.2374610900878906 -24.103168487548828 -4.715425491333008 113
3.229440927505493 -24.075305938720703 -3.8412516117095947 113
1.0336660146713257 -7.716144561767578 -0.9511913061141968 111
1.0308115482330322 -7.70505428314209 -0.6767653822898865 111
3.2193806171417236 -24.09604835510254 -1.2677925825119019 113
3.215104103088379 -24.096078872680664 -0.4194244146347046 113
0.6653239130973816 -4.993016719818115 1.3385159969329834 114
0.6933491230010986 -5.210281848907471 1.2037022113800049 114
0.7240659594535828 -5.448379993438721 1.0599453449249268 114
0.7580822110176086 -5.711976051330566 0.9055386781692505 114
0.7653276920318604 -5.774296283721924 0.7104982733726501 114
nan nan nan 0
nan nan nan 0
3.1853725910186768 -24.13020896911621 0.4241807162761688 113
0.25424352288246155 -1.9390156269073486 -0.5137560367584229 119
0.29213565587997437 -2.231024980545044 -0.5106391906738281 119
3.1513965129852295 -24.099721908569336 -4.712566375732422 113
3.14282488822937 -24.066844940185547 -3.838122844696045 113
1.0060837268829346 -7.714784622192383 -0.9505819082260132 111
1.0032663345336914 -7.7036662101745605 -0.6763296127319336 111
3.1333179473876953 -24.09228515625 -1.2670100927352905 113
3.129042148590088 -24.092283248901367 -0.4191652536392212 113
0.6472698450088501 -4.9905195236206055 1.3372228145599365 114
0.6751576066017151 -5.212669849395752 1.2037022113800049 114
0.7050431370735168 -5.450874328613281 1.0599453449249268 114
0.7381390929222107 -5.714587688446045 0.9055386781692505 114
0.7445319890975952 -5.772010326385498 0.7098888754844666 114
nan nan nan 0
3.1085662841796875 -24.165748596191406 1.2749037742614746 113
3.106855869293213 -24.185808181762695 0.42496609687805176 113
0.24747353792190552 -1.9398913383483887 -0.5137560367584229 119
0.28373047709465027 -2.2271981239318848 -0.5095144510269165 119
3.0647759437561035 -24.09109878540039 -4.70875358581543 113
3.056307077407837 -24.05807113647461 -3.834994077682495 113
0.9785233736038208 -7.7133259773254395 -0.9499725699424744 111
0.9757433533668518 -7.702179908752441 -0.6758937835693359 111
3.047321319580078 -24.088214874267578 -1.2662277221679688 113
3.0430452823638916 -24.088178634643555 -0.4189060628414154 113
0.6298457384109497 -4.992748737335205 1.3372228145599365 114
0.6563489437103271 -5.210161209106445 1.2025783061981201 114
0.6853991746902466 -5.448432445526123 1.0589921474456787 114
0.7175713777542114 -5.712229251861572 0.9047573804855347 114
0.7243794202804565 -5.774574279785156 0.7098888754844666 114
1.0318517684936523 -8.237308502197266 0.7229568958282471 112
3.023573398590088 -24.171497344970703 1.2746421098709106 113
nan nan nan 0
0.24070055782794952 -1.940743327140808 -0.5137560367584229 119
0.27535560727119446 -2.2233402729034424 -0.5083897113800049 119
2.978856086730957 -24.0870361328125 -4.7058939933776855 113
2.9686784744262695 -24.0391845703125 -3.830300807952881 113
0.9509855508804321 -7.7117695808410645 -0.9493632316589355 111
0.9482431411743164 -7.700595378875732 -0.6754580736160278 111
2.961390972137451 -24.083837509155273 -1.265445351600647 113
2.957115650177002 -24.083768844604492 -0.418646901845932 113
0.6118261814117432 -4.9901227951049805 1.3359296321868896 114
0.6381580829620361 -5.212420463562012 1.2025783061981201 114
0.6657807230949402 -5.445919513702393 1.0580389499664307 114
0.6970291137695312 -5.70979642868042 0.9039760231971741 114
0.7036174535751343 -5.772140979766846 0.7092795372009277 114
1.0030919313430786 -8.240860939025879 0.7229568958282471 112
nan nan nan 0
nan nan nan 0
0.23426349461078644 -1.9415308237075806 -0.5137560367584229 119
0.2685639560222626 -2.2290778160095215 -0.5095144510269165 119
2.8972058296203613 -24.082164764404297 -4.703034400939941 113
2.8907127380371094 -24.063608169555664 -3.8326475620269775 113
0.9248161315917969 -7.709953308105469 -0.9487538933753967 111
0.9221094846725464 -7.698751926422119 -0.6750222444534302 111
2.8797309398651123 -24.078649520874023 -1.2646628618240356 113
2.8742706775665283 -24.068622589111328 -0.41821494698524475 113
0.5947030782699585 -4.98732852935791 1.3346363306045532 114
0.6202934980392456 -5.209669589996338 1.2014544010162354 114
0.6477177739143372 -5.448097229003906 1.0580389499664307 114
0.6780909299850464 -5.712076663970947 0.9039760231971741 114
0.6838884353637695 -5.769515514373779 0.7086701989173889 114
0.97517329454422 -8.239195823669434 0.7225211262702942 112
2.854872226715088 -24.156808853149414 1.272810459136963 113
nan nan nan 0
0.22748486697673798 -1.9423367977142334 -0.5137560367584229 119
0.26134729385375977 -2.2348406314849854 -0.5106391906738281 119
2.8108484745025635 -24.072629928588867 -4.699221611022949 113
2.803837776184082 -24.04902458190918 -3.8287367820739746 113
0.8973237872123718 -7.708205223083496 -0.9481445550918579 111
0.8946551084518433 -7.6969757080078125 -0.6745864748954773 111
2.792785167694092 -24.063756942749023 -1.2633588314056396 113
2.787360906600952 -24.053680419921875 -0.4177830219268799 113
0.577290415763855 -4.989373683929443 1.3346363306045532 114
0.6021046042442322 -5.211803436279297 1.2014544010162354 114
0.6281339526176453 -5.445449352264404 1.0570858716964722 114
0.6575828194618225 -5.709502696990967 0.9031947255134583 114
0.6637448668479919 -5.771867275238037 0.7086701989173889 114
0.945270836353302 -8.232651710510254 0.7216495275497437 112
nan nan nan 0
nan nan nan 0
0.22070345282554626 -1.9431190490722656 -0.5137560367584229 119
0.2535446584224701 -2.2357394695281982 -0.5106391906738281 119
2.7262496948242188 -24.077415466308594 -4.698268413543701 113
2.7209832668304443 -24.068479537963867 -3.830300807952881 113
0.8698550462722778 -7.706358432769775 -0.9475351572036743 111
0.8666665554046631 -7.690152645111084 -0.6737149357795715 111
2.708211660385132 -24.06839942932129 -1.2630980014801025 113
2.70282244682312 -24.058292388916016 -0.41769659519195557 113
0.5593323707580566 -4.98655891418457 1.3333430290222168 114
0.5833661556243896 -5.209031581878662 1.200330376625061 114
0.6091219782829285 -5.447608947753906 1.0570858716964722 114
0.6376489400863647 -5.711763381958008 0.9031947255134583 114
0.6430435180664062 -5.769216537475586 0.7080608606338501 114
0.9170786142349243 -8.240852355957031 0.7220853567123413 112
nan nan nan 0
nan nan nan 0
0.21391935646533966 -1.9438775777816772 -0.5137560367584229 119
0.24627095460891724 -2.241453170776367 -0.5117639303207397 119
2.6432578563690186 -24.096546173095703 -4.700174808502197 113
nan nan nan 0
0.8429495692253113 -7.709348201751709 -0.9475351572036743 111
0.8392771482467651 -7.6881794929504395 -0.6732791662216187 111
2.62526273727417 -24.087631225585938 -1.2636196613311768 113
0.8942676782608032 -8.218511581420898 -0.14219826459884644 112
0.5419226288795471 -4.988480567932129 1.3333430290222168 114
0.5651796460151672 -5.211036205291748 1.200330376625061 114
0.5895741581916809 -5.444821834564209 1.0561326742172241 114
0.6171765327453613 -5.709044933319092 0.9024134874343872 114
0.6223686933517456 -5.766491889953613 0.7074515223503113 114
0.8888407349586487 -8.248954772949219 0.7225211262702942 112
2.5990805625915527 -24.16055679321289 1.2715020179748535 113
nan nan nan 0
0.20713265240192413 -1.9446125030517578 -0.5137560367584229 119
0.23896051943302155 -2.2471439838409424 -0.5128887295722961 119
2.557574510574341 -24.09098243713379 -4.697315216064453 113
2.550286293029785 -24.062334060668945 -3.826390027999878 113
0.8155115842819214 -7.707308769226074 -0.9469258785247803 111
0.8119120001792908 -7.6861090660095215 -0.672843337059021 111
0.8643920421600342 -8.196614265441895 -0.4285092055797577 112
0.8655742406845093 -8.221582412719727 -0.14219826459884644 112
0.52400141954422 -4.985538959503174 1.33204984664917 114
0.5469862818717957 -5.212976932525635 1.200330376625061 114
0.5705645680427551 -5.446846961975098 1.0561326742172241 114
0.5972445011138916 -5.711164474487305 0.9024134874343872 114
0.6017207503318787 -5.763692855834961 0.7068421244621277 114
0.8579757213592529 -8.23219108581543 0.7207779884338379 112
nan nan nan 0
nan nan nan 0
0.20034343004226685 -1.9453235864639282 -0.5137560367584229 119
0.23111505806446075 -2.24796462059021 -0.5128887295722961 119
0.8432952165603638 -8.216493606567383 -1.596591591835022 112
0.8409664630889893 -8.207908630371094 -1.3007535934448242 112
0.788098156452179 -7.705171585083008 -0.9463165402412415 111
0.7845715284347534 -7.683940410614014 -0.6724075675010681 111
0.8388131260871887 -8.229386329650879 -0.4300740361213684 112
0.834846019744873 -8.204659461975098 -0.1418527066707611 112
0.5065954327583313 -4.987337112426758 1.33204984664917 114
0.5287862420082092 -5.214854717254639 1.200330376625061 114
0.5510537624359131 -5.44392204284668 1.055179476737976 114
0.5768086910247803 -5.708300590515137 0.9016321301460266 114
0.5815980434417725 -5.765758514404297 0.7068421244621277 114
0.8287357687950134 -8.230179786682129 0.7203421592712402 112
2.431344985961914 -24.188051223754883 1.272025465965271 113
0.8173972964286804 -8.146101951599121 0.1422370970249176 112
0.19355176389217377 -1.9460110664367676 -0.5137560367584229 119
0.2237481027841568 -2.253605365753174 -0.5140134692192078 119
0.8126729130744934 -8.199849128723145 -1.5927786827087402 112
0.8113380670547485 -8.20096492767334 -1.2991892099380493 112
0.7607095837593079 -7.702937126159668 -0.9457071423530579 111
0.7572562098503113 -7.681675910949707 -0.6719717979431152 111
0.8056813478469849 -8.187541961669922 -0.42772677540779114 112
0.8027804493904114 -8.172698020935059 -0.1412479728460312 112
0.488711953163147 -4.984268665313721 1.3307565450668335 114
0.5101052522659302 -5.211820125579834 1.1992065906524658 114
0.5320475697517395 -5.445812225341797 1.055179476737976 114
0.556879460811615 -5.71027946472168 0.9016321301460266 114
0.5609874725341797 -5.762814044952393 0.7062328457832336 114
0.7971115708351135 -8.203275680541992 0.717727541923523 112
0.7937592267990112 -8.183613777160645 0.42889314889907837 112
0.7889571189880371 -8.148905754089355 0.1422370970249176 112
0.18675774335861206 -1.9466748237609863 -0.5137560367584229 119
0.21588020026683807 -2.2543725967407227 -0.5140134692192078 119
0.7817099094390869 -8.178206443786621 -1.5880128145217896 112
nan nan nan 0
0.733346164226532 -7.7006049156188965 -0.945097804069519 111
0.7304375171661377 -7.684272289276123 -0.6719717979431152 111
0.7737950682640076 -8.15550708770752 -0.4259011149406433 112
0.7685913443565369 -8.11572551727295 -0.140211284160614 112
0.47131064534187317 -4.9859442710876465 1.3307565450668335 114
0.4919095039367676 -5.213569164276123 1.1992065906524658 114
0.5125746726989746 -5.442749500274658 1.054226279258728 114
0.5364813208580017 -5.707271099090576 0.9008508324623108 114
0.5404044985771179 -5.759796142578125 0.70562344789505 114
nan nan nan 0
0.7642589211463928 -8.1763916015625 0.42836976051330566 112
nan nan nan 0
0.1804058700799942 -1.9521238803863525 -0.5150501132011414 119
0.20756219327449799 -2.2502613067626953 -0.5128887295722961 119
0.7095107436180115 -7.706784725189209 -1.4955534934997559 111
0.7061663866043091 -7.685150146484375 -1.2162789106369019 111
0.7060083150863647 -7.69817590713501 -0.9444884657859802 111
0.7031558752059937 -7.681815147399902 -0.6715360283851624 111
nan nan nan 0
0.703032374382019 -7.710114002227783 -0.13312730193138123 111
0.45390358567237854 -4.9875593185424805 1.3307565450668335 114
0.47370773553848267 -5.215254306793213 1.1992065906524658 114
0.49357283115386963 -5.444505214691162 1.054226279258728 114
0.5165559649467468 -5.709109306335449 0.9008508324623108 114
0.5202957391738892 -5.7616472244262695 0.70562344789505 114
0.6951120495796204 -7.712554931640625 0.6741496324539185 111
0.6932165622711182 -7.706568241119385 0.4035102128982544 111
0.6904762387275696 -7.691148281097412 0.13412173092365265 111
0.17359058558940887 -1.9527418613433838 -0.5150501132011414 119
0.1997060477733612 -2.250972270965576 -0.5128887295722961 119
0.681306004524231 -7.694546699523926 -1.4926939010620117 111
0.678901195526123 -7.682649612426758 -1.2154967784881592 111
0.6791324019432068 -7.7005934715271 -0.9444884657859802 111
0.6759003400802612 -7.679261207580566 -0.6711002588272095 111
0.6753329038619995 -7.688177108764648 -0.4011242687702179 111
0.6752415895462036 -7.7025604248046875 -0.13295450806617737 111
0.4360700249671936 -4.984301567077637 1.329463243484497 114
0.4550764262676239 -5.212022304534912 1.198082685470581 114
0.47413888573646545 -5.441305637359619 1.05327308177948 114
0.49662429094314575 -5.710877895355225 0.9008508324623108 114
0.49975159764289856 -5.758484363555908 0.7050141096115112 114
0.667756199836731 -7.709972381591797 0.6737139225006104 111
0.6654514074325562 -7.698991775512695 0.4029868543148041 111
0.6627656817436218 -7.683549880981445 0.1339472085237503 111
0.1671840250492096 -1.9581478834152222 -0.5163442492485046 119
0.1914338618516922 -2.2468011379241943 -0.5117639303207397 119
0.6531953811645508 -7.682206630706787 -1.4898344278335571 111
0.6516621112823486 -7.680051803588867 -1.2147146463394165 111
0.6518294811248779 -7.697972297668457 -0.9438791275024414 111
0.6486712098121643 -7.676610469818115 -0.6706644296646118 111
0.6476529240608215 -7.68053674697876 -0.40060263872146606 111
0.6475122570991516 -7.694908142089844 -0.1327817291021347 111
0.4186689257621765 -4.985793113708496 1.329463243484497 114
0.43688029050827026 -5.213579177856445 1.198082685470581 114
0.4551422894001007 -5.442927360534668 1.05327308177948 114
0.47627586126327515 -5.7076544761657715 0.9000694751739502 114
0.4792358875274658 -5.755248069763184 0.7044047713279724 114
0.6391894817352295 -7.692400932312012 0.671970784664154 111
0.6381602883338928 -7.696291923522949 0.4027251601219177 111
0.6367655396461487 -7.695781230926514 0.13412173092365265 111
0.1607418656349182 -1.9635331630706787 -0.5176383256912231 119
0.1835898905992508 -2.247455596923828 -0.5117639303207397 119
0.6263755559921265 -7.684439659118652 -1.4898344278335571 111
0.6240490674972534 -7.672435283660889 -1.2131502628326416 111
0.6245530247688293 -7.695253849029541 -0.9432697892189026 111
0.6214688420295715 -7.673863410949707 -0.6702287197113037 111
0.6204367280006409 -7.677773475646973 -0.40034180879592896 111
0.6202462315559387 -7.692137241363525 -0.13269534707069397 111
0.40087535977363586 -4.982409954071045 1.3281700611114502 114
0.4182889759540558 -5.210216045379639 1.1969587802886963 114
0.43614014983177185 -5.444483280181885 1.05327308177948 114
0.45634955167770386 -5.709282398223877 0.9000694751739502 114
0.45914337038993835 -5.756886005401611 0.7044047713279724 114
0.6123340725898743 -7.694584846496582 0.671970784664154 111
0.610896110534668 -7.693495273590088 0.40246349573135376 111
0.6083189845085144 -7.678022384643555 0.13377268612384796 111
0.15460775792598724 -1.9688701629638672 -0.5189324021339417 119
0.17690983414649963 -2.252878427505493 -0.5128887295722961 119
0.6018477082252502 -7.681476593017578 -1.488881230354309 111
0.5999423265457153 -7.674357891082764 -1.2131502628326416 111
0.5999887585639954 -7.692229747772217 -0.942660391330719 111
0.5973576903343201 -7.675777912139893 -0.6702287197113037 111
0.5959267020225525 -7.67470645904541 -0.40008100867271423 111
0.5956915020942688 -7.689064025878906 -0.13260895013809204 111
0.3852207064628601 -4.983644962310791 1.3281700611114502 114
0.40191856026649475 -5.2115044593811035 1.1969587802886963 114
0.4186571538448334 -5.440932750701904 1.052319884300232 114
0.4380330741405487 -5.705763816833496 0.8992881774902344 114
0.44067639112472534 -5.753352165222168 0.7037954330444336 114
0.5877783298492432 -7.691504001617432 0.6715350151062012 111
0.5863437056541443 -7.6903977394104 0.4022018015384674 111
0.5845739245414734 -7.684879779815674 0.13385994732379913 111
0.14807789027690887 -1.9693719148635864 -0.5189324021339417 119
0.16904473304748535 -2.2534823417663574 -0.5128887295722961 119
0.5750306844711304 -7.683530330657959 -1.488881230354309 111
0.5727824568748474 -7.671481132507324 -1.212368130683899 111
0.573134183883667 -7.694277286529541 -0.942660391330719 111
0.5701914429664612 -7.672849178314209 -0.6697929501533508 111
0.5691333413124084 -7.676739692687988 -0.40008100867271423 111
0.5684792399406433 -7.686110496520996 -0.1325225532054901 111
0.3674668073654175 -4.980142593383789 1.3268768787384033 114
0.3833668828010559 -5.208016395568848 1.195834755897522 114
0.39966219663619995 -5.442360877990723 1.052319884300232 114
0.4181135296821594 -5.7072577476501465 0.8992881774902344 114
0.42059072852134705 -5.754855155944824 0.7037954330444336 114
0.5609263777732849 -7.693508625030518 0.6715350151062012 111
0.5591334700584412 -7.687417507171631 0.40194013714790344 111
0.5573834180831909 -7.681887626647949 0.13377268612384796 111
0.14085878431797028 -1.9699015617370605 -0.5189324021339417 119
0.16078418493270874 -2.25408673286438 -0.5128887295722961 119
0.5465168356895447 -7.680690288543701 -1.487928032875061 111
0.544661283493042 -7.673529148101807 -1.212368130683899 111
0.5445789694786072 -7.691376686096191 -0.942051112651825 111
0.5417142510414124 -7.669918537139893 -0.6693571209907532 111
0.5406419634819031 -7.673793315887451 -0.3998202085494995 111
0.54030442237854 -7.6881422996521 -0.1325225532054901 111
0.3492112159729004 -4.981456279754639 1.3268768787384033 114
0.3642759919166565 -5.209386825561523 1.195834755897522 114
0.37937068939208984 -5.438892841339111 1.0513666868209839 114
0.3971925973892212 -5.708752155303955 0.8992881774902344 114
0.3991517424583435 -5.751407146453857 0.7031860947608948 114
0.5323804616928101 -7.6905436515808105 0.6710991859436035 111
0.5306099057197571 -7.684433460235596 0.4016784429550171 111
0.5288806557655334 -7.678891658782959 0.1336854249238968 111
0.13398168981075287 -1.970381259918213 -0.5189324021339417 119
0.15324459969997406 -2.2594947814941406 -0.5140134692192078 119
0.5193716883659363 -7.677654266357422 -1.4869747161865234 111
0.5175398588180542 -7.6704559326171875 -1.2115858793258667 111
0.5177277326583862 -7.693231105804443 -0.942051112651825 111
0.5149379372596741 -7.671762466430664 -0.6693571209907532 111
0.5138521194458008 -7.675633907318115 -0.3998202085494995 111
0.5131314396858215 -7.684994220733643 -0.13243617117404938 111
0.3314996361732483 -4.97782564163208 1.325583577156067 114
0.34608960151672363 -5.210626602172852 1.195834755897522 114
0.36038312315940857 -5.440184116363525 1.0513666868209839 114
0.3769373297691345 -5.70517635345459 0.8985068798065186 114
0.3790731430053711 -5.752765655517578 0.7031860947608948 114
0.5052055716514587 -7.687385082244873 0.6706634163856506 111
0.5037829875946045 -7.686239242553711 0.4016784429550171 111
0.5020731091499329 -7.680691242218018 0.1336854249238968 111
0.12710297107696533 -1.970836877822876 -0.5189324021339417 119
0.14535658061504364 -2.2600159645080566 -0.5140134692192078 119
0.49225425720214844 -7.674521446228027 -1.4860215187072754 111
0.4904465675354004 -7.667287349700928 -1.210803747177124 111
0.49055421352386475 -7.690038204193115 -0.9414417147636414 111
0.48783913254737854 -7.668542385101318 -0.6689213514328003 111
0.4867399334907532 -7.672398090362549 -0.3995593786239624 111
0.4863027036190033 -7.68673849105835 -0.13243617117404938 111
0.31412172317504883 -4.978952407836914 1.325583577156067 114
0.3275930881500244 -5.206940650939941 1.1947109699249268 114
0.3410837948322296 -5.436509609222412 1.0504134893417358 114
0.3570202887058258 -5.706457138061523 0.8985068798065186 114
0.3586808741092682 -5.749100208282471 0.702576756477356 114
0.47836852073669434 -7.689101696014404 0.6706634163856506 111
0.4766407608985901 -7.682966709136963 0.40141674876213074 111
0.4749507009983063 -7.6774067878723145 0.13359816372394562 111
0.12022268027067184 -1.9712685346603394 -0.5189324021339417 119
0.13717104494571686 -2.2556469440460205 -0.5128887295722961 119
0.46546220779418945 -7.6761932373046875 -1.4860215187072754 111
0.4636797606945038 -7.668952465057373 -1.210803747177124 111
0.46340933442115784 -7.686750411987305 -0.9408323764801025 111
0.46076908707618713 -7.665226459503174 -0.6684855818748474 111
0.4596565067768097 -7.669065952301025 -0.3992985785007477 111
0.45916974544525146 -7.683398246765137 -0.13234978914260864 111
0.2967400550842285 -4.980018615722656 1.325583577156067 114
0.3094154894351959 -5.208052158355713 1.1947109699249268 114
0.3221047520637512 -5.437667369842529 1.0504134893417358 114
0.3370988667011261 -5.707668304443359 0.8985068798065186 114
0.33861058950424194 -5.750317096710205 0.702576756477356 114
0.45123371481895447 -7.685752868652344 0.6702277064323425 111
0.44981929659843445 -7.68458366394043 0.40141674876213074 111
0.44785740971565247 -7.674027442932129 0.13351090252399445 111
0.11306377500295639 -1.9668546915054321 -0.5176383256912231 119
0.12929654121398926 -2.2561118602752686 -0.5128887295722961 119
0.4383845031261444 -7.6728715896606445 -1.485068440437317 111
0.43662646412849426 -7.66559362411499 -1.2100214958190918 111
0.4365747272968292 -7.688321113586426 -0.9408323764801025 111
0.4340096414089203 -7.666788101196289 -0.6684855818748474 111
0.43288367986679077 -7.670623779296875 -0.3992985785007477 111
0.4320661127567291 -7.679962635040283 -0.1322633922100067 111
0.2793547213077545 -4.981024265289307 1.325583577156067 114
0.2912341058254242 -5.209100723266602 1.1947109699249268 114
0.30312177538871765 -5.438758373260498 1.0504134893417358 114
0.3171733319759369 -5.708810329437256 0.8985068798065186 114
0.3182617425918579 -5.746508598327637 0.7019673585891724 114
0.4244026839733124 -7.687281131744385 0.6702277064323425 111
0.42271801829338074 -7.681122303009033 0.4011550843715668 111
0.4210672974586487 -7.675543785095215 0.13351090252399445 111
0.10619747638702393 -1.9672372341156006 -0.5176383256912231 119
0.121158666908741 -2.2516844272613525 -0.5117639303207397 119
0.4115985035896301 -7.6743550300598145 -1.485068440437317 111
0.4098658561706543 -7.667071342468262 -1.2100214958190918 111
0.4094707667827606 -7.684842109680176 -0.9402230381965637 111
0.4069807529449463 -7.66328239440918 -0.6680498123168945 111
0.4058416187763214 -7.6671013832092285 -0.39903774857521057 111
0.40525540709495544 -7.681424617767334 -0.1322633922100067 111
0.26171237230300903 -4.977145195007324 1.3242902755737305 114
0.27304917573928833 -5.210085391998291 1.1947109699249268 114
0.2841351330280304 -5.439783096313477 1.0504134893417358 114
0.2972439229488373 -5.709883213043213 0.8985068798065186 114
0.2982007563114166 -5.747584819793701 0.7019673585891724 114
0.3973093032836914 -7.683741092681885 0.6697918772697449 111
0.3959032893180847 -7.68255090713501 0.4011550843715668 111
0.39401569962501526 -7.6719746589660645 0.13342364132404327 111
0.09908638894557953 -1.9627724885940552 -0.5163442492485046 119
0.11329808831214905 -2.25209379196167 -0.5117639303207397 119
0.3845617473125458 -7.67084264755249 -1.4841152429580688 111
0.3828538954257965 -7.663523197174072 -1.2092394828796387 111
0.3826431930065155 -7.686224460601807 -0.9402230381965637 111
0.3802284300327301 -7.664656639099121 -0.6680498123168945 111
0.3788294792175293 -7.663485050201416 -0.39877697825431824 111
0.37819379568099976 -7.677799224853516 -0.13217699527740479 111
0.2443372905254364 -4.978028297424316 1.3242902755737305 114
0.25486093759536743 -5.2110066413879395 1.1947109699249268 114
0.2651450037956238 -5.440742015838623 1.0504134893417358 114
0.27707138657569885 -5.7059526443481445 0.8977255821228027 114
0.27789628505706787 -5.743634223937988 0.7013580203056335 114
0.3702457547187805 -7.680106163024902 0.669356107711792 111
0.368844211101532 -7.678898334503174 0.4008934199810028 111
0.36723312735557556 -7.67330265045166 0.13342364132404327 111
0.09200776368379593 -1.9582821130752563 -0.5150501132011414 119
0.10520833730697632 -2.2476091384887695 -0.5106391906738281 119
0.35778316855430603 -7.672138690948486 -1.4841152429580688 111
0.3561008870601654 -7.664813041687012 -1.2092394828796387 111
0.35558149218559265 -7.68255615234375 -0.9396136999130249 111
0.35324203968048096 -7.660961627960205 -0.6676140427589417 111
0.3520766496658325 -7.664760589599609 -0.39877697825431824 111
0.3513909876346588 -7.679072380065918 -0.13217699527740479 111
0.2269592434167862 -4.978850841522217 1.3242902755737305 114
0.23644858598709106 -5.206997871398926 1.193587064743042 114
0.24592989683151245 -5.436731815338135 1.0494604110717773 114
0.2571521997451782 -5.70688533782959 0.8977255821228027 114
0.25784558057785034 -5.744568824768066 0.7013580203056335 114
0.3434349000453949 -7.681351661682129 0.669356107711792 111
0.3420375883579254 -7.680139064788818 0.4008934199810028 111
0.3402245044708252 -7.669543743133545 0.1333363801240921 111
0.08517152070999146 -1.958591341972351 -0.5150501132011414 119
0.0971512570977211 -2.2430951595306396 -0.5095144510269165 119
0.33078867197036743 -7.668436527252197 -1.4831620454788208 111
0.3291315734386444 -7.661075115203857 -1.2084572315216064 111
0.3287622034549713 -7.683750629425049 -0.9396136999130249 111
0.3264981508255005 -7.662147521972656 -0.6676140427589417 111
0.32510775327682495 -7.660953521728516 -0.39851614832878113 111
0.3243727684020996 -7.675257682800293 -0.13209061324596405 111
0.20957842469215393 -4.979612827301025 1.3242902755737305 114
0.21827131509780884 -5.207791805267334 1.193587064743042 114
0.22695064544677734 -5.437557220458984 1.0494604110717773 114
0.2372298687696457 -5.7077484130859375 0.8977255821228027 114
0.23779171705245972 -5.745434284210205 0.7013580203056335 114
0.31641480326652527 -7.677526950836182 0.6689203381538391 111
0.3150220811367035 -7.676297664642334 0.40063172578811646 111
0.31345072388648987 -7.670684814453125 0.1333363801240921 111
0.07814127206802368 -1.9540510177612305 -0.5137560367584229 119
0.08932080119848251 -2.2434206008911133 -0.5095144510269165 119
0.3040188252925873 -7.669544219970703 -1.4831620454788208 111
0.30238738656044006 -7.662177085876465 -1.2084572315216064 111
0.3017440736293793 -7.679892063140869 -0.9390043616294861 111
0.29955556988716125 -7.658263206481934 -0.667178213596344 111
0.2983640730381012 -7.662042140960693 -0.39851614832878113 111
0.29757916927337646 -7.676342964172363 -0.13209061324596405 111
0.19219505786895752 -4.980314254760742 1.3242902755737305 114
0.19990436732769012 -5.203653335571289 1.1924631595611572 114
0.2077810913324356 -5.433411121368408 1.0485070943832397 114
0.21730467677116394 -5.7085418701171875 0.8977255821228027 114
0.21773496270179749 -5.74622917175293 0.7013580203056335 114
0.2894255518913269 -7.6736063957214355 0.6684845089912415 111
0.2882249057292938 -7.677350044250488 0.40063172578811646 111
0.2864864468574524 -7.666736602783203 0.13324911892414093 111
0.07131987810134888 -1.9543118476867676 -0.5137560367584229 119
0.08148926496505737 -2.2437188625335693 -0.5095144510269165 119
0.27706798911094666 -7.665654182434082 -1.4822088479995728 111
0.2754620611667633 -7.65825080871582 -1.2076750993728638 111
0.2749343812465668 -7.680898666381836 -0.9390043616294861 111
0.27282142639160156 -7.659262180328369 -0.667178213596344 111
0.2714398503303528 -7.658046722412109 -0.3982553482055664 111
0.2706057131290436 -7.672338962554932 -0.13200421631336212 111
0.17480935156345367 -4.980954647064209 1.3242902755737305 114
0.18173901736736298 -5.204319000244141 1.1924631595611572 114
0.18881367146968842 -5.434103488922119 1.0485070943832397 114
0.1973768174648285 -5.709265232086182 0.8977255821228027 114
0.1975049525499344 -5.741994857788086 0.7007486820220947 114
0.2626378834247589 -7.674570083618164 0.6684845089912415 111
0.26125428080558777 -7.673318862915039 0.4003700315952301 111
0.2597227990627289 -7.667689800262451 0.13324911892414093 111
0.06465690582990646 -1.9593758583068848 -0.5150501132011414 119
0.07381656020879745 -2.24885892868042 -0.5106391906738281 119
0.25030815601348877 -7.666574478149414 -1.4822088479995728 111
0.24872808158397675 -7.659165382385254 -1.2076750993728638 111
0.24796117842197418 -7.676851749420166 -0.9383949637413025 111
0.24608393013477325 -7.660167694091797 -0.667178213596344 111
0.2447066307067871 -7.658947467803955 -0.3982553482055664 111
0.2438226044178009 -7.673236846923828 -0.13200421631336212 111
0.1572689414024353 -4.9767069816589355 1.322996973991394 114
0.16341839730739594 -5.200051784515381 1.191339135169983 114
0.16984397172927856 -5.43472957611084 1.0485070943832397 114
0.17744655907154083 -5.709919452667236 0.8977255821228027 114
0.1774604618549347 -5.742649078369141 0.7007486820220947 114
0.23569408059120178 -7.670462131500244 0.6680487990379333 111
0.23446780443191528 -7.674184322357178 0.4003700315952301 111
0.23280417919158936 -7.663552284240723 0.13316184282302856 111
0.057817015796899796 -1.9595896005630493 -0.5150501132011414 119
0.06610894948244095 -2.253972291946411 -0.5117639303207397 119
0.22340227663516998 -7.6624956130981445 -1.4812556505203247 111
0.22184805572032928 -7.655051231384277 -1.2068928480148315 111
0.22116245329380035 -7.677670955657959 -0.9383949637413025 111
0.21920092403888702 -7.656001567840576 -0.6667424440383911 111
0.21782837808132172 -7.654763221740723 -0.3979945182800293 111
0.21689516305923462 -7.66904354095459 -0.1319178342819214 111
0.13989605009555817 -4.9772257804870605 1.322996973991394 114
0.1452658325433731 -5.20059061050415 1.191339135169983 114
0.15087218582630157 -5.435288906097412 1.0485070943832397 114
0.15737797319889069 -5.705567359924316 0.8969442248344421 114
0.1574137955904007 -5.743233680725098 0.7007486820220947 114
0.2089177370071411 -7.671237945556641 0.6680487990379333 111
0.20754341781139374 -7.669964790344238 0.40010836720466614 111
0.20605197548866272 -7.664318084716797 0.13316184282302856 111
0.05110200494527817 -1.9646074771881104 -0.5163442492485046 119
0.058366551995277405 -2.2590599060058594 -0.5128887295722961 119
0.196653813123703 -7.663228988647461 -1.4812556505203247 111
0.19512557983398438 -7.655778884887695 -1.2068928480148315 111
0.1942354440689087 -7.673434734344482 -0.9377856254577637 111
0.19247515499591827 -7.656720161437988 -0.6667424440383911 111
0.19110694527626038 -7.655477523803711 -0.3979945182800293 111
0.19012388586997986 -7.6697540283203125 -0.1319178342819214 111
0.12252143770456314 -4.9776835441589355 1.322996973991394 114
0.1271114945411682 -5.201066017150879 1.191339135169983 114
0.13189856708049774 -5.4357829093933105 1.0485070943832397 114
0.137460857629776 -5.706081867218018 0.8969442248344421 114
0.1373651921749115 -5.743748188018799 0.7007486820220947 114
0.1821388453245163 -7.6719207763671875 0.6680487990379333 111
0.18076898157596588 -7.670642852783203 0.40010836720466614 111
0.1791803538799286 -7.659993648529053 0.1330745965242386 111
0.04424393177032471 -1.9647738933563232 -0.5163442492485046 119
0.0505894273519516 -2.26412034034729 -0.5140134692192078 119
0.169902965426445 -7.663868427276611 -1.4812556505203247 111
0.16840073466300964 -7.6564130783081055 -1.2068928480148315 111
0.1674489825963974 -7.674065589904785 -0.9377856254577637 111
0.1657470315694809 -7.657344818115234 -0.6667424440383911 111
0.16427600383758545 -7.651106357574463 -0.39773374795913696 111
0.1632438451051712 -7.665372848510742 -0.13183143734931946 111
0.10514533519744873 -4.978081226348877 1.322996973991394 114
0.10895561426877975 -5.201478004455566 1.191339135169983 114
0.11282140016555786 -5.431302547454834 1.0475538969039917 114
0.1175420880317688 -5.706527233123779 0.8969442248344421 114
0.11721360683441162 -5.739230632781982 0.7001393437385559 114
0.1553577482700348 -7.672509670257568 0.6680487990379333 111
0.1538921296596527 -7.666234970092773 0.3998467028141022 111
0.15234142541885376 -7.65557336807251 0.13298733532428741 111
0.03738531842827797 -1.9649163484573364 -0.5163442492485046 119
0.042685866355895996 -2.2642831802368164 -0.5140134692192078 119
0.14305835962295532 -7.659506797790527 -1.4803024530410767 111
0.14158248901367188 -7.652017116546631 -1.2061107158660889 111
0.1405695229768753 -7.669641971588135 -0.9371763467788696 111
0.13901691138744354 -7.657876968383789 -0.6667424440383911 111
0.1375676691532135 -7.651633262634277 -0.39773374795913696 111
0.13648571074008942 -7.665896415710449 -0.13183143734931946 111
