# .PCD v0.7 - Point Cloud Data file format
VERSION 0.7
FIELDS x y z intensity
SIZE 4 4 4 4
TYPE F F F F
COUNT 1 1 1 1
WIDTH 759
HEIGHT 1
VIEWPOINT 0 0 0 1 0 0 0
POINTS 759
DATA ascii
-0.8142008781433105 -0.8305642604827881 -0.019437795504927635 50
-0.8113310933113098 -0.8273478150367737 0.3000345230102539 50
-0.8149183392524719 -0.8307158946990967 0.2596220374107361 50
-0.8106158971786499 -0.8260415196418762 0.21732693910598755 50
-0.8225150108337402 -0.8378745317459106 0.17970137298107147 50
-0.8091676235198975 -0.8239901661872864 0.13710300624370575 50
-0.829640805721283 -0.84454345703125 0.10022910684347153 50
-0.8247511982917786 -0.8392729759216309 0.05966298654675484 50
-0.801338791847229 -0.8151637315750122 0.019284909591078758 50
-0.8198027610778809 -0.8324918150901794 -0.3028184175491333 50
-0.8200435638427734 -0.8324457406997681 -0.26094338297843933 50
-0.8226795792579651 -0.834830105304718 -0.22018665075302124 50
-0.803444504737854 -0.8150262832641602 -0.1752067506313324 50
-0.8352836966514587 -0.8470286726951599 -0.14136859774589539 50
-0.8139175772666931 -0.8250740766525269 -0.09805036336183548 50
-0.8089783787727356 -0.8197810053825378 -0.058160409331321716 50
-0.8206071853637695 -0.8312748074531555 -0.019524184986948967 50
-0.8176078200340271 -0.8279473185539246 0.30132776498794556 50
-0.8178131580352783 -0.82786625623703 0.2596220374107361 50
-0.816944420337677 -0.8266981840133667 0.2182801216840744 50
-0.8289066553115845 -0.8385103940963745 0.1804826855659485 50
-0.815528392791748 -0.8246893286705017 0.13771235942840576 50
-0.8360866904258728 -0.8451833724975586 0.100664883852005 50
-0.8276757597923279 -0.8363890051841736 0.05966298654675484 50
-0.8076964020729065 -0.8159144520759583 0.01937217079102993 50
-0.8228484988212585 -0.8294814825057983 -0.3028184175491333 50
-0.8265208005905151 -0.8328925967216492 -0.26206812262535095 50
-0.8291918039321899 -0.8352925777435303 -0.2211398333311081 50
-0.8099060654640198 -0.8155801296234131 -0.17598891258239746 50
-0.8418800234794617 -0.8474823236465454 -0.1419779360294342 50
-0.8204471468925476 -0.82561856508255 -0.09848614037036896 50
-0.8154978156089783 -0.8203516006469727 -0.058421216905117035 50
-0.8236484527587891 -0.8282615542411804 -0.019524184986948967 50
-0.8240430951118469 -0.8283692002296448 0.3026210069656372 50
-0.8242785930633545 -0.8283167481422424 0.26074594259262085 50
-0.8234317302703857 -0.8271769285202026 0.21923330426216125 50
-0.8354591131210327 -0.8389661312103271 0.1812639981508255 50
-0.8220479488372803 -0.8252105712890625 0.13832169771194458 50
-0.8426947593688965 -0.845641553401947 0.10110066086053848 50
-0.8342609405517578 -0.8368860483169556 0.059924669563770294 50
-0.8142116069793701 -0.8164885640144348 0.019459431990981102 50
-0.8291521668434143 -0.8300210237503052 -0.3041124939918518 50
-0.8328668475151062 -0.8334485292434692 -0.26319289207458496 50
-0.8355724811553955 -0.8358643054962158 -0.22209303081035614 50
-0.8162400722503662 -0.816240131855011 -0.17677108943462372 50
-0.8448331952095032 -0.8445384502410889 -0.1419779360294342 50
-0.8268474340438843 -0.8262704610824585 -0.09892192482948303 50
-0.818356454372406 -0.8174999952316284 -0.058421216905117035 50
-0.8300721049308777 -0.8289139866828918 -0.0196105744689703 50
-0.8269296288490295 -0.8254877328872681 0.3026210069656372 50
-0.8306134939193726 -0.8288757801055908 0.2618698477745056 50
-0.8263140916824341 -0.8242975473403931 0.21923330426216125 50
-0.8418795466423035 -0.8395319581031799 0.18204531073570251 50
-0.8249235153198242 -0.8223360180854797 0.13832169771194458 50
-0.8491696715354919 -0.8462107181549072 0.10153643786907196 50
-0.8407145738601685 -0.8374927043914795 0.06018634885549545 50
-0.8170567154884338 -0.8136414289474487 0.019459431990981102 50
-0.8320444226264954 -0.8271217346191406 -0.3041124939918518 50
-0.8392267823219299 -0.833970308303833 -0.2643176317214966 50
-0.8419672846794128 -0.8364017605781555 -0.223046213388443 50
-0.8225883841514587 -0.8168656826019287 -0.17755326628684998 50
-0.8512980937957764 -0.8450806140899658 -0.14258728921413422 50
-0.8297266364097595 -0.8233792185783386 -0.09892192482948303 50
-0.8247498273849487 -0.8181548118591309 -0.05868202820420265 50
-0.8365103006362915 -0.8295316100120544 -0.01969696581363678 50
-0.8332362174987793 -0.8259965181350708 0.30391427874565125 50
-0.8369624614715576 -0.8294007778167725 0.2629937529563904 50
-0.8326733112335205 -0.8248624205589294 0.2201865017414093 50
-0.8448050022125244 -0.8365880846977234 0.18204531073570251 50
-0.8313158750534058 -0.8229429721832275 0.1389310508966446 50
-0.855658769607544 -0.846744954586029 0.10197221487760544 50
-0.84718257188797 -0.8380645513534546 0.06044802814722061 50
-0.8234464526176453 -0.8142995834350586 0.019546695053577423 50
-0.8383635878562927 -0.8276051878929138 -0.3054066002368927 50
-0.8421326875686646 -0.8310357928276062 -0.2643176317214966 50
-0.8483760356903076 -0.8369045853614807 -0.22399939596652985 50
-0.8289511203765869 -0.8174569010734558 -0.17833544313907623 50
-0.8542428016662598 -0.842103898525238 -0.14258728921413422 50
-0.8361433744430542 -0.8239739537239075 -0.09935770183801651 50
-0.8311578631401062 -0.8187751173973083 -0.05894283577799797 50
-0.8394007682800293 -0.8266065716743469 -0.01969696581363678 50
-0.8395563960075378 -0.826471209526062 0.3052075207233429 50
-0.839852511882782 -0.8264741897583008 0.2629937529563904 50
-0.8390465974807739 -0.8253929615020752 0.22113968431949615 50
-0.8512412905693054 -0.8370968699455261 0.18282660841941833 50
-0.8377224802970886 -0.8235151171684265 0.1395403891801834 50
-0.8621619343757629 -0.8472443222999573 0.10240799188613892 50
-0.8536646962165833 -0.838601291179657 0.06070970743894577 50
-0.8298508524894714 -0.8149230480194092 0.019633956253528595 50
-0.8446962833404541 -0.828054666519165 -0.3067007064819336 50
-0.8485081195831299 -0.8315010070800781 -0.2654424011707306 50
-0.8547984957695007 -0.8373729586601257 -0.2249525934457779 50
-0.8353279232978821 -0.8180136680603027 -0.1791176050901413 50
-0.8607233762741089 -0.842588484287262 -0.14319664239883423 50
-0.8425745964050293 -0.8245341181755066 -0.09979347884654999 50
-0.837580144405365 -0.8193604946136475 -0.05920364335179329 50
-0.8458552956581116 -0.827166736125946 -0.01978335529565811 50
-0.8458899259567261 -0.8269118666648865 0.30650076270103455 50
-0.8462168574333191 -0.8269427418708801 0.26411765813827515 50
-0.8454337120056152 -0.825888991355896 0.222092866897583 50
-0.8576913475990295 -0.8375706672668457 0.18360792100429535 50
-0.8405919671058655 -0.8205859065055847 0.1395403891801834 50
-0.865114152431488 -0.8442296385765076 0.10240799188613892 50
-0.8565868139266968 -0.8356163501739502 0.06070970743894577 50
-0.8362694978713989 -0.8155116438865662 0.019721219316124916 50
-0.8510422110557556 -0.8284698724746704 -0.3079947829246521 50
-0.8514053821563721 -0.8285340666770935 -0.2654424011707306 50
-0.8577162623405457 -0.8343839645385742 -0.2249525934457779 50
-0.8381782174110413 -0.8150928020477295 -0.1791176050901413 50
-0.8672178387641907 -0.8430381417274475 -0.14380598068237305 50
-0.8454476594924927 -0.8215879797935486 -0.09979347884654999 50
-0.8404351472854614 -0.8164318203926086 -0.05920364335179329 50
-0.8523239493370056 -0.827691912651062 -0.019869744777679443 50
-0.8487712144851685 -0.8239541053771973 0.30650076270103455 50
-0.849098265171051 -0.8239837884902954 0.26411765813827515 50
-0.8518344759941101 -0.8263504505157471 0.22304606437683105 50
-0.864155113697052 -0.838009774684906 0.18438923358917236 50
-0.8470144271850586 -0.8211009502410889 0.14014974236488342 50
-0.8716326951980591 -0.8446709513664246 0.10284377634525299 50
-0.8630847930908203 -0.83609539270401 0.06097138673067093 50
-0.8427023887634277 -0.8160653710365295 0.019808480516076088 50
-0.8574013113975525 -0.8288509249687195 -0.309288889169693 50
-0.8577956557273865 -0.8289425373077393 -0.2665671408176422 50
-0.8641536235809326 -0.8347950577735901 -0.22590577602386475 50
-0.8445706963539124 -0.8155925273895264 -0.17989978194236755 50
-0.8737257122993469 -0.8434526324272156 -0.14441533386707306 50
-0.8518944978713989 -0.8220905661582947 -0.10022925585508347 50
-0.8468735218048096 -0.8169598579406738 -0.059464454650878906 50
-0.8552079200744629 -0.8247117400169373 -0.019869744777679443 50
-0.8551193475723267 -0.8243383169174194 0.3077940344810486 50
-0.8554774522781372 -0.8243955969810486 0.2652415633201599 50
-0.8582485914230347 -0.8267771601676941 0.2239992469549179 50
-0.8706323504447937 -0.8384138941764832 0.18517054617404938 50
-0.8534507751464844 -0.8215811252593994 0.14075908064842224 50
-0.8781649470329285 -0.8450770974159241 0.10327955335378647 50
-0.8659980297088623 -0.833077609539032 0.06097138673067093 50
-0.8455458879470825 -0.8131187558174133 0.019808480516076088 50
-0.8602892756462097 -0.8258529901504517 -0.309288889169693 50
-0.8641990423202515 -0.8293164968490601 -0.2676919102668762 50
-0.870604395866394 -0.8351713418960571 -0.2268589735031128 50
-0.8509769439697266 -0.816057562828064 -0.1806819587945938 50
-0.8802470564842224 -0.8438318967819214 -0.14502467215061188 50
-0.8583552837371826 -0.8225582838058472 -0.10066504031419754 50
-0.8533257842063904 -0.8174528479576111 -0.059725262224674225 50
-0.8616922497749329 -0.8251792192459106 -0.019956136122345924 50
-0.8614805936813354 -0.8246883749961853 0.30908727645874023 50
-0.8618699312210083 -0.824772834777832 0.2663654685020447 50
-0.8646761775016785 -0.8271691799163818 0.22495242953300476 50
-0.8771229982376099 -0.8387829065322876 0.1859518587589264 50
-0.859900712966919 -0.822026252746582 0.14136843383312225 50
-0.8811094164848328 -0.8420065641403198 0.10327955335378647 50
-0.8725112080574036 -0.8334985971450806 0.06123306602239609 50
-0.8519945740699768 -0.8136149644851685 0.01989574171602726 50
-0.8666625022888184 -0.8261774778366089 -0.3105829656124115 50
-0.8670886754989624 -0.8262948393821716 -0.2676919102668762 50
-0.8735144138336182 -0.8321273326873779 -0.2268589735031128 50
-0.8573966026306152 -0.8164878487586975 -0.18146412074565887 50
-0.8867817521095276 -0.8441758751869202 -0.1456340253353119 50
-0.8648295402526855 -0.8229907155036926 -0.10110081732273102 50
-0.8597917556762695 -0.8179107308387756 -0.05998606979846954 50
-0.8681900501251221 -0.8256113529205322 -0.020042525604367256 50
-0.8678545951843262 -0.8250039219856262 0.3103805184364319 50
-0.8682754039764404 -0.8251155018806458 0.26748937368392944 50
-0.8711168169975281 -0.8275264501571655 0.2259056270122528 50
-0.8800455331802368 -0.8357160687446594 0.1859518587589264 50
-0.8663641214370728 -0.8224363327026367 0.14197777211666107 50
-0.8876562714576721 -0.842354416847229 0.10371533036231995 50
-0.8790378570556641 -0.8338843584060669 0.061494745314121246 50
-0.8584568500518799 -0.8140758872032166 0.01998300477862358 50
-0.8695411682128906 -0.823147177696228 -0.3105829656124115 50
-0.8735063076019287 -0.8266117572784424 -0.26881664991378784 50
-0.8799793720245361 -0.8324462175369263 -0.22781215608119965 50
-0.8638295531272888 -0.8168830275535583 -0.18224629759788513 50
-0.8933294415473938 -0.8444845080375671 -0.1462433636188507 50
-0.8713172674179077 -0.8233879208564758 -0.1015365943312645 50
-0.8662713170051575 -0.8183333873748779 -0.06024688109755516 50
-0.8747013807296753 -0.8260080814361572 -0.020128915086388588 50
-0.874241292476654 -0.8252849578857422 0.31167376041412354 50
-0.8746936917304993 -0.8254234194755554 0.2686132788658142 50
-0.8775705695152283 -0.8278487324714661 0.22685880959033966 50
-0.88655024766922 -0.8360272645950317 0.1867331564426422 50
-0.8728408813476562 -0.8228113651275635 0.14258712530136108 50
-0.8942161798477173 -0.8426668047904968 0.10415110737085342 50
-0.8855777382850647 -0.8342345356941223 0.061756424605846405 50
-0.8649328351020813 -0.8145017623901367 0.020070265978574753 50
-0.8759281039237976 -0.8234148025512695 -0.3118770718574524 50
-0.8799366354942322 -0.8268938064575195 -0.26994141936302185 50
-0.8864572644233704 -0.8327300548553467 -0.2287653386592865 50
-0.8666757345199585 -0.8138627409934998 -0.18224629759788513 50
-0.8998900651931763 -0.844757616519928 -0.14685271680355072 50
-0.8778183460235596 -0.8237499594688416 -0.10197237133979797 50
-0.8727642297744751 -0.8187206983566284 -0.06050768867135048 50
-0.8812260627746582 -0.8263694643974304 -0.02021530643105507 50
-0.8771167397499084 -0.8222282528877258 0.31167376041412354 50
-0.88112473487854 -0.825696587562561 0.269737184047699 50
-0.880454957485199 -0.8247803449630737 0.22685880959033966 50
-0.8930678963661194 -0.8363032341003418 0.18751446902751923 50
-0.8757076859474182 -0.8197595477104187 0.14258712530136108 50
-0.900789201259613 -0.8429436683654785 0.1045868843793869 50
-0.8921307921409607 -0.8345493078231812 0.062018103897571564 50
-0.8714220523834229 -0.8148921132087708 0.020157529041171074 50
-0.8823274970054626 -0.8236479163169861 -0.3131711781024933 50
-0.886379599571228 -0.8271410465240479 -0.27106615900993347 50
-0.8929477334022522 -0.8329787850379944 -0.22971853613853455 50
-0.8731231093406677 -0.8142005801200867 -0.1830284744501114 50
-0.9064634442329407 -0.8449952602386475 -0.14746206998825073 50
-0.8843324184417725 -0.8240764737129211 -0.10240815579891205 50
-0.8792703747749329 -0.8190726041793823 -0.0607684962451458 50
-0.8877638578414917 -0.8266953825950623 -0.0203016959130764 50
-0.8835166692733765 -0.8224523663520813 0.3129670321941376 50
-0.8875682950019836 -0.825934886932373 0.27086108922958374 50
-0.8869223594665527 -0.8250450491905212 0.2278119921684265 50
-0.8959817886352539 -0.8331807255744934 0.18751446902751923 50
-0.8821986317634583 -0.8200766444206238 0.1431964635848999 50
-0.9073748588562012 -0.8431848883628845 0.10502266883850098 50
-0.8950384855270386 -0.8314301371574402 0.062018103897571564 50
-0.8779246807098389 -0.815247118473053 0.020244790241122246 50
-0.8887390494346619 -0.8238462209701538 -0.3144652545452118 50
-0.8892614245414734 -0.8240419626235962 -0.27106615900993347 50
-0.8958499431610107 -0.8298566341400146 -0.22971853613853455 50
-0.8795833587646484 -0.8145031929016113 -0.18381063640117645 50
-0.9130493998527527 -0.8451972007751465 -0.14807140827178955 50
-0.8908594846725464 -0.8243676424026489 -0.10284393280744553 50
-0.882124125957489 -0.8159984350204468 -0.0607684962451458 50
-0.8906441926956177 -0.823591411113739 -0.0203016959130764 50
-0.8899288773536682 -0.8226417899131775 0.3142602741718292 50
-0.8940240740776062 -0.8261381387710571 0.2719849944114685 50
-0.8934022784233093 -0.8252745270729065 0.22876517474651337 50
-0.9025129079818726 -0.8333985209465027 0.18829578161239624 50
-0.8887025117874146 -0.820358395576477 0.14380581676959991 50
-0.9139732122421265 -0.8433903455734253 0.10545844584703445 50
-0.9016053676605225 -0.83168625831604 0.06227978318929672 50
-0.8844403028488159 -0.8155666589736938 0.020332051441073418 50
-0.8916093707084656 -0.8207389712333679 -0.3144652545452118 50
-0.895717442035675 -0.824231743812561 -0.2721909284591675 50
-0.9023535251617432 -0.8300474286079407 -0.2306717187166214 50
-0.8860563039779663 -0.8147706389427185 -0.1845928132534027 50
-0.9196478128433228 -0.8453633785247803 -0.14868077635765076 50
-0.8973992466926575 -0.8246230483055115 -0.103279709815979 50
-0.8886443972587585 -0.8162921071052551 -0.061029303818941116 50
-0.8971959352493286 -0.8238588571548462 -0.020388085395097733 50
-0.8963531851768494 -0.822796642780304 0.31555354595184326 50
-0.9004921913146973 -0.8263064026832581 0.27310889959335327 50
-0.899894654750824 -0.825468897819519 0.2297183722257614 50
-0.9090564250946045 -0.8335808515548706 0.18907709419727325 50
-0.8952189683914185 -0.8206046223640442 0.14441515505313873 50
-0.9205840229988098 -0.8435599207878113 0.10589422285556793 50
-0.9081850051879883 -0.8319066762924194 0.06254146248102188 50
-0.8872817158699036 -0.8124744296073914 0.020332051441073418 50
-0.8980337381362915 -0.8208802342414856 -0.3157593905925751 50
-0.9021855592727661 -0.8243864178657532 -0.2733156681060791 50
-0.9088694453239441 -0.8302029371261597 -0.23162490129470825 50
-0.8925418257713318 -0.8150027394294739 -0.18537499010562897 50
-0.9262584447860718 -0.8454939126968384 -0.14929011464118958 50
-0.9002722501754761 -0.8214855194091797 -0.103279709815979 50
-0.8951773643493652 -0.8165501952171326 -0.06129011511802673 50
-0.9037603139877319 -0.8240903615951538 -0.020474476739764214 50
-0.9027892351150513 -0.8229163885116577 0.3168468177318573 50
-0.906972348690033 -0.826439619064331 0.27423280477523804 50
-0.9063991904258728 -0.8256279230117798 0.23067155480384827 50
-0.9156121611595154 -0.8337274789810181 0.18985840678215027 50
-0.9017479419708252 -0.8208153247833252 0.14502450823783875 50
-0.9272070527076721 -0.8436936140060425 0.106330007314682 50
-0.9147769808769226 -0.8320912718772888 0.06280314177274704 50
-0.8938111662864685 -0.8127354979515076 0.02041931450366974 50
-0.9044697880744934 -0.8209865689277649 -0.3170534670352936 50
-0.9086658358573914 -0.8245060443878174 -0.2744404673576355 50
-0.9153974652290344 -0.8303229808807373 -0.2325781136751175 50
-0.8990396857261658 -0.8151994943618774 -0.18615715205669403 50
-0.9292041659355164 -0.8422555327415466 -0.14929011464118958 50
-0.9068253636360168 -0.8216825127601624 -0.10371548682451248 50
-0.8980221748352051 -0.8134204745292664 -0.06129011511802673 50
-0.9103372693061829 -0.8242862224578857 -0.020560866221785545 50
-0.9092370867729187 -0.8230012655258179 0.31814005970954895 50
-0.9134642481803894 -0.8265374898910522 0.2753567099571228 50
-0.9129157662391663 -0.8257514834403992 0.23162473738193512 50
-0.9258432388305664 -0.8371508717536926 0.1914210468530655 50
-0.9082893133163452 -0.8209904432296753 0.14563384652137756 50
-0.9301464557647705 -0.8404518961906433 0.106330007314682 50
-0.9213812947273254 -0.8322399258613586 0.0630648210644722 50
-0.900353193283081 -0.8129609227180481 0.02050657570362091 50
-0.9109175205230713 -0.821057915687561 -0.3183475732803345 50
-0.9151576161384583 -0.8245903849601746 -0.2755652070045471 50
-0.9219372868537903 -0.8304075598716736 -0.23353131115436554 50
-0.9055498242378235 -0.8153607249259949 -0.1869393289089203 50
-0.9358270764350891 -0.8423268795013428 -0.1498994678258896 50
-0.9133908748626709 -0.8218438029289246 -0.10415127128362656 50
-0.9045683741569519 -0.8136199712753296 -0.06155092269182205 50
-0.9169265031814575 -0.8244460225105286 -0.020647255703806877 50
-0.9156965017318726 -0.8230510950088501 0.3194333016872406 50
-0.9199679493904114 -0.8266001343727112 0.27648061513900757 50
-0.9194443821907043 -0.8258397579193115 0.23257794976234436 50
-0.9324344992637634 -0.8372134566307068 0.1922023445367813 50
-0.9148427844047546 -0.8211298584938049 0.14624319970607758 50
-0.9367819428443909 -0.8405265212059021 0.10676579177379608 50
-0.9279977083206177 -0.8323525190353394 0.06332650035619736 50
-0.9069076180458069 -0.8131505250930786 0.020593838766217232 50
-0.9173766374588013 -0.8210942149162292 -0.31964167952537537 50
-0.9180304408073425 -0.8213908672332764 -0.2755652070045471 50
-0.9284886717796326 -0.8304564952850342 -0.2344844937324524 50
-0.9120718240737915 -0.8154864311218262 -0.18772150576114655 50
-0.9387616515159607 -0.8390551209449768 -0.1498994678258896 50
-0.9199683666229248 -0.8219690322875977 -0.10458704829216003 50
-0.9111270308494568 -0.8137836456298828 -0.06181173026561737 50
-0.9235279560089111 -0.8245700001716614 -0.020733647048473358 50
-0.9221672415733337 -0.8230658173561096 0.32072657346725464 50
-0.9264830946922302 -0.8266273736953735 0.27760452032089233 50
-0.9223214983940125 -0.8226252198219299 0.23257794976234436 50
-0.9390373826026917 -0.8372400403022766 0.19298365712165833 50
-0.9214082360267639 -0.8212333917617798 0.1468525528907776 50
-0.943429172039032 -0.8405648469924927 0.10720156878232956 50
-0.9346262216567993 -0.8324291706085205 0.06358817964792252 50
-0.9134743213653564 -0.8133041858673096 0.020681099966168404 50
-0.9238471388816833 -0.8210954070091248 -0.32093575596809387 50
-0.9245340824127197 -0.8214171528816223 -0.27668997645378113 50
-0.9350517392158508 -0.8304697871208191 -0.23543767631053925 50
-0.9186058044433594 -0.8155764937400818 -0.1885036826133728 50
-0.9453964829444885 -0.8390673398971558 -0.1505088061094284 50
-0.9265579581260681 -0.8220584988594055 -0.10502282530069351 50
-0.9214333891868591 -0.8172245621681213 -0.062333349138498306 50
-0.9264006614685059 -0.8213412165641785 -0.020733647048473358 50
-0.9286491274833679 -0.8230452537536621 0.3220198154449463 50
-0.9330095648765564 -0.8266191482543945 0.2787284255027771 50
-0.928861677646637 -0.8226549029350281 0.2335311472415924 50
-0.9456518292427063 -0.8372308015823364 0.19376496970653534 50
-0.9279856085777283 -0.8213011622428894 0.1474618911743164 50
-0.9500881433486938 -0.8405670523643494 0.10763734579086304 50
-0.9412665367126465 -0.8324695229530334 0.06384986639022827 50
-0.9200530648231506 -0.8134219646453857 0.020768361166119576 50
-0.9303287267684937 -0.8210613131523132 -0.32222986221313477 50
-0.9310489892959595 -0.8214079737663269 -0.27781471610069275 50
-0.9416261315345764 -0.8304473757743835 -0.2363908737897873 50
-0.9251515865325928 -0.8156309127807617 -0.18928584456443787 50
-0.9520427584648132 -0.8390434384346008 -0.15111815929412842 50
-0.9331592321395874 -0.8221118450164795 -0.10545860230922699 50
-0.9280275702476501 -0.8173032999038696 -0.06259416043758392 50
-0.9330142736434937 -0.821405827999115 -0.02082003653049469 50
-0.9351421594619751 -0.8229895830154419 0.32331305742263794 50
-0.9395473003387451 -0.8265754580497742 0.27985233068466187 50
-0.9354134202003479 -0.8226490020751953 0.23448432981967926 50
-0.9522776007652283 -0.8371855020523071 0.19454628229141235 50
-0.934574544429779 -0.8213329315185547 0.14807124435901642 50
-0.9605004787445068 -0.843820333480835 0.10850889980792999 50
-0.9479184150695801 -0.8324736952781677 0.06411154568195343 50
-0.9266436100006104 -0.8135035037994385 0.020855624228715897 50
-0.9368212819099426 -0.8209919929504395 -0.32352393865585327 50
-0.9375751614570618 -0.8213633298873901 -0.27893948554992676 50
-0.9482117891311646 -0.830389142036438 -0.23734405636787415 50
-0.9317086935043335 -0.8156493902206421 -0.19006802141666412 50
-0.9587002992630005 -0.8389832973480225 -0.15172751247882843 50
-0.9397721290588379 -0.8221290707588196 -0.10589438676834106 50
-0.9346334934234619 -0.8173458576202393 -0.06285496801137924 50
-0.9396396279335022 -0.8214343786239624 -0.02090642601251602 50
-0.9416460990905762 -0.8228985667228699 0.324606329202652 50
-0.946095883846283 -0.8264960646629333 0.28097623586654663 50
-0.9419763088226318 -0.8226073384284973 0.2354375123977661 50
-0.958914577960968 -0.8371042013168335 0.19532757997512817 50
-0.9411750435829163 -0.8213287591934204 0.14868059754371643 50
-0.967193603515625 -0.8437368273735046 0.10894468426704407 50
-0.9508185386657715 -0.8291597366333008 0.06411154568195343 50
-0.9332460761070251 -0.8135490417480469 0.02094288542866707 50
-0.9433246850967407 -0.8208873271942139 -0.32481804490089417 50
-0.9441121816635132 -0.8212831020355225 -0.2800642251968384 50
-0.9548084139823914 -0.8302949666976929 -0.2382972538471222 50
-0.9345501661300659 -0.8123921751976013 -0.19006802141666412 50
-0.9653691649436951 -0.8388869762420654 -0.15233685076236725 50
-0.9426361322402954 -0.8188436627388 -0.10589438676834106 50
-0.9412509799003601 -0.8173522353172302 -0.06311577558517456 50
-0.9462764859199524 -0.8214265704154968 -0.020992817357182503 50
-0.948160707950592 -0.8227719664573669 0.32589957118034363 50
-0.9526554942131042 -0.8263810276985168 0.2821001410484314 50
-0.948550283908844 -0.8225298523902893 0.23639070987701416 50
-0.9655624628067017 -0.8369866609573364 0.1961088925600052 50
-0.9477868676185608 -0.8212884068489075 0.14928995072841644 50
-0.9738977551460266 -0.8436168432235718 0.10938046127557755 50
-0.9574816823005676 -0.8291042447090149 0.06437322497367859 50
-0.9398601055145264 -0.8135583996772766 0.02103014849126339 50
-0.9498387575149536 -0.8207471966743469 -0.32611215114593506 50
-0.9506601691246033 -0.8211671710014343 -0.2811889946460724 50
-0.961415708065033 -0.8301647901535034 -0.23925043642520905 50
-0.9448570609092712 -0.815578818321228 -0.19163239002227783 50
-0.972048819065094 -0.8387541770935059 -0.15294620394706726 50
-0.9492605328559875 -0.8188017010688782 -0.10633017122745514 50
-0.9478799104690552 -0.8173223733901978 -0.06337658315896988 50
-0.9529248476028442 -0.8213825225830078 -0.021079208701848984 50
-0.9546858668327332 -0.8226100206375122 0.3271928131580353 50
-0.9592258334159851 -0.8262302875518799 0.28322404623031616 50
-0.9551351070404053 -0.822416365146637 0.237343892455101 50
-0.9722210764884949 -0.8368328213691711 0.1968902051448822 50
-0.9544097185134888 -0.8212118148803711 0.14989928901195526 50
-0.9806129336357117 -0.843460202217102 0.10981623828411102 50
-0.9641560316085815 -0.829012393951416 0.06463490426540375 50
-0.9464854001998901 -0.8135313391685486 0.02111740969121456 50
-0.956363320350647 -0.8205716013908386 -0.32740622758865356 50
-0.9572186470031738 -0.821015477180481 -0.282313734292984 50
-0.9680339097976685 -0.8299986124038696 -0.2402036190032959 50
-0.947698175907135 -0.8122756481170654 -0.19163239002227783 50
-0.9825080037117004 -0.841813862323761 -0.1541648954153061 50
-0.9558959603309631 -0.8187233209609985 -0.10676595568656921 50
-0.950727105140686 -0.8140087127685547 -0.06337658315896988 50
-0.9595841765403748 -0.8213019371032715 -0.021165600046515465 50
-0.9612213969230652 -0.8224125504493713 0.32848605513572693 50
-0.9658065438270569 -0.8260436058044434 0.2843479514122009 50
-0.9617306590080261 -0.8222669363021851 0.23829707503318787 50
-0.9788904786109924 -0.8366426825523376 0.19767151772975922 50
-0.9572705030441284 -0.817875325679779 0.14989928901195526 50
-0.9873387217521667 -0.8432669639587402 0.1102520152926445 50
-0.9746387004852295 -0.8321260213851929 0.06515826284885406 50
-0.9531219601631165 -0.8134679794311523 0.021204670891165733 50
-0.9628980755805969 -0.8203603625297546 -0.32870033383369446 50
-0.9637877345085144 -0.8208279609680176 -0.283438503742218 50
-0.9746626019477844 -0.829796314239502 -0.24115681648254395 50
-0.95428866147995 -0.8121633529663086 -0.1924145519733429 50
-0.9892203211784363 -0.8415948748588562 -0.1547742336988449 50
-0.9625423550605774 -0.8186086416244507 -0.10720173269510269 50
-0.9573670625686646 -0.8139193654060364 -0.0636373981833458 50
-0.9662546515464783 -0.8211847543716431 -0.021251989528536797 50
-0.9677671194076538 -0.82217937707901 0.32977932691574097 50
-0.9723976850509644 -0.8258211016654968 0.2854718565940857 50
-0.968336820602417 -0.8220815062522888 0.2392502725124359 50
-0.9855703711509705 -0.8364161849021912 0.19845283031463623 50
-0.9639040231704712 -0.8177394270896912 0.15050864219665527 50
-0.9940750002861023 -0.8430370092391968 0.11068779230117798 50
-0.981346070766449 -0.8319476842880249 0.06541994214057922 50
-0.9597696661949158 -0.8133680820465088 0.021291935816407204 50
-0.9694429636001587 -0.8201134204864502 -0.32999444007873535 50
-0.974087119102478 -0.8237504959106445 -0.28568801283836365 50
-0.9850499629974365 -0.8327265977859497 -0.24306318163871765 50
-0.9608897566795349 -0.8120149374008179 -0.19319672882556915 50
-0.995943009853363 -0.8413392901420593 -0.15538358688354492 50
-0.969199538230896 -0.8184574246406555 -0.10763750970363617 50
-0.9640177488327026 -0.813793420791626 -0.06389820575714111 50
-0.9729359149932861 -0.8210310935974121 -0.02133837901055813 50
-0.9743229150772095 -0.8219103813171387 0.3310725688934326 50
-0.9789988994598389 -0.825562596321106 0.28659576177597046 50
-0.9749533534049988 -0.8218598961830139 0.24020345509052277 50
-0.9922605156898499 -0.8361532092094421 0.19923412799835205 50
-0.9705480933189392 -0.8175670504570007 0.1511179804801941 50
-1.000821828842163 -0.8427702784538269 0.11112356930971146 50
-0.9880641102790833 -0.8317326307296753 0.06568162143230438 50
-0.9664281010627747 -0.8132318258285522 0.021379197016358376 50
-0.9758548140525818 -0.8200011253356934 -0.33128851652145386 50
-0.980400025844574 -0.8238204121589661 -0.28681275248527527 50
-0.9914194345474243 -0.8327847719192505 -0.2440163791179657 50
-0.9672179818153381 -0.8121678829193115 -0.1939789056777954 50
-1.0023823976516724 -0.8413969874382019 -0.15599294006824493 50
-0.9755815267562866 -0.8186101913452148 -0.10807328671216965 50
-0.9703950881958008 -0.8139697313308716 -0.06415901333093643 50
-0.9793412685394287 -0.8211825489997864 -0.02142477035522461 50
-0.9806016683578491 -0.8219479918479919 0.33236581087112427 50
-0.9853219985961914 -0.8256118893623352 0.2877196669578552 50
-0.981293261051178 -0.8219447135925293 0.24115663766860962 50
-0.998668909072876 -0.8362022638320923 0.20001544058322906 50
-0.9769172668457031 -0.8176991939544678 0.1517273336648941 50
-1.0072846412658691 -0.8428183197975159 0.11155935376882553 50
-0.9945021271705627 -0.8318279385566711 0.06594330072402954 50
-0.9766486883163452 -0.8166051506996155 0.02155372127890587 50
-0.982276439666748 -0.8198553323745728 -0.33258262276649475 50
-0.9870104193687439 -0.8235142827033997 -0.2879375219345093 50
-0.9980896711349487 -0.8324628472328186 -0.24496956169605255 50
-0.9738401770591736 -0.8119491934776306 -0.19476106762886047 50
-1.0091254711151123 -0.8410702347755432 -0.15660227835178375 50
-0.9822599291801453 -0.8183882236480713 -0.10850907117128372 50
-0.977067232131958 -0.8137730360031128 -0.06441982835531235 50
-0.9860436320304871 -0.8209577202796936 -0.02151115983724594 50
-0.9871771931648254 -0.8216098546981812 0.3336590826511383 50
-0.9919432401657104 -0.8252835273742676 0.28884357213974 50
-0.9879299998283386 -0.8216527700424194 0.24210983514785767 50
-1.0053791999816895 -0.8358683586120605 0.20079675316810608 50
-0.9835823178291321 -0.8174562454223633 0.15233667194843292 50
-1.0102204084396362 -0.8392971158027649 0.11155935376882553 50
-1.001240849494934 -0.8315415382385254 0.0662049800157547 50
-0.9833396673202515 -0.8163843750953674 0.02164098247885704 50
-0.9889938831329346 -0.8193306922912598 -0.33387669920921326 50
-0.9937743544578552 -0.822998583316803 -0.2890622615814209 50
-1.0049149990081787 -0.8319290280342102 -0.2459227442741394 50
-0.9844186902046204 -0.814671516418457 -0.196325421333313 50
-1.016025424003601 -0.8405293822288513 -0.15721163153648376 50
-0.9890913367271423 -0.8179568648338318 -0.1089448481798172 50
-0.9838917851448059 -0.8133678436279297 -0.06468063592910767 50
-0.9928996562957764 -0.8205228447914124 -0.021597549319267273 50
-0.9939054250717163 -0.8210620880126953 0.33495232462882996 50
-0.9987181425094604 -0.8247446417808533 0.28996747732162476 50
-0.9947200417518616 -0.821151077747345 0.24306301772594452 50
-1.0122451782226562 -0.8353211879730225 0.2015780657529831 50
-0.9904000759124756 -0.8170037269592285 0.15294602513313293 50
-1.0171327590942383 -0.8387578725814819 0.11199513077735901 50
-1.0081347227096558 -0.8310422301292419 0.06646665930747986 50
-0.9901833534240723 -0.8159540891647339 0.02172824554145336 50
-0.9955778121948242 -0.818941593170166 -0.33517080545425415 50
-1.0004041194915771 -0.8226189017295837 -0.2901870310306549 50
-1.0116045475006104 -0.8315329551696777 -0.24687594175338745 50
-0.9910719990730286 -0.8143655061721802 -0.19710758328437805 50
-1.0227879285812378 -0.8401276469230652 -0.15782096982002258 50
-0.9957900643348694 -0.8176602721214294 -0.10938062518835068 50
-0.9905844926834106 -0.8130964636802673 -0.06494144350290298 50
-0.9996225833892822 -0.8202230930328369 -0.021683940663933754 50
-1.0004998445510864 -0.8206508159637451 0.3362455666065216 50
-1.0053584575653076 -0.8243424892425537 0.2910913825035095 50
-1.0051724910736084 -0.8238968253135681 0.24496939778327942 50
-1.0189749002456665 -0.8349127769470215 0.2023593783378601 50
-0.9970851540565491 -0.81668621301651 0.15355536341667175 50
-1.023908257484436 -0.8383577466011047 0.11243090778589249 50
-1.0148934125900269 -0.8306806683540344 0.06672833859920502 50
-0.9968946576118469 -0.8156583905220032 0.021815506741404533 50
-1.0021710395812988 -0.8185164928436279 -0.33646491169929504 50
-1.0070433616638184 -0.8222029805183411 -0.29131177067756653 50
-1.0183035135269165 -0.8311002254486084 -0.2478291243314743 50
-0.9977350831031799 -0.814022958278656 -0.1978897601366043 50
-1.0257142782211304 -0.8365523219108582 -0.15782096982002258 50
-1.0024986267089844 -0.8173267841339111 -0.10981640964746475 50
-0.9972872138023376 -0.812788188457489 -0.0652022510766983 50
-1.0063552856445312 -0.8198863863945007 -0.021770330145955086 50
-1.0108484029769897 -0.8232534527778625 0.3388320803642273 50
-1.0120080709457397 -0.8239041566848755 0.2922152876853943 50
-1.011849284172058 -0.8234813213348389 0.24592258036136627 50
-1.0257140398025513 -0.8344674110412598 0.20314067602157593 50
-1.0037801265716553 -0.8163320422172546 0.15416471660137177 50
-1.0306932926177979 -0.8379205465316772 0.11286668479442596 50
-1.0216617584228516 -0.8302820324897766 0.06699001789093018 50
-1.0036159753799438 -0.8153258562088013 0.021902769804000854 50
-1.0087730884552002 -0.8180552124977112 -0.33775898814201355 50
-1.013691782951355 -0.8217506408691406 -0.29243654012680054 50
-1.0288251638412476 -0.8337210416793823 -0.2497355043888092 50
-1.0044077634811401 -0.813643753528595 -0.19867193698883057 50
-1.0324848890304565 -0.8360899090766907 -0.1584303230047226 50
-1.0092170238494873 -0.8169562816619873 -0.11025218665599823 50
-1.0039998292922974 -0.8124430179595947 -0.06546305865049362 50
-1.013097882270813 -0.8195127248764038 -0.021856719627976418 50
-1.017471432685852 -0.8227567672729492 0.34012532234191895 50
-1.0186668634414673 -0.8234294056892395 0.29333919286727905 50
-1.0185351371765137 -0.823029100894928 0.24687576293945312 50
-1.0324623584747314 -0.8339851498603821 0.20392198860645294 50
-1.014345645904541 -0.8190587162971497 0.1553834080696106 50
-1.0413637161254883 -0.8405747413635254 0.11373823881149292 50
-1.0284396409988403 -0.8298462629318237 0.06725169718265533 50
-1.0103470087051392 -0.8149562478065491 0.021990031003952026 50
-1.0191460847854614 -0.8205867409706116 -0.34034717082977295 50
-1.0241445302963257 -0.8243166208267212 -0.29468604922294617 50
-1.0355533361434937 -0.8332017064094543 -0.25068870186805725 50
-1.0110900402069092 -0.8132279515266418 -0.19945409893989563 50
-1.0392647981643677 -0.8355904221534729 -0.1590396612882614 50
-1.0198273658752441 -0.8196693658828735 -0.11112374067306519 50
-1.0107221603393555 -0.8120608329772949 -0.06572386622428894 50
-1.0198501348495483 -0.819101870059967 -0.0219431109726429 50
-1.0241034030914307 -0.8222238421440125 0.341418594121933 50
-1.0253344774246216 -0.8229179978370667 0.2944630980491638 50
-1.0252302885055542 -0.822540283203125 0.24782894551753998 50
-1.039219856262207 -0.8334659337997437 0.20470330119132996 50
-1.0210705995559692 -0.8186172842979431 0.15599274635314941 50
-1.0481781959533691 -0.8400495648384094 0.114174023270607 50
-1.0352269411087036 -0.8293732404708862 0.06751338392496109 50
-1.017087697982788 -0.8145495653152466 0.022077292203903198 50
-1.025776743888855 -0.8200400471687317 -0.34164127707481384 50
-1.030821442604065 -0.8237780928611755 -0.2958108186721802 50
-1.0422903299331665 -0.8326453566551208 -0.2516418695449829 50
-1.0177814960479736 -0.8127752542495728 -0.2002362757921219 50
-1.0460536479949951 -0.8350537419319153 -0.15964901447296143 50
-1.0265755653381348 -0.8192113041877747 -0.11155952513217926 50
-1.0213574171066284 -0.8147554397583008 -0.06624548882246017 50
-1.0305204391479492 -0.8217706680297852 -0.022115889936685562 50
-1.030743956565857 -0.821654736995697 0.34271183609962463 50
-1.0358213186264038 -0.8254064321517944 0.29671090841293335 50
-1.0319344997406006 -0.8220147490501404 0.24878214299678802 50
-1.049849510192871 -0.8359860181808472 0.20626592636108398 50
-1.0278046131134033 -0.8181387782096863 0.15660209953784943 50
-1.0550017356872559 -0.8394870758056641 0.11460980027914047 50
-1.0420233011245728 -0.8288628458976746 0.06777506321668625 50
-1.0238378047943115 -0.814105749130249 0.02216455526649952 50
-1.0361984968185425 -0.8224594593048096 -0.34422945976257324 50
-1.037507176399231 -0.8232029676437378 -0.2969355583190918 50
-1.049035906791687 -0.8320520520210266 -0.25259506702423096 50
-1.0244821310043335 -0.8122857809066772 -0.20101845264434814 50
-1.0528514385223389 -0.834479808807373 -0.16025836765766144 50
-1.0372370481491089 -0.8218093514442444 -0.11243107914924622 50
-1.0281094312667847 -0.814285397529602 -0.0665062963962555 50
-1.0373021364212036 -0.8212716579437256 -0.022202281281352043 50
-1.0411802530288696 -0.8240464925765991 0.34529832005500793 50
-1.0425169467926025 -0.8248085975646973 0.2978347837924957 50
-1.042497158050537 -0.8244971036911011 0.2506885230541229 50
-1.0566353797912598 -0.8353791236877441 0.2070472240447998 50
-1.0384414196014404 -0.8207004070281982 0.15782079100608826 50
-1.0618340969085693 -0.8388870358467102 0.11504557728767395 50
-1.0527472496032715 -0.8314096927642822 0.06829842180013657 50
-1.0305970907211304 -0.8136246204376221 0.02225181646645069 50
-1.0428564548492432 -0.8218267560005188 -0.34552356600761414 50
-1.044201374053955 -0.8225911855697632 -0.2980603277683258 50
-1.0557900667190552 -0.8314219117164612 -0.253548264503479 50
-1.0311915874481201 -0.811759352684021 -0.2018006294965744 50
-1.0635578632354736 -0.8369376063346863 -0.16147705912590027 50
-1.0479291677474976 -0.8243429660797119 -0.11330264061689377 50
-1.0387954711914062 -0.816864550113678 -0.06702791154384613 50
-1.0480232238769531 -0.8238248825073242 -0.022375060245394707 50
-1.0516457557678223 -0.8263756036758423 0.347884863615036 50
-1.053052544593811 -0.8271836638450623 0.30008259415626526 50
-1.0530896186828613 -0.8269157409667969 0.25259488821029663 50
-1.0711990594863892 -0.8408335447311401 0.20939116179943085 50
-1.0452040433883667 -0.8201341032981873 0.15843014419078827 50
-1.072594165802002 -0.841323733329773 0.1159171313047409 50
-1.0595722198486328 -0.8308109045028687 0.06856010109186172 50
-1.0413001775741577 -0.816190242767334 0.022426340728998184 50
-1.0533263683319092 -0.8241338133811951 -0.3481117784976959 50
-1.054741382598877 -0.8249440789222717 -0.30030983686447144 50
-1.0664193630218506 -0.833777904510498 -0.2554546296596527 50
-1.0379098653793335 -0.8111960291862488 -0.20258279144763947 50
-1.0742942094802856 -0.8393307328224182 -0.1626957505941391 50
-1.0586515665054321 -0.8268117904663086 -0.11417419463396072 50
-1.0495121479034424 -0.8193790316581726 -0.06754953414201736 50
-1.062715768814087 -0.8293889760971069 -0.02263423055410385 50
-1.0621401071548462 -0.8286413550376892 0.3504713773727417 50
-1.067458987236023 -0.8324913382530212 0.30345433950424194 50
-1.0637116432189941 -0.8292703032493591 0.25450125336647034 50
-1.0819185972213745 -0.84316086769104 0.21095380187034607 50
-1.0598052740097046 -0.8256303668022156 0.16025817394256592 50
-1.0833842754364014 -0.8436954617500305 0.11678869277238846 50
-1.074285864830017 -0.8363087773323059 0.0693451389670372 50
-1.0559788942337036 -0.8217612504959106 0.02268812619149685 50
-1.0600109100341797 -0.82341468334198 -0.3494058847427368 50
-1.0691584348678589 -0.8302213549613953 -0.3036841154098511 50
-1.077077865600586 -0.8360697031021118 -0.2573610246181488 50
-1.0524400472640991 -0.8166505098342896 -0.20492930710315704 50
-1.0850603580474854 -0.8416591286659241 -0.16391445696353912 50
-1.0733399391174316 -0.8322679400444031 -0.11548153311014175 50
-1.0602587461471558 -0.8218285441398621 -0.068071149289608 50
-1.0735079050064087 -0.831798255443573 -0.022807011380791664 50
-1.0764812231063843 -0.8338014483451843 0.35435113310813904 50
-1.081915259361267 -0.8377084136009216 0.30682605504989624 50
-1.0782443284988403 -0.8345650434494019 0.2573608458042145 50
-1.0965728759765625 -0.8484454154968262 0.21329772472381592 50
-1.0744575262069702 -0.8310344815254211 0.16208621859550476 50
-1.098144292831421 -0.8490486741065979 0.11809603869915009 50
-1.0890507698059082 -0.8417141437530518 0.07013017684221268 50
-1.0667530298233032 -0.8241831660270691 0.022862650454044342 50
-1.0743517875671387 -0.8285578489303589 -0.3532881736755371 50
-1.0797666311264038 -0.8324333429336548 -0.3059336245059967 50
-1.0916531085968018 -0.8412932753562927 -0.26022058725357056 50
-1.0670206546783447 -0.8220133781433105 -0.20727582275867462 50
-1.0997873544692993 -0.8469504117965698 -0.16574250161647797 50
-1.0880792140960693 -0.8376314640045166 -0.11678887158632278 50
-1.0749924182891846 -0.8272580504417419 -0.06885357201099396 50
-1.0882923603057861 -0.8371906280517578 -0.02306618168950081 50
-1.0908713340759277 -0.8388715386390686 0.358230859041214 50
-1.0964208841323853 -0.8428345322608948 0.31019777059555054 50
-1.0967185497283936 -0.8427590131759644 0.2611736059188843 50
-1.1151936054229736 -0.8566464185714722 0.21642296016216278 50
-1.089160442352295 -0.8363465070724487 0.1639142632484436 50
-1.1129547357559204 -0.8543090224266052 0.11940336972475052 50
-1.1038662195205688 -0.8470264673233032 0.07091522216796875 50
-1.0815235376358032 -0.8295823931694031 0.023124435916543007 50
-1.084906816482544 -0.8306748270988464 -0.3558763563632965 50
-1.0981407165527344 -0.8405035138130188 -0.31043264269828796 50
-1.1101757287979126 -0.8494077920913696 -0.26403334736824036 50
-1.0816514492034912 -0.8272842168807983 -0.2096223384141922 50
-1.118506908416748 -0.8551631569862366 -0.16817988455295563 50
-1.1028690338134766 -0.8429021835327148 -0.11809621751308441 50
-1.089776635169983 -0.832594633102417 -0.06963600218296051 50
-1.0991542339324951 -0.8394553661346436 -0.02323896437883377 50
-1.1053098440170288 -0.8438511490821838 0.36211061477661133 50
-1.1109752655029297 -0.8478696346282959 0.31356948614120483 50
-1.1113606691360474 -0.847856879234314 0.26403316855430603 50
-1.1260310411453247 -0.8587379455566406 0.2179855853319168 50
-1.1039131879806519 -0.841565728187561 0.16574230790138245 50
-1.1278151273727417 -0.8594760894775391 0.12071070820093155 50
-1.11873197555542 -0.8522454500198364 0.07170026004314423 50
-1.1003220081329346 -0.8379174470901489 0.023473486304283142 50
-1.099334478378296 -0.8356507420539856 -0.3597586452960968 50
-1.1127049922943115 -0.8455077409744263 -0.3138069212436676 50
-1.1248596906661987 -0.8544341325759888 -0.2668929100036621 50
-1.0963319540023804 -0.8324630260467529 -0.21196888387203217 50
-1.133344054222107 -0.8602550625801086 -0.17000792920589447 50
-1.1137406826019287 -0.8450689315795898 -0.11896777153015137 50
-1.1046112775802612 -0.8378380537033081 -0.07041843235492706 50
-1.1140285730361938 -0.844674825668335 -0.023498134687542915 50
-1.1197960376739502 -0.8487401008605957 0.36599037051200867 50
-1.1216946840286255 -0.8498709201812744 0.31581729650497437 50
-1.1221389770507812 -0.8498992919921875 0.26593953371047974 50
-1.140833854675293 -0.8637452721595764 0.22032950818538666 50
-1.118715524673462 -0.8466920256614685 0.1675703376531601 50
-1.1427251100540161 -0.8645499348640442 0.12201803922653198 50
-1.1296648979187012 -0.8543589115142822 0.07222361862659454 50
-1.1112158298492432 -0.8401012420654297 0.023648010566830635 50
-1.1138100624084473 -0.8405359387397766 -0.3636409044265747 50
-1.1273174285888672 -0.8504205346107483 -0.31718116998672485 50
-1.1395920515060425 -0.8593681454658508 -0.26975247263908386 50
-1.1110615730285645 -0.8375492095947266 -0.21431539952754974 50
-1.1482301950454712 -0.8652535676956177 -0.17183595895767212 50
-1.1286191940307617 -0.850166916847229 -0.1202751100063324 50
-1.1155067682266235 -0.8399844169616699 -0.0709400475025177 50
-1.1249587535858154 -0.846794068813324 -0.023670915514230728 50
-1.1304705142974854 -0.8506340384483337 0.36857688426971436 50
-1.1363351345062256 -0.854736328125 0.31918901205062866 50
-1.132944941520691 -0.8518767356872559 0.26784589886665344 50
-1.1517373323440552 -0.8656923174858093 0.22189213335514069 50
-1.1295993328094482 -0.8487439751625061 0.16878902912139893 50
-1.1537013053894043 -0.8665384650230408 0.12288959324359894 50
-1.144619107246399 -0.859404444694519 0.07300865650177002 50
-1.1261366605758667 -0.8452200889587402 0.0239097960293293 50
-1.1244676113128662 -0.8424343466758728 -0.3662291169166565 50
-1.1380780935287476 -0.8523210883140564 -0.3194306790828705 50
-1.1543725728988647 -0.8642097115516663 -0.2726120352745056 50
-1.1258399486541748 -0.8425425887107849 -0.21666191518306732 50
-1.1591911315917969 -0.8671858310699463 -0.17305466532707214 50
-1.1395578384399414 -0.8521881103515625 -0.12114667147397995 50
-1.130429744720459 -0.8450543284416199 -0.07172247767448425 50
-1.1359169483184814 -0.8488472700119019 -0.02384369447827339 50
-1.1411718130111694 -0.8524637818336487 0.37116339802742004 50
-1.143215537071228 -0.8536795973777771 0.3203129172325134 50
-1.1437782049179077 -0.8537888526916504 0.26975229382514954 50
-1.158710241317749 -0.8646202683448792 0.2226734459400177 50
-1.1405110359191895 -0.850730299949646 0.17000772058963776 50
-1.1647052764892578 -0.8684609532356262 0.12376115471124649 50
-1.1516155004501343 -0.8583877682685852 0.07327033579349518 50
-1.1330888271331787 -0.8442708849906921 0.023997057229280472 50
-1.1390273571014404 -0.8471509218215942 -0.3701113760471344 50
-1.1527754068374634 -0.8570635318756104 -0.3228049576282501 50
-1.165260910987854 -0.8660305142402649 -0.2745184302330017 50
-1.136702537536621 -0.8444976806640625 -0.21822625398635864 50
-1.1701794862747192 -0.8690520524978638 -0.17427335679531097 50
-1.1465250253677368 -0.8511742353439331 -0.12158244848251343 50
-1.1413919925689697 -0.8470545411109924 -0.07224409282207489 50
-1.146903157234192 -0.8508341908454895 -0.024016475304961205 50
-1.1480200290679932 -0.8513520956039429 0.3724566400051117 50
-1.1540162563323975 -0.8554867506027222 0.32256069779396057 50
-1.1506949663162231 -0.8527134656906128 0.2707054615020752 50
-1.1656897068023682 -0.8635099530220032 0.22345475852489471 50
-1.147462010383606 -0.8496972918510437 0.17061707377433777 50
-1.1717332601547241 -0.867353618144989 0.12419693171977997 50
-1.1626323461532593 -0.8603026866912842 0.0737936943769455 50
-1.144067406654358 -0.8462564945220947 0.024171581491827965 50
-1.1497482061386108 -0.8489072322845459 -0.3726995885372162 50
-1.1635997295379639 -0.8588205575942993 -0.32505446672439575 50
-1.1722265481948853 -0.8648718595504761 -0.27547159790992737 50
-1.143617868423462 -0.843455970287323 -0.2190084308385849 50
-1.18119478225708 -0.870851993560791 -0.1754920482635498 50
-1.157508373260498 -0.8530771732330322 -0.12245400995016098 50
-1.1483618021011353 -0.8460268378257751 -0.07250490039587021 50
-1.1538914442062378 -0.8497900366783142 -0.024102864786982536 50
-1.1587638854980469 -0.8530664443969727 0.375043123960495 50
-1.160919427871704 -0.8543408513069153 0.32368460297584534 50
-1.1576182842254639 -0.851600170135498 0.27165865898132324 50
-1.172675371170044 -0.862361490726471 0.22423605620861053 50
-1.1544195413589478 -0.8486261367797852 0.17122642695903778 50
-1.178767442703247 -0.8662075996398926 0.12463270872831345 50
-1.1696522235870361 -0.8591951131820679 0.07405537366867065 50
-1.1510438919067383 -0.845216691493988 0.024258844554424286 50
-1.156599760055542 -0.8477437496185303 -0.3739936649799347 50
-1.170520305633545 -0.8576329946517944 -0.3261792063713074 50
-1.1831579208374023 -0.8665752410888672 -0.27737799286842346 50
-1.1545242071151733 -0.8452935814857483 -0.22057276964187622 50
-1.188232183456421 -0.8696545958518982 -0.17610138654708862 50
-1.1644991636276245 -0.8519726395606995 -0.12288978695869446 50
-1.159368634223938 -0.8479083180427551 -0.07302652299404144 50
-1.1649222373962402 -0.8516579866409302 -0.02427564561367035 50
-1.165634036064148 -0.8518662452697754 0.37633639574050903 50
-1.1678285598754883 -0.8531573414802551 0.3248085081577301 50
-1.1685115098953247 -0.8533435463905334 0.27356502413749695 50
-1.1796672344207764 -0.8611747026443481 0.22501736879348755 50
-1.1613835096359253 -0.8475167155265808 0.1718357652425766 50
-1.189832091331482 -0.867958664894104 0.125504270195961 50
