# .PCD v0.7 - Point Cloud Data file format
VERSION 0.7
FIELDS x y z intensity
SIZE 4 4 4 4
TYPE F F F F
COUNT 1 1 1 1
WIDTH 767
HEIGHT 1
VIEWPOINT 0 0 0 1 0 0 0
POINTS 767
DATA ascii
-0.45301681756973267 2.1894586086273193 0.5884297490119934 44
-0.45257577300071716 2.1892528533935547 0.5068811178207397 44
-0.4525226950645447 2.190924644470215 0.4270283579826355 44
-0.45088911056518555 2.1849405765533447 0.3469018042087555 44
-0.4496667683124542 2.1809403896331787 0.26872187852859497 44
-0.45593419671058655 2.2132914066314697 0.19435730576515198 44
-0.4546293020248413 2.2089078426361084 0.11618582159280777 44
-0.449747234582901 2.1871533393859863 0.038308028131723404 44
-0.38060376048088074 1.8590974807739258 -0.4982268810272217 119
-0.43430379033088684 2.123286724090576 -0.4915183484554291 119
-0.4489157497882843 2.196676254272461 -0.42798182368278503 119
-0.44827571511268616 2.195497751235962 -0.3488491475582123 44
-0.4540256857872009 2.2256407737731934 -0.27420634031295776 44
-0.45328718423843384 2.2240025997161865 -0.195229172706604 44
-0.45498770475387573 2.2343385219573975 -0.11710324138402939 44
-0.44716671109199524 2.1978936195373535 -0.03809807822108269 44
-0.4444093108177185 2.186293601989746 0.5871365070343018 44
-0.44396141171455383 2.186044692993164 0.505757212638855 44
-0.4448721706867218 2.192490816116333 0.4270283579826355 44
-0.4422782361507416 2.1816606521606445 0.3461204767227173 44
-0.44205111265182495 2.1824967861175537 0.26872187852859497 44
-0.4482055604457855 2.214869260787964 0.19435730576515198 44
-0.4459265172481537 2.2055869102478027 0.11592413485050201 44
-0.44112661480903625 2.1838083267211914 0.03822077065706253 44
-0.37411201000213623 1.860414743423462 -0.4982268810272217 119
-0.4268895089626312 2.1247897148132324 -0.4915183484554291 119
-0.4412451684474945 2.198230028152466 -0.42798182368278503 119
-0.4396381974220276 2.192207098007202 -0.34806695580482483 44
-0.4462539851665497 2.2272121906280518 -0.27420634031295776 44
-0.44552117586135864 2.2255711555480957 -0.195229172706604 44
-0.44522711634635925 2.226120710372925 -0.11658161878585815 44
-0.4394919276237488 2.1994411945343018 -0.03809807822108269 44
-0.4367750287055969 2.187831401824951 0.5871365070343018 44
-0.4363280236721039 2.1875810623168945 0.505757212638855 44
-0.43625694513320923 2.1892166137695312 0.42607516050338745 44
-0.4346601068973541 2.1831912994384766 0.3461204767227173 44
-0.433461993932724 2.17915940284729 0.26811254024505615 44
-0.439500629901886 2.2115347385406494 0.1939215213060379 44
-0.4382248520851135 2.207130193710327 0.11592413485050201 44
-0.43252822756767273 2.1804311275482178 0.03813350573182106 44
-0.367615669965744 1.8617092370986938 -0.4982268810272217 119
-0.41947001218795776 2.1262669563293457 -0.4915183484554291 119
-0.4326200485229492 2.1949410438537598 -0.4270286560058594 119
-0.43102917075157166 2.188883066177368 -0.34728479385375977 44
-0.437518835067749 2.223886728286743 -0.27359697222709656 44
-0.43774980306625366 2.2271127700805664 -0.195229172706604 44
-0.4364916980266571 2.222761869430542 -0.11632081866264343 44
-0.43181174993515015 2.2009618282318115 -0.03809807822108269 44
-0.42820635437965393 2.184602975845337 0.5858432650566101 44
-0.42775294184684753 2.184309482574463 0.5046333074569702 44
-0.42861250042915344 2.1907260417938232 0.42607516050338745 44
-0.42703670263290405 2.184695243835449 0.3461204767227173 44
-0.42585262656211853 2.180659055709839 0.26811254024505615 44
-0.431778222322464 2.2130556106567383 0.1939215213060379 44
-0.4295625388622284 2.2037456035614014 0.11566246300935745 44
-0.42491447925567627 2.1819276809692383 0.03813350573182106 44
-0.362033873796463 1.867722511291504 -0.4995209574699402 119
-0.4120453894138336 2.127718210220337 -0.4915183484554291 119
-0.4249556362628937 2.1964378356933594 -0.4270286560058594 119
-0.4233859181404114 2.1903741359710693 -0.34728479385375977 44
-0.4297533333301544 2.225400447845459 -0.27359697222709656 44
-0.4290294349193573 2.223736524581909 -0.19479337334632874 44
-0.4277850389480591 2.2193686962127686 -0.11606000363826752 44
-0.42318102717399597 2.1975467205047607 -0.038011688739061356 44
-0.4205780625343323 2.186084508895874 0.5858432650566101 44
-0.42012566328048706 2.1857893466949463 0.5046333074569702 44
-0.4209628105163574 2.192208766937256 0.42607516050338745 44
-0.41940808296203613 2.1861724853515625 0.3461204767227173 44
-0.4182381331920624 2.1821322441101074 0.26811254024505615 44
-0.4231138825416565 2.2096571922302246 0.19348575174808502 44
-0.4218674302101135 2.2052314281463623 0.11566246300935745 44
-0.4163571298122406 2.178487539291382 0.03804624453186989 44
-0.3555120825767517 1.8689748048782349 -0.4995209574699402 119
-0.40370625257492065 2.1243577003479004 -0.49039360880851746 119
-0.41637054085731506 2.1930856704711914 -0.42607545852661133 119
-0.41573747992515564 2.1918387413024902 -0.34728479385375977 44
-0.42105868458747864 2.222011089324951 -0.27298763394355774 44
-0.42126455903053284 2.2252204418182373 -0.19479337334632874 44
-0.41910749673843384 2.215942621231079 -0.1157992035150528 44
-0.41550755500793457 2.1990106105804443 -0.038011688739061356 44
-0.4120487570762634 2.182793378829956 0.5845500230789185 44
-0.4124932885169983 2.1872425079345703 0.5046333074569702 44
-0.4123992621898651 2.1888415813446045 0.4251219928264618 44
-0.4108608663082123 2.182770013809204 0.34533917903900146 44
-0.40970131754875183 2.178701639175415 0.26750320196151733 44
-0.41539815068244934 2.211120843887329 0.19348575174808502 44
-0.4132460951805115 2.2017831802368164 0.1154007762670517 44
-0.4087502360343933 2.1799275875091553 0.03804624453186989 44
-0.3489859998226166 1.8702043294906616 -0.4995209574699402 119
-0.3962884247303009 2.125753879547119 -0.49039360880851746 119
-0.4087127149105072 2.194525718688965 -0.42607545852661133 119
-0.40718069672584534 2.1884214878082275 -0.3465026021003723 44
-0.4132998585700989 2.2234673500061035 -0.27298763394355774 44
-0.4125851094722748 2.221780300140381 -0.19435760378837585 44
-0.41136986017227173 2.2173919677734375 -0.1157992035150528 44
-0.40782907605171204 2.2004475593566895 -0.038011688739061356 44
-0.4044269025325775 2.184218406677246 0.5845500230789185 44
-0.404855877161026 2.188669204711914 0.5046333074569702 44
-0.4047562777996063 2.19026780128479 0.4251219928264618 44
-0.40323907136917114 2.1841909885406494 0.34533917903900146 44
-0.4020937383174896 2.1801183223724365 0.26750320196151733 44
-0.40767738223075867 2.212557315826416 0.19348575174808502 44
-0.40555793046951294 2.203212261199951 0.1154007762670517 44
-0.4011383652687073 2.1813411712646484 0.03804624453186989 44
-0.34245565533638 1.8714112043380737 -0.4995209574699402 119
-0.3879895508289337 2.1223316192626953 -0.48926883935928345 119
-0.4001680612564087 2.191110372543335 -0.42512229084968567 119
-0.39953917264938354 2.1898295879364014 -0.3465026021003723 44
-0.4046460688114166 2.2200143337249756 -0.27237826585769653 44
-0.4039347469806671 2.218306303024292 -0.19392181932926178 44
-0.40273353457450867 2.2139017581939697 -0.11553838849067688 44
-0.39925166964530945 2.1969387531280518 -0.037925295531749725 44
-0.39680007100105286 2.185616970062256 0.5845500230789185 44
-0.39721354842185974 2.1900689601898193 0.5046333074569702 44
-0.3962332606315613 2.186837673187256 0.42416879534721375 44
-0.39561235904693604 2.1855852603912354 0.34533917903900146 44
-0.39359816908836365 2.1766252517700195 0.2668938636779785 44
-0.39906609058380127 2.2090649604797363 0.19304996728897095 44
-0.39786481857299805 2.2046144008636475 0.1154007762670517 44
-0.39352163672447205 2.1827280521392822 0.03804624453186989 44
-0.33592110872268677 1.872595191001892 -0.4995209574699402 119
-0.380578875541687 2.1236729621887207 -0.48926883935928345 119
-0.39251723885536194 2.1924939155578613 -0.42512229084968567 119
-0.39189282059669495 2.191210985183716 -0.3465026021003723 44
-0.39689430594444275 2.2214131355285645 -0.27237826585769653 44
-0.3953137993812561 2.214799404144287 -0.1934860497713089 44
-0.395003080368042 2.2152938842773438 -0.11553838849067688 44
-0.3915804922580719 2.19831919670105 -0.037925295531749725 44
-0.38832223415374756 2.1822330951690674 0.583256721496582 44
-0.3895663321018219 2.1914420127868652 0.5046333074569702 44
-0.3885973393917084 2.1882073879241943 0.42416879534721375 44
-0.3871181309223175 2.1820900440216064 0.34455785155296326 44
-0.3859979510307312 2.177985668182373 0.2668938636779785 44
-0.3913525938987732 2.210444450378418 0.19304996728897095 44
-0.3901668190956116 2.2059898376464844 0.1154007762670517 44
-0.38590008020401 2.1840884685516357 0.03804624453186989 44
-0.32989078760147095 1.8785706758499146 -0.5008150935173035 119
-0.37279266119003296 2.125053644180298 -0.48926883935928345 119
-0.38447871804237366 2.193917989730835 -0.42512229084968567 119
-0.3838590085506439 2.1926324367523193 -0.3465026021003723 44
-0.38874974846839905 2.222852945327759 -0.27237826585769653 44
-0.3871934711933136 2.216233491897583 -0.1934860497713089 44
-0.38602256774902344 2.211808204650879 -0.11527758091688156 44
-0.38352063298225403 2.199739694595337 -0.037925295531749725 44
-0.38032132387161255 2.1836419105529785 0.583256721496582 44
-0.3815317153930664 2.1928553581237793 0.5046333074569702 44
-0.3797340393066406 2.184781074523926 0.4232156276702881 44
-0.3791177570819855 2.1834943294525146 0.34455785155296326 44
-0.3771645128726959 2.1744961738586426 0.2662844955921173 44
-0.38239794969558716 2.206956386566162 0.19261419773101807 44
-0.3812272846698761 2.2024853229522705 0.11513910442590714 44
-0.377892404794693 2.185488224029541 0.03804624453186989 44
-0.323331356048584 1.8797106742858887 -0.5008150935173035 119
-0.3661976754665375 2.131143569946289 -0.49039360880851746 119
-0.37681815028190613 2.195246696472168 -0.42512229084968567 119
-0.3762029707431793 2.1939589977264404 -0.3465026021003723 44
-0.3809881806373596 2.224196434020996 -0.27237826585769653 44
-0.3794550597667694 2.217571496963501 -0.1934860497713089 44
-0.37745824456214905 2.2082202434539795 -0.11501676589250565 44
-0.3758397698402405 2.2010648250579834 -0.037925295531749725 44
-0.3726966679096222 2.1849560737609863 0.583256721496582 44
-0.3730565309524536 2.189371109008789 0.5035094022750854 44
-0.3721054494380951 2.186093330383301 0.4232156276702881 44
-0.3714936375617981 2.1848042011260986 0.34455785155296326 44
-0.3695718050003052 2.175799608230591 0.2662844955921173 44
-0.3746918737888336 2.208277702331543 0.19261419773101807 44
-0.3735368847846985 2.2038025856018066 0.11513910442590714 44
-0.3702547252178192 2.1867949962615967 0.03804624453186989 44
-0.3175700604915619 1.8855904340744019 -0.502109169960022 119
-0.3587563633918762 2.132408857345581 -0.49039360880851746 119
-0.36833953857421875 2.1917080879211426 -0.4241690933704376 119
-0.3677247166633606 2.1903886795043945 -0.34572046995162964 44
-0.3732219934463501 2.225512742996216 -0.27237826585769653 44
-0.37088897824287415 2.2139699459075928 -0.19305026531219482 44
-0.36892372369766235 2.2045998573303223 -0.11475596576929092 44
-0.3673301041126251 2.197432518005371 -0.03783890977501869 44
-0.3650674819946289 2.186243772506714 0.583256721496582 44
-0.3654119372367859 2.190659999847412 0.5035094022750854 44
-0.36366555094718933 2.182537317276001 0.42226240038871765 44
-0.36305415630340576 2.181216239929199 0.34377655386924744 44
-0.3619746267795563 2.1770763397216797 0.2662844955921173 44
-0.36698126792907715 2.2095723152160645 0.19261419773101807 44
-0.36584189534187317 2.2050929069519043 0.11513910442590714 44
-0.3618083596229553 2.183140754699707 0.037958983331918716 44
-0.310986191034317 1.8866875171661377 -0.502109169960022 119
-0.351310670375824 2.133648157119751 -0.49039360880851746 119
-0.3606868088245392 2.1929805278778076 -0.4241690933704376 119
-0.36007654666900635 2.1916589736938477 -0.34572046995162964 44
-0.3646475076675415 2.221904754638672 -0.2717689573764801 44
-0.36315852403640747 2.2152512073516846 -0.19305026531219482 44
-0.36041906476020813 2.200946569442749 -0.11449515074491501 44
-0.3596574068069458 2.1987013816833496 -0.03783890977501869 44
-0.3566550016403198 2.1827383041381836 0.5819635391235352 44
-0.35697802901268005 2.1871135234832764 0.5023854970932007 44
-0.35604485869407654 2.183793544769287 0.42226240038871765 44
-0.35543811321258545 2.1824703216552734 0.34377655386924744 44
-0.353576123714447 2.1734282970428467 0.2656751573085785 44
-0.3592661917209625 2.2108397483825684 0.19261419773101807 44
-0.3581424355506897 2.2063567638397217 0.11513910442590714 44
-0.354185551404953 2.1843905448913574 0.037958983331918716 44
-0.3043985366821289 1.8877615928649902 -0.502109169960022 119
-0.3438607156276703 2.134861469268799 -0.49039360880851746 119
-0.35302966833114624 2.1942262649536133 -0.4241690933704376 119
-0.3524240553379059 2.1929025650024414 -0.34572046995162964 44
-0.35688939690589905 2.2231640815734863 -0.2717689573764801 44
-0.3554236590862274 2.216505289077759 -0.19305026531219482 44
-0.35273411870002747 2.202191114425659 -0.11449515074491501 44
-0.3519802987575531 2.1999435424804688 -0.03783890977501869 44
-0.3490336835384369 2.1839699745178223 0.5819635391235352 44
-0.34934139251708984 2.1883461475372314 0.5023854970932007 44
-0.34841981530189514 2.185023069381714 0.42226240038871765 44
-0.3470408618450165 2.1788206100463867 0.34299522638320923 44
-0.3459872901439667 2.174649238586426 0.2656751573085785 44
-0.3507649600505829 2.2071609497070312 0.192178413271904 44
-0.34965577721595764 2.2026617527008057 0.11487741768360138 44
-0.34655845165252686 2.1856136322021484 0.037958983331918716 44
-0.29780715703964233 1.8888126611709595 -0.502109169960022 119
-0.33716443181037903 2.1408610343933105 -0.4915183484554291 119
-0.3446055054664612 2.19059681892395 -0.42321592569351196 119
-0.3463004231452942 2.203876256942749 -0.34728479385375977 44
-0.349126935005188 2.224396228790283 -0.2717689573764801 44
-0.34768444299697876 2.2177324295043945 -0.19305026531219482 44
-0.3442724049091339 2.1984760761260986 -0.11423435062170029 44
-0.34352630376815796 2.1962194442749023 -0.03775251656770706 44
-0.3414080739021301 2.1851749420166016 0.5819635391235352 44
-0.34094932675361633 2.184738874435425 0.5012615919113159 44
-0.3407905697822571 2.1862261295318604 0.42226240038871765 44
-0.3394332528114319 2.180018901824951 0.34299522638320923 44
-0.33763155341148376 2.1709399223327637 0.2650658190250397 44
-0.34305840730667114 2.208372116088867 0.192178413271904 44
-0.3419649302959442 2.203869104385376 0.11487741768360138 44
-0.338161438703537 2.1818697452545166 0.037871718406677246 44
-0.29121217131614685 1.8898407220840454 -0.502109169960022 119
-0.3296893835067749 2.1420249938964844 -0.4915183484554291 119
-0.33695682883262634 2.191786289215088 -0.42321592569351196 119
-0.34010443091392517 2.214834213256836 -0.3488491475582123 44
-0.3413602113723755 2.2256014347076416 -0.2717689573764801 44
-0.33918672800064087 2.2140092849731445 -0.19261449575424194 44
-0.33659619092941284 2.199664354324341 -0.11423435062170029 44
-0.33585795760154724 2.1974050998687744 -0.03775251656770706 44
-0.33304938673973083 2.1815788745880127 0.5806702375411987 44
-0.3333210349082947 2.185915470123291 0.5012615919113159 44
-0.3324180543422699 2.1825499534606934 0.421309232711792 44
-0.3318215012550354 2.181190252304077 0.34299522638320923 44
-0.3300514817237854 2.172105312347412 0.2650658190250397 44
-0.33534762263298035 2.2095561027526855 0.192178413271904 44
-0.3335215449333191 2.2001123428344727 0.11461574584245682 44
-0.3305432200431824 2.1830368041992188 0.037871718406677246 44
-0.28461360931396484 1.890845775604248 -0.502109169960022 119
-0.3222103416919708 2.143162727355957 -0.4915183484554291 119
-0.3293039798736572 2.192949056625366 -0.42321592569351196 119
-0.333836168050766 2.225775718688965 -0.3504135012626648 44
-0.3335893452167511 2.2267794609069824 -0.2717689573764801 44
-0.3314563035964966 2.215179681777954 -0.19261449575424194 44
-0.328177809715271 2.195887565612793 -0.11397353559732437 44
-0.3274475038051605 2.193619728088379 -0.03766612708568573 44
-0.3254322409629822 2.1827280521392822 0.5806702375411987 44
-0.32497113943099976 2.1822469234466553 0.5001376867294312 44
-0.32479754090309143 2.183696985244751 0.421309232711792 44
-0.3242056965827942 2.182335376739502 0.34299522638320923 44
-0.3224674463272095 2.173243999481201 0.2650658190250397 44
-0.3269026279449463 2.2057862281799316 0.1917426437139511 44
-0.32583966851234436 2.201263189315796 0.11461574584245682 44
-0.3229210078716278 2.1841771602630615 0.037871718406677246 44
-0.27801159024238586 1.8918275833129883 -0.502109169960022 119
-0.3147273361682892 2.1442744731903076 -0.4915183484554291 119
-0.3209351897239685 2.1892285346984863 -0.42226269841194153 119
-0.32678014039993286 2.231813430786133 -0.35119566321372986 44
-0.3250962495803833 2.223019599914551 -0.2711595892906189 44
-0.3230019807815552 2.2113945484161377 -0.19217871129512787 44
-0.32051074504852295 2.1970198154449463 -0.11397353559732437 44
-0.31906750798225403 2.1898021697998047 -0.0375797376036644 44
-0.31781113147735596 2.1838507652282715 0.5806702375411987 44
-0.31735169887542725 2.1833677291870117 0.5001376867294312 44
-0.31646788120269775 2.179960012435913 0.42035603523254395 44
-0.3165859580039978 2.1834537982940674 0.34299522638320923 44
-0.314879447221756 2.174356460571289 0.2650658190250397 44
-0.3192009925842285 2.206913709640503 0.1917426437139511 44
-0.31815385818481445 2.2023870944976807 0.11461574584245682 44
-0.31458091735839844 2.1803431510925293 0.037784457206726074 44
-0.2714061737060547 1.8927866220474243 -0.502109169960022 119
-0.30724048614501953 2.145359992980957 -0.4915183484554291 119
-0.31329143047332764 2.190335512161255 -0.42226269841194153 119
-0.3189876675605774 2.232940435409546 -0.35119566321372986 44
-0.31733450293540955 2.2241408824920654 -0.2711595892906189 44
-0.3152807950973511 2.2125084400177 -0.19217871129512787 44
-0.3121362030506134 2.1931817531585693 -0.11371272802352905 44
-0.31071820855140686 2.185953378677368 -0.03749334439635277 44
-0.30950725078582764 2.1801650524139404 0.5793769955635071 44
-0.3097284138202667 2.184462308883667 0.5001376867294312 44
-0.30885645747184753 2.18105149269104 0.42035603523254395 44
-0.30827078223228455 2.1796555519104004 0.3422139286994934 44
-0.3072876036167145 2.1754422187805176 0.2650658190250397 44
-0.31149548292160034 2.208014488220215 0.1917426437139511 44
-0.309767484664917 2.198539972305298 0.11435405910015106 44
-0.30696818232536316 2.1814279556274414 0.037784457206726074 44
-0.26546627283096313 1.8985055685043335 -0.5034032464027405 119
-0.2990761399269104 2.141594648361206 -0.49039360880851746 119
-0.3049658238887787 2.1865546703338623 -0.42130953073501587 119
-0.3111913204193115 2.2340402603149414 -0.35119566321372986 44
-0.3088850677013397 2.2203197479248047 -0.2705502510070801 44
-0.30687034130096436 2.2086617946624756 -0.191742941737175 44
-0.3044786751270294 2.194257974624634 -0.11371272802352905 44
-0.3023996651172638 2.182072639465332 -0.037406954914331436 44
-0.3018951416015625 2.18123197555542 0.5793769955635071 44
-0.301434189081192 2.18070387840271 0.4990138113498688 44
-0.3005701005458832 2.1772541999816895 0.4194028675556183 44
-0.30066046118736267 2.180718421936035 0.3422139286994934 44
-0.299015074968338 2.1715853214263916 0.26445645093917847 44
-0.30378615856170654 2.2090885639190674 0.1917426437139511 44
-0.3020913004875183 2.1996078491210938 0.11435405910015106 44
-0.2993517220020294 2.1824862957000732 0.037784457206726074 44
-0.2594897747039795 1.9042060375213623 -0.504697322845459 119
-0.29159876704216003 2.142625570297241 -0.49039360880851746 119
-0.29733148217201233 2.1876060962677 -0.42130953073501587 119
-0.30339115858078003 2.2351131439208984 -0.35119566321372986 44
-0.3004661500453949 2.2164666652679443 -0.26994088292121887 44
-0.2991587519645691 2.209719657897949 -0.191742941737175 44
-0.2961484491825104 2.190359354019165 -0.11345191299915314 44
-0.294780969619751 2.183115005493164 -0.037406954914331436 44
-0.29363393783569336 2.1774861812591553 0.5780837535858154 44
-0.2938202917575836 2.1817429065704346 0.4990138113498688 44
-0.292968213558197 2.1782901287078857 0.4194028675556183 44
-0.2930465042591095 2.1817545890808105 0.3422139286994934 44
-0.2914330065250397 2.1726160049438477 0.26445645093917847 44
-0.29607316851615906 2.2101354598999023 0.1917426437139511 44
-0.29374930262565613 2.195700168609619 0.1140923872590065 44
-0.2917316257953644 2.1835176944732666 0.037784457206726074 44
-0.25220584869384766 1.9003125429153442 -0.5034032464027405 119
-0.28411781787872314 2.143630266189575 -0.49039360880851746 119
-0.2896934747695923 2.1886303424835205 -0.42130953073501587 119
-0.29558733105659485 2.2361583709716797 -0.35119566321372986 44
-0.29272741079330444 2.2175018787384033 -0.26994088292121887 44
-0.2907925844192505 2.2058122158050537 -0.19130714237689972 44
-0.2878490388393402 2.1864287853240967 -0.11319109797477722 44
-0.2865070104598999 2.1791739463806152 -0.037320561707019806 44
-0.2860313057899475 2.178497791290283 0.5780837535858154 44
-0.2862027883529663 2.1827552318573 0.4990138113498688 44
-0.28472548723220825 2.1744325160980225 0.41844967007637024 44
-0.2847886085510254 2.1778671741485596 0.3414326012134552 44
-0.2838473618030548 2.1736199855804443 0.26445645093917847 44
-0.287712424993515 2.2062160968780518 0.19130685925483704 44
-0.2860831022262573 2.1967122554779053 0.1140923872590065 44
-0.28346315026283264 2.179565191268921 0.037697192281484604 44
-0.24495230615139008 1.89639151096344 -0.502109169960022 119
-0.276010125875473 2.1397769451141357 -0.48926883935928345 119
-0.2820519506931305 2.1896283626556396 -0.42130953073501587 119
-0.287779837846756 2.2371766567230225 -0.35119566321372986 44
-0.28435277938842773 2.213587999343872 -0.26933157444000244 44
-0.28309106826782227 2.2068138122558594 -0.19130714237689972 44
-0.28021523356437683 2.18742036819458 -0.11319109797477722 44
-0.2788985073566437 2.1801607608795166 -0.037320561707019806 44
-0.2784251868724823 2.179482936859131 0.5780837535858154 44
-0.27858179807662964 2.1837408542633057 0.4990138113498688 44
-0.2771335542201996 2.175413131713867 0.41844967007637024 44
-0.27718469500541687 2.1788480281829834 0.3414326012134552 44
-0.2756328582763672 2.1696743965148926 0.26384711265563965 44
-0.28000956773757935 2.207206964492798 0.19130685925483704 44
-0.2777858376502991 2.1927437782287598 0.11383070051670074 44
-0.27585333585739136 2.180541515350342 0.037697192281484604 44
-0.23772920668125153 1.8924429416656494 -0.5008150935173035 119
-0.2685392498970032 2.1407272815704346 -0.48926883935928345 119
-0.2744070291519165 2.1905994415283203 -0.42130953073501587 119
-0.2793559730052948 2.2332675457000732 -0.3504135012626648 44
-0.2766242027282715 2.214567184448242 -0.26933157444000244 44
-0.2747696340084076 2.202846050262451 -0.19087137281894684 44
-0.27196088433265686 2.1834304332733154 -0.1129302978515625 44
-0.27128663659095764 2.1811211109161377 -0.037320561707019806 44
-0.2708156704902649 2.1804416179656982 0.5780837535858154 44
-0.27035775780677795 2.1798651218414307 0.4978898763656616 44
-0.2695382833480835 2.1763672828674316 0.41844967007637024 44
-0.2695774435997009 2.179802417755127 0.3414326012134552 44
-0.26805761456489563 2.170623302459717 0.26384711265563965 44
-0.2716936469078064 2.2032277584075928 0.19087108969688416 44
-0.27013006806373596 2.193700075149536 0.11383070051670074 44
-0.26824015378952026 2.1814911365509033 0.037697192281484604 44
-0.23053665459156036 1.8884671926498413 -0.4995209574699402 119
-0.2610650658607483 2.1416516304016113 -0.48926883935928345 119
-0.267944872379303 2.201288938522339 -0.42321592569351196 119
-0.2715587019920349 2.23422908782959 -0.3504135012626648 44
-0.2682943046092987 2.21059250831604 -0.26872220635414124 44
-0.26707860827445984 2.203791618347168 -0.19087137281894684 44
-0.2643376290798187 2.184366464614868 -0.1129302978515625 44
-0.2636714577674866 2.1820547580718994 -0.037320561707019806 44
-0.2626243233680725 2.1765787601470947 0.5767905116081238 44
-0.2627469599246979 2.180795431137085 0.4978898763656616 44
-0.26193967461586 2.177294969558716 0.41844967007637024 44
-0.26137784123420715 2.1758270263671875 0.34065133333206177 44
-0.2604790925979614 2.1715457439422607 0.26384711265563965 44
-0.2640013098716736 2.20416259765625 0.19087108969688416 44
-0.26187798380851746 2.189671516418457 0.11356901377439499 44
-0.2606236934661865 2.1824140548706055 0.037697192281484604 44
-0.22394327819347382 1.8892604112625122 -0.4995209574699402 119
-0.2535877227783203 2.142549991607666 -0.48926883935928345 119
-0.2614113986492157 2.2119593620300293 -0.42512229084968567 119
-0.26317939162254333 2.2302589416503906 -0.34963130950927734 44
-0.2605762481689453 2.211515426635742 -0.26872220635414124 44
-0.25880229473114014 2.199763536453247 -0.19043558835983276 44
-0.2567111551761627 2.1852760314941406 -0.1129302978515625 44
-0.25605306029319763 2.182961940765381 -0.037320561707019806 44
-0.25502505898475647 2.1774821281433105 0.5767905116081238 44
-0.25456711649894714 2.1768605709075928 0.49676600098609924 44
-0.2543379068374634 2.1781959533691406 0.41844967007637024 44
-0.25378119945526123 2.1767261028289795 0.34065133333206177 44
-0.25232353806495667 2.1675121784210205 0.26323774456977844 44
-0.2563057243824005 2.205070734024048 0.19087108969688416 44
-0.2542330026626587 2.1905722618103027 0.11356901377439499 44
-0.2530040442943573 2.1833105087280273 0.037697192281484604 44
-0.2173471450805664 1.8900306224822998 -0.4995209574699402 119
-0.246107280254364 2.1434221267700195 -0.48926883935928345 119
-0.2548066973686218 2.2226109504699707 -0.4270286560058594 0
-0.25539273023605347 2.23116397857666 -0.34963130950927734 44
-0.25229156017303467 2.2074811458587646 -0.2681128680706024 44
-0.2511221170425415 2.200653553009033 -0.19043558835983276 44
-0.249081552028656 2.1861586570739746 -0.1129302978515625 44
-0.24843153357505798 2.183842420578003 -0.037320561707019806 44
-0.24742265045642853 2.178359031677246 0.5767905116081238 44
-0.2469668835401535 2.1777358055114746 0.49676600098609924 44
-0.24673305451869965 2.179070472717285 0.41844967007637024 44
-0.24618147313594818 2.177598714828491 0.34065133333206177 44
-0.24475596845149994 2.168379783630371 0.26323774456977844 44
-0.24804918467998505 2.2010021209716797 0.1904352903366089 44
-0.2460266351699829 2.1864848136901855 0.11330734193325043 44
-0.24482321739196777 2.1792125701904297 0.03760993480682373 44
-0.21074838936328888 1.890777826309204 -0.4995209574699402 119
-0.23862384259700775 2.144268035888672 -0.48926883935928345 119
-0.24758882820606232 2.228365182876587 -0.42798182368278503 0
-0.2470584660768509 2.2271335124969482 -0.3488491475582123 44
-0.24458447098731995 2.208348512649536 -0.2681128680706024 44
-0.24289143085479736 2.196566104888916 -0.18999981880187988 44
-0.24144892394542694 2.1870148181915283 -0.1129302978515625 44
-0.24080698192119598 2.1846961975097656 -0.037320561707019806 44
-0.23928891122341156 2.174408435821533 0.5754972100257874 44
-0.2393636703491211 2.178584575653076 0.49676600098609924 44
-0.23912516236305237 2.1799185276031494 0.41844967007637024 44
-0.23804105818271637 2.1735353469848633 0.33987000584602356 44
-0.23718541860580444 2.1692209243774414 0.26323774456977844 44
-0.24036473035812378 2.2018544673919678 0.1904352903366089 44
-0.2383928894996643 2.1873302459716797 0.11330734193325043 44
-0.2372148483991623 2.1800537109375 0.03760993480682373 44
-0.204147070646286 1.8915019035339355 -0.4995209574699402 119
-0.2311374843120575 2.145087957382202 -0.48926883935928345 119
-0.23980887234210968 2.2292160987854004 -0.42798182368278503 0
-0.23928281664848328 2.227982521057129 -0.3488491475582123 44
-0.23687440156936646 2.20918869972229 -0.2681128680706024 44
-0.23522251844406128 2.1974005699157715 -0.18999981880187988 44
-0.23328271508216858 2.1828792095184326 -0.11266948282718658 44
-0.23317950963974 2.185523509979248 -0.037320561707019806 44
-0.23169735074043274 2.1752305030822754 0.5754972100257874 44
-0.2312423139810562 2.1745617389678955 0.4956420660018921 44
-0.23099622130393982 2.175859212875366 0.4174965023994446 44
-0.2304525524377823 2.1743531227111816 0.33987000584602356 44
-0.22961197793483734 2.1700356006622314 0.26323774456977844 44
-0.2326773703098297 2.2026801109313965 0.1904352903366089 44
-0.23023256659507751 2.183183431625366 0.11304565519094467 44
-0.22908015549182892 2.1758968830108643 0.03752266988158226 44
-0.19721299409866333 1.8922375440597534 -0.4995209574699402 119
-0.22327379882335663 2.145920753479004 -0.48926883935928345 119
-0.2311296910047531 2.2251980304718018 -0.4270286560058594 0
-0.23060588538646698 2.2239322662353516 -0.34806695580482483 44
-0.228264719247818 2.2051055431365967 -0.2675034999847412 44
-0.2271670550107956 2.1982479095458984 -0.18999981880187988 44
-0.2252804934978485 2.1837196350097656 -0.11266948282718658 44
-0.22516760230064392 2.186363458633423 -0.037320561707019806 44
-0.2237231731414795 2.176064968109131 0.5754972100257874 44
-0.22327059507369995 2.1753947734832764 0.4956420660018921 44
-0.2230197638273239 2.1766912937164307 0.4174965023994446 44
-0.2224816083908081 2.175183057785034 0.33987000584602356 44
-0.22165685892105103 2.1708624362945557 0.26323774456977844 44
-0.22409752011299133 2.1985630989074707 0.1899995356798172 44
-0.2222292572259903 2.1840124130249023 0.11304565519094467 44
-0.22110356390476227 2.1767218112945557 0.03752266988158226 44
-0.1901227980852127 1.8881092071533203 -0.4982268810272217 119
-0.21626906096935272 2.1515347957611084 -0.49039360880851746 119
-0.22336088120937347 2.2259910106658936 -0.4270286560058594 0
-0.22284150123596191 2.2247235774993896 -0.34806695580482483 44
-0.2205660492181778 2.2058889865875244 -0.2675034999847412 44
-0.2194923609495163 2.1990275382995605 -0.18999981880187988 44
-0.21765652298927307 2.184492588043213 -0.11266948282718658 44
-0.21703961491584778 2.182161569595337 -0.03723417595028877 44
-0.21612592041492462 2.176832675933838 0.5754972100257874 44
-0.21567568182945251 2.1761608123779297 0.4956420660018921 44
-0.21493709087371826 2.172572135925293 0.41654327511787415 44
-0.21440207958221436 2.1710317134857178 0.33908867835998535 44
-0.21359094977378845 2.166684627532959 0.262628436088562 44
-0.2164217233657837 2.199331760406494 0.1899995356798172 44
-0.21460427343845367 2.184774875640869 0.11304565519094467 44
-0.21349740028381348 2.177481174468994 0.03752266988158226 44
-0.18353089690208435 1.888761281967163 -0.4982268810272217 119
-0.20875748991966248 2.1522765159606934 -0.49039360880851746 119
-0.21511636674404144 2.221871852874756 -0.42607545852661133 0
-0.2145993709564209 2.2205724716186523 -0.34728479385375977 44
-0.21238820254802704 2.2017056941986084 -0.2668941617012024 44
-0.2118149846792221 2.199780225753784 -0.18999981880187988 44
-0.20955219864845276 2.1802690029144287 -0.11240868270397186 44
-0.20942112803459167 2.182905673980713 -0.03723417595028877 44
-0.20852604508399963 2.1775739192962646 0.5754972100257874 44
-0.20807816088199615 2.1769003868103027 0.4956420660018921 44
-0.20735208690166473 2.173309087753296 0.41654327511787415 44
-0.206822469830513 2.171766996383667 0.33908867835998535 44
-0.20602649450302124 2.167417049407959 0.262628436088562 44
-0.20874330401420593 2.2000739574432373 0.1899995356798172 44
-0.20697668194770813 2.1855106353759766 0.11304565519094467 44
-0.20543146133422852 2.1732354164123535 0.03743540868163109 44
-0.1769367754459381 1.8893903493881226 -0.4982268810272217 119
-0.20124337077140808 2.152992010116577 -0.49039360880851746 119
-0.20735926926136017 2.222609043121338 -0.42607545852661133 0
-0.20684683322906494 2.2213079929351807 -0.34728479385375977 44
-0.2047015279531479 2.2024335861206055 -0.2668941617012024 44
-0.20367489755153656 2.1955463886260986 -0.1895640343427658 44
-0.2019403725862503 2.1809871196746826 -0.11240868270397186 44
-0.20180009305477142 2.1836235523223877 -0.03723417595028877 44
-0.2009236365556717 2.178288459777832 0.5754972100257874 44
-0.20047809183597565 2.1776134967803955 0.4956420660018921 44
-0.19976456463336945 2.1740195751190186 0.41654327511787415 44
-0.1992403268814087 2.172475576400757 0.33908867835998535 44
-0.19800716638565063 2.1631805896759033 0.2620190680027008 44
-0.20106233656406403 2.200789213180542 0.1899995356798172 44
-0.19889317452907562 2.1812477111816406 0.11278398334980011 44
-0.19784420728683472 2.1739394664764404 0.03743540868163109 44
-0.17034049332141876 1.8899965286254883 -0.4982268810272217 119
-0.1937267929315567 2.153681516647339 -0.49039360880851746 119
-0.19959965348243713 2.2233192920684814 -0.42607545852661133 0
-0.1986510455608368 2.217097759246826 -0.3465026021003723 44
-0.19701236486434937 2.203134775161743 -0.2668941617012024 44
-0.1960097700357437 2.19624400138855 -0.1895640343427658 44
-0.19432608783245087 2.1816787719726562 -0.11240868270397186 44
-0.19373390078544617 2.179334878921509 -0.03714778274297714 44
-0.1928919553756714 2.174165725708008 0.5742040276527405 44
-0.19287557899951935 2.178300142288208 0.4956420660018921 44
-0.19217459857463837 2.174703598022461 0.41654327511787415 44
-0.19165575504302979 2.1731579303741455 0.33908867835998535 44
-0.19045504927635193 2.163858652114868 0.2620190680027008 44
-0.19294306635856628 2.1965155601501465 0.18956373631954193 44
-0.19127798080444336 2.1819286346435547 0.11278398334980011 44
-0.19025453925132751 2.174616575241089 0.03743540868163109 44
-0.1641588658094406 1.8953911066055298 -0.4995209574699402 119
-0.1862078756093979 2.1543445587158203 -0.49039360880851746 119
-0.1918376088142395 2.2240025997161865 -0.42607545852661133 0
-0.1909107118844986 2.217777729034424 -0.3465026021003723 44
-0.1888960301876068 2.198864698410034 -0.2662848234176636 44
-0.18791678547859192 2.1919517517089844 -0.18912823498249054 44
-0.18670940399169922 2.1823439598083496 -0.11240868270397186 44
-0.18612542748451233 2.179997682571411 -0.03714778274297714 44
-0.1853015124797821 2.17482590675354 0.5742040276527405 44
-0.18527071177959442 2.178960084915161 0.4956420660018921 44
-0.18458230793476105 2.175361156463623 0.41654327511787415 44
-0.18406884372234344 2.173813581466675 0.33908867835998535 44
-0.18290060758590698 2.1645102500915527 0.2620190680027008 44
-0.1852746307849884 2.1971757411956787 0.18956373631954193 44
-0.18366046249866486 2.1825830936431885 0.11278398334980011 44
-0.182244211435318 2.170285701751709 0.037348147481679916 44
-0.15794163942337036 1.9007657766342163 -0.5008150935173035 119
-0.17868666350841522 2.1549813747406006 -0.49039360880851746 119
-0.18407322466373444 2.224658489227295 -0.42607545852661133 0
-0.18316806852817535 2.218430757522583 -0.3465026021003723 44
-0.18121939897537231 2.1995105743408203 -0.2662848234176636 44
-0.18026430904865265 2.192594528198242 -0.18912823498249054 44
-0.1790904700756073 2.1829822063446045 -0.11240868270397186 44
-0.17851467430591583 2.1806342601776123 -0.03714778274297714 44
-0.17770883440971375 2.175459384918213 0.5742040276527405 44
-0.17726778984069824 2.1747376918792725 0.4945181906223297 44
-0.17698775231838226 2.175992250442505 0.41654327511787415 44
-0.17647969722747803 2.174442768096924 0.33908867835998535 44
-0.17534394562244415 2.165135622024536 0.2620190680027008 44
-0.17760393023490906 2.1978092193603516 0.18956373631954193 44
-0.17604070901870728 2.183210611343384 0.11278398334980011 44
-0.1746673732995987 2.1709084510803223 0.037348147481679916 44
-0.15168890357017517 1.9061198234558105 -0.502109169960022 119
-0.17154890298843384 2.1604483127593994 -0.4915183484554291 119
-0.17591893672943115 2.2203946113586426 -0.42512229084968567 0
-0.17542317509651184 2.2190566062927246 -0.3465026021003723 44
-0.17315033078193665 2.1951823234558105 -0.26567548513412476 44
-0.1726096123456955 2.1932103633880615 -0.18912823498249054 44
-0.17107845842838287 2.1786162853240967 -0.11214786767959595 44
-0.17051127552986145 2.176260232925415 -0.03706139326095581 44
-0.1701139658689499 2.1760663986206055 0.5742040276527405 44
-0.16967545449733734 2.1753432750701904 0.4945181906223297 44
-0.16939103603363037 2.1765968799591064 0.41654327511787415 44
-0.1688884049654007 2.1750457286834717 0.33908867835998535 44
-0.1677851378917694 2.1657345294952393 0.2620190680027008 44
-0.1699310541152954 2.198415756225586 0.18956373631954193 44
-0.1680348515510559 2.178833246231079 0.11252229660749435 44
-0.16708843410015106 2.1715049743652344 0.037348147481679916 44
-0.14503438770771027 1.9066376686096191 -0.502109169960022 119
-0.16400648653507233 2.161034107208252 -0.4915183484554291 119
-0.16816721856594086 2.2209951877593994 -0.42512229084968567 0
-0.1673041731119156 2.214730978012085 -0.34572046995162964 44
-0.165486678481102 2.1957733631134033 -0.26567548513412476 44
-0.1649528443813324 2.1937994956970215 -0.18912823498249054 44
-0.16347263753414154 2.1792001724243164 -0.11214786767959595 44
-0.16291368007659912 2.176841974258423 -0.03706139326095581 44
-0.16251704096794128 2.176647186279297 0.5742040276527405 44
-0.1620810627937317 2.175922393798828 0.4945181906223297 44
-0.1614285111427307 2.1722800731658936 0.4155901074409485 44
-0.16092991828918457 2.17069673538208 0.33830738067626953 44
-0.1602242887020111 2.166306972503662 0.2620190680027008 44
-0.162256121635437 2.198995351791382 0.18956373631954193 44
-0.16042828559875488 2.1794066429138184 0.11252229660749435 44
-0.15950743854045868 2.172075033187866 0.037348147481679916 44
-0.1383780837059021 1.9071323871612549 -0.502109169960022 119
-0.15646207332611084 2.161593437194824 -0.4915183484554291 119
-0.1604134738445282 2.2215685844421387 -0.42512229084968567 0
-0.1595723032951355 2.215301513671875 -0.34572046995162964 44
-0.15782098472118378 2.1963376998901367 -0.26567548513412476 44
-0.15729403495788574 2.194361925125122 -0.18912823498249054 44
-0.15586480498313904 2.1797573566436768 -0.11214786767959595 44
-0.15531408786773682 2.1773974895477295 -0.03706139326095581 44
-0.15457533299922943 2.1723830699920654 0.572910726070404 44
-0.15448468923568726 2.1764748096466064 0.4945181906223297 44
-0.15384484827518463 2.17283034324646 0.4155901074409485 44
-0.1533517837524414 2.1712453365325928 0.33830738067626953 44
-0.1526615023612976 2.1668529510498047 0.2620190680027008 44
-0.15457919239997864 2.1995484828948975 0.18956373631954193 44
-0.15281975269317627 2.1799533367156982 0.11252229660749435 44
-0.15157578885555267 2.1676316261291504 0.037260886281728745 44
-0.13205280900001526 1.9124219417572021 -0.5034032464027405 119
-0.14891575276851654 2.162126302719116 -0.4915183484554291 119
-0.15265779197216034 2.2221150398254395 -0.42512229084968567 0
-0.1515008509159088 2.2109179496765137 -0.3449382781982422 44
-0.15015338361263275 2.1968753337860107 -0.26567548513412476 44
-0.14963334798812866 2.1948976516723633 -0.18912823498249054 44
-0.14825506508350372 2.180288314819336 -0.11214786767959595 44
-0.1477126032114029 2.177926540374756 -0.03706139326095581 44
-0.14699135720729828 2.1729094982147217 0.572910726070404 44
-0.14655844867229462 2.172139883041382 0.49339425563812256 44
-0.14625932276248932 2.173354148864746 0.4155901074409485 44
-0.1457718014717102 2.171767473220825 0.33830738067626953 44
-0.14476536214351654 2.1624209880828857 0.261409729719162 44
-0.14656856656074524 2.1951045989990234 0.18912795186042786 44
-0.14520935714244843 2.1804733276367188 0.11252229660749435 44
-0.14400842785835266 2.168147563934326 0.037260886281728745 44
-0.1253764033317566 1.912871241569519 -0.5034032464027405 119
-0.14168541133403778 2.167494773864746 -0.4926431179046631 119
-0.14490021765232086 2.2226345539093018 -0.42512229084968567 0
-0.14378239214420319 2.2114334106445312 -0.3449382781982422 44
-0.1424839347600937 2.1973860263824463 -0.26567548513412476 44
-0.14197081327438354 2.195406675338745 -0.18912823498249054 44
-0.14064355194568634 2.1807925701141357 -0.11214786767959595 44
-0.1397884339094162 2.1734397411346436 -0.03697500377893448 44
-0.13940559327602386 2.1734092235565186 0.572910726070404 44
-0.1389753669500351 2.172638177871704 0.49339425563812256 44
-0.13867202401161194 2.173851251602173 0.4155901074409485 44
-0.13819001615047455 2.1722629070281982 0.33830738067626953 44
-0.1372162103652954 2.1629133224487305 0.261409729719162 44
-0.13890531659126282 2.1956028938293457 0.18912795186042786 44
-0.1372828334569931 2.1759841442108154 0.11226062476634979 44
-0.13643930852413177 2.1686370372772217 0.037260886281728745 44
-0.11839941889047623 1.9084768295288086 -0.502109169960022 119
-0.13411858677864075 2.167976140975952 -0.4926431179046631 119
-0.1371408998966217 2.2231266498565674 -0.42512229084968567 0
-0.13575896620750427 2.2069926261901855 -0.3441561162471771 44
-0.13481275737285614 2.1978700160980225 -0.26567548513412476 44
-0.1340024620294571 2.1909172534942627 -0.18869248032569885 44
-0.13272634148597717 2.176286220550537 -0.11188706010580063 44
-0.13220086693763733 2.1739144325256348 -0.03697500377893448 44
-0.13181813061237335 2.1738827228546143 0.572910726070404 44
-0.13139060139656067 2.173110008239746 0.49339425563812256 44
-0.13108301162719727 2.1743221282958984 0.4155901074409485 44
-0.13060657680034637 2.17273211479187 0.33830738067626953 44
-0.12966540455818176 2.163378953933716 0.261409729719162 44
-0.1312403827905655 2.1960744857788086 0.18912795186042786 44
-0.1296863853931427 2.17645001411438 0.11226062476634979 44
-0.12886850535869598 2.169100046157837 0.037260886281728745 44
-0.11173687130212784 1.9088785648345947 -0.502109169960022 119
-0.1268339306116104 2.1732943058013916 -0.4937678575515747 119
-0.12937991321086884 2.2235918045043945 -0.42512229084968567 0
-0.12776829302310944 2.2025227546691895 -0.3433739244937897 44
-0.12713994085788727 2.19832706451416 -0.26567548513412476 44
-0.126353919506073 2.1913716793060303 -0.18869248032569885 44
-0.1251288801431656 2.176736354827881 -0.11188706010580063 44
-0.12461167573928833 2.1743626594543457 -0.03697500377893448 44
-0.1242290511727333 2.1743295192718506 0.572910726070404 44
-0.1238042339682579 2.173555374145508 0.49339425563812256 44
-0.12321414798498154 2.1698660850524902 0.41463690996170044 44
-0.12302152067422867 2.1731748580932617 0.33830738067626953 44
-0.12211300432682037 2.163818597793579 0.261409729719162 44
-0.12357385456562042 2.196519136428833 0.18912795186042786 44
-0.12208837270736694 2.176889419555664 0.11226062476634979 44
-0.12129615992307663 2.169536590576172 0.037260886281728745 44
-0.10507296770811081 1.909256935119629 -0.502109169960022 119
-0.1192469522356987 2.1737239360809326 -0.4937678575515747 119
-0.12134933471679688 2.2191288471221924 -0.4241690933704376 0
-0.11981050670146942 2.1980247497558594 -0.3425917625427246 44
-0.11973480880260468 2.2037129402160645 -0.2662848234176636 44
-0.11843447387218475 2.1868255138397217 -0.18825668096542358 44
-0.11752989143133163 2.1771597862243652 -0.11188706010580063 44
-0.11702097952365875 2.1747844219207764 -0.03697500377893448 44
-0.11637981235980988 2.1699271202087402 0.5716174840927124 44
-0.11621635407209396 2.1739745140075684 0.49339425563812256 44
-0.11563915759325027 2.170283079147339 0.41463690996170044 44
-0.11543498188257217 2.173590898513794 0.33830738067626953 44
-0.1145591288805008 2.164231538772583 0.261409729719162 44
-0.11590582132339478 2.196937084197998 0.18912795186042786 44
-0.1144888624548912 2.177302360534668 0.11226062476634979 44
-0.11372232437133789 2.1699469089508057 0.037260886281728745 44
-0.09815922379493713 1.904788851737976 -0.5008150935173035 119
-0.11190840601921082 2.178992509841919 -0.4948926270008087 119
-0.11360238492488861 2.219538927078247 -0.4241690933704376 0
-0.11213724315166473 2.1984293460845947 -0.3425917625427246 44
-0.11204168200492859 2.2041175365448 -0.2662848234176636 44
-0.11054830998182297 2.182251214981079 -0.1878209114074707 44
-0.10992947220802307 2.1775567531585693 -0.11188706010580063 44
-0.10942885279655457 2.1751797199249268 -0.03697500377893448 44
-0.10880465060472488 2.1703202724456787 0.5716174840927124 44
-0.10838396102190018 2.1695008277893066 0.4922703802585602 44
-0.1080627515912056 2.170673370361328 0.41463690996170044 44
-0.10784703493118286 2.173980712890625 0.33830738067626953 44
-0.10675883293151855 2.1596615314483643 0.2608003616333008 44
-0.10823637247085571 2.1973283290863037 0.18912795186042786 44
-0.10688796639442444 2.1776885986328125 0.11226062476634979 44
-0.10614710301160812 2.17033052444458 0.037260886281728745 44
-0.09197310358285904 1.9147679805755615 -0.5034032464027405 119
-0.10430162400007248 2.1793699264526367 -0.4948926270008087 119
-0.10585405677556992 2.2199220657348633 -0.4241690933704376 0
-0.10422824323177338 2.1938743591308594 -0.34180957078933716 44
-0.10434719920158386 2.2044951915740967 -0.2662848234176636 44
-0.10293015837669373 2.182623863220215 -0.1878209114074707 44
-0.10209336876869202 2.1729395389556885 -0.11162624508142471 44
-0.10183539241552353 2.1755483150482178 -0.03697500377893448 44
-0.10122814774513245 2.170686960220337 0.5716174840927124 44
-0.10081033408641815 2.169865846633911 0.4922703802585602 44
-0.10048502683639526 2.171037435531616 0.41463690996170044 44
-0.10003029555082321 2.1694107055664062 0.3375260531902313 44
-0.09921955317258835 2.1600210666656494 0.2608003616333008 44
-0.100565604865551 2.197692632675171 0.18912795186042786 44
-0.09928575903177261 2.178048610687256 0.11226062476634979 44
-0.09857058525085449 2.1706879138946533 0.037260886281728745 44
-0.08442925661802292 1.8957780599594116 -0.4982268810272217 119
-0.09690946340560913 2.1845874786376953 -0.49601736664772034 119
-0.09810443967580795 2.220278024673462 -0.4241690933704376 0
-0.09656956046819687 2.1942248344421387 -0.34180957078933716 44
-0.09665143489837646 2.204845905303955 -0.2662848234176636 44
-0.09509346634149551 2.1779932975769043 -0.18738512694835663 44
-0.09450776875019073 2.1732826232910156 -0.11162624508142471 44
-0.0942406952381134 2.1758904457092285 -0.03697500377893448 44
-0.09365042299032211 2.1710269451141357 0.5716174840927124 44
-0.09323547035455704 2.1702046394348145 0.4922703802585602 44
-0.09290608763694763 2.171374797821045 0.41463690996170044 44
-0.09245701879262924 2.1697466373443604 0.3375260531902313 44
-0.09167907387018204 2.1603541374206543 0.2608003616333008 44
-0.09289361536502838 2.198030471801758 0.18912795186042786 44
-0.09147237986326218 2.1733930110931396 0.11199893802404404 44
-0.09099286794662476 2.171018600463867 0.037260886281728745 44
-0.07741516828536987 1.8864099979400635 -0.4956386983394623 119
-0.08928324282169342 2.1849124431610107 -0.49601736664772034 119
-0.09035363048315048 2.220606803894043 -0.4241690933704376 0
-0.08890970051288605 2.1945486068725586 -0.34180957078933716 44
-0.08895450085401535 2.205169916152954 -0.2662848234176636 44
-0.0874902755022049 2.178312063217163 -0.18738512694835663 44
-0.08692102134227753 2.1735992431640625 -0.11162624508142471 44
-0.08664484322071075 2.176206111907959 -0.03697500377893448 44
-0.08607155084609985 2.1713407039642334 0.5716174840927124 44
-0.08565948158502579 2.1705167293548584 0.4922703802585602 44
-0.08532600849866867 2.1716859340667725 0.41463690996170044 44
-0.08468961715698242 2.165121555328369 0.3367447555065155 44
-0.08413746953010559 2.160661220550537 0.2608003616333008 44
-0.0850275531411171 2.193364143371582 0.18869218230247498 44
-0.08388526737689972 2.173699140548706 0.11199893802404404 44
-0.08322212845087051 2.166327476501465 0.037173621356487274 44
-0.07064871490001678 1.8818424940109253 -0.4943445920944214 119
-0.08183786273002625 2.1900794506073 -0.49714213609695435 119
-0.08260171115398407 2.2209086418151855 -0.4241690933704376 0
-0.08124875277280807 2.194845676422119 -0.34180957078933716 44
-0.08125647902488708 2.2054669857025146 -0.2662848234176636 44
-0.07988601922988892 2.1786041259765625 -0.18738512694835663 44
-0.07933321595191956 2.173889398574829 -0.11162624508142471 44
