# .PCD v0.7 - Point Cloud Data file format
VERSION 0.7
FIELDS x y z intensity
SIZE 4 4 4 4
TYPE F F F F
COUNT 1 1 1 1
WIDTH 778
HEIGHT 1
VIEWPOINT 0 0 0 1 0 0 0
POINTS 778
DATA ascii
-2.419652223587036 1.1032088994979858 -0.5090028643608093 119
-2.9687788486480713 1.3542019128799438 -0.5107589364051819 119
-3.1003568172454834 1.4148746728897095 -0.4137468934059143 30
-3.0615360736846924 1.3978042602539062 -0.2911006212234497 30
-3.0823426246643066 1.4079539775848389 -0.1750028431415558 30
-3.058513641357422 1.397714614868164 -0.05744947865605354 30
-3.074418067932129 1.405631422996521 0.8949306011199951 30
-3.0741400718688965 1.4061532020568848 0.7709987759590149 30
-3.060805082321167 1.400699496269226 0.6462616324424744 30
-3.0567727088928223 1.399499535560608 0.52582186460495 30
-3.0667948722839355 1.4047354459762573 0.4094809591770172 30
-3.0776941776275635 1.410377860069275 0.2928432822227478 30
-3.0758068561553955 1.4101625680923462 0.1753254383802414 30
-3.033829927444458 1.391558289527893 0.05759293958544731 30
-1.7856090068817139 0.8209106922149658 -0.5163442492485046 119
-2.030928611755371 0.934122622013092 -0.5072649121284485 119
-2.4157867431640625 1.1116483211517334 -0.5090028643608093 119
-2.959547758102417 1.362491488456726 -0.5099768042564392 119
-3.0683536529541016 1.413231611251831 -0.4100908041000366 30
-3.0340189933776855 1.3980597257614136 -0.2889217138290405 30
-3.050201654434204 1.406161904335022 -0.17343798279762268 30
-3.0263779163360596 1.3958195447921753 -0.056931138038635254 30
-3.043179512023926 1.4042129516601562 0.8871710300445557 30
-3.0426723957061768 1.404623031616211 0.7642553448677063 30
-3.029160976409912 1.3990271091461182 0.6405425071716309 30
-3.024970293045044 1.3977322578430176 0.5211340188980103 30
-3.0348446369171143 1.4029375314712524 0.4058248996734619 30
-3.0501480102539062 1.4106582403182983 0.290664404630661 30
-3.0436766147613525 1.408310055732727 0.17375536262989044 30
-3.0017335414886475 1.389539122581482 0.05706936493515968 30
-1.7871137857437134 0.8291712999343872 -0.5176383256912231 119
-2.027655601501465 0.941206157207489 -0.5072649121284485 119
-2.411891460418701 1.1200742721557617 -0.5090028643608093 119
-2.9502949714660645 1.3707330226898193 -0.5091946125030518 119
-3.0363998413085938 1.4113824367523193 -0.40643471479415894 30
-3.002021551132202 1.3960399627685547 -0.28630703687667847 30
-3.0181117057800293 1.404163122177124 -0.17187312245368958 30
-2.994293212890625 1.3937174081802368 -0.056412797421216965 30
-3.011988878250122 1.402593731880188 0.879411518573761 30
-3.0112528800964355 1.4028905630111694 0.7575119137763977 30
-2.9975662231445312 1.3971508741378784 0.6348233819007874 30
-2.9932174682617188 1.3957599401474 0.5164461135864258 30
-3.0029444694519043 1.400933861732483 0.40216881036758423 30
-3.0181238651275635 1.4086568355560303 0.28804972767829895 30
-3.011596441268921 1.4062504768371582 0.1721852868795395 30
-2.974217653274536 1.389428973197937 0.056633055210113525 30
-1.779834508895874 0.833356499671936 -0.5163442492485046 119
-2.024357795715332 0.9482782483100891 -0.5072649121284485 119
-2.4035229682922363 1.1264036893844604 -0.508049726486206 119
-2.941020965576172 1.3789266347885132 -0.5084124207496643 119
-3.0089895725250244 1.4114351272583008 -0.40338799357414246 30
-2.9745845794677734 1.3959301710128784 -0.2841281592845917 30
-2.986072540283203 1.4019572734832764 -0.17030827701091766 30
-2.966785430908203 1.3935339450836182 -0.055980850011110306 30
-2.9808473587036133 1.4007740020751953 0.8716520071029663 30
-2.9798831939697266 1.4009559154510498 0.7507684826850891 30
-2.970463275909424 1.397160530090332 0.6300574541091919 30
-2.9615156650543213 1.3935831785202026 0.5117582678794861 30
-2.9710958003997803 1.3987247943878174 0.39851275086402893 30
-2.9861512184143066 1.4064491987228394 0.2854350507259369 30
-2.9840853214263916 1.406112551689148 0.1708768904209137 30
-2.942218065261841 1.387012004852295 0.056109484285116196 30
-1.7769147157669067 0.8395641446113586 -0.5163442492485046 119
-2.0210354328155518 0.9553388357162476 -0.5072649121284485 119
-2.404013156890869 1.1368849277496338 -0.5090028643608093 119
-2.93172550201416 1.387072205543518 -0.5076302289962769 119
-2.9771311283111572 1.4091906547546387 -0.39973190426826477 30
-2.942683696746826 1.3935141563415527 -0.2815134823322296 30
-2.9585988521575928 1.4016832113265991 -0.16900423169136047 30
-2.934798240661621 1.3910343647003174 -0.05546250939369202 30
-2.9497549533843994 1.3987541198730469 0.8638924956321716 30
-2.948563814163208 1.3988196849822998 0.7440250515937805 30
-2.9389631748199463 1.3948934078216553 0.6243383288383484 30
-2.929866075515747 1.3912023305892944 0.5070704221725464 30
-2.943781852722168 1.3984397649765015 0.39546599984169006 30
-2.9542312622070312 1.4040356874465942 0.28282037377357483 30
-2.9521026611328125 1.403655767440796 0.16930681467056274 30
-2.914785861968994 1.3865363597869873 0.05567317083477974 30
-1.769466519355774 0.8439920544624329 -0.5150501132011414 119
-2.0175201892852783 0.962739884853363 -0.5072649121284485 119
-2.3998303413391113 1.145688533782959 -0.5090028643608093 119
-2.922166109085083 1.3956799507141113 -0.5068480968475342 119
-2.949556827545166 1.40939462184906 -0.3966851532459259 30
-2.9150867462158203 1.3935487270355225 -0.27933457493782043 30
-2.9264144897460938 1.3995914459228516 -0.16743938624858856 30
-2.9071316719055176 1.3909927606582642 -0.05503055453300476 30
-2.9184696674346924 1.3970438241958618 0.856132984161377 30
-2.9170522689819336 1.3969910144805908 0.7372816205024719 30
-2.911698579788208 1.3950518369674683 0.6195724010467529 30
-2.902480363845825 1.3912583589553833 0.5031638741493225 30
-2.911787748336792 1.396344542503357 0.3918099105358124 30
-2.9266109466552734 1.4040813446044922 0.28064149618148804 30
-2.924431085586548 1.4036633968353271 0.16799841821193695 30
-2.8871517181396484 1.386390209197998 0.05523686483502388 30
-1.7621577978134155 0.8480691313743591 -0.5137560367584229 119
-2.0141472816467285 0.9697765111923218 -0.5072649121284485 119
-2.400238513946533 1.1561886072158813 -0.5099561214447021 119
-2.908378839492798 1.4015839099884033 -0.505283772945404 119
-2.917797327041626 1.4067504405975342 -0.3930290639400482 30
-2.887772798538208 1.3928959369659424 -0.27715566754341125 30
-2.8990261554718018 1.3989477157592773 -0.16613534092903137 30
-2.8797481060028076 1.390264630317688 -0.0545986033976078 30
-2.8874804973602295 1.394619107246399 0.8483734726905823 30
-2.8902242183685303 1.396566390991211 0.7316620945930481 30
-2.8802971839904785 1.3923897743225098 0.6138532757759094 30
-2.8709306716918945 1.3884800672531128 0.49847596883773804 30
-2.880092144012451 1.3935312032699585 0.3881538510322571 30
-2.894791841506958 1.401267170906067 0.278026819229126 30
-2.892549991607666 1.400805115699768 0.1664283275604248 30
-2.8597965240478516 1.3855669498443604 0.054800551384687424 30
-1.7548421621322632 0.8521053791046143 -0.5124619007110596 119
-2.0107498168945312 0.9768012166023254 -0.5072649121284485 119
-2.4006025791168213 1.1667054891586304 -0.5109092593193054 119
-2.899027109146118 1.409567952156067 -0.5045015811920166 119
-2.8905553817749023 1.4060726165771484 -0.38998231291770935 30
-2.860499382019043 1.392069697380066 -0.27497678995132446 30
-2.8671889305114746 1.3959442377090454 -0.16457048058509827 30
-2.8479111194610596 1.3871732950210571 -0.054080262780189514 30
-2.856544256210327 1.3919953107833862 0.8406139612197876 30
-2.859055757522583 1.3938367366790771 0.7249186635017395 30
-2.853361129760742 1.3916770219802856 0.609087347984314 30
-2.843874931335449 1.387664556503296 0.49456945061683655 30
-2.8529117107391357 1.3926907777786255 0.3851071000099182 30
-2.867504358291626 1.400434136390686 0.2758479416370392 30
-2.865211248397827 1.3999334573745728 0.165119931101799 30
-2.832489013671875 1.3845579624176025 0.054364245384931564 30
-1.751857042312622 0.8582257628440857 -0.5124619007110596 119
-2.0117030143737793 0.9859582781791687 -0.5083897113800049 119
-2.4009222984313965 1.177238941192627 -0.5118624567985535 119
-2.858619451522827 1.4022793769836426 -0.49824416637420654 119
-2.858898878097534 1.4030356407165527 -0.38632622361183167 30
-2.8332667350769043 1.391070008277893 -0.2727978825569153 30
-2.839890241622925 1.3949370384216309 -0.16326643526554108 30
-2.82061767578125 1.3860818147659302 -0.053648315370082855 30
-2.82999587059021 1.3913034200668335 0.8341476917266846 30
-2.8323135375976562 1.3930567502975464 0.7192991375923157 30
-2.8264658451080322 1.3907934427261353 0.6043213605880737 30
-2.816859483718872 1.3866771459579468 0.4906628727912903 30
-2.825772762298584 1.3916776180267334 0.38206037878990173 30
-2.8402581214904785 1.3994276523590088 0.27366903424263 30
-2.837913990020752 1.398888349533081 0.16381153464317322 30
-2.805220127105713 1.3833811283111572 0.05392793193459511 30
-1.7401912212371826 0.8600558638572693 -0.5098737478256226 119
-2.008249044418335 0.9929744601249695 -0.5083897113800049 119
-2.401197910308838 1.187788724899292 -0.5128157138824463 119
-2.8227243423461914 1.3969165086746216 -0.49276894330978394 119
-2.831746816635132 1.4019968509674072 -0.3832795321941376 30
-2.806076765060425 1.3898974657058716 -0.2706190049648285 30
-2.812633514404297 1.3937565088272095 -0.1619623899459839 30
-2.7933669090270996 1.3848166465759277 -0.0532163605093956 30
-2.7991607189178467 1.388297438621521 0.8263881802558899 30
-2.8056118488311768 1.392107367515564 0.7136796116828918 30
-2.799611806869507 1.3897391557693481 0.5995554327964783 30
-2.789886236190796 1.385518193244934 0.4867563545703888 30
-2.7942309379577637 1.3882840871810913 0.37840431928634644 30
-2.813054084777832 1.398248314857483 0.2714901566505432 30
-2.810659646987915 1.397669792175293 0.16250313818454742 30
-2.777994394302368 1.3820310831069946 0.05349162220954895 30
-1.7371784448623657 0.8661250472068787 -0.5098737478256226 119
-2.0091300010681152 1.0021530389785767 -0.5095144510269165 119
-2.4014289379119873 1.1983548402786255 -0.5137688517570496 119
-2.78690242767334 1.3913203477859497 -0.4872937798500061 119
-2.8046364784240723 1.4007854461669922 -0.3802327811717987 30
-2.7789294719696045 1.3885520696640015 -0.2684400975704193 30
-2.7854199409484863 1.3924027681350708 -0.1606583446264267 30
-2.766159772872925 1.383378267288208 -0.05278440937399864 30
-2.772700548171997 1.3872543573379517 0.8199219107627869 30
-2.77895188331604 1.3909885883331299 0.708060085773468 30
-2.768411159515381 1.3863167762756348 0.5938363075256348 30
-2.7629554271698 1.384187936782837 0.48284977674484253 30
-2.7671847343444824 1.3869109153747559 0.37535756826400757 30
-2.785893201828003 1.3968961238861084 0.26931124925613403 30
-2.7834479808807373 1.3962780237197876 0.16119474172592163 30
-2.7508127689361572 1.3805079460144043 0.05305531248450279 30
-1.7298297882080078 0.8700135946273804 -0.5085796117782593 119
-2.009971857070923 1.0113499164581299 -0.5106391906738281 119
-2.397231340408325 1.2067301273345947 -0.5137688517570496 119
-2.759974956512451 1.389933705329895 -0.4833828806877136 119
-2.7820017337799072 1.4016351699829102 -0.37779536843299866 30
-2.7518258094787598 1.3870341777801514 -0.26626119017601013 30
-2.7582504749298096 1.3908761739730835 -0.1593542993068695 30
-2.743459939956665 1.3840185403823853 -0.052438847720623016 30
-2.7462821006774902 1.386043667793274 0.8134556412696838 30
-2.7523341178894043 1.3897007703781128 0.702440619468689 30
-2.741649627685547 1.3849066495895386 0.5890703797340393 30
-2.7360680103302 1.3826866149902344 0.47894322872161865 30
-2.7401819229125977 1.3853660821914673 0.3723108172416687 30
-2.7587761878967285 1.395371437072754 0.26713234186172485 30
-2.7562808990478516 1.3947135210037231 0.15988633036613464 30
-2.7236757278442383 1.3788119554519653 0.052619002759456635 30
-1.7267823219299316 0.8760464787483215 -0.5085796117782593 119
-2.0064291954040527 1.018359899520874 -0.5106391906738281 119
-2.3930044174194336 1.2150907516479492 -0.5137688517570496 119
-2.7330915927886963 1.3883761167526245 -0.47947201132774353 119
-2.754971504211426 1.4000957012176514 -0.37474867701530457 30
-2.7247674465179443 1.3853442668914795 -0.26408231258392334 30
-2.731126070022583 1.3891770839691162 -0.15805025398731232 30
-2.716334819793701 1.3822503089904785 -0.05200690031051636 30
-2.7199063301086426 1.3846654891967773 0.8069893717765808 30
-2.725759267807007 1.3882442712783813 0.6968210339546204 30
-2.7149322032928467 1.3833266496658325 0.5843043923377991 30
-2.70922589302063 1.3810149431228638 0.4750366806983948 30
-2.7132246494293213 1.3836498260498047 0.3692640960216522 30
-2.7317042350769043 1.3936747312545776 0.26495346426963806 30
-2.729159116744995 1.3929765224456787 0.15857794880867004 30
-2.6965842247009277 1.3769434690475464 0.05218269303441048 30
-1.7237138748168945 0.8820687532424927 -0.5085796117782593 119
-2.0028624534606934 1.0253573656082153 -0.5106391906738281 119
-2.3843796253204346 1.2211989164352417 -0.5128157138824463 119
-2.71064829826355 1.3889000415802002 -0.4763433039188385 119
-2.7324020862579346 1.4006483554840088 -0.37231123447418213 30
-2.702186346054077 1.3857553005218506 -0.26233920454978943 30
-2.7084896564483643 1.3895848989486694 -0.15700702369213104 30
-2.6892549991607666 1.3803094625473022 -0.0515749454498291 30
-2.6935737133026123 1.3831202983856201 0.8005231618881226 30
-2.699228286743164 1.386619210243225 0.6912015676498413 30
-2.6882591247558594 1.3815773725509644 0.5795384645462036 30
-2.6824283599853516 1.379172444343567 0.4711301326751709 30
-2.690725564956665 1.3840322494506836 0.36682671308517456 30
-2.7046780586242676 1.3918060064315796 0.2627745568752289 30
-2.702083110809326 1.3910672664642334 0.15726953744888306 30
-2.6739838123321533 1.3771919012069702 0.05183364450931549 30
-1.7249161005020142 0.8902953863143921 -0.5098737478256226 119
-1.999271035194397 1.0323424339294434 -0.5106391906738281 119
-2.3801023960113525 1.2295145988464355 -0.5128157138824463 119
-2.6838479042053223 1.387017011642456 -0.4724324643611908 119
-2.7054543495178223 1.398781657218933 -0.36926451325416565 30
-2.6752116680145264 1.383737325668335 -0.26016029715538025 30
-2.6814496517181396 1.387557029724121 -0.15570297837257385 30
-2.6666619777679443 1.3804950714111328 -0.051229387521743774 30
-2.667285203933716 1.3814080953598022 0.7940568923950195 30
-2.6727421283721924 1.3848259449005127 0.6855820417404175 30
-2.665989398956299 1.3819174766540527 0.5757257342338562 30
-2.6600608825683594 1.3794333934783936 0.46800488233566284 30
-2.6638519763946533 1.3819893598556519 0.3637799620628357 30
-2.6776983737945557 1.389765977859497 0.2605956792831421 30
-2.6794850826263428 1.391287088394165 0.15622282028198242 30
-2.6469783782958984 1.3749948740005493 0.05139733478426933 30
-1.7259249687194824 0.8988423347473145 -0.5111678242683411 119
-1.9997942447662354 1.0419141054153442 -0.5117639303207397 119
-2.375580072402954 1.2382298707962036 -0.5128157138824463 119
-2.6568517684936523 1.3854275941848755 -0.4685215950012207 119
-2.678309440612793 1.3972113132476807 -0.36621779203414917 30
-2.652458906173706 1.384314775466919 -0.25841715931892395 30
-2.6586408615112305 1.3881316184997559 -0.15465973317623138 30
-2.6394283771514893 1.3786866664886475 -0.05079743266105652 30
-2.6450819969177246 1.3822274208068848 0.7888838648796082 30
-2.6503782272338867 1.3855839967727661 0.6810864210128784 30
-2.639159917831421 1.3803056478500366 0.5709598064422607 30
-2.633108377456665 1.3777260780334473 0.46409836411476135 30
-2.641181707382202 1.382537603378296 0.36134257912635803 30
-2.6505236625671387 1.3880170583724976 0.2584167718887329 30
-2.6522533893585205 1.3895127773284912 0.15491442382335663 30
-2.624209403991699 1.3754042387008667 0.05104828625917435 30
-1.7227768898010254 0.9048615097999573 -0.5111678242683411 119
-2.000458002090454 1.0511547327041626 -0.5128887295722961 119
-2.3755879402160645 1.2487984895706177 -0.5137688517570496 119
-2.63014554977417 1.3832000494003296 -0.464610755443573 119
-2.6558480262756348 1.3973090648651123 -0.3637803792953491 30
-2.6255722045898438 1.3819652795791626 -0.25623828172683716 30
-2.6316888332366943 1.3857712745666504 -0.1533556878566742 30
-2.6169073581695557 1.3785713911056519 -0.05045187473297119 30
-2.6188769340515137 1.380192756652832 0.7824175953865051 30
-2.623976707458496 1.3834656476974487 0.6754668354988098 30
-2.6126186847686768 1.3780601024627686 0.5661938786506653 30
-2.610812187194824 1.3776897192001343 0.4609731137752533 30
-2.614396095275879 1.380164384841919 0.35829582810401917 30
-2.6236400604248047 1.3856298923492432 0.25623786449432373 30
-2.629727602005005 1.3894319534301758 0.1538676917552948 30
-2.6017098426818848 1.3752169609069824 0.05069923773407936 30
-1.7238757610321045 0.9131302833557129 -0.5124619007110596 119
-1.9924715757369995 1.0558499097824097 -0.5117639303207397 119
-2.379887580871582 1.261681318283081 -0.5156752467155457 119
-2.6078498363494873 1.3831170797348022 -0.46148207783699036 119
-2.629035234451294 1.394940972328186 -0.36073365807533264 30
-2.6031341552734375 1.3817803859710693 -0.25449514389038086 30
-2.6091957092285156 1.3855818510055542 -0.15231245756149292 30
-2.5944199562072754 1.3783159255981445 -0.050106313079595566 30
-2.5969834327697754 1.3802589178085327 0.7772445678710938 30
-2.6019246578216553 1.3834675550460815 0.6709712147712708 30
-2.590459108352661 1.3779512643814087 0.5623810887336731 30
-2.58418869972229 1.3751945495605469 0.45706653594970703 30
-2.5920398235321045 1.3799532651901245 0.3558584451675415 30
-2.6012022495269775 1.3854137659072876 0.2544947564601898 30
-2.6028285026550293 1.3868629932403564 0.1525593101978302 30
-2.574838638305664 1.3725262880325317 0.0502629280090332 30
-1.724937915802002 0.9214178323745728 -0.5137560367584229 119
-1.980180263519287 1.0582060813903809 -0.5095144510269165 119
-2.3797974586486816 1.2722951173782349 -0.5166284441947937 119
-2.5812323093414307 1.380566120147705 -0.4575711786746979 119
-2.60664701461792 1.3947442770004272 -0.3582962453365326 30
-2.5807292461395264 1.3814557790756226 -0.25275203585624695 30
-2.582334518432617 1.3828949928283691 -0.15100841224193573 30
-2.5719661712646484 1.377920150756836 -0.04976075142621994 30
-2.5708651542663574 1.3779078722000122 0.7707783579826355 30
-2.575610876083374 1.3810302019119263 0.6653517484664917 30
-2.5683319568634033 1.377704381942749 0.5585682988166809 30
-2.5619664192199707 1.3748656511306763 0.45394131541252136 30
-2.565345048904419 1.3772555589675903 0.352811723947525 30
-2.5744099617004395 1.3827011585235596 0.252315878868103 30
-2.5803778171539307 1.3864867687225342 0.15151259303092957 30
-2.5524184703826904 1.3720377683639526 0.04991387948393822 30
-1.7217110395431519 0.9274333119392395 -0.5137560367584229 119
-1.9678969383239746 1.0604894161224365 -0.5072649121284485 119
-2.379662275314331 1.2829234600067139 -0.517581582069397 119
-2.559011459350586 1.3801908493041992 -0.45444250106811523 119
-2.579925060272217 1.3920516967773438 -0.3552495241165161 30
-2.553975820541382 1.3786258697509766 -0.25057315826416016 30
-2.559917688369751 1.3824102878570557 -0.14996518194675446 30
-2.5451486110687256 1.3750085830688477 -0.04932880401611328 30
-2.549043655395508 1.3776875734329224 0.7656053304672241 30
-2.553631544113159 1.380743145942688 0.6608560681343079 30
-2.541921377182007 1.374984860420227 0.5538024306297302 30
-2.539777994155884 1.3743985891342163 0.4508160650730133 30
-2.543065309524536 1.376751184463501 0.35037434101104736 30
-2.552048444747925 1.3821907043457031 0.2505727708339691 30
-2.557961940765381 1.3859707117080688 0.15046587586402893 30
-2.5256383419036865 1.3690272569656372 0.04947756975889206 30
-1.7184631824493408 0.9334375858306885 -0.5137560367584229 119
-1.9470605850219727 1.0580476522445679 -0.5027658939361572 119
-2.383794069290161 1.2959108352661133 -0.5194879770278931 119
-2.5324864387512207 1.3773177862167358 -0.45053160190582275 119
-2.5576131343841553 1.391561508178711 -0.35281214118003845 30
-2.5316483974456787 1.3780072927474976 -0.24883003532886505 30
-2.5375359058380127 1.3817859888076782 -0.14892195165157318 30
-2.522773027420044 1.37431800365448 -0.048983242362737656 30
-2.5230143070220947 1.3750205039978027 0.7591390609741211 30
-2.5316860675811768 1.3803198337554932 0.6563604474067688 30
-2.5198702812194824 1.3744481801986694 0.549989640712738 30
-2.513288974761963 1.3714277744293213 0.44690951704978943 30
-2.520820140838623 1.376108169555664 0.3479369580745697 30
-2.529721975326538 1.3815408945083618 0.248829647898674 30
-2.5311992168426514 1.3829212188720703 0.14915746450424194 30
-2.5032970905303955 1.3682442903518677 0.049128517508506775 30
-1.7151944637298584 0.9394304752349854 -0.5137560367584229 119
-1.9561731815338135 1.0718610286712646 -0.5061401724815369 119
-2.3921680450439453 1.3113019466400146 -0.5223475694656372 119
-2.510342836380005 1.3766509294509888 -0.4474029242992401 119
-2.5353362560272217 1.3909329175949097 -0.3503747582435608 30
-2.509356737136841 1.377249836921692 -0.24708691239356995 30
-2.5151896476745605 1.3810224533081055 -0.1478787064552307 30
-2.5004334449768066 1.3734883069992065 -0.04863768070936203 30
-2.501267910003662 1.3745149374008179 0.7539660334587097 30
-2.5055055618286133 1.377413034439087 0.6507409811019897 30
-2.493553400039673 1.3714091777801514 0.5452237129211426 30
-2.4911789894104004 1.3706696033477783 0.44378426671028137 30
-2.494262933731079 1.3729336261749268 0.3448902368545532 30
-2.5074315071105957 1.3807522058486938 0.2470865398645401 30
-2.5088627338409424 1.3821110725402832 0.1481107473373413 30
-2.476614236831665 1.3649091720581055 0.048692211508750916 30
-1.711904764175415 0.9454118609428406 -0.5137560367584229 119
-1.9609483480453491 1.0833947658538818 -0.5083897113800049 119
-2.3703932762145996 1.3101469278335571 -0.5185348391532898 119
-2.4882349967956543 1.3758466243743896 -0.44427424669265747 119
-2.5087523460388184 1.387763261795044 -0.3473280072212219 30
-2.48274302482605 1.3739417791366577 -0.24490801990032196 30
-2.492879629135132 1.380119800567627 -0.14683546125888824 30
-2.47375750541687 1.370097279548645 -0.04820572957396507 30
-2.4753310680389404 1.3715335130691528 0.7474997639656067 30
-2.4836373329162598 1.3767024278640747 0.6462453603744507 30
-2.471581220626831 1.3705835342407227 0.5414109230041504 30
-2.4691052436828613 1.3697739839553833 0.4406590163707733 30
-2.4720985889434814 1.371998906135559 0.34245285391807556 30
-2.4851770401000977 1.3798247575759888 0.2453434020280838 30
-2.4821979999542236 1.3787375688552856 0.14680235087871552 30
-2.454355239868164 1.363832950592041 0.04834316298365593 30
-1.7085942029953003 0.9513818025588989 -0.5137560367584229 119
-1.9656667709350586 1.0949747562408447 -0.5106391906738281 119
-2.3572304248809814 1.3136343955993652 -0.5166284441947937 119
-2.461850166320801 1.3725000619888306 -0.440363347530365 119
-2.4865562915802 1.3868427276611328 -0.34489062428474426 30
-2.460533380508423 1.372891902923584 -0.24316489696502686 30
-2.4706075191497803 1.3790783882141113 -0.14579223096370697 30
-2.451500654220581 1.3689743280410767 -0.047860171645879745 30
-2.453662633895874 1.3707435131072998 0.7423267960548401 30
-2.4618051052093506 1.3758561611175537 0.6417497396469116 30
-2.4496452808380127 1.3696212768554688 0.537598192691803 30
-2.447068214416504 1.3687411546707153 0.43753379583358765 30
-2.4499709606170654 1.3709262609481812 0.3400154411792755 30
-2.4629602432250977 1.3787591457366943 0.2436002939939499 30
-2.459944248199463 1.3776346445083618 0.14575563371181488 30
-2.432133913040161 1.3626177310943604 0.047994114458560944 30
-1.7052628993988037 0.9573401212692261 -0.5137560367584229 119
-1.9703280925750732 1.1066008806228638 -0.5128887295722961 119
-2.3397932052612305 1.3146418333053589 -0.5137688517570496 119
-2.4398245811462402 1.3714059591293335 -0.43723466992378235 119
-2.4643971920013428 1.3857841491699219 -0.3424532413482666 30
-2.438361167907715 1.371703863143921 -0.24142178893089294 30
-2.444021224975586 1.375449538230896 -0.14448818564414978 30
-2.4249258041381836 1.365260124206543 -0.04742821678519249 30
-2.4320297241210938 1.369818925857544 0.7371537685394287 30
-2.440009117126465 1.3748741149902344 0.6372541189193726 30
-2.427746534347534 1.3685228824615479 0.5337854623794556 30
-2.4250686168670654 1.367571234703064 0.4344085454940796 30
-2.4278812408447266 1.3697158098220825 0.33757805824279785 30
-2.43644380569458 1.3751070499420166 0.2414214164018631 30
-2.4377284049987793 1.3763933181762695 0.14470891654491425 30
-2.4099512100219727 1.3612644672393799 0.047645069658756256 30
-1.7061136960983276 0.9656656384468079 -0.5150501132011414 119
-1.9664533138275146 1.1134718656539917 -0.5128887295722961 119
-2.3309192657470703 1.3203821182250977 -0.5128157138824463 119
-2.4178366661071777 1.3701750040054321 -0.4341059923171997 119
-2.4422760009765625 1.3845880031585693 -0.34001585841178894 30
-2.4162278175354004 1.370377779006958 -0.23967866599559784 30
-2.4218339920043945 1.3741161823272705 -0.1434449553489685 30
-2.402754545211792 1.3638451099395752 -0.047082655131816864 30
-2.410433769226074 1.3687602281570435 0.7319807410240173 30
-2.4140138626098633 1.3713505268096924 0.6316345930099487 30
-2.4058852195739746 1.3672882318496704 0.5299726724624634 30
-2.403107166290283 1.3662644624710083 0.4312833249568939 30
-2.4058303833007812 1.3683682680130005 0.3351406753063202 30
-2.4143121242523193 1.3737502098083496 0.239678293466568 30
-2.4155519008636475 1.3750137090682983 0.14366218447685242 30
-2.387808084487915 1.35977303981781 0.04729602113366127 30
-1.7027324438095093 0.9716152548789978 -0.5150501132011414 119
-1.962554693222046 1.1203293800354004 -0.5128887295722961 119
-2.3220338821411133 1.3260763883590698 -0.5118624567985535 119
-2.3958873748779297 1.3688074350357056 -0.4309772849082947 119
-2.4201934337615967 1.3832542896270752 -0.3375784754753113 30
-2.3941330909729004 1.368914008140564 -0.23793554306030273 30
-2.399685859680176 1.3726446628570557 -0.14240172505378723 30
-2.3806231021881104 1.3622920513153076 -0.04673709720373154 30
-2.3888745307922363 1.3675674200057983 0.7268077731132507 30
-2.392301082611084 1.3700834512710571 0.6271389722824097 30
-2.3840627670288086 1.3659179210662842 0.526159942150116 30
-2.3811850547790527 1.364821195602417 0.42815807461738586 30
-2.3838181495666504 1.366883397102356 0.33270329236984253 30
-2.3922197818756104 1.3722556829452515 0.23793518543243408 30
-2.3890838623046875 1.3710111379623413 0.14235380291938782 30
-2.3657050132751465 1.3581435680389404 0.046946972608566284 30
-1.6993305683135986 0.9775529503822327 -0.5150501132011414 119
-1.958631992340088 1.1271730661392212 -0.5128887295722961 119
-2.3131370544433594 1.331724762916565 -0.5109092593193054 119
-2.373976945877075 1.3673032522201538 -0.42784860730171204 119
-2.3981504440307617 1.3817834854125977 -0.33514106273651123 30
-2.3720786571502686 1.3673129081726074 -0.23619243502616882 30
-2.377577543258667 1.3710354566574097 -0.14135847985744476 30
-2.3585317134857178 1.3606011867523193 -0.04639153555035591 30
-2.367353677749634 1.366241216659546 0.7216347455978394 30
-2.37062668800354 1.368681788444519 0.6226433515548706 30
-2.362279176712036 1.3644120693206787 0.5223472118377686 30
-2.359302043914795 1.3632416725158691 0.4250328242778778 30
-2.3618462085723877 1.3652616739273071 0.33026590943336487 30
-2.3701674938201904 1.3706235885620117 0.23619207739830017 30
-2.3669955730438232 1.3693407773971558 0.14130708575248718 30
-2.343641996383667 1.3563764095306396 0.046597920358181 30
-1.6959079504013062 0.9834787249565125 -0.5150501132011414 119
-1.9588993787765503 1.136447787284851 -0.5140134692192078 119
-2.304229259490967 1.337327241897583 -0.5099561214447021 119
-2.3521065711975098 1.365662932395935 -0.424719899892807 119
-2.3761470317840576 1.3801757097244263 -0.33270367980003357 30
-2.3543713092803955 1.368077039718628 -0.2348850816488266 30
-2.3555102348327637 1.3692888021469116 -0.1403152495622635 30
-2.3408031463623047 1.3612860441207886 -0.04613236337900162 30
-2.3458709716796875 1.3647812604904175 0.716461718082428 30
-2.348991632461548 1.3671455383300781 0.6181477308273315 30
-2.3405354022979736 1.3627707958221436 0.5185344219207764 30
-2.3374593257904053 1.3615261316299438 0.42190760374069214 30
-2.3399150371551514 1.3635034561157227 0.3278285264968872 30
-2.3481557369232178 1.3688546419143677 0.23444895446300507 30
-2.3449480533599854 1.3675330877304077 0.14026035368442535 30
-2.3259389400482178 1.3569912910461426 0.046336136758327484 30
-1.6924645900726318 0.9893925786018372 -0.5150501132011414 119
-1.9591261148452759 1.1457382440567017 -0.5151382088661194 119
-2.2953104972839355 1.342883586883545 -0.5090028643608093 119
-2.3302767276763916 1.363886833190918 -0.42159122228622437 119
-2.35418438911438 1.3784313201904297 -0.3302662968635559 30
-2.3323898315429688 1.366216778755188 -0.2331419736146927 30
-2.3334836959838867 1.3674046993255615 -0.13927200436592102 30
-2.3187856674194336 1.3593355417251587 -0.04578680172562599 30
-2.324427843093872 1.3631882667541504 0.7112887501716614 30
-2.3273961544036865 1.365475058555603 0.6136521100997925 30
-2.3230648040771484 1.3634787797927856 0.515674889087677 30
-2.315657377243042 1.3596745729446411 0.4187823235988617 30
-2.3180246353149414 1.361608624458313 0.32539111375808716 30
-2.326185464859009 1.3669486045837402 0.23270581662654877 30
-2.3229424953460693 1.3655883073806763 0.13921363651752472 30
-2.3039510250091553 1.3549648523330688 0.0459870882332325 30
-1.6890007257461548 0.9952943325042725 -0.5150501132011414 119
-1.9593114852905273 1.1550438404083252 -0.516262948513031 119
-2.290609121322632 1.3508875370025635 -0.5090028643608093 119
-2.308488368988037 1.3619749546051025 -0.4184625446796417 119
-2.332263231277466 1.376550555229187 -0.32782891392707825 30
-2.3104500770568848 1.3642200231552124 -0.23139885067939758 30
-2.311499834060669 1.3653838634490967 -0.13822877407073975 30
-2.301115036010742 1.3597912788391113 -0.045527633279561996 30
-2.3030247688293457 1.3614623546600342 0.70611572265625 30
-2.3058414459228516 1.3636705875396729 0.6091564893722534 30
-2.301393985748291 1.3615825176239014 0.5118620991706848 30
-2.298147439956665 1.3602032661437988 0.41643840074539185 30
-2.2961761951446533 1.3595778942108154 0.3229537308216095 30
-2.3085434436798096 1.3674447536468506 0.23139849305152893 30
-2.305274724960327 1.3660521507263184 0.13842859864234924 30
-2.2863059043884277 1.3553508520126343 0.045725300908088684 30
-1.6813639402389526 0.9987175464630127 -0.5137560367584229 119
-1.9552676677703857 1.1618762016296387 -0.516262948513031 119
-2.281660795211792 1.3563671112060547 -0.508049726486206 119
-2.2909862995147705 1.3624520301818848 -0.41611599922180176 119
-2.3103837966918945 1.3745335340499878 -0.3253915011882782 30
-2.288553237915039 1.3620867729187012 -0.22965574264526367 30
-2.293848752975464 1.3657807111740112 -0.1374463438987732 30
-2.2791740894317627 1.3575822114944458 -0.04518207535147667 30
-2.2816619873046875 1.3596035242080688 0.7009427547454834 30
-2.284327745437622 1.3617323637008667 0.6046608686447144 30
-2.2797646522521973 1.3595516681671143 0.5080493688583374 30
-2.276420831680298 1.3580961227416992 0.4133131802082062 30
-2.278632164001465 1.3599547147750854 0.32112571597099304 30
-2.286649465560913 1.3652808666229248 0.22965538501739502 30
-2.2833456993103027 1.3638489246368408 0.1373818814754486 30
-2.264394998550415 1.353066086769104 0.0453762523829937 30
-1.6820111274719238 1.00706148147583 -0.5150501132011414 119
-1.955379843711853 1.1711976528167725 -0.5173877477645874 119
-2.276912212371826 1.364323377609253 -0.508049726486206 119
-2.2692737579345703 1.3602845668792725 -0.4129873216152191 119
-2.2928032875061035 1.3749332427978516 -0.32356348633766174 30
-2.2709708213806152 1.3623796701431274 -0.22834838926792145 30
-2.271941900253296 1.3635016679763794 -0.13640311360359192 30
-2.2615630626678467 1.3578096628189087 -0.044922903180122375 30
-2.2644808292388916 1.360099196434021 0.6970629692077637 30
-2.2670319080352783 1.3621699810028076 0.6012891530990601 30
-2.2581779956817627 1.3573864698410034 0.50423663854599 30
-2.25896954536438 1.3583989143371582 0.41096922755241394 30
-2.2568607330322266 1.357667326927185 0.3186883330345154 30
-2.269066333770752 1.3655492067337036 0.228348046541214 30
-2.265737771987915 1.3640847206115723 0.13659684360027313 30
-2.2468109130859375 1.3532243967056274 0.04511446878314018 30
-1.678485631942749 1.0129265785217285 -0.5150501132011414 119
-1.951279640197754 1.1780160665512085 -0.5173877477645874 119
-2.2721359729766846 1.372262954711914 -0.508049726486206 119
-2.251831293106079 1.3605362176895142 -0.41064080595970154 0
-2.2710013389587402 1.372659683227539 -0.3211260735988617 30
-2.2491519451141357 1.3599892854690552 -0.22660528123378754 30
-2.250079393386841 1.3610864877700806 -0.13535988330841064 30
-2.239701509475708 1.3553428649902344 -0.04457734152674675 30
-2.243192434310913 1.3579903841018677 0.6918899416923523 30
-2.2497611045837402 1.3625034093856812 0.597917377948761 30
-2.2408320903778076 1.3576303720474243 0.5013770461082458 30
-2.2373201847076416 1.3560367822647095 0.4078439772129059 30
-2.239377021789551 1.3578178882598877 0.31686028838157654 30
-2.25150990486145 1.3657118082046509 0.22704072296619415 30
-2.2438876628875732 1.3616242408752441 0.1355501264333725 30
-2.224979877471924 1.3506821393966675 0.0447654202580452 30
-1.6749396324157715 1.0187795162200928 -0.5150501132011414 119
-1.9471557140350342 1.1848201751708984 -0.5173877477645874 119
-2.271524429321289 1.3827377557754517 -0.5090028643608093 119
-2.234414577484131 1.360682487487793 -0.40829429030418396 0
-2.2492430210113525 1.3702508211135864 -0.31868869066238403 30
-2.2273776531219482 1.3574633598327637 -0.22486215829849243 30
-2.2325243949890137 1.3611345291137695 -0.1345774382352829 30
-2.2221527099609375 1.3553431034088135 -0.044318173080682755 30
-2.2219467163085938 1.355749487876892 0.6867169141769409 30
-2.2283573150634766 1.3601948022842407 0.5934218168258667 30
-2.21932315826416 1.3552122116088867 0.49756428599357605 30
-2.2199301719665527 1.3561146259307861 0.4055000841617584 30
-2.2176856994628906 1.3552751541137695 0.3144228756427765 30
-2.2339797019958496 1.365768313407898 0.22573336958885193 30
-2.226341962814331 1.3616329431533813 0.13476508855819702 30
-2.207458257675171 1.350612998008728 0.04450363293290138 30
-1.6754907369613647 1.027144193649292 -0.5163442492485046 119
-1.9430079460144043 1.1916097402572632 -0.5173877477645874 119
-2.2541329860687256 1.3829582929611206 -0.50614333152771 119
-2.217024564743042 1.3607240915298462 -0.4059477746486664 0
-2.227529764175415 1.3677070140838623 -0.31625130772590637 30
-2.20564866065979 1.3548020124435425 -0.22311905026435852 30
-2.210742712020874 1.3584625720977783 -0.13353420794010162 30
-2.2003724575042725 1.3526192903518677 -0.04397260770201683 30
-2.2048580646514893 1.3559070825576782 0.682837188243866 30
-2.211146593093872 1.3603063821792603 0.5900501012802124 30
-2.2020390033721924 1.3552329540252686 0.4947047531604767 30
-2.1983611583709717 1.3534985780715942 0.40237483382225037 30
-2.2002646923065186 1.355200171470642 0.31259486079216003 30
-2.2164769172668457 1.3657194375991821 0.2244260460138321 30
-2.204573392868042 1.3589156866073608 0.1337183564901352 30
-2.189964532852173 1.3504383563995361 0.04424184560775757 30
-1.680112361907959 1.038063406944275 -0.5189324021339417 119
-1.9346922636032104 1.1958231925964355 -0.516262948513031 119
-2.224243640899658 1.3753299713134766 -0.5004242062568665 119
-2.1996614933013916 1.3606606721878052 -0.4036012589931488 0
-2.2100818157196045 1.3676397800445557 -0.31442326307296753 30
-2.1882007122039795 1.3546276092529297 -0.2218116968870163 30
-2.1932520866394043 1.3582843542099 -0.13275177776813507 30
-2.1828882694244385 1.3523931503295898 -0.043713439255952835 30
-2.1836905479431152 1.3534176349639893 0.6776641607284546 30
-2.18982195854187 1.3577468395233154 0.5855544805526733 30
-2.1806106567382812 1.352562665939331 0.4908919930458069 30
-2.1810338497161865 1.3533523082733154 0.40003088116645813 30
-2.178654909133911 1.352402925491333 0.31015744805336 30
-2.1990015506744385 1.3655648231506348 0.22311870753765106 30
-2.1870923042297363 1.3586982488632202 0.13293331861495972 30
-2.172499179840088 1.3501579761505127 0.04398006200790405 30
-1.6844950914382935 1.0493215322494507 -0.5215205550193787 119
-1.9302964210510254 1.2029062509536743 -0.516262948513031 119
-2.2025272846221924 1.3730865716934204 -0.49661147594451904 119
-2.177898406982422 1.3582603931427002 -0.4004725515842438 0
-2.1882123947143555 1.3652234077453613 -0.31198588013648987 30
-2.1663191318511963 1.352089524269104 -0.2200685739517212 30
-2.1713173389434814 1.3557358980178833 -0.1317085474729538 30
-2.165196657180786 1.352439284324646 -0.04345426708459854 30
-2.1664276123046875 1.353734016418457 0.6737844347953796 30
-2.1724369525909424 1.3580162525177002 0.582182765007019 30
-2.163153886795044 1.3527384996414185 0.48803240060806274 30
-2.163498640060425 1.353479266166687 0.3976869285106659 30
-2.1610634326934814 1.3524807691574097 0.30832943320274353 30
-2.1770946979522705 1.3630427122116089 0.22137558460235596 30
-2.169403076171875 1.35875403881073 0.13214828073978424 30
-2.1548268795013428 1.3501484394073486 0.04371827468276024 30
-1.6849123239517212 1.0577630996704102 -0.5228146910667419 119
-1.9219602346420288 1.2070460319519043 -0.5151382088661194 119
-2.181096315383911 1.3703216314315796 -0.49279871582984924 119
-2.160600423812866 1.3579707145690918 -0.3981260061264038 0
-2.1708295345306396 1.3649284839630127 -0.31015780568122864 30
-2.148937463760376 1.3516871929168701 -0.21876125037670135 30
-2.1538937091827393 1.355329155921936 -0.13092611730098724 30
-2.1477701663970947 1.351999282836914 -0.043195098638534546 30
-2.145340919494629 1.350993037223816 0.6686114072799683 30
-2.1511945724487305 1.355203628540039 0.57768714427948 30
-2.1418087482452393 1.3498131036758423 0.48421967029571533 30
-2.1420505046844482 1.3504878282546997 0.3945617079734802 30
-2.139538526535034 1.349426031112671 0.30589205026626587 30
-2.1596858501434326 1.3626600503921509 0.22006824612617493 30
-2.151979684829712 1.3583229780197144 0.13136324286460876 30
-2.137416362762451 1.3496602773666382 0.04345649108290672 30
-1.701804518699646 1.076251745223999 -0.5292851328849792 119
-1.918158769607544 1.2130781412124634 -0.5151382088661194 119
-2.160189151763916 1.3666702508926392 -0.48898595571517944 119
-2.139631986618042 1.3541876077651978 -0.39499732851982117 0
-2.153952121734619 1.3637773990631104 -0.3083297908306122 30
-2.132056713104248 1.350435733795166 -0.21745391190052032 30
-2.1369717121124268 1.3540714979171753 -0.1301436871290207 30
-2.130844831466675 1.350710391998291 -0.04293592646718025 30
-2.128849506378174 1.3499664068222046 0.6647316217422485 30
-2.1345841884613037 1.3541253805160522 0.5743153691291809 30
-2.125124931335449 1.3486450910568237 0.4813600778579712 30
-2.1252896785736084 1.3492698669433594 0.3922177851200104 30
-2.122720956802368 1.3481590747833252 0.30406397581100464 30
-2.138577461242676 1.3587535619735718 0.21832512319087982 30
-2.1350598335266113 1.3570417165756226 0.1305782049894333 30
-2.1205129623413086 1.3483154773712158 0.04319470375776291 30
-1.6819331645965576 1.0715093612670898 -0.5241087675094604 119
-1.909804105758667 1.2171478271484375 -0.5140134692192078 119
-2.14298939704895 1.3662863969802856 -0.4861263632774353 119
-2.122400999069214 1.353681206703186 -0.392650842666626 0
-2.136627435684204 1.3632795810699463 -0.30650171637535095 30
-2.114734172821045 1.349829912185669 -0.2161465734243393 30
-2.1196069717407227 1.3534609079360962 -0.12936127185821533 30
-2.113477945327759 1.3500666618347168 -0.04267675802111626 30
-2.11191463470459 1.3495869636535645 0.6608518362045288 30
-2.11342453956604 1.3510715961456299 0.5698198080062866 30
-2.1038644313812256 1.3454772233963013 0.4775473177433014 30
-2.108086347579956 1.3486956357955933 0.38987383246421814 30
-2.1054623126983643 1.3475348949432373 0.3022359609603882 30
-2.12123703956604 1.358152985572815 0.21701779961585999 30
-2.1134915351867676 1.3537137508392334 0.12953148782253265 30
-2.103166103363037 1.3476179838180542 0.04293292015790939 30
-1.6778064966201782 1.077959656715393 -0.5241087675094604 119
-1.9051164388656616 1.2244718074798584 -0.5140134692192078 119
-2.12121319770813 1.3638865947723389 -0.4823136329650879 119
-2.100574016571045 1.3511343002319336 -0.38952213525772095 30
-2.1188571453094482 1.3634172677993774 -0.3046737015247345 30
-2.096970796585083 1.3498517274856567 -0.21483923494815826 30
-2.1018002033233643 1.3534793853759766 -0.12857884168624878 30
-2.095670223236084 1.3500494956970215 -0.04241758584976196 30
-2.0945377349853516 1.349837064743042 0.6569721102714539 30
-2.0959370136260986 1.3512568473815918 0.5664480924606323 30
-2.086308240890503 1.345564603805542 0.474687784910202 30
-2.0904428958892822 1.3487478494644165 0.3875299394130707 30
-2.087763786315918 1.3475356101989746 0.30040791630744934 30
-2.1034531593322754 1.3581823110580444 0.21571046113967896 30
-2.0956952571868896 1.3536913394927979 0.12874644994735718 30
-2.085379123687744 1.347543716430664 0.04267112910747528 30
-1.669979453086853 1.081184983253479 -0.5228146910667419 119
-1.8967417478561401 1.228466272354126 -0.5128887295722961 119
-2.104081630706787 1.3632757663726807 -0.47945404052734375 119
-2.0834124088287354 1.3504002094268799 -0.38717561960220337 30
-2.105756998062134 1.3654050827026367 -0.30345502495765686 30
-2.079709768295288 1.3490314483642578 -0.21353191137313843 30
-2.0886857509613037 1.3553717136383057 -0.12805721163749695 30
-2.0783658027648926 1.349190592765808 -0.04215841740369797 30
-2.073610305786133 1.3466181755065918 0.6517991423606873 30
-2.0789506435394287 1.3506020307540894 0.563076376914978 30
-2.0692520141601562 1.3448148965835571 0.4718281924724579 30
-2.073300838470459 1.3479610681533813 0.38518598675727844 30
-2.0705666542053223 1.3466975688934326 0.2985799014568329 30
-2.086174488067627 1.3573670387268066 0.21440313756465912 30
-2.0784029960632324 1.3528269529342651 0.1279614120721817 30
-2.0680909156799316 1.3466367721557617 0.04240934178233147 30
-1.666195273399353 1.087007761001587 -0.5228146910667419 119
-1.8965215682983398 1.2377421855926514 -0.5140134692192078 119
-2.0828704833984375 1.3598788976669312 -0.47564128041267395 119
-2.066282272338867 1.3495631217956543 -0.3848291039466858 30
-2.0885140895843506 1.3646036386489868 -0.30162695050239563 30
-2.0624802112579346 1.348107099533081 -0.2122245579957962 30
-2.0714046955108643 1.3544565439224243 -0.1272747963666916 30
-2.0610923767089844 1.3482270240783691 -0.041899245232343674 30
-2.0567727088928223 1.3459141254425049 0.6479193568229675 30
-2.061994791030884 1.349845290184021 0.5597046613693237 30
-2.0522267818450928 1.3439626693725586 0.4689686596393585 30
-2.056190013885498 1.3470710515975952 0.382842093706131 30
-2.057551860809326 1.3484764099121094 0.29736119508743286 30
-2.068927049636841 1.3564478158950806 0.2130957841873169 30
-2.0611424446105957 1.3518582582473755 0.12717635929584503 30
-2.0550215244293213 1.3483569622039795 0.04223481938242912 30
-1.6623905897140503 1.0928171873092651 -0.5228146910667419 119
-1.892189621925354 1.2443547248840332 -0.5140134692192078 119
-2.0658092498779297 1.3590483665466309 -0.4727817475795746 119
-2.0533082485198975 1.3513376712799072 -0.38326478004455566 30
-2.071303129196167 1.3636988401412964 -0.2997989356517792 30
-2.0494420528411865 1.3498187065124512 -0.21135300397872925 30
-2.0541555881500244 1.3534371852874756 -0.12649236619472504 30
-2.043850898742676 1.3471593856811523 -0.04164007306098938 30
-2.0399656295776367 1.345109224319458 0.6440396308898926 30
-2.045069456100464 1.3489867448806763 0.5563329458236694 30
-2.0352327823638916 1.343008041381836 0.4661090672016144 30
-2.0391106605529785 1.3460779190063477 0.38049814105033875 30
-2.0404083728790283 1.3474459648132324 0.295533150434494 30
-2.0517115592956543 1.3554246425628662 0.21178844571113586 30
-2.0439140796661377 1.3507859706878662 0.12639133632183075 30
-2.0377919673919678 1.3472509384155273 0.04197303578257561 30
-1.658565878868103 1.0986133813858032 -0.5228146910667419 119
-1.8918957710266113 1.2536433935165405 -0.5151382088661194 119
-2.0487794876098633 1.358115315437317 -0.46992215514183044 119
-2.036231517791748 1.350308895111084 -0.3809182345867157 30
-2.0582594871520996 1.365433692932129 -0.29858022928237915 30
-2.0322673320770264 1.3487015962600708 -0.21004565060138702 30
-2.0369389057159424 1.3523141145706177 -0.12570993602275848 30
-2.0266430377960205 1.3459882736206055 -0.041380904614925385 30
-2.023189067840576 1.3442033529281616 0.6401598453521729 30
-2.0281755924224854 1.3480266332626343 0.5529612302780151 30
-2.018270492553711 1.3419511318206787 0.46324947476387024 30
-2.0220634937286377 1.3449821472167969 0.3781541883945465 30
-2.0232975482940674 1.346312403678894 0.2937051057815552 30
-2.0345287322998047 1.3542981147766113 0.21048112213611603 30
-2.0267183780670166 1.349609613418579 0.12560628354549408 30
-2.020594835281372 1.346040964126587 0.04171124845743179 30
-1.6547210216522217 1.104396104812622 -0.5228146910667419 119
-1.8875082731246948 1.2602397203445435 -0.5151382088661194 119
-2.0317819118499756 1.357080101966858 -0.4670626223087311 119
-2.0191872119903564 1.3491774797439575 -0.37857168912887573 30
-2.041102886199951 1.3643364906311035 -0.2967521846294403 30
-2.0151255130767822 1.34748113155365 -0.2087383270263672 30
-2.0197556018829346 1.3510873317718506 -0.12492751330137253 30
-2.009467601776123 1.3447133302688599 -0.04112173244357109 30
-2.006444215774536 1.3431971073150635 0.6362801194190979 30
-2.0113131999969482 1.3469650745391846 0.5495895147323608 30
-2.001340627670288 1.3407925367355347 0.4603899419307709 30
-2.005048990249634 1.343783974647522 0.37581026554107666 30
-2.0103416442871094 1.347839593887329 0.29248639941215515 30
-2.017378807067871 1.3530681133270264 0.2091737687587738 30
-2.013702392578125 1.3511120080947876 0.12508292496204376 30
-2.003431558609009 1.344727635383606 0.04144946485757828 30
-1.6508557796478271 1.1101654767990112 -0.5228146910667419 119
-1.8830976486206055 1.2668205499649048 -0.5151382088661194 119
-2.0148160457611084 1.355942726135254 -0.46420302987098694 119
-2.0021755695343018 1.347943663597107 -0.37622520327568054 30
-2.0239791870117188 1.3631360530853271 -0.29492413997650146 30
-2.002147912979126 1.3489408493041992 -0.20786677300930023 30
-2.0067458152770996 1.3525480031967163 -0.12440589815378189 30
-1.9964712858200073 1.3461297750473022 -0.04094895347952843 30
-1.9897308349609375 1.3420902490615845 0.6324003338813782 30
-1.9985219240188599 1.3485273122787476 0.5473417043685913 30
-1.9844434261322021 1.3395318984985352 0.45753034949302673 30
-1.992160439491272 1.3452471494674683 0.37424764037132263 30
-1.9932876825332642 1.3465149402618408 0.2906583845615387 30
-2.0043892860412598 1.3545238971710205 0.20830221474170685 30
-1.996564269065857 1.3497434854507446 0.12429789453744888 30
-1.9863018989562988 1.3433109521865845 0.041187677532434464 30
-1.6509687900543213 1.118630290031433 -0.5241087675094604 119
-1.8786641359329224 1.2733861207962036 -0.5151382088661194 119
-1.9978832006454468 1.354703426361084 -0.4613434374332428 119
-1.9851974248886108 1.3466075658798218 -0.3738786578178406 30
-2.0068893432617188 1.361833095550537 -0.2930960953235626 30
-1.9850635528564453 1.3475285768508911 -0.206559419631958 30
-1.9896199703216553 1.3511290550231934 -0.12362346053123474 30
-1.979354739189148 1.3446629047393799 -0.04068978503346443 30
-1.9730498790740967 1.3408831357955933 0.6285205483436584 30
-1.9817149639129639 1.3472776412963867 0.543969988822937 30
-1.9675798416137695 1.338169813156128 0.45467081665992737 30
-1.975203037261963 1.3438587188720703 0.3719037175178528 30
