# .PCD v0.7 - Point Cloud Data file format
VERSION 0.7
FIELDS x y z intensity
SIZE 4 4 4 4
TYPE F F F F
COUNT 1 1 1 1
WIDTH 787
HEIGHT 1
VIEWPOINT 0 0 0 1 0 0 0
POINTS 787
DATA ascii
0.2466212958097458 -7.676894664764404 -0.9383949637413025 111
0.2445879429578781 -7.6552324295043945 -0.6667424440383911 111
0.24336989223957062 -7.658989906311035 -0.3982553482055664 111
0.24248334765434265 -7.673279285430908 -0.13200421631336212 111
0.15670379996299744 -4.986389636993408 1.325583577156067 114
0.16296738386154175 -5.2146897315979 1.1947109699249268 114
0.16904789209365845 -5.439664840698242 1.0494604110717773 114
0.1764499992132187 -5.7099504470825195 0.8977255821228027 114
0.1764581799507141 -5.742680072784424 0.7007486820220947 114
0.23450742661952972 -7.67548131942749 0.6684845089912415 111
0.2329767942428589 -7.669234275817871 0.40010836720466614 111
0.23116478323936462 -7.653599262237549 0.13298733532428741 111
0.057050224393606186 -1.9451168775558472 -0.5111678242683411 119
0.06571555882692337 -2.253983974456787 -0.5117639303207397 119
0.22220709919929504 -7.667440414428711 -1.4822088479995728 111
0.2206541746854782 -7.6600260734558105 -1.2076750993728638 111
0.21968039870262146 -7.67274808883667 -0.9377856254577637 111
0.21772301197052002 -7.651061058044434 -0.6663066744804382 111
0.21649236977100372 -7.654801368713379 -0.3979945182800293 111
0.21555666625499725 -7.669081687927246 -0.1319178342819214 111
0.13929708302021027 -4.9869065284729 1.325583577156067 114
0.14462853968143463 -5.210356712341309 1.193587064743042 114
0.15005889534950256 -5.440222263336182 1.0494604110717773 114
0.15651747584342957 -5.710531711578369 0.8977255821228027 114
0.15627628564834595 -5.73829984664917 0.7001393437385559 114
0.2075788527727127 -7.671274185180664 0.6680487990379333 111
0.20620474219322205 -7.670001029968262 0.40010836720466614 111
0.20444732904434204 -7.654359340667725 0.13298733532428741 111
0.050384894013404846 -1.9501322507858276 -0.5124619007110596 119
0.057972267270088196 -2.2590701580047607 -0.5128887295722961 119
0.1954413801431656 -7.668169021606445 -1.4822088479995728 111
0.19378939270973206 -7.655813217163086 -1.2068928480148315 111
0.19289617240428925 -7.673468589782715 -0.9377856254577637 111
0.19101451337337494 -7.6517744064331055 -0.6663066744804382 111
0.18977080285549164 -7.655510425567627 -0.3979945182800293 111
0.18878525495529175 -7.6697869300842285 -0.1319178342819214 111
0.12177066504955292 -4.9825334548950195 1.3242902755737305 114
0.1264401227235794 -5.210829734802246 1.193587064743042 114
0.13106805086135864 -5.440712928771973 1.0494604110717773 114
0.13658303022384644 -5.711042881011963 0.8977255821228027 114
0.13624492287635803 -5.7388105392456055 0.7001393437385559 114
0.18079984188079834 -7.671952247619629 0.6680487990379333 111
0.17931343615055084 -7.665682792663574 0.3998467028141022 111
0.17772738635540009 -7.655026435852051 0.13298733532428741 111
0.04357735440135002 -1.9502962827682495 -0.5124619007110596 119
0.04997830465435982 -2.254387855529785 -0.5117639303207397 119
0.16856536269187927 -7.66389799118042 -1.4812556505203247 111
0.16706444323062897 -7.656442642211914 -1.2068928480148315 111
0.16600219905376434 -7.66913366317749 -0.9371763467788696 111
0.16419672966003418 -7.647414684295654 -0.6658709049224854 111
0.1630469262599945 -7.656126499176025 -0.3979945182800293 111
0.16190598905086517 -7.665401458740234 -0.13183143734931946 111
0.1043776422739029 -4.9829277992248535 1.3242902755737305 114
0.10825015604496002 -5.211239814758301 1.193587064743042 114
0.11207563430070877 -5.441137313842773 1.0494604110717773 114
0.11664695292711258 -5.711484909057617 0.8977255821228027 114
0.1162119209766388 -5.739251136779785 0.7001393437385559 114
0.15391865372657776 -7.6675567626953125 0.6676129698753357 111
0.15255412459373474 -7.666261672973633 0.3998467028141022 111
0.15090669691562653 -7.650601863861084 0.13290005922317505 111
0.03686032071709633 -1.9552654027938843 -0.5137560367584229 119
0.04210871830582619 -2.2545485496520996 -0.5117639303207397 119
0.14181233942508698 -7.664439678192139 -1.4812556505203247 111
0.14024695754051208 -7.652041912078857 -1.2061107158660889 111
0.13923092186450958 -7.669666290283203 -0.9371763467788696 111
0.1375012844800949 -7.6479411125183105 -0.6658709049224854 111
0.1363210678100586 -7.656649112701416 -0.3979945182800293 111
0.13514775037765503 -7.665919780731201 -0.13183143734931946 111
0.0869833379983902 -4.983262062072754 1.3242902755737305 114
0.09005887806415558 -5.211585998535156 1.193587064743042 114
0.09308183938264847 -5.441495418548584 1.0494604110717773 114
0.09670943766832352 -5.711857318878174 0.8977255821228027 114
0.09617748111486435 -5.739621639251709 0.7001393437385559 114
0.1271529644727707 -7.668046951293945 0.6676129698753357 111
0.1257929503917694 -7.666747570037842 0.3998467028141022 111
0.12420019507408142 -7.6510820388793945 0.13290005922317505 111
0.03045123629271984 -1.9602057933807373 -0.5150501132011414 119
0.03502564877271652 -2.254669666290283 -0.5117639303207397 119
0.11765773594379425 -7.659939289093018 -1.4803024530410767 111
0.11620670557022095 -7.652444839477539 -1.2061107158660889 111
0.1151353120803833 -7.670065879821777 -0.9371763467788696 111
0.11347392946481705 -7.6483354568481445 -0.6658709049224854 111
0.11226636916399002 -7.657039165496826 -0.3979945182800293 111
0.11106393486261368 -7.666306495666504 -0.13183143734931946 111
0.07125843316316605 -4.978681564331055 1.322996973991394 114
0.07368578016757965 -5.2118425369262695 1.193587064743042 114
0.07598643749952316 -5.441761016845703 1.0494604110717773 114
0.0787646546959877 -5.712132930755615 0.8977255821228027 114
0.07807792723178864 -5.734932899475098 0.6995300054550171 114
0.10299554467201233 -7.66342830657959 0.6671772003173828 111
0.10170656442642212 -7.667104721069336 0.3998467028141022 111
0.100163035094738 -7.651434898376465 0.13290005922317505 111
0.023950792849063873 -1.9602960348129272 -0.5150501132011414 119
0.02709650620818138 -2.2499070167541504 -0.5106391906738281 119
0.09091884642839432 -7.660303115844727 -1.4803024530410767 111
0.08949398249387741 -7.652803897857666 -1.2061107158660889 111
0.08830391615629196 -7.665458679199219 -0.936566948890686 111
0.08677557110786438 -7.648684501647949 -0.6658709049224854 111
0.08548185974359512 -7.6523919105529785 -0.39773374795913696 111
0.0843028575181961 -7.666647434234619 -0.13183143734931946 111
0.053879156708717346 -4.978899955749512 1.322996973991394 114
0.05549260973930359 -5.2120680809021 1.193587064743042 114
0.056990690529346466 -5.44199275970459 1.0494604110717773 114
0.058825112879276276 -5.71237325668335 0.8977255821228027 114
0.05805879831314087 -5.735170841217041 0.6995300054550171 114
0.07624456286430359 -7.663741111755371 0.6671772003173828 111
0.07489394396543503 -7.662420272827148 0.3995850086212158 111
0.07340594381093979 -7.646738529205322 0.13281279802322388 111
0.016765788197517395 -1.9603705406188965 -0.5150501132011414 119
0.01885000243782997 -2.2499911785125732 -0.5106391906738281 119
0.06284182518720627 -7.660585403442383 -1.4803024530410767 111
0.06144445762038231 -7.653080463409424 -1.2061107158660889 111
0.06020801141858101 -7.665730953216553 -0.936566948890686 111
0.058702901005744934 -7.643970489501953 -0.6654351353645325 111
0.057433873414993286 -7.652654647827148 -0.39773374795913696 111
0.05616597458720207 -7.661905765533447 -0.13174505531787872 111
0.03563021495938301 -4.979063510894775 1.322996973991394 114
0.036389049142599106 -5.2122368812561035 1.193587064743042 114
0.037044405937194824 -5.442164897918701 1.0494604110717773 114
0.037887826561927795 -5.712550640106201 0.8977255821228027 114
0.03703795745968819 -5.735344886779785 0.6995300054550171 114
0.0481550395488739 -7.663969039916992 0.6671772003173828 111
0.046809274703264236 -7.662642955780029 0.3995850086212158 111
0.045378752052783966 -7.646956443786621 0.13281279802322388 111
0.00992271676659584 -1.9604171514511108 -0.5150501132011414 119
0.010995951481163502 -2.2500433921813965 -0.5106391906738281 119
0.03610100597143173 -7.660758018493652 -1.4803024530410767 111
0.034729842096567154 -7.653248310089111 -1.2061107158660889 111
0.03344925493001938 -7.665894031524658 -0.936566948890686 111
0.03202010691165924 -7.644129276275635 -0.6654351353645325 111
0.03070072829723358 -7.647814750671387 -0.39747291803359985 111
0.02942059189081192 -7.662055015563965 -0.13174505531787872 111
0.01824982278048992 -4.9791579246521 1.322996973991394 114
0.01817771978676319 -5.207459926605225 1.1924631595611572 114
0.018047478049993515 -5.442261219024658 1.0494604110717773 114
0.017931556329131126 -5.707709312438965 0.8969442248344421 114
0.01701764203608036 -5.735439300537109 0.6995300054550171 114
0.021388592198491096 -7.659109592437744 0.6667414307594299 111
0.020048299804329872 -7.657766342163086 0.39932331442832947 111
0.01868561841547489 -7.647068023681641 0.13281279802322388 111
0.0030795230995863676 -1.960439920425415 -0.5150501132011414 119
0.0031417685095220804 -2.250067949295044 -0.5106391906738281 119
0.009353755973279476 -7.655929088592529 -1.4793492555618286 111
0.008009640499949455 -7.648384094238281 -1.2053285837173462 111
0.006685755215585232 -7.661001205444336 -0.9359576106071472 111
0.005336923524737358 -7.64419412612915 -0.6654351353645325 111
0.004004687070846558 -7.6478753089904785 -0.39747291803359985 111
0.002673105336725712 -7.657112121582031 -0.1316586583852768 111
0.0008692076662555337 -4.979191303253174 1.322996973991394 114
1.828351940957873e-07 -5.207491397857666 1.1924631595611572 114
-0.000949667883105576 -5.442291259765625 1.0494604110717773 114
-0.0019921755883842707 -5.707736968994141 0.8969442248344421 114
-0.0030002824496477842 -5.730501174926758 0.6989206075668335 114
-0.00534681836143136 -7.65913724899292 0.6667414307594299 111
-0.006682415027171373 -7.657789707183838 0.39932331442832947 111
-0.008002509362995625 -7.642087459564209 0.1327255517244339 111
-0.00376370782032609 -1.9604387283325195 -0.5150501132011414 119
-0.004712453577667475 -2.2500650882720947 -0.5106391906738281 119
-0.01737048104405403 -7.655915260314941 -1.4793492555618286 111
-0.018688250333070755 -7.648365497589111 -1.2053285837173462 111
-0.020056169480085373 -7.660977840423584 -0.9359576106071472 111
-0.021346326917409897 -7.644166469573975 -0.6654351353645325 111
-0.022676588967442513 -7.642848968505859 -0.39721211791038513 111
-0.02405521832406521 -7.657074928283691 -0.1316586583852768 111
-0.01651141792535782 -4.979164123535156 1.322996973991394 114
-0.018177354708313942 -5.207459926605225 1.1924631595611572 114
-0.019928812980651855 -5.4373459815979 1.0485070943832397 114
-0.02191588468849659 -5.707695484161377 0.8969442248344421 114
-0.02300344407558441 -5.73045539855957 0.6989206075668335 114
-0.03206130117177963 -7.6540913581848145 0.666305661201477 111
-0.03341304883360863 -7.657719612121582 0.39932331442832947 111
-0.034678325057029724 -7.642013072967529 0.1327255517244339 111
-0.010580762289464474 -1.955584168434143 -0.5137560367584229 119
-0.01256661769002676 -2.250035047531128 -0.5106391906738281 119
-0.0440945066511631 -7.655807971954346 -1.4793492555618286 111
-0.04538591578602791 -7.648253917694092 -1.2053285837173462 111
-0.046797849237918854 -7.660861015319824 -0.9359576106071472 111
-0.04799801856279373 -7.639064311981201 -0.6649993062019348 111
-0.04935497045516968 -7.642723560333252 -0.39721211791038513 111
-0.05078325420618057 -7.656944274902344 -0.1316586583852768 111
-0.033891841769218445 -4.979075908660889 1.322996973991394 114
-0.0363546721637249 -5.207364559173584 1.1924631595611572 114
-0.038908571004867554 -5.437243461608887 1.0485070943832397 114
-0.04183932766318321 -5.707583904266357 0.8969442248344421 114
-0.043006327003240585 -5.730340480804443 0.6989206075668335 114
-0.05877887085080147 -7.653932571411133 0.666305661201477 111
-0.060104064643383026 -7.652564525604248 0.3990616500377655 111
-0.061353713274002075 -7.641845226287842 0.1327255517244339 111
-0.01740696094930172 -1.9555352926254272 -0.5137560367584229 119
-0.020464841276407242 -2.2548489570617676 -0.5117639303207397 119
-0.0708179920911789 -7.655607223510742 -1.4793492555618286 111
-0.07208302617073059 -7.6480488777160645 -1.2053285837173462 111
-0.07353895902633667 -7.660651206970215 -0.9359576106071472 111
-0.07466303557157516 -7.638850212097168 -0.6649993062019348 111
-0.07603275030851364 -7.642504692077637 -0.39721211791038513 111
-0.07751066237688065 -7.656720161437988 -0.1316586583852768 111
-0.05127185210585594 -4.9789276123046875 1.322996973991394 114
-0.05453154444694519 -5.207205772399902 1.1924631595611572 114
-0.05788785219192505 -5.437074661254883 1.0485070943832397 114
-0.0617622546851635 -5.707403182983398 0.8969442248344421 114
-0.06300868093967438 -5.7301554679870605 0.6989206075668335 114
-0.085495725274086 -7.653680801391602 0.666305661201477 111
-0.08681612461805344 -7.652307510375977 0.3990616500377655 111
-0.08797077089548111 -7.6365861892700195 0.13263827562332153 111
-0.02429279312491417 -1.960291862487793 -0.5150501132011414 119
-0.02809073030948639 -2.2352778911590576 -0.5072649121284485 119
-0.09747807681560516 -7.650404930114746 -1.4783960580825806 111
-0.09871547669172287 -7.642812252044678 -1.204546332359314 111
-0.10027917474508286 -7.660347938537598 -0.9359576106071472 111
-0.10132714360952377 -7.638543128967285 -0.6649993062019348 111
-0.10270961374044418 -7.642192840576172 -0.39721211791038513 111
-0.1041690781712532 -7.65140438079834 -0.13157227635383606 111
-0.0686512440443039 -4.978717803955078 1.322996973991394 114
-0.07270774990320206 -5.206984043121338 1.1924631595611572 114
-0.07679704576730728 -5.431931018829346 1.0475538969039917 114
-0.08168443292379379 -5.707152843475342 0.8969442248344421 114
-0.08301027864217758 -5.729900360107422 0.6989206075668335 114
-0.11221153289079666 -7.653336048126221 0.666305661201477 111
-0.11352713406085968 -7.651957988739014 0.3990616500377655 111
-0.11462689936161041 -7.636232376098633 0.13263827562332153 111
-0.03105863928794861 -1.9553661346435547 -0.5137560367584229 119
-0.036518923938274384 -2.2741358280181885 -0.516262948513031 119
-0.12418238818645477 -7.650018215179443 -1.4783960580825806 111
-0.12539327144622803 -7.642421245574951 -1.204546332359314 111
-0.12693588435649872 -7.654988765716553 -0.9353482127189636 111
-0.1279900223016739 -7.6381425857543945 -0.6649993062019348 111
-0.12938521802425385 -7.641787528991699 -0.39721211791038513 111
-0.130876824259758 -7.650994300842285 -0.13157227635383606 111
-0.08602979779243469 -4.978448390960693 1.322996973991394 114
-0.0907980352640152 -5.201826572418213 1.191339135169983 114
-0.09575755894184113 -5.4316301345825195 1.0475538969039917 114
-0.1016056165099144 -5.706833362579346 0.8969442248344421 114
-0.10292164981365204 -5.724614143371582 0.6983113288879395 114
-0.1388355791568756 -7.6479172706604 0.6658698916435242 111
-0.1402367651462555 -7.651515007019043 0.3990616500377655 111
-0.1412816196680069 -7.6357855796813965 0.13263827562332153 111
-0.03816462680697441 -1.9697319269180298 -0.5176383256912231 119
-0.04407600685954094 -2.2545108795166016 -0.5117639303207397 119
-0.1508851796388626 -7.649538040161133 -1.4783960580825806 0
-0.15206952393054962 -7.641936779022217 -1.204546332359314 111
-0.153656005859375 -7.654499053955078 -0.9353482127189636 111
-0.15465132892131805 -7.6376495361328125 -0.6649993062019348 111
-0.15595728158950806 -7.63629674911499 -0.396951287984848 111
-0.15758298337459564 -7.650490760803223 -0.13157227635383606 111
-0.10330699384212494 -4.973288536071777 1.3217036724090576 114
-0.1089552491903305 -5.201478004455566 1.191339135169983 114
-0.11471690237522125 -5.431262969970703 1.0475538969039917 114
-0.12152555584907532 -5.706443786621094 0.8969442248344421 114
-0.12290365993976593 -5.724219799041748 0.6983113288879395 114
-0.1655309498310089 -7.647386074066162 0.6658698916435242 111
-0.166944682598114 -7.6509785652160645 0.3990616500377655 111
-0.1679346263408661 -7.6352458000183105 0.13263827562332153 111
-0.04448797181248665 -1.9454448223114014 -0.5111678242683411 119
-0.05183323100209236 -2.2494730949401855 -0.5106391906738281 119
-0.1775861233472824 -7.648964881896973 -1.4783960580825806 0
-0.17874392867088318 -7.641359806060791 -1.204546332359314 111
-0.18037424981594086 -7.653915882110596 -0.9353482127189636 111
-0.1813107579946518 -7.637063026428223 -0.6649993062019348 111
-0.18261198699474335 -7.635705947875977 -0.396951287984848 111
-0.18428722023963928 -7.6498942375183105 -0.13157227635383606 111
-0.12066637724637985 -4.972897529602051 1.3217036724090576 114
-0.12711113691329956 -5.201066017150879 1.191339135169983 114
-0.13367484509944916 -5.430829048156738 1.0475538969039917 114
-0.14144402742385864 -5.705984592437744 0.8969442248344421 114
-0.14288416504859924 -5.723756313323975 0.6983113288879395 114
-0.19209910929203033 -7.641782760620117 0.6654340624809265 111
-0.19365055859088898 -7.6503496170043945 0.3990616500377655 111
-0.19445820152759552 -7.629615306854248 0.13255101442337036 111
-0.05166037008166313 -1.9597615003585815 -0.5150501132011414 119
nan nan nan 0
-0.2042849212884903 -7.648298740386963 -1.4783960580825806 0
-0.20541617274284363 -7.640688896179199 -1.204546332359314 111
-0.20695607364177704 -7.648279190063477 -0.9347388744354248 111
-0.20796796679496765 -7.636383533477783 -0.6649993062019348 111
-0.20926445722579956 -7.635022163391113 -0.396951287984848 111
-0.21098920702934265 -7.649203777313232 -0.13157227635383606 111
-0.13802428543567657 -4.972445964813232 1.3217036724090576 114
-0.14526546001434326 -5.20059061050415 1.191339135169983 114
-0.15263116359710693 -5.4303297996521 1.0475538969039917 114
-0.16136077046394348 -5.705456256866455 0.8969442248344421 114
-0.16286292672157288 -5.723222255706787 0.6983113288879395 114
-0.2187727391719818 -7.64106559753418 0.6654340624809265 111
-0.2203540802001953 -7.649627208709717 0.3990616500377655 111
-0.22108934819698334 -7.628890037536621 0.13255101442337036 111
-0.05792441964149475 -1.940259337425232 -0.5098737478256226 119
nan nan nan 0
-0.23098120093345642 -7.647539138793945 -1.4783960580825806 0
-0.23208589851856232 -7.639925479888916 -1.204546332359314 111
-0.2336522936820984 -7.647510051727295 -0.9347388744354248 111
-0.23462267220020294 -7.635611057281494 -0.6649993062019348 111
-0.2357601821422577 -7.6292548179626465 -0.3966904878616333 111
-0.23768863081932068 -7.648420810699463 -0.13157227635383606 111
-0.15538053214550018 -4.971933841705322 1.3217036724090576 114
-0.16341803967952728 -5.200051784515381 1.191339135169983 114
-0.17158560454845428 -5.4297637939453125 1.0475538969039917 114
-0.18127554655075073 -5.704858303070068 0.8969442248344421 114
-0.18283972144126892 -5.72261905670166 0.6983113288879395 114
-0.24544371664524078 -7.640254974365234 0.6654340624809265 111
-0.24705491960048676 -7.648811340332031 0.3990616500377655 111
-0.24771778285503387 -7.6280717849731445 0.13255101442337036 111
nan nan nan 0
nan nan nan 0
-0.2576746940612793 -7.64668607711792 -1.4783960580825806 111
-0.25875282287597656 -7.639069080352783 -1.204546332359314 111
-0.2603456676006317 -7.646647930145264 -0.9347388744354248 111
-0.26110413670539856 -7.629767894744873 -0.6645635962486267 111
-0.26238980889320374 -7.628385543823242 -0.3966904878616333 111
-0.2643851637840271 -7.647544860839844 -0.13157227635383606 111
-0.17273487150669098 -4.9713616371154785 1.3217036724090576 114
-0.18156860768795013 -5.1994500160217285 1.191339135169983 114
-0.19053798913955688 -5.429131507873535 1.0475538969039917 114
-0.2011881172657013 -5.704190254211426 0.8969442248344421 114
-0.2028142660856247 -5.7219462394714355 0.6983113288879395 114
-0.2721116840839386 -7.639351844787598 0.6654340624809265 111
-0.27375277876853943 -7.647902011871338 0.3990616500377655 111
-0.27416351437568665 -7.622164249420166 0.1324637532234192 111
nan nan nan 0
nan nan nan 0
-0.28436505794525146 -7.645740032196045 -1.4783960580825806 0
-0.28541654348373413 -7.638119220733643 -1.204546332359314 111
-0.28703585267066956 -7.645692348480225 -0.9347388744354248 111
-0.2877354323863983 -7.628809928894043 -0.6645635962486267 111
-0.2890162467956543 -7.627423286437988 -0.3966904878616333 111
-0.2908882796764374 -7.641579627990723 -0.13148587942123413 111
-0.19027167558670044 -4.975554466247559 1.322996973991394 114
-0.1997169554233551 -5.198784351348877 1.191339135169983 114
-0.20948803424835205 -5.428433418273926 1.0475538969039917 114
-0.22109821438789368 -5.703453540802002 0.8969442248344421 114
-0.22278635203838348 -5.721202850341797 0.6983113288879395 114
-0.2987763285636902 -7.638355255126953 0.6654340624809265 111
-0.3004472553730011 -7.646899700164795 0.3990616500377655 111
-0.3007681667804718 -7.621160984039307 0.1324637532234192 111
nan nan nan 0
nan nan nan 0
-0.31085237860679626 -7.639796733856201 -1.477442979812622 0
-0.3120768368244171 -7.637076377868652 -1.204546332359314 111
-0.3137225806713104 -7.644643783569336 -0.9347388744354248 111
-0.31436318159103394 -7.6277594566345215 -0.6645635962486267 111
-0.3156391680240631 -7.626368045806885 -0.3966904878616333 111
-0.3175605833530426 -7.640517234802246 -0.13148587942123413 111
-0.2076384425163269 -4.974860191345215 1.322996973991394 114
-0.21786290407180786 -5.198055744171143 1.191339135169983 114
-0.22843551635742188 -5.427669525146484 1.0475538969039917 114
-0.24100564420223236 -5.702646732330322 0.8969442248344421 114
-0.2427557110786438 -5.720390319824219 0.6983113288879395 114
-0.32543736696243286 -7.637266159057617 0.6654340624809265 111
-0.3269246220588684 -7.640815734863281 0.39879998564720154 111
-0.32736915349960327 -7.620065212249756 0.1324637532234192 111
nan nan nan 0
nan nan nan 0
-0.3375183641910553 -7.638664722442627 -1.477442979812622 0
-0.3387333154678345 -7.6359405517578125 -1.204546332359314 111
-0.3404054343700409 -7.643502712249756 -0.9347388744354248 111
-0.34098711609840393 -7.626615524291992 -0.6645635962486267 111
-0.3422582149505615 -7.625219345092773 -0.3966904878616333 111
-0.3442290425300598 -7.639362335205078 -0.13148587942123413 111
-0.22500267624855042 -4.974104881286621 1.322996973991394 114
-0.23600617051124573 -5.197263240814209 1.191339135169983 114
-0.24760374426841736 -5.431742191314697 1.0485070943832397 114
-0.26091012358665466 -5.701770782470703 0.8969442248344421 114
-0.2627221345901489 -5.719508171081543 0.6983113288879395 114
-0.35232383012771606 -7.641059398651123 0.6658698916435242 111
-0.3535940647125244 -7.6396284103393555 0.39879998564720154 111
-0.3539661765098572 -7.618875980377197 0.1324637532234192 111
nan nan nan 0
nan nan nan 0
-0.36418023705482483 -7.637440204620361 -1.477442979812622 0
-0.3651495575904846 -7.6297783851623535 -1.2037642002105713 111
-0.3670841455459595 -7.64226770401001 -0.9347388744354248 111
-0.36760690808296204 -7.625378608703613 -0.6645635962486267 111
-0.36887311935424805 -7.623978614807129 -0.3966904878616333 111
-0.37089329957962036 -7.638113975524902 -0.13148587942123413 111
-0.24236416816711426 -4.9732890129089355 1.322996973991394 114
-0.2541465759277344 -5.196407794952393 1.191339135169983 114
-0.2665625512599945 -5.430844783782959 1.0485070943832397 114
-0.2805684804916382 -5.695892810821533 0.8961629271507263 114
-0.2826853394508362 -5.7185564041137695 0.6983113288879395 114
-0.378993958234787 -7.639782905578613 0.6658698916435242 111
-0.3802591860294342 -7.638347625732422 0.39879998564720154 111
-0.3805588483810425 -7.617593765258789 0.1324637532234192 111
nan nan nan 0
nan nan nan 0
-0.3908376395702362 -7.636122703552246 -1.477442979812622 0
-0.39178022742271423 -7.628457546234131 -1.2037642002105713 111
-0.3937584161758423 -7.640939712524414 -0.9347388744354248 111
-0.3942221999168396 -7.624048709869385 -0.6645635962486267 111
-0.3957422077655792 -7.627630233764648 -0.396951287984848 111
-0.397553026676178 -7.636773109436035 -0.13148587942123413 111
-0.2597227096557617 -4.972412586212158 1.322996973991394 114
-0.2722838521003723 -5.195488929748535 1.191339135169983 114
-0.2857758700847626 -5.434782981872559 1.0494604110717773 114
-0.3004491329193115 -5.694879055023193 0.8961629271507263 114
-0.30264508724212646 -5.717535018920898 0.6983113288879395 114
-0.4056594669818878 -7.638412952423096 0.6658698916435242 111
-0.4069196581840515 -7.6369733810424805 0.39879998564720154 111
-0.4074137508869171 -7.621211051940918 0.13255101442337036 111
nan nan nan 0
nan nan nan 0
-0.41749030351638794 -7.634711742401123 -1.477442979812622 0
-0.4184061288833618 -7.6270432472229 -1.2037642002105713 111
-0.4204278886318207 -7.639518737792969 -0.9347388744354248 111
-0.42083269357681274 -7.622626304626465 -0.6645635962486267 111
-0.4223651885986328 -7.62620210647583 -0.396951287984848 111
-0.4242079257965088 -7.63533878326416 -0.13148587942123413 111
-0.2770780920982361 -4.971476078033447 1.322996973991394 114
-0.2904178202152252 -5.194506645202637 1.191339135169983 114
-0.304745078086853 -5.433752536773682 1.0494604110717773 114
-0.32032614946365356 -5.693795204162598 0.8961629271507263 114
-0.32260116934776306 -5.7164435386657715 0.6983113288879395 114
-0.43260154128074646 -7.641923427581787 0.666305661201477 111
-0.43357521295547485 -7.635506629943848 0.39879998564720154 111
-0.43372997641563416 -7.61475133895874 0.1324637532234192 111
nan nan nan 0
nan nan nan 0
-0.4441378712654114 -7.63320779800415 -1.477442979812622 0
-0.4450269341468811 -7.6255364418029785 -1.2037642002105713 111
-0.447092205286026 -7.638004302978516 -0.9347388744354248 111
-0.44714611768722534 -7.616138935089111 -0.664127767086029 111
-0.44898301362991333 -7.62468147277832 -0.396951287984848 111
-0.45085763931274414 -7.6338114738464355 -0.13148587942123413 111
-0.29443007707595825 -4.970478534698486 1.322996973991394 114
-0.30854830145835876 -5.1934614181518555 1.191339135169983 114
-0.323710560798645 -5.432655334472656 1.0494604110717773 114
-0.34019923210144043 -5.692642688751221 0.8961629271507263 114
-0.3425533175468445 -5.715282917022705 0.6983113288879395 114
-0.45927420258522034 -7.64036750793457 0.666305661201477 111
-0.4602254331111908 -7.633946895599365 0.39879998564720154 111
-0.460307776927948 -7.6131911277771 0.1324637532234192 111
nan nan nan 0
nan nan nan 0
-0.47078004479408264 -7.631611347198486 -1.477442979812622 111
-0.47164231538772583 -7.623936653137207 -1.2037642002105713 111
-0.47375109791755676 -7.636397361755371 -0.9347388744354248 111
-0.47372865676879883 -7.61453104019165 -0.664127767086029 111
-0.4755954146385193 -7.623067855834961 -0.396951287984848 111
-0.47750186920166016 -7.632191181182861 -0.13148587942123413 111
-0.3117785155773163 -4.969420433044434 1.322996973991394 114
-0.3266749680042267 -5.192352771759033 1.191339135169983 114
-0.34236299991607666 -5.426593780517578 1.0485070943832397 114
-0.3600682020187378 -5.691420078277588 0.8961629271507263 114
-0.3625012934207916 -5.714052200317383 0.6983113288879395 114
-0.4859412908554077 -7.6387176513671875 0.666305661201477 111
-0.4871880114078522 -7.637276649475098 0.3990616500377655 111
-0.4871990382671356 -7.616527080535889 0.13255101442337036 111
nan nan nan 0
nan nan nan 0
-0.4974164366722107 -7.6299214363098145 -1.477442979812622 111
-0.49825191497802734 -7.622243881225586 -1.2037642002105713 111
-0.5004042387008667 -7.634697437286377 -0.9347388744354248 111
-0.5003054738044739 -7.6128315925598145 -0.664127767086029 111
-0.5022019743919373 -7.621361255645752 -0.396951287984848 111
-0.5041402578353882 -7.6304779052734375 -0.13148587942123413 111
-0.3291231095790863 -4.968302249908447 1.322996973991394 114
-0.34479764103889465 -5.191181182861328 1.191339135169983 114
-0.36130326986312866 -5.425365447998047 1.0485070943832397 114
-0.37993279099464417 -5.690128803253174 0.8961629271507263 114
-0.3824448585510254 -5.712751865386963 0.6983113288879395 114
-0.5122688412666321 -7.632004737854004 0.6658698916435242 111
-0.5138441324234009 -7.635529518127441 0.3990616500377655 111
-0.5137827396392822 -7.614779472351074 0.13255101442337036 111
nan nan nan 0
nan nan nan 0
-0.5240468382835388 -7.628138542175293 -1.477442979812622 111
-0.5248554944992065 -7.620458126068115 -1.2037642002105713 111
-0.5270512104034424 -7.632904052734375 -0.9347388744354248 111
-0.5268761515617371 -7.611038684844971 -0.664127767086029 111
-0.5288023948669434 -7.619561672210693 -0.396951287984848 111
-0.5307725071907043 -7.628671646118164 -0.13148587942123413 111
-0.34646373987197876 -4.967123031616211 1.322996973991394 114
-0.3629162013530731 -5.189945697784424 1.191339135169983 114
-0.3802391290664673 -5.424071311950684 1.0485070943832397 114
-0.39979273080825806 -5.688767910003662 0.8961629271507263 114
-0.4027324914932251 -5.71633243560791 0.6989206075668335 114
-0.5389063954353333 -7.630169868469238 0.6658698916435242 111
-0.5404939651489258 -7.6336894035339355 0.3990616500377655 111
-0.540360152721405 -7.612939834594727 0.13255101442337036 111
nan nan nan 0
nan nan nan 0
-0.5506708025932312 -7.626262664794922 -1.477442979812622 111
-0.55145263671875 -7.618579387664795 -1.2037642002105713 111
-0.5536918044090271 -7.631017684936523 -0.9347388744354248 111
-0.5534404516220093 -7.6091532707214355 -0.664127767086029 111
-0.5553964376449585 -7.617669582366943 -0.396951287984848 111
-0.5570340156555176 -7.621787071228027 -0.1313994973897934 111
-0.3638001084327698 -4.965883255004883 1.322996973991394 114
-0.38103026151657104 -5.188647270202637 1.191339135169983 114
-0.3991703689098358 -5.42271089553833 1.0485070943832397 114
-0.41964778304100037 -5.687337875366211 0.8961629271507263 114
-0.4226837754249573 -5.7148919105529785 0.6989206075668335 114
-0.5655373334884644 -7.6282429695129395 0.6658698916435242 111
-0.5667670965194702 -7.626776695251465 0.39879998564720154 111
-0.5669310092926025 -7.6110076904296875 0.13255101442337036 111
nan nan nan 0
nan nan nan 0
-0.5776585936546326 -7.629188060760498 -1.4783960580825806 111
-0.5780431032180786 -7.616608142852783 -1.2037642002105713 111
-0.5803256630897522 -7.629038333892822 -0.9347388744354248 111
-0.5803766250610352 -7.6121416091918945 -0.6645635962486267 111
-0.5816032886505127 -7.610706329345703 -0.3966904878616333 111
-0.5836355686187744 -7.619796276092529 -0.1313994973897934 111
-0.3811320662498474 -4.964582920074463 1.322996973991394 114
-0.3991397023200989 -5.187285423278809 1.191339135169983 114
-0.4184741675853729 -5.426178932189941 1.0494604110717773 114
-0.4394977390766144 -5.685838222503662 0.8961629271507263 114
-0.442629873752594 -5.713381290435791 0.6989206075668335 114
-0.5921614766120911 -7.626222133636475 0.6658698916435242 111
-0.5933861136436462 -7.624752044677734 0.39879998564720154 111
-0.5934948921203613 -7.608981609344482 0.13255101442337036 111
nan nan nan 0
nan nan nan 0
-0.6042859554290771 -7.627125263214111 -1.4783960580825806 111
-0.6046265363693237 -7.614543914794922 -1.2037642002105713 111
-0.6069524884223938 -7.6269659996032715 -0.9347388744354248 111
-0.6069444417953491 -7.610069274902344 -0.6645635962486267 111
-0.6081660389900208 -7.608630180358887 -0.3966904878616333 111
-0.6106292605400085 -7.622694969177246 -0.13148587942123413 111
-0.3984593451023102 -4.963222503662109 1.322996973991394 114
-0.4176349937915802 -5.190717697143555 1.1924631595611572 114
-0.4374125003814697 -5.424685001373291 1.0494604110717773 114
-0.459342360496521 -5.684269428253174 0.8961629271507263 114
-0.4625706076622009 -5.711801528930664 0.6989206075668335 114
-0.6187783479690552 -7.62410831451416 0.6658698916435242 111
-0.6199977993965149 -7.622633934020996 0.39879998564720154 111
-0.6200515627861023 -7.606863975524902 0.13255101442337036 111
nan nan nan 0
nan nan nan 0
-0.6309059262275696 -7.624969482421875 -1.4783960580825806 111
-0.6312025189399719 -7.612387180328369 -1.2037642002105713 111
-0.6335718631744385 -7.624801158905029 -0.9347388744354248 111
-0.6339181065559387 -7.612867832183838 -0.6649993062019348 111
-0.6347214579582214 -7.6064605712890625 -0.3966904878616333 111
-0.6372336745262146 -7.620517253875732 -0.13148587942123413 111
-0.41578182578086853 -4.961801528930664 1.322996973991394 114
-0.43575146794319153 -5.189228057861328 1.1924631595611572 114
-0.45634549856185913 -5.42312479019165 1.0494604110717773 114
-0.47918134927749634 -5.682631492614746 0.8961629271507263 114
-0.4825056791305542 -5.7101521492004395 0.6989206075668335 114
-0.6453876495361328 -7.6219024658203125 0.6658698916435242 111
-0.6461798548698425 -7.615448474884033 0.3985382914543152 111
-0.6466007232666016 -7.604653358459473 0.13255101442337036 111
-0.1661422997713089 -1.9340006113052368 -0.5098737478256226 119
nan nan nan 0
-0.6575181484222412 -7.622721195220947 -1.4783960580825806 111
-0.6577708721160889 -7.610137462615967 -1.2037642002105713 111
-0.6606116890907288 -7.627486705780029 -0.9353482127189636 111
-0.6604881286621094 -7.610608100891113 -0.6649993062019348 111
-0.6612690091133118 -7.604198932647705 -0.3966904878616333 111
-0.6638303995132446 -7.618246555328369 -0.13148587942123413 111
-0.4330991804599762 -4.960319995880127 1.322996973991394 114
-0.45386260747909546 -5.187675476074219 1.1924631595611572 114
-0.4752729833126068 -5.421498775482178 1.0494604110717773 114
-0.49944666028022766 -5.6858439445495605 0.8969442248344421 114
-0.5024349093437195 -5.708433151245117 0.6989206075668335 114
-0.6719891428947449 -7.619603157043457 0.6658698916435242 111
-0.6731983423233032 -7.618119716644287 0.39879998564720154 111
-0.6735829710960388 -7.607329845428467 0.13263827562332153 111
-0.1737525463104248 -1.943029761314392 -0.5124619007110596 119
-0.2003658264875412 -2.2362396717071533 -0.5095144510269165 119
-0.6841224431991577 -7.620379447937012 -1.4783960580825806 111
-0.6847736239433289 -7.612713813781738 -1.204546332359314 111
-0.6872325539588928 -7.625134468078613 -0.9353482127189636 111
-0.6870501041412354 -7.6082563400268555 -0.6649993062019348 111
-0.6882584691047668 -7.60681676864624 -0.396951287984848 111
-0.6904189586639404 -7.615882396697998 -0.13148587942123413 111
-0.450411319732666 -4.958777904510498 1.322996973991394 114
-0.4719682037830353 -5.186059474945068 1.1924631595611572 114
-0.4941946566104889 -5.419806957244873 1.0494604110717773 114
-0.5192909240722656 -5.684065818786621 0.8969442248344421 114
-0.5223580002784729 -5.706644535064697 0.6989206075668335 114
-0.6990373134613037 -7.622170925140381 0.666305661201477 111
-0.699786365032196 -7.615723609924316 0.39879998564720154 111
-0.7001333832740784 -7.6049323081970215 0.13263827562332153 111
-0.18187478184700012 -1.9568381309509277 -0.5163442492485046 119
-0.2086222618818283 -2.24037766456604 -0.5106391906738281 119
-0.7107183337211609 -7.617944717407227 -1.4783960580825806 111
-0.7108832001686096 -7.6053595542907715 -1.2037642002105713 111
-0.7138450741767883 -7.622689247131348 -0.9353482127189636 111
-0.7140689492225647 -7.610771179199219 -0.6654351353645325 111
-0.7148070931434631 -7.604367733001709 -0.396951287984848 111
-0.7169991135597229 -7.613426208496094 -0.13148587942123413 111
-0.4681715965270996 -4.961983680725098 1.3242902755737305 114
-0.4900680482387543 -5.184380531311035 1.1924631595611572 114
-0.5131102800369263 -5.418048858642578 1.0494604110717773 114
-0.539128839969635 -5.682218551635742 0.8969442248344421 114
-0.5422747731208801 -5.70478630065918 0.6989206075668335 114
-0.7256394028663635 -7.61968469619751 0.666305661201477 111
-0.7273144125938416 -7.623175144195557 0.39932331442832947 111
-0.7261995673179626 -7.597465515136719 0.13255101442337036 111
-0.18731310963630676 -1.9417693614959717 -0.5124619007110596 119
-0.21972185373306274 -2.273580551147461 -0.518512487411499 119
-0.7373055815696716 -7.61541748046875 -1.4783960580825806 111
-0.7374265193939209 -7.602831840515137 -1.2037642002105713 111
-0.7409288287162781 -7.625090599060059 -0.9359576106071472 111
-0.7401485443115234 -7.603274822235107 -0.6649993062019348 111
-0.7413468956947327 -7.601826190948486 -0.396951287984848 111
-0.7435706257820129 -7.610877513885498 -0.13148587942123413 111
-0.4854893088340759 -4.960319519042969 1.3242902755737305 114
-0.5081619024276733 -5.182638168334961 1.1924631595611572 114
-0.5320196747779846 -5.416224479675293 1.0494604110717773 114
-0.5589601993560791 -5.680302143096924 0.8969442248344421 114
-0.5621848106384277 -5.702858924865723 0.6989206075668335 0
-0.7522326111793518 -7.617105007171631 0.666305661201477 111
-0.7529367208480835 -7.610652446746826 0.39879998564720154 111
-0.753208339214325 -7.599859714508057 0.13263827562332153 111
-0.19457054138183594 -1.9459095001220703 -0.5137560367584229 119
-0.2257145196199417 -2.2534091472625732 -0.5140134692192078 119
-0.7648639678955078 -7.622565269470215 -1.4803024530410767 111
-0.7639608383178711 -7.6002116203308105 -1.2037642002105713 111
-0.7665464878082275 -7.612582683563232 -0.9347388744354248 111
-0.7616854310035706 -7.551086902618408 -0.6606415510177612 111
-0.7683796882629395 -7.604160308837891 -0.39721211791038513 111
-0.7696295976638794 -7.603261947631836 -0.1313994973897934 111
-0.5028011202812195 -4.95859432220459 1.3242902755737305 114
-0.5262496471405029 -5.180832862854004 1.1924631595611572 114
-0.5509225726127625 -5.414334297180176 1.0494604110717773 114
-0.5787847638130188 -5.678316116333008 0.8969442248344421 114
-0.5820881128311157 -5.700861930847168 0.6989206075668335 0
-0.7783098816871643 -7.609477996826172 0.6658698916435242 111
-0.7800071835517883 -7.612945556640625 0.3990616500377655 111
-0.7736072540283203 -7.537506580352783 0.13159114122390747 111
-0.2008645385503769 -1.9404144287109375 -0.5124619007110596 119
-0.23357900977134705 -2.252607583999634 -0.5140134692192078 119
-0.778282642364502 -7.492915630340576 -1.4555195569992065 111
-0.7787314653396606 -7.484524250030518 -1.1857742071151733 111
-0.7817969918251038 -7.5012688636779785 -0.9213332533836365 111
-0.7854530215263367 -7.523611545562744 -0.658462643623352 111
-0.7886865735054016 -7.5418381690979 -0.3940823972225189 111
-0.7899152040481567 -7.540863990783691 -0.13036280870437622 111
-0.5201067924499512 -4.956809043884277 1.3242902755737305 114
-0.5448401570320129 -5.183809757232666 1.193587064743042 114
-0.5698187947273254 -5.412378311157227 1.0494604110717773 114
-0.5986022353172302 -5.6762614250183105 0.8969442248344421 114
-0.602505624294281 -5.703730583190918 0.6995300054550171 0
-0.7985778450965881 -7.547274589538574 0.6606405377388 111
-0.7997352480888367 -7.545627117156982 0.39565980434417725 111
-0.7935801148414612 -7.475104331970215 0.13054399192333221 111
-0.20763662457466125 -1.9397014379501343 -0.5124619007110596 119
-0.2409212738275528 -2.246934652328491 -0.5128887295722961 119
-0.8039089441299438 -7.485273361206055 -1.4545663595199585 111
-0.8043243288993835 -7.476850509643555 -1.1849920749664307 111
-0.8074448704719543 -7.49355936050415 -0.9207239151000977 111
-0.8069002032279968 -7.476253509521484 -0.6545405983924866 111
-0.8107144236564636 -7.499325275421143 -0.39199593663215637 111
-0.8103129863739014 -7.483388900756836 -0.12941251695156097 111
-0.5374060869216919 -4.954963684082031 1.3242902755737305 114
-0.5629317164421082 -5.1818766593933105 1.193587064743042 114
-0.5892388820648193 -5.41523551940918 1.0504134893417358 114
-0.618412435054779 -5.674137115478516 0.8969442248344421 114
-0.6224116683006287 -5.701592922210693 0.6995300054550171 0
-0.8189624547958374 -7.489974498748779 0.6558469533920288 111
-0.8200899958610535 -7.4881911277771 0.3927813172340393 111
-0.8191231489181519 -7.467319488525391 0.13045673072338104 111
-0.2140677571296692 -1.939002275466919 -0.5124619007110596 119
-0.2479790300130844 -2.246166706085205 -0.5128887295722961 119
-0.8274205923080444 -7.482710838317871 -1.4545663595199585 111
-0.8278095722198486 -7.4742865562438965 -1.1849920749664307 111
-0.8309825658798218 -7.490985870361328 -0.9207239151000977 111
-0.8303834795951843 -7.473681926727295 -0.6545405983924866 111
-0.8315088748931885 -7.471928596496582 -0.390691876411438 111
-0.8338186740875244 -7.480806350708008 -0.12941251695156097 111
-0.5529698729515076 -4.953250408172607 1.3242902755737305 114
-0.579208254814148 -5.180082321166992 1.193587064743042 114
-0.6062484383583069 -5.413357257843018 1.0504134893417358 114
-0.6367856860160828 -5.677074432373047 0.8977255821228027 114
-0.6403206586837769 -5.69960880279541 0.6995300054550171 0
-0.841931939125061 -7.482415676116943 0.6554111838340759 111
-0.8436107635498047 -7.485577583312988 0.3927813172340393 111
-0.8431390523910522 -7.469676494598389 0.13054399192333221 111
-0.2210424542427063 -1.9430804252624512 -0.5137560367584229 119
-0.25581809878349304 -2.2452874183654785 -0.5128887295722961 119
-0.8535351157188416 -7.479776859283447 -1.4545663595199585 110
-0.8538946509361267 -7.471351623535156 -1.1849920749664307 111
-0.8576903343200684 -7.4929704666137695 -0.9213332533836365 111
-0.8558991551399231 -7.465789318084717 -0.6541048288345337 111
-0.8570160865783691 -7.464019775390625 -0.39043107628822327 111
-0.8604976534843445 -7.482816696166992 -0.1294989138841629 111
-0.5702565908432007 -4.951290130615234 1.3242902755737305 114
-0.597286581993103 -5.1780290603637695 1.193587064743042 114
-0.6257042288780212 -5.416084289550781 1.0513666868209839 114
-0.6565985083580017 -5.674817085266113 0.8977255821228027 114
-0.6602120995521545 -5.6973395347595215 0.6995300054550171 0
-0.869767963886261 -7.494274139404297 0.6567184925079346 111
-0.8697351813316345 -7.4825873374938965 0.3927813172340393 111
-0.8692079782485962 -7.46668815612793 0.13054399192333221 111
-0.2281627058982849 -1.942257285118103 -0.5137560367584229 119
-0.264045774936676 -2.2443346977233887 -0.5128887295722961 119
-0.8797953724861145 -7.466848850250244 -1.4526599645614624 110
-0.8806939721107483 -7.463266849517822 -1.1842098236083984 110
-0.8828179240226746 -7.470062732696533 -0.9188959002494812 110
-0.8697915077209473 -7.348834037780762 -0.6440819501876831 110
-0.8849551677703857 -7.465787410736084 -0.390691876411438 111
-0.8832031488418579 -7.439897537231445 -0.12880778312683105 110
-0.58840012550354 -4.949166774749756 1.3242902755737305 114
-0.6162610054016113 -5.17580509185791 1.193587064743042 114
-0.6455509662628174 -5.413754940032959 1.0513666868209839 114
-0.6779789328575134 -5.677276134490967 0.8985068798065186 114
-0.681678831577301 -5.699808597564697 0.7001393437385559 0
-0.8865675330162048 -7.402014255523682 0.6488744616508484 110
-0.8906130194664001 -7.424815654754639 0.38990285992622375 110
-0.8596007227897644 -7.155712127685547 0.12513375282287598 110
-0.23552127182483673 -1.9462435245513916 -0.5150501132011414 119
-0.27187836170196533 -2.2433993816375732 -0.5128887295722961 119
-0.8615015745162964 -7.098291873931885 -1.3811708688735962 110
-0.8703931570053101 -7.161103248596191 -1.1364972591400146 110
-0.8621155023574829 -7.082678318023682 -0.8713667392730713 110
-0.8411942720413208 -6.900759696960449 -0.6048617959022522 110
-0.8825725317001343 -7.229701995849609 -0.37843385338783264 110
-0.8576019406318665 -7.014973163604736 -0.12146461755037308 110
-0.6062594056129456 -4.951877593994141 1.325583577156067 114
-0.6349170804023743 -5.178458213806152 1.1947109699249268 114
-0.6644445657730103 -5.411468029022217 1.0513666868209839 114
-0.6983948349952698 -5.679775714874268 0.8992881774902344 114
-0.7015707492828369 -5.697394847869873 0.7001393437385559 0
-0.8642403483390808 -7.008336067199707 0.6144479513168335 110
-0.8638955950737 -6.99548864364624 0.3673984110355377 110
-0.8440769910812378 -6.825212478637695 0.11937444657087326 110
-0.24231348931789398 -1.9454095363616943 -0.5150501132011414 119
-0.2797076106071472 -2.242436647415161 -0.5128887295722961 119
-0.8455129265785217 -6.768920421600342 -1.3173071146011353 110
-0.8481864929199219 -6.780702114105225 -1.0762699842453003 110
-0.8473557233810425 -6.764474391937256 -0.8323685526847839 110
-0.8218794465065002 -6.55182409286499 -0.5743572115898132 110
-0.8586375713348389 -6.835190773010254 -0.3578299283981323 110
-0.8352853059768677 -6.639924049377441 -0.11498534679412842 110
-0.6235409379005432 -4.94973087310791 1.325583577156067 114
-0.652989387512207 -5.176209926605225 1.1947109699249268 114
-0.6839452385902405 -5.413985729217529 1.052319884300232 114
-0.7188366055488586 -5.6822028160095215 0.9000694751739502 114
-0.7214540839195251 -5.694911003112793 0.7001393437385559 0
-0.8441910147666931 -6.6544389724731445 0.5835076570510864 110
-0.8555872440338135 -6.734856605529785 0.3537910580635071 110
-0.8313041925430298 -6.534586429595947 0.11431325227022171 110
-0.24971644580364227 -1.9493423700332642 -0.5163442492485046 119
-0.2875334918498993 -2.2414467334747314 -0.5128887295722961 119
-0.8253598213195801 -6.425147533416748 -1.2505838871002197 110
-0.8290059566497803 -6.4446306228637695 -1.0230822563171387 110
-0.8316535353660583 -6.456307411193848 -0.7945890426635742 110
-0.806511640548706 -6.2525129318237305 -0.5482105016708374 110
-0.8447526097297668 -6.539981365203857 -0.34244224429130554 110
-0.8231871724128723 -6.364280700683594 -0.11023388803005219 110
-0.6408149600028992 -4.947524547576904 1.325583577156067 114
-0.6710537672042847 -5.173899173736572 1.1947109699249268 114
-0.7028394341468811 -5.41156530380249 1.052319884300232 114
-0.7380298376083374 -5.674761772155762 0.8992881774902344 114
-0.7413285970687866 -5.692358016967773 0.7001393437385559 0
-0.8287674188613892 -6.355103492736816 0.5573610067367554 110
-0.8409444689750671 -6.439713478088379 0.33835193514823914 110
-0.8113274574279785 -6.2044806480407715 0.10855396091938019 110
-0.2565194070339203 -1.9484589099884033 -0.5163442492485046 119
-0.29662930965423584 -2.250089406967163 -0.5151382088661194 119
-0.8156647086143494 -6.178922653198242 -1.2029244899749756 110
-0.8171974420547485 -6.182217597961426 -0.9816271066665649 110
-0.8183691501617432 -6.182775020599365 -0.7610749006271362 110
-0.7956092953681946 -6.00277042388916 -0.5264214873313904 110
-0.8281606435775757 -6.240004539489746 -0.3267936706542969 110
-0.8104925155639648 -6.098717212677002 -0.10565520823001862 110
-0.6580811142921448 -4.945257186889648 1.325583577156067 114
-0.6897534728050232 -5.17635440826416 1.195834755897522 114
-0.7223742008209229 -5.413943767547607 1.05327308177948 114
-0.7578339576721191 -5.6721510887146 0.8992881774902344 114
-0.7618522644042969 -5.694654941558838 0.7007486820220947 110
-0.812587559223175 -6.06583309173584 0.5320858359336853 110
-0.8202692270278931 -6.115065097808838 0.3213427662849426 110
-0.8003705143928528 -5.958828926086426 0.10427812486886978 110
-0.26396632194519043 -1.952337622642517 -0.5176383256912231 119
-0.3044818043708801 -2.249040365219116 -0.5151382088661194 119
-0.804920494556427 -5.937711238861084 -1.1562182903289795 110
-0.8088813424110413 -5.959116458892822 -0.9464292526245117 110
-0.8051907420158386 -5.924169540405273 -0.7293888330459595 110
-0.7870036363601685 -5.782794952392578 -0.5072472095489502 110
-0.8155530691146851 -5.984755039215088 -0.31349241733551025 110
-0.7993336915969849 -5.858090400695801 -0.1015084832906723 110
-0.6753392815589905 -4.942929744720459 1.325583577156067 114
-0.7078180909156799 -5.173915386199951 1.195834755897522 114
-0.7412679195404053 -5.4113898277282715 1.05327308177948 114
-0.7782999873161316 -5.67436408996582 0.9000694751739502 114
-0.7817255854606628 -5.69196081161499 0.7007486820220947 110
-0.8011844754219055 -5.826101779937744 0.5111684203147888 110
-0.808235764503479 -5.869787693023682 0.30852046608924866 110
-0.7877088785171509 -5.71333122253418 0.10000228881835938 110
-0.2714434564113617 -1.9561879634857178 -0.5189324021339417 119
-0.31769415736198425 -2.2865676879882812 -0.5241362452507019 119
-0.7938551306724548 -5.7063751220703125 -1.11141836643219 110
-0.7969741821289062 -5.721478462219238 -0.9088850021362305 110
-0.796387255191803 -5.7099714279174805 -0.7031869292259216 110
-0.776183545589447 -5.558023452758789 -0.48763713240623474 110
-0.803939938545227 -5.749453067779541 -0.3012344241142273 110
