# .PCD v0.7 - Point Cloud Data file format
VERSION 0.7
FIELDS x y z intensity
SIZE 4 4 4 4
TYPE F F F F
COUNT 1 1 1 1
WIDTH 778
HEIGHT 1
VIEWPOINT 0 0 0 1 0 0 0
POINTS 778
DATA ascii
-2.6444737911224365 1.3807346820831299 0.5719130039215088 30
-2.6472015380859375 1.382746934890747 0.4664422571659088 30
-2.6509430408477783 1.3852901458740234 0.36256128549575806 30
-2.6647348403930664 1.3930894136428833 0.25972411036491394 30
-2.6576473712921143 1.38997483253479 0.1551761031150818 30
-2.6295981407165527 1.3758894205093384 0.05113554745912552 30
-1.697744369506836 0.8902019262313843 -0.5034032464027405 119
-1.9537339210510254 1.0248632431030273 -0.5005163550376892 119
-2.328651189804077 1.2220505475997925 -0.5032837390899658 119
-2.63985538482666 1.385954737663269 -0.4661751091480255 119
-2.670003652572632 1.4023776054382324 -0.36560845375061035 30
-2.6397645473480225 1.3870826959609985 -0.2575456202030182 30
-2.6414949893951416 1.3885804414749146 -0.15387731790542603 30
-2.631143569946289 1.3837249279022217 -0.050711046904325485 30
-2.6241140365600586 1.3806129693984985 0.7837108373641968 30
-2.629253625869751 1.383902907371521 0.6765908002853394 30
-2.6222662925720215 1.3808096647262573 0.5681002140045166 30
-2.620512008666992 1.3804702758789062 0.4625357389450073 30
-2.6241397857666016 1.38296639919281 0.3595145642757416 30
-2.6422314643859863 1.3930903673171997 0.25798100233078003 30
-2.635113477706909 1.389925241470337 0.15412938594818115 30
-2.6026723384857178 1.37339448928833 0.05069923773407936 30
-1.6946266889572144 0.8961227536201477 -0.5034032464027405 119
-1.950144648551941 1.0316767692565918 -0.5005163550376892 119
-2.320033073425293 1.2278757095336914 -0.5023306012153625 119
-2.6131792068481445 1.3836069107055664 -0.46226420998573303 119
-2.647550344467163 1.4023971557617188 -0.3631710708141327 30
-2.612900495529175 1.3846272230148315 -0.255366712808609 30
-2.6145739555358887 1.3860986232757568 -0.15257327258586884 30
-2.608631134033203 1.3835313320159912 -0.05036548525094986 30
-2.5979464054107666 1.3784456253051758 0.7772445678710938 30
-2.6028897762298584 1.3816508054733276 0.6709712147712708 30
-2.595755100250244 1.3784444332122803 0.5633342862129211 30
-2.5938708782196045 1.3780242204666138 0.45862916111946106 30
-2.5973851680755615 1.3804724216461182 0.3564678132534027 30
-2.6153628826141357 1.3906127214431763 0.25580209493637085 30
-2.6082041263580322 1.3873904943466187 0.15282097458839417 30
-2.575796127319336 1.3707283735275269 0.0502629280090332 30
-1.691488265991211 0.9020326137542725 -0.5034032464027405 119
-1.9465315341949463 1.0384777784347534 -0.5005163550376892 119
-2.3114027976989746 1.2336554527282715 -0.5013774037361145 119
-2.5865519046783447 1.3810898065567017 -0.45835334062576294 119
-2.6207520961761475 1.399938941001892 -0.3601243197917938 30
-2.5904791355133057 1.38434898853302 -0.2536236047744751 30
-2.5921061038970947 1.3858001232147217 -0.15153002738952637 30
-2.5817441940307617 1.3808398246765137 -0.0499335341155529 30
-2.571826457977295 1.376112699508667 0.7707783579826355 30
-2.5765743255615234 1.3792316913604736 0.6653517484664917 30
-2.5692930221557617 1.375910997390747 0.5585682988166809 30
-2.5672788619995117 1.3754090070724487 0.4547226130962372 30
-2.5663058757781982 1.3754643201828003 0.352811723947525 30
-2.5885438919067383 1.3879647254943848 0.25362321734428406 30
-2.581345319747925 1.3846850395202637 0.15151259303092957 30
-2.5489706993103027 1.3678916692733765 0.049826618283987045 30
-1.6883293390274048 0.9079315662384033 -0.5034032464027405 119
-1.942894697189331 1.0452661514282227 -0.5005163550376892 119
-2.307082176208496 1.2417162656784058 -0.5013774037361145 119
-2.5643224716186523 1.3807451725006104 -0.4552246630191803 119
-2.5983729362487793 1.3996644020080566 -0.35768693685531616 30
-2.5593223571777344 1.379205346107483 -0.25100892782211304 30
-2.565277099609375 1.382992148399353 -0.15022598206996918 30
-2.5505080223083496 1.375604510307312 -0.04941519349813461 30
-2.541503667831421 1.3713206052780151 0.7630188465118408 30
-2.5503077507019043 1.3766459226608276 0.6597322225570679 30
-2.5428807735443115 1.3732099533081055 0.5538024306297302 30
-2.5407369136810303 1.3726251125335693 0.4508160650730133 30
-2.5396595001220703 1.3726158142089844 0.34976500272750854 30
-2.55739426612854 1.3827776908874512 0.251008540391922 30
-2.550145149230957 1.3794333934783936 0.1499425172805786 30
-2.5178000926971436 1.3625051975250244 0.049303047358989716 30
-1.6809042692184448 0.9115170836448669 -0.502109169960022 119
-1.943516731262207 1.0543650388717651 -0.5016411542892456 119
-2.302733898162842 1.249761939048767 -0.5013774037361145 119
-2.5377871990203857 1.3779057264328003 -0.4513137936592102 119
-2.5803885459899902 1.401619553565979 -0.35585886240005493 30
-2.5326099395751953 1.376239538192749 -0.24883003532886505 30
-2.5384998321533203 1.380014181137085 -0.14892195165157318 30
-2.514948606491089 1.3677796125411987 -0.04881046339869499 30
-2.5112459659576416 1.3663338422775269 0.7552592754364014 30
-2.5198116302490234 1.3715643882751465 0.6529887914657593 30
-2.50789737701416 1.3656466007232666 0.5471300482749939 30
-2.5142459869384766 1.3696727752685547 0.44690951704978943 30
-2.508707284927368 1.3672233819961548 0.34610891342163086 30
-2.5306859016418457 1.3797744512557983 0.248829647898674 30
-2.5190138816833496 1.37398099899292 0.14837244153022766 30
-2.4866979122161865 1.3569178581237793 0.04877947270870209 30
-1.6777122020721436 0.9173789620399475 -0.502109169960022 119
-1.9398244619369507 1.0611428022384644 -0.5016411542892456 119
-2.3069686889648438 1.262505054473877 -0.5032837390899658 119
-2.5156350135803223 1.3772696256637573 -0.44818511605262756 119
-2.5580697059631348 1.4010822772979736 -0.35342147946357727 30
-2.5059492588043213 1.3731040954589844 -0.24665112793445587 30
-2.511774778366089 1.376866102218628 -0.1476178914308548 30
-2.4794747829437256 1.3597232103347778 -0.04820572957396507 30
-2.468351125717163 1.354183554649353 0.7436200380325317 30
-2.489382266998291 1.3662869930267334 0.6462453603744507 30
-2.507417678833008 1.3767549991607666 0.5480833053588867 30
-2.487807035446167 1.3665525913238525 0.44300296902656555 30
-2.464775800704956 1.3544615507125854 0.34062477946281433 30
-2.4909350872039795 1.3694028854370117 0.2453434020280838 30
-2.479201316833496 1.3635157346725464 0.1462789922952652 30
-2.4819464683532715 1.3655897378921509 0.04877947270870209 30
-1.674499750137329 0.9232296943664551 -0.502109169960022 119
-1.9403743743896484 1.0702604055404663 -0.5027658939361572 119
-2.3154401779174805 1.2776641845703125 -0.50614333152771 119
-2.493518590927124 1.3764958381652832 -0.4450564384460449 119
-2.540130615234375 1.4028056859970093 -0.3515934646129608 30
-2.479341745376587 1.3697993755340576 -0.2444722205400467 30
-2.485102415084839 1.373548150062561 -0.1463138461112976 30
-2.465963363647461 1.3635318279266357 -0.04803295060992241 30
-2.4720618724823 1.3674671649932861 0.746206521987915 30
-2.48459792137146 1.3749682903289795 0.6462453603744507 30
-2.4983022212982178 1.3831217288970947 0.5471300482749939 30
-2.46574068069458 1.3656572103500366 0.4398776888847351 30
-2.473055601119995 1.3702727556228638 0.34245285391807556 30
-2.481783390045166 1.3756747245788574 0.24490763247013092 30
-2.4787933826446533 1.3745830059051514 0.14654067158699036 30
-2.4640495777130127 1.366969347000122 0.04851768910884857 30
-1.671266794204712 0.9290691614151001 -0.502109169960022 119
-1.9366265535354614 1.0770270824432373 -0.5027658939361572 119
-2.319544553756714 1.2905114889144897 -0.508049726486206 119
-2.47143816947937 1.375584602355957 -0.4419277310371399 119
-2.5222108364105225 1.4044208526611328 -0.3497653901576996 30
-2.4658424854278564 1.3735976219177246 -0.24360066652297974 30
-2.46720814704895 1.3749226331710815 -0.14553143084049225 30
-2.461188793182373 1.37213134765625 -0.04803295060992241 30
-2.4546189308166504 1.3690301179885864 0.7423267960548401 30
-2.4755287170410156 1.3812588453292847 0.6451213955879211 30
-2.4934589862823486 1.391834020614624 0.5471300482749939 30
-2.465270519256592 1.3766638040542603 0.4406590163707733 30
-2.4552597999572754 1.3716357946395874 0.34062477946281433 30
-2.4682705402374268 1.379469394683838 0.24403607845306396 30
-2.4696218967437744 1.3807904720306396 0.1462789922952652 30
-2.4505369663238525 1.3706814050674438 0.04834316298365593 30
-1.668013572692871 0.9348973035812378 -0.502109169960022 119
-1.9328551292419434 1.0837806463241577 -0.5027658939361572 119
-2.332148790359497 1.308205485343933 -0.5118624567985535 119
-2.4450881481170654 1.3721191883087158 -0.4380168616771698 0
-2.499983310699463 1.4034987688064575 -0.3473280072212219 30
-2.4523468017578125 1.3773183822631836 -0.24272911250591278 30
-2.4536871910095215 1.3786346912384033 -0.14500980079174042 30
-2.452026128768921 1.3782644271850586 -0.04794655740261078 30
-2.445615291595459 1.3752226829528809 0.7410335540771484 30
-2.4664459228515625 1.387502908706665 0.6439975500106812 30
-2.4928629398345947 1.4029366970062256 0.5480833053588867 30
-2.45184326171875 1.3804149627685547 0.4390964210033417 30
-2.4418087005615234 1.3753268718719482 0.3394061028957367 30
-2.454761028289795 1.3831864595413208 0.243164524435997 30
-2.456087350845337 1.3844987154006958 0.14575563371181488 30
-2.432673692703247 1.3718599081039429 0.048081375658512115 30
-1.6647400856018066 0.9407140612602234 -0.502109169960022 119
-1.9290603399276733 1.0905208587646484 -0.5027658939361572 119
-2.306205987930298 1.3042570352554321 -0.507096529006958 119
-2.4402835369110107 1.380645751953125 -0.4380168616771698 0
-2.482112407684326 1.4048832654953003 -0.34549999237060547 30
-2.443189859390259 1.3834161758422852 -0.2422933429479599 30
-2.4401707649230957 1.3822691440582275 -0.14448818564414978 30
-2.447200059890747 1.3868151903152466 -0.04794655740261078 30
-2.4239935874938965 1.374223232269287 0.7358605265617371 30
-2.4531118869781494 1.3912968635559082 0.6417497396469116 30
-2.462336540222168 1.3970967531204224 0.5423641800880432 30
-2.4641895294189453 1.398716688156128 0.44222164154052734 30
-2.424046754837036 1.3764904737472534 0.33757805824279785 30
-2.449917793273926 1.3917467594146729 0.243164524435997 30
-2.4382164478302 1.3856624364852905 0.1449705958366394 30
-2.4104864597320557 1.370459794998169 0.04773232713341713 30
-1.6612809896469116 0.9468093514442444 -0.502109169960022 119
-1.9250504970550537 1.0975838899612427 -0.5027658939361572 119
-2.297146797180176 1.3102692365646362 -0.50614333152771 119
-2.4480743408203125 1.3969231843948364 -0.440363347530365 0
-2.4597067832946777 1.4041298627853394 -0.3430625796318054 30
-2.429452419281006 1.3874213695526123 -0.24142178893089294 30
-2.426417350769043 1.3862496614456177 -0.14396657049655914 30
-2.446441173553467 1.3982561826705933 -0.04803295060992241 30
-2.4021689891815186 1.3735086917877197 0.7306875586509705 30
-2.439537763595581 1.3954404592514038 0.6395019292831421 30
-2.435898780822754 1.3939231634140015 0.537598192691803 30
-2.4247586727142334 1.3881101608276367 0.4359711706638336 30
-2.3974530696868896 1.3730340003967285 0.33453133702278137 30
-2.440478563308716 1.398240566253662 0.24272873997688293 30
-2.4157934188842773 1.3846577405929565 0.14392387866973877 30
-2.3880999088287354 1.3693383932113647 0.047383278608322144 30
-1.6579657793045044 0.9526025056838989 -0.502109169960022 119
-1.9169838428497314 1.1018692255020142 -0.5016411542892456 119
-2.279794216156006 1.3109395503997803 -0.5032837390899658 119
-2.477429151535034 1.4251600503921509 -0.44662076234817505 0
-2.4375851154327393 1.4028058052062988 -0.34062519669532776 30
-2.4202778339385986 1.3934080600738525 -0.24098598957061768 30
-2.412909984588623 1.389726996421814 -0.1434449553489685 30
-2.411223888397217 1.389316201210022 -0.04742821678519249 30
-2.380621910095215 1.3722374439239502 0.7255144715309143 30
-2.426210641860962 1.3990797996520996 0.6372541189193726 30
-2.4097602367401123 1.3901541233062744 0.5328322649002075 30
-2.3942344188690186 1.3817545175552368 0.4312833249568939 30
-2.3754541873931885 1.3714689016342163 0.3320939540863037 30
-2.4269566535949707 1.401768684387207 0.24185717105865479 30
-2.3936522006988525 1.3830896615982056 0.14287716150283813 30
-2.3659896850585938 1.3676643371582031 0.047034233808517456 30
-1.6547977924346924 0.9580953121185303 -0.502109169960022 119
-1.9135127067565918 1.1078861951828003 -0.5016411542892456 119
-2.2714171409606934 1.3156352043151855 -0.5023306012153625 119
-2.4430289268493652 1.4156044721603394 -0.44114553928375244 0
-2.415992021560669 1.4005013704299927 -0.3381877839565277 30
-2.4072704315185547 1.3960070610046387 -0.24011443555355072 30
-2.3998942375183105 1.392289161682129 -0.14292334020137787 30
-2.385228157043457 1.384337306022644 -0.04699626937508583 30
-2.3595917224884033 1.3700090646743774 0.7203414440155029 30
-2.4091646671295166 1.3993538618087769 0.6338824033737183 30
-2.3884057998657227 1.387853741645813 0.5290194749832153 30
-2.3728034496307373 1.3793416023254395 0.42815807461738586 30
-2.353973865509033 1.3689454793930054 0.32965657114982605 30
-2.4096245765686035 1.4018718004226685 0.24054984748363495 30
-2.3720333576202393 1.3805561065673828 0.1418304443359375 30
-2.3444032669067383 1.365022897720337 0.04668518528342247 30
-1.651611566543579 0.9635775089263916 -0.502109169960022 119
-1.9054259061813354 1.1121028661727905 -0.5005163550376892 119
-2.258333683013916 1.3186061382293701 -0.5004242062568665 119
-2.421015739440918 1.4141602516174316 -0.4380168616771698 0
-2.393949270248413 1.3989108800888062 -0.33575040102005005 30
-2.3851823806762695 1.3943463563919067 -0.23837131261825562 30
-2.3820886611938477 1.3930957317352295 -0.14214091002941132 30
-2.363121509552002 1.3825567960739136 -0.046650707721710205 30
-2.342289924621582 1.3709180355072021 0.716461718082428 30
-2.3916521072387695 1.4003695249557495 0.6305106282234192 30
-2.366605758666992 1.3862590789794922 0.5252067446708679 30
-2.3509304523468018 1.3776283264160156 0.4250328242778778 30
-2.3320558071136475 1.367114782333374 0.327219158411026 30
-2.391826629638672 1.4027149677276611 0.23924250900745392 30
-2.349973201751709 1.378720998764038 0.14078372716903687 30
-2.322378396987915 1.3630759716033936 0.046336136758327484 30
-1.6480687856674194 0.9696244597434998 -0.502109169960022 119
-1.9013371467590332 1.1190791130065918 -0.5005163550376892 119
-2.249255895614624 1.3243839740753174 -0.4994710087776184 119
-2.4030508995056152 1.4155049324035645 -0.43567031621932983 0
-2.371703863143921 1.3975976705551147 -0.3333130180835724 30
-2.3671834468841553 1.3954906463623047 -0.23706398904323578 30
-2.3597629070281982 1.391671061515808 -0.14109766483306885 30
-2.3408150672912598 1.381047248840332 -0.04630514234304428 30
-2.3206121921539307 1.3696739673614502 0.7112887501716614 30
-2.3697221279144287 1.3992174863815308 0.6260150074958801 30
-2.340378522872925 1.3824423551559448 0.5204408168792725 30
-2.3288586139678955 1.3761857748031616 0.42190760374069214 30
-2.309941053390503 1.3655509948730469 0.32478177547454834 30
-2.3652327060699463 1.3987945318222046 0.23706363141536713 30
-2.327714681625366 1.3771547079086304 0.13973699510097504 30
-2.3044605255126953 1.3639397621154785 0.04607434943318367 30
-1.648828148841858 0.9778349995613098 -0.5034032464027405 119
-1.8974192142486572 1.1257092952728271 -0.5005163550376892 119
-2.240398645401001 1.329722285270691 -0.49851784110069275 119
-2.3811099529266357 1.4137994050979614 -0.4325416386127472 0
-2.354010820388794 1.3982646465301514 -0.33148500323295593 30
-2.34516978263855 1.3935672044754028 -0.23532088100910187 30
-2.3377225399017334 1.3896938562393188 -0.14005443453788757 30
-2.3187930583953857 1.3789887428283691 -0.045959584414958954 30
-2.3033645153045654 1.3703575134277344 0.7074089646339417 30
-2.343890428543091 1.3950220346450806 0.6203955411911011 30
-2.318669557571411 1.3805592060089111 0.516628086566925 30
-2.3070685863494873 1.3741974830627441 0.4187823235988617 30
-2.292370557785034 1.365984559059143 0.3229537308216095 30
-2.34322190284729 1.3968404531478882 0.23532050848007202 30
-2.310027837753296 1.3775993585586548 0.13895195722579956 30
-2.2868056297302246 1.3642915487289429 0.045812565833330154 30
-1.6454048156738281 0.983584463596344 -0.5034032464027405 119
-1.893478274345398 1.1323256492614746 -0.5005163550376892 119
-2.2315309047698975 1.3350147008895874 -0.4975646436214447 119
-2.359210252761841 1.4119579792022705 -0.42941296100616455 0
-2.3320839405059814 1.3962759971618652 -0.32904762029647827 30
-2.3274717330932617 1.3940664529800415 -0.23401352763175964 30
-2.3157248497009277 1.3875797986984253 -0.1390112042427063 30
-2.296813726425171 1.3767929077148438 -0.04561402276158333 30
-2.2861406803131104 1.3709378242492676 0.7035292387008667 30
-2.318117141723633 1.3906633853912354 0.6147760152816772 30
-2.297002077102661 1.3785414695739746 0.5128152966499329 30
-2.289555549621582 1.374616026878357 0.41643840074539185 30
-2.270570993423462 1.3637571334838867 0.32051634788513184 30
-2.321253538131714 1.3947495222091675 0.23357738554477692 30
-2.2880871295928955 1.3753647804260254 0.13790524005889893 30
-2.269176483154297 1.3645367622375488 0.04555077850818634 30
-1.6419614553451538 0.9893220663070679 -0.5034032464027405 119
-1.8895142078399658 1.1389281749725342 -0.5005163550376892 119
-2.222654342651367 1.3402615785598755 -0.49661147594451904 119
-2.337352991104126 1.40998113155365 -0.4262842535972595 0
-2.314448833465576 1.3967154026031494 -0.32721954584121704 30
-2.305534839630127 1.3918851613998413 -0.23227041959762573 30
-2.2894961833953857 1.382747769355774 -0.13770714402198792 30
-2.2748782634735107 1.3744609355926514 -0.0452684611082077 30
-2.2648074626922607 1.3689159154891968 0.6983562111854553 30
-2.292403221130371 1.3861418962478638 0.6091564893722534 30
-2.271177291870117 1.3738489151000977 0.5080493688583374 30
-2.2678427696228027 1.3723723888397217 0.4133131802082062 30
-2.2530605792999268 1.3639644384384155 0.3186883330345154 30
-2.2950682640075684 1.3899424076080322 0.23139849305152893 30
-2.270460844039917 1.3755812644958496 0.13712020218372345 30
-2.2472984790802 1.3620846271514893 0.045201729983091354 30
-1.638498067855835 0.9950475692749023 -0.5034032464027405 119
-1.8855270147323608 1.1455169916152954 -0.5005163550376892 119
-2.2179622650146484 1.34801185131073 -0.49661147594451904 119
-2.3197576999664307 1.410434603691101 -0.42393776774406433 0
-2.2925992012023926 1.394469976425171 -0.3247821629047394 30
-2.2878966331481934 1.3921568393707275 -0.2309630662202835 30
-2.267595052719116 1.3803459405899048 -0.13666391372680664 30
-2.2529871463775635 1.371992588043213 -0.044922903180122375 30
-2.24764084815979 1.3692747354507446 0.6944764256477356 30
-2.2625885009765625 1.378922462463379 0.6024129986763 30
-2.2496047019958496 1.3715481758117676 0.50423663854599 30
-2.250389814376831 1.3725656270980835 0.41096922755241394 30
-2.2313404083251953 1.3614811897277832 0.3162509500980377 30
-2.273196220397949 1.3875646591186523 0.22965538501739502 30
-2.2485995292663574 1.3730894327163696 0.13607348501682281 30
-2.2254652976989746 1.3594961166381836 0.04485268145799637 30
-1.6350147724151611 1.0007609128952026 -0.5034032464027405 119
-1.881516933441162 1.1520916223526 -0.5005163550376892 119
-2.2132434844970703 1.3557456731796265 -0.49661147594451904 119
-2.2979774475097656 1.4082021713256836 -0.4208090603351593 0
-2.275024652481079 1.3946828842163086 -0.32295411825180054 30
-2.2660388946533203 1.3897184133529663 -0.2292199432849884 30
-2.241482973098755 1.375197172164917 -0.13535988330841064 30
-2.2268807888031006 1.3667734861373901 -0.04449095204472542 30
-2.226383924484253 1.3670034408569336 0.689303457736969 30
-2.2411556243896484 1.3766120672225952 0.597917377948761 30
-2.223893880844116 1.3665437698364258 0.49947065114974976 30
-2.2329630851745605 1.372653603553772 0.4086253046989441 30
-2.2138924598693848 1.3614627122879028 0.3144228756427765 30
-2.251368999481201 1.3850513696670532 0.2279122769832611 30
-2.2310359477996826 1.3730789422988892 0.13528844714164734 30
-2.2036781311035156 1.3567720651626587 0.04450363293290138 30
-1.6272257566452026 1.0042104721069336 -0.502109169960022 119
-1.877281665802002 1.1589800119400024 -0.5005163550376892 119
-2.204083204269409 1.361269235610962 -0.4956582486629486 119
-2.2801971435546875 1.4088279008865356 -0.4184625446796417 0
-2.2572333812713623 1.3951841592788696 -0.3211260735988617 30
-2.248220920562744 1.3901559114456177 -0.22791261970996857 30
-2.2194418907165527 1.3728963136672974 -0.13431663811206818 30
-2.2048516273498535 1.364403247833252 -0.04414539039134979 30
-2.2049319744110107 1.3649852275848389 0.6841304302215576 30
-2.2236690521240234 1.3771216869354248 0.5945457220077515 30
-2.206352949142456 1.3669304847717285 0.4966111183166504 30
-2.2111263275146484 1.3704220056533813 0.4055000841617584 30
-2.192016124725342 1.3591073751449585 0.31198549270629883 30
-2.233579158782959 1.3854173421859741 0.22660492360591888 30
-2.209017276763916 1.3707163333892822 0.1342417299747467 30
-2.1774532794952393 1.3516569137573242 0.044067323207855225 30
-1.6196093559265137 1.0073336362838745 -0.5008150935173035 119
-1.8732246160507202 1.1655259132385254 -0.5005163550376892 119
-2.2034852504730225 1.3715485334396362 -0.49661147594451904 119
-2.2626888751983643 1.4089475870132446 -0.41611599922180176 0
-2.2355003356933594 1.3925589323043823 -0.31868869066238403 30
-2.2306723594665527 1.390092134475708 -0.22660528123378754 30
-2.1934497356414795 1.3674275875091553 -0.133012592792511 30
-2.183107852935791 1.3615093231201172 -0.04379982873797417 30
-2.183763027191162 1.3624475002288818 0.678957462310791 30
-2.2023162841796875 1.3745568990707397 0.5900501012802124 30
-2.189077854156494 1.3668252229690552 0.49375152587890625 30
-2.193763256072998 1.3702828884124756 0.4031561315059662 30
-2.1746327877044678 1.3588610887527466 0.31015744805336 30
-2.2118349075317383 1.3826444149017334 0.22486181557178497 30
-2.1872851848602295 1.3678290843963623 0.13319499790668488 30
-2.160003900527954 1.351300835609436 0.04380553960800171 30
-1.611991047859192 1.010416030883789 -0.4995209574699402 119
-1.8732725381851196 1.1746459007263184 -0.5016411542892456 119
-2.1986842155456543 1.3792318105697632 -0.49661147594451904 119
-2.241024971008301 1.4063371419906616 -0.4129873216152191 0
-2.2180161476135254 1.3924378156661987 -0.3168606460094452 30
-2.2131521701812744 1.389922857284546 -0.2252979427576065 30
-2.1759791374206543 1.367106556892395 -0.13223016262054443 30
-2.1656441688537598 1.3611407279968262 -0.04354066029191017 30
-2.1667275428771973 1.362349271774292 0.6750776767730713 30
-2.1851325035095215 1.3744539022445679 0.5866783857345581 30
-2.171830654144287 1.3666160106658936 0.4908919930458069 30
-2.1764285564422607 1.3700395822525024 0.40081220865249634 30
-2.153078317642212 1.3558655977249146 0.3077200651168823 30
-2.1943519115448 1.3823918104171753 0.22355449199676514 30
-2.1698246002197266 1.367469072341919 0.1324099600315094 30
-2.1468193531036377 1.3534942865371704 0.04363101348280907 30
-1.6084543466567993 1.0160367488861084 -0.4995209574699402 119
-1.8691608905792236 1.1811776161193848 -0.5016411542892456 119
-2.2021541595458984 1.3921438455581665 -0.49851784110069275 119
-2.223581075668335 1.4062325954437256 -0.41064080595970154 0
-2.196366786956787 1.3895585536956787 -0.31442326307296753 30
-2.1956605911254883 1.3896484375 -0.22399060428142548 30
-2.1585378646850586 1.3666808605194092 -0.13144773244857788 30
-2.148209571838379 1.3606668710708618 -0.04328148812055588 30
-2.149719476699829 1.3621490001678467 0.6711979508399963 30
-2.1679766178131104 1.374247670173645 0.5833066701889038 30
-2.154611587524414 1.3663030862808228 0.48803240060806274 30
-2.1591222286224365 1.3696918487548828 0.3984682559967041 30
-2.1357619762420654 1.3553955554962158 0.30589205026626587 30
-2.1726927757263184 1.3793643712997437 0.22181135416030884 30
-2.152393102645874 1.3670040369033813 0.13162492215633392 30
-2.129422903060913 1.35293710231781 0.04336922615766525 30
-1.6048978567123413 1.0216450691223145 -0.4995209574699402 119
-1.8691353797912598 1.1903119087219238 -0.5027658939361572 119
-2.1848621368408203 1.3919103145599365 -0.4956582486629486 119
-2.206164836883545 1.4060231447219849 -0.40829429030418396 30
-2.1789491176605225 1.389212965965271 -0.3125952184200287 30
-2.1781976222991943 1.3892686367034912 -0.22268325090408325 30
-2.1411259174346924 1.3661497831344604 -0.13066530227661133 30
-2.130805015563965 1.3600878715515137 -0.04302231967449188 30
-2.132739543914795 1.3618465662002563 0.6673181653022766 30
-2.150848627090454 1.3739386796951294 0.5799349546432495 30
-2.1374213695526123 1.3658866882324219 0.4851728081703186 30
-2.137683868408203 1.3665801286697388 0.39534303545951843 30
-2.1184751987457275 1.3548212051391602 0.30406397581100464 30
-2.1552772521972656 1.3788870573043823 0.220504030585289 30
-2.1391971111297607 1.3691258430480957 0.1311015635728836 30
-2.1162667274475098 1.3549705743789673 0.04319470375776291 30
-1.6094521284103394 1.0324565172195435 -0.502109169960022 119
-1.8690695762634277 1.1994603872299194 -0.5038906931877136 119
-2.155207872390747 1.3836185932159424 -0.4899391233921051 119
-2.1887779235839844 1.4057096242904663 -0.4059477746486664 30
-2.1615607738494873 1.3887628316879272 -0.31076717376708984 30
-2.160764694213867 1.3887841701507568 -0.22137592732906342 30
-2.1279444694519043 1.3682146072387695 -0.1301436871290207 30
-2.1134307384490967 1.3594039678573608 -0.04276314750313759 30
-2.115787982940674 1.3614423274993896 0.6634384393692017 30
-2.1337499618530273 1.373526930809021 0.5765632390975952 30
-2.120260715484619 1.3653671741485596 0.48231327533721924 30
-2.120445489883423 1.3660099506378174 0.3929990828037262 30
-2.1012187004089355 1.354142665863037 0.3022359609603882 30
-2.1378917694091797 1.3783050775527954 0.21919669210910797 30
-2.121816635131836 1.368465781211853 0.13031652569770813 30
-2.09892201423645 1.354218602180481 0.04293292015790939 30
-1.613950252532959 1.0433120727539062 -0.504697322845459 119
-1.8648712635040283 1.205977439880371 -0.5038906931877136 119
-2.1297593116760254 1.377802848815918 -0.48517316579818726 119
-2.171419620513916 1.4052916765213013 -0.4036012589931488 30
-2.1400365829467773 1.3855112791061401 -0.3083297908306122 30
-2.1433615684509277 1.3881949186325073 -0.2200685739517212 30
-2.110584020614624 1.3674888610839844 -0.12936127185821533 30
-2.0960874557495117 1.3586156368255615 -0.04250397905707359 30
-2.098865032196045 1.3609364032745361 0.6595586538314819 30
-2.1166799068450928 1.373012661933899 0.5731915235519409 30
-2.1031293869018555 1.3647443056106567 0.4794536828994751 30
-2.1032376289367676 1.3653364181518555 0.39065515995025635 30
-2.0839927196502686 1.3533604145050049 0.30040791630744934 30
-2.1205368041992188 1.377618670463562 0.21788936853408813 30
-2.1086535453796387 1.370422124862671 0.1297931671142578 30
-2.0816080570220947 1.353361964225769 0.04267112910747528 30
-1.6143454313278198 1.0515755414962769 -0.5059914588928223 119
-1.8565682172775269 1.2098196744918823 -0.5027658939361572 119
-2.108489990234375 1.3745070695877075 -0.48136040568351746 119
-2.1540915966033936 1.4047701358795166 -0.4012547433376312 30
-2.12271785736084 1.3848382234573364 -0.30650171637535095 30
-2.1259891986846924 1.3875014781951904 -0.21876125037670135 30
-2.093254566192627 1.3666585683822632 -0.12857884168624878 30
-2.07877516746521 1.3577227592468262 -0.0422448068857193 30
-2.077928304672241 1.3576871156692505 0.6543856263160706 30
-2.099639892578125 1.3723958730697632 0.5698198080062866 30
-2.086028575897217 1.3640189170837402 0.47659415006637573 30
-2.0860602855682373 1.364559292793274 0.3883112370967865 30
-2.066797971725464 1.3524744510650635 0.2985799014568329 30
-2.103212833404541 1.3768278360366821 0.2165820151567459 30
-2.087148427963257 1.3668321371078491 0.12874644994735718 30
-2.0601441860198975 1.3496615886688232 0.04232208430767059 30
-1.606627345085144 1.0545541048049927 -0.504697322845459 119
-1.852333903312683 1.2162930965423584 -0.5027658939361572 119
-2.0872695446014404 1.3710795640945435 -0.47754764556884766 119
-2.1326663494110107 1.4014323949813843 -0.3981260061264038 30
-2.109576940536499 1.3867870569229126 -0.3052830398082733 30
-2.1044862270355225 1.3839666843414307 -0.21701814234256744 30
-2.0717854499816895 1.3629800081253052 -0.1275355964899063 30
-2.057319402694702 1.3539774417877197 -0.041899245232343674 30
-2.0610744953155518 1.3569644689559937 0.6505058407783508 30
-2.0785610675811768 1.3689972162246704 0.5653241872787476 30
-2.0648603439331055 1.360490322113037 0.4727814197540283 30
-2.0689139366149902 1.363679051399231 0.38596731424331665 30
-2.0496349334716797 1.351485013961792 0.29675182700157166 30
-2.085920572280884 1.3759334087371826 0.21527469158172607 30
-2.0656943321228027 1.3631091117858887 0.12769973278045654 30
-2.0429041385650635 1.348582148551941 0.04206029698252678 30
-1.6029365062713623 1.0601558685302734 -0.504697322845459 119
-1.8480769395828247 1.222751498222351 -0.5027658939361572 119
-2.0701920986175537 1.3702300786972046 -0.4746881127357483 119
-2.107173442840576 1.3952362537384033 -0.3942151665687561 30
-2.092311143875122 1.3859208822250366 -0.30345502495765686 30
-2.087185859680176 1.3830502033233643 -0.21571078896522522 30
-2.0545296669006348 1.3619270324707031 -0.12675316631793976 30
-2.040081024169922 1.3528616428375244 -0.04164007306098938 30
-2.0402262210845947 1.3534706830978394 0.6453328728675842 30
-2.061591625213623 1.3681623935699463 0.5619524717330933 30
-2.0478310585021973 1.359545350074768 0.4699218273162842 30
-2.0517992973327637 1.3626958131790161 0.3836233615875244 30
-2.032504081726074 1.35039222240448 0.2949237823486328 30
-2.068660020828247 1.3749345541000366 0.21396735310554504 30
-2.0442917346954346 1.3592528104782104 0.12665300071239471 30
-2.021533966064453 1.3446300029754639 0.04171124845743179 30
-1.5992259979248047 1.0657446384429932 -0.504697322845459 119
-1.8437974452972412 1.2291948795318604 -0.5027658939361572 119
-2.049062490463257 1.366554617881775 -0.4708753526210785 119
-2.08174991607666 1.3888792991638184 -0.390304297208786 30
-2.0750772953033447 1.3849509954452515 -0.30162695050239563 30
-2.069918155670166 1.3820300102233887 -0.21440346539020538 30
-2.037306785583496 1.360770344734192 -0.1259707510471344 30
-2.022876262664795 1.3516426086425781 -0.041380904614925385 30
-2.0234432220458984 1.352532148361206 0.6414531469345093 30
-2.0446531772613525 1.3672258853912354 0.558580756187439 30
-2.0308339595794678 1.3584980964660645 0.4670622944831848 30
-2.0388214588165283 1.364356517791748 0.3820607364177704 30
-2.0195300579071045 1.3519573211669922 0.2937051057815552 30
-2.0514321327209473 1.37383234500885 0.212660014629364 30
-2.027089834213257 1.3580431938171387 0.12586797773838043 30
-2.0043697357177734 1.3433287143707275 0.04144946485757828 30
-1.5995057821273804 1.0740128755569458 -0.5059914588928223 119
-1.8435399532318115 1.238340139389038 -0.5038906931877136 119
-2.032058000564575 1.3654860258102417 -0.46801578998565674 119
-2.056396722793579 1.3823620080947876 -0.3863934576511383 30
-2.0619940757751465 1.3866472244262695 -0.300408273935318 30
-2.052682876586914 1.3809059858322144 -0.21309611201286316 30
-2.0201168060302734 1.359510064125061 -0.12518832087516785 30
-2.0098519325256348 1.3531116247177124 -0.04120812565088272 30
-2.0066912174224854 1.3514927625656128 0.6375733613967896 30
-2.0277469158172607 1.3661879301071167 0.5552090406417847 30
-2.013869047164917 1.3573490381240845 0.4642027020454407 30
-2.0217621326446533 1.3631821870803833 0.37971681356430054 30
-2.002455711364746 1.3506731986999512 0.29187706112861633 30
-2.0342371463775635 1.3726266622543335 0.21135267615318298 30
-2.0140602588653564 1.3595236539840698 0.12534461915493011 30
-1.991382122039795 1.3447215557098389 0.041274938732385635 30
-1.5997470617294312 1.0822957754135132 -0.5072855353355408 119
-1.8392060995101929 1.2447677850723267 -0.5038906931877136 119
-2.0150861740112305 1.3643156290054321 -0.465156227350235 119
-2.039292097091675 1.381223440170288 -0.38404691219329834 30
-2.0448157787323 1.385485291481018 -0.29858022928237915 30
-2.031357765197754 1.3768839836120605 -0.21135300397872925 30
-2.0029611587524414 1.3581466674804688 -0.12440589815378189 30
-1.9968417882919312 1.3545061349868774 -0.04103534296154976 30
-1.9939684867858887 1.3530652523040771 0.6349868178367615 30
-2.0149035453796387 1.3677849769592285 0.5529612302780151 30
-2.000997543334961 1.3588556051254272 0.46229633688926697 30
-2.0047364234924316 1.3619056940078735 0.3773728907108307 30
-1.985414981842041 1.349286437034607 0.2900490164756775 30
-2.0211949348449707 1.3741182088851929 0.21048112213611603 30
-2.001044750213623 1.3609296083450317 0.1248212531208992 30
-1.9784096479415894 1.3460403680801392 0.04110041633248329 30
-1.6039408445358276 1.0933139324188232 -0.5098737478256226 119
-1.8348498344421387 1.2511802911758423 -0.5038906931877136 119
-1.9981472492218018 1.3630434274673462 -0.46229663491249084 119
-2.022221088409424 1.3799827098846436 -0.38170042634010315 30
-2.0276708602905273 1.3842203617095947 -0.2967521846294403 30
-2.0141992568969727 1.3755393028259277 -0.21004565060138702 30
-1.9899623394012451 1.3594967126846313 -0.12388427555561066 30
-1.9838470220565796 1.355826735496521 -0.040862563997507095 30
-1.9772721529006958 1.3518396615982056 0.6311070919036865 30
-1.9980522394180298 1.3665586709976196 0.5495895147323608 30
-1.9840894937515259 1.3575172424316406 0.4594367444515228 30
-1.9877439737319946 1.3605269193649292 0.37502893805503845 30
-1.972503423690796 1.350601077079773 0.28883031010627747 30
-2.0040581226348877 1.372720718383789 0.2091737687587738 30
-1.988044261932373 1.3622616529464722 0.12429789453744888 30
-1.965451955795288 1.3472849130630493 0.04092589020729065 30
-1.5999228954315186 1.0991852283477783 -0.5098737478256226 119
-1.830251693725586 1.2578970193862915 -0.5038906931877136 119
-1.9850488901138306 1.3647962808609009 -0.46039026975631714 119
-2.0090115070343018 1.3817877769470215 -0.38013604283332825 30
-2.0103182792663574 1.3832037448883057 -0.29492413997650146 30
-1.992732048034668 1.3716158866882324 -0.2083025425672531 30
-1.9767409563064575 1.3611176013946533 -0.12336266040802002 30
-1.96651291847229 1.3545809984207153 -0.0406033918261528 30
-1.9643498659133911 1.3535964488983154 0.6285205483436584 30
-1.9809961318969727 1.3655771017074585 0.5462177991867065 30
-1.966978669166565 1.356420874595642 0.45657721161842346 30
-1.9705487489700317 1.359390377998352 0.372685045003891 30
-1.9552865028381348 1.3493653535842896 0.287002295255661 30
-1.9908150434494019 1.3743969202041626 0.20830221474170685 30
-1.9707120656967163 1.3610265254974365 0.12351284921169281 30
-1.9522747993469238 1.3487964868545532 0.040751367807388306 30
-1.5921051502227783 1.1020146608352661 -0.5085796117782593 119
-1.8218441009521484 1.2615044116973877 -0.5027658939361572 119
-1.9681682586669922 1.3633323907852173 -0.457530677318573 119
-1.9919986724853516 1.3803540468215942 -0.37778955698013306 30
-1.9932421445846558 1.3817306756973267 -0.2930960953235626 30
-1.9756529331207275 1.3700482845306396 -0.20699521899223328 30
-1.9637724161148071 1.3623172044754028 -0.12284104526042938 30
-1.953558325767517 1.3557363748550415 -0.04043061286211014 30
-1.947710633277893 1.3521820306777954 0.6246408224105835 30
-1.9642125368118286 1.36414635181427 0.5428460836410522 30
-1.9541699886322021 1.3576775789260864 0.45467081665992737 30
-1.9536255598068237 1.3578050136566162 0.37034109234809875 30
-1.938340425491333 1.347683310508728 0.28517425060272217 30
-1.973738193511963 1.3728055953979492 0.206994891166687 30
-1.9536534547805786 1.3593418598175049 0.12272781878709793 30
-1.9352412223815918 1.3470402956008911 0.04048958048224449 30
-1.584287166595459 1.1048028469085693 -0.5072855353355408 119
-1.81343412399292 1.2650690078735352 -0.5016411542892456 119
-1.9513221979141235 1.361767292022705 -0.45467114448547363 119
-1.9750200510025024 1.3788180351257324 -0.3754430115222931 30
-1.980269432067871 1.3829967975616455 -0.291877418756485 30
-1.9586089849472046 1.3683781623840332 -0.20568786561489105 30
-1.9467270374298096 1.3605824708938599 -0.12205860763788223 30
-1.9365227222442627 1.3539538383483887 -0.04017144441604614 30
-1.931105136871338 1.3506677150726318 0.6207610368728638 30
-1.9474629163742065 1.3626151084899902 0.539474368095398 30
-1.9373555183410645 1.3560467958450317 0.4518112540245056 30
-1.9407832622528076 1.3589508533477783 0.3687784671783447 30
-1.9214303493499756 1.3458995819091797 0.2833462357521057 30
-1.9607758522033691 1.3739699125289917 0.20612333714962006 30
-1.9366306066513062 1.3575549125671387 0.12194277346134186 30
-1.9182521104812622 1.3451710939407349 0.040227796882390976 30
-1.580420970916748 1.1103261709213257 -0.5072855353355408 119
-1.8090070486068726 1.2713912725448608 -0.5016411542892456 119
-1.9385262727737427 1.3629244565963745 -0.4527647793292999 0
-1.9580771923065186 1.377180814743042 -0.3730964958667755 30
-1.963253378868103 1.381333589553833 -0.29004934430122375 30
-1.941601037979126 1.3666058778762817 -0.20438054203987122 30
-1.9297178983688354 1.3587455749511719 -0.12127619236707687 30
-1.9195233583450317 1.352068543434143 -0.03991227224469185 30
-1.914534330368042 1.3490544557571411 0.6168813109397888 30
-1.9307482242584229 1.3609837293624878 0.5361026525497437 30
-1.9205764532089233 1.3543154001235962 0.44895169138908386 30
-1.9239212274551392 1.3571768999099731 0.3664345443248749 30
-1.9086108207702637 1.346875548362732 0.2821275293827057 30
-1.9437602758407593 1.3721880912780762 0.20481598377227783 30
-1.9196443557739258 1.355665683746338 0.12115773558616638 30
-1.9012953042984009 1.3432049751281738 0.03996600955724716 30
-1.5725935697555542 1.1130460500717163 -0.5059914588928223 119
-1.8005818128585815 1.2748827934265137 -0.5005163550376892 119
-1.9217408895492554 1.361171841621399 -0.4499051868915558 0
-1.945198893547058 1.3782970905303955 -0.3715321719646454 30
-1.950322151184082 1.3824385404586792 -0.2888306677341461 30
-1.9246293306350708 1.3647315502166748 -0.203073188662529 30
-1.9127453565597534 1.3568063974380493 -0.12049376219511032 30
-1.9025607109069824 1.3500810861587524 -0.039653100073337555 30
-1.897998332977295 1.347341775894165 0.6130015254020691 30
-1.9180411100387573 1.3620731830596924 0.5338548421859741 30
-1.8998316526412964 1.3496408462524414 0.44513896107673645 30
-1.9111210107803345 1.3581626415252686 0.36487194895744324 30
-1.8917633295059204 1.3449029922485352 0.28029948472976685 30
-1.9267812967300415 1.3703043460845947 0.203508660197258 30
-1.9026947021484375 1.3536744117736816 0.1203726977109909 30
-1.8843761682510376 1.3411370515823364 0.03970422223210335 30
-1.568698763847351 1.1185287237167358 -0.5059914588928223 119
-1.7921546697616577 1.2783312797546387 -0.4993916451931 119
-1.9089869260787964 1.362169623374939 -0.4479987919330597 0
-1.9283175468444824 1.3764711618423462 -0.3691856265068054 30
-1.937407374382019 1.383470058441162 -0.2876119613647461 30
-1.911747694015503 1.3656508922576904 -0.20220163464546204 30
-1.8958100080490112 1.35476553440094 -0.11971132457256317 30
-1.8856358528137207 1.3479923009872437 -0.03939393162727356 30
-1.881497859954834 1.345530390739441 0.6091217994689941 30
-1.901387333869934 1.3602557182312012 0.5304831266403198 30
-1.8831346035003662 1.347694754600525 0.4422793686389923 30
-1.8943216800689697 1.356200933456421 0.362527996301651 30
-1.8789880275726318 1.3457190990447998 0.2790807783603668 30
-1.9138883352279663 1.3712199926376343 0.20263710618019104 30
-1.8857824802398682 1.3515815734863281 0.11958765238523483 30
-1.8674945831298828 1.3389676809310913 0.03944243863224983 30
-1.5687072277069092 1.1268151998519897 -0.5072855353355408 119
-1.7876815795898438 1.2845792770385742 -0.4993916451931 119
-1.8962496519088745 1.3630952835083008 -0.446092426776886 0
-1.9154821634292603 1.3774274587631226 -0.3676212728023529 30
-1.924509048461914 1.3844282627105713 -0.28639328479766846 30
-1.8948402404785156 1.363587498664856 -0.2008943110704422 30
-1.8789124488830566 1.3526231050491333 -0.11892890930175781 30
-1.8687485456466675 1.3458014726638794 -0.039134759455919266 30
-1.8689519166946411 1.3464434146881104 0.6065353155136108 30
-1.8887227773666382 1.3611875772476196 0.5282353162765503 30
-1.8664745092391968 1.3456485271453857 0.43941983580589294 30
-1.8815650939941406 1.357027292251587 0.360965371131897 30
-1.8622052669525146 1.343558669090271 0.277252733707428 30
-1.8969733715057373 1.3691469430923462 0.20132976770401 30
-1.8729567527770996 1.3523101806640625 0.11906429380178452 30
-1.8547042608261108 1.3396239280700684 0.03926791250705719 30
-1.564764380455017 1.1322840452194214 -0.5072855353355408 119
-1.7792400121688843 1.2879548072814941 -0.49826687574386597 119
-1.8835289478302002 1.3639483451843262 -0.4441860616207123 0
-1.8986645936965942 1.3754140138626099 -0.3652747869491577 30
-1.9076093435287476 1.3824013471603394 -0.2845652401447296 30
-1.8820033073425293 1.3643463850021362 -0.20002272725105286 30
-1.8620529174804688 1.3503793478012085 -0.11814647167921066 30
-1.8519001007080078 1.343509554862976 -0.03887559100985527 30
-1.8525137901306152 1.344448447227478 0.6026555299758911 30
-1.8721321821212769 1.3591852188110352 0.524863600730896 30
-1.8538230657577515 1.3463867902755737 0.43751341104507446 30
-1.864830493927002 1.3548784255981445 0.35862141847610474 30
-1.8494752645492554 1.3442155122756958 0.27603402733802795 30
-1.880096673965454 1.366972804069519 0.20002241432666779 30
-1.85611093044281 1.3500287532806396 0.11827925592660904 30
-1.841931939125061 1.3402072191238403 0.039093390107154846 30
-1.5608024597167969 1.1377393007278442 -0.5072855353355408 119
-1.7747334241867065 1.29415762424469 -0.49826687574386597 119
-1.8708258867263794 1.364729642868042 -0.4422796666622162 0
-1.8858734369277954 1.3762109279632568 -0.3637104332447052 30
-1.8947557210922241 1.3831995725631714 -0.283346563577652 30
-1.8651617765426636 1.362094759941101 -0.19871540367603302 30
-1.849264144897461 1.3509798049926758 -0.11762485653162003 30
-1.8391265869140625 1.3440662622451782 -0.03870280832052231 30
-1.840011477470398 1.3452056646347046 0.6000690460205078 30
-1.859511137008667 1.359959602355957 0.5226157903671265 30
-1.8372280597686768 1.344155192375183 0.4346538782119751 30
-1.8481340408325195 1.352629542350769 0.3562775254249573 30
-1.8367632627487183 1.344799518585205 0.2748153507709503 30
-1.867276668548584 1.3676408529281616 0.19915086030960083 30
-1.8433316946029663 1.3505973815917969 0.11775589734315872 30
-1.8291783332824707 1.3407180309295654 0.038918863981962204 30
-1.5568214654922485 1.1431806087493896 -0.5072855353355408 119
-1.7702051401138306 1.300344705581665 -0.49826687574386597 119
-1.8620954751968384 1.3683453798294067 -0.4413264989852905 0
-1.8691210746765137 1.374010443687439 -0.3613639175891876 30
-1.8779215812683105 1.3809846639633179 -0.28151848912239075 30
-1.8523714542388916 1.3626939058303833 -0.19784384965896606 30
-1.832472562789917 1.3485482931137085 -0.11684243381023407 30
-1.826371669769287 1.3445500135421753 -0.038530029356479645 30
-1.827526569366455 1.345892071723938 0.5974825024604797 30
-1.8429850339889526 1.3577728271484375 0.5192440748214722 30
-1.8246225118637085 1.344736099243164 0.432747483253479 30
-1.8354512453079224 1.3532111644744873 0.35471490025520325 30
-1.8240699768066406 1.3453115224838257 0.2735966444015503 30
-1.8504672050476074 1.3652790784835815 0.197843536734581 30
-1.8305712938308716 1.3510934114456177 0.1172325387597084 30
-1.8164435625076294 1.3411558866500854 0.03874434158205986 30
-1.5489388704299927 1.1457358598709106 -0.5059914588928223 119
-1.765655279159546 1.3065159320831299 -0.49826687574386597 119
-1.8494175672531128 1.3689963817596436 -0.4394201338291168 0
-1.8563759326934814 1.3746486902236938 -0.3597995638847351 30
-1.861126184463501 1.378669261932373 -0.2796904444694519 30
-1.8395997285842896 1.363220453262329 -0.19697228074073792 30
-1.819731593132019 1.348989486694336 -0.11632081866264343 30
-1.8176515102386475 1.347939133644104 -0.038443636149168015 30
-1.8150595426559448 1.3465080261230469 0.5948960185050964 30
-1.8304097652435303 1.3583909273147583 0.5169962644577026 30
-1.8120355606079102 1.345245361328125 0.4308411180973053 30
-1.8188220262527466 1.350776195526123 0.352370947599411 30
-1.807412028312683 1.3427919149398804 0.27176862955093384 30
-1.837694525718689 1.3657876253128052 0.19697198271751404 30
-1.8178298473358154 1.351516604423523 0.11670918017625809 30
-1.8037281036376953 1.3415212631225586 0.038569819182157516 30
-1.5449299812316895 1.1511356830596924 -0.5059914588928223 119
-1.761083960533142 1.3126713037490845 -0.49826687574386597 119
-1.8367578983306885 1.3695757389068604 -0.43751370906829834 0
-1.8396905660629272 1.3722621202468872 -0.35745301842689514 30
-1.8483473062515259 1.3792215585708618 -0.2784717381000519 30
-1.8228552341461182 1.3606948852539062 -0.19566494226455688 30
-1.8070100545883179 1.3493582010269165 -0.1157992035150528 30
-1.8049249649047852 1.3482918739318848 -0.03827085718512535 30
-1.798741340637207 1.3441619873046875 0.5910162329673767 30
-1.8178523778915405 1.3589377403259277 0.5147484540939331 30
-1.7955363988876343 1.3427438735961914 0.42798152565956116 30
-1.8061870336532593 1.3512003421783447 0.350808322429657 30
-1.794767141342163 1.343145728111267 0.2705499529838562 30
-1.8249411582946777 1.366223931312561 0.19610042870044708 30
-1.8051079511642456 1.3518677949905396 0.11618582159280777 30
-1.7870315313339233 1.3388168811798096 0.038308028131723404 30
-1.5409023761749268 1.1565215587615967 -0.5059914588928223 119
-1.7564911842346191 1.3188107013702393 -0.49826687574386597 119
-1.824116826057434 1.3700833320617676 -0.43560734391212463 0
-1.8269929885864258 1.3727422952651978 -0.355888694524765 30
-1.831620693206787 1.3767197132110596 -0.2766437232494354 30
-1.8101321458816528 1.3610626459121704 -0.19479337334632874 30
-1.794308066368103 1.3496545553207397 -0.11527758091688156 30
-1.7922183275222778 1.3485724925994873 -0.03809807822108269 30
-1.786320686340332 1.34462308883667 0.5884297490119934 30
-1.8053137063980103 1.359413504600525 0.5125006437301636 30
-1.7829973697662354 1.3430968523025513 0.42607516050338745 30
-1.7896270751953125 1.3485805988311768 0.3484644293785095 30
-1.7781789302825928 1.3404403924942017 0.26872187852859497 30
-1.8082300424575806 1.3635886907577515 0.19479307532310486 30
-1.7924057245254517 1.3521463871002197 0.11566246300935745 30
-1.7743662595748901 1.3390238285064697 0.03813350573182106 30
-1.5407084226608276 1.1648057699203491 -0.5072855353355408 119
-1.751876950263977 1.3249338865280151 -0.49826687574386597 119
-1.8114945888519287 1.3705195188522339 -0.43370094895362854 0
-1.8103768825531006 1.3701707124710083 -0.35354217886924744 30
-1.8188906908035278 1.377113699913025 -0.2754250168800354 30
-1.7934582233428955 1.3583508729934692 -0.1934860497713089 30
-1.7816262245178223 1.3498787879943848 -0.11475596576929092 30
-1.7755476236343384 1.3457610607147217 -0.03783890977501869 30
-1.7700704336166382 1.3420960903167725 0.5845500230789185 30
-1.788912057876587 1.3568739891052246 0.5091289281845093 30
-1.7704782485961914 1.3433789014816284 0.42416879534721375 30
-1.7770414352416992 1.3488476276397705 0.3469018042087555 30
-1.761631965637207 1.33763587474823 0.2668938636779785 30
-1.795526385307312 1.3638665676116943 0.1939215213060379 30
-1.7797237634658813 1.3523530960083008 0.11513910442590714 30
-1.7577416896820068 1.3361334800720215 0.037871718406677246 30
-1.5327908992767334 1.1672508716583252 -0.5059914588928223 119
-1.7511169910430908 1.3339934349060059 -0.4993916451931 119
-1.7988917827606201 1.3708841800689697 -0.43179458379745483 0
-1.797728419303894 1.3704936504364014 -0.3519778251647949 30
