# .PCD v0.7 - Point Cloud Data file format
VERSION 0.7
FIELDS x y z intensity
SIZE 4 4 4 4
TYPE F F F F
COUNT 1 1 1 1
WIDTH 829
HEIGHT 1
VIEWPOINT 0 0 0 1 0 0 0
POINTS 829
DATA ascii
2.295285940170288 2.087817668914795 -0.052957188338041306 44
2.2688498497009277 2.0630478858947754 0.8108691573143005 44
2.2815752029418945 2.0738914012908936 0.702440619468689 44
2.3132381439208984 2.1019351482391357 0.5995554327964783 44
2.2948005199432373 2.0844504833221436 0.48441240191459656 44
2.280532121658325 2.07076358795166 0.37352949380874634 44
2.2965500354766846 2.0845770835876465 0.268003910779953 44
2.295063018798828 2.0824968814849854 0.16040968894958496 44
2.2907862663269043 2.0778872966766357 0.05331709608435631 44
1.385202169418335 1.2542638778686523 -0.4904623031616211 119
1.5851056575775146 1.4347678422927856 -0.4847698211669922 119
1.9100064039230347 1.7282472848892212 -0.49279871582984924 119
2.251486301422119 2.0365169048309326 -0.4747789800167084 119
2.3216745853424072 2.09926700592041 -0.3796234428882599 44
2.3193867206573486 2.0964627265930176 -0.2701832056045532 44
2.303145170211792 2.081051826477051 -0.16013672947883606 44
2.3099796772003174 2.0864951610565186 -0.053129974752664566 44
2.2867915630340576 2.0648257732391357 0.8147488832473755 44
2.2960336208343506 2.0724434852600098 0.7046884298324585 44
2.3132729530334473 2.087271213531494 0.597649097442627 44
2.3167314529418945 2.089658498764038 0.4875376522541046 44
2.2951178550720215 2.069437026977539 0.37474822998046875 44
2.3112123012542725 2.0832178592681885 0.26887547969818115 44
2.309737205505371 2.081157684326172 0.16093306243419647 44
2.309169054031372 2.0799155235290527 0.05357888340950012 44
1.3931632041931152 1.2526501417160034 -0.491756409406662 119
1.586480975151062 1.4259693622589111 -0.4836450219154358 119
1.9160274267196655 1.721569538116455 -0.49279871582984924 119
2.2622551918029785 2.03194522857666 -0.4755611717700958 119
2.3363735675811768 2.0977814197540283 -0.3808421194553375 44
2.334104061126709 2.09500789642334 -0.27105477452278137 44
2.321544885635376 2.0830037593841553 -0.1609191596508026 44
2.3246922492980957 2.085095167160034 -0.05330275371670723 44
2.3011772632598877 2.063279390335083 0.8173353672027588 44
2.3141379356384277 2.074171781539917 0.708060085773468 44
2.32420015335083 2.0824592113494873 0.5986022353172302 44
2.331368923187256 2.088148593902588 0.48910024762153625 44
2.3134193420410156 2.0713441371917725 0.3765762448310852 44
2.329604387283325 2.0851030349731445 0.2701827883720398 44
2.328150987625122 2.0830705165863037 0.16171810030937195 44
2.327594041824341 2.081840753555298 0.053840670734643936 44
1.4011298418045044 1.2509959936141968 -0.4930504858493805 119
1.5914487838745117 1.4204226732254028 -0.4836450219154358 119
1.9293501377105713 1.7214062213897705 -0.49470508098602295 119
2.273019790649414 2.027323007583618 -0.4763433039188385 119
2.351090431213379 2.0962183475494385 -0.38206082582473755 44
2.3525583744049072 2.096790075302124 -0.2723621129989624 44
2.3362581729888916 2.0815305709838867 -0.16144077479839325 44
2.3394227027893066 2.083617687225342 -0.05347553268074989 44
2.319187641143799 2.0648694038391113 0.8212151527404785 44
2.3286426067352295 2.072559356689453 0.7103078961372375 44
2.3351223468780518 2.0775961875915527 0.5995554327964783 44
2.342334032058716 2.083280086517334 0.48988157510757446 44
2.3280529975891113 2.0698511600494385 0.37779495120048523 44
2.3443145751953125 2.0835766792297363 0.27105435729026794 44
2.3428735733032227 2.081563949584961 0.16224145889282227 44
2.342322587966919 2.080343008041382 0.05401519685983658 44
1.409101963043213 1.249301552772522 -0.4943445920944214 119
1.5963972806930542 1.4148588180541992 -0.4836450219154358 119
1.950042486190796 1.7276809215545654 -0.49851784110069275 119
2.2874765396118164 2.0259251594543457 -0.477907657623291 119
2.3658246994018555 2.094578266143799 -0.3832795321941376 44
2.3673229217529297 2.095167636871338 -0.27323368191719055 44
2.3509888648986816 2.079979658126831 -0.1619623899459839 44
2.3541712760925293 2.0820627212524414 -0.053648315370082855 44
2.333617925643921 2.063159465789795 0.8238016963005066 44
2.3468151092529297 2.0740973949432373 0.7136796116828918 44
2.346038579940796 2.0726819038391113 0.6005086302757263 44
2.356994867324829 2.081629514694214 0.4914442002773285 44
2.3427047729492188 2.0682811737060547 0.37901362776756287 44
2.3590424060821533 2.081972360610962 0.2719259262084961 44
2.3576138019561768 2.07997989654541 0.16276481747627258 44
2.3570687770843506 2.0787675380706787 0.05418971925973892 44
1.413454294204712 1.244375228881836 -0.4943445920944214 119
1.6013263463974 1.4092777967453003 -0.4836450219154358 119
1.9265799522399902 1.6949268579483032 -0.49089235067367554 119
2.3019511699676514 2.0244505405426025 -0.47947201132774353 119
2.384303092956543 2.096137285232544 -0.38510754704475403 0
2.3821048736572266 2.0934674739837646 -0.2741052508354187 44
2.3657374382019043 2.0783517360687256 -0.16248400509357452 44
2.3689372539520264 2.080430269241333 -0.05382109433412552 44
2.348064661026001 2.0613739490509033 0.8263881802558899 44
2.3613643646240234 2.0723202228546143 0.7159274220466614 44
2.3606386184692383 2.0709540843963623 0.6024149656295776 44
2.36795973777771 2.076645612716675 0.4922254979610443 44
2.3573737144470215 2.066633939743042 0.3802323341369629 44
2.3737876415252686 2.0802910327911377 0.27279746532440186 44
2.3723714351654053 2.078317880630493 0.1632881760597229 44
2.3718326091766357 2.0771143436431885 0.054364245384931564 44
1.4141532182693481 1.2362550497055054 -0.4930504858493805 119
1.6062359809875488 1.403679609298706 -0.4836450219154358 119
1.9176987409591675 1.6752747297286987 -0.48707953095436096 119
2.31644344329834 2.022899627685547 -0.48103639483451843 119
2.399082660675049 2.0943291187286377 -0.38632622361183167 0
2.3969037532806396 2.0916898250579834 -0.27497678995132446 44
2.3805031776428223 2.076645851135254 -0.16300563514232635 44
2.383720636367798 2.0787198543548584 -0.05399387329816818 44
2.3661680221557617 2.0626864433288574 0.8302679657936096 44
2.3796029090881348 2.073667287826538 0.7192991375923157 44
2.371554136276245 2.065925121307373 0.6033682227134705 44
2.382642984390259 2.0748536586761475 0.49378812313079834 44
2.375802755355835 2.0681681632995605 0.38206037878990173 44
2.388549566268921 2.0785317420959473 0.27366903424263 44
2.38714599609375 2.076578378677368 0.16381153464317322 44
2.382840871810913 2.0721027851104736 0.05445150285959244 44
1.4184598922729492 1.2313112020492554 -0.4930504858493805 119
1.6148055791854858 1.4012572765350342 -0.4847698211669922 119
1.9087039232254028 1.6557053327560425 -0.48326680064201355 119
2.3309526443481445 2.0212721824645996 -0.48260071873664856 119
2.4138784408569336 2.0924429893493652 -0.3875449299812317 0
2.4117190837860107 2.089834213256836 -0.2758483588695526 44
2.3952858448028564 2.074862241744995 -0.163527250289917 44
2.3985207080841064 2.0769314765930176 -0.054166655987501144 44
2.380657434463501 2.0607364177703857 0.8328544497489929 44
2.394195556640625 2.0717244148254395 0.72154700756073 44
2.3861756324768066 2.064056634902954 0.6052745580673218 44
2.3973424434661865 2.072984457015991 0.49535074830055237 44
2.390516519546509 2.0663530826568604 0.38327908515930176 44
2.4033281803131104 2.0766947269439697 0.27454057335853577 44
2.401937484741211 2.074760913848877 0.16433489322662354 44
2.397627115249634 2.0703072547912598 0.05462602898478508 44
1.4227492809295654 1.226352334022522 -0.4930504858493805 119
1.6196869611740112 1.3956120014190674 -0.4847698211669922 119
1.9330663681030273 1.6650490760803223 -0.4880327582359314 119
2.3454785346984863 2.0195679664611816 -0.4841650724411011 119
2.4324517250061035 2.093716859817505 -0.38937297463417053 0
2.4265506267547607 2.087900400161743 -0.2767198979854584 44
2.4100849628448486 2.073000431060791 -0.16404886543750763 44
2.413336992263794 2.0750651359558105 -0.05433943495154381 44
2.3951618671417236 2.0587105751037598 0.835440993309021 44
2.4088032245635986 2.06970477104187 0.7237948179244995 44
2.400812864303589 2.0621109008789062 0.6071809530258179 44
2.415804624557495 2.0742549896240234 0.4976946711540222 44
2.4090123176574707 2.067692756652832 0.3851071000099182 44
2.421903371810913 2.0780234336853027 0.2758479416370392 44
2.416745185852051 2.0728654861450195 0.16485825181007385 44
2.4124295711517334 2.0684330463409424 0.054800551384687424 44
1.4270215034484863 1.2213785648345947 -0.4930504858493805 119
1.6282504796981812 1.3931169509887695 -0.4858945310115814 119
1.9612473249435425 1.6774332523345947 -0.4937518835067749 119
2.3600211143493652 2.017786979675293 -0.4857294261455536 119
2.4472906589508057 2.0916619300842285 -0.39059168100357056 0
2.4451849460601807 2.0891239643096924 -0.2780272364616394 44
2.4249000549316406 2.0710608959198 -0.16457048058509827 44
2.4281697273254395 2.073120594024658 -0.05451221391558647 44
2.4096808433532715 2.056608200073242 0.8380274772644043 44
2.4271321296691895 2.070770263671875 0.727166473865509 44
2.4154651165008545 2.0600881576538086 0.609087347984314 44
2.430546522140503 2.0722179412841797 0.49925729632377625 44
2.423769235610962 2.065709114074707 0.38632577657699585 44
2.43672513961792 2.076017141342163 0.27671948075294495 44
2.4353702068328857 2.074129343032837 0.16564328968524933 44
2.4310548305511475 2.0697221755981445 0.05506233870983124 44
1.4312762022018433 1.2163898944854736 -0.4930504858493805 119
1.6293907165527344 1.384270429611206 -0.4847698211669922 119
1.9446433782577515 1.6515134572982788 -0.4880327582359314 119
2.370814561843872 2.012732744216919 -0.48651158809661865 119
2.462144374847412 2.089528799057007 -0.3918103873729706 0
2.46005916595459 2.0870206356048584 -0.27889880537986755 44
2.4435389041900635 2.0722720623016357 -0.16535289585590363 44
2.446831703186035 2.0743305683135986 -0.05477138236165047 44
2.42789888381958 2.057551860809326 0.8419072031974792 44
2.4417805671691895 2.0685839653015137 0.7294142842292786 44
2.4301328659057617 2.057988166809082 0.6109936833381653 44
2.449073076248169 2.073293924331665 0.5016012787818909 44
2.4423298835754395 2.0668537616729736 0.3881538510322571 44
2.4553654193878174 2.0771498680114746 0.278026819229126 44
2.4502205848693848 2.07206392288208 0.16616664826869965 44
2.4459002017974854 2.067678451538086 0.05523686483502388 44
1.4355134963989258 1.2113864421844482 -0.4930504858493805 119
1.6342127323150635 1.3785743713378906 -0.4847698211669922 119
1.939139723777771 1.6352227926254272 -0.48517316579818726 119
2.3853774070739746 2.010810613632202 -0.4880759119987488 119
2.4808082580566406 2.090515613555908 -0.3936384320259094 0
2.4749481678009033 2.0848388671875 -0.2797703742980957 44
2.4583964347839355 2.070162534713745 -0.16587452590465546 44
2.46553111076355 2.075435161590576 -0.05503055453300476 44
2.442457437515259 2.055284023284912 0.8444936871528625 44
2.460171699523926 2.0694568157196045 0.7327860593795776 44
2.4485719203948975 2.058969736099243 0.6138532757759094 44
2.4638562202453613 2.0710880756378174 0.5031638741493225 44
2.4571285247802734 2.0647010803222656 0.3893725275993347 44
2.4740428924560547 2.0781774520874023 0.279334157705307 44
2.468909978866577 2.0731310844421387 0.16695168614387512 44
2.464590072631836 2.068770408630371 0.055498648434877396 44
1.4397332668304443 1.206368088722229 -0.4930504858493805 119
1.6352801322937012 1.3697333335876465 -0.4836450219154358 119
1.9373092651367188 1.6221418380737305 -0.48326680064201355 119
2.3961691856384277 2.005641460418701 -0.48885810375213623 119
2.4957027435302734 2.088212490081787 -0.39485710859298706 0
2.4936726093292236 2.0857741832733154 -0.28107771277427673 44
2.477099657058716 2.0711774826049805 -0.166656956076622 44
2.4804325103759766 2.073228597640991 -0.05520333722233772 44
2.460736036300659 2.0560362339019775 0.8483734726905823 44
2.4748589992523193 2.067103147506714 0.7350338101387024 44
2.4632794857025146 2.05670166015625 0.6157596707344055 44
2.482445001602173 2.0719685554504395 0.50550776720047 44
2.4719419479370117 2.0624701976776123 0.39059123396873474 44
2.4889321327209473 2.0759096145629883 0.28020569682121277 44
2.4876368045806885 2.0740928649902344 0.1677367389202118 44
2.4833173751831055 2.0697569847106934 0.05576043576002121 44
1.443935513496399 1.2013351917266846 -0.4930504858493805 119
1.6400513648986816 1.3640167713165283 -0.4836450219154358 119
1.9354113340377808 1.6090936660766602 -0.48136040568351746 119
2.4069533348083496 2.0004217624664307 -0.4896402657032013 119
2.5106112957000732 2.0858309268951416 -0.3960758149623871 0
2.508601665496826 2.083421468734741 -0.2819492518901825 44
2.4958395957946777 2.0720863342285156 -0.16743938624858856 44
2.4991953372955322 2.0741357803344727 -0.05546250939369202 44
2.475332260131836 2.0536019802093506 0.8509599566459656 44
2.49330997467041 2.067781925201416 0.7384055256843567 44
2.4817795753479004 2.057488441467285 0.6186192035675049 44
2.5010697841644287 2.072744369506836 0.5078517198562622 44
2.490591287612915 2.0633273124694824 0.3924192786216736 44
2.5076723098754883 2.076740026473999 0.2815130650997162 44
2.502553701400757 2.0717649459838867 0.1682600975036621 44
2.5020813941955566 2.0706381797790527 0.056022223085165024 44
1.4481202363967896 1.1962875127792358 -0.4930504858493805 119
1.641046166419983 1.3551814556121826 -0.48252031207084656 119
1.9334460496902466 1.596078634262085 -0.47945404052734375 119
2.421539545059204 1.9982941150665283 -0.4912046194076538 119
2.5293614864349365 2.0865285396575928 -0.39790382981300354 0
2.5273876190185547 2.0841591358184814 -0.2832565903663635 44
2.514615774154663 2.072889804840088 -0.16822180151939392 44
2.5179941654205322 2.074936866760254 -0.05572167783975601 44
2.493669271469116 2.054161310195923 0.8548396825790405 44
2.5080347061157227 2.0652599334716797 0.7406533360481262 44
2.500314950942993 2.058171272277832 0.621478796005249 44
2.5159168243408203 2.070277452468872 0.5094143748283386 44
2.505443811416626 2.0609261989593506 0.3936379849910736 44
2.5226006507873535 2.07430100440979 0.28238460421562195 44
2.5213422775268555 2.072528839111328 0.16904513537883759 44
2.517019033432007 2.0682389736175537 0.05619674548506737 44
1.4560213088989258 1.1942882537841797 -0.4943445920944214 119
1.6457667350769043 1.34944486618042 -0.48252031207084656 119
1.9352093935012817 1.586208462715149 -0.4785008728504181 119
2.4323198795318604 1.9929591417312622 -0.49198681116104126 119
2.5443079471588135 2.0839760303497314 -0.39912253618240356 0
2.5462088584899902 2.0847904682159424 -0.28456392884254456 44
2.529564142227173 2.0704245567321777 -0.16874341666698456 44
2.5329601764678955 2.0724663734436035 -0.055894456803798676 44
2.512040376663208 2.0546178817749023 0.8587194681167603 44
2.5227720737457275 2.0626606941223145 0.7429011464118958 44
2.5188851356506348 2.058749198913574 0.6243383288383484 44
2.5346009731292725 2.0708565711975098 0.5117582678794861 44
2.524153232574463 2.0615856647491455 0.39546599984169006 44
2.5375425815582275 2.0717830657958984 0.2832561731338501 44
2.5362982749938965 2.0700292587280273 0.1695684939622879 44
2.535843849182129 2.0689215660095215 0.05645852908492088 44
1.4601812362670898 1.1891984939575195 -0.4943445920944214 119
1.650467038154602 1.3436918258666992 -0.48252031207084656 119
1.9369276762008667 1.576345443725586 -0.47754764556884766 119
2.4430928230285645 1.9875731468200684 -0.49276894330978394 119
2.563117504119873 2.0844757556915283 -0.4009505808353424 0
2.5612006187438965 2.082174062728882 -0.2854354977607727 44
2.548400640487671 2.0710296630859375 -0.1695258617401123 44
2.5479395389556885 2.0699164867401123 -0.05606723576784134 44
2.526695489883423 2.0519261360168457 0.8613060116767883 44
2.541304349899292 2.063054084777832 0.74627286195755 44
2.537490129470825 2.059222936630249 0.6271979212760925 44
2.549484968185425 2.0682191848754883 0.5133208632469177 44
2.5390431880950928 2.059013843536377 0.3966846764087677 44
2.5563669204711914 2.0723228454589844 0.28456348180770874 44
2.5551459789276123 2.070594072341919 0.17035353183746338 44
2.5508193969726562 2.0663504600524902 0.056633055210113525 44
1.4643234014511108 1.1840944290161133 -0.4943445920944214 119
1.6551473140716553 1.33792245388031 -0.48252031207084656 119
1.94623601436615 1.5726594924926758 -0.4785008728504181 119
2.4576992988586426 1.9852393865585327 -0.49433329701423645 119
2.5781004428863525 2.081751823425293 -0.40216928720474243 0
2.58008074760437 2.082606792449951 -0.28674283623695374 44
2.5633862018585205 2.068392276763916 -0.17004747688770294 44
2.562931776046753 2.0672872066497803 -0.0562400184571743 44
2.5451223850250244 2.0521888732910156 0.8651857972145081 44
2.556076765060425 2.060285806655884 0.7485206723213196 44
2.552306652069092 2.0565121173858643 0.6291042566299438 44
2.5643811225891113 2.065502882003784 0.5148835182189941 44
2.557811975479126 2.0594756603240967 0.39851275086402893 44
2.571345567703247 2.0696330070495605 0.2854350507259369 44
2.570138931274414 2.067922830581665 0.1708768904209137 44
2.565808057785034 2.0637004375457764 0.05680757761001587 44
1.4684478044509888 1.1789757013320923 -0.4943445920944214 119
1.6598074436187744 1.3321367502212524 -0.48252031207084656 119
1.9517138004302979 1.5658563375473022 -0.4785008728504181 119
2.464613914489746 1.976648211479187 -0.49433329701423645 119
2.5969672203063965 2.08205246925354 -0.4039973020553589 0
2.5989949703216553 2.082932949066162 -0.28805017471313477 44
2.5822811126708984 2.0687978267669678 -0.1708298921585083 44
2.581838607788086 2.0677034854888916 -0.056499190628528595 44
2.5598111152648926 2.0493295192718506 0.8677722811698914 44
2.57466459274292 2.060483455657959 0.7518924474716187 44
2.570967674255371 2.056788682937622 0.6319637894630432 44
2.583146095275879 2.0657925605773926 0.5172274708747864 44
2.5766139030456543 2.059831380844116 0.4003407657146454 44
2.5902276039123535 2.0699734687805176 0.2867423892021179 44
2.585143804550171 2.065171718597412 0.171400249004364 44
2.580808639526367 2.0609707832336426 0.05698210373520851 44
1.472554326057434 1.1738426685333252 -0.4943445920944214 119
1.6682575941085815 1.3293708562850952 -0.4836450219154358 119
1.9610068798065186 1.5620921850204468 -0.47945404052734375 119
2.471498727798462 1.9680331945419312 -0.49433329701423645 119
2.6119844913482666 2.079155921936035 -0.4052160084247589 0
2.6140451431274414 2.0800509452819824 -0.2889217138290405 44
2.5973024368286133 2.065988063812256 -0.17135150730609894 44
2.5968666076660156 2.06490159034729 -0.05667196959257126 44
2.578291893005371 2.0493972301483154 0.8716520071029663 44
2.589470386505127 2.0575456619262695 0.7541402578353882 44
2.5858185291290283 2.053907632827759 0.6338701844215393 44
2.598076820373535 2.0629048347473145 0.518790066242218 44
2.595449924468994 2.0600805282592773 0.40216881036758423 44
2.605241298675537 2.0671112537384033 0.28761395812034607 44
2.600161075592041 2.0623409748077393 0.17192360758781433 44
2.5958218574523926 2.058161497116089 0.057156626135110855 44
1.4766427278518677 1.168695330619812 -0.4943445920944214 119
1.6767083406448364 1.3265622854232788 -0.4847698211669922 119
1.9664477109909058 1.5552375316619873 -0.47945404052734375 119
2.4744794368743896 1.9563312530517578 -0.4935511350631714 119
2.6309070587158203 2.0792574882507324 -0.40704405307769775 0
2.6330151557922363 2.080176830291748 -0.29022908210754395 44
2.616253614425659 2.066193103790283 -0.1721339374780655 44
2.6158299446105957 2.065117359161377 -0.056931138038635254 44
2.5930123329162598 2.0463690757751465 0.8742384910583496 44
2.60811185836792 2.057546854019165 0.7575119137763977 44
2.604534149169922 2.0539870262145996 0.6367297768592834 44
2.616896867752075 2.0629959106445312 0.5211340188980103 44
2.6104207038879395 2.0571515560150146 0.40338751673698425 44
2.624178886413574 2.067251682281494 0.2889212667942047 44
2.619112491607666 2.0625197887420654 0.1727086454629898 44
2.6147751808166504 2.0583646297454834 0.05741841346025467 44
1.4807133674621582 1.1635338068008423 -0.4943445920944214 119
1.6813287734985352 1.3207013607025146 -0.4847698211669922 119
1.9718644618988037 1.5483638048171997 -0.47945404052734375 119
2.481293201446533 1.9476817846298218 -0.4935511350631714 119
2.6459574699401855 2.076188087463379 -0.4082627594470978 0
2.6480987071990967 2.0771214962005615 -0.2911006212234497 44
2.6352381706237793 2.066291093826294 -0.17291636765003204 44
2.63482666015625 2.065225839614868 -0.05719031020998955 44
2.6115453243255615 2.0462419986724854 0.8781182765960693 44
2.6267848014831543 2.0574429035186768 0.760883629322052 44
2.619417428970337 2.0509347915649414 0.6386361718177795 44
2.635748863220215 2.0629799365997314 0.5234779119491577 44
2.6293110847473145 2.0572011470794678 0.4052155315876007 44
2.6431496143341064 2.0672848224639893 0.29022863507270813 44
2.638096809387207 2.062591075897217 0.17349368333816528 44
2.637699604034424 2.0615389347076416 0.057767461985349655 44
1.4847657680511475 1.158358097076416 -0.4943445920944214 119
1.6897703409194946 1.317820429801941 -0.4858945310115814 119
1.9733864068984985 1.5384535789489746 -0.4785008728504181 119
2.4841814041137695 1.935972809791565 -0.49276894330978394 119
2.664933681488037 2.0760891437530518 -0.4100908041000366 0
2.6671228408813477 2.0770466327667236 -0.29240795969963074 44
2.654254913330078 2.06628155708313 -0.1736987978219986 44
2.653855562210083 2.0652267932891846 -0.05744947865605354 44
2.6301088333129883 2.0460102558135986 0.8819980025291443 44
2.645488739013672 2.0572335720062256 0.7642553448677063 44
2.63818621635437 2.050816059112549 0.6414957642555237 44
2.654632806777954 2.0628578662872314 0.52582186460495 44
2.648233652114868 2.0571439266204834 0.40704357624053955 44
2.662152051925659 2.0672106742858887 0.29153597354888916 44
2.6571133136749268 2.0625548362731934 0.17427872121334076 44
2.656728506088257 2.0615131855010986 0.05802924558520317 44
1.4888001680374146 1.1531682014465332 -0.4943445920944214 119
1.6943600177764893 1.311914086341858 -0.4858945310115814 119
1.9787445068359375 1.5315557718276978 -0.4785008728504181 119
2.4987359046936035 1.9333337545394897 -0.49433329701423645 119
2.683941125869751 2.075882911682129 -0.41191884875297546 0
2.6822376251220703 2.073817491531372 -0.2932795286178589 44
2.6733038425445557 2.066164493560791 -0.17448122799396515 44
2.6729166507720947 2.065120220184326 -0.05770865082740784 44
2.6487021446228027 2.0456738471984863 0.885877788066864 44
2.6642229557037354 2.0569186210632324 0.7676270604133606 44
2.65310001373291 2.0475924015045166 0.643402099609375 44
2.6735477447509766 2.062628984451294 0.5281657576560974 44
2.6632580757141113 2.0539486408233643 0.4082622826099396 44
2.677241563796997 2.063987970352173 0.2924075126647949 44
2.676161766052246 2.062411069869995 0.17506377398967743 44
2.6797497272491455 2.0644309520721436 0.058378297835588455 44
1.4928163290023804 1.147964358329773 -0.4943445920944214 119
1.6989291906356812 1.3059916496276855 -0.4858945310115814 119
1.9840786457061768 1.5246392488479614 -0.4785008728504181 119
2.5172183513641357 1.9336248636245728 -0.4966798424720764 119
2.702979326248169 2.075568914413452 -0.4137468934059143 0
2.7013137340545654 2.073540687561035 -0.2945868670940399 44
2.6923835277557373 2.06593918800354 -0.1752636432647705 44
2.692009210586548 2.0649054050445557 -0.05796782299876213 44
2.667325258255005 2.0452322959899902 0.889757513999939 44
2.6829872131347656 2.056497812271118 0.7709987759590149 44
2.671919584274292 2.047274589538574 0.6462616324424744 44
2.692493438720703 2.0622928142547607 0.5305097103118896 44
2.68223237991333 2.0536909103393555 0.4100903272628784 44
2.696295738220215 2.0637121200561523 0.29371485114097595 44
2.6952414512634277 2.062159299850464 0.1758487969636917 44
2.6988525390625 2.0641753673553467 0.05864008143544197 44
1.4968143701553345 1.1427463293075562 -0.4943445920944214 119
1.7034776210784912 1.300053358078003 -0.4858945310115814 119
1.9854860305786133 1.514727234840393 -0.47754764556884766 119
2.547513484954834 1.9427945613861084 -0.5013728737831116 119
2.722047805786133 2.0751473903656006 -0.41557490825653076 0
2.7204203605651855 2.0731558799743652 -0.29589420557022095 44
2.7075226306915283 2.062580108642578 -0.17578525841236115 44
2.711132287979126 2.064582347869873 -0.058226991444826126 44
2.6859772205352783 2.0446856021881104 0.8936372995376587 44
2.7017807960510254 2.055971384048462 0.7743704915046692 44
2.6907691955566406 2.0468502044677734 0.6491212248802185 44
2.70753812789917 2.0588605403900146 0.5320723652839661 44
2.701237440109253 2.0533254146575928 0.4119183421134949 44
2.715380907058716 2.063328504562378 0.295022189617157 44
2.7103755474090576 2.058779001235962 0.17637217044830322 44
2.7140042781829834 2.060788631439209 0.058814603835344315 44
1.4969451427459717 1.1345973014831543 -0.4930504858493805 119
1.7041220664978027 1.2911570072174072 -0.4847698211669922 119
1.990761399269104 1.5077873468399048 -0.47754764556884766 119
2.5779032707214355 1.9517760276794434 -0.5060659050941467 119
2.7411463260650635 2.074617862701416 -0.417402982711792 0
2.7395570278167725 2.0726630687713623 -0.297201544046402 44
2.726653575897217 2.06215238571167 -0.1765677034854889 44
2.7302863597869873 2.064150810241699 -0.05848616361618042 44
2.704658031463623 2.0440337657928467 0.8975170850753784 44
2.7167160511016846 2.052401542663574 0.7766183018684387 44
2.7096481323242188 2.046319007873535 0.6519807577133179 44
2.7265329360961914 2.058323383331299 0.5344162583351135 44
2.716310977935791 2.0498623847961426 0.4131370484828949 44
2.7305195331573486 2.0598371028900146 0.29589375853538513 44
2.7295055389404297 2.0583245754241943 0.1771572083234787 44
2.7291653156280518 2.057321071624756 0.05898912996053696 44
1.5008965730667114 1.129365086555481 -0.4930504858493805 119
1.7086186408996582 1.2852007150650024 -0.4847698211669922 119
1.9999353885650635 1.5037789344787598 -0.4785008728504181 119
2.6004910469055176 1.954634428024292 -0.5091946125030518 119
2.7602741718292236 2.0739800930023193 -0.41923099756240845 0
2.758723497390747 2.072061777114868 -0.298508882522583 44
2.741821050643921 2.0586180686950684 -0.17708931863307953 44
2.745471715927124 2.060609817504883 -0.05865894630551338 44
2.719503164291382 2.040377378463745 0.9001035690307617 44
2.7355566024780273 2.05167555809021 0.7799900770187378 44
2.7246286869049072 2.0427370071411133 0.653887152671814 44
2.741605043411255 2.0547170639038086 0.5359788537025452 44
2.735365152359009 2.049294948577881 0.41496509313583374 44
2.7496535778045654 2.059250593185425 0.2972010672092438 44
2.7486650943756104 2.0577614307403564 0.17794224619865417 44
2.744335412979126 2.0537729263305664 0.0591636523604393 44
1.5048296451568604 1.1241190433502197 -0.4930504858493805 119
1.709190845489502 1.2763137817382812 -0.4836450219154358 119
2.0051724910736084 1.4967886209487915 -0.4785008728504181 119
2.6389620304107666 1.969172477722168 -0.515451967716217 119
2.779430627822876 2.0732340812683105 -0.4210590422153473 0
2.777918815612793 2.0713515281677246 -0.29981622099876404 44
2.761000394821167 2.0579869747161865 -0.1778717339038849 44
2.764673948287964 2.059974431991577 -0.05891811475157738 44
2.738229274749756 2.039527416229248 0.9039832949638367 44
2.7505171298980713 2.047933340072632 0.7822378277778625 44
2.7435548305511475 2.0420053005218506 0.6567467451095581 44
2.7606472969055176 2.053978443145752 0.5383228063583374 44
2.7544479370117188 2.048619270324707 0.4167931377887726 44
2.764819383621216 2.0555834770202637 0.2980726361274719 44
2.7638461589813232 2.0541110038757324 0.1784656047821045 44
2.763526439666748 2.0531249046325684 0.059425439685583115 44
1.5087443590164185 1.1188594102859497 -0.4930504858493805 119
1.7097219228744507 1.2674384117126465 -0.48252031207084656 119
2.010385036468506 1.4897801876068115 -0.4785008728504181 119
2.62994647026062 1.9481903314590454 -0.512323260307312 119
2.7986159324645996 2.0723793506622314 -0.4228871166706085 0
2.797142744064331 2.070533037185669 -0.30112355947494507 44
2.7761950492858887 2.054276704788208 -0.17839334905147552 44
2.77988600730896 2.0562572479248047 -0.05909089371562004 44
2.7569825649261475 2.038571357727051 0.9078630805015564 44
2.769402503967285 2.0470075607299805 0.7856095433235168 44
2.762509346008301 2.0411667823791504 0.6596063375473022 44
2.7797176837921143 2.0531318187713623 0.5406667590141296 44
2.7735595703125 2.047835350036621 0.4186211824417114 44
2.7840006351470947 2.0547938346862793 0.29937997460365295 44
2.783053398132324 2.053344488143921 0.17925064265727997 44
2.7827460765838623 2.052367687225342 0.05968722328543663 44
1.5126407146453857 1.1135860681533813 -0.4930504858493805 119
1.7141356468200684 1.2614625692367554 -0.48252031207084656 119
2.015573024749756 1.4827535152435303 -0.4785008728504181 119
2.6327524185180664 1.936072587966919 -0.5115411281585693 119
2.817828416824341 2.071415901184082 -0.424715131521225 119
2.816394567489624 2.0696048736572266 -0.3024308979511261 44
2.7954213619232178 2.0534417629241943 -0.17917577922344208 44
2.799135684967041 2.0554182529449463 -0.059350065886974335 44
2.7757620811462402 2.037508964538574 0.9117428064346313 44
2.7883152961730957 2.0459749698638916 0.7889812588691711 44
2.7814905643463135 2.0402204990386963 0.6624658703804016 44
2.7988152503967285 2.0521767139434814 0.5430106520652771 44
2.7886962890625 2.04400897026062 0.41983985900878906 44
2.8032097816467285 2.0538947582244873 0.300687313079834 44
2.802288770675659 2.0524682998657227 0.18003568053245544 44
2.801994562149048 2.051501512527466 0.05994901433587074 44
1.5165187120437622 1.1082991361618042 -0.4930504858493805 119
1.7145946025848389 1.2525975704193115 -0.48139551281929016 119
2.0207364559173584 1.4757088422775269 -0.4785008728504181 119
2.6115739345550537 1.906488299369812 -0.5060659050941467 119
2.8370680809020996 2.0703437328338623 -0.4265431761741638 119
2.8356738090515137 2.0685677528381348 -0.30373823642730713 44
2.8146755695343018 2.052497148513794 -0.17995820939540863 44
2.8184127807617188 2.054469108581543 -0.05960923433303833 44
2.794567823410034 2.0363407135009766 0.9156225919723511 44
2.8072543144226074 2.044834852218628 0.7923529744148254 44
2.8004989624023438 2.039166212081909 0.6653254628181458 44
2.8179404735565186 2.0511136054992676 0.5453546047210693 44
2.8078529834747314 2.0430216789245605 0.4216679334640503 44
2.826474905014038 2.055816888809204 0.3024304211139679 44
2.82155179977417 2.051482915878296 0.18082071840763092 44
2.821269989013672 2.0505259037017822 0.06021079793572426 44
1.5203781127929688 1.1029988527297974 -0.4930504858493805 119
1.7189565896987915 1.2466049194335938 -0.48139551281929016 119
2.0219013690948486 1.465765357017517 -0.47754764556884766 119
2.5982186794281006 1.882871389389038 -0.502155065536499 119
2.8563344478607178 2.069161891937256 -0.42837122082710266 119
2.854979991912842 2.0674209594726562 -0.30504557490348816 44
2.8339569568634033 2.051443099975586 -0.18074063956737518 44
2.8417677879333496 2.0563416481018066 -0.059954799711704254 44
2.817312479019165 2.037896156311035 0.9207956194877625 44
2.826219081878662 2.0435876846313477 0.7957246899604797 44
2.819533586502075 2.038004159927368 0.6681849956512451 44
2.8370919227600098 2.0499417781829834 0.5476985573768616 44
2.831059694290161 2.0448310375213623 0.42410531640052795 44
2.8457489013671875 2.054685354232788 0.3037377595901489 44
2.840841770172119 2.0503880977630615 0.1816057711839676 44
2.844627857208252 2.05236554145813 0.06055985018610954 44
1.524219036102295 1.0976849794387817 -0.4930504858493805 119
1.7272515296936035 1.243443489074707 -0.48252031207084656 119
2.027005672454834 1.4586986303329468 -0.47754764556884766 119
2.596757173538208 1.8680224418640137 -0.5005906820297241 119
2.8756275177001953 2.06787109375 -0.4301992654800415 119
2.87431263923645 2.066164493560791 -0.3063529133796692 44
2.8532652854919434 2.0502796173095703 -0.18152306973934174 44
2.8611092567443848 2.055159091949463 -0.06021396815776825 44
2.8361783027648926 2.0365006923675537 0.9246753454208374 44
2.8491673469543457 2.0450737476348877 0.8002203106880188 44
2.8425822257995605 2.039595603942871 0.6719977259635925 44
2.8602824211120605 2.051539421081543 0.5508237481117249 44
2.8502795696258545 2.043611526489258 0.4259333312511444 44
2.865049362182617 2.0534443855285645 0.30504509806632996 44
2.8642172813415527 2.052091360092163 0.18265248835086823 44
2.8639674186706543 2.0511560440063477 0.06082163378596306 44
1.5280413627624512 1.0923577547073364 -0.4930504858493805 119
1.7315813302993774 1.237406611442566 -0.48252031207084656 119
2.0320851802825928 1.4516141414642334 -0.47754764556884766 119
2.591205596923828 1.8503371477127075 -0.49824416637420654 119
2.8949456214904785 2.0664703845977783 -0.43202728033065796 119
2.8936712741851807 2.06479811668396 -0.3076602518558502 44
2.876664876937866 2.051905632019043 -0.182566300034523 44
2.8804771900177 2.0538666248321533 -0.06047314032912254 44
2.855069160461426 2.0349981784820557 0.9285550713539124 44
2.868192195892334 2.0435972213745117 0.8035920262336731 44
2.8616783618927 2.038203001022339 0.6748573184013367 44
2.87949538230896 2.050135850906372 0.5531677007675171 44
2.869525671005249 2.042282819747925 0.42776137590408325 44
2.88437557220459 2.052093505859375 0.306352436542511 44
2.8835699558258057 2.050762176513672 0.1834375113248825 44
2.883333206176758 2.0498363971710205 0.06108342111110687 44
1.5357837677001953 1.089812159538269 -0.4943445920944214 119
1.7398638725280762 1.2341734170913696 -0.4836450219154358 119
2.037139892578125 1.4445120096206665 -0.47754764556884766 119
2.5855612754821777 1.83271324634552 -0.49589765071868896 119
2.9142892360687256 2.06496000289917 -0.4338553547859192 119
2.913054943084717 2.063321828842163 -0.30896756052970886 44
2.8960349559783936 2.0505077838897705 -0.18334873020648956 44
2.8998706340789795 2.0524637699127197 -0.06073230877518654 44
2.873983860015869 2.03338885307312 0.9324348568916321 44
2.8872416019439697 2.0420126914978027 0.8069637417793274 44
2.880798816680908 2.0367019176483154 0.677716851234436 44
2.898733377456665 2.0486226081848145 0.5555116534233093 44
2.88879656791687 2.040844202041626 0.4295894205570221 44
2.9037272930145264 2.0506324768066406 0.307659775018692 44
2.9029483795166016 2.049323320388794 0.18422256410121918 44
2.9027249813079834 2.0484066009521484 0.06134520471096039 44
1.5395785570144653 1.0844446420669556 -0.4943445920944214 119
1.7481446266174316 1.2308975458145142 -0.4847698211669922 119
2.0421695709228516 1.4373921155929565 -0.47754764556884766 119
2.5757875442504883 1.8123098611831665 -0.49276894330978394 119
2.933657169342041 2.0633397102355957 -0.43568336963653564 119
2.9324636459350586 2.0617353916168213 -0.3102749288082123 44
2.9113452434539795 2.046128273010254 -0.1838703453540802 44
2.9192893505096436 2.050950288772583 -0.06099148094654083 44
2.8929214477539062 2.0316715240478516 0.936314582824707 44
2.9063146114349365 2.0403201580047607 0.8103354573249817 44
2.8999438285827637 2.0350921154022217 0.6805764436721802 44
2.913952589035034 2.0441641807556152 0.557074248790741 44
2.908092737197876 2.0392961502075195 0.43141746520996094 44
2.9231035709381104 2.0490615367889404 0.30896711349487305 44
2.922351598739624 2.047773599624634 0.18500758707523346 44
2.9221413135528564 2.0468661785125732 0.0616069920361042 44
1.5433546304702759 1.0790640115737915 -0.4943445920944214 119
1.748437523841858 1.2219970226287842 -0.4836450219154358 119
2.0511982440948486 1.4330661296844482 -0.4785008728504181 119
2.5497076511383057 1.7806867361068726 -0.48651158809661865 119
2.953049421310425 2.0616092681884766 -0.4375114440917969 119
2.9559812545776367 2.0628886222839355 -0.3120180368423462 44
2.930755615234375 2.0445241928100586 -0.18465277552604675 44
2.938732624053955 2.0493264198303223 -0.06125064939260483 44
2.9118824005126953 2.0298471450805664 0.9401943683624268 44
2.925410509109497 2.0385189056396484 0.813707172870636 44
2.9191126823425293 2.0333733558654785 0.6834360361099243 44
2.9332287311553955 2.0424461364746094 0.5594182014465332 44
2.927412748336792 2.037637948989868 0.4332454800605774 44
2.942504405975342 2.047380208969116 0.3102744519710541 44
2.941779136657715 2.0461137294769287 0.18579263985157013 44
2.9374778270721436 2.042361259460449 0.061781514436006546 44
1.547111988067627 1.0736700296401978 -0.4943445920944214 119
1.7687041759490967 1.2269941568374634 -0.48814404010772705 119
2.052154779434204 1.423100233078003 -0.47754764556884766 119
2.5802597999572754 1.7886565923690796 -0.4912046194076538 119
2.9724652767181396 2.0597684383392334 -0.4393394887447357 119
2.9754478931427 2.0610668659210205 -0.3133253753185272 44
2.9501898288726807 2.042808771133423 -0.1854351907968521 44
2.958199977874756 2.0475916862487793 -0.06150982156395912 44
2.9308652877807617 2.0279147624969482 0.9440740942955017 44
2.9445295333862305 2.036609411239624 0.8170788884162903 44
2.9383044242858887 2.031545639038086 0.6862955689430237 44
2.952528476715088 2.040618658065796 0.5617621541023254 44
2.9467568397521973 2.035869836807251 0.43507352471351624 44
2.961928367614746 2.0455877780914307 0.3115817606449127 44
2.961230516433716 2.044342517852783 0.1865776777267456 44
2.956932544708252 2.0406134128570557 0.06204329803586006 44
nan nan nan 0
1.7408756017684937 1.1987091302871704 -0.47914600372314453 119
2.0651960372924805 1.4214941263198853 -0.47945404052734375 119
2.5905559062957764 1.7824381589889526 -0.49198681116104126 119
2.991903781890869 2.057816982269287 -0.4411675035953522 119
2.9949374198913574 2.059133768081665 -0.31463271379470825 44
2.9696476459503174 2.040982961654663 -0.18621762096881866 44
2.9776909351348877 2.045745611190796 -0.06176899001002312 44
2.9498703479766846 2.025874614715576 0.9479538798332214 44
2.963670492172241 2.03459095954895 0.8204506039619446 44
2.9615659713745117 2.0323855876922607 0.6901082992553711 44
2.975923538208008 2.0414748191833496 0.5648874044418335 44
2.970216989517212 2.0367977619171143 0.4375109076499939 44
2.9813761711120605 2.0436851978302 0.31288912892341614 44
2.980705499649048 2.0424609184265137 0.18736271560192108 44
2.9764113426208496 2.038754940032959 0.062305089086294174 44
1.5465960502624512 1.0573915243148804 -0.491756409406662 119
1.7651604413986206 1.2063695192337036 -0.4847698211669922 119
2.053934097290039 1.4032014608383179 -0.47564128041267395 119
2.6049184799194336 1.7789548635482788 -0.4935511350631714 119
3.0154635906219482 2.0585529804229736 -0.44360488653182983 119
3.0144498348236084 2.0570898056030273 -0.3159400522708893 44
2.993253231048584 2.0418596267700195 -0.18726086616516113 44
2.9972050189971924 2.0437886714935303 -0.06202816218137741 44
2.9728875160217285 2.02644681930542 0.9531269073486328 44
2.9828333854675293 2.032463788986206 0.8238223195075989 44
2.9808120727539062 2.030324935913086 0.6929678916931152 44
2.9952778816223145 2.0394127368927 0.567231297492981 44
2.9896163940429688 2.034794330596924 0.4393389821052551 44
3.004964828491211 2.04447340965271 0.31463223695755005 44
3.0002033710479736 2.0404679775238037 0.18814775347709656 44
3.000046730041504 2.03959584236145 0.06265413761138916 44
nan nan nan 0
1.7612969875335693 1.1947308778762817 -0.48252031207084656 119
nan nan nan 0
2.6070244312286377 1.7670801877975464 -0.49276894330978394 119
3.034956455230713 2.056365966796875 -0.44543296098709106 119
3.0339841842651367 2.0549347400665283 -0.3172473907470703 44
3.0127665996551514 2.039796829223633 -0.18804329633712769 44
3.0167412757873535 2.041720151901245 -0.062287334352731705 44
2.991943836212158 2.0241761207580566 0.9570066332817078 44
3.002017021179199 2.0302271842956543 0.8271940350532532 44
3.000080108642578 2.0281543731689453 0.6958274245262146 44
3.0146541595458984 2.0372402667999268 0.5695752501487732 44
3.013150453567505 2.0354583263397217 0.4417763650417328 44
3.0244667530059814 2.0423340797424316 0.3159395754337311 44
3.0197231769561768 2.038363456726074 0.18893279135227203 44
3.019580125808716 2.0374999046325684 0.06291592121124268 44
nan nan nan 0
nan nan nan 0
nan nan nan 0
nan nan nan 0
3.0585885047912598 2.0568368434906006 -0.4478703439235687 119
3.0494062900543213 2.049889087677002 -0.3181189298629761 44
3.032301664352417 2.0376226902008057 -0.18882571160793304 44
3.036299705505371 2.0395400524139404 -0.0625464990735054 44
3.0110208988189697 2.0217974185943604 0.9608864188194275 44
3.021221399307251 2.027881622314453 0.8305657505989075 44
3.019369125366211 2.025874137878418 0.6986870169639587 44
3.0340514183044434 2.0349574089050293 0.5719191431999207 44
3.0326032638549805 2.0332188606262207 0.44360437989234924 44
3.04399037361145 2.040083408355713 0.3172468841075897 44
3.039264678955078 2.0361475944519043 0.1897178441286087 44
3.039135456085205 2.035292625427246 0.06317770481109619 44
nan nan nan 0
nan nan nan 0
nan nan nan 0
nan nan nan 0
3.074005365371704 2.0516576766967773 -0.44908902049064636 119
3.0689735412597656 2.047525644302368 -0.3194262981414795 44
3.0560123920440674 2.038107395172119 -0.1898689568042755 44
3.0558793544769287 2.037248134613037 -0.06280567497015 44
3.0301175117492676 2.0193099975585938 0.9647662043571472 44
3.040445566177368 2.0254266262054443 0.833937406539917 44
3.0386784076690674 2.0234835147857666 0.7015465497970581 44
3.0575804710388184 2.0353004932403564 0.5750443935394287 44
3.047945261001587 2.0281190872192383 0.44482308626174927 44
3.06353497505188 2.0377213954925537 0.31855425238609314 44
3.0588274002075195 2.0338199138641357 0.19050286710262299 44
3.0587117671966553 2.032973289489746 0.0634394958615303 44
nan nan nan 0
nan nan nan 0
nan nan nan 0
nan nan nan 0
3.0894227027893066 2.046396255493164 -0.4503077268600464 119
3.0844082832336426 2.04229998588562 -0.32029783725738525 44
3.075599193572998 2.0356953144073486 -0.19065138697624207 44
3.0796492099761963 2.0376031398773193 -0.06315123289823532 44
3.0532617568969727 2.019378185272217 0.9699391722679138 44
3.05968976020813 2.022861957550049 0.8373091816902161 44
3.053912878036499 2.0182766914367676 0.7034529447555542 44
3.081148624420166 2.03550386428833 0.5781696438789368 44
3.063288688659668 2.022937059402466 0.4460417628288269 44
3.087256908416748 2.037991762161255 0.32029736042022705 44
3.0784108638763428 2.0313806533813477 0.19128791987895966 44
3.082482099533081 2.033295154571533 0.06378854066133499 44
nan nan nan 0
nan nan nan 0
nan nan nan 0
2.623190402984619 1.7250813245773315 -0.4912046194076538 119
3.100694179534912 2.038325548171997 -0.4509170651435852 119
3.0956809520721436 2.0342562198638916 -0.32073360681533813 44
3.099379777908325 2.03591251373291 -0.19169461727142334 44
3.0992798805236816 2.0350725650787354 -0.06341040134429932 44
3.0724050998687744 2.0166585445404053 0.9738188982009888 44
3.0789525508880615 2.0201876163482666 0.8406808972358704 44
3.0732522010803223 2.0156800746917725 0.7063125371932983 44
3.1047556400299072 2.03556752204895 0.5812948942184448 44
3.0786328315734863 2.017672538757324 0.44726046919822693 44
3.10685133934021 2.035391330718994 0.3216046690940857 44
3.10219144821167 2.031564712524414 0.1923346370458603 44
3.102108955383301 2.0307369232177734 0.06405032426118851 44
nan nan nan 0
nan nan nan 0
nan nan nan 0
nan nan nan 0
3.1119470596313477 2.0302014350891113 -0.4515264332294464 119
3.1069352626800537 2.0261590480804443 -0.3211694061756134 44
3.123199224472046 2.0359885692596436 -0.19273784756660461 44
3.1231184005737305 2.035159111022949 -0.06375596672296524 44
3.091566801071167 2.0138301849365234 0.9776986837387085 44
3.098233938217163 2.0174031257629395 0.8440526127815247 44
3.096724033355713 2.0156502723693848 0.7101252675056458 44
3.1284000873565674 2.0354909896850586 0.5844201445579529 44
3.0898172855377197 2.0096194744110107 0.44786980748176575 44
3.130641460418701 2.0353941917419434 0.323347806930542 44
3.121824026107788 2.028886556625366 0.19311966001987457 44
3.1259474754333496 2.030790328979492 0.06439937651157379 44
nan nan nan 0
nan nan nan 0
nan nan nan 0
2.5273995399475098 1.636926293373108 -0.47086814045906067 119
3.144009828567505 2.035508871078491 -0.4551824927330017 119
3.1265337467193604 2.0234200954437256 -0.32247674465179443 44
3.1470565795898438 2.0359227657318115 -0.19378109276294708 44
3.1469950675964355 2.0351040363311768 -0.06410152465105057 44
3.1188583374023438 2.016136407852173 0.9841649532318115 44
3.1257176399230957 2.0197970867156982 0.8496721386909485 44
3.1243560314178467 2.018144369125366 0.714891254901886 44
3.1520817279815674 2.035274028778076 0.5875453948974609 44
3.121831178665161 2.01496958732605 0.45152589678764343 44
3.1544687747955322 2.0352554321289062 0.3250909149646759 44
3.1456713676452637 2.0288021564483643 0.1941663771867752 44
3.1498241424560547 2.0307018756866455 0.06474842131137848 44
nan nan nan 0
nan nan nan 0
nan nan nan 0
nan nan nan 0
3.1803228855133057 2.043299674987793 -0.4594479501247406 0
3.1629154682159424 2.0313358306884766 -0.3255271911621094 44
3.1751532554626465 2.0384128093719482 -0.19508513808250427 44
3.1709096431732178 2.0349068641662598 -0.06444709002971649 44
3.1462035179138184 2.0182769298553467 0.9906312227249146 44
3.1491539478302 2.0193939208984375 0.8541677594184875 44
3.1520426273345947 2.020469903945923 0.7196571230888367 44
3.1716413497924805 2.0322518348693848 0.5898892879486084 44
3.149740695953369 2.0174434185028076 0.4545726478099823 44
3.178333282470703 2.034975051879883 0.3268340528011322 44
3.165350914001465 2.0258841514587402 0.19495142996311188 44
3.1737380027770996 2.030471086502075 0.06509747356176376 44
nan nan nan 0
nan nan nan 0
nan nan nan 0
nan nan nan 0
3.2167277336120605 2.050861120223999 -0.4637133479118347 0
3.1909892559051514 2.033668041229248 -0.32770609855651855 44
3.194882869720459 2.035365343093872 -0.19586755335330963 44
3.1948602199554443 2.034567356109619 -0.06479264795780182 44
3.1695268154144287 2.0176568031311035 0.9958041906356812 44
3.1767356395721436 2.0214667320251465 0.8597872257232666 44
3.1756420135498047 2.0199923515319824 0.7234699130058289 44
3.195385694503784 2.0317678451538086 0.5930145382881165 44
3.1777050495147705 2.019747018814087 0.4576193690299988 44
3.2022340297698975 2.034552812576294 0.3285771608352661 44
3.189262866973877 2.0255303382873535 0.1959981471300125 44
3.197688579559326 2.0300984382629395 0.06544651836156845 44
nan nan nan 0
nan nan nan 0
nan nan nan 0
nan nan nan 0
3.2238669395446777 2.0396201610565186 -0.4637133479118347 0
3.2191171646118164 2.0358285903930664 -0.32988497614860535 44
3.2188503742218018 2.0348734855651855 -0.1969107985496521 44
3.2188477516174316 2.034085273742676 -0.06513821333646774 44
3.1928842067718506 2.0168986320495605 1.0009772777557373 44
3.2002508640289307 2.02077054977417 0.8642829060554504 44
3.1992762088775635 2.019374370574951 0.7272826433181763 44
3.2149887084960938 2.0285074710845947 0.5953584909439087 44
3.205724000930786 2.0218796730041504 0.46066609025001526 44
3.226170301437378 2.0339882373809814 0.3303202688694 44
3.2132108211517334 2.025034189224243 0.19704486429691315 44
3.225904703140259 2.032247543334961 0.06588283181190491 44
nan nan nan 0
nan nan nan 0
nan nan nan 0
nan nan nan 0
3.2351701259613037 2.0309929847717285 -0.4643227159976959 0
3.243079900741577 2.0351696014404297 -0.33162811398506165 44
3.2386233806610107 2.031585216522217 -0.19769322872161865 44
3.2386345863342285 2.0308046340942383 -0.06539738178253174 44
3.2162744998931885 2.0160014629364014 1.006150245666504 44
3.223799228668213 2.01993465423584 0.8687785267829895 44
3.222944736480713 2.018615961074829 0.7310953736305237 44
3.23879337310791 2.0277554988861084 0.5984837412834167 44
3.2253825664520264 2.018575668334961 0.4624941349029541 44
3.2501413822174072 2.0332813262939453 0.33206337690353394 44
3.2414276599884033 2.027042865753174 0.19835327565670013 44
3.2499353885650635 2.0315744876861572 0.0662318766117096 44
nan nan nan 0
nan nan nan 0
nan nan nan 0
nan nan nan 0
