# .PCD v0.7 - Point Cloud Data file format
VERSION 0.7
FIELDS x y z intensity
SIZE 4 4 4 4
TYPE F F F F
COUNT 1 1 1 1
WIDTH 795
HEIGHT 1
VIEWPOINT 0 0 0 1 0 0 0
POINTS 795
DATA ascii
0.46242082118988037 2.1460344791412354 0.11304565519094467 44
0.4601883590221405 2.1338653564453125 0.03743540868163109 44
0.4047360122203827 1.8688207864761353 -0.502109169960022 119
0.46116626262664795 2.1275856494903564 -0.4937678575515747 119
0.46909254789352417 2.1623306274414062 -0.42226269841194153 0
0.4660159647464752 2.1463406085968018 -0.34180957078933716 44
0.47075214982032776 2.166330575942993 -0.2675034999847412 44
0.46753939986228943 2.14973783493042 -0.18912823498249054 44
0.46691855788230896 2.145080327987671 -0.11266948282718658 44
0.4667861759662628 2.142672538757324 -0.03723417595028877 44
0.46704021096229553 2.142040967941284 0.5767905116081238 44
0.467271089553833 2.1413042545318604 0.49676600098609924 44
0.464780330657959 2.1281068325042725 0.4155901074409485 44
0.4679705500602722 2.1409215927124023 0.34065133333206177 44
0.46529170870780945 2.1268866062164307 0.262628436088562 44
0.47160598635673523 2.153949022293091 0.18956373631954193 44
0.46990904211997986 2.144407033920288 0.11304565519094467 44
0.46871158480644226 2.137127637863159 0.03752266988158226 44
0.41125696897506714 1.867396593093872 -0.502109169960022 119
0.46859011054039 2.125962972640991 -0.4937678575515747 119
0.4766376316547394 2.160679817199707 -0.42226269841194153 0
0.47350525856018066 2.144700765609741 -0.34180957078933716 44
0.4793819785118103 2.169520139694214 -0.2681128680706024 44
0.4761160910129547 2.152956247329712 -0.1895640343427658 44
0.474403440952301 2.143437385559082 -0.11266948282718658 44
0.47426265478134155 2.1410300731658936 -0.03723417595028877 44
0.4745144844055176 2.140397548675537 0.5767905116081238 44
0.4747427701950073 2.139660120010376 0.49676600098609924 44
0.4722059667110443 2.126471519470215 0.4155901074409485 44
0.4754409193992615 2.139275074005127 0.34065133333206177 44
0.47271308302879333 2.1252493858337402 0.262628436088562 44
0.47912177443504333 2.152289628982544 0.18956373631954193 44
0.4773915708065033 2.142753839492798 0.11304565519094467 44
0.4761621952056885 2.1354799270629883 0.03752266988158226 44
0.41777288913726807 1.8659496307373047 -0.502109169960022 119
0.47600826621055603 2.124314308166504 -0.4937678575515747 119
0.4841769337654114 2.1590030193328857 -0.42226269841194153 0
0.48207029700279236 2.1478536128997803 -0.3425917625427246 44
0.4869520962238312 2.1678335666656494 -0.2681128680706024 44
0.48362842202186584 2.1512811183929443 -0.1895640343427658 44
0.48188257217407227 2.141768455505371 -0.11266948282718658 44
0.4817333519458771 2.139361619949341 -0.03723417595028877 44
0.4819829761981964 2.138728141784668 0.5767905116081238 44
0.48328059911727905 2.142742395401001 0.4978898763656616 44
0.4796258509159088 2.124810218811035 0.4155901074409485 44
0.48290547728538513 2.1376023292541504 0.34065133333206177 44
0.48122307658195496 2.1284267902374268 0.26323774456977844 44
0.48663175106048584 2.150604009628296 0.18956373631954193 44
0.48486825823783875 2.1410744190216064 0.11304565519094467 44
0.483613520860672 2.1338047981262207 0.03752266988158226 44
0.4242837131023407 1.8644800186157227 -0.502109169960022 119
0.48342061042785645 2.1226396560668945 -0.4937678575515747 119
0.4917103052139282 2.157299757003784 -0.42226269841194153 0
0.48956477642059326 2.146157741546631 -0.3425917625427246 44
0.4945162534713745 2.1661205291748047 -0.2681128680706024 44
0.4911348521709442 2.1495797634124756 -0.1895640343427658 44
0.4904688596725464 2.1449410915374756 -0.1129302978515625 44
0.4903133809566498 2.142540216445923 -0.037320561707019806 44
0.48944559693336487 2.137032985687256 0.5767905116081238 44
0.49075719714164734 2.141042470932007 0.4978898763656616 44
0.4881373643875122 2.1279072761535645 0.41654327511787415 44
0.4903641641139984 2.1359035968780518 0.34065133333206177 44
0.48864972591400146 2.1267340183258057 0.26323774456977844 44
0.4941357970237732 2.148892402648926 0.18956373631954193 44
0.49233904480934143 2.139368772506714 0.11304565519094467 44
0.49105894565582275 2.132103681564331 0.03752266988158226 44
0.43078941106796265 1.8629876375198364 -0.502109169960022 119
0.4908270537853241 2.120939254760742 -0.4937678575515747 119
0.5003452301025391 2.1603522300720215 -0.42321592569351196 0
0.49705326557159424 2.1444358825683594 -0.3425917625427246 44
0.5031958222389221 2.169215202331543 -0.26872220635414124 44
0.49863529205322266 2.1478524208068848 -0.1895640343427658 44
0.4979531466960907 2.1432158946990967 -0.1129302978515625 44
0.49778926372528076 2.140815496444702 -0.037320561707019806 44
0.4979969263076782 2.1400153636932373 0.5780837535858154 44
0.4982278347015381 2.1393163204193115 0.4978898763656616 44
0.4955621659755707 2.126190185546875 0.41654327511787415 44
0.4989386796951294 2.1389882564544678 0.3414326012134552 44
0.4960704445838928 2.1250152587890625 0.26323774456977844 44
0.5016338229179382 2.1471543312072754 0.18956373631954193 44
0.5009406805038452 2.1424992084503174 0.11330734193325043 44
0.4996373653411865 2.135244369506836 0.03760993480682373 44
0.4372898042201996 1.8614726066589355 -0.502109169960022 119
0.4982275068759918 2.119213104248047 -0.4937678575515747 119
0.5078831911087036 2.158592462539673 -0.42321592569351196 0
0.5056675672531128 2.147494316101074 -0.3433739244937897 44
0.5107647180557251 2.167445659637451 -0.26872220635414124 44
0.5061296820640564 2.1460986137390137 -0.1895640343427658 44
0.5054312944412231 2.1414647102355957 -0.1129302978515625 44
0.5064083337783813 2.143930435180664 -0.037406954914331436 44
0.5054638981819153 2.1382639408111572 0.5780837535858154 44
0.5056924223899841 2.137564182281494 0.4978898763656616 44
0.5029809474945068 2.1244475841522217 0.41654327511787415 44
0.5064020752906799 2.1372334957122803 0.3414326012134552 44
0.5034851431846619 2.1232707500457764 0.26323774456977844 44
0.5091257095336914 2.145390272140503 0.18956373631954193 44
0.5084162950515747 2.140737533569336 0.11330734193325043 44
0.507087767124176 2.1334872245788574 0.03760993480682373 44
0.4437848925590515 1.859934687614441 -0.502109169960022 119
0.5044904351234436 2.112722635269165 -0.4926431179046631 119
0.5165557861328125 2.1615800857543945 -0.4241690933704376 0
0.5131606459617615 2.1457161903381348 -0.3433739244937897 44
0.5183274149894714 2.1656494140625 -0.26872220635414124 44
0.514778196811676 2.149163246154785 -0.18999981880187988 44
0.5140672326087952 2.144542694091797 -0.11319109797477722 44
0.513888955116272 2.1421496868133545 -0.037406954914331436 44
0.5129247903823853 2.136486530303955 0.5780837535858154 44
0.5142890214920044 2.1405231952667236 0.4990138113498688 44
0.5115410685539246 2.127451181411743 0.4174965023994446 44
0.5150147676467896 2.140254497528076 0.3422139286994934 44
0.5108936429023743 2.121500253677368 0.26323774456977844 44
0.5177784562110901 2.148442506790161 0.1899995356798172 44
0.5170564651489258 2.143803596496582 0.11356901377439499 44
0.5145319104194641 2.131704092025757 0.03760993480682373 44
0.4502745568752289 1.8583743572235107 -0.502109169960022 119
0.5118621587753296 2.1109488010406494 -0.4926431179046631 119
0.5240979194641113 2.159763813018799 -0.4241690933704376 0
0.520647406578064 2.143911838531494 -0.3433739244937897 44
0.5258837938308716 2.1638269424438477 -0.26872220635414124 44
0.5222769975662231 2.147353172302246 -0.18999981880187988 44
0.5215499401092529 2.142735242843628 -0.11319109797477722 44
0.5213633179664612 2.1403427124023438 -0.037406954914331436 44
0.5215232968330383 2.1393754482269287 0.5793769955635071 44
0.5217577219009399 2.1387147903442383 0.4990138113498688 44
0.5189641714096069 2.125652551651001 0.4174965023994446 44
0.5224825143814087 2.1384437084198 0.3422139286994934 44
0.51829594373703 2.119704008102417 0.26323774456977844 44
0.5252747535705566 2.1466219425201416 0.1899995356798172 44
0.5245365500450134 2.1419856548309326 0.11356901377439499 44
0.5231597423553467 2.1347506046295166 0.037697192281484604 44
0.4567587375640869 1.8567912578582764 -0.502109169960022 119
0.5192276239395142 2.109149217605591 -0.4926431179046631 119
0.5328078866004944 2.162687063217163 -0.42512229084968567 0
0.528127908706665 2.1420812606811523 -0.3433739244937897 44
0.5346226096153259 2.1667964458465576 -0.26933157444000244 44
0.5309634804725647 2.150352716445923 -0.19043558835983276 44
0.5290263295173645 2.140901565551758 -0.11319109797477722 44
0.5288313627243042 2.13850998878479 -0.037406954914331436 44
0.5289879441261292 2.1375420093536377 0.5793769955635071 44
0.5292200446128845 2.13688063621521 0.4990138113498688 44
0.5263808965682983 2.123828172683716 0.4174965023994446 44
0.5299438834190369 2.1366069316864014 0.3422139286994934 44
0.5268875360488892 2.1226987838745117 0.26384711265563965 44
0.5327646732330322 2.144775152206421 0.1899995356798172 44
0.5320102572441101 2.140141725540161 0.11356901377439499 44
0.5306082367897034 2.132911205291748 0.037697192281484604 44
0.4632374048233032 1.855185627937317 -0.502109169960022 119
0.5265867710113525 2.1073238849639893 -0.4926431179046631 119
0.5403538346290588 2.160814046859741 -0.42512229084968567 0
0.5368009209632874 2.1450157165527344 -0.3441561162471771 44
0.5421828627586365 2.164917230606079 -0.26933157444000244 44
0.5384663939476013 2.1484861373901367 -0.19043558835983276 44
0.5364962220191956 2.1390419006347656 -0.11319109797477722 44
0.5375099182128906 2.1414995193481445 -0.03749334439635277 44
0.5364460945129395 2.1356825828552246 0.5793769955635071 44
0.5366759300231934 2.1350202560424805 0.4990138113498688 44
0.5349885821342468 2.126737594604492 0.41844967007637024 44
0.5373988151550293 2.1347439289093018 0.3422139286994934 44
0.5342939496040344 2.1208465099334717 0.26384711265563965 44
0.541465699672699 2.1477322578430176 0.1904352903366089 44
0.539477527141571 2.1382715702056885 0.11356901377439499 44
0.5380502343177795 2.1310462951660156 0.037697192281484604 44
0.47089675068855286 1.858238935470581 -0.5034032464027405 119
0.5327418446540833 2.10075044631958 -0.4915183484554291 119
0.5478931665420532 2.158914804458618 -0.42512229084968567 0
0.5442851185798645 2.1431288719177246 -0.3441561162471771 44
0.5497365593910217 2.163011312484741 -0.26933157444000244 44
0.5459626913070679 2.1465933322906494 -0.19043558835983276 44
0.5439596176147461 2.1371562480926514 -0.11319109797477722 44
0.5449818968772888 2.1396102905273438 -0.03749334439635277 44
0.5450907349586487 2.138477087020874 0.5806702375411987 44
0.5453294515609741 2.137854814529419 0.5001376867294312 44
0.5424090623855591 2.124857187271118 0.41844967007637024 44
0.5448471903800964 2.132855176925659 0.3422139286994934 44
0.5416938066482544 2.1189687252044678 0.26384711265563965 44
0.5489594340324402 2.14582896232605 0.1904352903366089 44
0.5469382405281067 2.1363754272460938 0.11356901377439499 44
0.5454856753349304 2.129155158996582 0.037697192281484604 44
0.47738033533096313 1.856583833694458 -0.5034032464027405 119
0.5400716066360474 2.0988781452178955 -0.4915183484554291 119
0.5554258227348328 2.156989097595215 -0.42512229084968567 0
0.5517627596855164 2.1412158012390137 -0.3441561162471771 44
0.5585227012634277 2.1658847332000732 -0.26994088292121887 44
0.5546970367431641 2.1494975090026855 -0.19087137281894684 44
0.5514163970947266 2.135244369506836 -0.11319109797477722 44
0.5524471998214722 2.137694835662842 -0.03749334439635277 44
0.5525521039962769 2.136561393737793 0.5806702375411987 44
0.5527886748313904 2.1359381675720215 0.5001376867294312 44
0.5498228073120117 2.122950792312622 0.41844967007637024 44
0.5522889494895935 2.1309401988983154 0.3422139286994934 44
0.5503329634666443 2.12186861038208 0.26445645093917847 44
0.5576978325843811 2.148721218109131 0.19087108969688416 44
0.5556474924087524 2.1392862796783447 0.11383070051670074 44
0.5541722178459167 2.1320765018463135 0.037784457206726074 44
0.4838581681251526 1.8549062013626099 -0.5034032464027405 119
0.5486253499984741 2.101694107055664 -0.4926431179046631 119
0.5641922950744629 2.1597862243652344 -0.42607545852661133 0
0.5592336058616638 2.1392767429351807 -0.3441561162471771 44
0.5660796165466309 2.163922071456909 -0.26994088292121887 44
0.5621967911720276 2.147548198699951 -0.19087137281894684 44
0.560131847858429 2.138137102127075 -0.11345191299915314 44
0.5611734986305237 2.1405892372131348 -0.0375797376036644 44
0.561232328414917 2.139291286468506 0.5819635391235352 44
0.560241162776947 2.133995532989502 0.5001376867294312 44
0.5572299957275391 2.121018648147583 0.41844967007637024 44
0.5609796047210693 2.1337757110595703 0.34299522638320923 44
0.5577363967895508 2.119934558868408 0.26445645093917847 44
0.565194845199585 2.146761417388916 0.19087108969688416 44
0.5631116628646851 2.137333631515503 0.11383070051670074 44
0.5616111159324646 2.130129098892212 0.037784457206726074 44
0.4903299808502197 1.853205919265747 -0.5034032464027405 119
0.5559582710266113 2.099766254425049 -0.4926431179046631 119
0.5717279314994812 2.157803535461426 -0.42607545852661133 0
0.5666976571083069 2.1373116970062256 -0.3441561162471771 44
0.5736296772956848 2.1619327068328857 -0.26994088292121887 44
0.5696897506713867 2.1455726623535156 -0.19087137281894684 44
0.5675919651985168 2.1361687183380127 -0.11345191299915314 44
0.5686421990394592 2.1386172771453857 -0.0375797376036644 44
0.5686964392662048 2.137319326400757 0.5819635391235352 44
0.5689403414726257 2.136735200881958 0.5012615919113159 44
0.5646303296089172 2.119060754776001 0.41844967007637024 44
0.5684244632720947 2.1318044662475586 0.34299522638320923 44
0.5664123296737671 2.122769832611084 0.2650658190250397 44
0.5726850032806396 2.144775390625 0.19087108969688416 44
0.5705689191818237 2.135354995727539 0.11383070051670074 44
0.5690432786941528 2.1281559467315674 0.037784457206726074 44
0.4967959523200989 1.8514829874038696 -0.5034032464027405 119
0.5645477771759033 2.10251784324646 -0.4937678575515747 119
0.5792565941810608 2.155794620513916 -0.42607545852661133 119
0.574154794216156 2.1353204250335693 -0.3441561162471771 44
0.5811727046966553 2.1599173545837402 -0.26994088292121887 44
0.5771757364273071 2.143571138381958 -0.19087137281894684 44
0.5750450491905212 2.1341745853424072 -0.11345191299915314 44
0.5761038661003113 2.1366193294525146 -0.0375797376036644 44
0.576153576374054 2.1353211402893066 0.5819635391235352 44
0.5763954520225525 2.1347360610961914 0.5012615919113159 44
0.5733041167259216 2.1218154430389404 0.4194028675556183 44
0.577151358127594 2.1345748901367188 0.34377655386924744 44
0.5738187432289124 2.1207797527313232 0.2650658190250397 44
0.5801681876182556 2.142763376235962 0.19087108969688416 44
0.5793250203132629 2.138169765472412 0.1140923872590065 44
0.5764684677124023 2.1261565685272217 0.037784457206726074 44
0.5032557845115662 1.8497376441955566 -0.5034032464027405 119
0.571883499622345 2.100534200668335 -0.4937678575515747 119
0.5867781639099121 2.153759717941284 -0.42607545852661133 119
0.5829039216041565 2.1380677223205566 -0.3449382781982422 44
0.5900148749351501 2.162662982940674 -0.2705502510070801 44
0.5859664082527161 2.146348237991333 -0.19130714237689972 44
0.5824912786483765 2.1321542263031006 -0.11345191299915314 44
0.5835585594177246 2.1345953941345215 -0.0375797376036644 44
0.5848782062530518 2.1379554271698 0.583256721496582 44
0.5851299166679382 2.1374099254608154 0.5023854970932007 44
0.5807071924209595 2.1198012828826904 0.4194028675556183 44
0.584598958492279 2.13254714012146 0.34377655386924744 44
0.5825310945510864 2.1235499382019043 0.2656751573085785 44
0.588962733745575 2.1455283164978027 0.19130685925483704 44
0.5867851376533508 2.136134624481201 0.1140923872590065 44
0.5852116346359253 2.1289517879486084 0.037871718406677246 44
0.5097095370292664 1.847969651222229 -0.5034032464027405 119
0.5792122483253479 2.098525285720825 -0.4937678575515747 119
0.595599353313446 2.1564295291900635 -0.4270286560058594 119
0.590363621711731 2.1360199451446533 -0.3449382781982422 44
0.597560465335846 2.160590410232544 -0.2705502510070801 44
0.5934550166130066 2.14428973197937 -0.19130714237689972 44
0.5912629961967468 2.134920120239258 -0.11371272802352905 44
0.5923413038253784 2.1373631954193115 -0.03766612708568573 44
0.592337429523468 2.1359007358551025 0.583256721496582 44
0.5925873517990112 2.135354518890381 0.5023854970932007 44
0.5894163846969604 2.122490406036377 0.42035603523254395 44
0.5920393466949463 2.130493402481079 0.34377655386924744 44
0.5899401307106018 2.1215035915374756 0.2656751573085785 44
0.5964484810829163 2.1434593200683594 0.19130685925483704 44
0.5955774188041687 2.138883352279663 0.11435405910015106 44
0.5926395058631897 2.1268959045410156 0.037871718406677246 44
0.5161570310592651 1.8461791276931763 -0.5034032464027405 119
0.5865339040756226 2.0964906215667725 -0.4937678575515747 119
0.603123128414154 2.154337167739868 -0.4270286560058594 119
0.5978161096572876 2.133946418762207 -0.3449382781982422 44
0.6064382195472717 2.1632697582244873 -0.2711595892906189 44
0.6009363532066345 2.142205238342285 -0.19130714237689972 44
0.5987116098403931 2.132843255996704 -0.11371272802352905 44
0.5997985005378723 2.135282516479492 -0.03766612708568573 44
0.599789559841156 2.1338202953338623 0.583256721496582 44
0.6000374555587769 2.133272886276245 0.5023854970932007 44
0.596821665763855 2.120419979095459 0.42035603523254395 44
0.6008113622665405 2.133167266845703 0.34455785155296326 44
0.5973418951034546 2.119431257247925 0.2656751573085785 44
0.603926956653595 2.141364336013794 0.19130685925483704 44
0.6030398607254028 2.136791229248047 0.11435405910015106 44
0.6014188528060913 2.1296255588531494 0.037958983331918716 44
0.5225982069969177 1.844366192817688 -0.5034032464027405 119
0.5938484072685242 2.094430446624756 -0.4937678575515747 119
0.6106394529342651 2.152218818664551 -0.4270286560058594 119
0.6066101789474487 2.1365973949432373 -0.34572046995162964 44
0.6139857769012451 2.161139726638794 -0.2711595892906189 44
0.6097724437713623 2.144885778427124 -0.191742941737175 44
0.607519268989563 2.135542869567871 -0.11397353559732437 44
0.6072483658790588 2.133175849914551 -0.03766612708568573 44
0.6085575222969055 2.1363587379455566 0.5845500230789185 44
0.6088160276412964 2.1358511447906494 0.5035094022750854 44
0.6042196750640869 2.118323802947998 0.42035603523254395 44
0.6082538962364197 2.131057024002075 0.34455785155296326 44
0.6060993671417236 2.122105121612549 0.2662844955921173 44
0.6127667427062988 2.1440324783325195 0.1917426437139511 44
0.6104949712753296 2.1346733570098877 0.11435405910015106 44
0.6088489890098572 2.1275131702423096 0.037958983331918716 44
0.5290331244468689 1.8425307273864746 -0.5034032464027405 119
0.6011558175086975 2.0923447608947754 -0.4937678575515747 119
0.6195045709609985 2.1547913551330566 -0.42798182368278503 119
0.6140645742416382 2.1344668865203857 -0.34572046995162964 44
0.6228987574577332 2.163752555847168 -0.2717689573764801 44
0.6186346411705017 2.1475305557250977 -0.19217871129512787 44
0.6149699687957764 2.133409261703491 -0.11397353559732437 44
0.6146908402442932 2.1310431957244873 -0.03766612708568573 44
0.6160111427307129 2.1342215538024902 0.5845500230789185 44
0.6162678003311157 2.1337130069732666 0.5035094022750854 44
0.612973153591156 2.120917320251465 0.421309232711792 44
0.6156889796257019 2.1289210319519043 0.34455785155296326 44
0.6135031580924988 2.119976758956909 0.2662844955921173 44
0.6202471256256104 2.141880512237549 0.1917426437139511 44
0.6179426312446594 2.1325292587280273 0.11435405910015106 44
0.6162716746330261 2.1253750324249268 0.037958983331918716 44
0.5354615449905396 1.8406728506088257 -0.5034032464027405 119
0.6084557771682739 2.090233564376831 -0.4937678575515747 119
0.627022385597229 2.152615785598755 -0.42798182368278503 119
0.6228934526443481 2.1370513439178467 -0.3465026021003723 44
0.6304478645324707 2.1615653038024902 -0.2717689573764801 44
0.6261271238327026 2.145358085632324 -0.19217871129512787 44
0.6224132776260376 2.1312496662139893 -0.11397353559732437 44
0.6235280632972717 2.1336829662323 -0.03775251656770706 44
0.6234571933746338 2.1320581436157227 0.5845500230789185 44
0.6250802278518677 2.1362245082855225 0.5046333074569702 44
0.6203727722167969 2.118764638900757 0.421309232711792 44
0.6245051622390747 2.131498336791992 0.34533917903900146 44
0.6222957372665405 2.122584342956543 0.2668938636779785 44
0.6277199387550354 2.139702320098877 0.1917426437139511 44
0.6253827810287476 2.130359172821045 0.11435405910015106 44
0.6236868500709534 2.123210906982422 0.037958983331918716 44
0.5405181646347046 1.8341598510742188 -0.502109169960022 119
0.6157483458518982 2.088097095489502 -0.4937678575515747 119
0.6359217762947083 2.1551215648651123 -0.42893505096435547 0
0.630349338054657 2.134864091873169 -0.3465026021003723 44
0.6379892826080322 2.159351348876953 -0.2717689573764801 44
0.6336119771003723 2.1431593894958496 -0.19217871129512787 44
0.6298488974571228 2.1290640830993652 -0.11397353559732437 44
0.6309722661972046 2.13149356842041 -0.03775251656770706 44
0.6308956742286682 2.129868984222412 0.5845500230789185 44
0.6325332522392273 2.1340296268463135 0.5046333074569702 44
0.627764880657196 2.116586208343506 0.421309232711792 44
0.6319416761398315 2.129305362701416 0.34533917903900146 44
0.6297011375427246 2.120399236679077 0.2668938636779785 44
0.6351850032806396 2.137498140335083 0.1917426437139511 44
0.6342384815216064 2.1329493522644043 0.11461574584245682 44
0.6325201988220215 2.125812530517578 0.03804624453186989 44
0.5469172596931458 1.8322619199752808 -0.502109169960022 119
0.6230334043502808 2.08593487739563 -0.4937678575515747 119
0.6434406638145447 2.152888774871826 -0.42893505096435547 119
0.6392125487327576 2.1373822689056396 -0.34728479385375977 44
0.645522952079773 2.157111167907715 -0.2717689573764801 44
0.6425180435180664 2.1457061767578125 -0.19261449575424194 44
0.638710081577301 2.1316354274749756 -0.11423435062170029 44
0.6398444771766663 2.1340668201446533 -0.03783890977501869 44
0.6397143006324768 2.132279634475708 0.5858432650566101 44
0.6399785876274109 2.1318087577819824 0.5046333074569702 44
0.6365614533424377 2.1190829277038574 0.42226240038871765 44
0.6407920718193054 2.1318159103393555 0.3461204767227173 44
0.6370988488197327 2.1181883811950684 0.2668938636779785 44
0.6426423788070679 2.135267734527588 0.1917426437139511 44
0.6416800022125244 2.1307225227355957 0.11461574584245682 44
0.6399368643760681 2.123591661453247 0.03804624453186989 44
0.5533097386360168 1.8303416967391968 -0.502109169960022 119
0.6289003491401672 2.0790843963623047 -0.4926431179046631 119
0.6509516835212708 2.1506295204162598 -0.42893505096435547 119
0.6466694474220276 2.1351377964019775 -0.34728479385375977 44
0.6544880867004395 2.1595940589904785 -0.27237826585769653 44
0.6500040292739868 2.1434502601623535 -0.19261449575424194 44
0.6461469531059265 2.1293928623199463 -0.11423435062170029 44
0.6472898721694946 2.1318202018737793 -0.03783890977501869 44
0.6471534371376038 2.1300337314605713 0.5858432650566101 44
0.6474161148071289 2.12956166267395 0.5046333074569702 44
0.6439545154571533 2.1168477535247803 0.42226240038871765 44
0.6482295393943787 2.129566192626953 0.3461204767227173 44
0.6444888710975647 2.1159515380859375 0.2668938636779785 44
0.6515440940856934 2.1377758979797363 0.192178413271904 44
0.650570273399353 2.1332457065582275 0.11487741768360138 44
0.6473456025123596 2.121345043182373 0.03804624453186989 44
0.5582817792892456 1.8237810134887695 -0.5008150935173035 119
0.6361539363861084 2.076876401901245 -0.4926431179046631 119
0.6598930954933167 2.1530368328094482 -0.42988821864128113 119
0.654118537902832 2.1328675746917725 -0.34728479385375977 44
0.6620224714279175 2.1572964191436768 -0.27237826585769653 44
0.6574821472167969 2.1411683559417725 -0.19261449575424194 44
0.6535760164260864 2.127124547958374 -0.11423435062170029 44
0.6561964750289917 2.134326219558716 -0.037925295531749725 44
0.6545847654342651 2.1277616024017334 0.5858432650566101 44
0.6548457145690918 2.127288818359375 0.5046333074569702 44
0.6513397693634033 2.1145870685577393 0.42226240038871765 44
0.6556592583656311 2.1272904872894287 0.3461204767227173 44
0.6533335447311401 2.1184310913085938 0.26750320196151733 44
0.6590023040771484 2.135488510131836 0.192178413271904 44
0.6580126881599426 2.1309616565704346 0.11487741768360138 44
0.6562222838401794 2.1238484382629395 0.03813350573182106 44
0.5649625062942505 1.8217225074768066 -0.5008150935173035 119
0.6437617540359497 2.074531078338623 -0.4926431179046631 119
0.6677799820899963 2.150603771209717 -0.42988821864128113 119
0.6633967757225037 2.13517165184021 -0.34806695580482483 44
0.6699249148368835 2.154855489730835 -0.27237826585769653 44
0.6653254628181458 2.1387441158294678 -0.19261449575424194 44
0.6628519296646118 2.1294822692871094 -0.11449515074491501 44
0.6640147566795349 2.131906747817993 -0.037925295531749725 44
0.6638160943984985 2.1299595832824707 0.5871365070343018 44
0.6640886664390564 2.129525661468506 0.505757212638855 44
0.6605477929115295 2.1168711185455322 0.4232156276702881 44
0.6634517312049866 2.124873161315918 0.3461204767227173 44
0.6610935926437378 2.1160223484039307 0.26750320196151733 44
0.6668248176574707 2.133059024810791 0.192178413271904 44
0.6673093438148499 2.133301019668579 0.11513910442590714 44
0.6640021800994873 2.121429204940796 0.03813350573182106 44
0.5713180899620056 1.8197394609451294 -0.5008150935173035 119
0.6509993076324463 2.0722711086273193 -0.4926431179046631 119
0.675282895565033 2.1482596397399902 -0.42988821864128113 119
0.6708458662033081 2.132843017578125 -0.34806695580482483 44
0.6789324879646301 2.1572375297546387 -0.27298763394355774 44
0.6742830872535706 2.1411595344543457 -0.19305026531219482 44
0.670281171798706 2.1271555423736572 -0.11449515074491501 44
0.6714524626731873 2.1295759677886963 -0.037925295531749725 44
0.6712469458580017 2.127629280090332 0.5871365070343018 44
0.6715180277824402 2.12719464302063 0.505757212638855 44
0.6679330468177795 2.1145524978637695 0.4232156276702881 44
0.6708648204803467 2.122544288635254 0.3461204767227173 44
0.6684758067131042 2.113701820373535 0.26750320196151733 44
0.6757693290710449 2.135467290878296 0.19261419773101807 44
0.6747518181800842 2.1309587955474854 0.11513910442590714 44
0.6729196310043335 2.1238622665405273 0.03822077065706253 44
0.5773494243621826 1.8178348541259766 -0.5008150935173035 119
0.6575062870979309 2.070215940475464 -0.4926431179046631 119
0.683515191078186 2.150805711746216 -0.4308414161205292 119
0.6790396571159363 2.1354312896728516 -0.3488491475582123 44
0.685706377029419 2.1550939083099365 -0.27298763394355774 44
0.6810064315795898 2.139030694961548 -0.19305026531219482 44
0.6769604682922363 2.1250393390655518 -0.11449515074491501 44
0.6796576976776123 2.1322193145751953 -0.038011688739061356 44
0.6779277920722961 2.1255099773406982 0.5871365070343018 44
0.6781975030899048 2.1250743865966797 0.505757212638855 44
0.674572765827179 2.112443685531616 0.4232156276702881 44
0.6790329217910767 2.1251306533813477 0.3469018042087555 44
0.6751129627227783 2.111591339111328 0.26750320196151733 44
0.6824747920036316 2.133333683013916 0.19261419773101807 44
0.6814431548118591 2.128828525543213 0.11513910442590714 44
0.6795822978019714 2.1217398643493652 0.03822077065706253 44
0.5833744406700134 1.8159102201461792 -0.5008150935173035 119
0.6647287011146545 2.0679080486297607 -0.4926431179046631 119
0.6910187005996704 2.148406505584717 -0.4308414161205292 119
0.6864895224571228 2.1330480575561523 -0.3488491475582123 44
0.6947460174560547 2.1574110984802246 -0.27359697222709656 44
0.688468873500824 2.1366405487060547 -0.19305026531219482 44
0.6859063506126404 2.127415657043457 -0.11475596576929092 44
0.6870964169502258 2.129833698272705 -0.038011688739061356 44
0.6853430867195129 2.1231305599212646 0.5871365070343018 44
0.6856112480163574 2.1226940155029297 0.505757212638855 44
0.6834518909454346 2.114746570587158 0.42416879534721375 44
0.6864468455314636 2.1227474212646484 0.3469018042087555 44
0.6824796199798584 2.109221935272217 0.26750320196151733 44
0.6914515495300293 2.1356770992279053 0.19304996728897095 44
0.6904087662696838 2.1311867237091064 0.1154007762670517 44
0.6869844198226929 2.119354724884033 0.03822077065706253 44
0.5915201902389526 1.8183526992797852 -0.502109169960022 119
0.6723034977912903 2.065457820892334 -0.4926431179046631 119
0.6988884210586548 2.145859479904175 -0.4308414161205292 119
0.6958330869674683 2.1352128982543945 -0.34963130950927734 44
0.7026486992835999 2.1548502445220947 -0.27359697222709656 44
0.6978404521942139 2.138838052749634 -0.1934860497713089 44
0.6936991214752197 2.124887466430664 -0.11475596576929092 44
0.6964503526687622 2.1320533752441406 -0.03809807822108269 44
0.694620668888092 2.125195264816284 0.5884297490119934 44
0.694901168346405 2.1247975826263428 0.5068811178207397 44
0.6911982297897339 2.112227439880371 0.42416879534721375 44
0.6957592368125916 2.124910354614258 0.3476831018924713 44
0.6902057528495789 2.106706380844116 0.26750320196151733 44
0.6992745399475098 2.1331284046173096 0.19304996728897095 44
0.6982152462005615 2.1286418437957764 0.1154007762670517 44
0.696306586265564 2.121572494506836 0.038308028131723404 44
0.5978637933731079 1.8162767887115479 -0.502109169960022 119
0.6795092225074768 2.063098430633545 -0.4926431179046631 119
0.7079107761383057 2.148068428039551 -0.43179458379745483 119
0.7032821178436279 2.1327710151672363 -0.34963130950927734 44
0.7101662158966064 2.1523845195770264 -0.27359697222709656 44
0.7053021192550659 2.1363892555236816 -0.1934860497713089 44
0.7026782631874084 2.1271939277648926 -0.11501676589250565 44
0.7038883566856384 2.1296091079711914 -0.03809807822108269 44
0.7020347714424133 2.12275767326355 0.5884297490119934 44
0.7023138403892517 2.122359037399292 0.5068811178207397 44
0.7001098990440369 2.1144614219665527 0.4251219928264618 44
0.7031722664833069 2.1224687099456787 0.3476831018924713 44
0.6991169452667236 2.108994960784912 0.26811254024505615 44
0.7082844972610474 2.1354024410247803 0.19348575174808502 44
0.7056413888931274 2.1261918544769287 0.1154007762670517 44
0.7037079334259033 2.119128942489624 0.038308028131723404 44
0.6057262420654297 1.8187609910964966 -0.5034032464027405 119
0.6867066025733948 2.060713768005371 -0.4926431179046631 119
0.7154046297073364 2.1455841064453125 -0.43179458379745483 119
0.7107226252555847 2.130303144454956 -0.34963130950927734 44
0.7192465662956238 2.154599905014038 -0.27420634031295776 44
0.714333176612854 2.138638496398926 -0.19392181932926178 44
0.7100992798805237 2.124728202819824 -0.11501676589250565 44
0.711317777633667 2.127139091491699 -0.03809807822108269 44
0.7109728455543518 2.1248745918273926 0.5897230505943298 44
0.7097179293632507 2.119894504547119 0.5068811178207397 44
0.7074865102767944 2.1120047569274902 0.4251219928264618 44
0.7121463418006897 2.1246840953826904 0.3484644293785095 44
0.7064744234085083 2.106541872024536 0.26811254024505615 44
0.71573406457901 2.1329171657562256 0.19348575174808502 44
0.7146481871604919 2.1284492015838623 0.11566246300935745 44
0.7111008167266846 2.116659641265869 0.038308028131723404 44
0.61207115650177 1.8166354894638062 -0.5034032464027405 119
0.693895697593689 2.0583043098449707 -0.4926431179046631 119
0.724458634853363 2.1477248668670654 -0.4327477812767029 0
0.719733715057373 2.132488489151001 -0.3504135012626648 44
0.7267631888389587 2.152076005935669 -0.27420634031295776 44
0.721794068813324 2.136131763458252 -0.19392181932926178 44
0.719110906124115 2.126966953277588 -0.11527758091688156 44
0.7187385559082031 2.124643325805664 -0.03809807822108269 44
0.7183856964111328 2.122379779815674 0.5897230505943298 44
0.7186763286590576 2.122018814086914 0.5080050230026245 44
0.7164296507835388 2.114170551300049 0.42607516050338745 44
0.7195584774017334 2.122185230255127 0.3484644293785095 44
0.7154176235198975 2.108762264251709 0.26872187852859497 44
0.724776029586792 2.135122299194336 0.1939215213060379 44
0.722073495388031 2.125941514968872 0.11566246300935745 44
0.7200936675071716 2.1188979148864746 0.038395293056964874 44
0.6184086799621582 1.8144878149032593 -0.5034032464027405 119
0.7026486396789551 2.0604805946350098 -0.4937678575515747 119
0.7319511771202087 2.1451830863952637 -0.4327477812767029 119
0.7271730899810791 2.1299631595611572 -0.3504135012626648 44
0.7342708706855774 2.1495261192321777 -0.27420634031295776 44
0.730857253074646 2.138312816619873 -0.19435760378837585 44
0.7265310883522034 2.124443769454956 -0.11527758091688156 44
0.7261505722999573 2.1221213340759277 -0.03809807822108269 44
0.7273542284965515 2.1244287490844727 0.5910162329673767 44
0.7260791659355164 2.119497299194336 0.5080050230026245 44
0.7253966927528381 2.116300344467163 0.4270283579826355 44
0.7269619107246399 2.1196603775024414 0.3484644293785095 44
0.7227742075920105 2.1062521934509277 0.26872187852859497 44
0.7322245836257935 2.1325793266296387 0.1939215213060379 44
0.7294900417327881 2.123408079147339 0.11566246300935745 44
0.7274856567382812 2.1163716316223145 0.038395293056964874 44
0.623164713382721 1.8077521324157715 -0.502109169960022 119
0.7098367810249329 2.0580153465270996 -0.4937678575515747 119
0.7410359382629395 2.147254467010498 -0.43370094895362854 0
0.7362154126167297 2.132079601287842 -0.35119566321372986 44
0.7417696714401245 2.1469500064849854 -0.27420634031295776 44
0.7383168935775757 2.1357486248016357 -0.19435760378837585 44
0.73557448387146 2.1266136169433594 -0.11553838849067688 44
0.7335537075996399 2.1195738315582275 -0.03809807822108269 44
0.7347654700279236 2.1218769550323486 0.5910162329673767 44
0.735068142414093 2.1215531826019287 0.5091289281845093 44
0.7327795624732971 2.113755226135254 0.4270283579826355 44
0.7359749674797058 2.1217758655548096 0.34924569725990295 44
0.7301220297813416 2.1037163734436035 0.26872187852859497 44
0.7396642565727234 2.1300103664398193 0.1939215213060379 44
0.7385364770889282 2.125565528869629 0.11592413485050201 44
0.7365102767944336 2.1185412406921387 0.038482554256916046 44
0.6278812289237976 1.801005482673645 -0.5008150935173035 119
0.7170162200927734 2.055525064468384 -0.4937678575515747 119
0.7485268115997314 2.1446547508239746 -0.43370094895362854 0
0.7436532974243164 2.1294968128204346 -0.35119566321372986 44
0.7492594122886658 2.144347667694092 -0.27420634031295776 44
0.7457675337791443 2.1331584453582764 -0.19435760378837585 44
0.7429932355880737 2.124032974243164 -0.11553838849067688 44
0.7425994873046875 2.1217191219329834 -0.03818446770310402 44
0.7437641024589539 2.1238574981689453 0.5923095345497131 44
0.7424692511558533 2.118974447250366 0.5091289281845093 44
0.7417773008346558 2.115816116333008 0.42798152565956116 44
0.7433767914772034 2.1191937923431396 0.34924569725990295 44
0.7391045093536377 2.105837821960449 0.2693312466144562 44
0.7487452626228333 2.132115125656128 0.19435730576515198 44
0.7459515333175659 2.1229746341705322 0.11592413485050201 44
0.7439008355140686 2.115957498550415 0.038482554256916046 44
0.6357699036598206 1.803357720375061 -0.502109169960022 119
0.7241870164871216 2.053009510040283 -0.4937678575515747 119
0.7560084462165833 2.14202880859375 -0.43370094895362854 0
0.7527266144752502 2.131544828414917 -0.3519778251647949 44
0.7583931684494019 2.1463980674743652 -0.2748156785964966 44
0.754869282245636 2.1352384090423584 -0.19479337334632874 44
0.7520681619644165 2.126133918762207 -0.1157992035150528 44
0.7500011324882507 2.1191139221191406 -0.03818446770310402 44
0.751173198223114 2.121248483657837 0.5923095345497131 44
0.7514885663986206 2.120962381362915 0.510252833366394 44
0.7491583228111267 2.1132142543792725 0.42798152565956116 44
0.7524206638336182 2.1212406158447266 0.35002702474594116 44
0.7464507222175598 2.1032450199127197 0.2693312466144562 44
0.7561832070350647 2.129488468170166 0.19435730576515198 44
0.7550292611122131 2.1250627040863037 0.11618582159280777 44
0.7529569268226624 2.118058204650879 0.038569819182157516 44
0.6404392719268799 1.796578288078308 -0.5008150935173035 119
0.7313489317893982 2.050469160079956 -0.4937678575515747 119
0.7651306986808777 2.1439995765686035 -0.434654176235199 0
0.7601624727249146 2.128904342651367 -0.3519778251647949 44
0.7658808827400208 2.14373779296875 -0.2748156785964966 44
0.7623180747032166 2.1325902938842773 -0.19479337334632874 44
0.759485125541687 2.1234960556030273 -0.1157992035150528 44
0.7573936581611633 2.116482973098755 -0.03818446770310402 44
0.7602012157440186 2.1231603622436523 0.59360271692276 44
0.7605305910110474 2.122912883758545 0.5113767385482788 44
0.7565302848815918 2.110586166381836 0.42798152565956116 44
0.7614877820014954 2.1232500076293945 0.350808322429657 44
0.7537878751754761 2.1006267070770264 0.2693312466144562 44
0.7652949690818787 2.131523847579956 0.19479307532310486 44
0.7624425888061523 2.1224143505096436 0.11618582159280777 44
0.7603457570075989 2.115417003631592 0.038569819182157516 44
0.6450690031051636 1.7897882461547852 -0.4995209574699402 119
0.7385019659996033 2.0479037761688232 -0.4937678575515747 119
0.7726099491119385 2.1413156986236572 -0.434654176235199 0
0.7692659497261047 2.130882740020752 -0.35275998711586 44
0.7750452756881714 2.145719051361084 -0.2754250168800354 44
0.7714505195617676 2.134600877761841 -0.195229172706604 44
0.7685908079147339 2.1255273818969727 -0.11606000363826752 44
0.766477644443512 2.1185271739959717 -0.03827085718512535 44
0.7676078081130981 2.1204938888549805 0.59360271692276 44
0.7679362893104553 2.1202452182769775 0.5113767385482788 44
0.7638930082321167 2.1079325675964355 0.42798152565956116 44
0.7705780863761902 2.1252217292785645 0.3515896499156952 44
0.7628083229064941 2.1026477813720703 0.269940584897995 44
0.7727307081222534 2.1288394927978516 0.19479307532310486 44
0.7698465585708618 2.1197400093078613 0.11618582159280777 44
0.7694326639175415 2.117448568344116 0.03865707665681839 44
nan nan nan 0
0.7456459999084473 2.0453133583068848 -0.4937678575515747 119
0.7817617654800415 2.143216848373413 -0.43560734391212463 0
0.7783926129341125 2.1328237056732178 -0.35354217886924744 44
0.7842327952384949 2.1476621627807617 -0.2760343551635742 44
0.7788969874382019 2.131894826889038 -0.195229172706604 44
0.7760055661201477 2.122831344604492 -0.11606000363826752 44
0.7738679647445679 2.1158387660980225 -0.03827085718512535 44
0.7766649127006531 2.122337579727173 0.5948960185050964 44
0.7770078182220459 2.122126579284668 0.5125006437301636 44
0.7729348540306091 2.1098620891571045 0.4289347529411316 44
0.7779918313026428 2.122519016265869 0.3515896499156952 44
0.7718520164489746 2.1046316623687744 0.2705499529838562 44
0.7818728685379028 2.130805253982544 0.19522887468338013 44
0.7772411108016968 2.117039680480957 0.11618582159280777 44
0.7768192291259766 2.1147499084472656 0.03865707665681839 44
nan nan nan 0
0.7527809143066406 2.0426981449127197 -0.4937678575515747 119
0.7892382144927979 2.140475034713745 -0.43560734391212463 119
0.7858328223228455 2.130093574523926 -0.35354217886924744 44
0.7917247414588928 2.144911766052246 -0.2760343551635742 44
0.7880595326423645 2.1338353157043457 -0.19566494226455688 44
0.783410906791687 2.120109796524048 -0.11606000363826752 44
0.782982587814331 2.1178138256073 -0.03835725039243698 44
0.7840685248374939 2.1196134090423584 0.5948960185050964 44
0.7844107151031494 2.119401454925537 0.5125006437301636 44
0.7802949547767639 2.1071512699127197 0.4289347529411316 44
0.7871116995811462 2.1244211196899414 0.352370947599411 44
0.7809188365936279 2.1065776348114014 0.27115926146507263 44
0.7910382151603699 2.132733106613159 0.19566462934017181 44
0.7846261858940125 2.114313840866089 0.11618582159280777 44
0.7841963768005371 2.112025260925293 0.03865707665681839 44
nan nan nan 0
0.7602627277374268 2.0399255752563477 -0.4937678575515747 119
0.7970781326293945 2.1375679969787598 -0.43560734391212463 119
0.7953608632087708 2.1318259239196777 -0.3543243408203125 44
0.8013164401054382 2.1466448307037354 -0.2766437232494354 44
0.7958751320838928 2.130932569503784 -0.19566494226455688 44
0.7929242253303528 2.121901750564575 -0.11632081866264343 44
0.7924902439117432 2.119612216949463 -0.038443636149168015 44
0.7935243248939514 2.121249198913574 0.5961893200874329 44
0.7938811779022217 2.12107515335083 0.5136245489120483 44
0.7897340655326843 2.1088736057281494 0.42988792061805725 44
0.7948928475379944 2.1215219497680664 0.352370947599411 44
0.7886345386505127 2.10370135307312 0.27115926146507263 44
0.8005990386009216 2.1344833374023438 0.19610042870044708 44
0.7923703193664551 2.1114237308502197 0.11618582159280777 44
0.7919320464134216 2.1091368198394775 0.03865707665681839 44
nan nan nan 0
0.7673787474632263 2.037259101867676 -0.4937678575515747 119
0.8062657713890076 2.1393654346466064 -0.4365605413913727 119
0.8027974963188171 2.1290366649627686 -0.3543243408203125 44
0.8105565309524536 2.148477792739868 -0.27725306153297424 44
0.8033086061477661 2.1281416416168213 -0.19566494226455688 44
0.8003261685371399 2.1191208362579346 -0.11632081866264343 44
0.7998842597007751 2.116832971572876 -0.038443636149168015 44
0.8009240031242371 2.118466377258301 0.5961893200874329 44
0.8012803196907043 2.118291139602661 0.5136245489120483 44
0.7970905900001526 2.1061041355133057 0.42988792061805725 44
0.8040424585342407 2.1233530044555664 0.3531522750854492 44
0.797731339931488 2.105576753616333 0.27176862955093384 44
0.8080448508262634 2.1316757202148438 0.19610042870044708 44
0.7997356653213501 2.108644962310791 0.11618582159280777 44
0.801069438457489 2.1110315322875977 0.03874434158205986 44
nan nan nan 0
0.7744854688644409 2.0345680713653564 -0.4937678575515747 119
0.8137286901473999 2.136538028717041 -0.4365605413913727 119
0.8102243542671204 2.1262214183807373 -0.3543243408203125 44
0.8198192119598389 2.1502726078033447 -0.27786242961883545 44
0.8125076293945312 2.1299784183502197 -0.19610072672367096 44
0.8077183961868286 2.11631441116333 -0.11632081866264343 44
0.8090519905090332 2.1186985969543457 -0.038530029356479645 44
0.8100376725196838 2.120169162750244 0.5974825024604797 44
0.8104093074798584 2.1200320720672607 0.5147484540939331 44
0.8061907887458801 2.107893228530884 0.4308411180973053 44
0.8114495277404785 2.1205334663391113 0.3531522750854492 44
0.806850790977478 2.1074137687683105 0.27237796783447266 44
0.8172626495361328 2.133493423461914 0.19653619825839996 44
0.8088782429695129 2.1105029582977295 0.11644749343395233 44
0.8084271550178528 2.108224868774414 0.03874434158205986 44
nan nan nan 0
0.7815827131271362 2.0318522453308105 -0.4937678575515747 119
0.8229445815086365 2.138265371322632 -0.43751370906829834 119
0.8194158673286438 2.127988815307617 -0.35510653257369995 44
0.8291040658950806 2.1520285606384277 -0.2784717381000519 44
0.8199377059936523 2.127129316329956 -0.19610072672367096 44
0.8151007890701294 2.1134819984436035 -0.11632081866264343 44
0.8182423710823059 2.120525598526001 -0.03861641883850098 44
0.8174334764480591 2.117328643798828 0.5974825024604797 44
0.8178046941757202 2.117190361022949 0.5147484540939331 44
0.8153131604194641 2.109644651412964 0.43179428577423096 44
0.818846583366394 2.1176881790161133 0.3531522750854492 44
0.8159927129745483 2.109212875366211 0.27298733592033386 44
0.8247048854827881 2.1306276321411133 0.19653619825839996 44
0.8162403702735901 2.107666492462158 0.11644749343395233 44
0.8175875544548035 2.110051393508911 0.03883160278201103 44
0.6766723394393921 1.7418603897094727 -0.4904623031616211 119
0.7886704206466675 2.029111623764038 -0.4937678575515747 119
0.8304035067558289 2.1353797912597656 -0.43751370906829834 119
0.8268389701843262 2.1251156330108643 -0.35510653257369995 44
0.8384113907814026 2.1537461280822754 -0.2790811061859131 44
0.829165518283844 2.1288957595825195 -0.19653649628162384 44
0.824286162853241 2.1152760982513428 -0.11658161878585815 44
0.827455461025238 2.122314214706421 -0.03870280832052231 44
0.8265746831893921 2.118962526321411 0.5987758040428162 44
0.82696133852005 2.118861198425293 0.5158723592758179 44
0.824457585811615 2.1113579273223877 0.432747483253479 44
0.8280307650566101 2.1194167137145996 0.35393357276916504 44
0.8233502507209778 2.106351613998413 0.27298733592033386 44
0.8339514136314392 2.1323747634887695 0.19697198271751404 44
0.8254119753837585 2.109454393386841 0.11670918017625809 44
0.8249480128288269 2.107184648513794 0.03883160278201103 44
0.7021587491035461 1.788940668106079 -0.504697322845459 119
0.7957485318183899 2.026346445083618 -0.4937678575515747 119
0.8396472334861755 2.1370365619659424 -0.4384669363498688 119
0.8342519998550415 2.1222164630889893 -0.35510653257369995 44
0.8459242582321167 2.150806427001953 -0.2790811061859131 44
0.8384155631065369 2.1306235790252686 -0.19697228074073792 44
0.8316648006439209 2.1123859882354736 -0.11658161878585815 44
0.8348586559295654 2.119412899017334 -0.03870280832052231 44
0.8339662551879883 2.1160643100738525 0.5987758040428162 44
0.8343524932861328 2.1159615516662598 0.5158723592758179 44
0.8318226337432861 2.1084673404693604 0.432747483253479 44
0.8372370600700378 2.1211071014404297 0.35471490025520325 44
0.8325206637382507 2.1080806255340576 0.2735966444015503 44
0.8413896560668945 2.129450798034668 0.19697198271751404 44
0.8346059918403625 2.111203670501709 0.11697085201740265 44
0.8341372013092041 2.1089413166046143 0.038918863981962204 44
0.6959372162818909 1.7550519704818726 -0.4956386983394623 119
0.8010204434394836 2.0190279483795166 -0.4926431179046631 119
0.8471018075942993 2.1340925693511963 -0.4384669363498688 119
0.8434776067733765 2.1238808631896973 -0.355888694524765 44
0.8552592992782593 2.152452230453491 -0.2796904444694519 44
0.8458477258682251 2.1276838779449463 -0.19697228074073792 44
0.839033305644989 2.1094701290130615 -0.11658161878585815 44
0.8441001772880554 2.1211307048797607 -0.03878919780254364 44
0.8431341052055359 2.1176273822784424 0.6000690460205078 44
0.8435366153717041 2.117562770843506 0.5169962644577026 44
0.8391774296760559 2.105550765991211 0.432747483253479 44
0.8446360230445862 2.1181716918945312 0.35471490025520325 44
0.8398741483688354 2.105161666870117 0.2735966444015503 44
0.848817765712738 2.1265008449554443 0.19697198271751404 44
0.8438223004341125 2.112914800643921 0.1172325387597084 44
0.8414936661720276 2.1060166358947754 0.038918863981962204 44
nan nan nan 0
0.808063268661499 2.0162196159362793 -0.4926431179046631 119
0.8563727736473083 2.135678291320801 -0.4394201338291168 119
0.8508861660957336 2.1209237575531006 -0.355888694524765 44
0.8627675771713257 2.14945387840271 -0.2796904444694519 44
0.8551257252693176 2.129340410232544 -0.1974080502986908 44
0.8482533693313599 2.111161708831787 -0.11684243381023407 44
0.8514991402626038 2.118171215057373 -0.03878919780254364 44
0.8505208492279053 2.114671468734741 0.6000690460205078 44
0.8509231209754944 2.11460542678833 0.5169962644577026 44
0.8483551740646362 2.1071617603302 0.43370065093040466 44
0.8538699746131897 2.119791269302368 0.35549619793891907 44
0.8490725755691528 2.1068203449249268 0.2742060124874115 44
0.858098030090332 2.1281442642211914 0.19740775227546692 44
0.8530605435371399 2.114586591720581 0.11749421060085297 44
0.850710928440094 2.1077020168304443 0.039006125181913376 44
0.697002649307251 1.7234103679656982 -0.4878741204738617 119
0.8162199258804321 2.0181872844696045 -0.4937678575515747 119
0.8649190068244934 2.1375274658203125 -0.4403733015060425 119
0.8593982458114624 2.1228179931640625 -0.35667088627815247 44
0.8695160150527954 2.146732807159424 -0.2796904444694519 44
0.8636818528175354 2.1312599182128906 -0.19784384965896606 44
0.856757640838623 2.1131136417388916 -0.11710324138402939 44
0.8600286245346069 2.1201186180114746 -0.03887559100985527 44
0.8589764833450317 2.116464138031006 0.6013622879981995 44
