# .PCD v0.7 - Point Cloud Data file format
VERSION 0.7
FIELDS x y z intensity
SIZE 4 4 4 4
TYPE F F F F
COUNT 1 1 1 1
WIDTH 779
HEIGHT 1
VIEWPOINT 0 0 0 1 0 0 0
POINTS 779
DATA ascii
1.684064507484436 -1.3872485160827637 -0.4948926270008087 119
nan nan nan 0
2.472123861312866 -2.0378615856170654 -0.5013728737831116 119
2.640761613845825 -2.177649974822998 -0.41557490825653076 109
2.6384518146514893 -2.1765191555023193 -0.29589420557022095 109
2.6290667057037354 -2.169548273086548 -0.17604607343673706 109
2.631842851638794 -2.1726114749908447 -0.058313384652137756 109
2.61777925491333 -2.1617703437805176 0.8988102674484253 109
2.6249845027923584 -2.1684908866882324 0.7766183018684387 109
2.6212165355682373 -2.1661479473114014 0.6529340147972107 109
2.6254031658172607 -2.170379161834717 0.5328536629676819 109
2.6185965538024902 -2.1655213832855225 0.4125277101993561 109
2.6315724849700928 -2.1770260334014893 0.29545795917510986 109
2.6298580169677734 -2.1763808727264404 0.17689552903175354 109
2.6249477863311768 -2.1730895042419434 0.058814603835344315 109
1.4495384693145752 -1.2021484375 -0.4943445920944214 119
1.6867108345031738 -1.3993399143218994 -0.49714213609695435 119
1.95192289352417 -1.61994206905365 -0.48517316579818726 119
2.461195707321167 -2.0433237552642822 -0.5005906820297241 119
2.633143901824951 -2.186854600906372 -0.41557490825653076 109
2.634669303894043 -2.1888985633850098 -0.29632997512817383 109
2.629157781600952 -2.1850953102111816 -0.1765677034854889 109
2.6319313049316406 -2.1881771087646484 -0.05848616361618042 109
2.6139309406280518 -2.173983335494995 0.9001035690307617 109
2.6211442947387695 -2.1807565689086914 0.7777422666549683 109
2.6174116134643555 -2.17842435836792 0.653887152671814 109
2.6254019737243652 -2.185850143432617 0.5344162583351135 109
2.618648052215576 -2.1810011863708496 0.4137464165687561 109
2.631610631942749 -2.192575216293335 0.296329528093338 109
2.629915952682495 -2.191941022872925 0.17741888761520386 109
2.625025749206543 -2.1886417865753174 0.05898912996053696 109
1.4564536809921265 -1.2164890766143799 -0.4982268810272217 119
1.6818158626556396 -1.4052190780639648 -0.49714213609695435 119
1.942490577697754 -1.6235980987548828 -0.4842199981212616 119
2.4540481567382812 -2.0519025325775146 -0.5005906820297241 119
2.629301071166992 -2.199216604232788 -0.41618427634239197 109
2.634652853012085 -2.204474687576294 -0.297201544046402 109
2.6291723251342773 -2.200669288635254 -0.17708931863307953 109
2.6319432258605957 -2.2037699222564697 -0.05865894630551338 109
2.6137313842773438 -2.1892969608306885 0.902690052986145 109
2.6209850311279297 -2.1961510181427 0.7799900770187378 109
2.6173148155212402 -2.1938536167144775 0.6557935476303101 109
2.6253244876861572 -2.2013473510742188 0.5359788537025452 109
2.614820957183838 -2.1933176517486572 0.4143557548522949 109
2.6277568340301514 -2.2049496173858643 0.2967652976512909 109
2.626073122024536 -2.204318046569824 0.17768056690692902 109
2.6211986541748047 -2.2010064125061035 0.05907639488577843 109
nan nan nan 0
nan nan nan 0
nan nan nan 0
2.4430932998657227 -2.0572752952575684 -0.49980852007865906 119
2.6329948902130127 -2.217972993850708 -0.4180122911930084 109
2.6345596313476562 -2.2200772762298584 -0.29807308316230774 109
2.6291098594665527 -2.2162697315216064 -0.17761093378067017 109
2.628056287765503 -2.2161664962768555 -0.058745332062244415 109
2.613456964492798 -2.2046358585357666 0.9052765965461731 109
2.6170263290405273 -2.2084286212921143 0.7811139225959778 109
2.6171422004699707 -2.209308624267578 0.6576998829841614 109
2.6213974952697754 -2.213684558868408 0.5367602109909058 109
2.6147313117980957 -2.2088370323181152 0.41557443141937256 109
2.6238486766815186 -2.2173240184783936 0.2972010672092438 109
2.622175693511963 -2.2166948318481445 0.17794224619865417 109
2.621134042739868 -2.2165987491607666 0.05925091728568077 109
nan nan nan 0
1.6570979356765747 -1.4043270349502563 -0.4926431179046631 119
1.9460841417312622 -1.6498154401779175 -0.4880327582359314 119
2.4396634101867676 -2.0689849853515625 -0.5005906820297241 119
2.636589765548706 -2.2367820739746094 -0.41984036564826965 109
2.634389638900757 -2.235706090927124 -0.2989446520805359 109
2.625164031982422 -2.2286651134490967 -0.1778717339038849 109
2.627925395965576 -2.2317986488342285 -0.05891811475157738 109
2.613107204437256 -2.219999313354492 0.9078630805015564 109
2.6167263984680176 -2.223860502243042 0.7833617329597473 109
2.616893768310547 -2.2247893810272217 0.6596063375473022 109
2.62117862701416 -2.229220390319824 0.5383228063583374 109
2.6145646572113037 -2.224382162094116 0.4167931377887726 109
2.6160926818847656 -2.2264692783355713 0.2972010672092438 109
2.622025728225708 -2.2323079109191895 0.1784656047821045 109
2.620992660522461 -2.232217788696289 0.059425439685583115 109
nan nan nan 0
nan nan nan 0
1.985107660293579 -1.6948429346084595 -0.4994710087776184 119
2.4324264526367188 -2.077488422393799 -0.5005906820297241 119
2.651404619216919 -2.2653138637542725 -0.42349642515182495 109
2.6341421604156494 -2.2513606548309326 -0.29981622099876404 109
2.6249587535858154 -2.2443044185638428 -0.17839334905147552 109
2.6277172565460205 -2.247457265853882 -0.05909089371562004 109
2.6126816272735596 -2.235387086868286 0.9104495644569397 109
2.6163504123687744 -2.2393171787261963 0.7856095433235168 109
2.6165683269500732 -2.2402946949005127 0.6615126729011536 109
2.620882749557495 -2.244781732559204 0.5398854613304138 109
2.6180901527404785 -2.2431821823120117 0.4186211824417114 109
2.6158688068389893 -2.242070436477661 0.2980726361274719 109
2.6217987537384033 -2.2479472160339355 0.1789889633655548 109
2.620774269104004 -2.2478625774383545 0.05959996581077576 109
nan nan nan 0
1.6435587406158447 -1.4126856327056885 -0.4915183484554291 119
nan nan nan 0
2.4251599311828613 -2.0859665870666504 -0.5005906820297241 119
2.6735758781433105 -2.300449848175049 -0.42837122082710266 109
2.633817672729492 -2.267040491104126 -0.3006877601146698 109
2.6208925247192383 -2.256711721420288 -0.17865416407585144 109
2.627431869506836 -2.26314115524292 -0.059263672679662704 109
2.612180709838867 -2.2507987022399902 0.9130361080169678 109
2.612208366394043 -2.251617193222046 0.7867334485054016 109
2.616166830062866 -2.2558252811431885 0.6634190678596497 109
2.6205103397369385 -2.2603681087493896 0.5414480566978455 109
2.6177587509155273 -2.258791446685791 0.41983985900878906 109
2.6193385124206543 -2.2609519958496094 0.29937997460365295 109
2.6214945316314697 -2.2636120319366455 0.17951232194900513 109
2.6204781532287598 -2.263532876968384 0.0597744882106781 109
1.4459575414657593 -1.251203179359436 -0.502109169960022 119
1.6533516645431519 -1.4311681985855103 -0.49601736664772034 119
1.9583849906921387 -1.6958080530166626 -0.4956582486629486 119
2.417863607406616 -2.094419240951538 -0.5005906820297241 119
2.6617791652679443 -2.3065185546875 -0.42776188254356384 109
2.633415937423706 -2.282745838165283 -0.30155932903289795 109
2.620543956756592 -2.2723889350891113 -0.17917577922344208 109
2.6232924461364746 -2.2755746841430664 -0.059350065886974335 109
2.6116037368774414 -2.2662343978881836 0.9156225919723511 109
2.6116912364959717 -2.2671091556549072 0.7889812588691711 109
2.6156885623931885 -2.2713801860809326 0.6653254628181458 109
2.620060682296753 -2.2759788036346436 0.5430106520652771 109
2.6173503398895264 -2.274425983428955 0.4210585653781891 109
2.618948459625244 -2.2766170501708984 0.3002515435218811 109
2.621112823486328 -2.279301881790161 0.18003568053245544 109
2.616332769393921 -2.275947332382202 0.05986174941062927 109
1.4345171451568604 -1.2496464252471924 -0.4995209574699402 119
1.6415003538131714 -1.4299551248550415 -0.4937678575515747 119
1.9530478715896606 -1.7019520998001099 -0.4956582486629486 119
2.411271810531616 -2.1020045280456543 -0.5005906820297241 119
2.665740728378296 -2.3246545791625977 -0.4295898973941803 109
2.6299848556518555 -2.2942819595336914 -0.30199509859085083 109
2.6209163665771484 -2.2871768474578857 -0.1796974092721939 109
2.6236627101898193 -2.2903802394866943 -0.059522844851017 109
2.6117475032806396 -2.2807815074920654 0.9182090759277344 109
2.61556339263916 -2.284918785095215 0.7923529744148254 109
2.615931987762451 -2.286045789718628 0.6672317981719971 109
2.6203339099884033 -2.2906994819641113 0.5445733070373535 109
2.6176633834838867 -2.289170980453491 0.4222772419452667 109
2.623030185699463 -2.2946724891662598 0.30155888199806213 109
2.6214540004730225 -2.2941014766693115 0.18055903911590576 109
2.6166930198669434 -2.290741443634033 0.060036271810531616 109
1.4339964389801025 -1.2575809955596924 -0.5008150935173035 119
1.618187427520752 -1.419611930847168 -0.48814404010772705 119
1.9397169351577759 -1.7022840976715088 -0.4937518835067749 119
2.4002087116241455 -2.1071507930755615 -0.49980852007865906 119
2.657609701156616 -2.3339455127716064 -0.4295898973941803 109
2.6294443607330322 -2.310023069381714 -0.302866667509079 109
2.6166672706604004 -2.299607515335083 -0.17995820939540863 109
2.6231610774993896 -2.306126117706299 -0.05969562754034996 109
2.611023426055908 -2.2962634563446045 0.9207956194877625 109
2.611229419708252 -2.297253131866455 0.7934768795967102 109
2.6153054237365723 -2.3016486167907715 0.6691381931304932 109
2.6197354793548584 -2.306358814239502 0.5461359024047852 109
2.61710524559021 -2.304854393005371 0.42349594831466675 109
2.622479200363159 -2.3103997707366943 0.3024304211139679 109
2.620922327041626 -2.3098409175872803 0.18108241260051727 109
2.616180658340454 -2.30647349357605 0.06021079793572426 109
1.425538182258606 -1.2598795890808105 -0.4995209574699402 119
1.6236743927001953 -1.4354956150054932 -0.4915183484554291 119
1.936842918395996 -1.7129713296890259 -0.49470508098602295 119
2.3921000957489014 -2.116351366043091 -0.49980852007865906 119
2.6523451805114746 -2.347421884536743 -0.4301992654800415 109
2.628013849258423 -2.3267061710357666 -0.30373823642730713 109
2.6152942180633545 -2.3162589073181152 -0.18047983944416046 109
2.6217708587646484 -2.3228118419647217 -0.059868406504392624 109
2.6094164848327637 -2.3126792907714844 0.9233821034431458 109
2.6096808910369873 -2.3137269020080566 0.7957246899604797 109
2.613792657852173 -2.3181872367858887 0.6710445880889893 109
2.61824893951416 -2.322956085205078 0.5476985573768616 109
2.611947774887085 -2.318180561065674 0.42410531640052795 109
2.6210379600524902 -2.32706618309021 0.30330199003219604 109
2.6195006370544434 -2.326519012451172 0.1816057711839676 109
2.6147799491882324 -2.3231430053710938 0.0603853240609169 109
1.4175240993499756 -1.2616370916366577 -0.4982268810272217 119
1.618653655052185 -1.4411545991897583 -0.4915183484554291 119
1.9308518171310425 -1.719721794128418 -0.49470508098602295 119
2.3846981525421143 -2.1246883869171143 -0.49980852007865906 119
2.6478395462036133 -2.3599679470062256 -0.4308086037635803 109
2.6273117065429688 -2.3424949645996094 -0.3046097755432129 109
2.6146457195281982 -2.3320209980010986 -0.1810014545917511 109
2.621107578277588 -2.338606119155884 -0.06004118546843529 109
2.608534574508667 -2.3282060623168945 0.925968587398529 109
2.6088569164276123 -2.3293120861053467 0.7979725003242493 109
2.6093454360961914 -2.330566644668579 0.6719977259635925 109
2.6174895763397217 -2.3386621475219727 0.5492611527442932 109
2.6112406253814697 -2.3338983058929443 0.4253239929676056 109
2.6203255653381348 -2.342841386795044 0.3041735589504242 109
2.618806838989258 -2.342306137084961 0.1821291297674179 109
2.6141016483306885 -2.338927984237671 0.06055985018610954 109
1.4133325815200806 -1.2663308382034302 -0.4982268810272217 119
1.6177468299865723 -1.4494837522506714 -0.4926431179046631 119
1.925439715385437 -1.7257791757583618 -0.49470508098602295 119
2.381688356399536 -2.1354663372039795 -0.5005906820297241 119
2.647801160812378 -2.3749020099639893 -0.43202728033065796 109
2.627354621887207 -2.3573904037475586 -0.30548134446144104 109
2.6147382259368896 -2.3468942642211914 -0.18152306973934174 109
2.6211869716644287 -2.353508710861206 -0.06021396815776825 109
2.608393669128418 -2.342844247817993 0.9285550713539124 109
2.608774423599243 -2.3440089225769043 0.8002203106880188 109
2.609311580657959 -2.3453149795532227 0.6739041209220886 109
2.617474317550659 -2.353477716445923 0.5508237481117249 109
2.6112749576568604 -2.3487279415130615 0.4265426993370056 109
2.6203577518463135 -2.357724905014038 0.30504509806632996 109
2.6188578605651855 -2.3572025299072266 0.18265248835086823 109
2.614175319671631 -2.353814125061035 0.06073437258601189 109
1.4091254472732544 -1.2710107564926147 -0.4982268810272217 119
1.6090600490570068 -1.4518581628799438 -0.4915183484554291 119
1.9194037914276123 -1.732489824295044 -0.49470508098602295 119
2.3742196559906006 -2.1437671184539795 -0.5005906820297241 119
2.6431779861450195 -2.3874566555023193 -0.43263664841651917 109
2.62280535697937 -2.369886636734009 -0.3059171438217163 109
2.613938808441162 -2.362703561782837 -0.18204468488693237 109
2.6203720569610596 -2.369349956512451 -0.06038674712181091 109
2.607363700866699 -2.358414649963379 0.9311416149139404 109
2.607801675796509 -2.3596386909484863 0.8024681210517883 109
2.608386993408203 -2.3609962463378906 0.6758104562759399 109
2.6129043102264404 -2.365915060043335 0.5516051054000854 109
2.6104166507720947 -2.3644917011260986 0.42776137590408325 109
2.6194941997528076 -2.3735463619232178 0.3059166669845581 109
2.6217122077941895 -2.376389741897583 0.1834375113248825 109
2.6133501529693604 -2.369641065597534 0.06090889498591423 109
1.4044575691223145 -1.2761667966842651 -0.4982268810272217 119
1.60372793674469 -1.4577457904815674 -0.4915183484554291 119
1.9130409955978394 -1.7395130395889282 -0.49470508098602295 119
2.369999647140503 -2.1557776927948 -0.5013728737831116 119
2.6417510509490967 -2.403808355331421 -0.4338553547859192 109
2.6214687824249268 -2.3861894607543945 -0.30678868293762207 109
2.612645387649536 -2.3789918422698975 -0.182566300034523 109
2.6190621852874756 -2.3856711387634277 -0.06055952608585358 109
2.605842351913452 -2.3744614124298096 0.9337280988693237 109
2.606337070465088 -2.3757450580596924 0.8047159314155579 109
2.6069698333740234 -2.377155065536499 0.677716851234436 109
2.6115124225616455 -2.382132053375244 0.5531677007675171 109
2.6090645790100098 -2.3807337284088135 0.4289800822734833 109
2.6181344985961914 -2.38984751701355 0.30678820610046387 109
2.620359182357788 -2.392716646194458 0.18396086990833282 109
2.612029552459717 -2.3859469890594482 0.06108342111110687 109
1.3999943733215332 -1.2810615301132202 -0.4982268810272217 119
1.5986295938491821 -1.4633349180221558 -0.4915183484554291 119
1.9033373594284058 -1.7428654432296753 -0.4937518835067749 119
2.362460136413574 -2.1640374660491943 -0.5013728737831116 119
2.6406617164611816 -2.4197206497192383 -0.4350740313529968 109
2.620466947555542 -2.402056932449341 -0.3076602518558502 109
2.6116855144500732 -2.3948464393615723 -0.18308793008327484 109
2.618086814880371 -2.401557683944702 -0.06073230877518654 109
2.6046552658081055 -2.3900740146636963 0.936314582824707 109
2.6052064895629883 -2.3914177417755127 0.8069637417793274 109
2.605886697769165 -2.3928802013397217 0.6796232461929321 109
2.610455274581909 -2.3979153633117676 0.5547303557395935 109
2.608046770095825 -2.3965423107147217 0.4301987588405609 109
2.61711049079895 -2.4057135581970215 0.307659775018692 109
2.6193418502807617 -2.4086081981658936 0.18448422849178314 109
2.611043930053711 -2.4018189907073975 0.061257943511009216 109
1.3955140113830566 -1.2859405279159546 -0.4982268810272217 119
1.593511939048767 -1.4689064025878906 -0.4915183484554291 119
1.8936337232589722 -1.746171236038208 -0.49279871582984924 119
2.3548920154571533 -2.1722707748413086 -0.5013728737831116 119
2.6431407928466797 -2.4390201568603516 -0.43690210580825806 109
2.6193861961364746 -2.4179465770721436 -0.30853182077407837 109
2.6143150329589844 -2.4141106605529785 -0.1838703453540802 109
2.617032289505005 -2.417465925216675 -0.0609050877392292 109
2.60339093208313 -2.4057071208953857 0.9389011263847351 109
2.6075761318206787 -2.4104185104370117 0.8103354573249817 109
2.6047255992889404 -2.4086267948150635 0.6815295815467834 109
2.6093196868896484 -2.41372013092041 0.5562929511070251 109
2.606950521469116 -2.4123728275299072 0.43141746520996094 109
2.6160078048706055 -2.4216017723083496 0.30853134393692017 109
2.6182456016540527 -2.4245216846466064 0.18500758707523346 109
2.6099791526794434 -2.4177134037017822 0.06143246963620186 109
1.3910168409347534 -1.2908040285110474 -0.4982268810272217 119
1.5919455289840698 -1.4777743816375732 -0.4926431179046631 119
1.8839300870895386 -1.749430775642395 -0.4918454885482788 119
2.347295045852661 -2.1804776191711426 -0.5013728737831116 119
2.6418819427490234 -2.4549880027770996 -0.4381207823753357 109
2.6218745708465576 -2.437249183654785 -0.309839129447937 109
2.613185405731201 -2.4300220012664795 -0.18439196050167084 109
2.615898609161377 -2.433396577835083 -0.061077866703271866 109
2.6020493507385254 -2.421360731124878 0.9414876103401184 109
2.606278657913208 -2.426145315170288 0.8125832676887512 109
2.6034860610961914 -2.424394130706787 0.6834360361099243 109
2.6081058979034424 -2.4295458793640137 0.5578556060791016 109
2.6057751178741455 -2.428224802017212 0.4326361417770386 109
2.61482572555542 -2.4375112056732178 0.3094028830528259 109
2.617069721221924 -2.4404571056365967 0.18553094565868378 109
2.608834981918335 -2.433629274368286 0.0616069920361042 109
1.3865025043487549 -1.2956517934799194 -0.4982268810272217 119
1.5867774486541748 -1.4833223819732666 -0.4926431179046631 119
1.8778120279312134 -1.7559963464736938 -0.4918454885482788 119
2.3396694660186768 -2.1886579990386963 -0.5013728737831116 119
2.640543222427368 -2.4709765911102295 -0.4393394887447357 109
2.6206235885620117 -2.4531941413879395 -0.31071069836616516 109
2.611976385116577 -2.4459550380706787 -0.18491357564926147 109
2.614685535430908 -2.4493484497070312 -0.06125064939260483 109
2.604154109954834 -2.4403364658355713 0.9453673958778381 109
2.604902744293213 -2.441892147064209 0.8148310780525208 109
2.605748414993286 -2.4435393810272217 0.6862955689430237 109
2.6068127155303955 -2.445392608642578 0.5594182014465332 109
2.6045210361480713 -2.4440977573394775 0.4338548481464386 109
2.6135644912719727 -2.453442096710205 0.3102744519710541 109
2.615814685821533 -2.456413507461548 0.1860543191432953 109
2.607611656188965 -2.4495668411254883 0.061781514436006546 109
1.3819714784622192 -1.3004835844039917 -0.4982268810272217 119
1.5851372480392456 -1.4921914339065552 -0.4937678575515747 119
1.8716710805892944 -1.7625404596328735 -0.4918454885482788 119
2.3320152759552 -2.1968116760253906 -0.5013728737831116 119
2.6391255855560303 -2.486985921859741 -0.44055816531181335 109
2.619293212890625 -2.4691600799560547 -0.3115822374820709 109
2.607055425643921 -2.4584834575653076 -0.1851743906736374 109
2.6133928298950195 -2.4653215408325195 -0.06142342835664749 109
2.6026453971862793 -2.4560415744781494 0.9479538798332214 109
2.6034486293792725 -2.4576587677001953 0.8170788884162903 109
2.604340076446533 -2.459360122680664 0.6882019639015198 109
2.605440855026245 -2.4612600803375244 0.5609807968139648 109
2.603187322616577 -2.459991216659546 0.43507352471351624 109
2.6122236251831055 -2.469393730163574 0.31114599108695984 109
2.6144800186157227 -2.47239089012146 0.1865776777267456 109
2.6063084602355957 -2.4655251502990723 0.06195604056119919 109
1.3809289932250977 -1.3086216449737549 -0.4995209574699402 119
1.5799188613891602 -1.4977155923843384 -0.4937678575515747 119
1.8690687417984009 -1.7724403142929077 -0.49279871582984924 119
2.3207497596740723 -2.2015395164489746 -0.5005906820297241 119
2.6412277221679688 -2.5064313411712646 -0.4423862099647522 109
2.6178834438323975 -2.485146999359131 -0.31245383620262146 109
2.605699300765991 -2.474445343017578 -0.18569600582122803 109
2.612020254135132 -2.4813151359558105 -0.061596207320690155 109
2.6010584831237793 -2.4717657566070557 0.9505404233932495 109
2.6019163131713867 -2.473445177078247 0.8193266987800598 109
2.6028530597686768 -2.475200891494751 0.6901082992553711 109
2.603990077972412 -2.4771475791931152 0.5625434517860413 109
2.605370044708252 -2.4793264865875244 0.43690159916877747 109
2.6108031272888184 -2.485365390777588 0.312017560005188 109
2.613065719604492 -2.488388776779175 0.18710103631019592 109
2.6049256324768066 -2.481504201889038 0.06213056296110153 109
1.3763526678085327 -1.31343412399292 -0.4995209574699402 119
1.574681282043457 -1.5032213926315308 -0.4937678575515747 119
1.866420030593872 -1.7823437452316284 -0.4937518835067749 119
2.3130507469177246 -2.209627151489258 -0.5005906820297241 119
2.6396381855010986 -2.5224928855895996 -0.44360488653182983 109
2.616393566131592 -2.5011537075042725 -0.3133253753185272 109
2.6042633056640625 -2.4904277324676514 -0.18621762096881866 109
2.610567808151245 -2.4973294734954834 -0.06176899001002312 109
2.599393606185913 -2.487508535385132 0.9531269073486328 109
2.6038243770599365 -2.492619752883911 0.8226984143257141 109
2.6012871265411377 -2.491060972213745 0.6920146942138672 109
2.6060261726379395 -2.4964709281921387 0.5648874044418335 109
2.6038658618927 -2.4952733516693115 0.4381202757358551 109
2.6093032360076904 -2.5013577938079834 0.31288912892341614 109
2.6115715503692627 -2.5044071674346924 0.18762439489364624 109
2.6034631729125977 -2.4975037574768066 0.062305089086294174 109
1.3717596530914307 -1.318230390548706 -0.4995209574699402 119
1.5729366540908813 -1.5120853185653687 -0.4948926270008087 119
1.8637250661849976 -1.792250156402588 -0.49470508098602295 119
2.305323839187622 -2.2176876068115234 -0.5005906820297241 119
2.6379687786102295 -2.538573980331421 -0.44482359290122986 109
2.614823818206787 -2.5171802043914795 -0.31419694423675537 109
2.6027474403381348 -2.506430149078369 -0.1867392510175705 109
2.6090357303619385 -2.5133635997772217 -0.06194177269935608 109
2.601128101348877 -2.5066213607788086 0.9570066332817078 109
2.6021230220794678 -2.508456230163574 0.8249462246894836 109
2.599642276763916 -2.5069403648376465 0.6939210891723633 109
2.6044046878814697 -2.5124101638793945 0.5664499998092651 109
2.6022820472717285 -2.511239528656006 0.4393389821052551 109
2.6077229976654053 -2.517369508743286 0.3137606680393219 109
2.609997272491455 -2.520444869995117 0.18814775347709656 109
2.6019203662872314 -2.5135228633880615 0.06247961148619652 109
1.3671497106552124 -1.3230106830596924 -0.4995209574699402 119
1.5641484260559082 -1.514177918434143 -0.4937678575515747 119
1.8574576377868652 -1.798744797706604 -0.49470508098602295 119
2.2940216064453125 -2.222285270690918 -0.49980852007865906 119
2.6362192630767822 -2.5546741485595703 -0.4460422992706299 109
2.6131739616394043 -2.533226490020752 -0.3150685131549835 109
2.604736328125 -2.5259287357330322 -0.18752168118953705 109
2.6074230670928955 -2.5294175148010254 -0.06211455538868904 109
2.599294662475586 -2.5224127769470215 0.9595931172370911 109
2.6003425121307373 -2.5243113040924072 0.8271940350532532 109
2.5979180335998535 -2.5228383541107178 0.6958274245262146 109
2.606245517730713 -2.5318093299865723 0.5687938928604126 109
2.604177236557007 -2.5306835174560547 0.4411669969558716 109
2.6096348762512207 -2.536872625350952 0.31506800651550293 109
2.6083426475524902 -2.5365023612976074 0.18867111206054688 109
2.600297689437866 -2.529561758041382 0.06265413761138916 109
1.3625231981277466 -1.3277748823165894 -0.4995209574699402 119
1.5588533878326416 -1.5196285247802734 -0.4937678575515747 119
1.8511674404144287 -1.8052176237106323 -0.49470508098602295 119
2.286250352859497 -2.2302792072296143 -0.49980852007865906 119
2.6343894004821777 -2.5707926750183105 -0.4472609758377075 109
2.6114439964294434 -2.5492911338806152 -0.3159400522708893 109
2.6030478477478027 -2.541982650756836 -0.18804329633712769 109
2.6057300567626953 -2.545490264892578 -0.062287334352731705 109
2.600837230682373 -2.541597843170166 0.9634729027748108 109
2.6019670963287354 -2.5435900688171387 0.8305657505989075 109
2.596114158630371 -2.53875470161438 0.6977338194847107 109
2.604452610015869 -2.5477983951568604 0.570356547832489 109
2.602421522140503 -2.5467007160186768 0.4423857033252716 109
2.607882022857666 -2.5529353618621826 0.3159395754337311 109
2.606607675552368 -2.5525786876678467 0.1891944855451584 109
2.602165460586548 -2.5491185188293457 0.06291592121124268 109
1.3578801155090332 -1.3325228691101074 -0.4995209574699402 119
1.5500630140304565 -1.5216480493545532 -0.4926431179046631 119
1.8448548316955566 -1.8116682767868042 -0.49470508098602295 119
2.2784512042999268 -2.238246202468872 -0.49980852007865906 119
2.632478713989258 -2.5869295597076416 -0.44847968220710754 109
2.613185405731201 -2.5688669681549072 -0.3172473907470703 109
2.6012792587280273 -2.5580554008483887 -0.18856491148471832 109
2.607520341873169 -2.5650882720947266 -0.0625464990735054 109
2.59883451461792 -2.557436227798462 0.9660593867301941 109
2.6000165939331055 -2.559492826461792 0.832813560962677 109
2.594230890274048 -2.554689407348633 0.6996402144432068 109
2.606097936630249 -2.5672714710235596 0.5727005004882812 109
2.600585699081421 -2.5627360343933105 0.44360437989234924 109
2.6095964908599854 -2.5725133419036865 0.3172468841075897 109
2.608347177505493 -2.5721795558929443 0.18997950851917267 109
2.600369691848755 -2.5652079582214355 0.06309044361114502 109
1.3532204627990723 -1.3372546434402466 -0.4995209574699402 119
1.5447419881820679 -1.5270495414733887 -0.4926431179046631 119
1.8385196924209595 -1.8180969953536987 -0.49470508098602295 119
2.2741353511810303 -2.2496588230133057 -0.5005906820297241 119
2.6304879188537598 -2.6030845642089844 -0.4496983587741852 109
2.6112823486328125 -2.5849814414978027 -0.3181189298629761 109
2.602977752685547 -2.577660322189331 -0.18934732675552368 109
2.605654001235962 -2.5812110900878906 -0.06271928548812866 109
2.596752882003784 -2.573291778564453 0.9686459302902222 109
2.6014466285705566 -2.578843116760254 0.8361852765083313 109
2.5957534313201904 -2.5740976333618164 0.7024998068809509 109
2.604132652282715 -2.583308696746826 0.5742630958557129 109
2.5986695289611816 -2.578789234161377 0.44482308626174927 109
2.607670545578003 -2.588624954223633 0.31811845302581787 109
2.6064388751983643 -2.5883054733276367 0.19050286710262299 109
2.602039337158203 -2.5848388671875 0.06335222721099854 109
1.3485443592071533 -1.3419700860977173 -0.4995209574699402 119
1.5428547859191895 -1.5358693599700928 -0.4937678575515747 119
1.8321621417999268 -1.8245036602020264 -0.49470508098602295 119
2.2697672843933105 -2.261068820953369 -0.5013728737831116 119
2.628415822982788 -2.6192569732666016 -0.4509170651435852 109
2.6092984676361084 -2.60111403465271 -0.3189904987812042 109
2.6010355949401855 -2.5937821865081787 -0.1898689568042755 109
2.607245922088623 -2.6008827686309814 -0.06297845393419266 109
2.598011016845703 -2.5925753116607666 0.9725257158279419 109
2.599324941635132 -2.594792127609253 0.8384330868721008 109
2.593698501586914 -2.5900795459747314 0.7044061422348022 109
2.605581283569336 -2.602854013442993 0.5766069889068604 109
2.6001832485198975 -2.5983684062957764 0.4466511309146881 109
2.6056642532348633 -2.604754686355591 0.318990021944046 109
2.6079800128936768 -2.6079800128936768 0.19128791987895966 109
2.600069761276245 -2.6009771823883057 0.06352675706148148 109
1.3438518047332764 -1.346669316291809 -0.4995209574699402 119
1.5409250259399414 -1.5446947813034058 -0.4948926270008087 119
1.8257824182510376 -1.8308879137039185 -0.49470508098602295 119
2.2618610858917236 -2.2689778804779053 -0.5013728737831116 119
2.626262903213501 -2.635446071624756 -0.45213574171066284 0
2.6072335243225098 -2.6172637939453125 -0.3198620676994324 109
2.599012613296509 -2.609921932220459 -0.19039057195186615 109
2.6052052974700928 -2.617053985595703 -0.06315123289823532 109
2.595759153366089 -2.60847544670105 0.9751121997833252 109
2.597123622894287 -2.610757827758789 0.8406808972358704 109
2.595024585723877 -2.609558343887329 0.7072656750679016 109
2.603443145751953 -2.6189382076263428 0.5781696438789368 109
2.5980937480926514 -2.614469528198242 0.44786980748176575 109
2.60357666015625 -2.6209018230438232 0.3198615610599518 109
2.6058974266052246 -2.6241536140441895 0.19181127846240997 109
2.5980188846588135 -2.617133140563965 0.06370127946138382 109
1.339142918586731 -1.3513519763946533 -0.4995209574699402 119
1.535523533821106 -1.5500640869140625 -0.4948926270008087 119
1.8193801641464233 -1.8372498750686646 -0.49470508098602295 119
2.253926992416382 -2.2768595218658447 -0.5013728737831116 119
2.6275198459625244 -2.6551802158355713 -0.4539638161659241 109
2.608590841293335 -2.636972188949585 -0.3211694061756134 109
2.5969080924987793 -2.6260790824890137 -0.1909121870994568 109
2.6030831336975098 -2.633242607116699 -0.06332401186227798 109
2.593427896499634 -2.6243913173675537 0.9776986837387085 109
2.5948426723480225 -2.626739740371704 0.8429287075996399 109
2.5927975177764893 -2.6255860328674316 0.7091721296310425 109
2.601224422454834 -2.6350390911102295 0.5797322392463684 109
2.59592342376709 -2.630587339401245 0.44908851385116577 109
2.601408004760742 -2.6370656490325928 0.32073312997817993 109
2.603733539581299 -2.6403446197509766 0.1923346370458603 109
2.599396228790283 -2.636866569519043 0.06396306306123734 109
1.3344175815582275 -1.3560181856155396 -0.4995209574699402 119
1.5335198640823364 -1.5588876008987427 -0.49601736664772034 119
1.8129559755325317 -1.8435895442962646 -0.49470508098602295 119
2.2459657192230225 -2.2847132682800293 -0.5013728737831116 119
2.625192403793335 -2.671415328979492 -0.4551824927330017 0
2.606351375579834 -2.653168201446533 -0.32204097509384155 109
2.5947227478027344 -2.6422531604766846 -0.19143380224704742 109
2.604382038116455 -2.653015375137329 -0.06358318030834198 109
2.5943996906280518 -2.6437697410583496 0.9815784096717834 109
2.595893144607544 -2.6462152004241943 0.8463004231452942 109
2.593926429748535 -2.6451334953308105 0.7120316624641418 109
2.5989251136779785 -2.651156425476074 0.5812948942184448 109
2.593672037124634 -2.646721839904785 0.4503071904182434 109
2.599158525466919 -2.6532466411590576 0.3216046690940857 109
2.6014881134033203 -2.6565520763397217 0.1928579956293106 109
2.597170352935791 -2.653069257736206 0.06413759291172028 109
1.3296760320663452 -1.3606679439544678 -0.4995209574699402 119
1.528069019317627 -1.564231038093567 -0.49601736664772034 119
1.8065094947814941 -1.8499066829681396 -0.49470508098602295 119
2.2379767894744873 -2.292539358139038 -0.5013728737831116 119
2.6262495517730713 -2.6912178993225098 -0.45701056718826294 0
2.604030132293701 -2.6693806648254395 -0.3229125142097473 109
2.5924556255340576 -2.6584439277648926 -0.19195541739463806 109
2.6020848751068115 -2.669250011444092 -0.06375596672296524 109
2.5918972492218018 -2.6597280502319336 0.9841649532318115 109
2.5934393405914307 -2.6622400283813477 0.8485482335090637 109
2.5915260314941406 -2.6612048149108887 0.7139379978179932 109
2.5965447425842285 -2.6672897338867188 0.5828575491905212 109
2.5913398265838623 -2.662872552871704 0.45152589678764343 109
2.6003007888793945 -2.6730141639709473 0.3229120373725891 109
2.602642059326172 -2.6763556003570557 0.1936430186033249 109
2.594862699508667 -2.669287919998169 0.06431211531162262 109
1.3215550184249878 -1.361835241317749 -0.4982268810272217 119
1.51920747756958 -1.566058874130249 -0.4948926270008087 119
1.8000410795211792 -1.856201410293579 -0.49470508098602295 119
2.2299606800079346 -2.300337314605713 -0.5013728737831116 119
2.623746871948242 -2.7074966430664062 -0.4582292437553406 0
2.601628065109253 -2.6856093406677246 -0.32378408312797546 109
2.593581199645996 -2.6782381534576416 -0.19273784756660461 109
2.599705934524536 -2.685500383377075 -0.0639287456870079 109
2.5926733016967773 -2.679171562194824 0.9880447387695312 109
2.5942931175231934 -2.681781768798828 0.851919949054718 109
2.5924570560455322 -2.6808199882507324 0.7167975902557373 109
2.59751558303833 -2.6869893074035645 0.5852014422416687 109
2.592374801635742 -2.682607889175415 0.4533539414405823 109
2.5978758335113525 -2.689239740371704 0.3237835764884949 109
2.6002211570739746 -2.6926076412200928 0.1941663771867752 109
2.5924737453460693 -2.68552303314209 0.06448663771152496 109
1.3167932033538818 -1.3664400577545166 -0.4982268810272217 119
1.5171115398406982 -1.5748608112335205 -0.49601736664772034 119
1.7935508489608765 -1.8624733686447144 -0.49470508098602295 119
2.2219173908233643 -2.308107376098633 -0.5013728737831116 119
2.624603033065796 -2.7273662090301514 -0.4600572884082794 0
2.5991439819335938 -2.7018537521362305 -0.3246556520462036 109
2.5911386013031006 -2.6944730281829834 -0.19325947761535645 109
2.6007096767425537 -2.7053709030151367 -0.0641879141330719 109
2.5933454036712646 -2.698652744293213 0.9919244050979614 109
2.5916669368743896 -2.697848320007324 0.8541677594184875 109
2.593282699584961 -2.7004735469818115 0.7196571230888367 109
2.5949606895446777 -2.703165292739868 0.5867640376091003 109
2.589867115020752 -2.6988019943237305 0.4545726478099823 109
2.5988173484802246 -2.7090749740600586 0.3250909149646759 109
2.6011743545532227 -2.71247935295105 0.19495142996311188 109
2.5934622287750244 -2.7053825855255127 0.06474842131137848 109
1.3120155334472656 -1.371028184890747 -0.4982268810272217 119
1.5116050243377686 -1.5801469087600708 -0.49601736664772034 119
1.7870386838912964 -1.868722677230835 -0.49470508098602295 119
2.2138469219207764 -2.3158493041992188 -0.5013728737831116 119
2.62192440032959 -2.743687152862549 -0.46127596497535706 0
2.596578359603882 -2.718113660812378 -0.3255271911621094 109
2.5886142253875732 -2.710723638534546 -0.19378109276294708 109
2.598154306411743 -2.7216646671295166 -0.06436069309711456 109
2.590578556060791 -2.714677333831787 0.9945110082626343 109
2.59232234954834 -2.717454195022583 0.8575394153594971 109
2.5906150341033936 -2.716613531112671 0.7215635180473328 109
2.5957319736480713 -2.722930908203125 0.5891079902648926 109
2.5907018184661865 -2.7186038494110107 0.45640066266059875 109
2.5962164402008057 -2.7253429889678955 0.32596248388290405 109
2.598576784133911 -2.7287745475769043 0.1954747885465622 109
2.5908970832824707 -2.721660852432251 0.06492295116186142 109
1.30722177028656 -1.3755996227264404 -0.4982268810272217 119
1.5060800313949585 -1.5854138135910034 -0.49601736664772034 119
1.7805047035217285 -1.8749492168426514 -0.49470508098602295 119
2.2091498374938965 -2.3271443843841553 -0.502155065536499 119
2.622579574584961 -2.7636220455169678 -0.4631040394306183 0
2.6007864475250244 -2.7416152954101562 -0.3272702991962433 109
2.5894439220428467 -2.7306127548217773 -0.19456352293491364 109
2.598956346511841 -2.7416019439697266 -0.06461986899375916 109
2.5910532474517822 -2.7342207431793213 0.9983907341957092 109
2.5928728580474854 -2.7370975017547607 0.8609111905097961 109
2.5912413597106934 -2.7363314628601074 0.7244231104850769 109
2.5930016040802 -2.739147901535034 0.590670645236969 109
2.5914294719696045 -2.7384443283081055 0.4582287073135376 109
2.5969560146331787 -2.745244026184082 0.3272698223590851 109
2.5993282794952393 -2.7487123012542725 0.19625982642173767 109
2.588249444961548 -2.7379539012908936 0.06509747356176376 109
1.3026528358459473 -1.3799269199371338 -0.4982268810272217 119
1.5010919570922852 -1.5901374816894531 -0.49601736664772034 119
1.7746055126190186 -1.8805335760116577 -0.49470508098602295 119
2.2018280029296875 -2.334073305130005 -0.502155065536499 119
2.6206939220428467 -2.7790684700012207 -0.4643227159976959 0
2.6024107933044434 -2.760645627975464 -0.3285776674747467 109
2.5877015590667725 -2.746002197265625 -0.19508513808250427 109
2.597186326980591 -2.757031202316284 -0.06479264795780182 109
2.5890731811523438 -2.7493796348571777 1.0009772777557373 109
2.5942797660827637 -2.7558722496032715 0.8642829060554504 109
2.5893595218658447 -2.751607656478882 0.726329505443573 109
2.5945348739624023 -2.7580718994140625 0.5930145382881165 109
2.589613199234009 -2.75380277633667 0.4594474136829376 109
2.595142126083374 -2.7606475353240967 0.32814136147499084 109
2.5975186824798584 -2.7641420364379883 0.196783185005188 109
2.5899035930633545 -2.757002592086792 0.06535925716161728 109
1.298069715499878 -1.3842390775680542 -0.4982268810272217 119
1.4955321550369263 -1.5953675508499146 -0.49601736664772034 119
1.7680304050445557 -1.886716604232788 -0.49470508098602295 119
2.1970431804656982 -2.345349073410034 -0.5029371976852417 119
2.6177613735198975 -2.7954444885253906 -0.46554142236709595 0
2.606374502182007 -2.7842583656311035 -0.3303207755088806 109
2.5883352756500244 -2.7659554481506348 -0.19586755335330963 109
2.597792387008667 -2.7770328521728516 -0.06505181640386581 109
2.5893568992614746 -2.768983840942383 1.0048569440841675 109
2.5912983417510986 -2.7720296382904053 0.86653071641922 109
2.5864412784576416 -2.7678020000457764 0.7282358407974243 109
2.5916340351104736 -2.77432918548584 0.5945771336555481 109
2.590146064758301 -2.7737069129943848 0.4612754285335541 109
2.595686674118042 -2.7806127071380615 0.3294486999511719 109
2.598073720932007 -2.7841439247131348 0.19756822288036346 109
2.5870840549468994 -2.7733376026153564 0.06553377956151962 109
1.2962781190872192 -1.3925224542617798 -0.4995209574699402 119
1.4896748065948486 -1.6008381843566895 -0.49601736664772034 119
1.7611035108566284 -1.8931841850280762 -0.49470508098602295 119
2.188432455062866 -2.3533856868743896 -0.5029371976852417 119
2.6176347732543945 -2.815924644470215 -0.4673694372177124 0
2.6063239574432373 -2.8047385215759277 -0.33162811398506165 109
2.5849769115448 -2.7827401161193848 -0.19638918340206146 109
2.59780216217041 -2.797525644302368 -0.0653109923005104 109
2.5857625007629395 -2.7855350971221924 1.0074435472488403 109
2.5910627841949463 -2.792222261428833 0.8699024319648743 109
2.5862934589385986 -2.788058280944824 0.7310953736305237 109
2.591522216796875 -2.794673204421997 0.5969210863113403 109
2.586710214614868 -2.7904605865478516 0.4624941349029541 109
2.5956344604492188 -2.801068067550659 0.3307560384273529 109
2.5946383476257324 -2.800973892211914 0.19809158146381378 109
2.587092399597168 -2.7938053607940674 0.06579557061195374 109
1.2914093732833862 -1.3970388174057007 -0.4995209574699402 119
1.48407781124115 -1.606028437614441 -0.49601736664772034 119
1.757814645767212 -1.9029253721237183 -0.4956582486629486 119
2.180204391479492 -2.3610105514526367 -0.5029371976852417 119
2.6145217418670654 -2.8323380947113037 -0.4685881733894348 0
2.6100292205810547 -2.8284616470336914 -0.33337122201919556 109
2.58540415763855 -2.8027570247650146 -0.19717161357402802 109
2.594799041748047 -2.8139266967773438 -0.06548377126455307 109
2.585844039916992 -2.8051977157592773 1.0113232135772705 109
2.5879034996032715 -2.808415412902832 0.8721502423286438 109
2.5831966400146484 -2.8042895793914795 0.7330018281936646 109
2.588441848754883 -2.8109683990478516 0.5984837412834167 109
2.5870370864868164 -2.810426712036133 0.46432217955589294 109
2.5925865173339844 -2.8174421787261963 0.33162760734558105 109
2.5949866771698 -2.821038246154785 0.19887663424015045 109
2.5874757766723633 -2.8138587474823 0.06605735421180725 109
1.286525011062622 -1.4015381336212158 -0.4995209574699402 119
1.47846257686615 -1.6111990213394165 -0.49601736664772034 119
1.7511614561080933 -1.9090495109558105 -0.4956582486629486 119
2.171949625015259 -2.3686065673828125 -0.5029371976852417 119
2.6146793365478516 -2.852421998977661 -0.47041618824005127 0
2.6102356910705566 -2.848572254180908 -0.3346785604953766 109
2.5857231616973877 -2.822810649871826 -0.19795402884483337 109
2.5950891971588135 -2.8340282440185547 -0.06574293971061707 109
2.5825583934783936 -2.8213322162628174 1.0139096975326538 109
2.587951421737671 -2.8282148838043213 0.8755219578742981 109
2.5833303928375244 -2.8241543769836426 0.7358613610267639 109
2.5886120796203613 -2.830920457839966 0.6008276343345642 109
2.5839076042175293 -2.826766014099121 0.46554088592529297 109
2.592816114425659 -2.837506055831909 0.3329349458217621 109
2.5952258110046387 -2.8411388397216797 0.19966165721416473 109
2.5877509117126465 -2.833948850631714 0.06631913781166077 109
1.2848783731460571 -1.4095896482467651 -0.5008150935173035 119
1.4728294610977173 -1.6163500547409058 -0.49601736664772034 119
1.747792363166809 -1.9187794923782349 -0.49661147594451904 119
2.163668155670166 -2.376173496246338 -0.5029371976852417 119
2.6113877296447754 -2.8688716888427734 -0.4716348946094513 0
2.610333204269409 -2.868718385696411 -0.3359858989715576 109
2.582573652267456 -2.8392064571380615 -0.198475643992424 109
2.591907262802124 -2.8504672050476074 -0.06591571867465973 109
2.5824406147003174 -2.8410520553588867 1.0177894830703735 109
2.5846164226531982 -2.844442844390869 0.8777697682380676 109
2.583357095718384 -2.8440544605255127 0.7387209534645081 109
2.5853545665740967 -2.8472514152526855 0.6023902893066406 109
2.584031343460083 -2.846792459487915 0.4673689007759094 109
2.5895895957946777 -2.853916883468628 0.33380648493766785 109
2.5920021533966064 -2.857577323913574 0.20018501579761505 109
2.5879170894622803 -2.854074716567993 0.06658092141151428 109
1.2767090797424316 -1.4104855060577393 -0.4995209574699402 119
1.4671783447265625 -1.6214812994003296 -0.49601736664772034 119
1.7410839796066284 -1.9248687028884888 -0.49661147594451904 119
2.155360698699951 -2.383711814880371 -0.5029371976852417 119
2.6113412380218506 -2.889014482498169 -0.47346293926239014 0
2.6069822311401367 -2.885204553604126 -0.33685746788978577 109
2.579340934753418 -2.8556149005889893 -0.19899725914001465 109
2.5919923782348633 -2.870628595352173 -0.06617489457130432 109
2.582216262817383 -2.860804796218872 1.0216692686080933 109
2.584462881088257 -2.8642990589141846 0.8811414241790771 109
2.5832762718200684 -2.8639888763427734 0.7415804862976074 109
2.5853209495544434 -2.8672618865966797 0.6047341823577881 109
2.580723762512207 -2.8631675243377686 0.46858760714530945 109
2.5896146297454834 -2.874040365219116 0.33511385321617126 109
2.592036724090576 -2.8777382373809814 0.20097006857395172 109
2.5846290588378906 -2.870521306991577 0.06675545126199722 109
1.2717777490615845 -1.4149335622787476 -0.4995209574699402 119
1.4582533836364746 -1.6229690313339233 -0.4948926270008087 119
1.7376339435577393 -1.9345859289169312 -0.4975646436214447 119
2.147027015686035 -2.391220808029175 -0.5029371976852417 119
2.611185312271118 -2.909191846847534 -0.4752909541130066 0
2.606874465942383 -2.9054088592529297 -0.3381648063659668 109
2.5760252475738525 -2.872035264968872 -0.19951887428760529 109
2.5886313915252686 -2.887103319168091 -0.06634767353534698 109
2.58188533782959 -2.8805909156799316 1.025549054145813 109
2.584202766418457 -2.8841888904571533 0.8845131993293762 109
2.583087921142578 -2.8839571475982666 0.7444400787353516 109
2.585179567337036 -2.8873069286346436 0.6070781350135803 109
2.5806429386138916 -2.8832521438598633 0.4704156517982483 109
2.586209297180176 -2.890486001968384 0.335985392332077 109
2.5886330604553223 -2.894211769104004 0.20149342715740204 109
2.584589719772339 -2.8907063007354736 0.06701723486185074 109
1.2636151313781738 -1.415761113166809 -0.4982268810272217 119
1.452579379081726 -1.6280494928359985 -0.4948926270008087 119
1.7308704853057861 -1.9406394958496094 -0.4975646436214447 119
2.138666868209839 -2.398700714111328 -0.5029371976852417 119
2.6109206676483154 -2.929403305053711 -0.4771190285682678 0
2.6066575050354004 -2.9256482124328613 -0.3394721448421478 109
2.5759472846984863 -2.8921959400177 -0.20030131936073303 109
2.585186243057251 -2.9035894870758057 -0.06652045249938965 109
2.5782365798950195 -2.896801710128784 1.0281355381011963 109
2.583834648132324 -2.904111623764038 0.8878848552703857 109
2.5827908515930176 -2.903959035873413 0.7472996115684509 109
2.5849294662475586 -2.9073851108551025 0.6094220280647278 109
2.5804531574249268 -2.9033708572387695 0.47224369645118713 109
2.5860283374786377 -2.9106669425964355 0.33729273080825806 109
2.5884618759155273 -2.9144301414489746 0.20227846503257751 109
2.5811219215393066 -2.9071874618530273 0.06719175726175308 109
1.2586655616760254 -1.4201633930206299 -0.4982268810272217 119
1.4468876123428345 -1.6331100463867188 -0.4948926270008087 119
1.7240859270095825 -1.946669578552246 -0.4975646436214447 119
2.1302807331085205 -2.406151294708252 -0.5029371976852417 119
2.60725736618042 -2.945931911468506 -0.47833770513534546 0
2.60302996635437 -2.942190170288086 -0.340343713760376 109
2.5691440105438232 -2.9049103260040283 -0.20056213438510895 109
2.5849690437316895 -2.9238317012786865 -0.06677962094545364 109
2.577704668045044 -2.9166409969329834 1.032015323638916 109
2.5833590030670166 -2.9240670204162598 0.8912566304206848 109
2.582385778427124 -2.9239938259124756 0.7501592040061951 109
2.58457088470459 -2.927497386932373 0.61176598072052 109
2.5801544189453125 -2.923523187637329 0.4740717113018036 109
2.5824429988861084 -2.9271464347839355 0.3381642699241638 109
2.5881810188293457 -2.9346823692321777 0.203063502907753 109
2.580876350402832 -2.927429437637329 0.0674535483121872 109
1.253700613975525 -1.4245482683181763 -0.4982268810272217 119
1.4411780834197998 -1.6381505727767944 -0.4948926270008087 119
1.7172801494598389 -1.9526759386062622 -0.4975646436214447 119
2.121868848800659 -2.4135727882385254 -0.5029371976852417 119
2.6067862510681152 -2.966198205947876 -0.4801657497882843 0
2.5993189811706543 -2.958742618560791 -0.34121525287628174 109
2.5688726902008057 -2.9251158237457275 -0.2013445496559143 109
2.581343412399292 -2.9403510093688965 -0.0669524073600769 109
2.5770654678344727 -2.936511516571045 1.0358951091766357 109
2.582775354385376 -2.944054126739502 0.8946283459663391 109
2.5786359310150146 -2.940370798110962 0.7520655393600464 109
2.5841028690338135 -2.9476420879364014 0.6141099333763123 109
2.5797462463378906 -2.943708896636963 0.4758997857570648 109
2.5820565223693848 -2.947382926940918 0.33947160840034485 109
2.584500312805176 -2.9512112140655518 0.2035868614912033 109
2.5805208683013916 -2.947705030441284 0.06771533191204071 109
1.2487202882766724 -1.4289157390594482 -0.4982268810272217 119
1.4354510307312012 -1.6431713104248047 -0.4948926270008087 119
1.7104536294937134 -1.9586584568023682 -0.4975646436214447 119
2.113430976867676 -2.4209649562835693 -0.5029371976852417 119
2.60294246673584 -2.982757568359375 -0.48138442635536194 0
2.5987982749938965 -2.979058265686035 -0.34252259135246277 109
2.5717735290527344 -2.94911789894104 -0.20238777995109558 109
2.5809192657470703 -2.960649013519287 -0.0672115758061409 109
2.5763187408447266 -2.9564130306243896 1.039774775505066 109
2.578883409500122 -2.9603989124298096 0.8968761563301086 109
2.578026533126831 -2.960458278656006 0.7549251317977905 109
2.5835256576538086 -2.9678192138671875 0.6164538264274597 109
2.579228401184082 -2.9639270305633545 0.4777278006076813 109
2.5782907009124756 -2.9638941287994385 0.340343177318573 109
2.584012269973755 -2.9715185165405273 0.20437189936637878 109
2.576775074005127 -2.964240550994873 0.06788985431194305 109
1.2437248229980469 -1.4332659244537354 -0.4982268810272217 119
1.4297066926956177 -1.6481720209121704 -0.4948926270008087 119
1.7036062479019165 -1.964617133140564 -0.4975646436214447 119
2.1049673557281494 -2.4283275604248047 -0.5029371976852417 119
2.602264642715454 -3.0030770301818848 -0.48321250081062317 0
2.5949060916900635 -2.9956414699554443 -0.3433941602706909 109
2.574537992477417 -2.9731762409210205 -0.20343102514743805 109
2.577112913131714 -2.9771995544433594 -0.06738435477018356 109
2.5754644870758057 -2.9763450622558594 1.0436545610427856 109
2.5780961513519287 -2.9804370403289795 0.9002478718757629 109
2.577308177947998 -2.9805777072906494 0.7577846646308899 109
2.582839250564575 -2.988027811050415 0.618797779083252 109
