# .PCD v0.7 - Point Cloud Data file format
VERSION 0.7
FIELDS x y z intensity
SIZE 4 4 4 4
TYPE F F F F
COUNT 1 1 1 1
WIDTH 780
HEIGHT 1
VIEWPOINT 0 0 0 1 0 0 0
POINTS 780
DATA ascii
-1.8650020360946655 -0.7843578457832336 -0.5318734049797058 119
-1.9305388927459717 -0.8115239143371582 -0.47464698553085327 119
-1.904136300086975 -0.8000342845916748 -0.393667072057724 50
-1.9066460132598877 -0.8006973266601562 -0.321473091840744 50
-1.934294581413269 -0.8119111657142639 -0.25287917256355286 50
-1.9276379346847534 -0.8087214231491089 -0.17954111099243164 50
-1.9047935009002686 -0.7987464070320129 -0.10588845610618591 50
-1.9118127822875977 -0.8012974858283997 -0.03516080975532532 50
-1.91963791847229 -0.804183304309845 0.5470457077026367 50
-1.9362404346466064 -0.8107413649559021 0.4754118025302887 50
-1.9233626127243042 -0.8049545884132385 0.3974795341491699 50
-1.935149908065796 -0.8094909191131592 0.3258064091205597 50
-1.9171116352081299 -0.8015521764755249 0.2504414916038513 50
-1.9563400745391846 -0.8175526857376099 0.18215550482273102 50
-1.942748785018921 -0.811474621295929 0.10833542048931122 50
-1.922150731086731 -0.8024769425392151 0.03569016605615616 50
-1.8766454458236694 -0.7815566062927246 -0.5344615578651428 119
-1.9468530416488647 -0.8103968501091003 -0.4780212938785553 119
-1.9205124378204346 -0.7990390062332153 -0.39652660489082336 50
-1.927668809890747 -0.8016218543052673 -0.32460179924964905 50
-1.9508646726608276 -0.8108684420585632 -0.2547072172164917 50
-1.9442484378814697 -0.8077206015586853 -0.18084844946861267 50
-1.921404242515564 -0.79783695936203 -0.10667087882757187 50
-1.9330679178237915 -0.8022845983505249 -0.03550637140870094 50
-1.9358168840408325 -0.8030295372009277 0.5509254336357117 50
-1.9525601863861084 -0.809575617313385 0.4787834882736206 50
-1.9397636651992798 -0.8038731813430786 0.4003390669822693 50
-1.9516518115997314 -0.8084008097648621 0.32815033197402954 50
-1.9336535930633545 -0.8005503416061401 0.25226953625679016 50
-1.9729894399642944 -0.8164323568344116 0.18346284329891205 50
-1.959411859512329 -0.8104134202003479 0.10912046581506729 50
-1.9434205293655396 -0.8034021854400635 0.03603921830654144 50
-1.8838269710540771 -0.7768422961235046 -0.5357556343078613 119
-1.963182806968689 -0.8091657161712646 -0.48139551281929016 119
-1.936904788017273 -0.7979391813278198 -0.3993861973285675 0
-1.9441545009613037 -0.8005290031433105 -0.32694828510284424 50
-1.9674510955810547 -0.8097200393676758 -0.25653526186943054 50
-1.9654821157455444 -0.808508574962616 -0.18259157240390778 50
-1.938031792640686 -0.7968213558197021 -0.10745330899953842 50
-1.9497286081314087 -0.801232635974884 -0.03576553985476494 50
-1.9564789533615112 -0.8036076426506042 0.556098461151123 50
-1.9734023809432983 -0.8101562857627869 0.48327910900115967 50
-1.9561806917190552 -0.8026871681213379 0.4031986594200134 50
-1.9681695699691772 -0.807205319404602 0.3304942846298218 50
-1.9502121210098267 -0.7994427680969238 0.254097580909729 50
-1.989654541015625 -0.8152056932449341 0.18477016687393188 50
-1.9760907888412476 -0.8092455863952637 0.10990550369024277 50
-1.9600929021835327 -0.8022946119308472 0.03630100190639496 50
-1.8909986019134521 -0.7720873951911926 -0.5370497703552246 119
-1.9840381145477295 -0.8096711039543152 -0.4858945310115814 119
-1.9578572511672974 -0.7985882759094238 -0.4031989574432373 0
-1.9652291536331177 -0.8011952042579651 -0.33007699251174927 50
-1.988648772239685 -0.8103382587432861 -0.2589726448059082 50
-1.9821313619613647 -0.8072791695594788 -0.1838988959789276 50
-1.95930016040802 -0.7975819110870361 -0.10849654674530029 50
-1.9710360765457153 -0.8019583225250244 -0.036111101508140564 50
-1.9771682024002075 -0.8040511012077332 0.5612714290618896 50
-1.9897587299346924 -0.8087666034698486 0.48665082454681396 50
-1.977160096168518 -0.8032435774803162 0.4070114195346832 50
-1.9892780780792236 -0.8077621459960938 0.33361950516700745 50
-1.9713846445083618 -0.8000956177711487 0.25653496384620667 50
-2.0063350200653076 -0.8138725757598877 0.1860775202512741 50
-1.9974125623703003 -0.8098472952842712 0.1109522208571434 50
-1.986047625541687 -0.8048357963562012 0.036737315356731415 50
-1.9026373624801636 -0.7691018581390381 -0.5396379828453064 119
-2.0049209594726562 -0.8100407719612122 -0.49039360880851746 119
-1.9742865562438965 -0.7972629070281982 -0.40605849027633667 0
-1.986331820487976 -0.8017238974571228 -0.3332056701183319 50
-2.0098745822906494 -0.8108182549476624 -0.26141002774238586 50
-2.003415584564209 -0.8078060746192932 -0.18564200401306152 50
-1.9805973768234253 -0.7982035875320435 -0.10953977704048157 50
-1.9923720359802246 -0.8025447726249695 -0.03645666316151619 50
-1.9978846311569214 -0.804360032081604 0.5664445161819458 50
-2.006129503250122 -0.8072725534439087 0.49002256989479065 50
-1.9936130046844482 -0.8018317222595215 0.4098709523677826 50
-2.0104143619537354 -0.8081815242767334 0.3367447555065155 50
-1.9925851821899414 -0.8006103038787842 0.2589723467826843 50
-2.0230302810668945 -0.8124329447746277 0.18738484382629395 50
-2.0187625885009766 -0.810309886932373 0.11199893802404404 50
-2.0027644634246826 -0.8034825325012207 0.03699909895658493 50
-1.9097942113876343 -0.7642499804496765 -0.5409319996833801 119
-2.025830030441284 -0.8102743625640869 -0.4948926270008087 119
-1.9998457431793213 -0.7994765043258667 -0.4108244478702545 0
-2.0074617862701416 -0.8021149039268494 -0.33633434772491455 50
-2.035736560821533 -0.8130004405975342 -0.26445674896240234 50
-2.020101308822632 -0.8063476085662842 -0.18694935739040375 50
-2.001922369003296 -0.7986862063407898 -0.11058301478624344 50
-2.0183796882629395 -0.8048437237739563 -0.03688861429691315 50
-2.0231130123138428 -0.8063219785690308 0.572910726070404 50
-2.0225133895874023 -0.8056738972663879 0.49339425563812256 50
-2.0146403312683105 -0.8021302223205566 0.4136837124824524 50
-2.036166191101074 -0.8102890849113464 0.34065133333206177 50
-2.013813018798828 -0.8009865283966064 0.261409729719162 50
-2.0351109504699707 -0.8090463876724243 0.1882563978433609 50
-2.040139675140381 -0.8106332421302795 0.11304565519094467 50
-2.0380804538726807 -0.809403121471405 0.03760993480682373 50
-1.9214305877685547 -0.7611362934112549 -0.5435202121734619 119
-2.046765089035034 -0.8103716969490051 -0.4993916451931 119
-2.0208797454833984 -0.7997151017189026 -0.4146372079849243 0
-2.0332109928131104 -0.8041844367980957 -0.34024524688720703 50
-2.047792434692383 -0.8095384836196899 -0.26567548513412476 50
-2.0368008613586426 -0.8047823309898376 -0.18825668096542358 50
-2.027919054031372 -0.8008636832237244 -0.11188706010580063 50
-2.0444273948669434 -0.8069707155227661 -0.037320561707019806 50
-2.0393941402435303 -0.8045726418495178 0.5767905116081238 50
-2.0343780517578125 -0.8021833896636963 0.4956420660018921 50
-2.035694122314453 -0.8022918105125427 0.4174965023994446 50
-2.038982391357422 -0.8031765818595886 0.34065133333206177 50
-2.035067558288574 -0.8012242913246155 0.26384711265563965 50
-2.0471930503845215 -0.805585503578186 0.18912795186042786 50
-2.042957067489624 -0.8035069108009338 0.11304565519094467 50
-2.031588315963745 -0.7986260652542114 0.03743540868163109 50
-1.9330685138702393 -0.7579506635665894 -0.5461084246635437 119
-2.049581289291382 -0.8032222390174866 -0.4993916451931 119
-2.0465102195739746 -0.8016067147254944 -0.41940316557884216 0
-2.0452029705047607 -0.8006829619407654 -0.34180957078933716 50
-2.0644702911376953 -0.8078105449676514 -0.2675034999847412 50
-2.030319929122925 -0.7940391898155212 -0.18738512694835663 50
-2.0353527069091797 -0.7955979108810425 -0.11214786767959595 50
-2.03791880607605 -0.7961909174919128 -0.03714778274297714 50
-2.037691116333008 -0.7956920862197876 0.5754972100257874 50
-2.037165880203247 -0.7950772643089294 0.4956420660018921 50
-2.038482189178467 -0.7951810359954834 0.4174965023994446 50
-2.0371720790863037 -0.7942603230476379 0.33987000584602356 50
-2.0378520488739014 -0.7941157221794128 0.26384711265563965 50
-2.049992561340332 -0.7984345555305481 0.18912795186042786 50
-2.0410964488983154 -0.7945594787597656 0.11278398334980011 50
-2.0297043323516846 -0.7897168397903442 0.037348147481679916 50
-1.9402049779891968 -0.7529456615447998 -0.547402560710907 119
-2.052372455596924 -0.7960630059242249 -0.4993916451931 119
-2.0492959022521973 -0.7944582104682922 -0.41940316557884216 0
-2.034170627593994 -0.7881861925125122 -0.3394630551338196 50
-2.0580220222473145 -0.7970148324966431 -0.2662848234176636 50
-2.0330793857574463 -0.7869471907615662 -0.18738512694835663 50
-2.0381174087524414 -0.7884883284568787 -0.11214786767959595 50
-2.0406856536865234 -0.7890723943710327 -0.03714778274297714 50
-2.0404560565948486 -0.7885743379592896 0.5754972100257874 50
-2.044473648071289 -0.7897169589996338 0.49676600098609924 50
-2.041245460510254 -0.7880606055259705 0.4174965023994446 50
-2.0399322509765625 -0.7871444225311279 0.33987000584602356 50
-2.0359809398651123 -0.7852116227149963 0.26323774456977844 50
-2.052767038345337 -0.7912738919258118 0.18912795186042786 50
-2.0391979217529297 -0.7856347560882568 0.11252229660749435 50
-2.0277833938598633 -0.7808306813240051 0.037260886281728745 50
-1.9428213834762573 -0.7461684942245483 -0.547402560710907 119
-2.0596868991851807 -0.7906398177146912 -0.5005163550376892 119
-2.0566391944885254 -0.7890581488609314 -0.4203563332557678 0
-2.0276875495910645 -0.7775444984436035 -0.33789870142936707 50
-2.060791492462158 -0.7898260951042175 -0.2662848234176636 50
-2.035814046859741 -0.779845654964447 -0.18738512694835663 50
-2.0408573150634766 -0.781369149684906 -0.11214786767959595 50
-2.0387585163116455 -0.7801576256752014 -0.03706139326095581 50
-2.0341739654541016 -0.7779962420463562 0.572910726070404 50
-2.047218084335327 -0.7825756072998047 0.49676600098609924 50
-2.0439839363098145 -0.7809305191040039 0.4174965023994446 50
-2.0380537509918213 -0.7782571315765381 0.33908867835998535 50
-2.0340733528137207 -0.7763304710388184 0.262628436088562 50
-2.055516481399536 -0.7841035723686218 0.18912795186042786 50
-2.0372626781463623 -0.7767330408096313 0.11226062476634979 50
-2.021153688430786 -0.7701873779296875 0.0370863638818264 50
-1.9408997297286987 -0.7376664280891418 -0.5461084246635437 119
-2.062434196472168 -0.7834453582763672 -0.5005163550376892 119
-2.063969850540161 -0.7836165428161621 -0.42130953073501587 0
-2.0350067615509033 -0.7722139358520508 -0.3386808931827545 50
-2.0588958263397217 -0.7808679938316345 -0.26567548513412476 50
-2.0478389263153076 -0.7762656807899475 -0.18825668096542358 50
-2.043572425842285 -0.7742404341697693 -0.11214786767959595 50
-2.0414693355560303 -0.7730363011360168 -0.03706139326095581 50
-2.0594632625579834 -0.7794390320777893 0.5793769955635071 50
-2.0499372482299805 -0.7754246592521667 0.49676600098609924 50
-2.051288366317749 -0.7755265831947327 0.41844967007637024 50
-2.068476438522339 -0.7816123366355896 0.34377655386924744 50
-2.032128095626831 -0.7674720287322998 0.2620190680027008 50
-2.062901020050049 -0.7786827087402344 0.18956373631954193 50
-2.0352895259857178 -0.7678543925285339 0.11199893802404404 50
-2.0425407886505127 -0.7701828479766846 0.03743540868163109 50
-1.9389424324035645 -0.7291868925094604 -0.5448143482208252 119
-2.074276924133301 -0.7796696424484253 -0.5027658939361572 119
-2.071287155151367 -0.77813321352005 -0.42226269841194153 0
-2.046936273574829 -0.7685775756835938 -0.34024524688720703 50
-2.075547933578491 -0.7789072394371033 -0.2675034999847412 50
-2.073854923248291 -0.7778589725494385 -0.19043558835983276 50
-2.0415871143341064 -0.7653496861457825 -0.11188706010580063 50
-2.0488367080688477 -0.7676595449447632 -0.03714778274297714 50
-2.0712177753448486 -0.7756330966949463 0.5819635391235352 50
-2.0800087451934814 -0.7785112857818604 0.5035094022750854 50
-2.0723717212677 -0.7752404808998108 0.42226240038871765 50
-2.0943212509155273 -0.7830348014831543 0.3476831018924713 50
-2.0394434928894043 -0.7621111273765564 0.262628436088562 50
-2.0936036109924316 -0.781933605670929 0.192178413271904 50
-2.075380563735962 -0.7747148275375366 0.1140923872590065 50
-2.068635940551758 -0.7717857956886292 0.037871718406677246 50
-1.9369492530822754 -0.7207299470901489 -0.5435202121734619 119
-2.086118459701538 -0.7758206725120544 -0.5050153732299805 119
-2.0831921100616455 -0.774318516254425 -0.4241690933704376 0
-2.0912704467773438 -0.7769058346748352 -0.34728479385375977 50
-2.110821008682251 -0.7837495803833008 -0.2717689573764801 50
-2.0999064445495605 -0.7792800068855286 -0.19261449575424194 50
-2.0723354816436768 -0.76863694190979 -0.11345191299915314 50
-2.0655665397644043 -0.7657161951065063 -0.037406954914331436 50
-2.0874993801116943 -0.7734324336051941 0.5858432650566101 50
-2.1101267337799072 -0.7813972234725952 0.510252833366394 50
-2.0888748168945312 -0.7731128334999084 0.4251219928264618 50
-2.1109375953674316 -0.780859649181366 0.35002702474594116 50
-2.083984613418579 -0.7704759836196899 0.26811254024505615 50
-2.1196813583374023 -0.7832530736923218 0.19435730576515198 50
-2.106175661087036 -0.7778447270393372 0.11566246300935745 50
-2.080697536468506 -0.7680225968360901 0.03804624453186989 50
-1.9303886890411377 -0.7106274366378784 -0.5409319996833801 119
-2.1025307178497314 -0.7735808491706848 -0.5083897113800049 119
-2.0997025966644287 -0.7721242308616638 -0.4270286560058594 0
-2.121781349182129 -0.7798228859901428 -0.3519778251647949 50
-2.1368355751037598 -0.7849324941635132 -0.2748156785964966 50
-2.1306686401367188 -0.7822450995445251 -0.195229172706604 50
-2.0984439849853516 -0.7699987292289734 -0.11475596576929092 50
-2.133936882019043 -0.7825998663902283 -0.03861641883850098 50
-2.112860679626465 -0.7744520306587219 0.5923095345497131 50
-2.1311402320861816 -0.7807303667068481 0.5147484540939331 50
-2.109997034072876 -0.7725669741630554 0.4289347529411316 50
-2.1368391513824463 -0.7819722294807434 0.35393357276916504 50
-2.095982789993286 -0.7666061520576477 0.2693312466144562 50
-2.136436939239502 -0.780979573726654 0.19566462934017181 50
-2.1370174884796143 -0.7807689905166626 0.1172325387597084 50
-2.1068453788757324 -0.7693286538124084 0.038482554256916046 50
-1.9283196926116943 -0.702232301235199 -0.5396379828453064 119
-2.1189520359039307 -0.7712356448173523 -0.5117639303207397 119
-2.120835304260254 -0.771501898765564 -0.4308414161205292 0
-2.1476964950561523 -0.7808488607406616 -0.355888694524765 50
-2.158219814300537 -0.7842484712600708 -0.27725306153297424 50
-2.1380679607391357 -0.7765032052993774 -0.19566494226455688 50
-2.115199327468872 -0.7677800059318542 -0.11553838849067688 50
-2.146054744720459 -0.7785561084747314 -0.03878919780254364 50
-2.1337132453918457 -0.773657500743866 0.5974825024604797 50
-2.152174711227417 -0.7799263596534729 0.5192440748214722 50
-2.126525402069092 -0.7702114582061768 0.43179428577423096 50
-2.153486967086792 -0.7795515060424805 0.3562775254249573 50
-2.131312608718872 -0.7711038589477539 0.2735966444015503 50
-2.16725492477417 -0.7836799025535583 0.19827930629253387 50
-2.1491217613220215 -0.7766988277435303 0.11775589734315872 50
-2.123623847961426 -0.7670648097991943 0.03874434158205986 50
-1.9216713905334473 -0.692223310470581 -0.5370497703552246 119
-2.149134397506714 -0.7737361192703247 -0.518512487411499 119
-2.14198899269104 -0.77074134349823 -0.434654176235199 0
-2.159703254699707 -0.7766897082328796 -0.35745301842689514 50
-2.174954891204834 -0.781745970249176 -0.2790811061859131 50
-2.1595160961151123 -0.7757711410522461 -0.1974080502986908 50
-2.141364336013794 -0.7688285112380981 -0.11684243381023407 50
-2.1628756523132324 -0.7761257290840149 -0.039048369973897934 50
-2.1500399112701416 -0.7710962295532227 0.6013622879981995 50
-2.168642997741699 -0.7773409485816956 0.5226157903671265 50
-2.14768385887146 -0.7694051861763 0.43560701608657837 50
-2.2166388034820557 -0.793671727180481 0.3664345443248749 0
-2.1386640071868896 -0.7653316259384155 0.2742060124874115 50
-2.1840474605560303 -0.7811422944068909 0.1995866447687149 50
-2.1659250259399414 -0.774234414100647 0.1185409352183342 50
-2.1780741214752197 -0.7781485319137573 0.03970422223210335 50
-1.9149771928787231 -0.6822694540023804 -0.5344615578651428 119
-2.1885385513305664 -0.7793037295341492 -0.5275105237960815 119
-2.163163185119629 -0.7698425650596619 -0.4384669363498688 0
-2.1624011993408203 -0.7691461443901062 -0.35745301842689514 50
-2.2057268619537354 -0.7841230034828186 -0.28273719549179077 50
-2.2279205322265625 -0.7915747761726379 -0.20350897312164307 50
-2.172266721725464 -0.7713741660118103 -0.11840728670358658 50
-2.264509916305542 -0.8036848306655884 -0.040862563997507095 0
-2.230102062225342 -0.7910350561141968 0.6233475208282471 0
-2.2494077682495117 -0.7974410057067871 0.5417221784591675 0
-2.26139235496521 -0.801245391368866 0.45848357677459717 0
-2.3078465461730957 -0.8172515034675598 0.38127946853637695 0
-2.2395682334899902 -0.7926329970359802 0.287002295255661 0
-2.2712860107421875 -0.8034126162528992 0.2074306607246399 0
-2.220398426055908 -0.7849763035774231 0.12141941487789154 0
-2.26090931892395 -0.7988542318344116 0.041187677532434464 0
-1.9082367420196533 -0.6723707914352417 -0.5318734049797058 119
-2.195840835571289 -0.773277759552002 -0.5286352634429932 119
-2.179727077484131 -0.7671756148338318 -0.4413264989852905 0
-2.179048776626587 -0.7665095329284668 -0.3597995638847351 50
-2.273996114730835 -0.7994624972343445 -0.2912680506706238 0
nan nan nan 0
-2.264457941055298 -0.7952211499214172 -0.12336266040802002 0
-2.4371185302734375 -0.8553774952888489 -0.04397260770201683 10
nan nan nan 0
nan nan nan 0
-2.491152048110962 -0.8728773593902588 0.5051897764205933 10
nan nan nan 0
-2.5139999389648438 -0.8798978328704834 0.3223443925380707 10
nan nan nan 0
nan nan nan 0
nan nan nan 0
-1.901450514793396 -0.6625273823738098 -0.5292851328849792 119
-2.20312762260437 -0.7672103643417358 -0.5297600626945496 119
-2.18239164352417 -0.7595623135566711 -0.4413264989852905 0
nan nan nan 0
-2.6986513137817383 -0.9381859302520752 -0.3461093306541443 10
-2.8121142387390137 -0.9770811796188354 -0.2571098506450653 10
nan nan nan 0
-2.784860849380493 -0.9665225744247437 -0.05027909204363823 10
-2.8013992309570312 -0.9717146754264832 0.7837108373641968 10
-2.7981069087982178 -0.9700255990028381 0.6743429899215698 10
-2.8002796173095703 -0.9702313542366028 0.5681002140045166 10
-2.8501667976379395 -0.986958920955658 0.4711301326751709 10
-2.7796854972839355 -0.9620093703269958 0.3564678132534027 10
-2.837012529373169 -0.9812949299812317 0.25928834080696106 10
-2.8015575408935547 -0.9684839248657227 0.15334433317184448 10
-2.8476266860961914 -0.9838534593582153 0.05192090570926666 10
-1.8991854190826416 -0.6543129682540894 -0.5279910564422607 119
-2.1965794563293457 -0.7563430666923523 -0.5275105237960815 119
-2.2453646659851074 -0.7727029323577881 -0.4537179470062256 119
nan nan nan 0
-2.856785297393799 -0.9819973707199097 -0.36621779203414917 11
-2.8531932830810547 -0.9802059531211853 -0.26059606671333313 10
-2.822495460510254 -0.9691089987754822 -0.15387731790542603 10
-2.830775022506714 -0.9713996052742004 -0.05105660483241081 10
-2.8504605293273926 -0.9775986671447754 0.7966433763504028 10
-2.8521728515625 -0.9776297211647034 0.6867058873176575 10
-2.850083112716675 -0.9763575196266174 0.5776321291923523 10
-2.872283458709717 -0.983402669429779 0.47425535321235657 10
-2.844067335128784 -0.9731875061988831 0.3643893301486969 10
-2.887550115585327 -0.9875036478042603 0.26364612579345703 10
-2.8474440574645996 -0.9732328653335571 0.1556994616985321 10
-2.869966745376587 -0.9803715348243713 0.05226995423436165 10
-1.8968861103057861 -0.6461222767829895 -0.5266969799995422 119
-2.194594144821167 -0.7471009492874146 -0.5263857841491699 119
-2.285222053527832 -0.7775081396102905 -0.4613434374332428 119
-2.8649075031280518 -0.9741784334182739 -0.47321462631225586 11
-2.940075397491455 -0.999165952205658 -0.376576691865921 11
-2.8801794052124023 -0.9782499670982361 -0.2627749741077423 10
-2.8542301654815674 -0.968880832195282 -0.15544216334819794 10
-2.8720223903656006 -0.9743614792823792 -0.051747728139162064 10
-2.8767261505126953 -0.9753974080085754 0.8031096458435059 10
-2.874025344848633 -0.9739224910736084 0.6912015676498413 10
-2.8720695972442627 -0.972700834274292 0.5814448595046997 10
-2.903765916824341 -0.9828707575798035 0.47894322872161865 10
-2.8709521293640137 -0.9712054133415222 0.3674360513687134 10
-2.9004170894622803 -0.9806088805198669 0.2645176649093628 10
-2.888667106628418 -0.9760746359825134 0.15779289603233337 10
-2.8828444480895996 -0.9735465049743652 0.05244447663426399 10
-1.8991299867630005 -0.6394969820976257 -0.5266969799995422 119
-2.1925714015960693 -0.7378818988800049 -0.5252610445022583 119
-2.31583571434021 -0.7789150476455688 -0.4670626223087311 119
-2.887014627456665 -0.9704661965370178 -0.4763433039188385 11
-2.967067003250122 -0.9967993497848511 -0.3796234428882599 11
-2.9166300296783447 -0.9792883992195129 -0.26582542061805725 11
-2.895465135574341 -0.971619725227356 -0.15752863883972168 10
-2.8943653106689453 -0.9706887602806091 -0.05209328606724739 10
-2.8984310626983643 -0.9714894890785217 0.8082826733589172 10
-2.905125856399536 -0.9731694459915161 0.6979449987411499 10
-2.898719310760498 -0.9704607129096985 0.5862108469009399 10
-2.935279607772827 -0.9821310639381409 0.48363110423088074 10
-2.883737802505493 -0.9643257856369019 0.368654727935791 10
-2.9227187633514404 -0.9767938852310181 0.2662607729434967 10
-2.9062647819519043 -0.9707310199737549 0.15857794880867004 10
-2.9146769046783447 -0.9729753732681274 0.05296804755926132 10
-1.8967682123184204 -0.6313386559486389 -0.5254029035568237 119
-2.1951334476470947 -0.7302238941192627 -0.5252610445022583 119
-2.3371710777282715 -0.7770203948020935 -0.4708753526210785 119
-2.885698080062866 -0.9588255882263184 -0.4755611717700958 11
-2.9846577644348145 -0.9911282658576965 -0.38145145773887634 11
-2.9673049449920654 -0.9847909212112427 -0.2701832056045532 11
-2.9130568504333496 -0.9662225842475891 -0.15831105411052704 10
-2.93095326423645 -0.9715909361839294 -0.05269801989197731 10
-2.9384829998016357 -0.9735177159309387 0.8186286687850952 10
-2.936255931854248 -0.9722111821174622 0.7046884298324585 10
-2.9393677711486816 -0.9726724028587341 0.5938363075256348 10
-2.9855780601501465 -0.9873857498168945 0.4914442002773285 15
-2.915358304977417 -0.963598370552063 0.3723108172416687 10
-2.9592177867889404 -0.9775221943855286 0.26931124925613403 10
-2.9428255558013916 -0.9715375900268555 0.16040968894958496 10
-2.9607834815979004 -0.9768930673599243 0.053753409534692764 0
-1.8989604711532593 -0.6247138381004333 -0.5254029035568237 119
-2.197669267654419 -0.7225570678710938 -0.5252610445022583 119
-2.358520984649658 -0.7749863266944885 -0.4746881127357483 119
-2.9218709468841553 -0.9595324397087097 -0.48103639483451843 11
-3.0116758346557617 -0.9884417057037354 -0.3844982087612152 11
-3.008587121963501 -0.9868464469909668 -0.27366945147514343 11
-2.9543700218200684 -0.9684916138648987 -0.16039754450321198 0
-3.000838041305542 -0.9831445813179016 -0.05390748381614685 15
-2.9831738471984863 -0.9767808318138123 0.8302679657936096 15
-2.9720444679260254 -0.9725624918937683 0.7125557065010071 15
-2.9847311973571777 -0.9761373996734619 0.6024149656295776 15
-3.0077831745147705 -0.9830952882766724 0.49456945061683655 15
-2.9517264366149902 -0.964202880859375 0.3765762448310852 10
-3.009962320327759 -0.9826447367668152 0.27366903424263 15
-2.9936676025390625 -0.9767469763755798 0.16302649676799774 15
-3.0069515705108643 -0.9805005192756653 0.05453876778483391 15
-1.9057224988937378 -0.6195746064186096 -0.5266969799995422 119
-2.2048113346099854 -0.7163868546485901 -0.5263857841491699 119
-2.379885196685791 -0.77281254529953 -0.4785008728504181 119
-2.990964412689209 -0.9706693291664124 -0.49198681116104126 11
-3.0198283195495605 -0.9794541001319885 -0.38510754704475403 11
-3.0214900970458984 -0.9794102907180786 -0.2745409905910492 11
-3.000483751296997 -0.9720224738121033 -0.16274482011795044 15
-3.0185201168060303 -0.9772832989692688 -0.054166655987501144 15
-3.0187320709228516 -0.9767699241638184 0.8393206596374512 15
-3.007871150970459 -0.9726757407188416 0.7204230427742004 15
-3.011472702026367 -0.9732598662376404 0.6071809530258179 15
-3.0205957889556885 -0.9756260514259338 0.4961320757865906 15
-3.0070247650146484 -0.9706631898880005 0.38327908515930176 15
-3.022854804992676 -0.9751905202865601 0.27454057335853577 15
-3.0160677433013916 -0.9724199771881104 0.16407321393489838 15
-3.0151143074035645 -0.9715315699577332 0.05462602898478508 15
-1.9078736305236816 -0.6129186749458313 -0.5266969799995422 119
-2.207298517227173 -0.7086861729621887 -0.5263857841491699 119
-2.4059362411499023 -0.7719985842704773 -0.48326680064201355 119
-3.031954765319824 -0.9722871780395508 -0.49824416637420654 11
-3.027954578399658 -0.970421552658081 -0.38571691513061523 11
-3.0011727809906006 -0.9612606763839722 -0.2723621129989624 11
-3.0133697986602783 -0.964587390422821 -0.16326643526554108 15
-3.0076284408569336 -0.9621709585189819 -0.05390748381614685 15
-3.0175228118896484 -0.9647558331489563 0.8380274772644043 15
-3.0251708030700684 -0.9666190147399902 0.7237948179244995 15
-3.010176181793213 -0.9612488746643066 0.6062277555465698 15
-3.0004587173461914 -0.9575687646865845 0.4922254979610443 15
-3.01039457321167 -0.9601607918739319 0.38327908515930176 15
-3.0214948654174805 -0.9631202220916748 0.2741048038005829 15
-3.0099289417266846 -0.9588548541069031 0.16354985535144806 15
-2.9851417541503906 -0.9503847360610962 0.05401519685983658 15
-1.914604902267456 -0.6077163815498352 -0.5279910564422607 119
-2.2051150798797607 -0.6995038986206055 -0.5252610445022583 119
-2.4320104122161865 -0.7710121870040894 -0.4880327582359314 119
-3.0164992809295654 -0.9557313919067383 -0.4951154887676239 11
-3.017129898071289 -0.9553517699241638 -0.383888840675354 11
-2.999760627746582 -0.9492759108543396 -0.2719263434410095 11
-2.9881534576416016 -0.945029079914093 -0.16170157492160797 15
-2.991901159286499 -0.945639967918396 -0.053561922162771225 15
-3.0070552825927734 -0.949852466583252 0.8341476917266846 15
-3.00065016746521 -0.9472531676292419 0.7170513272285461 15
-3.0041513442993164 -0.9477819204330444 0.6043213605880737 15
-2.999073028564453 -0.9456042647361755 0.4914442002773285 15
-2.9947946071624756 -0.9436807036399841 0.3808417022228241 15
-3.0105855464935303 -0.9480789303779602 0.27279746532440186 15
-3.0084943771362305 -0.9468433260917664 0.1632881760597229 15
-2.988440990447998 -0.9399588704109192 0.05401519685983658 15
-1.9167145490646362 -0.6010294556617737 -0.5279910564422607 119
-2.20754337310791 -0.6918023228645325 -0.5252610445022583 119
-2.458106756210327 -0.7698529958724976 -0.49279871582984924 119
-3.015103816986084 -0.943720817565918 -0.49433329701423645 11
-3.0157103538513184 -0.9433326721191406 -0.3832795321941376 11
-2.9983019828796387 -0.9373128414154053 -0.27149057388305664 15
-2.991434097290039 -0.9345927238464355 -0.16170157492160797 15
-2.9904122352600098 -0.9337006211280823 -0.05347553268074989 15
-3.005742311477661 -0.9379114508628845 0.8328544497489929 15
-2.9992873668670654 -0.9353228211402893 0.7159274220466614 15
-2.9980692863464355 -0.9343688488006592 0.6024149656295776 15
-2.9929254055023193 -0.9321926236152649 0.48988157510757446 15
-2.9933316707611084 -0.9317461252212524 0.3802323341369629 15
-3.009120225906372 -0.9360846877098083 0.272361695766449 15
-3.0022451877593994 -0.9333712458610535 0.16276481747627258 15
-2.9821555614471436 -0.926554799079895 0.053840670734643936 15
-1.9234139919281006 -0.5957641005516052 -0.5292851328849792 119
-2.2052907943725586 -0.6826517581939697 -0.5241362452507019 119
-2.4889135360717773 -0.7699716091156006 -0.49851784110069275 119
-3.0136616230010986 -0.9317317008972168 -0.4935511350631714 11
-3.0095014572143555 -0.929870069026947 -0.38206082582473755 11
-2.992037296295166 -0.9239019155502319 -0.2706190049648285 15
-2.9899072647094727 -0.9226727485656738 -0.16144077479839325 15
-2.9840986728668213 -0.920309841632843 -0.05330275371670723 15
-3.0043818950653076 -0.9259910583496094 0.8315612077713013 15
-2.997877836227417 -0.9234133958816528 0.7148035168647766 15
-2.996621608734131 -0.9224539399147034 0.6014618277549744 15
-2.991440773010254 -0.9202874898910522 0.48910024762153625 15
-2.9918224811553955 -0.9198334217071533 0.3796229958534241 15
-3.002847194671631 -0.9226493835449219 0.2714901566505432 15
-3.0007119178771973 -0.921420156955719 0.16250313818454742 15
-2.975813388824463 -0.9132062792778015 0.05366614833474159 15
-1.9255846738815308 -0.5887104868888855 -0.5292851328849792 119
-2.207778215408325 -0.6745643615722656 -0.5241362452507019 119
-2.5198848247528076 -0.7694445848464966 -0.5042369961738586 119
-3.0123329162597656 -0.9192383885383606 -0.49276894330978394 0
-3.0081424713134766 -0.9173856973648071 -0.38145145773887634 11
-2.9906387329101562 -0.911477267742157 -0.2701832056045532 15
-2.988492250442505 -0.9102529883384705 -0.16117995977401733 15
-2.9826691150665283 -0.9079105257987976 -0.0532163605093956 15
-3.0031352043151855 -0.9135676026344299 0.8302679657936096 15
-2.9965806007385254 -0.9110023379325867 0.7136796116828918 15
-2.9905898571014404 -0.9086108803749084 0.5995554327964783 15
-2.985342502593994 -0.9064474701881409 0.4875376522541046 15
-2.990424871444702 -0.9074206948280334 0.37901362776756287 15
-3.001441717147827 -0.9101915955543518 0.27105435729026794 15
-2.9992902278900146 -0.9089675545692444 0.16224145889282227 15
-2.979140520095825 -0.9022932052612305 0.05366614833474159 15
-1.9276279211044312 -0.581985354423523 -0.5292851328849792 119
-2.2101192474365234 -0.6668536067008972 -0.5241362452507019 119
-2.550750970840454 -0.7691458463668823 -0.5099561214447021 119
-3.0107948780059814 -0.907292902469635 -0.49198681116104126 0
-3.0065746307373047 -0.9054487943649292 -0.3808421194553375 15
-2.989032506942749 -0.8995968699455261 -0.26974743604660034 15
-2.986870050430298 -0.898377537727356 -0.1609191596508026 15
-2.981032609939575 -0.8960544466972351 -0.053129974752664566 15
-3.0016801357269287 -0.9016896486282349 0.8289746642112732 15
-2.9950761795043945 -0.8991358876228333 0.7125557065010071 15
-2.989042043685913 -0.8967558145523071 0.5986022353172302 15
-2.983757972717285 -0.89460289478302 0.4867563545703888 15
-2.9888200759887695 -0.8955521583557129 0.37840431928634644 15
-2.9998292922973633 -0.8982803225517273 0.27061858773231506 15
-2.9976613521575928 -0.8970610499382019 0.1619797796010971 15
-2.9774839878082275 -0.8904497623443604 0.05357888340950012 15
-1.9389047622680664 -0.5780127048492432 -0.5318734049797058 119
-2.2124335765838623 -0.6591348648071289 -0.5241362452507019 119
-2.576941728591919 -0.7672404646873474 -0.5147220492362976 119
-3.0092103481292725 -0.8953694105148315 -0.4912046194076538 0
-3.00495982170105 -0.8935338854789734 -0.3802327811717987 15
-2.987379789352417 -0.8877388834953308 -0.26931166648864746 15
-2.989987850189209 -0.8879459500312805 -0.1609191596508026 15
-2.979349374771118 -0.8842208385467529 -0.053043581545352936 15
-3.000178575515747 -0.8898328542709351 0.8276814222335815 15
-2.993525505065918 -0.8872911930084229 0.7114318013191223 15
-2.987447738647461 -0.8849226236343384 0.597649097442627 15
-2.9821269512176514 -0.8827803134918213 0.4859750270843506 15
-2.987169027328491 -0.8837059140205383 0.37779495120048523 15
-2.9981696605682373 -0.8863912224769592 0.2701827883720398 15
-2.995985984802246 -0.8851770758628845 0.16171810030937195 15
-2.98057222366333 -0.8800573945045471 0.05357888340950012 15
-1.9316438436508179 -0.5685138702392578 -0.5292851328849792 119
-2.2147209644317627 -0.6514079570770264 -0.5241362452507019 119
-2.612567663192749 -0.7679297924041748 -0.5213943719863892 119
-3.0075790882110596 -0.8834680318832397 -0.49042245745658875 0
-3.0080606937408447 -0.883039116859436 -0.3802327811717987 15
-2.9856810569763184 -0.8759034276008606 -0.2688758969306946 15
-2.9882771968841553 -0.8760987520217896 -0.1606583446264267 15
-2.9776201248168945 -0.8724099397659302 -0.052957188338041306 15
-2.998631477355957 -0.8779976963996887 0.8263881802558899 15
-2.9919281005859375 -0.8754681348800659 0.7103078961372375 15
-2.990518569946289 -0.8744890689849854 0.597649097442627 15
-2.9851903915405273 -0.872365415096283 0.4859750270843506 15
-2.9854719638824463 -0.8718822598457336 0.3771856129169464 15
-3.0012454986572266 -0.875920295715332 0.2701827883720398 15
-2.9990575313568115 -0.8747137188911438 0.16171810030937195 15
-2.9788262844085693 -0.8682489395141602 0.05349162220954895 15
-1.9243409633636475 -0.5590728521347046 -0.5266969799995422 119
-2.2169814109802246 -0.6436731815338135 -0.5241362452507019 119
-2.6293740272521973 -0.7629087567329407 -0.5242539644241333 119
-3.005901575088501 -0.8715888261795044 -0.4896402657032013 0
-3.0063579082489014 -0.8711524605751038 -0.3796234428882599 15
-2.983935832977295 -0.8640906810760498 -0.2684400975704193 15
-2.9913172721862793 -0.8656623363494873 -0.1606583446264267 15
-2.9758448600769043 -0.8606218695640564 -0.05287080258131027 15
-2.997037887573242 -0.8661841750144958 0.8250948786735535 15
-2.9902853965759277 -0.8636671304702759 0.7091840505599976 15
-2.988837242126465 -0.8626837730407715 0.5966958403587341 15
-2.9834721088409424 -0.8605711460113525 0.48519372940063477 15
-2.9837286472320557 -0.8600810766220093 0.3765762448310852 15
-2.9994986057281494 -0.8640598058700562 0.2697470188140869 15
-2.9972944259643555 -0.8628584742546082 0.1614564210176468 15
-2.977034568786621 -0.8564634323120117 0.05340436100959778 15
nan nan nan 0
-2.219214677810669 -0.6359305381774902 -0.5241362452507019 119
-2.632020950317383 -0.7537258267402649 -0.5242539644241333 119
-3.008925676345825 -0.8610909581184387 -0.4896402657032013 0
-3.0046091079711914 -0.8592883944511414 -0.3790140748023987 15
-2.982144832611084 -0.852300763130188 -0.26800432801246643 15
-2.9895198345184326 -0.853844165802002 -0.16039754450321198 15
-2.9740235805511475 -0.8488569259643555 -0.05278440937399864 15
-3.0000431537628174 -0.8557173013687134 0.8250948786735535 15
-2.993281841278076 -0.8532238006591797 0.7091840505599976 15
-2.987109661102295 -0.8509007692337036 0.5957427024841309 15
-2.9864578247070312 -0.8501516580581665 0.48519372940063477 15
-2.9819393157958984 -0.8483027219772339 0.3759669065475464 15
-3.0024964809417725 -0.8535844087600708 0.2697470188140869 15
-2.9954848289489746 -0.8510260581970215 0.16119474172592163 15
-2.9751968383789062 -0.8447010517120361 0.05331709608435631 15
nan nan nan 0
-2.226109027862549 -0.6295058727264404 -0.5252610445022583 119
-2.63935923576355 -0.7458685636520386 -0.5252071022987366 119
-3.0071604251861572 -0.8492405414581299 -0.48885810375213623 0
-3.002814292907715 -0.8474472761154175 -0.37840473651885986 15
-2.9851016998291016 -0.8418859243392944 -0.26800432801246643 15
-2.987675905227661 -0.8420490622520447 -0.16013672947883606 15
-2.97696852684021 -0.8384705185890198 -0.05278440937399864 15
-2.9983627796173096 -0.8439314365386963 0.8238016963005066 15
-2.9915518760681152 -0.8414509296417236 0.708060085773468 15
-2.9900617599487305 -0.8404686450958252 0.5957427024841309 15
-2.9846527576446533 -0.8383861780166626 0.48441240191459656 15
-2.984882354736328 -0.8378886580467224 0.3759669065475464 15
-3.005457639694214 -0.8430985808372498 0.2697470188140869 15
-2.9936296939849854 -0.839216947555542 0.16093306243419647 15
-2.973313570022583 -0.8329619765281677 0.053229838609695435 15
-1.9440451860427856 -0.5427873134613037 -0.5305792689323425 119
-2.22829270362854 -0.6217314600944519 -0.5252610445022583 119
-2.646674633026123 -0.7379692792892456 -0.5261602997779846 119
-3.0101065635681152 -0.8387384414672852 -0.48885810375213623 0
-3.0009729862213135 -0.8356289863586426 -0.37779536843299866 15
-2.9832231998443604 -0.8301254510879517 -0.26756852865219116 15
-2.985786199569702 -0.8302772045135498 -0.15987591445446014 15
-2.97506046295166 -0.8267353177070618 -0.05269801989197731 15
-2.9966366291046143 -0.8321676254272461 0.8225083947181702 15
-2.989776134490967 -0.8297004699707031 0.706936240196228 15
-2.9882473945617676 -0.8287145495414734 0.5947895050048828 15
-2.987560987472534 -0.8279626369476318 0.48441240191459656 15
-2.983006238937378 -0.8261398673057556 0.37535756826400757 15
-3.0035817623138428 -0.8312737941741943 0.26931124925613403 15
-2.9917283058166504 -0.8274310231208801 0.1606713831424713 15
-2.9665658473968506 -0.8199145197868347 0.05305531248450279 15
-1.9319593906402588 -0.532150387763977 -0.5266969799995422 119
-2.2304494380950928 -0.6139495372772217 -0.5252610445022583 119
-2.6492347717285156 -0.7287261486053467 -0.5261602997779846 119
-3.0130159854888916 -0.8282260298728943 -0.48885810375213623 0
-2.999086380004883 -0.8238340616226196 -0.3771860599517822 15
-2.98129940032959 -0.8183885216712952 -0.2671327590942383 15
-2.9838509559631348 -0.8185288906097412 -0.15961511433124542 15
-2.977928400039673 -0.8163453936576843 -0.05269801989197731 15
-2.9948651790618896 -0.8204262852668762 0.8212151527404785 15
-2.9926540851593018 -0.8192591667175293 0.706936240196228 15
-2.9863879680633545 -0.8169834613800049 0.5938363075256348 15
-2.9856693744659424 -0.8162268400192261 0.48363110423088074 15
-2.9810845851898193 -0.8144142627716064 0.37474822998046875 15
-3.0016603469848633 -0.8194724917411804 0.26887547969818115 15
-2.989781141281128 -0.8156687021255493 0.16040968894958496 15
-2.9645864963531494 -0.808239221572876 0.05296804755926132 15
-1.9105019569396973 -0.5190719962120056 -0.5202265381813049 119
-2.232578754425049 -0.6061599850654602 -0.5252610445022583 119
-2.656498908996582 -0.720759391784668 -0.5271134972572327 119
-3.001589775085449 -0.8138266205787659 -0.48651158809661865 0
-3.001943826675415 -0.8133602738380432 -0.3771860599517822 15
-2.97933030128479 -0.8066750764846802 -0.2666969895362854 15
-2.98186993598938 -0.8068041801452637 -0.1593542993068695 15
-2.97593355178833 -0.8046405911445618 -0.05261162668466568 15
-2.997710704803467 -0.8099673390388489 0.8212151527404785 15
-2.9907920360565186 -0.807537853717804 0.7058122754096985 15
-2.984482526779175 -0.8052753806114197 0.5928831100463867 15
-2.983731746673584 -0.8045142292976379 0.48284977674484253 15
-2.9839091300964355 -0.8040034174919128 0.37474822998046875 15
-2.999692678451538 -0.807694673538208 0.2684396803379059 15
-2.987788438796997 -0.8039301037788391 0.160148024559021 15
-2.962562084197998 -0.7965879440307617 0.05288079008460045 15
-1.9449573755264282 -0.5211498737335205 -0.5292851328849792 119
-2.2346813678741455 -0.5983631610870361 -0.5252610445022583 119
-2.658998727798462 -0.711482048034668 -0.5271134972572327 119
-2.9996414184570312 -0.8020686507225037 -0.4857294261455536 0
-2.999969959259033 -0.8015954494476318 -0.376576691865921 15
-2.9821279048919678 -0.7962704300880432 -0.2666969895362854 15
-2.979843854904175 -0.7951034307479858 -0.15909349918365479 15
-2.973893880844116 -0.7929597496986389 -0.05252524092793465 15
-2.995852470397949 -0.7982547879219055 0.8199219107627869 15
-2.988884925842285 -0.7958395481109619 0.7046884298324585 15
-2.982532024383545 -0.7935906648635864 0.5919299721717834 15
-2.9817495346069336 -0.7928251028060913 0.4820684790611267 15
-2.981901168823242 -0.7923083305358887 0.37413886189460754 15
-2.992865562438965 -0.7946622967720032 0.2675681412220001 15
-2.985750436782837 -0.7922153472900391 0.15988633036613464 15
-2.9604923725128174 -0.7849605083465576 0.05279352515935898 15
-1.9327566623687744 -0.510656476020813 -0.5254029035568237 119
-2.2367563247680664 -0.5905590057373047 -0.5252610445022583 119
-2.661466121673584 -0.7021961212158203 -0.5271134972572327 119
-2.9546701908111572 -0.7790029048919678 -0.477907657623291 119
-3.0027499198913574 -0.7911186814308167 -0.376576691865921 15
-2.980072498321533 -0.7845878005027771 -0.26626119017601013 15
-2.9777722358703613 -0.7834264636039734 -0.15883268415927887 15
-2.971808433532715 -0.7813029885292053 -0.052438847720623016 15
-2.9939496517181396 -0.7865653038024902 0.8186286687850952 15
-2.9869320392608643 -0.7841643691062927 0.703564465045929 15
-2.9805362224578857 -0.7819292545318604 0.5909767150878906 15
-2.9844987392425537 -0.782412052154541 0.4820684790611267 15
-2.9798479080200195 -0.7806370258331299 0.37352949380874634 15
-2.9859840869903564 -0.7816876173019409 0.266696572303772 15
-2.988497495651245 -0.7817882895469666 0.15988633036613464 15
-2.96321439743042 -0.7746216654777527 0.05279352515935898 15
nan nan nan 0
-2.2388041019439697 -0.5827476978302002 -0.5252610445022583 119
-2.668651580810547 -0.6941371560096741 -0.5280666947364807 119
-2.9143550395965576 -0.7575035095214844 -0.47086814045906067 119
-3.000689744949341 -0.7793847322463989 -0.3759673535823822 15
-2.9779720306396484 -0.7729293704032898 -0.26582542061805725 15
-2.9804887771606445 -0.7730273008346558 -0.15883268415927887 15
-2.9696784019470215 -0.7696703672409058 -0.05235246196389198 15
-2.9966769218444824 -0.7761096358299255 0.8186286687850952 15
-2.9849345684051514 -0.772512674331665 0.702440619468689 15
-2.9832475185394287 -0.7715204954147339 0.5909767150878906 15
-2.9824302196502686 -0.7707537412643433 0.4812871515750885 15
-2.9825546741485596 -0.7702306509017944 0.37352949380874634 15
-2.988694429397583 -0.7712598443031311 0.266696572303772 15
-2.9863734245300293 -0.7701049447059631 0.15962466597557068 15
-2.961059093475342 -0.7630259394645691 0.052706263959407806 15
nan nan nan 0
-2.2361056804656982 -0.5737184882164001 -0.5241362452507019 119
-2.671058177947998 -0.6848176717758179 -0.5280666947364807 119
-2.9074134826660156 -0.7448746562004089 -0.46930378675460815 119
-2.998584508895874 -0.7676748037338257 -0.375357985496521 15
-2.9758260250091553 -0.7612950205802917 -0.265389621257782 15
-2.9783315658569336 -0.7613821029663086 -0.15857186913490295 15
-2.9723470211029053 -0.7592995762825012 -0.05235246196389198 15
-2.994687795639038 -0.764449954032898 0.8173353672027588 15
-2.9828920364379883 -0.7608843445777893 0.7013166546821594 15
-2.981166362762451 -0.7598899602890015 0.5900235772132874 15
-2.985102415084839 -0.7603384256362915 0.4812871515750885 15
-2.9804155826568604 -0.758590817451477 0.3729201853275299 15
-2.991368293762207 -0.7608226537704468 0.266696572303772 15
-2.984204053878784 -0.7584459185600281 0.15936297178268433 15
-2.9637045860290527 -0.7526853084564209 0.052706263959407806 15
nan nan nan 0
-2.2333714962005615 -0.5647152662277222 -0.5230115056037903 119
-2.6781909465789795 -0.6766920685768127 -0.529019832611084 119
-2.919572114944458 -0.7371391654014587 -0.47086814045906067 119
-3.0012459754943848 -0.7572031617164612 -0.375357985496521 15
-2.973635673522949 -0.7496851682662964 -0.2649538815021515 15
-2.9761290550231934 -0.7497613430023193 -0.15831105411052704 15
-2.9701311588287354 -0.7476990818977356 -0.05226606875658035 15
-2.997338056564331 -0.7539919018745422 0.8173353672027588 15
-2.9760797023773193 -0.7480919361114502 0.6990688443183899 15
-2.9790403842926025 -0.7482834458351135 0.5890703797340393 15
-2.973367929458618 -0.7463069558143616 0.47894322872161865 15
-2.978231906890869 -0.7469752430915833 0.3723108172416687 15
-2.9940059185028076 -0.7503761649131775 0.266696572303772 15
-2.981989622116089 -0.7468115091323853 0.15910130739212036 15
-2.9663140773773193 -0.7423354387283325 0.052706263959407806 15
nan nan nan 0
-2.2306017875671387 -0.5557381510734558 -0.5218867659568787 119
-2.68530011177063 -0.6685250997543335 -0.5299730896949768 119
-2.955673933029175 -0.7352889180183411 -0.4763433039188385 119
-2.999054431915283 -0.7455250024795532 -0.37474867701530457 15
-2.971400022506714 -0.7380998730659485 -0.2645180821418762 15
-2.973881959915161 -0.7381653189659119 -0.15805025398731232 15
-2.9775753021240234 -0.7385303974151611 -0.05235246196389198 15
-2.9952638149261475 -0.7423627376556396 0.8160421848297119 15
-2.9739439487457275 -0.7365278005599976 0.6979449987411499 15
-2.9816341400146484 -0.7378800511360168 0.5890703797340393 15
-2.99033784866333 -0.7394801378250122 0.4812871515750885 15
-2.976003646850586 -0.7353842854499817 0.3717014789581299 15
-2.9917712211608887 -0.7387264966964722 0.2662607729434967 15
-2.9845783710479736 -0.7363978028297424 0.15910130739212036 15
-2.9688870906829834 -0.7319765686988831 0.052706263959407806 15
nan nan nan 0
-2.2325279712677 -0.5479484796524048 -0.5218867659568787 119
-2.697150945663452 -0.6614857912063599 -0.5318794250488281 119
-2.987001657485962 -0.7320200800895691 -0.48103639483451843 0
-3.001638650894165 -0.7350518107414246 -0.37474867701530457 0
-2.969120502471924 -0.7265393733978271 -0.26408231258392334 15
-2.971590042114258 -0.7265939712524414 -0.1577894389629364 15
-2.960709810256958 -0.7233859896659851 -0.05200690031051636 15
-2.9931447505950928 -0.7307572364807129 0.8147488832473755 15
-2.981229782104492 -0.7272969484329224 0.6990688443183899 15
-2.974654197692871 -0.725142776966095 0.5871639847755432 15
-2.983304262161255 -0.7266997694969177 0.47972455620765686 15
-2.9785523414611816 -0.7249916195869446 0.3717014789581299 15
-2.9894914627075195 -0.7271016240119934 0.2658250033855438 15
-2.9774270057678223 -0.723616898059845 0.15857794880867004 15
-2.98114013671875 -0.7239683270454407 0.05288079008460045 15
nan nan nan 0
-2.229691743850708 -0.5390074253082275 -0.520762026309967 119
-2.7089858055114746 -0.654371976852417 -0.5337858200073242 119
-3.0135416984558105 -0.7273826003074646 -0.48494723439216614 0
-3.0090105533599854 -0.72573322057724 -0.375357985496521 11
-2.96195387840271 -0.7138367891311646 -0.2632107436656952 15
-2.9692540168762207 -0.7150478363037109 -0.15752863883972168 15
-2.982658863067627 -0.7177251577377319 -0.05235246196389198 15
-2.990981340408325 -0.7191756367683411 0.8134556412696838 15
-2.974276065826416 -0.7146097421646118 0.6968210339546204 15
-2.981940269470215 -0.7159006595611572 0.5881171822547913 15
-2.995427370071411 -0.7185857892036438 0.4812871515750885 15
-2.981064796447754 -0.7145900726318359 0.3717014789581299 15
-2.9871673583984375 -0.715501606464386 0.26538923382759094 15
-2.999358654022217 -0.7178682684898376 0.15962466597557068 11
-2.9787869453430176 -0.7123949527740479 0.05279352515935898 15
nan nan nan 0
-2.23165225982666 -0.5308315753936768 -0.520762026309967 119
-2.6874895095825195 -0.6387636661529541 -0.529019832611084 119
-3.0402114391326904 -0.722038209438324 -0.48885810375213623 119
-3.011650323867798 -0.7146998047828674 -0.375357985496521 11
-2.988783121109009 -0.7087221145629883 -0.265389621257782 11
-2.9572787284851074 -0.700706422328949 -0.15674620866775513 15
-2.999863624572754 -0.7102436423301697 -0.05261162668466568 11
-2.9982972145080566 -0.7093201875686646 0.8147488832473755 11
-3.0242888927459717 -0.7149118185043335 0.708060085773468 11
-2.9988744258880615 -0.7083514332771301 0.5909767150878906 11
-3.050912618637085 -0.7200810313224792 0.48988157510757446 11
-2.9643430709838867 -0.6991025805473328 0.3692640960216522 15
-3.0382516384124756 -0.7159732580184937 0.2697470188140869 11
-2.9971094131469727 -0.7057257890701294 0.15936297178268433 11
-3.0349080562591553 -0.7140671610832214 0.053753409534692764 11
-1.9557455778121948 -0.45835599303245544 -0.5279910564422607 119
-2.228748083114624 -0.5219275951385498 -0.5196372270584106 119
-2.6849238872528076 -0.6282604336738586 -0.5280666947364807 119
-3.0667569637298584 -0.7170431017875671 -0.49276894330978394 119
-3.0624523162841797 -0.7154729962348938 -0.38145145773887634 11
-3.0785489082336426 -0.7186669707298279 -0.27323368191719055 11
-3.022921323776245 -0.7051247358322144 -0.16013672947883606 11
-3.0558807849884033 -0.7122505307197571 -0.053561922162771225 11
-3.0807225704193115 -0.7174736261367798 0.8367341756820679 11
-3.0457470417022705 -0.7087677121162415 0.7125557065010071 11
-3.073040246963501 -0.714553713798523 0.6052745580673218 11
-3.091891288757324 -0.7183681726455688 0.4961320757865906 11
