# .PCD v0.7 - Point Cloud Data file format
VERSION 0.7
FIELDS x y z intensity
SIZE 4 4 4 4
TYPE F F F F
COUNT 1 1 1 1
WIDTH 774
HEIGHT 1
VIEWPOINT 0 0 0 1 0 0 0
POINTS 774
DATA ascii
7.89509391784668 -1.3169362545013428 1.2602535486221313 101
8.085034370422363 -1.3500696420669556 1.0017659664154053 101
7.785221576690674 -1.3014024496078491 0.6872230172157288 101
8.143731117248535 -1.362793207168579 0.4307248890399933 101
7.956160068511963 -1.3328320980072021 0.14014281332492828 101
1.8713029623031616 -0.3151635527610779 -0.4982268810272217 119
2.1082630157470703 -0.3554506301879883 -0.4847698211669922 119
2.4721620082855225 -0.41724732518196106 -0.47945404052734375 119
2.9788496494293213 -0.5032998919487 -0.4724324643611908 119
3.878901958465576 -0.6560671925544739 -0.47833770513534546 119
5.307296276092529 -0.898614764213562 -0.467591255903244 119
7.865246772766113 -1.3331310749053955 -0.41468632221221924 119
7.825225830078125 -1.327752709388733 -0.13649651408195496 101
8.070619583129883 -1.3708393573760986 2.1817164421081543 101
8.049293518066406 -1.3686623573303223 1.8746734857559204 101
7.678025245666504 -1.3069126605987549 1.5050843954086304 101
7.637292385101318 -1.3013508319854736 1.219625473022461 101
7.820992469787598 -1.3340569734573364 0.9694706201553345 101
7.559685230255127 -1.2908426523208618 0.6676129698753357 101
7.882992744445801 -1.347464680671692 0.41711756587028503 101
7.690295219421387 -1.3159077167510986 0.1355179250240326 101
1.8701914548873901 -0.3216937184333801 -0.4982268810272217 119
2.1070094108581543 -0.3628076910972595 -0.4847698211669922 119
2.4706904888153076 -0.4258742332458496 -0.47945404052734375 119
2.981940984725952 -0.5145347118377686 -0.47321462631225586 119
3.8814783096313477 -0.6704477071762085 -0.4789470434188843 119
5.309035301208496 -0.9179838299751282 -0.4680270552635193 119
7.609622955322266 -1.317145824432373 -0.40138503909111023 119
7.603806018829346 -1.3175058364868164 -0.13269534707069397 101
7.827846050262451 -1.3577322959899902 2.117053747177124 101
7.751652240753174 -1.3459101915359497 1.8061152696609497 101
7.581536769866943 -1.3177363872528076 1.486973762512207 101
7.41862154006958 -1.2907544374465942 1.185247778892517 101
7.571831703186035 -1.3187726736068726 0.9390032887458801 101
7.452086925506592 -1.2992571592330933 0.6584616303443909 101
7.63722038269043 -1.332908272743225 0.4042952358722687 101
7.464046001434326 -1.3040269613265991 0.13159114122390747 101
1.869057059288025 -0.3282199501991272 -0.4982268810272217 119
2.1057302951812744 -0.370160311460495 -0.4847698211669922 119
2.4643547534942627 -0.4336453080177307 -0.4785008728504181 119
2.9849905967712402 -0.5257971882820129 -0.4739968180656433 119
3.8791143894195557 -0.6839925646781921 -0.4789470434188843 119
5.310703754425049 -0.937376081943512 -0.46846285462379456 119
7.388629913330078 -1.3054741621017456 -0.3899094760417938 119
7.377633094787598 -1.3048590421676636 -0.12880778312683105 101
7.575752258300781 -1.3412635326385498 2.0498046875 101
7.363123893737793 -1.3049436807632446 1.7162028551101685 101
7.364246368408203 -1.3064683675765991 1.4450334310531616 101
7.195258617401123 -1.2777841091156006 1.1500887870788574 101
7.347307205200195 -1.3061087131500244 0.9115826487541199 101
7.403371334075928 -1.3174080848693848 0.6545396447181702 101
7.39656400680542 -1.3175287246704102 0.39173460006713867 101
7.237976551055908 -1.2905833721160889 0.12766434252262115 101
1.867900013923645 -0.33474215865135193 -0.4982268810272217 119
2.1092207431793213 -0.37836864590644836 -0.4858945310115814 119
2.4628260135650635 -0.44224488735198975 -0.4785008728504181 119
2.9928579330444336 -0.5379608869552612 -0.4755611717700958 119
3.8767032623291016 -0.6975289583206177 -0.4789470434188843 119
5.307399749755859 -0.9559081792831421 -0.46846285462379456 119
7.187469005584717 -1.2958199977874756 -0.3794770836830139 119
7.156561851501465 -1.2915376424789429 -0.12500661611557007 101
7.352390289306641 -1.328203558921814 1.9903151988983154 101
7.114014625549316 -1.2864233255386353 1.6588836908340454 101
7.0795111656188965 -1.2814602851867676 1.3897485733032227 101
6.845732688903809 -1.2403780221939087 1.0946156978607178 101
7.113198280334473 -1.290122389793396 0.882943332195282 101
7.187990188598633 -1.3049832582473755 0.6358011364936829 101
7.185587406158447 -1.3058425188064575 0.3807440400123596 101
7.041604518890381 -1.2809460163116455 0.12426112592220306 101
1.8667200803756714 -0.34126031398773193 -0.4982268810272217 119
2.107887029647827 -0.3857288956642151 -0.4858945310115814 119
2.466095209121704 -0.4517233967781067 -0.47945404052734375 119
2.990961790084839 -0.5484046339988708 -0.4755611717700958 119
3.8742446899414062 -0.7110570073127747 -0.4789470434188843 119
5.304030418395996 -0.9744287133216858 -0.46846285462379456 119
6.976646423339844 -1.2829716205596924 -0.36852312088012695 119
6.9455108642578125 -1.2784993648529053 -0.12137822061777115 101
7.129213809967041 -1.313601016998291 1.9308255910873413 101
6.845963001251221 -1.2626457214355469 1.5970689058303833 101
6.741949558258057 -1.2446787357330322 1.3239785432815552 101
6.7199530601501465 -1.2418304681777954 1.0750830173492432 101
6.752415657043457 -1.2490483522415161 0.8384610414505005 101
6.977686882019043 -1.2919782400131226 0.6174984574317932 101
6.984604358673096 -1.2945199012756348 0.37027686834335327 101
6.850306510925293 -1.2708659172058105 0.12094517052173615 101
1.865517497062683 -0.34777432680130005 -0.4982268810272217 119
2.106527805328369 -0.39308446645736694 -0.4858945310115814 119
2.464503526687622 -0.4603289067745209 -0.47945404052734375 119
2.9890294075012207 -0.5588417053222656 -0.4755611717700958 119
3.866861343383789 -0.7236634492874146 -0.47833770513534546 119
5.295701026916504 -0.9920201301574707 -0.4680270552635193 119
6.780726432800293 -1.2714284658432007 -0.35835155844688416 119
6.7641215324401855 -1.269537091255188 -0.11826817691326141 101
6.915725231170654 -1.2992405891418457 1.8739224672317505 101
6.736175060272217 -1.2667261362075806 1.5723429918289185 101
6.7182698249816895 -1.264573097229004 1.320165753364563 101
6.667045593261719 -1.2561360597610474 1.0672699213027954 101
6.713877201080322 -1.2661731243133545 0.834195613861084 101
6.787142753601074 -1.2812169790267944 0.6009388566017151 101
6.788695335388184 -1.2827372550964355 0.3600713610649109 101
6.65916633605957 -1.259466290473938 0.11762920767068863 101
1.8642922639846802 -0.35428404808044434 -0.4982268810272217 119
2.105142831802368 -0.400435209274292 -0.4858945310115814 119
2.467703342437744 -0.4698469042778015 -0.4804072380065918 119
2.987060308456421 -0.5692719221115112 -0.4755611717700958 119
3.864311695098877 -0.737156867980957 -0.47833770513534546 119
5.292205810546875 -1.0104994773864746 -0.4680270552635193 119
6.594783306121826 -1.2604081630706787 -0.3487016260623932 119
6.573060512542725 -1.2574455738067627 -0.11498534679412842 101
6.730888843536377 -1.2888563871383667 1.8247789144515991 101
6.683862686157227 -1.2810609340667725 1.5611039400100708 101
nan nan nan 0
6.298872470855713 -1.2095515727996826 1.0086716413497925 101
6.660681247711182 -1.2802339792251587 0.828102171421051 101
6.596760272979736 -1.269141674041748 0.584379255771637 101
6.6027631759643555 -1.2714917659759521 0.3503892123699188 101
6.482918739318848 -1.249586820602417 0.11457504332065582 101
1.8630441427230835 -0.3607894778251648 -0.4982268810272217 119
2.103732109069824 -0.40778106451034546 -0.4858945310115814 119
2.4708666801452637 -0.47939279675483704 -0.48136040568351746 119
2.9802072048187256 -0.5787538290023804 -0.4747789800167084 119
3.861715078353882 -0.7506413459777832 -0.47833770513534546 119
5.283756732940674 -1.028015375137329 -0.467591255903244 119
6.41390323638916 -1.249060034751892 -0.33931249380111694 0
6.401796340942383 -1.2478621006011963 -0.11204808205366135 101
6.351850986480713 -1.2392774820327759 1.7226120233535767 101
6.32072114944458 -1.234349012374878 1.4768110513687134 101
6.304637908935547 -1.2323505878448486 1.2400978803634644 101
6.289764881134033 -1.2305830717086792 1.0078903436660767 101
6.480843544006348 -1.2691417932510376 0.8061656355857849 101
6.421211242675781 -1.2586277723312378 0.5691269636154175 101
6.436593532562256 -1.2628093957901 0.3417537808418274 101
6.316634178161621 -1.2404192686080933 0.11169539391994476 101
1.8617734909057617 -0.36729052662849426 -0.4982268810272217 119
2.1022961139678955 -0.41512200236320496 -0.4858945310115814 119
2.4643630981445312 -0.48706310987472534 -0.4804072380065918 119
2.9781689643859863 -0.5891531705856323 -0.4747789800167084 119
3.85420298576355 -0.7631526589393616 -0.47772833704948425 119
5.2801361083984375 -1.0464528799057007 -0.467591255903244 119
6.24298095703125 -1.2384082078933716 -0.3304450213909149 0
6.240488529205322 -1.2390459775924683 -0.10928359627723694 101
6.323800563812256 -1.2567347288131714 1.716145634651184 101
6.3163743019104 -1.256404995918274 1.4768110513687134 101
6.29548454284668 -1.253391981124878 1.2391448020935059 101
6.193408012390137 -1.234192967414856 0.993045449256897 101
6.325501441955566 -1.2616639137268066 0.7872759699821472 101
6.26535701751709 -1.2508046627044678 0.5556178689002991 101
6.275463104248047 -1.253961205482483 0.3333800435066223 101
6.1504950523376465 -1.2301064729690552 0.1088157445192337 101
1.8604799509048462 -0.3737871050834656 -0.4982268810272217 119
2.1008341312408447 -0.42245787382125854 -0.4858945310115814 119
2.4626479148864746 -0.4956623911857605 -0.4804072380065918 119
2.9712531566619873 -0.5985700488090515 -0.4739968180656433 119
3.851515531539917 -0.7766017317771912 -0.47772833704948425 119
5.2862162590026855 -1.0668483972549438 -0.46846285462379456 119
6.1015777587890625 -1.2325104475021362 -0.3231423497200012 101
6.084222793579102 -1.2301100492477417 -0.10660550743341446 101
6.224697113037109 -1.2596421241760254 1.6902806758880615 101
6.206898212432861 -1.257167935371399 1.452085256576538 101
6.156378269195557 -1.248054027557373 1.2124555110931396 101
6.019663333892822 -1.2214323282241821 0.9656995534896851 101
6.170291900634766 -1.2531172037124634 0.76838618516922 101
6.114518165588379 -1.2429014444351196 0.5425444841384888 101
6.114474773406982 -1.2440038919448853 0.32500627636909485 101
5.999202728271484 -1.2216421365737915 0.10619788616895676 101
1.8544323444366455 -0.3793112635612488 -0.4969327747821808 119
2.09934663772583 -0.4297885596752167 -0.4858945310115814 119
2.460902690887451 -0.5042556524276733 -0.4804072380065918 119
2.9739832878112793 -0.609930157661438 -0.4747789800167084 119
3.8487813472747803 -0.7900413274765015 -0.47772833704948425 119
5.28734016418457 -1.0862966775894165 -0.46889862418174744 119
5.930949687957764 -1.219606876373291 -0.3142748475074768 101
5.932993412017822 -1.2211062908172607 -0.10401380062103271 101
6.068885326385498 -1.2501792907714844 1.64889657497406 101
6.059321403503418 -1.2493116855621338 1.4183681011199951 101
5.998159408569336 -1.2377926111221313 1.1819534301757812 101
5.899287700653076 -1.2184627056121826 0.9469481110572815 101
5.990921497344971 -1.2384793758392334 0.7464497089385986 101
5.958934783935547 -1.2329514026641846 0.5290353298187256 101
5.953634262084961 -1.232938289642334 0.3166325092315674 101
5.84804630279541 -1.2121366262435913 0.10358002781867981 101
1.8530969619750977 -0.3857821226119995 -0.4969327747821808 119
2.0978336334228516 -0.43711403012275696 -0.4858945310115814 119
2.454322576522827 -0.5118406414985657 -0.47945404052734375 119
2.976670265197754 -0.6213166117668152 -0.4755611717700958 119
3.850858211517334 -0.804486095905304 -0.47833770513534546 119
5.307892799377441 -1.109843373298645 -0.47107750177383423 119
5.8142476081848145 -1.2167779207229614 -0.3082762360572815 101
5.762330055236816 -1.2069625854492188 -0.10107652842998505 101
5.9084906578063965 -1.238653540611267 1.6062192916870117 101
5.8928046226501465 -1.2364388704299927 1.3801552057266235 101
5.859303951263428 -1.2304773330688477 1.1552642583847046 101
5.711345672607422 -1.2004462480545044 0.9172583222389221 101
5.855437755584717 -1.2317997217178345 0.7299973368644714 101
5.788875579833984 -1.218852162361145 0.5142189264297485 101
5.8027191162109375 -1.2228246927261353 0.3087821304798126 101
5.511148929595947 -1.1623858213424683 0.09764620661735535 101
1.8517390489578247 -0.3922483026981354 -0.4969327747821808 119
2.096295118331909 -0.44443416595458984 -0.4858945310115814 119
2.4525208473205566 -0.5204046964645386 -0.47945404052734375 119
2.979313850402832 -0.6327292323112488 -0.4763433039188385 119
3.8480265140533447 -0.8179232478141785 -0.47833770513534546 119
5.289371013641357 -1.1252553462982178 -0.4697701632976532 119
5.55601167678833 -1.18299400806427 -0.29471418261528015 101
5.469603061676025 -1.1655936241149902 -0.09597951173782349 101
5.724633693695068 -1.220986247062683 1.5570757389068604 101
5.716923713684082 -1.220384955406189 1.3396947383880615 101
5.566974639892578 -1.1893913745880127 1.09807288646698 101
5.480138301849365 -1.1718388795852661 0.8805367350578308 101
5.564784526824951 -1.1909548044204712 0.6940458416938782 101
5.502096176147461 -1.1785428524017334 0.4889436960220337 101
5.5005998611450195 -1.179226279258728 0.29281964898109436 101
5.438626289367676 -1.166933298110962 0.09642454236745834 101
1.8503586053848267 -0.3987097144126892 -0.4969327747821808 119
2.094730854034424 -0.45174887776374817 -0.4858945310115814 119
2.4554872512817383 -0.5299980044364929 -0.4804072380065918 119
2.986741304397583 -0.6452106833457947 -0.477907657623291 119
3.8499982357025146 -0.8323990702629089 -0.4789470434188843 119
5.2854108810424805 -1.1437119245529175 -0.4697701632976532 119
5.459126949310303 -1.1822998523712158 -0.2897588014602661 101
5.4166436195373535 -1.1740888357162476 -0.09511560946702957 101
5.474893093109131 -1.1877151727676392 1.4898265600204468 101
5.474573135375977 -1.1886463165283203 1.2834994792938232 101
5.442879676818848 -1.1827597618103027 1.074243187904358 101
5.42293119430542 -1.1794160604476929 0.8719423413276672 101
5.453911781311035 -1.1871509552001953 0.6806402802467346 101
5.439547061920166 -1.1850186586380005 0.48371434211730957 101
5.44278621673584 -1.186719298362732 0.2899411916732788 101
5.351487159729004 -1.1677913665771484 0.09494108706712723 101
1.848955512046814 -0.4051662087440491 -0.4969327747821808 119
2.097899913787842 -0.46010178327560425 -0.4870193302631378 119
2.453622341156006 -0.5385660529136658 -0.4804072380065918 119
2.984471082687378 -0.6556324362754822 -0.477907657623291 119
3.847069263458252 -0.8458330035209656 -0.4789470434188843 119
5.271657466888428 -1.1600136756896973 -0.46889862418174744 119
5.381822109222412 -1.1852399110794067 -0.28584668040275574 101
5.3685736656188965 -1.1833046674728394 -0.09433809667825699 101
5.39525032043457 -1.1901719570159912 1.4691345691680908 101
5.418057918548584 -1.1961948871612549 1.2711364030838013 101
5.395583152770996 -1.1922205686569214 1.065664529800415 101
5.3223395347595215 -1.1770108938217163 0.8563161492347717 101
5.391589641571045 -1.193312168121338 0.6733281016349792 101
5.362431526184082 -1.187840461730957 0.4771776795387268 101
5.336239814758301 -1.1830158233642578 0.2844459116458893 101
5.254647254943848 -1.1658893823623657 0.09328310191631317 101
1.8475298881530762 -0.41161781549453735 -0.4969327747821808 119
2.096281051635742 -0.4674220085144043 -0.4870193302631378 119
2.4517273902893066 -0.5471274852752686 -0.4804072380065918 119
2.9773447513580322 -0.664969801902771 -0.47712549567222595 119
3.8489365577697754 -0.8603392839431763 -0.4795564115047455 119
5.204384803771973 -1.164271593093872 -0.46323350071907043 119
5.270455837249756 -1.1800181865692139 -0.28010886907577515 101
5.232696533203125 -1.1725232601165771 -0.09200555831193924 101
5.32979679107666 -1.1952581405639648 1.452322244644165 101
5.295004844665527 -1.1884263753890991 1.2430387735366821 101
5.262087345123291 -1.1820030212402344 1.0399284362792969 101
5.2073774337768555 -1.170668363571167 0.8383459448814392 101
5.271190166473389 -1.1859806776046753 0.6587037444114685 101
5.241629123687744 -1.1802908182144165 0.46671900153160095 101
5.224915981292725 -1.177485704421997 0.2786889374256134 101
5.167640686035156 -1.1655259132385254 0.09179964661598206 101
1.8460818529129028 -0.4180643558502197 -0.4969327747821808 119
2.0946366786956787 -0.4747365713119507 -0.4870193302631378 119
2.4498026371002197 -0.5556822419166565 -0.4804072380065918 119
2.970189332962036 -0.6742653250694275 -0.4763433039188385 119
3.84591007232666 -0.8737693428993225 -0.4795564115047455 119
5.103148460388184 -1.1603436470031738 -0.4545178711414337 119
5.164061069488525 -1.17514169216156 -0.27463188767433167 101
5.101836204528809 -1.16191828250885 -0.08975940942764282 101
5.184319496154785 -1.1816552877426147 1.4135246276855469 101
5.205324172973633 -1.1873985528945923 1.222808599472046 101
5.17179536819458 -1.1806998252868652 1.0227710008621216 101
5.087710857391357 -1.1624380350112915 0.8195945620536804 101
5.1654229164123535 -1.1811422109603882 0.645907461643219 101
5.130657196044922 -1.1741349697113037 0.45713186264038086 101
5.094228744506836 -1.1667340993881226 0.2718852758407593 101
5.051465034484863 -1.1578679084777832 0.08979262411594391 101
1.8446112871170044 -0.4245058596134186 -0.4969327747821808 119
2.0929667949676514 -0.48204532265663147 -0.4870193302631378 119
2.447848081588745 -0.5642302632331848 -0.4804072380065918 119
2.967817544937134 -0.6846290826797485 -0.4763433039188385 119
3.842836618423462 -0.8871886730194092 -0.4795564115047455 119
5.026270866394043 -1.1613301038742065 -0.44798120856285095 119
5.052901268005371 -1.1684120893478394 -0.2688940763473511 101
4.980856895446777 -1.1526687145233154 -0.08768604695796967 101
5.100173473358154 -1.1812188625335693 1.391539454460144 101
5.091984272003174 -1.1802586317062378 1.1969587802886963 101
5.062453746795654 -1.174344778060913 1.0018008947372437 101
4.958545207977295 -1.1511530876159668 0.7992804646492004 101
5.054921627044678 -1.1744571924209595 0.6325019001960754 101
4.995535373687744 -1.1615784168243408 0.4453658163547516 101
4.983134746551514 -1.159611701965332 0.2661283314228058 101
4.9354071617126465 -1.1494132280349731 0.08778559416532516 101
1.843193531036377 -0.4306204915046692 -0.4969327747821808 119
2.091442108154297 -0.4886181652545929 -0.4870193302631378 119
2.446063280105591 -0.5719176530838013 -0.4804072380065918 119
2.9656519889831543 -0.6939493417739868 -0.4763433039188385 119
3.844862461090088 -0.9003884792327881 -0.4801657497882843 119
4.915907382965088 -1.1521104574203491 -0.43839403986930847 119
4.947119235992432 -1.1603362560272217 -0.2634170949459076 101
4.894472599029541 -1.1488893032073975 -0.08621741831302643 101
4.978890895843506 -1.1696220636367798 1.359208106994629 101
4.964939594268799 -1.1672590970993042 1.1677371263504028 101
4.9536261558532715 -1.1655116081237793 0.9808307886123657 101
4.873183727264404 -1.1474823951721191 0.7859981656074524 101
4.944937705993652 -1.165289044380188 0.6190962195396423 101
4.91914176940918 -1.1601165533065796 0.4388291537761688 101
4.926010608673096 -1.1626441478729248 0.26324984431266785 101
4.805272579193115 -1.1350327730178833 0.0855167880654335 101
1.837056040763855 -0.43561604619026184 -0.4956386983394623 119
2.089723825454712 -0.4959156811237335 -0.4870193302631378 119
2.4488275051116943 -0.5815866589546204 -0.48136040568351746 119
2.96321177482605 -0.7042972445487976 -0.4763433039188385 119
3.84169602394104 -0.9138041138648987 -0.4801657497882843 119
4.814944267272949 -1.146193504333496 -0.42967846989631653 119
4.841036319732666 -1.1532975435256958 -0.2579400837421417 101
4.793172836303711 -1.142778992652893 -0.0844896137714386 101
4.9137043952941895 -1.172422170639038 1.3423959016799927 101
4.875536918640137 -1.1642147302627563 1.1475069522857666 101
4.854050636291504 -1.1599797010421753 0.9617670178413391 101
4.7874956130981445 -1.1449581384658813 0.7727158665657043 101
4.825006008148193 -1.154819369316101 0.6044719219207764 101
4.827871322631836 -1.1563960313796997 0.43098512291908264 101
4.8490891456604 -1.1623731851577759 0.2593246400356293 101
4.7283616065979 -1.1343063116073608 0.08420785516500473 101
1.835447072982788 -0.4423462450504303 -0.4956386983394623 119
2.0878920555114746 -0.5035715699195862 -0.4870193302631378 119
2.451450824737549 -0.5917098522186279 -0.4823136329650879 119
2.9606103897094727 -0.715153157711029 -0.4763433039188385 119
3.8431448936462402 -0.9290446043014526 -0.4807750880718231 119
4.7138848304748535 -1.1404087543487549 -0.4209628999233246 119
4.744570255279541 -1.1487089395523071 -0.2529847323894501 101
4.701496601104736 -1.1391489505767822 -0.08293458819389343 101
4.796721935272217 -1.163107991218567 1.3113577365875244 101
4.776544570922852 -1.1590980291366577 1.1250288486480713 101
4.754372596740723 -1.1545964479446411 0.9427031874656677 101
4.701685428619385 -1.1426703929901123 0.7594336271286011 101
4.73876428604126 -1.1525578498840332 0.5941130518913269 101
4.736486434936523 -1.1528794765472412 0.42314115166664124 101
4.757472515106201 -1.1588671207427979 0.2546144127845764 101
4.6318888664245605 -1.129132866859436 0.08254987746477127 101
1.8338918685913086 -0.44875046610832214 -0.4956386983394623 119
2.0861217975616455 -0.5108566284179688 -0.4870193302631378 119
2.4493703842163086 -0.6002633571624756 -0.4823136329650879 119
2.9580960273742676 -0.7254832983016968 -0.4763433039188385 119
3.839878559112549 -0.9424540400505066 -0.4807750880718231 119
4.613131523132324 -1.1330937147140503 -0.41224730014801025 119
4.6435546875 -1.1414258480072021 -0.2477685511112213 101
4.605255603790283 -1.1328638792037964 -0.08129317313432693 101
4.675386428833008 -1.150981068611145 1.2790263891220093 101
4.692049026489258 -1.155951738357544 1.1059224605560303 101
4.659767150878906 -1.1488611698150635 0.9245926737785339 101
4.6209516525268555 -1.1401468515396118 0.7469326257705688 101
4.643169403076172 -1.1464885473251343 0.5825353860855103 101
4.645393371582031 -1.1478979587554932 0.41529712080955505 101
4.670997142791748 -1.1550897359848022 0.2501658499240875 101
4.535715579986572 -1.1224761009216309 0.08089189976453781 101
1.8276270627975464 -0.4539848864078522 -0.4943445920944214 119
2.0843257904052734 -0.5181354284286499 -0.4870193302631378 119
2.4520230293273926 -0.6099945306777954 -0.48326680064201355 119
2.9603378772735596 -0.736997663974762 -0.47712549567222595 119
3.8413805961608887 -0.9570516347885132 -0.48138442635536194 119
4.507654666900635 -1.1238845586776733 -0.40309593081474304 119
4.537804126739502 -1.1322429180145264 -0.24229156970977783 101
4.5091166496276855 -1.1259210109710693 -0.07965176552534103 101
4.657282829284668 -1.1637815237045288 1.275146722793579 101
4.617087364196777 -1.1545934677124023 1.0890638828277588 101
4.570022106170654 -1.1436713933944702 0.9074352383613586 101
4.497178077697754 -1.126275897026062 0.7273998856544495 101
4.552490234375 -1.1409727334976196 0.5715672373771667 101
4.539900302886963 -1.1386595964431763 0.40614575147628784 101
4.555549144744873 -1.1434296369552612 0.24414722621440887 101
4.449342727661133 -1.1175976991653442 0.0794084444642067 101
1.8260310888290405 -0.4603617191314697 -0.4943445920944214 119
2.0825042724609375 -0.5254079103469849 -0.4870193302631378 119
2.4498789310455322 -0.6185499429702759 -0.48326680064201355 119
2.957747220993042 -0.747326672077179 -0.47712549567222595 119
3.8428280353546143 -0.9716713428497314 -0.48199379444122314 119
4.416785717010498 -1.1176186800003052 -0.39525189995765686 119
4.446696758270264 -1.126012921333313 -0.2375970035791397 101
4.422775745391846 -1.1207771301269531 -0.0781831294298172 101
4.5642409324646 -1.1574736833572388 1.2505749464035034 101
4.509137153625488 -1.1443372964859009 1.064337968826294 101
4.475614070892334 -1.136661171913147 0.8893246650695801 101
4.383131504058838 -1.1139880418777466 0.7094298005104065 101
4.461906433105469 -1.1348379850387573 0.5605989694595337 101
4.449010848999023 -1.1323847770690918 0.39830172061920166 101
4.4547576904296875 -1.1346755027770996 0.2389136403799057 101
4.348527908325195 -1.1084258556365967 0.07766320556402206 101
1.8244130611419678 -0.4667329490184784 -0.4943445920944214 119
2.080657720565796 -0.5326740145683289 -0.4870193302631378 119
2.447704792022705 -0.6270978450775146 -0.48326680064201355 119
2.95512056350708 -0.7576465606689453 -0.47712549567222595 119
3.8394129276275635 -0.9850793480873108 -0.48199379444122314 119
4.282596588134766 -1.0995838642120361 -0.38348588347435 119
4.307328224182129 -1.1067352294921875 -0.2302943468093872 101
4.297792911529541 -1.1050848960876465 -0.07602337747812271 101
4.452590465545654 -1.1457163095474243 1.2208300828933716 101
4.410752773284912 -1.135771632194519 1.0418598651885986 101
4.395570278167725 -1.1326802968978882 0.8740736842155457 101
4.278791427612305 -1.1033843755722046 0.6930222511291504 101
4.371422290802002 -1.1280850172042847 0.5496307015419006 101
4.334107398986816 -1.119262456893921 0.3882788419723511 101
4.334745407104492 -1.1202343702316284 0.2326333075761795 101
4.238152027130127 -1.0960607528686523 0.07574343681335449 101
1.822772741317749 -0.4730985462665558 -0.4943445920944214 119
2.0787856578826904 -0.5399336218833923 -0.4870193302631378 119
2.44075083732605 -0.6344034075737 -0.4823136329650879 119
2.952457904815674 -0.7679572105407715 -0.47712549567222595 119
3.8407535552978516 -0.9997255802154541 -0.48260313272476196 119
4.191970348358154 -1.0919264554977417 -0.3756418228149414 119
4.2357940673828125 -1.1041312217712402 -0.22664301097393036 101
4.192324161529541 -1.0935814380645752 -0.07420918345451355 101
4.369118690490723 -1.1405134201049805 1.1988447904586792 101
4.293628692626953 -1.121608018875122 1.0148861408233643 101
4.244379043579102 -1.1095340251922607 0.8445248007774353 101
4.17935848236084 -1.0933161973953247 0.6773960590362549 101
4.24263334274292 -1.1106599569320679 0.533787727355957 101
4.195260047912598 -1.0990407466888428 0.3760770559310913 101
4.195570945739746 -1.0999047756195068 0.22530627250671387 101
4.1811089515686035 -1.0968934297561646 0.074783556163311 101
1.8211102485656738 -0.4794583320617676 -0.4943445920944214 119
2.0768883228302 -0.5471866726875305 -0.4870193302631378 119
2.438521385192871 -0.6429193615913391 -0.4823136329650879 119
2.9545342922210693 -0.7795183062553406 -0.477907657623291 119
3.83724045753479 -1.0131261348724365 -0.48260313272476196 119
4.1640543937683105 -1.10019052028656 -0.3734629154205322 119
4.18364143371582 -1.1061469316482544 -0.22403493523597717 101
4.169149398803711 -1.1030938625335693 -0.07386362552642822 101
4.197028160095215 -1.1112538576126099 1.1522877216339111 101
4.181368350982666 -1.1078885793685913 0.9890363812446594 101
4.1740593910217285 -1.1067317724227905 0.831180214881897 101
4.165969371795654 -1.1053650379180908 0.6758334040641785 101
4.171579360961914 -1.1076328754425049 0.525256872177124 101
4.172142505645752 -1.1085618734359741 0.374333918094635 101
4.172403812408447 -1.1094110012054443 0.22425955533981323 101
4.167592525482178 -1.1089106798171997 0.07460903376340866 101
1.8194254636764526 -0.485812246799469 -0.4943445920944214 119
2.074965476989746 -0.5544330477714539 -0.4870193302631378 119
2.436262369155884 -0.6514274477958679 -0.4823136329650879 119
2.9517951011657715 -0.7898268699645996 -0.477907657623291 119
3.8336806297302246 -1.0265145301818848 -0.48260313272476196 119
4.102453231811523 -1.0992491245269775 -0.3682335913181305 119
4.165286064147949 -1.1168643236160278 -0.22325249016284943 101
4.136302471160889 -1.1098664999008179 -0.07334527373313904 101
4.174465179443359 -1.1208875179290771 1.1471147537231445 101
4.168065071105957 -1.1199491024017334 0.9867885112762451 101
4.160690784454346 -1.118746280670166 0.8292738199234009 101
4.133471965789795 -1.1122010946273804 0.6711456179618835 101
4.1581034660339355 -1.1196069717407227 0.5240381360054016 101
4.163437843322754 -1.121822714805603 0.37389814853668213 101
4.163684844970703 -1.122668743133545 0.22399787604808807 101
4.154043197631836 -1.1208468675613403 0.07443451136350632 101
1.8223804235458374 -0.4934224784374237 -0.4956386983394623 119
2.0730175971984863 -0.5616726279258728 -0.4870193302631378 119
2.433973550796509 -0.6599276661872864 -0.4823136329650879 119
2.9490201473236084 -0.8001257181167603 -0.477907657623291 119
3.8300740718841553 -1.0398902893066406 -0.48260313272476196 119
4.055330753326416 -1.101809024810791 -0.364311546087265 119
4.151725769042969 -1.128777027130127 -0.22273088991641998 101
4.10345983505249 -1.116423487663269 -0.07282692939043045 101
4.170527458190918 -1.135452389717102 1.1471147537231445 101
4.1312255859375 -1.125526785850525 0.9789212346076965 101
4.114140510559082 -1.1216434240341187 0.8206951022148132 101
4.1295647621154785 -1.1266229152679443 0.6711456179618835 101
4.158957481384277 -1.1354217529296875 0.5246474742889404 101
4.149886608123779 -1.1337236166000366 0.3730265498161316 101
4.140474796295166 -1.1319290399551392 0.22295115888118744 101
4.0729522705078125 -1.1142336130142212 0.07303831726312637 101
1.8206470012664795 -0.4997807741165161 -0.4956386983394623 119
2.0710442066192627 -0.5689053535461426 -0.4870193302631378 119
2.431655168533325 -0.6684197783470154 -0.4823136329650879 119
2.9414477348327637 -0.8091051578521729 -0.47712549567222595 119
3.826420783996582 -1.0532532930374146 -0.48260313272476196 119
4.003438949584961 -1.1027307510375977 -0.35995379090309143 0
4.080368518829346 -1.12468683719635 -0.21907955408096313 101
4.036887168884277 -1.1134600639343262 -0.07170386612415314 101
4.110668659210205 -1.1345828771591187 1.1315957307815552 101
4.108486652374268 -1.1347521543502808 0.9744256138801575 101
4.091277122497559 -1.130767583847046 0.8168823719024658 101
4.049448013305664 -1.1199674606323242 0.6586445569992065 101
4.097573757171631 -1.134047508239746 0.5173353552818298 101
4.078700065612793 -1.1295905113220215 0.3669256865978241 101
4.059510231018066 -1.125038743019104 0.2187642902135849 101
4.030498504638672 -1.1177562475204468 0.0723402202129364 101
1.8188912868499756 -0.506132960319519 -0.4956386983394623 119
2.0690457820892334 -0.5761312246322632 -0.4870193302631378 119
2.429307222366333 -0.6769037842750549 -0.4823136329650879 119
2.938605546951294 -0.8193677663803101 -0.47712549567222595 119
3.822721004486084 -1.066603660583496 -0.48260313272476196 119
3.9467926025390625 -1.1019643545150757 -0.3551601767539978 0
4.018709659576416 -1.1227998733520508 -0.21594984829425812 101
3.9800145626068115 -1.1127376556396484 -0.0707535669207573 101
4.050868511199951 -1.1333093643188477 1.1160767078399658 101
4.038817405700684 -1.1306980848312378 0.958690881729126 101
4.016409873962402 -1.1251808404922485 0.8025845885276794 101
4.002717018127441 -1.1220983266830444 0.6516128182411194 101
4.007580757141113 -1.1242163181304932 0.5063670873641968 101
4.021980285644531 -1.129012942314148 0.36213210225105286 101
4.017101764678955 -1.1283997297286987 0.21667084097862244 101
3.954381227493286 -1.111526370048523 0.07103128731250763 101
1.8171133995056152 -0.5124790072441101 -0.4956386983394623 119
2.0670220851898193 -0.5833500027656555 -0.4870193302631378 119
2.431652784347534 -0.6867133975028992 -0.48326680064201355 119
2.935727596282959 -0.8296204209327698 -0.47712549567222595 119
3.818974494934082 -1.0799410343170166 -0.48260313272476196 119
3.8949944972991943 -1.1021723747253418 -0.3508024215698242 0
3.9571144580841064 -1.1204965114593506 -0.2128201425075531 101
3.9135777950286865 -1.1089063882827759 -0.06963049620389938 101
3.9957737922668457 -1.1329500675201416 1.1018508672714233 101
3.9786012172698975 -1.1288312673568726 0.9452040791511536 101
3.960519313812256 -1.1244478225708008 0.7920994162559509 101
3.9275171756744385 -1.1158188581466675 0.639893114566803 101
3.9558966159820557 -1.124627709388733 0.5002736449241638 101
3.9509427547454834 -1.123964786529541 0.356031209230423 101
3.941103219985962 -1.1219091415405273 0.21274566650390625 101
3.887974262237549 -1.1075185537338257 0.0698968842625618 101
1.8153135776519775 -0.5188187956809998 -0.4956386983394623 119
2.0649733543395996 -0.5905617475509644 -0.4870193302631378 119
2.4292409420013428 -0.6951972842216492 -0.48326680064201355 119
2.937561273574829 -0.8412224650382996 -0.477907657623291 119
3.810410737991333 -1.091897964477539 -0.48199379444122314 119
3.8384552001953125 -1.1006593704223633 -0.346008837223053 101
3.8955845832824707 -1.1177767515182495 -0.20969043672084808 101
3.8568270206451416 -1.107384443283081 -0.06868020445108414 101
3.926806688308716 -1.1282191276550293 1.0837453603744507 101
3.9137661457061768 -1.1252118349075317 0.9305932521820068 101
3.899965763092041 -1.1219813823699951 0.7806611657142639 101
3.8619022369384766 -1.1117606163024902 0.6297361254692078 101
3.894721031188965 -1.1219446659088135 0.49296149611473083 101
3.8752031326293945 -1.1170547008514404 0.3494945168495178 101
3.8747944831848145 -1.1176694631576538 0.209343820810318 101
3.826446056365967 -1.1044468879699707 0.06884974241256714 101
1.8134914636611938 -0.5251522064208984 -0.4956386983394623 119
2.0582199096679688 -0.5964102745056152 -0.4858945310115814 119
2.4267992973327637 -0.7036726474761963 -0.48326680064201355 119
2.9440925121307373 -0.8542236089706421 -0.47947201132774353 119
3.7875123023986816 -1.0996572971343994 -0.4795564115047455 119
3.777191400527954 -1.097375512123108 -0.34077948331832886 101
3.8389172554016113 -1.1160352230072021 -0.20682154595851898 101
3.785734176635742 -1.1012905836105347 -0.0674707442522049 101
3.8671958446502686 -1.1257202625274658 1.0682263374328613 101
3.853682518005371 -1.1225162744522095 0.9171064496040344 101
3.839479446411133 -1.1191060543060303 0.7692229151725769 101
3.7963643074035645 -1.1072583198547363 0.6195790767669678 101
3.833613157272339 -1.118848443031311 0.48564931750297546 101
3.823467969894409 -1.1166115999221802 0.34513673186302185 101
3.8085644245147705 -1.1129807233810425 0.20594197511672974 101
3.760190010070801 -1.0995564460754395 0.06771533191204071 101
1.8116471767425537 -0.5314792990684509 -0.4956386983394623 119
2.0561256408691406 -0.6035911440849304 -0.4858945310115814 119
2.424328327178955 -0.7121394872665405 -0.48326680064201355 119
2.950568914413452 -0.8672806024551392 -0.48103639483451843 119
3.764606475830078 -1.1072700023651123 -0.4771190285682678 119
3.720776319503784 -1.0950839519500732 -0.3359858989715576 101
3.772731065750122 -1.1110906600952148 -0.20343102514743805 101
3.724322557449341 -1.0975406169891357 -0.06643406301736832 101
3.803018569946289 -1.1214532852172852 1.051414132118225 101
3.7889935970306396 -1.1180363893508911 0.9024956226348877 101
3.7790608406066895 -1.1158225536346436 0.7577846646308899 101
3.7403781414031982 -1.1051106452941895 0.6109846830368042 101
3.7678160667419434 -1.1139322519302368 0.4777278006076813 101
3.76223087310791 -1.1129951477050781 0.33990737795829773 101
3.751990795135498 -1.11067795753479 0.203063502907753 101
3.70839524269104 -1.0984766483306885 0.0668427124619484 101
1.8097809553146362 -0.5377998948097229 -0.4956386983394623 119
2.0493361949920654 -0.6093761324882507 -0.4847698211669922 119
2.421827793121338 -0.7205976843833923 -0.48326680064201355 119
2.9569900035858154 -0.8803932070732117 -0.48260071873664856 119
3.741694211959839 -1.1147363185882568 -0.4746816158294678 119
3.6930642127990723 -1.1009502410888672 -0.3338070213794708 101
3.7066264152526855 -1.105697751045227 -0.20004050433635712 101
3.696516752243042 -1.1033847332000732 -0.06600210815668106 101
3.7389187812805176 -1.116752028465271 1.0346018075942993 101
3.743055820465088 -1.118699312210083 0.8923805356025696 101
3.714010238647461 -1.1107244491577148 0.7453932166099548 101
3.679722785949707 -1.1011701822280884 0.60160893201828 101
3.7021007537841797 -1.1085708141326904 0.4698063135147095 101
3.6962947845458984 -1.1075353622436523 0.3342422544956207 101
3.6954798698425293 -1.1079940795898438 0.20018501579761505 101
3.6901729106903076 -1.1071048974990845 0.06658092141151428 101
1.812517523765564 -0.5455058217048645 -0.4969327747821808 119
2.051861524581909 -0.6179308295249939 -0.4858945310115814 119
2.419297695159912 -0.7290470004081726 -0.48326680064201355 119
2.9538989067077637 -0.890709638595581 -0.48260071873664856 119
3.7235264778137207 -1.1234898567199707 -0.47285357117652893 119
3.6891984939575195 -1.1138347387313843 -0.3338070213794708 101
3.6884050369262695 -1.11429762840271 -0.19925807416439056 101
3.6830718517303467 -1.113387942314148 -0.0658293291926384 101
3.684144973754883 -1.114414095878601 1.0203759670257568 101
3.6785073280334473 -1.1134096384048462 0.8777697682380676 101
3.67722749710083 -1.113722801208496 0.7387209534645081 101
3.675856590270996 -1.1140080690383911 0.60160893201828 101
3.6792118549346924 -1.1157259941101074 0.4673689007759094 101
3.6876401901245117 -1.1189846992492676 0.33380648493766785 101
3.686812162399292 -1.1194363832473755 0.1999233514070511 101
3.6862857341766357 -1.1199792623519897 0.06658092141151428 101
1.8106021881103516 -0.5518293380737305 -0.4969327747821808 119
2.054352045059204 -0.626510500907898 -0.4870193302631378 119
2.4167380332946777 -0.7374875545501709 -0.48326680064201355 119
2.9507718086242676 -0.9010152816772461 -0.48260071873664856 119
3.7053439617156982 -1.1321302652359009 -0.4710255563259125 119
3.6852879524230957 -1.1267056465148926 -0.3338070213794708 101
3.684492826461792 -1.1271657943725586 -0.19925807416439056 101
3.683943271636963 -1.1277008056640625 -0.06591571867465973 108
3.6848504543304443 -1.1286817789077759 1.0216692686080933 108
3.6792564392089844 -1.1276708841323853 0.8788936138153076 108
3.6639323234558105 -1.123673677444458 0.736814558506012 108
3.671945571899414 -1.1268324851989746 0.60160893201828 108
3.67055082321167 -1.1271053552627563 0.4667595624923706 108
3.678950309753418 -1.1303871870040894 0.33337071537971497 108
3.6781094074249268 -1.1308314800262451 0.19966165721416473 108
3.682353973388672 -1.1328399181365967 0.06658092141151428 108
1.8132798671722412 -0.5595703125 -0.4982268810272217 119
2.056807518005371 -0.6351150870323181 -0.48814404010772705 119
2.414149045944214 -0.7459190487861633 -0.48326680064201355 119
2.942890167236328 -0.9098511338233948 -0.4818185567855835 119
3.7061102390289307 -1.1465239524841309 -0.4716348946094513 0
3.681332588195801 -1.139562726020813 -0.3338070213794708 108
3.6757659912109375 -1.1385427713394165 -0.19899725914001465 108
3.6799845695495605 -1.1405532360076904 -0.06591571867465973 108
3.662436008453369 -1.135814905166626 1.016496181488037 108
3.670644760131836 -1.1390631198883057 0.8777697682380676 108
3.669362783432007 -1.1393673419952393 0.7387209534645081 108
3.667989730834961 -1.1396430730819702 0.60160893201828 108
3.671332836151123 -1.1413843631744385 0.4673689007759094 108
3.6797382831573486 -1.1447018384933472 0.33380648493766785 108
3.6741397380828857 -1.1436635255813599 0.19966165721416473 108
3.678377151489258 -1.1456868648529053 0.06658092141151428 108
1.8113155364990234 -0.5658964514732361 -0.4982268810272217 119
2.0545780658721924 -0.6422908902168274 -0.48814404010772705 119
2.4115304946899414 -0.7543413639068604 -0.48326680064201355 119
2.9396963119506836 -0.9201181530952454 -0.4818185567855835 119
3.7068216800689697 -1.160936951637268 -0.4722442328929901 0
3.6820855140686035 -1.1538957357406616 -0.3342427909374237 108
3.6765341758728027 -1.1528606414794922 -0.19925807416439056 108
3.680750846862793 -1.1548885107040405 -0.06600210815668106 108
3.6630568504333496 -1.1500390768051147 1.0177894830703735 108
3.6619982719421387 -1.1504088640213013 0.8766458630561829 108
3.665363311767578 -1.152168869972229 0.7387209534645081 108
3.663989305496216 -1.1524397134780884 0.60160893201828 108
3.6673264503479004 -1.1541928052902222 0.4673689007759094 108
3.675719976425171 -1.1575396060943604 0.33380648493766785 108
3.6748876571655273 -1.1579824686050415 0.1999233514070511 108
3.6743555068969727 -1.1585198640823364 0.06658092141151428 108
1.8093291521072388 -0.5722156763076782 -0.4982268810272217 119
2.052323579788208 -0.6494587063789368 -0.48814404010772705 119
2.4088828563690186 -0.7627546787261963 -0.48326680064201355 119
2.936466693878174 -0.9303740859031677 -0.4818185567855835 119
3.702746629714966 -1.1738691329956055 -0.4722442328929901 0
3.678035259246826 -1.1667414903640747 -0.3342427909374237 108
3.672487497329712 -1.1656872034072876 -0.19925807416439056 108
3.681461811065674 -1.1692429780960083 -0.06608849763870239 108
3.663623094558716 -1.1642813682556152 1.01908278465271 108
3.667245864868164 -1.1661373376846313 0.8788936138153076 108
3.6613190174102783 -1.1649563312530518 0.7387209534645081 108
3.6599442958831787 -1.165222406387329 0.60160893201828 108
3.668003797531128 -1.1684935092926025 0.46797826886177063 108
3.6764025688171387 -1.1718759536743164 0.3342422544956207 108
3.6755800247192383 -1.1723203659057617 0.20018501579761505 108
3.6702890396118164 -1.1713385581970215 0.06658092141151428 108
1.8027210235595703 -0.5770555138587952 -0.4969327747821808 119
2.050044059753418 -0.6566187739372253 -0.48814404010772705 119
2.406205654144287 -0.7711585760116577 -0.48326680064201355 119
2.9284987449645996 -0.939110517501831 -0.48103639483451843 119
3.7033517360687256 -1.1883032321929932 -0.47285357117652893 0
3.678682804107666 -1.181095838546753 -0.3346785604953766 108
3.673149824142456 -1.1800265312194824 -0.19951887428760529 108
3.6773576736450195 -1.18208646774292 -0.06608849763870239 108
3.6641347408294678 -1.178541660308838 1.0203759670257568 108
3.667790651321411 -1.1804239749908447 0.8800175786018372 108
3.6572303771972656 -1.177729606628418 0.7387209534645081 108
3.660555124282837 -1.1795055866241455 0.6023902893066406 108
3.668626070022583 -1.1828129291534424 0.46858760714530945 108
3.6722896099090576 -1.1847018003463745 0.3342422544956207 108
3.6762173175811768 -1.1866772174835205 0.2004467099905014 108
3.6709353923797607 -1.1856799125671387 0.06666819006204605 108
1.800797462463379 -0.5830303430557251 -0.4969327747821808 119
2.04797101020813 -0.6630558371543884 -0.48814404010772705 119
2.399101972579956 -0.7772014141082764 -0.4823136329650879 119
2.9255340099334717 -0.9483060240745544 -0.48103639483451843 119
3.6996004581451416 -1.1999317407608032 -0.47285357117652893 0
3.6749541759490967 -1.192646861076355 -0.3346785604953766 108
3.669424533843994 -1.1915602684020996 -0.19951887428760529 108
3.6783807277679443 -1.1951782703399658 -0.06617489457130432 108
3.660414218902588 -1.1900469064712524 1.0203759670257568 108
3.6686973571777344 -1.1934479475021362 0.8811414241790771 108
3.658179521560669 -1.190732479095459 0.7396740913391113 108
3.6568315029144287 -1.1909997463226318 0.6023902893066406 108
3.6648919582366943 -1.194332480430603 0.46858760714530945 108
3.673285484313965 -1.1977770328521729 0.334678053855896 108
3.672471046447754 -1.1982206106185913 0.2004467099905014 108
3.6671924591064453 -1.1972064971923828 0.06666819006204605 108
1.794264316558838 -0.5874959826469421 -0.4956386983394623 119
2.0456440448760986 -0.6702006459236145 -0.48814404010772705 119
2.396374225616455 -0.7855711579322815 -0.4823136329650879 119
2.922205924987793 -0.9585123658180237 -0.48103639483451843 119
3.7001047134399414 -1.214385986328125 -0.47346293926239014 0
3.6755011081695557 -1.207021713256836 -0.33511435985565186 108
3.6699867248535156 -1.2059204578399658 -0.1997796893119812 108
3.6741862297058105 -1.2080110311508179 -0.06617489457130432 108
3.660825729370117 -1.2043262720108032 1.0216692686080933 108
3.6645090579986572 -1.2062468528747559 0.8811414241790771 108
3.654000759124756 -1.203494668006897 0.7396740913391113 108
3.6573421955108643 -1.2053028345108032 0.6031715869903564 108
3.6654136180877686 -1.2086721658706665 0.46919694542884827 108
3.6690821647644043 -1.2105919122695923 0.334678053855896 108
3.6730072498321533 -1.2125978469848633 0.20070837438106537 108
3.6677379608154297 -1.2115681171417236 0.06675545126199722 108
1.7875146865844727 -0.592548668384552 -0.4943445920944214 119
2.0431740283966064 -0.677693784236908 -0.48814404010772705 119
2.3934788703918457 -0.7943490147590637 -0.4823136329650879 119
2.918673038482666 -0.9692163467407227 -0.48103639483451843 119
3.6956286430358887 -1.2279393672943115 -0.47346293926239014 0
3.675778865814209 -1.2220563888549805 -0.33555012941360474 108
3.6702799797058105 -1.2209396362304688 -0.20004050433635712 108
3.6744771003723145 -1.223048210144043 -0.06626127660274506 108
3.6609694957733154 -1.219261884689331 1.0229625701904297 108
3.6646857261657715 -1.2212101221084595 0.8822653889656067 108
3.654221534729004 -1.218431830406189 0.7406273484230042 108
3.6575849056243896 -1.2202626466751099 0.6039528846740723 108
3.665666341781616 -1.2236698865890503 0.4698063135147095 108
3.669344902038574 -1.2256096601486206 0.33511385321617126 108
3.6685383319854736 -1.226051926612854 0.20070837438106537 108
3.6632728576660156 -1.2250028848648071 0.06675545126199722 108
1.7854353189468384 -0.5987846851348877 -0.4943445920944214 119
2.036177158355713 -0.6832717657089233 -0.4870193302631378 119
2.3906915187835693 -0.8026989698410034 -0.4823136329650879 119
2.9152722358703613 -0.9793984293937683 -0.48103639483451843 119
3.6913199424743652 -1.2408322095870972 -0.47346293926239014 0
3.6714906692504883 -1.2348798513412476 -0.33555012941360474 108
3.6659955978393555 -1.2337437868118286 -0.20004050433635712 108
3.6701855659484863 -1.2358671426773071 -0.06626127660274506 108
3.656691074371338 -1.2320337295532227 1.0229625701904297 108
3.660400390625 -1.2339948415756226 0.8822653889656067 108
3.6499462127685547 -1.23117995262146 0.7406273484230042 108
3.6533031463623047 -1.2330224514007568 0.6039528846740723 108
3.666074514389038 -1.2380458116531372 0.4704156517982483 108
3.6650445461273193 -1.238410472869873 0.33511385321617126 108
3.66896653175354 -1.2404494285583496 0.20097006857395172 108
3.663710117340088 -1.2393847703933716 0.0668427124619484 108
1.7833343744277954 -0.605013370513916 -0.4943445920944214 119
2.0337796211242676 -0.6903751492500305 -0.4870193302631378 119
2.3925223350524902 -0.8126175999641418 -0.48326680064201355 119
2.9118356704711914 -0.9895687103271484 -0.48103639483451843 119
3.691664457321167 -1.2553073167800903 -0.47407227754592896 0
3.6718733310699463 -1.2492924928665161 -0.3359858989715576 108
3.666393756866455 -1.2481422424316406 -0.20030131936073303 108
3.670581579208374 -1.250282883644104 -0.06634767353534698 108
3.656939744949341 -1.2463483810424805 1.0242557525634766 108
3.66068172454834 -1.248336911201477 0.8833892345428467 108
3.6502716541290283 -1.2454980611801147 0.7415804862976074 108
3.6536505222320557 -1.2473630905151367 0.6047341823577881 108
3.6617307662963867 -1.2508352994918823 0.4704156517982483 108
3.665412425994873 -1.2528072595596313 0.33554959297180176 108
3.6693387031555176 -1.2548646926879883 0.20123174786567688 108
3.6640913486480713 -1.2537842988967896 0.06692997366189957 108
1.7857798337936401 -0.612802267074585 -0.4956386983394623 119
2.031357526779175 -0.6974701881408691 -0.4870193302631378 119
2.3896713256835938 -0.8209640979766846 -0.48326680064201355 119
2.903693199157715 -0.998121440410614 -0.480254203081131 119
3.691953420639038 -1.269800066947937 -0.4746816158294678 0
3.6721999645233154 -1.2637230157852173 -0.3364216685295105 108
3.6667356491088867 -1.2625583410263062 -0.20056213438510895 108
3.6661951541900635 -1.2630878686904907 -0.06634767353534698 108
3.657133102416992 -1.2606799602508545 1.025549054145813 108
3.656301975250244 -1.2611075639724731 0.8833892345428467 108
3.6505415439605713 -1.2598336935043335 0.7425336837768555 108
3.6492741107940674 -1.2601090669631958 0.6047341823577881 108
3.6620330810546875 -1.2652301788330078 0.4710249900817871 108
3.6610167026519775 -1.2655943632125854 0.33554959297180176 108
3.664936065673828 -1.2676653861999512 0.20123174786567688 108
3.6596922874450684 -1.2665667533874512 0.06692997366189957 108
1.769942045211792 -0.6142815351486206 -0.491756409406662 119
