# .PCD v0.7 - Point Cloud Data file format
VERSION 0.7
FIELDS x y z intensity
SIZE 4 4 4 4
TYPE F F F F
COUNT 1 1 1 1
WIDTH 777
HEIGHT 1
VIEWPOINT 0 0 0 1 0 0 0
POINTS 777
DATA ascii
-0.45127299427986145 -7.640844345092773 0.666305661201477 111
-0.4525262117385864 -7.639409065246582 0.3990616500377655 111
-0.45292800664901733 -7.623650074005127 0.13263827562332153 111
nan nan nan 0
nan nan nan 0
-0.4627879559993744 -7.6321001052856445 -1.477442979812622 111
-0.46365827322006226 -7.624426364898682 -1.2037642002105713 111
-0.46605610847473145 -7.641842842102051 -0.9353482127189636 111
-0.46666672825813293 -7.629938125610352 -0.6654351353645325 111
-0.46730664372444153 -7.6185784339904785 -0.3966904878616333 111
-0.4698161780834198 -7.637677192687988 -0.13157227635383606 111
-0.30657437443733215 -4.9697442054748535 1.322996973991394 114
-0.3218390643596649 -5.202418327331543 1.193587064743042 114
-0.3366801142692566 -5.4269490242004395 1.0485070943832397 114
-0.3550279140472412 -5.7065815925598145 0.8985068798065186 114
-0.35620835423469543 -5.709475517272949 0.6977019906044006 114
-0.47763073444366455 -7.634251117706299 0.6658698916435242 111
-0.47918999195098877 -7.637783050537109 0.3990616500377655 111
-0.4795367419719696 -7.62202262878418 0.13263827562332153 111
nan nan nan 0
nan nan nan 0
-0.4894261658191681 -7.630438327789307 -1.477442979812622 111
-0.49026966094970703 -7.622761249542236 -1.2037642002105713 111
-0.49272826313972473 -7.640169143676758 -0.9353482127189636 111
-0.4932973384857178 -7.628262519836426 -0.6654351353645325 111
-0.49389755725860596 -7.61690092086792 -0.3966904878616333 111
-0.4964737892150879 -7.635990619659424 -0.13157227635383606 111
-0.3239201307296753 -4.968644142150879 1.322996973991394 114
-0.33999690413475037 -5.201262950897217 1.193587064743042 114
-0.35562166571617126 -5.425741195678711 1.0485070943832397 114
-0.3749454617500305 -5.705307483673096 0.8985068798065186 114
-0.3761359453201294 -5.708197593688965 0.6977019906044006 114
-0.5042763352394104 -7.632537364959717 0.6658698916435242 111
-0.5058478713035583 -7.636063575744629 0.3990616500377655 111
-0.5061396360397339 -7.620302200317383 0.13263827562332153 111
nan nan nan 0
nan nan nan 0
-0.5160583853721619 -7.628683090209961 -1.477442979812622 111
-0.5168750882148743 -7.6210036277771 -1.2037642002105713 111
-0.5193944573402405 -7.638402938842773 -0.9353482127189636 111
-0.5199219584465027 -7.626494407653809 -0.6654351353645325 111
-0.5208229422569275 -7.620111465454102 -0.396951287984848 111
-0.5231253504753113 -7.63421106338501 -0.13157227635383606 111
-0.34126198291778564 -4.967483043670654 1.322996973991394 114
-0.3581506311893463 -5.200044631958008 1.193587064743042 114
-0.37455883622169495 -5.424466609954834 1.0485070943832397 114
-0.3948584198951721 -5.7039642333984375 0.8985068798065186 114
-0.3960590064525604 -5.706850051879883 0.6977019906044006 114
-0.5309157371520996 -7.630730152130127 0.6658698916435242 111
-0.5324996709823608 -7.634251594543457 0.3990616500377655 111
-0.5327364206314087 -7.6184892654418945 0.13263827562332153 111
nan nan nan 0
nan nan nan 0
-0.5426843166351318 -7.626835346221924 -1.477442979812622 111
-0.5434741973876953 -7.619152545928955 -1.2037642002105713 111
-0.5460543036460876 -7.636543273925781 -0.9353482127189636 111
-0.5465402007102966 -7.624633312225342 -0.6654351353645325 111
-0.5474189519882202 -7.618247032165527 -0.396951287984848 111
-0.5497704744338989 -7.632338523864746 -0.13157227635383606 111
-0.3585996627807617 -4.966261386871338 1.322996973991394 114
-0.3759482502937317 -5.193902969360352 1.1924631595611572 114
-0.3934914767742157 -5.423125743865967 1.0485070943832397 114
-0.4147665500640869 -5.702550888061523 0.8985068798065186 114
-0.41597723960876465 -5.705432891845703 0.6977019906044006 114
-0.5575487613677979 -7.628830432891846 0.6658698916435242 111
-0.559144914150238 -7.632346153259277 0.3990616500377655 111
-0.5593266487121582 -7.616582870483398 0.13263827562332153 111
nan nan nan 0
nan nan nan 0
-0.5696690678596497 -7.629788875579834 -1.4783960580825806 111
-0.5700666904449463 -7.617209434509277 -1.2037642002105713 111
-0.57270747423172 -7.6345906257629395 -0.9353482127189636 111
-0.5731517672538757 -7.622678279876709 -0.6654351353645325 111
-0.574383556842804 -7.621269226074219 -0.39721211791038513 111
-0.5760324001312256 -7.625387668609619 -0.13148587942123413 111
-0.3759329319000244 -4.96497917175293 1.322996973991394 114
-0.39407607913017273 -5.192559242248535 1.1924631595611572 114
-0.4124193489551544 -5.421719074249268 1.0485070943832397 114
-0.4346696436405182 -5.70106840133667 0.8985068798065186 114
-0.4358903467655182 -5.703945636749268 0.6977019906044006 114
-0.5841749310493469 -7.626838207244873 0.6658698916435242 111
-0.5857833623886108 -7.630347728729248 0.3990616500377655 111
-0.5859100818634033 -7.614583969116211 0.13263827562332153 111
nan nan nan 0
nan nan nan 0
-0.5962985157966614 -7.627753734588623 -1.4783960580825806 111
-0.5966522693634033 -7.615172863006592 -1.2037642002105713 111
-0.5993536710739136 -7.632544994354248 -0.9353482127189636 111
-0.5997564792633057 -7.620631217956543 -0.6654351353645325 111
-0.600983202457428 -7.619217395782471 -0.39721211791038513 111
-0.6026464104652405 -7.623330593109131 -0.13148587942123413 111
-0.3932616710662842 -4.963636875152588 1.322996973991394 114
-0.41219907999038696 -5.1911516189575195 1.1924631595611572 114
-0.43134215474128723 -5.420246601104736 1.0485070943832397 114
-0.45456743240356445 -5.699516296386719 0.8985068798065186 114
-0.45619356632232666 -5.70733642578125 0.6983113288879395 114
-0.6107940077781677 -7.624752044677734 0.6658698916435242 111
-0.6120150685310364 -7.623279094696045 0.39879998564720154 111
-0.6124863028526306 -7.61249303817749 0.13263827562332153 111
-0.15853901207447052 -1.9491759538650513 -0.5137560367584229 119
nan nan nan 0
-0.6229206919670105 -7.625626087188721 -1.4783960580825806 111
-0.623230516910553 -7.613044261932373 -1.2037642002105713 111
-0.6259925961494446 -7.630405902862549 -0.9353482127189636 111
-0.6263538002967834 -7.6184916496276855 -0.6654351353645325 111
-0.6275755763053894 -7.6170735359191895 -0.39721211791038513 111
-0.6292531490325928 -7.621180534362793 -0.13148587942123413 111
-0.4105856120586395 -4.962234020233154 1.322996973991394 114
-0.43031707406044006 -5.189681529998779 1.1924631595611572 114
-0.4502597451210022 -5.418708324432373 1.0485070943832397 114
-0.4744596779346466 -5.697895050048828 0.8985068798065186 114
-0.47611314058303833 -5.705708980560303 0.6983113288879395 114
-0.6374056935310364 -7.6225738525390625 0.6658698916435242 111
-0.6386215686798096 -7.621096611022949 0.39879998564720154 111
-0.6390551328659058 -7.6103081703186035 0.13263827562332153 111
nan nan nan 0
nan nan nan 0
-0.646874189376831 -7.623631477355957 -1.4783960580825806 111
-0.6471444368362427 -7.611048698425293 -1.2037642002105713 111
-0.6499610543251038 -7.628401756286621 -0.9353482127189636 111
-0.6502848267555237 -7.616486549377441 -0.6654351353645325 111
-0.6515021324157715 -7.6150641441345215 -0.39721211791038513 111
-0.6536197066307068 -7.624146938323975 -0.13157227635383606 111
-0.4261728823184967 -4.960919380187988 1.322996973991394 114
-0.4466187655925751 -5.1883039474487305 1.1924631595611572 114
-0.4677026569843292 -5.422157287597656 1.0494604110717773 114
-0.4923577904701233 -5.696376323699951 0.8985068798065186 114
-0.4944639503955841 -5.7091288566589355 0.6989206075668335 114
-0.6613494753837585 -7.620533466339111 0.6658698916435242 111
-0.6625607013702393 -7.619052410125732 0.39879998564720154 111
-0.6629604697227478 -7.60826301574707 0.13263827562332153 111
-0.17061594128608704 -1.9384593963623047 -0.5111678242683411 119
-0.19724324345588684 -2.2365171909332275 -0.5095144510269165 119
-0.6734817028045654 -7.621326923370361 -1.4783960580825806 111
-0.6737080812454224 -7.608742713928223 -1.2037642002105713 111
-0.6765851974487305 -7.626086711883545 -0.9353482127189636 111
-0.6768673658370972 -7.614170074462891 -0.6654351353645325 111
-0.6780797839164734 -7.612743377685547 -0.39721211791038513 111
-0.6802290081977844 -7.621819019317627 -0.13157227635383606 111
-0.44348710775375366 -4.959402084350586 1.322996973991394 114
-0.46516144275665283 -5.191566467285156 1.193587064743042 114
-0.48662668466567993 -5.420491695404053 1.0494604110717773 114
-0.5122388601303101 -5.694622993469238 0.8985068798065186 114
-0.5143895149230957 -5.70736837387085 0.6989206075668335 114
-0.6883940696716309 -7.623139381408691 0.666305661201477 111
-0.689152181148529 -7.616693496704102 0.39879998564720154 111
-0.689965546131134 -7.6108808517456055 0.1327255517244339 111
-0.1784997284412384 -1.9425992965698242 -0.5124619007110596 119
-0.20582938194274902 -2.235743284225464 -0.5095144510269165 119
-0.702740490436554 -7.618685245513916 -1.4783960580825806 111
-0.7033729553222656 -7.61101770401001 -1.204546332359314 111
-0.7063197493553162 -7.6283745765686035 -0.9359576106071472 111
-0.7060985565185547 -7.611514568328857 -0.6654351353645325 111
-0.7073054909706116 -7.610084056854248 -0.39721211791038513 111
-0.7094895243644714 -7.6191511154174805 -0.13157227635383606 111
-0.4629751741886139 -4.9624714851379395 1.3242902755737305 114
-0.4850921332836151 -5.189741611480713 1.193587064743042 114
-0.507436215877533 -5.418583393096924 1.0494604110717773 114
-0.5341007709503174 -5.6926140785217285 0.8985068798065186 114
-0.5363004207611084 -5.70535135269165 0.6989206075668335 114
-0.7176596522331238 -7.6204400062561035 0.666305661201477 111
-0.7183930277824402 -7.613990783691406 0.39879998564720154 111
-0.7191841006278992 -7.608175754547119 0.1327255517244339 111
-0.18527957797050476 -1.9419645071029663 -0.5124619007110596 119
-0.21502304077148438 -2.249560832977295 -0.5128887295722961 119
-0.7297982573509216 -7.621071815490723 -1.4793492555618286 111
-0.7299360632896423 -7.608516216278076 -1.204546332359314 111
-0.7329434156417847 -7.625862121582031 -0.9359576106071472 111
-0.7326634526252747 -7.60900354385376 -0.6654351353645325 111
-0.7338653802871704 -7.607568740844727 -0.39721211791038513 111
-0.736081063747406 -7.616628170013428 -0.13157227635383606 111
-0.4802946150302887 -4.960824966430664 1.3242902755737305 114
-0.503675103187561 -5.19286584854126 1.1947109699249268 114
-0.5268221497535706 -5.421663284301758 1.0504134893417358 114
-0.5539684295654297 -5.6907148361206055 0.8985068798065186 114
-0.5562124848365784 -5.703444480895996 0.6989206075668335 114
-0.7442556023597717 -7.617888927459717 0.666305661201477 111
-0.7449663877487183 -7.6114373207092285 0.39879998564720154 111
-0.7457438111305237 -7.605618476867676 0.1327255517244339 111
-0.1906307190656662 -1.9268872737884521 -0.5085796117782593 119
-0.22047170996665955 -2.224555730819702 -0.5072649121284485 119
-0.7563963532447815 -7.6184773445129395 -1.4793492555618286 111
-0.7569791078567505 -7.610836029052734 -1.2053285837173462 111
-0.7595582008361816 -7.623257637023926 -0.9359576106071472 111
-0.7592193484306335 -7.6063995361328125 -0.6654351353645325 111
-0.7604162693023682 -7.6049604415893555 -0.39721211791038513 111
-0.7626636028289795 -7.614012718200684 -0.13157227635383606 111
-0.4976082146167755 -4.959118366241455 1.3242902755737305 114
-0.5217984914779663 -5.191076278686523 1.1947109699249268 114
-0.5457441210746765 -5.4197916984558105 1.0504134893417358 114
-0.5738294124603271 -5.688746452331543 0.8985068798065186 114
-0.5761178731918335 -5.701467990875244 0.6989206075668335 114
-0.7708424925804138 -7.615243911743164 0.666305661201477 111
-0.7720345258712769 -7.613758087158203 0.3990616500377655 111
-0.7722812294960022 -7.602970123291016 0.1327255517244339 111
-0.19834017753601074 -1.935819149017334 -0.5111678242683411 119
-0.22873294353485107 -2.228619337081909 -0.5083897113800049 119
-0.7829851508140564 -7.615791320800781 -1.4793492555618286 111
-0.7835412621498108 -7.608147621154785 -1.2053285837173462 111
-0.7866730093955994 -7.6254963874816895 -0.936566948890686 111
-0.7857660055160522 -7.603703498840332 -0.6654351353645325 111
-0.7869579195976257 -7.602260112762451 -0.39721211791038513 111
-0.7897524237632751 -7.616276264190674 -0.1316586583852768 111
-0.5149157643318176 -4.957351207733154 1.3242902755737305 114
-0.5399156212806702 -5.189223289489746 1.1947109699249268 114
-0.5646593570709229 -5.417853355407715 1.0504134893417358 114
-0.5936833620071411 -5.686708927154541 0.8985068798065186 114
-0.5960162281990051 -5.699422359466553 0.6989206075668335 114
-0.7974199652671814 -7.612507343292236 0.666305661201477 111
-0.798606812953949 -7.611017227172852 0.3990616500377655 111
-0.7988158464431763 -7.6002278327941895 0.1327255517244339 111
-0.204250305891037 -1.9303479194641113 -0.5098737478256226 119
-0.23522056639194489 -2.2230446338653564 -0.5072649121284485 119
-0.8069069981575012 -7.613293647766113 -1.4793492555618286 0
-0.8074390888214111 -7.605648517608643 -1.2053285837173462 111
-0.8106253147125244 -7.622987747192383 -0.936566948890686 111
-0.8096498250961304 -7.601197242736816 -0.6654351353645325 111
-0.8108371496200562 -7.59975004196167 -0.39721211791038513 111
-0.8136756420135498 -7.613758087158203 -0.1316586583852768 111
-0.5304871797561646 -4.955708980560303 1.3242902755737305 114
-0.5562153458595276 -5.187501430511475 1.1947109699249268 114
-0.581677258014679 -5.41605281829834 1.0504134893417358 114
-0.6120738983154297 -5.689725399017334 0.8992881774902344 114
-0.6139184832572937 -5.697521686553955 0.6989206075668335 114
-0.8218657970428467 -7.61491584777832 0.6667414307594299 111
-0.8225135207176208 -7.608470439910889 0.3990616500377655 111
-0.822688639163971 -7.597680568695068 0.1327255517244339 111
-0.21117454767227173 -1.934461236000061 -0.5111678242683411 119
-0.2429790049791336 -2.222209930419922 -0.5072649121284485 119
-0.8334774374961853 -7.610430717468262 -1.4793492555618286 0
-0.8339828252792358 -7.602783679962158 -1.2053285837173462 111
-0.8372295498847961 -7.620110988616943 -0.936566948890686 111
-0.8367229104042053 -7.603275775909424 -0.6658709049224854 111
-0.8373603224754333 -7.596873760223389 -0.39721211791038513 111
-0.8402476906776428 -7.610871315002441 -0.1316586583852768 111
-0.5477825999259949 -4.953826904296875 1.3242902755737305 114
-0.5743196606636047 -5.18552827835083 1.1947109699249268 114
-0.6005792617797852 -5.413989067077637 1.0504134893417358 114
-0.6319310069084167 -5.687554359436035 0.8992881774902344 114
-0.6338028311729431 -5.695343971252441 0.6989206075668335 114
-0.8484417796134949 -7.612001419067383 0.6667414307594299 111
-0.849066972732544 -7.605552673339844 0.3990616500377655 111
-0.8497599959373474 -7.599730968475342 0.13281279802322388 111
-0.2177215814590454 -1.9288749694824219 -0.5098737478256226 119
-0.2511221766471863 -2.2213046550750732 -0.5072649121284485 119
-0.8619176149368286 -7.612201690673828 -1.4803024530410767 111
-0.8618428111076355 -7.59967565536499 -1.2053285837173462 111
-0.8651530742645264 -7.6169915199279785 -0.936566948890686 111
-0.8645846843719482 -7.600158214569092 -0.6658709049224854 111
-0.8657639026641846 -7.598714828491211 -0.39747291803359985 111
-0.8681373000144958 -7.60774040222168 -0.1316586583852768 111
-0.5659355521202087 -4.951786041259766 1.3242902755737305 114
-0.5933217406272888 -5.183388710021973 1.1947109699249268 114
-0.6204184889793396 -5.411751747131348 1.0504134893417358 114
-0.6527726650238037 -5.685199737548828 0.8992881774902344 114
-0.655239999294281 -5.69791316986084 0.6995300054550171 114
-0.8763355016708374 -7.608840465545654 0.6667414307594299 111
-0.8775091767311096 -7.607349395751953 0.39932331442832947 111
-0.8776087164878845 -7.596565246582031 0.13281279802322388 111
-0.22501173615455627 -1.9329004287719727 -0.5111678242683411 119
-0.25887444615364075 -2.220414400100708 -0.5072649121284485 119
-0.8884839415550232 -7.609146595001221 -1.4803024530410767 111
-0.8883653879165649 -7.596621036529541 -1.2053285837173462 111
-0.8917360305786133 -7.613925457000732 -0.936566948890686 111
-0.8911089301109314 -7.5970940589904785 -0.6658709049224854 111
-0.8922830820083618 -7.595646381378174 -0.39747291803359985 111
-0.8952720761299133 -7.609628677368164 -0.13174505531787872 111
-0.5832170844078064 -4.949780464172363 1.3242902755737305 114
-0.6114115118980408 -5.181285858154297 1.1947109699249268 114
-0.6393052339553833 -5.409553050994873 1.0504134893417358 114
-0.6726137399673462 -5.682886600494385 0.8992881774902344 114
-0.6751254200935364 -5.695591449737549 0.6995300054550171 114
-0.9028899669647217 -7.605734825134277 0.6667414307594299 111
-0.9040583968162537 -7.6042399406433105 0.39932331442832947 111
-0.9041203260421753 -7.5934553146362305 0.13281279802322388 111
-0.2311822474002838 -1.9273079633712769 -0.5098737478256226 119
-0.2666235566139221 -2.2194972038269043 -0.5072649121284485 119
-0.9156256914138794 -7.610872268676758 -1.4812556505203247 111
-0.9154678583145142 -7.598376750946045 -1.2061107158660889 111
-0.9189026355743408 -7.615693092346191 -0.9371763467788696 111
-0.9182198643684387 -7.59888219833374 -0.6663066744804382 111
-0.9187914133071899 -7.592484951019287 -0.39747291803359985 111
-0.9218291640281677 -7.606456756591797 -0.13174505531787872 111
-0.600491464138031 -4.947714328765869 1.3242902755737305 114
-0.6294938921928406 -5.179120063781738 1.1947109699249268 114
-0.6581842303276062 -5.407288551330566 1.0504134893417358 114
-0.6924466490745544 -5.680504322052002 0.8992881774902344 114
-0.6950026750564575 -5.69320011138916 0.6995300054550171 114
-0.9300379157066345 -7.607481479644775 0.6671772003173828 111
-0.930596649646759 -7.601037979125977 0.39932331442832947 111
-0.931229293346405 -7.595215320587158 0.13290005922317505 111
-0.23790840804576874 -1.9264893531799316 -0.5098737478256226 119
-0.27436941862106323 -2.218553066253662 -0.5072649121284485 119
-0.9421870112419128 -7.607629776000977 -1.4812556505203247 111
-0.941985547542572 -7.59513521194458 -1.2061107158660889 111
-0.9454808235168457 -7.612439155578613 -0.9371763467788696 111
-0.9447392821311951 -7.595630645751953 -0.6663066744804382 111
-0.9459056854248047 -7.594186782836914 -0.39773374795913696 111
-0.9489938616752625 -7.608153343200684 -0.13183143734931946 111
-0.6183573007583618 -4.950381278991699 1.325583577156067 114
-0.6475685238838196 -5.176891326904297 1.1947109699249268 114
-0.6770551204681396 -5.404958248138428 1.0504134893417358 114
-0.7122710943222046 -5.6780524253845215 0.8992881774902344 114
-0.7148714065551758 -5.690739154815674 0.6995300054550171 114
-0.9565872550010681 -7.604187965393066 0.6671772003173828 111
-0.9577476382255554 -7.602697849273682 0.3995850086212158 111
-0.9577358961105347 -7.591917991638184 0.13290005922317505 111
-0.24524033069610596 -1.9304382801055908 -0.5111678242683411 119
-0.28272679448127747 -2.222414970397949 -0.5083897113800049 119
-0.9693571329116821 -7.609163284301758 -1.4822088479995728 111
-0.9684918522834778 -7.591800689697266 -1.2061107158660889 111
-0.9726762175559998 -7.614015102386475 -0.9377856254577637 111
-0.9712471961975098 -7.592286586761475 -0.6663066744804382 111
-0.9724085927009583 -7.59083890914917 -0.39773374795913696 111
-0.9755455255508423 -7.604794502258301 -0.13183143734931946 111
-0.6356335878372192 -4.948192596435547 1.325583577156067 114
-0.6656352877616882 -5.1745991706848145 1.1947109699249268 114
-0.6965449452400208 -5.407430171966553 1.0513666868209839 114
-0.7327186465263367 -5.680429935455322 0.9000694751739502 114
-0.7347314357757568 -5.688209056854248 0.6995300054550171 114
-0.9837639331817627 -7.605742931365967 0.6676129698753357 111
-0.9842802286148071 -7.599308013916016 0.3995850086212158 111
-0.9848737716674805 -7.593486309051514 0.13298733532428741 111
-0.2519772946834564 -1.9295704364776611 -0.5111678242683411 119
-0.28985103964805603 -2.216583490371704 -0.5072649121284485 119
-0.9959121346473694 -7.6057329177856445 -1.4822088479995728 111
-0.9949861764907837 -7.58837366104126 -1.2061107158660889 111
-0.9992481470108032 -7.6105732917785645 -0.9377856254577637 111
-0.9983925223350525 -7.593788146972656 -0.6667424440383911 111
-0.9995512962341309 -7.592348098754883 -0.3979945182800293 111
-1.00273859500885 -7.60629940032959 -0.1319178342819214 111
-0.6529020667076111 -4.945943832397461 1.325583577156067 114
-0.6843323707580566 -5.177073955535889 1.195834755897522 114
-0.7154161930084229 -5.404965877532959 1.0513666868209839 114
-0.7525425553321838 -5.677837371826172 0.9000694751739502 114
-0.7552354335784912 -5.6905293464660645 0.7001393437385559 114
-1.01030695438385 -7.602262496948242 0.6676129698753357 111
-1.0114593505859375 -7.600775718688965 0.3998467028141022 111
-1.0113739967346191 -7.590002536773682 0.13298733532428741 111
-0.2593533396720886 -1.933465838432312 -0.5124619007110596 119
-0.298235148191452 -2.2203869819641113 -0.5083897113800049 119
-1.022455096244812 -7.602210521697998 -1.4822088479995728 111
-1.022127628326416 -7.589748382568359 -1.2068928480148315 111
-1.0264711380004883 -7.611957550048828 -0.9383949637413025 111
-1.0248937606811523 -7.590256690979004 -0.6667424440383911 111
-1.0260474681854248 -7.588812828063965 -0.3979945182800293 111
-1.0292834043502808 -7.602752685546875 -0.1319178342819214 111
-0.6701627373695374 -4.943634510040283 1.325583577156067 114
-0.7023995518684387 -5.17465353012085 1.195834755897522 114
-0.7342786192893982 -5.402435779571533 1.0513666868209839 114
-0.7723572850227356 -5.675175666809082 0.9000694751739502 114
-0.7750945091247559 -5.687858581542969 0.7001393437385559 114
-1.0375111103057861 -7.6036248207092285 0.6680487990379333 111
-1.0379849672317505 -7.597198486328125 0.3998467028141022 111
-1.037861943244934 -7.586426258087158 0.13298733532428741 111
-0.26675960421562195 -1.9373334646224976 -0.5137560367584229 119
-0.3059839606285095 -2.219332456588745 -0.5083897113800049 119
-1.049656629562378 -7.603456974029541 -1.4831620454788208 111
-1.048614501953125 -7.58613395690918 -1.2068928480148315 111
-1.0530356168746948 -7.608327865600586 -0.9383949637413025 111
-1.0513824224472046 -7.586633205413818 -0.6667424440383911 111
-1.052531123161316 -7.5851850509643555 -0.3979945182800293 111
-1.0558156967163086 -7.599113941192627 -0.1319178342819214 111
-0.6874151229858398 -4.941265106201172 1.325583577156067 114
-0.7204582095146179 -5.172170639038086 1.195834755897522 114
-0.7538102865219116 -5.404700756072998 1.052319884300232 114
-0.7928457856178284 -5.677337169647217 0.9008508324623108 114
-0.7949441075325012 -5.685118198394775 0.7001393437385559 114
-1.0640463829040527 -7.59995698928833 0.6680487990379333 111
-1.064497709274292 -7.593529224395752 0.3998467028141022 111
-1.0650320053100586 -7.587707996368408 0.1330745965242386 111
-0.2741960287094116 -1.941172480583191 -0.5150501132011414 119
-0.3137289881706238 -2.2182507514953613 -0.5083897113800049 119
-1.0761913061141968 -7.5997467041015625 -1.4831620454788208 111
-1.0757819414138794 -7.587316513061523 -1.2076750993728638 111
-1.0802847146987915 -7.609519004821777 -0.9390043616294861 111
-1.0785592794418335 -7.58784818649292 -0.667178213596344 111
-1.0797054767608643 -7.586408615112305 -0.3982553482055664 111
-1.082335114479065 -7.595381736755371 -0.1319178342819214 111
-0.7046591639518738 -4.938835620880127 1.325583577156067 114
-0.7385080456733704 -5.169623851776123 1.195834755897522 114
-0.7726715803146362 -5.402036666870117 1.052319884300232 114
-0.8126586079597473 -5.674534797668457 0.9008508324623108 114
-0.8154884576797485 -5.687221527099609 0.7007486820220947 114
-1.0905686616897583 -7.596196174621582 0.6680487990379333 111
-1.0917080640792847 -7.594709396362305 0.40010836720466614 111
-1.091511607170105 -7.583944320678711 0.1330745965242386 111
-0.28097033500671387 -1.9402035474777222 -0.5150501132011414 119
-0.3214702308177948 -2.217142105102539 -0.5083897113800049 119
-1.102712869644165 -7.595943927764893 -1.4831620454788208 111
-1.1022601127624512 -7.583515644073486 -1.2076750993728638 111
-1.1068402528762817 -7.605701446533203 -0.9390043616294861 111
-1.1050392389297485 -7.584036827087402 -0.667178213596344 111
-1.1061804294586182 -7.5825934410095215 -0.3982553482055664 111
-1.109563946723938 -7.5965046882629395 -0.13200421631336212 111
-0.7218946814537048 -4.93634557723999 1.325583577156067 114
-0.7565489411354065 -5.1670145988464355 1.195834755897522 114
-0.7915235161781311 -5.399306774139404 1.052319884300232 114
-0.8324614763259888 -5.671663284301758 0.9008508324623108 114
-0.8353356122970581 -5.684340476989746 0.7007486820220947 114
-1.1178027391433716 -7.597270965576172 0.6684845089912415 111
-1.1182118654251099 -7.5908522605896 0.40010836720466614 111
-1.1179778575897217 -7.580087661743164 0.1330745965242386 111
-0.28774115443229675 -1.9392110109329224 -0.5150501132011414 119
-0.32920753955841064 -2.2160065174102783 -0.5083897113800049 119
-1.1292208433151245 -7.592048168182373 -1.4831620454788208 111
-1.1294522285461426 -7.584506511688232 -1.2084572315216064 111
-1.1333824396133423 -7.6017913818359375 -0.9390043616294861 111
-1.1315057277679443 -7.580133438110352 -0.667178213596344 111
-1.1333799362182617 -7.583624362945557 -0.39851614832878113 111
-1.1360739469528198 -7.59258508682251 -0.13200421631336212 111
-0.7398368716239929 -4.938572406768799 1.3268768787384033 114
-0.7745805978775024 -5.164342403411865 1.195834755897522 114
-0.8103657960891724 -5.396511077880859 1.052319884300232 114
-0.8522542119026184 -5.668723106384277 0.9008508324623108 114
-0.8551725745201111 -5.681389808654785 0.7007486820220947 114
-1.1443153619766235 -7.59332275390625 0.6684845089912415 111
-1.145447015762329 -7.591839790344238 0.4003700315952301 111
-1.1451771259307861 -7.581081867218018 0.13316184282302856 111
-0.2930574417114258 -1.928645133972168 -0.5124619007110596 119
-0.33694085478782654 -2.214843988418579 -0.5083897113800049 119
-1.15645432472229 -7.5929131507873535 -1.4841152429580688 111
-1.155920147895813 -7.580517768859863 -1.2084572315216064 111
-1.1606597900390625 -7.602694988250732 -0.9396136999130249 111
-1.1587110757827759 -7.581061363220215 -0.6676140427589417 111
-1.1598448753356934 -7.579622268676758 -0.39851614832878113 111
-1.1633270978927612 -7.593514442443848 -0.13209061324596405 111
-0.7570711970329285 -4.935959815979004 1.3268768787384033 114
-0.7933422923088074 -5.1664228439331055 1.1969587802886963 114
-0.8299440145492554 -5.398500442504883 1.05327308177948 114
-0.8720365166664124 -5.665713787078857 0.9008508324623108 114
-0.8757548332214355 -5.683274745941162 0.7013580203056335 114
-1.171573519706726 -7.594205379486084 0.6689203381538391 111
-1.171940565109253 -7.587795257568359 0.4003700315952301 111
-1.1716331243515015 -7.577038288116455 0.13316184282302856 111
-0.29871007800102234 -1.922890305519104 -0.5111678242683411 119
-0.34389728307724 -2.2137744426727295 -0.5083897113800049 119
-1.180302381515503 -7.589242458343506 -1.4841152429580688 111
-1.1804890632629395 -7.581728458404541 -1.2092394828796387 111
-1.18453848361969 -7.599011421203613 -0.9396136999130249 111
-1.1825218200683594 -7.577383995056152 -0.6676140427589417 111
-1.1844220161437988 -7.580874443054199 -0.39877697825431824 111
-1.187177062034607 -7.589822769165039 -0.13209061324596405 111
-0.772574245929718 -4.933557033538818 1.3268768787384033 114
-0.8095691204071045 -5.163905143737793 1.1969587802886963 114
-0.846899688243866 -5.395866394042969 1.05327308177948 114
-0.8905981183052063 -5.667824745178223 0.9016321301460266 114
-0.8936050534248352 -5.680495262145996 0.7013580203056335 114
-1.1954255104064941 -7.590487480163574 0.6689203381538391 111
-1.1965501308441162 -7.589008808135986 0.40063172578811646 111
-1.1954312324523926 -7.573320388793945 0.13316184282302856 111
-0.30357059836387634 -1.9123493432998657 -0.5085796117782593 119
-0.35162273049354553 -2.2125604152679443 -0.5083897113800049 119
-1.2067865133285522 -7.585075855255127 -1.4841152429580688 111
-1.2069470882415771 -7.577561855316162 -1.2092394828796387 111
-1.2118382453918457 -7.599730968475342 -0.9402230381965637 111
-1.2097499370574951 -7.578128814697266 -0.6680498123168945 111
-1.2108769416809082 -7.576694011688232 -0.39877697825431824 111
-1.214453101158142 -7.590569019317627 -0.13217699527740479 111
-0.7897908687591553 -4.930830001831055 1.3268768787384033 114
-0.8275896310806274 -5.161047458648682 1.1969587802886963 114
-0.8665076494216919 -5.39772367477417 1.054226279258728 114
-0.9103771448135376 -5.664681434631348 0.9016321301460266 114
-0.9142164587974548 -5.682240962982178 0.7019673585891724 114
-1.2227060794830322 -7.591186046600342 0.669356107711792 111
-1.2230334281921387 -7.584785461425781 0.40063172578811646 111
-1.2226566076278687 -7.574037075042725 0.13324911892414093 111
-0.3093602657318115 -1.901635766029358 -0.5059914588928223 119
-0.3601157069206238 -2.2111940383911133 -0.5083897113800049 119
-1.235902190208435 -7.580386161804199 -1.4841152429580688 111
-1.236829400062561 -7.57774543762207 -1.2100214958190918 111
-1.2418104410171509 -7.59991979598999 -0.9408323764801025 111
-1.239642858505249 -7.578343868255615 -0.6684855818748474 111
-1.2415741682052612 -7.581843376159668 -0.3992985785007477 111
-1.2435897588729858 -7.585849761962891 -0.13217699527740479 111
-0.8095000982284546 -4.932526588439941 1.3281700611114502 114
-0.847400426864624 -5.157832145690918 1.1969587802886963 114
-0.8872269988059998 -5.394356727600098 1.054226279258728 114
-0.932121217250824 -5.661144256591797 0.9016321301460266 114
-0.9360279440879822 -5.6786885261535645 0.7019673585891724 114
-1.2518450021743774 -7.586434841156006 0.669356107711792 111
-1.2529616355895996 -7.584959983825684 0.4008934199810028 111
-1.2525453567504883 -7.574218273162842 0.1333363801240921 111
-0.3183726966381073 -1.9148368835449219 -0.5098737478256226 119
-0.36863189935684204 -2.214729070663452 -0.5095144510269165 119
-1.264775276184082 -7.590550899505615 -1.4869747161865234 111
-1.2640856504440308 -7.578252792358398 -1.210803747177124 111
-1.268331527709961 -7.59553861618042 -0.9408323764801025 111
-1.2669100761413574 -7.578883171081543 -0.6689213514328003 111
-1.2672079801559448 -7.572538375854492 -0.39903774857521057 111
-1.2708877325057983 -7.586392879486084 -0.1322633922100067 111
-0.8267128467559814 -4.929670810699463 1.3281700611114502 114
-0.8662060499191284 -5.159647464752197 1.198082685470581 114
-0.9068648815155029 -5.396067142486572 1.055179476737976 114
-0.9518765807151794 -5.657855987548828 0.9016321301460266 114
-0.9566687941551208 -5.680280685424805 0.702576756477356 114
-1.2783191204071045 -7.582018852233887 0.669356107711792 111
-1.2794305086135864 -7.580539703369141 0.4008934199810028 111
-1.278983235359192 -7.569798946380615 0.1333363801240921 111
-0.3247207999229431 -1.9137705564498901 -0.5098737478256226 119
-0.3755878508090973 -2.213560104370117 -0.5095144510269165 119
-1.287793517112732 -7.581700325012207 -1.4860215187072754 111
-1.2895427942276 -7.583981990814209 -1.212368130683899 111
-1.2921873331069946 -7.591516971588135 -0.9408323764801025 111
-1.2873667478561401 -7.555224418640137 -0.667178213596344 111
-1.291831135749817 -7.573441982269287 -0.3992985785007477 111
-1.2955561876296997 -7.5872907638549805 -0.13234978914260864 111
-0.8421958088874817 -4.92704963684082 1.3281700611114502 114
-0.8824112415313721 -5.156900405883789 1.198082685470581 114
-0.9238126277923584 -5.393191814422607 1.055179476737976 114
-0.9704811573028564 -5.65970516204834 0.9024134874343872 114
-0.9745092391967773 -5.677247524261475 0.702576756477356 114
-1.3038194179534912 -7.5877838134765625 0.6702277064323425 111
-1.304085612297058 -7.581404209136963 0.4011550843715668 111
-1.3035998344421387 -7.570671558380127 0.13342364132404327 111
-0.33188900351524353 -1.9174420833587646 -0.5111678242683411 119
-0.3841440975666046 -2.217036008834839 -0.5106391906738281 119
-1.2949579954147339 -7.4659295082092285 -1.4640982151031494 111
-1.2931979894638062 -7.448061943054199 -1.1912493705749512 111
-1.2991329431533813 -7.474503517150879 -0.9268174171447754 111
-1.296655535697937 -7.452539920806885 -0.658462643623352 111
-1.318259596824646 -7.568886756896973 -0.3992985785007477 111
-1.3125877380371094 -7.528548240661621 -0.1313994973897934 111
-0.8593893051147461 -4.924079895019531 1.3281700611114502 114
-0.9004068374633789 -5.1537885665893555 1.198082685470581 114
-0.9434782862663269 -5.394768714904785 1.0561326742172241 114
-0.9902312755584717 -5.656282901763916 0.9024134874343872 114
-0.9943205118179321 -5.673810958862305 0.702576756477356 114
-1.3208304643630981 -7.529219627380371 0.6654340624809265 111
-1.3219053745269775 -7.527626991271973 0.3985382914543152 111
-1.318766474723816 -7.502066612243652 0.13228923082351685 111
-0.33975571393966675 -1.9209686517715454 -0.5124619007110596 119
-0.3922673761844635 -2.21561336517334 -0.5106391906738281 119
-1.3206002712249756 -7.451467037200928 -1.4621918201446533 111
-1.3204878568649292 -7.443272113800049 -1.1912493705749512 111
-1.32565176486969 -7.4648051261901855 -0.9262080788612366 111
-1.3283206224441528 -7.4722580909729 -0.6606415510177612 111
-1.3354946374893188 -7.505012512207031 -0.39616885781288147 111
-1.3340353965759277 -7.48923397064209 -0.13079476356506348 111
-0.8782789707183838 -4.925651550292969 1.329463243484497 114
-0.9201465249061584 -5.155250549316406 1.1992065906524658 114
-0.9632447361946106 -5.391274452209473 1.0561326742172241 114
-1.0118253231048584 -5.657476902008057 0.9031947255134583 114
-1.015984058380127 -5.675014019012451 0.7031860947608948 114
-1.3431458473205566 -7.494911193847656 0.6628194451332092 111
-1.3441969156265259 -7.493243217468262 0.39696821570396423 111
-1.336534857749939 -7.443056106567383 0.13132934272289276 111
-0.3464590609073639 -1.9197710752487183 -0.5124619007110596 119
-0.40086495876312256 -2.219024419784546 -0.5117639303207397 119
-1.3483494520187378 -7.4564714431762695 -1.4640982151031494 111
-1.3482208251953125 -7.448336124420166 -1.192813754081726 111
-1.351700782775879 -7.460132122039795 -0.9262080788612366 111
-1.3508399724960327 -7.447971343994141 -0.6588984131813049 111
-1.3527644872665405 -7.451176166534424 -0.3935607671737671 111
-1.355700135231018 -7.459937572479248 -0.13036280870437622 111
-0.8954674005508423 -4.922555923461914 1.329463243484497 114
-0.938136100769043 -5.152007102966309 1.1992065906524658 114
-0.9829381108283997 -5.3927083015441895 1.0570858716964722 114
-1.0315674543380737 -5.6539106369018555 0.9031947255134583 114
-1.0357873439788818 -5.671432971954346 0.7031860947608948 114
-1.3630295991897583 -7.455878257751465 0.6597689390182495 111
-1.3640533685684204 -7.4541239738464355 0.39513644576072693 111
-1.3634085655212402 -7.443263053894043 0.13141660392284393 111
-0.35315820574760437 -1.91854989528656 -0.5124619007110596 119
-0.4086083471775055 -2.217611789703369 -0.5117639303207397 119
-1.3752593994140625 -7.456546783447266 -1.4650514125823975 110
-1.3751085996627808 -7.448441028594971 -1.1935958862304688 111
-1.379536747932434 -7.465128421783447 -0.9274266958236694 111
-1.3777360916137695 -7.448108673095703 -0.6593342423439026 111
-1.3787657022476196 -7.446408271789551 -0.3935607671737671 111
-1.3817319869995117 -7.455160140991211 -0.13036280870437622 111
-0.9126448631286621 -4.919400215148926 1.329463243484497 114
-0.9570037126541138 -5.153491020202637 1.200330376625061 114
-1.0017563104629517 -5.389244556427002 1.0570858716964722 114
-1.052200436592102 -5.655130386352539 0.9039760231971741 114
-1.05648672580719 -5.672661781311035 0.7037954330444336 114
-1.390872836112976 -7.4608683586120605 0.6606405377388 111
-1.3900647163391113 -7.44931697845459 0.39513644576072693 111
-1.3903000354766846 -7.443373203277588 0.1315038800239563 111
-0.35985302925109863 -1.9173054695129395 -0.5124619007110596 119
-0.41634678840637207 -2.2161717414855957 -0.5117639303207397 119
-1.401279330253601 -7.451700687408447 -1.4650514125823975 110
-1.4001867771148682 -7.438742160797119 -1.192813754081726 110
-1.40558660030365 -7.460267066955566 -0.9274266958236694 111
-1.3991109132766724 -7.418781280517578 -0.6571553349494934 110
-1.404750108718872 -7.4415507316589355 -0.3935607671737671 111
-1.4077469110488892 -7.450291156768799 -0.13036280870437622 111
-0.9307087659835815 -4.920929908752441 1.3307565450668335 114
-0.9749869108200073 -5.150119304656982 1.200330376625061 114
-1.0205621719360352 -5.385715007781982 1.0570858716964722 114
-1.0719341039657593 -5.651423454284668 0.9039760231971741 114
-1.0762815475463867 -5.668939590454102 0.7037954330444336 0
-1.4178376197814941 -7.4608612060546875 0.6610763072967529 111
-1.417925477027893 -7.454230308532715 0.39565980434417725 111
-1.4022480249404907 -7.364809513092041 0.13019494712352753 110
-0.3665435016155243 -1.916037678718567 -0.5124619007110596 119
-0.42316392064094543 -2.2099204063415527 -0.5106391906738281 119
-1.3958684206008911 -7.282865524291992 -1.4326430559158325 110
-1.3963696956634521 -7.278608798980713 -1.1677842140197754 110
-1.4026070833206177 -7.3042311668396 -0.908536970615387 110
-1.3902124166488647 -7.232868671417236 -0.6410315036773682 110
-1.4193973541259766 -7.377762317657471 -0.39043107628822327 110
-1.4053846597671509 -7.298060894012451 -0.12777110934257507 110
-0.9478803873062134 -4.917651653289795 1.3307565450668335 114
-0.9929583072662354 -5.146684169769287 1.200330376625061 114
-1.0402861833572388 -5.386938571929932 1.0580389499664307 114
-1.091654658317566 -5.647646903991699 0.9039760231971741 114
-1.097005844116211 -5.67002010345459 0.7044047713279724 0
-1.4201971292495728 -7.333613395690918 0.6501818299293518 110
-1.4192324876785278 -7.3217854499816895 0.3888561427593231 110
-1.3917644023895264 -7.173376560211182 0.1268789917230606 110
-0.3732294738292694 -1.9147465229034424 -0.5124619007110596 119
-0.43087539076805115 -2.2084298133850098 -0.5106391906738281 119
-1.3883554935455322 -7.109342575073242 -1.39928138256073 110
-1.3952418565750122 -7.1379828453063965 -1.1458834409713745 110
-1.3976025581359863 -7.14343786239624 -0.8890378475189209 110
-1.3819479942321777 -7.056887626647949 -0.6257792115211487 110
-1.4076846837997437 -7.181665420532227 -0.38025954365730286 110
-1.3923524618148804 -7.096880912780762 -0.12431549280881882 110
-0.965971052646637 -4.9190521240234375 1.33204984664917 114
-1.011857032775879 -5.147967338562012 1.2014544010162354 114
-1.0590837001800537 -5.383274555206299 1.0580389499664307 114
-1.1123162508010864 -5.648647785186768 0.9047573804855347 114
-1.1167912483215332 -5.66615629196167 0.7044047713279724 0
-1.4072248935699463 -7.133139610290527 0.6327506899833679 110
-1.4118942022323608 -7.150236129760742 0.37995901703834534 110
-1.3809311389923096 -6.98701286315918 0.12365029752254486 110
-0.37957698106765747 -1.9134982824325562 -0.5124619007110596 119
-0.4368632733821869 -2.2022862434387207 -0.5095144510269165 119
-1.3762714862823486 -6.9316301345825195 -1.364966630935669 110
-1.3801182508468628 -6.944659233093262 -1.1153786182403564 110
-1.3851829767227173 -6.963787078857422 -0.8671013116836548 110
-1.370070219039917 -6.881532192230225 -0.6105269193649292 110
-1.3980371952056885 -7.015609264373779 -0.37165284156799316 110
-1.3804155588150024 -6.9208784103393555 -0.12129183858633041 110
-0.9814199805259705 -4.9159932136535645 1.33204984664917 114
-1.0280249118804932 -5.144762992858887 1.2014544010162354 114
-1.0769531726837158 -5.384734153747559 1.0589921474456787 114
-1.1300565004348755 -5.645125865936279 0.9047573804855347 114
-1.1355615854263306 -5.667486190795898 0.7050141096115112 0
-1.3973067998886108 -6.967520236968994 0.618369996547699 110
-1.3989746570587158 -6.969527244567871 0.3705385625362396 110
-1.371363639831543 -6.825798034667969 0.12085790187120438 110
-0.3859202563762665 -1.912229061126709 -0.5124619007110596 119
-0.4435834288597107 -2.1959726810455322 -0.5083897113800049 119
-1.369333267211914 -6.772833347320557 -1.3344645500183105 110
-1.3720277547836304 -6.780068397521973 -1.089566946029663 110
-1.3769723176956177 -6.798398494720459 -0.8469928503036499 110
-1.359445571899414 -6.705850124359131 -0.5952746272087097 110
-1.3887583017349243 -6.844308376312256 -0.36278533935546875 110
-1.3697412014007568 -6.74454402923584 -0.11826817691326141 110
-0.9995360374450684 -4.917270660400391 1.3333430290222168 114
-1.0469485521316528 -5.145917892456055 1.2025783061981201 114
-1.0957428216934204 -5.380942344665527 1.0589921474456787 114
-1.1507411003112793 -5.6459856033325195 0.9055386781692505 114
-1.1563297510147095 -5.668349742889404 0.70562344789505 0
-1.388736605644226 -6.80155086517334 0.60398930311203 110
-1.3903027772903442 -6.803163528442383 0.3619031310081482 110
-1.3641256093978882 -6.669137477874756 0.11815278977155685 110
-0.393899142742157 -1.9155324697494507 -0.5137560367584229 119
-0.451629102230072 -2.1943321228027344 -0.5083897113800049 119
-1.3614675998687744 -6.609126091003418 -1.3030093908309937 110
-1.3639600276947021 -6.615382671356201 -1.0637551546096802 110
-1.3687820434570312 -6.632915496826172 -0.826884388923645 110
-1.351773977279663 -6.5447258949279785 -0.5813297033309937 110
-1.380476713180542 -6.67780876159668 -0.35417863726615906 110
-1.3640639781951904 -6.592611312866211 -0.11567647010087967 110
-1.0175520181655884 -4.91357421875 1.3333430290222168 114
-1.0658023357391357 -5.142045974731445 1.2025783061981201 114
-1.1154576539993286 -5.376889705657959 1.0589921474456787 114
-1.1714270114898682 -5.641730308532715 0.9055386781692505 114
-1.1770974397659302 -5.664073944091797 0.70562344789505 0
-1.380183219909668 -6.635488033294678 0.5896086096763611 110
-1.3826628923416138 -6.641595363616943 0.3535293638706207 110
-1.3579672574996948 -6.517269134521484 0.11553492397069931 110
-0.4005832076072693 -1.9141459465026855 -0.5137560367584229 119
-0.45828717947006226 -2.187973737716675 -0.5072649121284485 119
-1.3533098697662354 -6.455412864685059 -1.2734605073928833 110
-1.3545924425125122 -6.45591926574707 -1.038725733757019 110
-1.3582686185836792 -6.467823028564453 -0.8067759871482849 110
-1.3448991775512695 -6.3986077308654785 -0.5686920881271362 110
-1.3698570728302002 -6.5117034912109375 -0.34557193517684937 110
-1.3541078567504883 -6.4312663078308105 -0.11291198432445526 110
-1.034697413444519 -4.909992218017578 1.3333430290222168 114
-1.0837448835372925 -5.138294219970703 1.2025783061981201 114
-1.1342196464538574 -5.3729634284973145 1.0589921474456787 114
-1.192133903503418 -5.642437934875488 0.9063199758529663 114
-1.1978883743286133 -5.664785861968994 0.7062328457832336 0
-1.3713650703430176 -6.479565620422363 0.5760994553565979 110
-1.3758310079574585 -6.495070457458496 0.34594064950942993 110
-1.3485662937164307 -6.360881805419922 0.1128297969698906 110
-0.40726238489151 -1.912735939025879 -0.5137560367584229 119
-0.4659218490123749 -2.1863605976104736 -0.5072649121284485 119
-1.3430721759796143 -6.29703950881958 -1.242958426475525 110
-1.346190094947815 -6.306262493133545 -1.0152604579925537 110
-1.3466198444366455 -6.302886962890625 -0.78666752576828 110
-1.3349381685256958 -6.242877960205078 -0.555182933807373 110
-1.364364743232727 -6.3750505447387695 -0.3385300934314728 110
-1.345136284828186 -6.279848575592041 -0.11032027751207352 110
-1.0518301725387573 -4.906350612640381 1.3333430290222168 114
-1.102696418762207 -5.139244079589844 1.2037022113800049 114
-1.1539983749389648 -5.373770236968994 1.0599453449249268 114
-1.2128602266311646 -5.643070697784424 0.9071012735366821 114
-1.218698501586914 -5.665421485900879 0.7068421244621277 0
-1.3625240325927734 -6.328657627105713 0.5630261301994324 110
-1.3648381233215332 -6.334033012390137 0.33756691217422485 110
-1.34230637550354 -6.2241902351379395 0.11047372967004776 110
-0.4139366149902344 -1.9113026857376099 -0.5137560367584229 119
-0.4745829105377197 -2.1894824504852295 -0.5083897113800049 119
-1.337989330291748 -6.167597770690918 -1.2181755304336548 110
-1.339903712272644 -6.171223163604736 -0.9941418766975403 110
-1.3412132263183594 -6.172059535980225 -0.7708244323730469 110
-1.3281407356262207 -6.106765270233154 -0.5434168577194214 110
-1.3547495603561401 -6.223880767822266 -0.33070579171180725 110
-1.3404455184936523 -6.152998447418213 -0.10816052556037903 110
-1.0689501762390137 -4.90264892578125 1.3333430290222168 114
-1.120629072189331 -5.135363578796387 1.2037022113800049 114
-1.1727492809295654 -5.369709014892578 1.0599453449249268 114
-1.2336053848266602 -5.643627166748047 0.9078826308250427 114
-1.2384670972824097 -5.6611328125 0.7068421244621277 0
-1.356907844543457 -6.197354316711426 0.5516958832740784 110
-1.3580821752548218 -6.197540283203125 0.3305015563964844 110
-1.332966923713684 -6.077854633331299 0.10794312506914139 110
-0.4195669889450073 -1.905129313468933 -0.5124619007110596 119
-0.4822227656841278 -2.187812566757202 -0.5083897113800049 119
-1.3341342210769653 -6.047856330871582 -1.1952990293502808 110
-1.3348205089569092 -6.0459513664245605 -0.9745875597000122 110
-1.3381223678588867 -6.0558857917785645 -0.7568094730377197 110
-1.3247121572494507 -5.990232467651367 -0.5333939790725708 110
-1.3462541103363037 -6.082608222961426 -0.32340314984321594 110
-1.3348857164382935 -6.02625846862793 -0.10600077360868454 110
-1.0871024131774902 -4.9036030769348145 1.3346363306045532 114
-1.1396031379699707 -5.136176109313965 1.2048259973526 114
-1.1925500631332397 -5.37037467956543 1.0608986616134644 114
-1.2532978057861328 -5.639286994934082 0.9078826308250427 114
-1.2592980861663818 -5.661619663238525 0.7074515223503113 110
-1.3471450805664062 -6.0515828132629395 0.539058268070221 110
-1.3493043184280396 -6.056299209594727 0.32317450642585754 110
-1.3291505575180054 -5.960937976837158 0.10593609511852264 110
-0.4262145757675171 -1.9036532640457153 -0.5124619007110596 119
-0.48985669016838074 -2.1861159801483154 -0.5083897113800049 119
-1.3251633644104004 -5.909060478210449 -1.168609619140625 110
-1.3288793563842773 -5.920790672302246 -0.9550331830978394 110
-1.3331494331359863 -5.934967994689941 -0.742185115814209 110
-1.3193938732147217 -5.8689398765563965 -0.5229352712631226 110
-1.3411734104156494 -5.960958003997803 -0.3171437382698059 110
-1.329555869102478 -5.904510498046875 -0.10392740368843079 110
-1.1042125225067139 -4.899778842926025 1.3346363306045532 114
-1.157524824142456 -5.132166862487793 1.2048259973526 114
-1.2112889289855957 -5.3661789894104 1.0608986616134644 114
-1.2740633487701416 -5.639695167541504 0.9086639285087585 114
-1.2790530920028687 -5.65718936920166 0.7074515223503113 110
-1.3407787084579468 -5.925390243530273 0.5281637907028198 110
-1.3428659439086914 -5.929806232452393 0.3166325092315674 110
-1.3223243951797485 -5.834372043609619 0.10375455021858215 110
-0.43178534507751465 -1.8974446058273315 -0.5111678242683411 119
-0.4974846839904785 -2.1843926906585693 -0.5083897113800049 119
-1.3196033239364624 -5.78954553604126 -1.145733118057251 110
-1.3253759145736694 -5.8101911544799805 -0.9378253817558289 110
-1.328453540802002 -5.81899881362915 -0.7281701564788818 110
-1.3132450580596924 -5.747757434844971 -0.5124765634536743 110
-1.3363730907440186 -5.8442864418029785 -0.3111451268196106 110
-1.3233928680419922 -5.7828755378723145 -0.10185404121875763 110
-1.1223875284194946 -4.900602340698242 1.3359296321868896 114
-1.1765209436416626 -5.132843971252441 1.2059500217437744 114
-1.2311103343963623 -5.366702079772949 1.0618517398834229 114
-1.2937417030334473 -5.635213851928711 0.9086639285087585 114
-1.2999039888381958 -5.657526969909668 0.7080608606338501 110
-1.334664225578308 -5.804170608520508 0.5177051424980164 110
-1.3355611562728882 -5.803433895111084 0.3100905120372772 110
-1.3146313428878784 -5.707928657531738 0.10157299786806107 110
-0.4384060204029083 -1.8959258794784546 -0.5111678242683411 119
-0.5051066279411316 -2.182642936706543 -0.5083897113800049 119
-1.3132253885269165 -5.67014217376709 -1.122856616973877 110
-1.3200016021728516 -5.694878101348877 -0.9198353886604309 110
-1.3240859508514404 -5.707970142364502 -0.7147644758224487 110
-1.307393193244934 -5.63154411315918 -0.502453625202179 110
