# .PCD v0.7 - Point Cloud Data file format
VERSION 0.7
FIELDS x y z intensity
SIZE 4 4 4 4
TYPE F F F F
COUNT 1 1 1 1
WIDTH 795
HEIGHT 1
VIEWPOINT 0 0 0 1 0 0 0
POINTS 795
DATA ascii
1.8148133754730225 -0.4029991328716278 -0.4878741204738617 119
2.0633161067962646 -0.4585597813129425 -0.47914600372314453 119
2.428152561187744 -0.5400872230529785 -0.47564128041267395 119
2.9296038150787354 -0.6521602272987366 -0.46930378675460815 119
3.7817208766937256 -0.8425431847572327 -0.4710255563259125 119
5.0836567878723145 -1.1335375308990479 -0.4523390233516693 119
5.495450973510742 -1.2263648509979248 -0.29210609197616577 101
5.487224578857422 -1.225534439086914 -0.09649785608053207 101
5.481463432312012 -1.2252522706985474 1.4937063455581665 101
5.466996669769287 -1.2230204343795776 1.2834994792938232 101
5.473658561706543 -1.2255138158798218 1.0818686485290527 101
5.45396614074707 -1.222104549407959 0.8781928420066833 101
5.475399971008301 -1.2279109954833984 0.6842963099479675 101
5.504895210266113 -1.2355347871780396 0.4902510643005371 101
5.51804256439209 -1.239497184753418 0.2943897545337677 101
5.417206287384033 -1.2178399562835693 0.0962500125169754 101
1.813395619392395 -0.4093315303325653 -0.4878741204738617 119
2.066455125808716 -0.46683284640312195 -0.4802708029747009 119
2.426252603530884 -0.5485597848892212 -0.47564128041267395 119
2.927309513092041 -0.6623824834823608 -0.46930378675460815 119
3.778756856918335 -0.855738639831543 -0.4710255563259125 119
5.0748114585876465 -1.150174856185913 -0.45190322399139404 119
5.398616313934326 -1.2245539426803589 -0.28715071082115173 101
5.3561577796936035 -1.2159061431884766 -0.09425170719623566 101
5.4630231857299805 -1.2411683797836304 1.4898265600204468 101
5.434189319610596 -1.2356150150299072 1.2767560482025146 101
nan nan nan 0
5.32928466796875 -1.2137186527252197 0.8586600422859192 101
5.437209606170654 -1.2392961978912354 0.680030882358551 101
5.379143238067627 -1.2270488739013672 0.479356586933136 101
5.387116432189941 -1.2298567295074463 0.2875860631465912 101
5.300828456878662 -1.211130976676941 0.09424299001693726 101
1.8119556903839111 -0.41565898060798645 -0.4878741204738617 119
2.069561243057251 -0.47513341903686523 -0.48139551281929016 119
2.419539451599121 -0.5559265613555908 -0.4746881127357483 119
2.9249794483184814 -0.6725966930389404 -0.46930378675460815 119
3.780582904815674 -0.8700367212295532 -0.4716348946094513 119
5.051350116729736 -1.1634104251861572 -0.45016011595726013 119
5.282399654388428 -1.2175960540771484 -0.2811520993709564 101
5.244711399078369 -1.2098729610443115 -0.09235111624002457 101
nan nan nan 0
nan nan nan 0
5.115875244140625 -1.182973861694336 1.0122859477996826 101
5.2095417976379395 -1.2055909633636475 0.8399085998535156 101
5.311981678009033 -1.2302744388580322 0.6647972464561462 101
5.263223171234131 -1.2199496030807495 0.4693336486816406 101
5.270918846130371 -1.2227027416229248 0.28156745433807373 101
5.18943452835083 -1.2047553062438965 0.09232322871685028 101
1.81049382686615 -0.4219813346862793 -0.4878741204738617 119
2.067890167236328 -0.48235461115837097 -0.48139551281929016 119
2.4175844192504883 -0.5643689036369324 -0.4746881127357483 119
2.9226138591766357 -0.682802677154541 -0.46930378675460815 119
3.7775228023529053 -0.8832281231880188 -0.4716348946094513 119
5.032708168029785 -1.1776312589645386 -0.4488527774810791 119
5.176022529602051 -1.2121191024780273 -0.27567511796951294 101
5.133373737335205 -1.203076720237732 -0.09045053273439407 101
5.073343753814697 -1.1899420022964478 1.385073184967041 101
5.060210227966309 -1.1877933740615845 1.1902153491973877 101
5.044819355010986 -1.1851097345352173 0.9989413022994995 101
5.113958835601807 -1.2022935152053833 0.8250637054443359 101
5.186884880065918 -1.2203937768936157 0.6495635509490967 101
5.152268886566162 -1.2131983041763306 0.4597465693950653 101
5.1548380851745605 -1.2147527933120728 0.2755487859249115 101
5.083016395568848 -1.1987643241882324 0.09049072116613388 101
1.8090097904205322 -0.42829856276512146 -0.4878741204738617 119
2.0661938190460205 -0.4895699620246887 -0.48139551281929016 119
2.4155995845794678 -0.5728044509887695 -0.4746881127357483 119
2.920212745666504 -0.693000316619873 -0.46930378675460815 119
3.779245376586914 -0.8975555300712585 -0.4722442328929901 119
4.936493396759033 -1.1733074188232422 -0.44057294726371765 119
5.069748878479004 -1.2059146165847778 -0.27019813656806946 101
5.022149562835693 -1.1955186128616333 -0.08854995667934418 101
5.064460754394531 -1.2065247297286987 1.3837798833847046 101
5.056033134460449 -1.2054495811462402 1.1902153491973877 101
5.050200462341309 -1.2049905061721802 1.0008476972579956 101
5.008856773376465 -1.1960498094558716 0.8086561560630798 101
5.086056709289551 -1.215422511100769 0.6373766660690308 101
5.046271324157715 -1.2068458795547485 0.4505952000617981 101
5.048590660095215 -1.2083321809768677 0.27005353569984436 101
4.976705074310303 -1.1920454502105713 0.08865822106599808 101
1.8075037002563477 -0.4346105754375458 -0.4878741204738617 119
2.064472198486328 -0.49677935242652893 -0.48139551281929016 119
2.4135854244232178 -0.5812329649925232 -0.4746881127357483 119
2.922576665878296 -0.7043465375900269 -0.4700859487056732 119
3.7760894298553467 -0.9107421040534973 -0.4722442328929901 119
4.83552885055542 -1.1671578884124756 -0.4318573772907257 119
4.963582992553711 -1.1989831924438477 -0.2647211253643036 101
4.911041259765625 -1.1871986389160156 -0.08664936572313309 101
4.999190330505371 -1.2094314098358154 1.3669675588607788 101
4.976030349731445 -1.2047477960586548 1.172232747077942 101
4.950558185577393 -1.1994953155517578 0.9817839860916138 101
4.908661842346191 -1.190251111984253 0.7930299639701843 101
4.975682735443115 -1.2074217796325684 0.6239709854125977 101
4.9403815269470215 -1.1997686624526978 0.44144386053085327 101
4.9375996589660645 -1.2000056505203247 0.2642965614795685 101
4.875361442565918 -1.1857808828353882 0.08691298216581345 101
1.8012837171554565 -0.439771831035614 -0.4865800142288208 119
2.057993173599243 -0.5028263330459595 -0.4802708029747009 119
2.416309356689453 -0.5908201932907104 -0.47564128041267395 119
2.9248974323272705 -0.7157177925109863 -0.47086814045906067 119
3.7728872299194336 -0.9239175915718079 -0.4722442328929901 119
4.739506721496582 -1.1615034341812134 -0.42357754707336426 119
4.862378120422363 -1.1925150156021118 -0.25950494408607483 101
4.819474697113037 -1.1828845739364624 -0.08509434014558792 101
4.891748428344727 -1.2015286684036255 1.3385159969329834 101
4.886633396148682 -1.2011765241622925 1.1520025730133057 101
4.874847888946533 -1.1991817951202393 0.9674860835075378 101
4.813364505767822 -1.1849483251571655 0.7781851291656494 101
4.879883289337158 -1.202227234840393 0.6123934388160706 101
4.844276428222656 -1.1943517923355103 0.4331640303134918 101
4.836425304412842 -1.1933115720748901 0.2590629756450653 101
4.774122714996338 -1.1788233518600464 0.08516774326562881 101
1.7997376918792725 -0.4460567831993103 -0.4865800142288208 119
2.051496744155884 -0.508834183216095 -0.47914600372314453 119
2.4142322540283203 -0.5992510914802551 -0.47564128041267395 119
2.9223811626434326 -0.7259232401847839 -0.47086814045906067 119
3.769639253616333 -0.9370817542076111 -0.4722442328929901 119
4.643584728240967 -1.155193567276001 -0.4152977466583252 119
4.761280059814453 -1.185355305671692 -0.25428879261016846 101
4.723147869110107 -1.1767374277114868 -0.08345293253660202 101
4.798483848571777 -1.1963963508605957 1.3139442205429077 101
4.806776523590088 -1.199355125427246 1.1340200901031494 101
4.756341934204102 -1.187652826309204 0.9446095824241638 101
4.71337366104126 -1.1777976751327515 0.7625589370727539 101
4.784181594848633 -1.1963785886764526 0.6008158326148987 101
4.743438720703125 -1.1870697736740112 0.4244484603404999 101
4.740202903747559 -1.1871391534805298 0.2540910542011261 101
4.672993183135986 -1.1711739301681519 0.08342249691486359 101
1.798169732093811 -0.4523363411426544 -0.4865800142288208 119
2.049708127975464 -0.5159921646118164 -0.47914600372314453 119
2.4168856143951416 -0.6088737845420837 -0.4765945076942444 119
2.9246177673339844 -0.737326979637146 -0.47165027260780334 119
3.7663450241088867 -0.9502345323562622 -0.4722442328929901 119
4.5381059646606445 -1.1457892656326294 -0.406146377325058 119
4.669974327087402 -1.1799508333206177 -0.24959421157836914 101
4.631770610809326 -1.171157956123352 -0.08189790695905685 101
4.695950031280518 -1.1882580518722534 1.2867859601974487 101
4.708101272583008 -1.1922069787979126 1.111541986465454 101
4.661766529083252 -1.1813398599624634 0.9264989495277405 101
4.618279933929443 -1.1711777448654175 0.7477139830589294 101
4.68377161026001 -1.188656210899353 0.588628888130188 101
4.6475396156311035 -1.180324673652649 0.4161686897277832 101
4.644083023071289 -1.180309772491455 0.2491191327571869 101
4.552597522735596 -1.1579042673110962 0.08132820576429367 101
1.8012593984603882 -0.459804892539978 -0.4878741204738617 119
2.0431740283966064 -0.5219380259513855 -0.4780212938785553 119
2.4195005893707275 -0.6185221672058105 -0.47754764556884766 119
2.9268107414245605 -0.7487553358078003 -0.4724324643611908 119
3.767812967300415 -0.964606523513794 -0.47285357117652893 119
4.452051639556885 -1.1406080722808838 -0.3987381160259247 119
4.569091796875 -1.1714434623718262 -0.24437803030014038 101
4.511436462402344 -1.1575007438659668 -0.0798245444893837 101
4.616923809051514 -1.185424566268921 1.2660939693450928 101
4.623691558837891 -1.1880223751068115 1.092435598373413 101
4.562541484832764 -1.1731592416763306 0.9074352383613586 101
4.4993767738342285 -1.1577550172805786 0.7289625406265259 101
4.559444904327393 -1.1740599870681763 0.5733952522277832 101
4.527629375457764 -1.1667101383209229 0.40570998191833496 101
4.523895740509033 -1.1665900945663452 0.24283882975578308 101
4.446873664855957 -1.147555947303772 0.07949570566415787 101
1.7996433973312378 -0.4660896956920624 -0.4878741204738617 119
2.046055793762207 -0.5302891135215759 -0.47914600372314453 119
2.4173269271850586 -0.6269640326499939 -0.47754764556884766 119
2.9241793155670166 -0.7589673399925232 -0.4724324643611908 119
3.7788329124450684 -0.9814956188201904 -0.4746816158294678 119
4.313060760498047 -1.1210569143295288 -0.3865363299846649 119
4.444164752960205 -1.1559618711471558 -0.23785781860351562 101
4.410607814788818 -1.1480553150177002 -0.07809673994779587 101
4.49591064453125 -1.1710970401763916 1.2337626218795776 101
4.496939659118652 -1.1722031831741333 1.0632140636444092 101
4.449182987213135 -1.1605838537216187 0.8855119347572327 101
4.380625247955322 -1.1435171365737915 0.7102110981941223 101
4.454484939575195 -1.1636278629302979 0.5605989694595337 101
4.44642448425293 -1.1623512506484985 0.39873751997947693 101
4.45216703414917 -1.1646827459335327 0.23917530477046967 101
4.273571968078613 -1.118759274482727 0.07644154131412506 101
1.79800546169281 -0.4723687469959259 -0.4878741204738617 119
2.0489041805267334 -0.5386666655540466 -0.4802708029747009 119
2.419870615005493 -0.63664710521698 -0.4785008728504181 119
2.926287889480591 -0.7704272866249084 -0.47321462631225586 119
3.7801826000213623 -0.9959445595741272 -0.4752909541130066 119
4.2513251304626465 -1.120867371559143 -0.3813069760799408 119
4.275951862335205 -1.128158450126648 -0.22899030148983002 101
4.2567315101623535 -1.1238821744918823 -0.0754186362028122 101
4.398403167724609 -1.1621081829071045 1.207897663116455 101
4.398616313934326 -1.162985920906067 1.0407359600067139 101
4.283773422241211 -1.1334216594696045 0.853103518486023 101
4.247706890106201 -1.1246721744537354 0.6891157031059265 101
4.282494068145752 -1.1346827745437622 0.5392717719078064 101
4.264199733734131 -1.1306320428848267 0.3826137185096741 101
4.259855270385742 -1.1302759647369385 0.22896979749202728 101
4.216490745544434 -1.1195576190948486 0.07548165321350098 101
1.801012396812439 -0.47988560795783997 -0.4891682267189026 119
2.0517187118530273 -0.5470706224441528 -0.48139551281929016 119
2.417633533477783 -0.6450901627540588 -0.4785008728504181 119
2.9235806465148926 -0.780637264251709 -0.47321462631225586 119
3.805450201034546 -1.0168204307556152 -0.4789470434188843 119
4.194455146789551 -1.1215472221374512 -0.37651336193084717 119
4.1948113441467285 -1.1224271059036255 -0.22481736540794373 101
4.1561994552612305 -1.112872838973999 -0.07369083911180496 101
4.240365505218506 -1.1362024545669556 1.1652202606201172 101
4.243943691253662 -1.1379553079605103 1.0047709941864014 101
4.199200630187988 -1.1267435550689697 0.8368993401527405 101
4.172210693359375 -1.1202822923660278 0.6773960590362549 101
4.22578763961792 -1.1354588270187378 0.5325689911842346 101
4.192884922027588 -1.1274027824401855 0.3765127956867218 101
4.198023796081543 -1.1295702457427979 0.22582964599132538 101
4.1932477951049805 -1.1290699243545532 0.07513260096311569 101
1.7993263006210327 -0.48616936802864075 -0.4891682267189026 119
2.0497965812683105 -0.5542291402816772 -0.48139551281929016 119
2.4153668880462646 -0.6535253524780273 -0.4785008728504181 119
2.920837879180908 -0.7908376455307007 -0.47321462631225586 119
3.7875077724456787 -1.026204228401184 -0.4771190285682678 119
4.13282585144043 -1.1205404996871948 -0.37128400802612305 119
4.1715922355651855 -1.1318328380584717 -0.22377412021160126 101
4.152289867401123 -1.1273739337921143 -0.07369083911180496 101
4.185103416442871 -1.137067437171936 1.1509944200515747 101
4.17882776260376 -1.1361455917358398 0.9901602268218994 101
4.15261697769165 -1.1297975778579712 0.8283206224441528 101
4.130153656005859 -1.1244604587554932 0.6711456179618835 101
4.183492183685303 -1.1397665739059448 0.5276942253112793 101
4.1889238357543945 -1.1420317888259888 0.3765127956867218 101
4.184421062469482 -1.141588807106018 0.22530627250671387 101
4.116940021514893 -1.123950719833374 0.07382367551326752 101
1.7976183891296387 -0.49244722723960876 -0.4891682267189026 119
2.047849416732788 -0.5613808631896973 -0.48139551281929016 119
2.4130711555480957 -0.661952555179596 -0.4785008728504181 119
2.9180595874786377 -0.8010284900665283 -0.47321462631225586 119
3.7791171073913574 -1.0381042957305908 -0.4765096604824066 119
4.0808610916137695 -1.1217578649520874 -0.36692625284194946 119
4.114657878875732 -1.1318204402923584 -0.22090522944927216 101
4.07120943069458 -1.1206333637237549 -0.07230859249830246 101
4.162483215332031 -1.1465387344360352 1.145821452140808 101
4.165442943572998 -1.1481362581253052 0.9879124760627747 101
4.1155266761779785 -1.1351505517959595 0.8216482996940613 101
4.0881195068359375 -1.1283589601516724 0.6648951172828674 101
4.1173014640808105 -1.1371867656707764 0.5197727084159851 101
4.112897872924805 -1.136743187904358 0.36997613310813904 101
4.093785762786865 -1.1322300434112549 0.22059603035449982 101
4.05999231338501 -1.1236463785171509 0.07286378741264343 101
1.7958884239196777 -0.49871909618377686 -0.4891682267189026 119
2.045877456665039 -0.5685257911682129 -0.48139551281929016 119
2.410745620727539 -0.6703717112541199 -0.4785008728504181 119
2.9104881286621094 -0.8098856210708618 -0.4724324643611908 119
3.7706894874572754 -1.049958348274231 -0.4759003221988678 119
4.019341945648193 -1.1199522018432617 -0.36169689893722534 101
4.062584400177002 -1.1327654123306274 -0.21829713881015778 101
4.014304161071777 -1.1200586557388306 -0.07135830819606781 101
4.088676929473877 -1.1415791511535645 1.1264227628707886 101
4.076947212219238 -1.1390711069107056 0.9676821231842041 101
4.0500874519348145 -1.132328748703003 0.8092568516731262 101
3.9795241355895996 -1.113349437713623 0.6477062702178955 101
4.0559587478637695 -1.135496973991394 0.5124605894088745 101
4.046552658081055 -1.1336252689361572 0.36431100964546204 101
4.046538829803467 -1.1343830823898315 0.21824093163013458 101
3.988657236099243 -1.1189078092575073 0.07164212316274643 101
1.794136643409729 -0.5049848556518555 -0.4891682267189026 119
2.0438804626464844 -0.5756637454032898 -0.48139551281929016 119
2.408390998840332 -0.6787827014923096 -0.4785008728504181 119
2.9076433181762695 -0.820040225982666 -0.4724324643611908 119
3.7622251510620117 -1.0617661476135254 -0.4752909541130066 119
3.9530930519104004 -1.1163772344589233 -0.35603177547454834 101
4.015360355377197 -1.134718656539917 -0.21594984829425812 101
3.9526424407958984 -1.1177400350570679 -0.07032161951065063 101
4.0242509841918945 -1.1387481689453125 1.1096104383468628 101
4.016693592071533 -1.1373668909072876 0.9541952610015869 101
3.9894418716430664 -1.1304024457931519 0.7978186011314392 101
3.8710854053497314 -1.097596287727356 0.6305174231529236 101
3.9851303100585938 -1.1306836605072021 0.5039296746253967 101
4.004238128662109 -1.1368602514266968 0.3608247637748718 101
4.013735771179199 -1.140313744544983 0.21667084097862244 101
3.9125964641571045 -1.1123179197311401 0.07033319026231766 101
1.792362928390503 -0.511244535446167 -0.4891682267189026 119
2.041858434677124 -0.5827946662902832 -0.48139551281929016 119
2.401287317276001 -0.68583744764328 -0.47754764556884766 119
2.9095113277435303 -0.8315418362617493 -0.47321462631225586 119
3.758496046066284 -1.074892282485962 -0.4752909541130066 119
3.882129430770874 -1.1109832525253296 -0.34993085265159607 101
3.9297707080841064 -1.1253591775894165 -0.2115160971879959 101
3.8910467624664307 -1.1150047779083252 -0.06928493827581406 101
3.978466749191284 -1.140807032585144 1.0979710817337036 101
3.9518191814422607 -1.1339123249053955 0.939584493637085 101
3.928859233856201 -1.1280665397644043 0.7863803505897522 101
3.800778865814209 -1.0920097827911377 0.6195790767669678 101
3.9191553592681885 -1.1267613172531128 0.4960081875324249 101
3.9188690185546875 -1.1274197101593018 0.3534165322780609 101
3.9185638427734375 -1.1280723810195923 0.21169894933700562 101
3.8462393283843994 -1.1079785823822021 0.06919878721237183 101
1.790567398071289 -0.5174978971481323 -0.4891682267189026 119
2.039811611175537 -0.5899185538291931 -0.48139551281929016 119
2.398878574371338 -0.6942153573036194 -0.47754764556884766 119
2.9065909385681152 -0.8416928052902222 -0.47321462631225586 119
3.7499547004699707 -1.0866241455078125 -0.4746816158294678 119
3.8112528324127197 -1.1051076650619507 -0.3438299298286438 101
3.8538875579833984 -1.1181992292404175 -0.20760397613048553 101
3.8247179985046387 -1.1104594469070435 -0.06816186755895615 101
3.9002513885498047 -1.1331276893615723 1.0772790908813477 101
3.8870179653167725 -1.1300188302993774 0.924973726272583 101
3.868342638015747 -1.1253217458724976 0.7749421000480652 101
3.7922019958496094 -1.1038899421691895 0.618797779083252 101
3.8484928607940674 -1.121004581451416 0.4874773621559143 101
3.8479621410369873 -1.121578574180603 0.34731563925743103 101
3.847494125366211 -1.1221709251403809 0.2080354243516922 101
3.7751622200012207 -1.1017893552780151 0.06797712296247482 101
1.788750171661377 -0.5237450003623962 -0.4891682267189026 119
2.033064842224121 -0.5956653952598572 -0.4802708029747009 119
2.3964407444000244 -0.7025847434997559 -0.47754764556884766 119
2.903635263442993 -0.8518336415290833 -0.47321462631225586 119
3.7604241371154785 -1.1039007902145386 -0.4765096604824066 119
3.7452445030212402 -1.1001547574996948 -0.3381648063659668 101
3.7733120918273926 -1.1091150045394897 -0.20343102514743805 101
3.763265371322632 -1.1068756580352783 -0.06712518632411957 101
3.8314051628112793 -1.1276438236236572 1.059173583984375 101
3.822293281555176 -1.1256870031356812 0.910362958908081 101
3.8078932762145996 -1.1221685409545898 0.7635038495063782 101
3.7409563064575195 -1.1031520366668701 0.6109846830368042 101
3.787438154220581 -1.1175774335861206 0.48016518354415894 101
3.77714467048645 -1.1152567863464355 0.34121474623680115 101
3.771725654602051 -1.1143723726272583 0.20411022007465363 101
3.708970069885254 -1.0965347290039062 0.0668427124619484 101
1.7915414571762085 -0.5313590168952942 -0.4904623031616211 119
2.030973196029663 -0.602758526802063 -0.4802708029747009 119
2.398678779602051 -0.7123429775238037 -0.4785008728504181 119
2.900644063949585 -0.8619640469551086 -0.47321462631225586 119
3.766061544418335 -1.1198493242263794 -0.47772833704948425 119
3.684091806411743 -1.0961754322052002 -0.3329354524612427 101
3.7024195194244385 -1.1023321151733398 -0.1997796893119812 101
3.7018849849700928 -1.1028763055801392 -0.06608849763870239 101
3.762645959854126 -1.12169349193573 1.0410680770874023 101
3.7623157501220703 -1.1223101615905762 0.8968761563301086 101
3.747514247894287 -1.1186070442199707 0.7520655393600464 101
3.689762830734253 -1.1020699739456177 0.6031715869903564 101
3.7312099933624268 -1.1151589155197144 0.47346237301826477 101
3.701646566390991 -1.1070270538330078 0.334678053855896 101
3.700843334197998 -1.1074905395507812 0.2004467099905014 101
3.6524391174316406 -1.0936999320983887 0.06588283181190491 101
1.7896755933761597 -0.5376094579696655 -0.4904623031616211 119
2.0195255279541016 -0.6070394515991211 -0.4780212938785553 119
2.391477346420288 -0.7192978262901306 -0.47754764556884766 119
2.9023468494415283 -0.8735072016716003 -0.4739968180656433 119
3.6956028938293457 -1.1129536628723145 -0.46919748187065125 119
3.6277825832366943 -1.0932197570800781 -0.32814186811447144 101
3.650743246078491 -1.1008340120315552 -0.19717161357402802 101
3.6405789852142334 -1.0984623432159424 -0.06505181640386581 101
3.6801042556762695 -1.1110889911651611 1.01908278465271 101
3.702408790588379 -1.1185282468795776 0.8833892345428467 101
3.687206745147705 -1.1146379709243774 0.7406273484230042 101
3.6433498859405518 -1.1020740270614624 0.5961397886276245 101
3.6750457286834717 -1.1123617887496948 0.4667595624923706 101
3.6500885486602783 -1.1055033206939697 0.3303202688694 101
3.649169683456421 -1.105920433998108 0.19782990217208862 101
3.5911898612976074 -1.0890332460403442 0.06483568251132965 101
1.7878830432891846 -0.5435412526130676 -0.4904623031616211 119
2.017608404159546 -0.6133809685707092 -0.4780212938785553 119
2.3892059326171875 -0.7268072962760925 -0.47754764556884766 119
2.899588108062744 -0.8826208710670471 -0.4739968180656433 119
3.658856153488159 -1.1144362688064575 -0.46493205428123474 119
3.5719196796417236 -1.0886378288269043 -0.3233482837677002 101
3.5995066165924072 -1.097732424736023 -0.19456352293491364 101
3.584512948989868 -1.093843698501587 -0.06410152465105057 101
3.635021924972534 -1.109950304031372 1.0074435472488403 101
3.647623300552368 -1.1144943237304688 0.871026337146759 101
3.6273605823516846 -1.1089954376220703 0.7291890382766724 101
3.5879218578338623 -1.0976226329803467 0.5875453948974609 101
3.614588499069214 -1.1064704656600952 0.4594474136829376 101
3.5942091941833496 -1.100918173789978 0.3255266845226288 101
3.5931637287139893 -1.1012840270996094 0.19495142996311188 101
3.5399558544158936 -1.0856518745422363 0.06396306306123734 101
1.7906869649887085 -0.5508872270584106 -0.491756409406662 119
2.020111322402954 -0.6218532919883728 -0.47914600372314453 119
2.3866543769836426 -0.735142707824707 -0.47754764556884766 119
2.9012088775634766 -0.8941915035247803 -0.4747789800167084 119
3.66917085647583 -1.1315889358520508 -0.4667600989341736 119
3.520503044128418 -1.086411952972412 -0.3189904987812042 101
3.543172836303711 -1.0940850973129272 -0.19169461727142334 101
3.5329084396362305 -1.0915910005569458 -0.06323762238025665 101
3.571138620376587 -1.10408616065979 0.9906312227249146 101
3.5925121307373047 -1.11138117313385 0.8586633801460266 101
3.5718908309936523 -1.1056848764419556 0.7187039852142334 101
3.5321764945983887 -1.094066858291626 0.5789509415626526 101
3.558561086654663 -1.1029199361801147 0.45274460315704346 101
3.5427701473236084 -1.0987035036087036 0.3211688995361328 101
3.541609525680542 -1.099021315574646 0.1923346370458603 101
3.483626365661621 -1.0816947221755981 0.06300318241119385 101
1.7885584831237793 -0.5577588677406311 -0.491756409406662 119
2.0223593711853027 -0.6310566067695618 -0.4802708029747009 119
2.3838138580322266 -0.7443013787269592 -0.47754764556884766 119
2.897753953933716 -0.9053246974945068 -0.4747789800167084 119
3.5984854698181152 -1.1249386072158813 -0.4582292437553406 119
3.4687671661376953 -1.085051417350769 -0.31463271379470825 101
3.49129319190979 -1.0927667617797852 -0.18908652663230896 101
3.4809834957122803 -1.0902068614959717 -0.06237372010946274 101
3.520784378051758 -1.1033469438552856 0.9776986837387085 101
3.537081003189087 -1.109131932258606 0.8463004231452942 101
3.511420488357544 -1.1017587184906006 0.7072656750679016 101
3.4808313846588135 -1.0928282737731934 0.5711378455162048 101
3.5022192001342773 -1.1002147197723389 0.4460417628288269 101
3.4910078048706055 -1.0973621606826782 0.31681114435195923 101
3.4897327423095703 -1.097630500793457 0.1897178441286087 101
3.4317610263824463 -1.0800548791885376 0.06213056296110153 101
1.7866005897521973 -0.5639986991882324 -0.491756409406662 119
2.024789810180664 -0.6395795345306396 -0.48139551281929016 119
2.3812012672424316 -0.7526179552078247 -0.47754764556884766 119
2.899284839630127 -0.9169233441352844 -0.4755611717700958 119
3.5282959938049316 -1.1165308952331543 -0.4496983587741852 119
3.4174726009368896 -1.0821170806884766 -0.3102749288082123 101
3.4398577213287354 -1.0898656845092773 -0.18647843599319458 101
3.429501533508301 -1.0872431993484497 -0.06150982156395912 101
3.475477695465088 -1.102486491203308 0.9660593867301941 101
3.4821066856384277 -1.1052582263946533 0.833937406539917 101
3.4560952186584473 -1.0976659059524536 0.6967806816101074 101
3.429929256439209 -1.0900145769119263 0.5633247494697571 101
3.4463343620300293 -1.0958902835845947 0.4393389821052551 101
3.4396910667419434 -1.094438910484314 0.31245335936546326 101
3.4383015632629395 -1.09465754032135 0.18710103631019592 101
3.3850975036621094 -1.0783767700195312 0.06134520471096039 101
1.784720540046692 -0.5699201822280884 -0.491756409406662 119
2.027411460876465 -0.6474193930625916 -0.48252031207084656 119
2.3788251876831055 -0.760094940662384 -0.47754764556884766 119
2.896389961242676 -0.9260271191596985 -0.4755611717700958 119
3.4585964679718018 -1.1064399480819702 -0.4411675035953522 119
3.366617441177368 -1.077662706375122 -0.3059171438217163 101
3.388864278793335 -1.085436224937439 -0.1838703453540802 101
3.3784618377685547 -1.0827544927597046 -0.06064591929316521 101
3.4260053634643555 -1.0986508131027222 0.9531269073486328 101
3.4322264194488525 -1.1013065576553345 0.8226984143257141 101
3.4058964252471924 -1.0935137271881104 0.6872487664222717 101
3.3794686794281006 -1.0856794118881226 0.5555116534233093 101
3.3909034729003906 -1.0900057554244995 0.4326361417770386 101
3.3888182640075684 -1.089988112449646 0.3080955445766449 101
3.387314796447754 -1.0901570320129395 0.18448422849178314 101
3.334109306335449 -1.0736756324768066 0.06047258526086807 101
1.7828208208084106 -0.5758354067802429 -0.491756409406662 119
2.025139331817627 -0.6544924378395081 -0.48252031207084656 119
2.376157522201538 -0.7683939933776855 -0.47754764556884766 119
2.8931398391723633 -0.9361318349838257 -0.4755611717700958 119
3.388613224029541 -1.0971052646636963 -0.43263664841651917 119
3.320188522338867 -1.0755921602249146 -0.30199509859085083 101
3.3375561237335205 -1.081862211227417 -0.18126225471496582 101
3.3271079063415527 -1.0791171789169312 -0.05978201702237129 101
3.3762097358703613 -1.0956941843032837 0.9401943683624268 101
3.3820228576660156 -1.0982333421707153 0.8114593625068665 101
3.360045909881592 -1.0917450189590454 0.6786700487136841 101
3.328692674636841 -1.0822001695632935 0.5476985573768616 101
3.3398849964141846 -1.0864834785461426 0.4265426993370056 101
3.3423655033111572 -1.087935447692871 0.3041735589504242 101
3.336012125015259 -1.086511492729187 0.18186743557453156 101
3.2875618934631348 -1.071366310119629 0.05968722328543663 101
1.780698299407959 -0.582365870475769 -0.491756409406662 119
2.0227267742156982 -0.6619105339050293 -0.48252031207084656 119
2.3733251094818115 -0.7770978808403015 -0.47754764556884766 119
2.8943819999694824 -0.9482669830322266 -0.4763433039188385 119
3.365705966949463 -1.1033341884613037 -0.4301992654800415 119
3.268895149230957 -1.0722298622131348 -0.29763731360435486 101
3.2908706665039062 -1.0800740718841553 -0.17891496419906616 101
3.2803831100463867 -1.0772663354873657 -0.05900450423359871 101
3.3262863159179688 -1.0929839611053467 0.9272618889808655 101
3.3316917419433594 -1.0954045057296753 0.8002203106880188 101
3.3140594959259033 -1.0902482271194458 0.6700913310050964 101
3.282485008239746 -1.080496072769165 0.5406667590141296 101
3.288743734359741 -1.0831923484802246 0.4204491972923279 101
3.291048526763916 -1.0845881700515747 0.29981574416160583 101
3.2893295288085938 -1.084658145904541 0.17951232194900513 101
3.2408857345581055 -1.0693110227584839 0.058901868760585785 101
1.7786545753479004 -0.5885781049728394 -0.491756409406662 119
2.020404100418091 -0.6689671874046326 -0.48252031207084656 119
2.3752574920654297 -0.7869212031364441 -0.4785008728504181 119
2.891054391860962 -0.9583643674850464 -0.4763433039188385 119
3.3288614749908447 -1.1041392087936401 -0.425933837890625 119
3.222585439682007 -1.0695134401321411 -0.29371529817581177 101
3.2396926879882812 -1.075818657875061 -0.17630688846111298 101
3.2386486530303955 -1.0760995149612427 -0.058313384652137756 101
3.276618719100952 -1.0893508195877075 0.9143292903900146 101
3.286241054534912 -1.093186855316162 0.7901051640510559 101
3.263662576675415 -1.0863087177276611 0.6605594754219055 101
3.236523389816284 -1.077902913093567 0.5336349606513977 101
3.2425692081451416 -1.08054518699646 0.41496509313583374 101
3.2494406700134277 -1.0834650993347168 0.296329528093338 101
3.2381582260131836 -1.0803313255310059 0.17689552903175354 101
3.19445538520813 -1.0663706064224243 0.05811651051044464 101
1.7765891551971436 -0.5947832465171814 -0.491756409406662 119
2.013437032699585 -0.6744681596755981 -0.48139551281929016 119
2.377149820327759 -0.7967674732208252 -0.47945404052734375 119
2.89237380027771 -0.970020592212677 -0.47712549567222595 119
3.2826428413391113 -1.1015431880950928 -0.42044970393180847 119
3.176335334777832 -1.0664869546890259 -0.2897932827472687 101
3.1743857860565186 -1.0664488077163696 -0.17291636765003204 101
3.196963310241699 -1.0746548175811768 -0.057622265070676804 101
3.227017641067505 -1.085384488105774 0.9013968110084534 101
3.236229419708252 -1.0891114473342896 0.7788661122322083 101
3.2179856300354004 -1.083597183227539 0.6519807577133179 101
3.190620183944702 -1.0750024318695068 0.5266031622886658 101
3.196453332901001 -1.0775889158248901 0.4094809591770172 101
3.2031619548797607 -1.0804730653762817 0.2924075126647949 101
3.191789150238037 -1.0772573947906494 0.1745404154062271 101
3.148085594177246 -1.0631191730499268 0.0573311485350132 101
1.774502158164978 -0.6009810566902161 -0.491756409406662 119
2.011070489883423 -0.681492269039154 -0.48139551281929016 119
2.3836510181427 -0.8082126379013062 -0.48136040568351746 119
2.893646717071533 -0.9816974997520447 -0.477907657623291 119
3.236483573913574 -1.0986380577087402 -0.41496556997299194 119
3.1301462650299072 -1.0631507635116577 -0.2858712673187256 101
3.113912343978882 -1.0582431554794312 -0.16978666186332703 101
3.1411285400390625 -1.0681040287017822 -0.05667196959257126 101
3.1774847507476807 -1.081085205078125 0.8884642720222473 101
3.1816747188568115 -1.0831303596496582 0.7665031552314758 101
3.167722225189209 -1.0789976119995117 0.642448902130127 101
3.1401031017303467 -1.0702015161514282 0.518790066242218 101
3.155095338821411 -1.0759257078170776 0.4046061933040619 101
3.1522295475006104 -1.0755627155303955 0.28804972767829895 101
3.1407556533813477 -1.072259783744812 0.17192360758781433 101
3.101778030395508 -1.0595571994781494 0.056545794010162354 101
1.7723935842514038 -0.6071715354919434 -0.491756409406662 119
2.0132880210876465 -0.6900877356529236 -0.48252031207084656 119
2.38545823097229 -0.818120539188385 -0.4823136329650879 119
2.890202283859253 -0.9917922616004944 -0.477907657623291 119
3.1622226238250732 -1.0857547521591187 -0.4058253765106201 119
3.0793089866638184 -1.0578869581222534 -0.2815134823322296 101
3.0299251079559326 -1.0415126085281372 -0.16535289585590363 101
3.0806515216827393 -1.0595506429672241 -0.05563528835773468 101
3.128021717071533 -1.076453685760498 0.875531792640686 101
3.1225950717926025 -1.0751956701278687 0.7530162930488586 101
3.117530345916748 -1.0740604400634766 0.632917046546936 101
3.0803208351135254 -1.0618423223495483 0.5094143748283386 101
3.104405403137207 -1.0707510709762573 0.39851275086402893 101
3.091953992843628 -1.0670602321624756 0.28282037377357483 101
3.089796781539917 -1.066919207572937 0.16930681467056274 101
3.0508086681365967 -1.054052472114563 0.05567317083477974 101
1.765699863433838 -0.6117734909057617 -0.4904623031616211 119
2.01086688041687 -0.6971112489700317 -0.48252031207084656 119
2.3872249126434326 -0.8280507922172546 -0.48326680064201355 119
2.891388416290283 -1.003494143486023 -0.47868984937667847 119
3.0974678993225098 -1.0756224393844604 -0.39790382981300354 0
3.0332517623901367 -1.053916096687317 -0.2775914669036865 101
3.0404202938079834 -1.0570015907287598 -0.16613534092903137 101
3.029716730117798 -1.0538731813430786 -0.05477138236165047 101
3.0786304473876953 -1.0714901685714722 0.86259925365448 101
3.04980731010437 -1.062055230140686 0.7361577153205872 101
3.062777042388916 -1.0671712160110474 0.6224319338798523 101
3.0299623012542725 -1.0563305616378784 0.5016012787818909 101
3.058476209640503 -1.066870093345642 0.3930286169052124 101
3.036480188369751 -1.0597916841506958 0.278026819229126 101
3.0389139652252197 -1.0612362623214722 0.16669002175331116 101
2.9999163150787354 -1.0482051372528076 0.054800551384687424 101
1.781785249710083 -0.624321460723877 -0.4956386983394623 119
2.0130186080932617 -0.7057380080223083 -0.4836450219154358 119
2.3889517784118652 -0.8380035161972046 -0.4842199981212616 119
2.8925273418426514 -1.0152162313461304 -0.47947201132774353 119
3.0187759399414062 -1.0601186752319336 -0.3881542980670929 119
2.963763952255249 -1.0413808822631836 -0.27149057388305664 101
3.008448600769043 -1.0576717853546143 -0.16457048058509827 101
2.955280065536499 -1.039559006690979 -0.05347553268074989 101
3.02475643157959 -1.0645915269851685 0.8483734726905823 101
3.0093178749084473 -1.0597481727600098 0.727166473865509 101
3.008110761642456 -1.059913158416748 0.6119468808174133 101
2.956392765045166 -1.042270302772522 0.48988157510757446 101
3.007932662963867 -1.0610309839248657 0.38693514466285706 101
2.971701145172119 -1.0488337278366089 0.272361695766449 101
2.9786927700042725 -1.051885962486267 0.16354985535144806 101
2.9396755695343018 -1.038684606552124 0.053753409534692764 101
1.7704904079437256 -0.6273113489151001 -0.4930504858493805 119
2.015134811401367 -0.714388370513916 -0.4847698211669922 119
2.4137673377990723 -0.8561823964118958 -0.4899391233921051 119
2.893620014190674 -1.0269585847854614 -0.480254203081131 119
2.982320785522461 -1.0590249300003052 -0.383888840675354 0
2.950723886489868 -1.0483849048614502 -0.2706190049648285 101
2.952986001968384 -1.0497691631317139 -0.16170157492160797 101
2.946922779083252 -1.048193097114563 -0.05338914319872856 101
2.9755191802978516 -1.058949589729309 0.835440993309021 101
2.9459335803985596 -1.0489997863769531 0.7125557065010071 101
2.9442856311798096 -1.0489919185638428 0.5995554327964783 101
2.934128999710083 -1.0459505319595337 0.4867563545703888 101
2.929421901702881 -1.0448487997055054 0.3771856129169464 101
2.9492573738098145 -1.0525039434432983 0.27061858773231506 101
2.951490640640259 -1.0538816452026367 0.16224145889282227 101
2.9313242435455322 -1.0472577810287476 0.05366614833474159 101
nan nan nan 0
2.0034565925598145 -0.718130350112915 -0.48252031207084656 119
2.378422737121582 -0.8530039191246033 -0.48326680064201355 119
2.8946661949157715 -1.038720965385437 -0.48103639483451843 119
2.969264268875122 -1.0660747289657593 -0.38267016410827637 0
2.937670946121216 -1.0553103685379028 -0.26974743604660034 101
2.9352071285247803 -1.0550038814544678 -0.1609191596508026 101
2.915020227432251 -1.0483224391937256 -0.05287080258131027 101
2.9445366859436035 -1.0595179796218872 0.8276814222335815 101
2.9330859184265137 -1.0559759140014648 0.7103078961372375 101
2.940606117248535 -1.059262990951538 0.5995554327964783 101
2.9165220260620117 -1.0511627197265625 0.48441240191459656 101
2.9304251670837402 -1.0567514896392822 0.37779495120048523 101
2.931509494781494 -1.05772066116333 0.26931124925613403 101
2.9290082454681396 -1.0573960542678833 0.16119474172592163 101
2.9229485988616943 -1.0557851791381836 0.05357888340950012 101
nan nan nan 0
nan nan nan 0
2.347744941711426 -0.8512623906135559 -0.47754764556884766 119
2.895664930343628 -1.050503134727478 -0.4818185567855835 119
2.932870626449585 -1.064579963684082 -0.37840473651885986 0
2.92460560798645 -1.0621577501296997 -0.2688758969306946 101
2.9221208095550537 -1.0618325471878052 -0.16039754450321198 101
2.916041374206543 -1.0601996183395386 -0.052957188338041306 101
2.927203893661499 -1.0648365020751953 0.8238016963005066 101
2.9248039722442627 -1.0645415782928467 0.7091840505599976 101
2.9092185497283936 -1.0594439506530762 0.5938363075256348 101
2.9221153259277344 -1.064718246459961 0.4859750270843506 101
2.922056198120117 -1.0652744770050049 0.3771856129169464 101
2.9371578693389893 -1.0713608264923096 0.2701827883720398 101
2.92999005317688 -1.0693256855010986 0.1614564210176468 101
2.9239416122436523 -1.0676965713500977 0.05366614833474159 101
nan nan nan 0
nan nan nan 0
nan nan nan 0
2.878070831298828 -1.055503249168396 -0.47947201132774353 119
2.905841827392578 -1.0662634372711182 -0.375357985496521 0
2.9068527221679688 -1.0672099590301514 -0.26756852865219116 101
2.8996481895446777 -1.0651394128799438 -0.1593542993068695 101
2.9263999462127686 -1.0755459070205688 -0.0532163605093956 101
2.914403200149536 -1.0717140436172485 0.8212151527404785 101
2.9164977073669434 -1.0730623006820679 0.708060085773468 101
2.9055027961730957 -1.0695927143096924 0.5938363075256348 101
2.92764949798584 -1.078325629234314 0.4875376522541046 101
2.92297625541687 -1.0771838426589966 0.37779495120048523 101
2.9334003925323486 -1.0816068649291992 0.2701827883720398 101
2.916870355606079 -1.0760903358459473 0.16093306243419647 101
2.892056941986084 -1.0675095319747925 0.053142573684453964 101
nan nan nan 0
nan nan nan 0
2.3923726081848145 -0.8863899111747742 -0.4880327582359314 119
2.855846881866455 -1.0586769580841064 -0.4763433039188385 119
2.8648781776428223 -1.0625935792922974 -0.3704832196235657 0
2.8704211711883545 -1.065219521522522 -0.2645180821418762 101
2.8865506649017334 -1.071778416633606 -0.15883268415927887 101
2.866391897201538 -1.0648627281188965 -0.05217967927455902 101
2.9151713848114014 -1.0835634469985962 0.8225083947181702 101
2.9218671321868896 -1.0866326093673706 0.7103078961372375 101
2.9063515663146973 -1.0814398527145386 0.5947895050048828 101
2.9146111011505127 -1.085092306137085 0.4859750270843506 101
2.8866443634033203 -1.075254201889038 0.37352949380874634 101
2.9249398708343506 -1.0901002883911133 0.2697470188140869 101
2.9224534034729004 -1.0897547006607056 0.1614564210176468 101
2.850842237472534 -1.0636183023452759 0.05244447663426399 101
nan nan nan 0
nan nan nan 0
2.3892641067504883 -0.8947353959083557 -0.4880327582359314 119
2.8521339893341064 -1.0686392784118652 -0.4763433039188385 119
2.828622817993164 -1.0603930950164795 -0.36621779203414917 0
2.8340396881103516 -1.062988042831421 -0.2614676356315613 101
2.854743003845215 -1.0713216066360474 -0.15726782381534576 101
2.853297233581543 -1.0713473558425903 -0.05200690031051636 101
2.8752007484436035 -1.0801441669464111 0.8121623992919922 101
2.8861329555511475 -1.0848259925842285 0.702440619468689 101
2.8658056259155273 -1.077756404876709 0.5871639847755432 101
2.850717067718506 -1.0726498365402222 0.4758179783821106 101
2.8503620624542236 -1.0730842351913452 0.3692640960216522 101
2.893148899078369 -1.0897690057754517 0.26713234186172485 101
2.862563371658325 -1.078818678855896 0.1583162546157837 101
2.8190457820892334 -1.062980055809021 0.05192090570926666 101
nan nan nan 0
nan nan nan 0
2.399898052215576 -0.9082822203636169 -0.49089235067367554 119
2.811439275741577 -1.0645979642868042 -0.4700859487056732 119
2.7877774238586426 -1.0561944246292114 -0.36134299635887146 0
2.797708749771118 -1.0605154037475586 -0.25841715931892395 101
2.8229739665985107 -1.070656180381775 -0.15570297837257385 101
2.812147617340088 -1.0671114921569824 -0.051315777003765106 101
2.84432053565979 -1.0798879861831665 0.8044028878211975 101
2.850446939468384 -1.0827832221984863 0.6945732235908508 101
2.8436734676361084 -1.0807782411575317 0.5833512544631958 101
2.8238749504089355 -1.0738176107406616 0.4719114601612091 101
2.8187689781188965 -1.0724390745162964 0.3656080365180969 101
2.8474314212799072 -1.0839130878448486 0.26321035623550415 101
2.830782890319824 -1.0781413316726685 0.15674617886543274 101
2.7872886657714844 -1.0621329545974731 0.05139733478426933 101
nan nan nan 0
nan nan nan 0
2.3829593658447266 -0.9113936424255371 -0.4880327582359314 119
2.7754199504852295 -1.0620505809783936 -0.464610755443573 119
2.7609004974365234 -1.057046890258789 -0.3582962453365326 101
2.761430025100708 -1.0578023195266724 -0.255366712808609 101
2.7912442684173584 -1.06978178024292 -0.15413811802864075 101
2.780398368835449 -1.0661815404891968 -0.05079743266105652 101
2.8134777545928955 -1.0794295072555542 0.7966433763504028 101
2.819359302520752 -1.0822505950927734 0.6878297924995422 101
2.8032279014587402 -1.0766197443008423 0.5757257342338562 101
2.7832300662994385 -1.069496750831604 0.465660959482193 101
2.787215232849121 -1.0715863704681396 0.36195194721221924 101
2.8110883235931396 -1.08132803440094 0.2601598799228668 101
2.7990427017211914 -1.0772552490234375 0.1551761031150818 101
2.7555723190307617 -1.0610772371292114 0.050873763859272 101
nan nan nan 0
nan nan nan 0
2.361450433731079 -0.9126288294792175 -0.4842199981212616 119
2.7440590858459473 -1.06104576587677 -0.45991769433021545 119
2.7294230461120605 -1.055934190750122 -0.3546401858329773 101
2.7298500537872314 -1.0566470623016357 -0.25275203585624695 101
2.7595558166503906 -1.0686992406845093 -0.15257327258586884 101
2.748690605163574 -1.0650430917739868 -0.05027909204363823 101
2.782672882080078 -1.0787689685821533 0.7888838648796082 101
2.7837681770324707 -1.0797524452209473 0.6799624562263489 101
2.7674217224121094 -1.0739678144454956 0.5690534114837646 101
2.7518575191497803 -1.068480372428894 0.4609731137752533 101
2.755701780319214 -1.0705265998840332 0.35829582810401917 101
2.770155668258667 -1.0766980648040771 0.256673663854599 101
2.767343521118164 -1.0761610269546509 0.15360602736473083 101
2.7238974571228027 -1.059813141822815 0.050350189208984375 101
nan nan nan 0
nan nan nan 0
2.3536782264709473 -0.9190807938575745 -0.48326680064201355 119
2.7127397060394287 -1.0598353147506714 -0.4552246630191803 119
2.6979877948760986 -1.0546146631240845 -0.3509840965270996 101
2.6936731338500977 -1.053470253944397 -0.249701589345932 101
2.7279093265533447 -1.0674086809158325 -0.15100841224193573 101
2.717024564743042 -1.0636963844299316 -0.04976075142621994 101
2.756404399871826 -1.0796680450439453 0.7824175953865051 101
2.75276517868042 -1.0787968635559082 0.6732190251350403 101
2.7316691875457764 -1.0710793733596802 0.5623810887336731 101
2.7205259799957275 -1.0672580003738403 0.4562852084636688 101
2.7242302894592285 -1.0692600011825562 0.35463976860046387 101
2.738562822341919 -1.075437068939209 0.25405898690223694 101
2.7356863021850586 -1.074858546257019 0.15203595161437988 101
2.692265510559082 -1.0583410263061523 0.049826618283987045 101
nan nan nan 0
nan nan nan 0
2.3641533851623535 -0.9326950311660767 -0.4861263632774353 119
2.681462287902832 -1.0584192276000977 -0.45053160190582275 119
2.6712112426757812 -1.054911732673645 -0.34793737530708313 101
2.6668169498443604 -1.0537145137786865 -0.24752268195152283 101
2.696305751800537 -1.0659101009368896 -0.14944356679916382 101
2.6854023933410645 -1.0621417760849 -0.04924241080880165 101
2.725672960281372 -1.0786199569702148 0.7746580839157104 101
2.717273235321045 -1.0758445262908936 0.6653517484664917 101
2.700533628463745 -1.069762110710144 0.5566619634628296 101
2.689237117767334 -1.0658302307128906 0.4515973627567291 101
2.6928017139434814 -1.0677869319915771 0.3509836792945862 101
2.7023825645446777 -1.072131872177124 0.251008540391922 101
2.6994311809539795 -1.071506381034851 0.15020418167114258 101
2.660677671432495 -1.0566611289978027 0.049303047358989716 101
nan nan nan 0
nan nan nan 0
2.3608834743499756 -0.9409417510032654 -0.4861263632774353 119
2.654815435409546 -1.0586268901824951 -0.44662076234817505 119
2.6398561000823975 -1.0531957149505615 -0.34428128600120544 101
2.635366439819336 -1.0519376993179321 -0.24490801990032196 101
2.664746046066284 -1.064204216003418 -0.1478787064552307 101
2.6538240909576416 -1.0603795051574707 -0.04872407019138336 101
2.6949825286865234 -1.077370524406433 0.7668985724449158 101
2.681835889816284 -1.072657823562622 0.6574844121932983 101
2.664884328842163 -1.0664172172546387 0.549989640712738 101
2.662576675415039 -1.066032886505127 0.44769084453582764 101
2.661417007446289 -1.0661075115203857 0.3473276197910309 101
2.675506591796875 -1.0722935199737549 0.248829647898674 101
2.66786789894104 -1.069772481918335 0.14863410592079163 101
2.629133939743042 -1.0547735691070557 0.04877947270870209 101
nan nan nan 0
nan nan nan 0
2.36213755607605 -0.9510101079940796 -0.48707953095436096 119
2.623619556427002 -1.0568164587020874 -0.4419277310371399 119
2.6131486892700195 -1.0531288385391235 -0.3412345349788666 101
2.6085803508758545 -1.0518170595169067 -0.24272911250591278 101
2.637861967086792 -1.0641591548919678 -0.14657466113567352 101
2.6176552772521973 -1.056538701057434 -0.04811934009194374 101
2.664334535598755 -1.0759201049804688 0.7591390609741211 101
2.6509716510772705 -1.0710619688034058 0.6507409811019897 101
2.6338422298431396 -1.06467604637146 0.5442705154418945 101
2.6313693523406982 -1.0642107725143433 0.44300296902656555 101
2.625476598739624 -1.0623607635498047 0.343062162399292 101
2.644045352935791 -1.0704115629196167 0.24621498584747314 101
2.636349678039551 -1.0678315162658691 0.14706403017044067 101
2.5976366996765137 -1.0526789426803589 0.04825589805841446 101
nan nan nan 0
nan nan nan 0
2.359138011932373 -0.958426296710968 -0.48707953095436096 119
2.597411632537842 -1.0557557344436646 -0.4380168616771698 119
2.586841344833374 -1.051985502243042 -0.3381877839565277 101
2.572967529296875 -1.0468666553497314 -0.23967866599559784 101
2.606757640838623 -1.061145305633545 -0.14500980079174042 101
2.586543321609497 -1.0534428358078003 -0.04760099574923515 101
2.629631757736206 -1.0715270042419434 0.75008624792099 101
2.6205246448516846 -1.0683492422103882 0.6439975500106812 101
2.6032159328460693 -1.0618226528167725 0.538551390171051 101
2.6005780696868896 -1.0612761974334717 0.43831509351730347 101
2.5945589542388916 -1.0593481063842773 0.3394061028957367 101
2.6130027770996094 -1.0674108266830444 0.2436002939939499 101
2.605250120162964 -1.064774513244629 0.14549395442008972 101
2.5665528774261475 -1.0494816303253174 0.04773232713341713 101
nan nan nan 0
nan nan nan 0
2.360319137573242 -0.9685186743736267 -0.4880327582359314 119
2.5708680152893066 -1.0554383993148804 -0.4341059923171997 119
2.555609941482544 -1.049695611000061 -0.3345317244529724 101
2.546261787414551 -1.0463752746582031 -0.23749975860118866 101
2.5799472332000732 -1.0607445240020752 -0.14370575547218323 101
2.5597336292266846 -1.052955985069275 -0.047169048339128494 101
2.5990772247314453 -1.0696706771850586 0.7423267960548401 101
2.5897488594055176 -1.0663599967956543 0.6372541189193726 101
2.572263479232788 -1.0596853494644165 0.5328322649002075 101
