# .PCD v0.7 - Point Cloud Data file format
VERSION 0.7
FIELDS x y z intensity
SIZE 4 4 4 4
TYPE F F F F
COUNT 1 1 1 1
WIDTH 821
HEIGHT 1
VIEWPOINT 0 0 0 1 0 0 0
POINTS 821
DATA ascii
-3.331306219100952 -0.07676159590482712 -0.5217093825340271 119
-4.3993401527404785 -0.10060352832078934 -0.535616397857666 119
-6.198118209838867 -0.14065541326999664 -0.5390591025352478 119
-10.870722770690918 -0.24479369819164276 -0.5659555196762085 119
-11.45368766784668 -0.2559211850166321 -0.19731521606445312 11
-8.797445297241211 -0.19503392279148102 2.345959424972534 32
-10.169647216796875 -0.22367899119853973 2.3377223014831543 32
-11.442420959472656 -0.24967531859874725 2.215209722518921 11
-11.725117683410645 -0.25379639863967896 1.8493616580963135 11
-11.281197547912598 -0.24221765995025635 1.3807796239852905 11
-11.556621551513672 -0.24611333012580872 1.0079561471939087 11
-11.50993537902832 -0.243109330534935 0.601340115070343 11
-11.788873672485352 -0.24694253504276276 0.20515303313732147 11
-1.9986767768859863 -0.04012154042720795 -0.5254029035568237 119
-2.308075189590454 -0.045929428189992905 -0.5241362452507019 119
-2.727468967437744 -0.05379891023039818 -0.5223475694656372 119
-3.321678638458252 -0.06493964046239853 -0.5201449990272522 119
nan nan nan 0
-6.19857120513916 -0.11901908367872238 -0.5390591025352478 119
-10.906457901000977 -0.20751121640205383 -0.5677812099456787 119
-11.939352035522461 -0.22507895529270172 -0.20569506287574768 11
-8.793243408203125 -0.1642337292432785 2.3446662425994873 32
-10.170366287231445 -0.18817894160747528 2.3377223014831543 32
-11.929062843322754 -0.21863681077957153 2.309575319290161 32
-12.298712730407715 -0.22326453030109406 1.9399936199188232 11
-11.768243789672852 -0.2115800529718399 1.4404956102371216 11
-12.075348854064941 -0.21499325335025787 1.0532771348953247 11
-12.02992057800293 -0.21208414435386658 0.6285547614097595 11
-12.284513473510742 -0.21442784368991852 0.21379196643829346 11
-1.9939755201339722 -0.03306453302502632 -0.5241087675094604 119
-2.3033504486083984 -0.03779253736138344 -0.5230115056037903 119
-2.727640151977539 -0.04427793622016907 -0.5223475694656372 119
-3.29719614982605 -0.05294795706868172 -0.5162341594696045 119
-4.409859657287598 -0.07004576921463013 -0.5368350148200989 119
-6.193968296051025 -0.09730306267738342 -0.5386233329772949 119
-10.90212345123291 -0.16936175525188446 -0.5675203800201416 119
-12.309965133666992 -0.18908321857452393 -0.21208792924880981 11
-8.788933753967285 -0.1334652453660965 2.3433730602264404 32
-10.166089057922363 -0.15260346233844757 2.3365983963012695 32
-12.027909278869629 -0.1784515529870987 2.328639030456543 32
-12.946301460266113 -0.18981719017028809 2.0423452854156494 11
-12.304828643798828 -0.17826394736766815 1.5063049793243408 11
-12.364892959594727 -0.1769755780696869 1.0785523653030396 11
-12.350116729736328 -0.17460817098617554 0.6453022956848145 11
nan nan nan 0
-1.9940787553787231 -0.02610405907034874 -0.5241087675094604 119
-2.2985968589782715 -0.02968919277191162 -0.5218867659568787 119
-2.722870111465454 -0.034693893045186996 -0.5213943719863892 119
-3.317113161087036 -0.04168650135397911 -0.5193628668785095 119
-4.390227317810059 -0.05440607666969299 -0.5343976616859436 119
-6.189289569854736 -0.075620636343956 -0.5381875038146973 119
-10.912632942199707 -0.13142547011375427 -0.568041980266571 119
nan nan nan 0
-8.789345741271973 -0.10278531908988953 2.3433730602264404 32
-10.166560173034668 -0.11711625009775162 2.3365983963012695 32
-12.01864242553711 -0.13635386526584625 2.326732635498047 32
-13.574045181274414 -0.15163078904151917 2.1415717601776123 11
-12.925680160522461 -0.14213190972805023 1.5824733972549438 11
-13.237055778503418 -0.14324523508548737 1.1548136472702026 11
nan nan nan 0
-13.715413093566895 -0.14363369345664978 0.23874889314174652 11
-1.989328384399414 -0.01909690722823143 -0.5228146910667419 119
-2.2938148975372314 -0.02161949686706066 -0.520762026309967 119
-2.7229745388031006 -0.025189092382788658 -0.5213943719863892 119
-3.3271148204803467 -0.03019699826836586 -0.5209271907806396 119
nan nan nan 0
-6.189516067504883 -0.054015517234802246 -0.5381875038146973 119
-10.918017387390137 -0.09337516874074936 -0.5683028101921082 119
nan nan nan 0
-8.784821510314941 -0.07206454128026962 2.3420796394348145 32
-10.162034034729004 -0.0815885066986084 2.3354742527008057 32
-12.014137268066406 -0.09436158835887909 2.325779438018799 32
-14.24611759185791 -0.10940548032522202 2.2478296756744385 11
-13.700262069702148 -0.1028221994638443 1.677531361579895 11
-13.894944190979004 -0.10185806453227997 1.2123364210128784 11
-13.868912696838379 -0.09924653172492981 0.724852979183197 11
-13.920795440673828 -0.09718804061412811 0.24232664704322815 11
-1.9893829822540283 -0.01215273980051279 -0.5228146910667419 119
-2.2890045642852783 -0.013583546504378319 -0.5196372270584106 119
-2.723046064376831 -0.015683982521295547 -0.5213943719863892 119
-3.3370769023895264 -0.018638180568814278 -0.5224915146827698 119
-4.405388832092285 -0.023835988715291023 -0.5362257361412048 119
-6.184686183929443 -0.032383669167757034 -0.5377517938613892 119
-10.903299331665039 -0.05518779158592224 -0.5675203800201416 119
nan nan nan 0
-8.785019874572754 -0.04139935225248337 2.3420796394348145 32
-10.157386779785156 -0.04609379172325134 2.3343505859375 32
-12.009485244750977 -0.05240244045853615 2.324826240539551 32
-14.646434783935547 -0.06135223060846329 2.3111159801483154 32
-14.41516399383545 -0.05786749720573425 1.76527738571167 11
-14.727032661437988 -0.056549057364463806 1.285111427307129 11
-14.643108367919922 -0.053671061992645264 0.7654133439064026 11
-15.040873527526855 -0.05250382050871849 0.26187336444854736 11
-1.9894133806228638 -0.005208423361182213 -0.5228146910667419 119
-2.2890381813049316 -0.005593346897512674 -0.5196372270584106 119
-2.7230842113494873 -0.00617868360131979 -0.5213943719863892 119
-3.3469982147216797 -0.007010181900113821 -0.5240558981895447 119
-4.430258274078369 -0.00850580632686615 -0.5392724275588989 119
-6.1847615242004395 -0.010794890113174915 -0.5377517938613892 119
-10.898431777954102 -0.01711999624967575 -0.5672596096992493 119
-15.490928649902344 -0.02163051627576351 -0.26703211665153503 119
-8.785110473632812 -0.010733659379184246 2.3420796394348145 32
-10.157485961914062 -0.010637612082064152 2.3343505859375 32
-12.004687309265137 -0.010476910509169102 2.3238730430603027 32
-14.666314125061035 -0.010240050032734871 2.3142411708831787 32
-15.179539680480957 -0.00794905424118042 1.859116792678833 11
-15.693448066711426 -0.005479149054735899 1.369652509689331 11
-15.531986236572266 -0.002711933571845293 0.8119922876358032 11
-15.940827369689941 -1.1193659474884043e-06 0.27758049964904785 11
-1.9894189834594727 0.0020831755828112364 -0.5228146910667419 119
-2.2987868785858154 0.0028083380311727524 -0.5218867659568787 119
-2.723088502883911 0.0038019600324332714 -0.5213943719863892 119
-3.351940155029297 0.005264983978122473 -0.5248380899429321 119
-4.420334339141846 0.007714636158198118 -0.5380537509918213 119
-6.184759616851807 0.011873465962707996 -0.5377517938613892 119
-10.888434410095215 0.022803951054811478 -0.566737949848175 119
-16.36577033996582 0.037131670862436295 -0.28215038776397705 119
-8.785091400146484 0.021465452387928963 2.3420796394348145 32
-10.15258502960205 0.02657875046133995 2.3332266807556152 32
-12.004644393920898 0.03352253511548042 2.3238730430603027 32
-14.65637493133545 0.04348544031381607 2.312678575515747 32
-16.0876407623291 0.050539854913949966 1.9706271886825562 11
-16.54510498046875 0.054864685982465744 1.4441707134246826 11
-16.430652618408203 0.05735287442803383 0.8590946793556213 11
-16.975555419921875 0.062217745929956436 0.29564377665519714 11
-1.9893995523452759 0.009027530439198017 -0.5228146910667419 119
-2.2987630367279053 0.010832584463059902 -0.5218867659568787 119
-2.7230587005615234 0.013307289220392704 -0.5213943719863892 119
-3.3519012928009033 0.016965406015515327 -0.5248380899429321 119
nan nan nan 0
-6.179699420928955 0.033435285091400146 -0.5373159646987915 119
-10.878301620483398 0.06075576692819595 -0.5662163496017456 119
-17.545347213745117 0.10105381906032562 -0.3025384843349457 119
-8.78496265411377 0.052131012082099915 2.3420796394348145 32
-10.152429580688477 0.06201772019267082 2.3332266807556152 32
-12.004454612731934 0.0754263624548912 2.3238730430603027 32
-14.636381149291992 0.09451790899038315 2.309553384780884 32
-17.164255142211914 0.11383811384439468 2.1028554439544678 11
-17.685428619384766 0.12038151174783707 1.5439640283584595 11
-17.6386661529541 0.12314186990261078 0.9224212169647217 11
-17.835081100463867 0.1276327669620514 0.31065282225608826 11
-1.9893559217453003 0.015971777960658073 -0.5228146910667419 119
-2.3230698108673096 0.019056515768170357 -0.5275105237960815 119
-2.718087673187256 0.022771339863538742 -0.5204411745071411 119
-3.3468830585479736 0.028623385354876518 -0.5240558981895447 119
-4.380472660064697 0.03822749853134155 -0.533178985118866 119
-6.179544925689697 0.05500625818967819 -0.5373159646987915 119
-10.873030662536621 0.09868244081735611 -0.5659555196762085 119
nan nan nan 0
-8.784727096557617 0.08279593288898468 2.3420796394348145 32
-10.152152061462402 0.0974559411406517 2.3332266807556152 32
-12.004117965698242 0.11732926219701767 2.3238730430603027 32
-14.631023406982422 0.145558699965477 2.308772087097168 32
-17.99248695373535 0.1821412891149521 2.2046163082122803 32
-18.885251998901367 0.19447535276412964 1.6489866971969604 11
-18.811452865600586 0.1969989538192749 0.9839159250259399 11
-19.69413948059082 0.20968036353588104 0.34311428666114807 11
-1.989288091659546 0.022915827110409737 -0.5228146910667419 119
-2.313246011734009 0.027051487937569618 -0.5252610445022583 119
-2.7228991985321045 0.03231734782457352 -0.5213943719863892 119
-3.351701021194458 0.04036548733711243 -0.5248380899429321 119
-4.4001617431640625 0.05376048386096954 -0.535616397857666 119
-6.179315567016602 0.07657656073570251 -0.5373159646987915 119
-10.867627143859863 0.13657306134700775 -0.5656946897506714 119
-20.133615493774414 0.2565329074859619 -0.3472886085510254 119
-8.784384727478027 0.11345984786748886 2.3420796394348145 32
-10.151749610900879 0.13289296627044678 2.3332266807556152 32
-12.00363540649414 0.15923073887825012 2.3238730430603027 32
-14.620550155639648 0.1964968740940094 2.3072092533111572 32
nan nan nan 0
-20.264057159423828 0.2794191539287567 1.7696974277496338 11
-19.534587860107422 0.27277064323425293 1.0218595266342163 11
-21.002958297729492 0.2969406247138977 0.3659769296646118 11
-1.9940249919891357 0.029932085424661636 -0.5241087675094604 119
-2.3033947944641113 0.03497811406850815 -0.5230115056037903 119
-2.6933236122131348 0.041369546204805374 -0.5156752467155457 119
-3.3317885398864746 0.05175803229212761 -0.5217093825340271 119
nan nan nan 0
-6.17901086807251 0.09814593195915222 -0.5373159646987915 119
-10.862092018127441 0.17442716658115387 -0.565433919429779 119
-21.582189559936523 0.35034191608428955 -0.37234175205230713 11
-8.788763999938965 0.1442016065120697 2.3433730602264404 32
-10.156095504760742 0.16840915381908417 2.3343505859375 32
-12.003005981445312 0.20113028585910797 2.3238730430603027 32
-14.614837646484375 0.24744732677936554 2.3064279556274414 32
nan nan nan 0
-21.851652145385742 0.37760546803474426 1.9087107181549072 11
-21.17601203918457 0.3696271479129791 1.1079521179199219 11
-22.821231842041016 0.402328759431839 0.39774030447006226 11
-1.993908405303955 0.036892347037792206 -0.5241087675094604 119
-2.2983877658843994 0.042927272617816925 -0.5218867659568787 119
-2.732422351837158 0.05151085555553436 -0.5233007073402405 119
-3.346400022506714 0.06366965919733047 -0.5240558981895447 119
nan nan nan 0
-6.17365026473999 0.11961761116981506 -0.5368801951408386 119
-10.856425285339355 0.21224428713321686 -0.5651731491088867 119
-23.515169143676758 0.46382981538772583 -0.4057747423648834 11
-8.793036460876465 0.17497533559799194 2.3446662425994873 32
-10.15544605255127 0.20385950803756714 2.3343505859375 32
-12.00223159790039 0.24302735924720764 2.3238730430603027 32
-14.608946800231934 0.29836028814315796 2.3056468963623047 32
-18.713998794555664 0.3854658305644989 2.293581008911133 32
-23.86208152770996 0.4956711232662201 2.0847654342651367 32
-23.051603317260742 0.48286062479019165 1.2063437700271606 11
-24.858922958374023 0.5250590443611145 0.43334323167800903 11
-1.9889390468597412 0.043745964765548706 -0.5228146910667419 119
-2.2787413597106934 0.050517965108156204 -0.5173877477645874 119
-2.707690715789795 0.060500264167785645 -0.5185348391532898 119
-3.3461573123931885 0.07535038143396378 -0.5240558981895447 119
nan nan nan 0
-6.173194885253906 0.14116694033145905 -0.5368801951408386 119
-10.850625991821289 0.2500239610671997 -0.5649123191833496 119
-25.677501678466797 0.596153974533081 -0.44318172335624695 11
-8.797200202941895 0.20578064024448395 2.345959424972534 32
-10.159541130065918 0.23942212760448456 2.3354742527008057 32
-12.001309394836426 0.28492146730422974 2.3238730430603027 32
-14.602879524230957 0.3492351174354553 2.304865598678589 32
-18.712539672851562 0.4507875442504883 2.293581008911133 32
nan nan nan 0
-26.504005432128906 0.6477420926094055 1.3874261379241943 11
-28.225404739379883 0.6947412490844727 0.49215781688690186 11
-1.9887741804122925 0.05068839341402054 -0.5228146910667419 119
-2.307772636413574 0.05922183021903038 -0.5241362452507019 119
nan nan nan 0
nan nan nan 0
nan nan nan 0
-6.167685508728027 0.16258329153060913 -0.5364444255828857 119
-10.844696044921875 0.2877657115459442 -0.5646514892578125 119
-25.790206909179688 0.6888516545295715 -0.445168673992157 11
-8.80125617980957 0.23661716282367706 2.34725284576416 32
-10.163514137268066 0.2750158905982971 2.3365983963012695 32
-12.005148887634277 0.32694578170776367 2.324826240539551 32
-14.606508255004883 0.40034186840057373 2.3056468963623047 32
-18.705890655517578 0.5159668922424316 2.29297137260437 32
nan nan nan 0
nan nan nan 0
-29.312211990356445 0.8238821029663086 0.5111809372901917 13
-1.988585114479065 0.05763019993901253 -0.5228146910667419 119
-2.292942523956299 0.0668511614203453 -0.520762026309967 119
nan nan nan 0
-3.3356773853302 0.09841766208410263 -0.5224915146827698 119
nan nan nan 0
-6.167080402374268 0.184111550450325 -0.5364444255828857 119
-10.83863353729248 0.32546913623809814 -0.5643906593322754 119
-25.69769859313965 0.7761554718017578 -0.4436136484146118 119
-8.805204391479492 0.2674844563007355 2.348546028137207 32
-10.162492752075195 0.31049150228500366 2.3365983963012695 32
-12.00883960723877 0.36900028586387634 2.325779438018799 32
-14.605021476745605 0.4513256549835205 2.3056468963623047 32
-18.694055557250977 0.5809512138366699 2.291753053665161 32
-25.667770385742188 0.8021560907363892 2.2433888912200928 32
nan nan nan 0
-29.279178619384766 0.9252484440803528 0.5106573700904846 13
-1.9883718490600586 0.0645713061094284 -0.5228146910667419 119
-2.3170413970947266 0.07564949989318848 -0.5263857841491699 119
nan nan nan 0
-3.3402493000030518 0.11022362112998962 -0.5232737064361572 119
nan nan nan 0
-6.161422252655029 0.20547154545783997 -0.5360086560249329 119
-10.8274507522583 0.36296647787094116 -0.563869059085846 119
nan nan nan 0
-8.80904483795166 0.2983822524547577 2.349839448928833 32
-10.166215896606445 0.3461291193962097 2.3377223014831543 32
-12.012383460998535 0.4110845923423767 2.326732635498047 32
-14.608292579650879 0.5024737119674683 2.3064279556274414 32
-18.686952590942383 0.646030604839325 2.2911434173583984 32
-25.649879455566406 0.891229510307312 2.2420814037323 32
-29.31517791748047 1.0237064361572266 1.5352752208709717 13
nan nan nan 0
-1.9881343841552734 0.07151162624359131 -0.5228146910667419 119
nan nan nan 0
nan nan nan 0
nan nan nan 0
nan nan nan 0
-6.160667419433594 0.22697767615318298 -0.5360086560249329 119
-10.821128845214844 0.4005744159221649 -0.5636082291603088 119
nan nan nan 0
-8.812776565551758 0.3293101191520691 2.35113263130188 32
-10.164945602416992 0.38161373138427734 2.3377223014831543 32
-12.010875701904297 0.4530131220817566 2.326732635498047 32
-14.606450080871582 0.5534631013870239 2.3064279556274414 32
-18.68458366394043 0.7112563252449036 2.2911434173583984 32
-25.661544799804688 0.9813299775123596 2.2433888912200928 32
-29.311426162719727 1.1260292530059814 1.5352752208709717 13
-42.94474411010742 1.6572740077972412 0.7494935393333435 18
-1.98787260055542 0.07845107465982437 -0.5228146910667419 119
-2.311588764190674 0.09163055568933487 -0.5252610445022583 119
-2.7307441234588623 0.10872308909893036 -0.5233007073402405 119
-3.344332456588745 0.13373740017414093 -0.5240558981895447 119
nan nan nan 0
-6.15983772277832 0.24848103523254395 -0.5360086560249329 119
-10.814675331115723 0.4381426274776459 -0.5633474588394165 119
-43.25100326538086 1.7598199844360352 -0.7473615407943726 18
-8.811573028564453 0.36007046699523926 2.35113263130188 32
-10.163552284240723 0.4170936644077301 2.3377223014831543 32
-12.01412582397461 0.4951382577419281 2.327685832977295 32
-14.609362602233887 0.6046499609947205 2.3072092533111572 32
-18.686948776245117 0.776679515838623 2.291753053665161 32
-25.652984619140625 1.070691704750061 2.242953062057495 32
-29.307315826416016 1.228338360786438 1.5352752208709717 13
-42.9886474609375 1.809271216392517 0.7503661513328552 18
-1.9875867366790771 0.08538956195116043 -0.5228146910667419 119
-2.306387424468994 0.0994889959692955 -0.5241362452507019 119
nan nan nan 0
-3.338912010192871 0.14519596099853516 -0.5232737064361572 119
nan nan nan 0
-6.158932685852051 0.26998135447502136 -0.5360086560249329 119
-10.808091163635254 0.4756706953048706 -0.5630866289138794 119
-42.7701301574707 1.889818787574768 -0.7391545176506042 18
-8.810262680053711 0.39082637429237366 2.35113263130188 32
-10.162034034729004 0.45256856083869934 2.3377223014831543 32
-12.017227172851562 0.5372916460037231 2.328639030456543 32
-14.607163429260254 0.6556425094604492 2.3072092533111572 32
-18.69403648376465 0.8423510789871216 2.29297137260437 32
-25.65904426574707 1.1606810092926025 2.2438244819641113 32
-29.30284881591797 1.3306324481964111 1.5352752208709717 13
-42.977073669433594 1.9590908288955688 0.750278890132904 18
-1.987276554107666 0.09232702106237411 -0.5228146910667419 119
-2.301159620285034 0.10731223225593567 -0.5230115056037903 119
-2.725015640258789 0.1275549829006195 -0.5223475694656372 119
-3.3778486251831055 0.15870420634746552 -0.5295311212539673 119
nan nan nan 0
-6.157952785491943 0.29147839546203613 -0.5360086560249329 119
-10.801377296447754 0.5131580829620361 -0.5628258585929871 119
-42.778255462646484 2.0398173332214355 -0.7394136786460876 18
-8.808844566345215 0.4215775728225708 2.35113263130188 32
-10.160392761230469 0.48803794384002686 2.3377223014831543 32
-12.03488826751709 0.5801816582679749 2.332451820373535 32
-14.604784965515137 0.7066270112991333 2.3072092533111572 32
-18.695938110351562 0.9078410863876343 2.293581008911133 32
-25.654834747314453 1.250240683555603 2.2438244819641113 32
-29.298025131225586 1.432910442352295 1.5352752208709717 13
-43.009918212890625 2.1110575199127197 0.7509769797325134 18
-1.9917656183242798 0.09950431436300278 -0.5241087675094604 119
-2.281308174133301 0.11436838656663895 -0.518512487411499 119
-2.714750051498413 0.13657306134700775 -0.5204411745071411 119
-3.3427488803863525 0.16875120997428894 -0.5240558981895447 119
nan nan nan 0
-6.151923179626465 0.3127190172672272 -0.53557288646698 119
-10.779573440551758 0.5498414039611816 -0.5617825984954834 119
-43.24518585205078 2.213405132293701 -0.7476208209991455 18
-8.807319641113281 0.4523235857486725 2.35113263130188 32
-10.158626556396484 0.5235013365745544 2.3377223014831543 32
-12.04749584197998 0.6229481101036072 2.3353114128112793 32
-14.602230072021484 0.757602870464325 2.3072092533111572 32
-18.70256996154785 0.9736125469207764 2.294799566268921 32
-25.655290603637695 1.3400449752807617 2.244260311126709 32
-29.287858963012695 1.5349096059799194 1.5350135564804077 13
-43.00228500366211 2.2611773014068604 0.7509769797325134 18
-1.9914062023162842 0.10645627230405807 -0.5241087675094604 119
-2.2760300636291504 0.12207002937793732 -0.5173877477645874 119
-2.714256525039673 0.14604847133159637 -0.5204411745071411 119
-3.3125522136688232 0.17882132530212402 -0.5193628668785095 119
nan nan nan 0
-6.145820140838623 0.33392107486724854 -0.5351370573043823 119
-10.792546272277832 0.5882810354232788 -0.56256502866745 119
-43.252166748046875 2.3651645183563232 -0.7478799223899841 18
-8.805686950683594 0.48306411504745483 2.35113263130188 32
-10.156737327575684 0.5589583516120911 2.3377223014831543 32
-12.05994987487793 0.6658095717430115 2.3381707668304443 32
-14.594565391540527 0.8082965016365051 2.3064279556274414 32
-18.704010009765625 1.03916597366333 2.2954089641571045 32
-25.65542984008789 1.4298676252365112 2.2446961402893066 32
-29.28232192993164 1.6371339559555054 1.5350135564804077 13
-43.208763122558594 2.423313617706299 0.7547292709350586 18
-1.9958245754241943 0.11402992159128189 -0.5254029035568237 119
nan nan nan 0
-2.7284035682678223 0.15684078633785248 -0.5233007073402405 119
nan nan nan 0
nan nan nan 0
-6.154500484466553 0.35702136158943176 -0.5360086560249329 119
-10.840165138244629 0.6307341456413269 -0.5651731491088867 119
-43.258182525634766 2.5245494842529297 -0.7481390833854675 18
-8.79903507232666 0.5150530338287354 2.349839448928833 32
-10.154621124267578 0.5961809158325195 2.3377223014831543 32
-12.072128295898438 0.7108726501464844 2.3410303592681885 32
-14.591506004333496 0.8617828488349915 2.3064279556274414 32
-18.705032348632812 1.108006238937378 2.296018362045288 32
-25.650014877319336 1.5238898992538452 2.2446961402893066 32
-29.276124954223633 1.744447946548462 1.5350135564804077 13
-43.2445068359375 2.5843427181243896 0.7555146813392639 18
-2.000235080718994 0.12128826975822449 -0.5266969799995422 119
-2.2945497035980225 0.13953657448291779 -0.5218867659568787 119
-2.718041181564331 0.1657661646604538 -0.5213943719863892 119
-3.3654088973999023 0.20583698153495789 -0.5279667377471924 119
nan nan nan 0
-6.09852933883667 0.37513840198516846 -0.5312150716781616 119
-10.832914352416992 0.6682621240615845 -0.5649123191833496 119
-43.25908279418945 2.6761505603790283 -0.7483118772506714 18
-8.797183990478516 0.5457642674446106 2.349839448928833 32
-10.152477264404297 0.6316235065460205 2.3377223014831543 32
-12.069573402404785 0.7530078887939453 2.3410303592681885 32
-14.588408470153809 0.9127114415168762 2.3064279556274414 32
-18.7010498046875 1.1732921600341797 2.296018362045288 32
-25.644540786743164 1.6134158372879028 2.2446961402893066 32
-29.269859313964844 1.8466300964355469 1.5350135564804077 13
-43.280120849609375 2.738125801086426 0.7562999725341797 18
-2.0046193599700928 0.1285787969827652 -0.5279910564422607 119
nan nan nan 0
-2.7174458503723145 0.17525286972522736 -0.5213943719863892 119
-3.3646700382232666 0.21758320927619934 -0.5279667377471924 119
nan nan nan 0
nan nan nan 0
-10.830514907836914 0.7060719728469849 -0.5649123191833496 119
-35.92121887207031 2.34810209274292 -0.6214047074317932 119
-8.7904052734375 0.5761529803276062 2.348546028137207 32
-10.150211334228516 0.6670584678649902 2.3377223014831543 32
-12.071769714355469 0.7954567670822144 2.3419835567474365 32
-14.580205917358398 0.9633033275604248 2.3056468963623047 32
-18.701791763305664 1.238891839981079 2.2966275215148926 32
-25.638751983642578 1.7029222249984741 2.2446961402893066 32
-29.263235092163086 1.9487898349761963 1.5350135564804077 13
-45.559852600097656 3.0420525074005127 0.7963532209396362 16
-2.0041582584381104 0.13557544350624084 -0.5279910564422607 119
-2.2983803749084473 0.15588168799877167 -0.5230115056037903 119
-2.711920738220215 0.18440450727939606 -0.5204411745071411 119
-3.3589632511138916 0.22899088263511658 -0.5271845459938049 119
nan nan nan 0
-6.105700492858887 0.41838571429252625 -0.5320866107940674 119
nan nan nan 0
-35.927764892578125 2.4745068550109863 -0.6216638684272766 119
-8.78834056854248 0.6068336963653564 2.348546028137207 32
-10.147821426391602 0.702485203742981 2.3377223014831543 32
-12.073816299438477 0.8379300236701965 2.3429367542266846 32
-14.576754570007324 1.01419198513031 2.3056468963623047 32
-18.70230484008789 1.3045110702514648 2.2972371578216553 32
-25.637622833251953 1.792755365371704 2.2451319694519043 32
-29.256254196166992 2.0509257316589355 1.5350135564804077 13
-45.53399658203125 3.2000162601470947 0.7960914373397827 16
-2.0036728382110596 0.14257043600082397 -0.5279910564422607 119
-2.3026816844940186 0.1642502099275589 -0.5241362452507019 119
-2.7112605571746826 0.19386973977088928 -0.5204411745071411 119
nan nan nan 0
nan nan nan 0
-6.109170913696289 0.4400538504123688 -0.5325223803520203 119
-10.765559196472168 0.777350127696991 -0.5617825984954834 119
-35.913917541503906 2.5995419025421143 -0.6215774416923523 119
-8.786168098449707 0.6375070214271545 2.348546028137207 32
-10.140447616577148 0.7375499606132507 2.3365983963012695 32
-12.070817947387695 0.8800704479217529 2.3429367542266846 32
-14.57805061340332 1.0654280185699463 2.3064279556274414 32
-18.6976375579834 1.3697863817214966 2.2972371578216553 32
-25.636173248291016 1.8826011419296265 2.245567798614502 32
-29.248916625976562 2.153036594390869 1.5350135564804077 13
-45.53252410888672 3.3596761226654053 0.7962660193443298 16
-1.9983465671539307 0.1492040902376175 -0.5266969799995422 119
-2.2923779487609863 0.1715598851442337 -0.5218867659568787 119
-2.7105672359466553 0.20333263278007507 -0.5204411745071411 119
nan nan nan 0
nan nan nan 0
-6.1373982429504395 0.4636273682117462 -0.5351370573043823 119
nan nan nan 0
-35.904624938964844 2.724889039993286 -0.6215774416923523 119
-8.788705825805664 0.6685389280319214 2.349839448928833 32
-10.137811660766602 0.772942304611206 2.3365983963012695 32
-12.072566032409668 0.9225741028785706 2.3438901901245117 32
-14.574243545532227 1.1163084506988525 2.3064279556274414 32
-18.697689056396484 1.4354246854782104 2.2978463172912598 32
-25.634410858154297 1.9724586009979248 2.2460033893585205 32
-29.241222381591797 2.2551212310791016 1.5350135564804077 13
-45.560386657714844 3.5216755867004395 0.7969640493392944 16
-1.992998719215393 0.15580230951309204 -0.5254029035568237 119
-2.2966220378875732 0.17994128167629242 -0.5230115056037903 119
-2.709841012954712 0.21279305219650269 -0.5204411745071411 119
nan nan nan 0
-4.347285747528076 0.34290194511413574 -0.5307415723800659 119
-6.125811576843262 0.48426300287246704 -0.5342655181884766 119
-10.764847755432129 0.8528826832771301 -0.5620433688163757 119
-35.894893646240234 2.850203037261963 -0.6215774416923523 119
-8.7863187789917 0.6992132067680359 2.349839448928833 32
-10.135051727294922 0.8083251118659973 2.3365983963012695 32
-12.074164390563965 0.9651005864143372 2.3448433876037598 32
-14.570257186889648 1.16717529296875 2.3064279556274414 32
-18.697511672973633 1.5010802745819092 2.2984557151794434 32
-25.637300491333008 2.0627264976501465 2.246875047683716 32
-29.233173370361328 2.3571784496307373 1.5350135564804077 13
nan nan nan 0
-1.9876289367675781 0.16236498951911926 -0.5241087675094604 119
-2.286268711090088 0.1871619075536728 -0.520762026309967 119
-2.7090816497802734 0.22225084900856018 -0.5204411745071411 119
nan nan nan 0
-4.370792388916016 0.3601122200489044 -0.5337883234024048 119
-6.129047870635986 0.5060529708862305 -0.5347012877464294 119
-10.771757125854492 0.8912772536277771 -0.56256502866745 119
-35.89469528198242 2.976308822631836 -0.6217502951622009 119
-8.783824920654297 0.7298789024353027 2.349839448928833 32
-10.13216781616211 0.8436981439590454 2.3365983963012695 32
-12.075613021850586 1.007649540901184 2.3457963466644287 32
-14.571015357971191 1.2184393405914307 2.3072092533111572 32
-18.69710350036621 1.5667520761489868 2.299065113067627 32
-25.63987159729004 2.153038263320923 2.247746467590332 32
-29.2297420501709 2.459625482559204 1.5352752208709717 13
-42.09741973876953 3.5498149394989014 0.7367532849311829 30
-1.9774258136749268 0.16848210990428925 -0.5215205550193787 119
-2.280747175216675 0.1947268843650818 -0.5196372270584106 119
-2.708289384841919 0.23170596361160278 -0.5204411745071411 119
-3.32493257522583 0.2850470542907715 -0.5224915146827698 119
-4.354674816131592 0.37409263849258423 -0.5319602489471436 119
-6.132206439971924 0.5278714895248413 -0.5351370573043823 119
-10.743707656860352 0.9267268776893616 -0.561260998249054 119
-31.102632522583008 2.6883084774017334 -0.5388156771659851 30
-8.786035537719727 0.7609524726867676 2.35113263130188 32
-10.12916088104248 0.8790608644485474 2.3365983963012695 32
-12.081802368164062 1.0506457090377808 2.347702741622925 32
-14.566673278808594 1.269294261932373 2.3072092533111572 32
-18.69646453857422 1.6324392557144165 2.2996742725372314 32
-25.64708709716797 2.2438273429870605 2.249053955078125 32
-29.220977783203125 2.561641216278076 1.5352752208709717 13
-39.7939453125 3.495513677597046 0.6966127753257751 30
-1.972015142440796 0.1749567836523056 -0.5202265381813049 119
-2.275200843811035 0.20225560665130615 -0.518512487411499 119
-2.7074639797210693 0.24115823209285736 -0.5204411745071411 119
-3.328836441040039 0.2970905005931854 -0.5232737064361572 119
-4.3236846923828125 0.38663890957832336 -0.5283042192459106 119
-6.130326747894287 0.549273669719696 -0.5351370573043823 119
-10.745379447937012 0.9646701216697693 -0.5615217685699463 119
-31.008411407470703 2.7892465591430664 -0.5373470187187195 30
-8.783326148986816 0.7916168570518494 2.35113263130188 32
-10.13088321685791 0.9148510694503784 2.3377223014831543 32
-12.073172569274902 1.0923703908920288 2.3467495441436768 32
-14.562154769897461 1.3201336860656738 2.3072092533111572 32
-18.68570899963379 1.6972432136535645 2.299065113067627 32
-25.634136199951172 2.3328871726989746 2.2486181259155273 32
-29.21683120727539 2.664079427719116 1.5355368852615356 13
-35.081790924072266 3.205038070678711 0.6142374277114868 30
-1.966583013534546 0.1813957244157791 -0.5189324021339417 119
-2.2744810581207275 0.21019630134105682 -0.518512487411499 119
-2.701718330383301 0.2501550316810608 -0.5194879770278931 119
-3.3326961994171143 0.3091646432876587 -0.5240558981895447 119
-4.347015857696533 0.4040254056453705 -0.5313509702682495 119
-6.128371715545654 0.5706691145896912 -0.5351370573043823 119
-10.746918678283691 1.002636432647705 -0.5617825984954834 119
-29.166746139526367 2.7262539863586426 -0.5055554509162903 13
-8.785317420959473 0.8227218389511108 2.3524258136749268 32
-10.127628326416016 0.950208842754364 2.3377223014831543 32
-12.059513092041016 1.133588194847107 2.3448433876037598 32
-14.562374114990234 1.37142014503479 2.307990789413452 32
-18.67473030090332 1.7619919776916504 2.2984557151794434 32
-25.63575553894043 2.423290491104126 2.2494897842407227 32
-29.197410583496094 2.7651073932647705 1.5350135564804077 13
-29.207612991333008 2.771216869354248 0.5114427208900452 13
-1.9611302614212036 0.18779891729354858 -0.5176383256912231 119
-2.273733377456665 0.21813446283340454 -0.518512487411499 119
-2.7008285522460938 0.2595842778682709 -0.5194879770278931 119
-3.292271137237549 0.31700941920280457 -0.5177984833717346 119
-4.345579147338867 0.41919687390327454 -0.5313509702682495 119
-6.1263427734375 0.5920576453208923 -0.5351370573043823 119
-10.743352890014648 1.0401440858840942 -0.5617825984954834 119
-29.201833724975586 2.8323919773101807 -0.5063329339027405 13
-8.782392501831055 0.8533833026885986 2.3524258136749268 32
-10.129098892211914 0.986027181148529 2.338846206665039 32
-12.035941123962402 1.1737712621688843 2.3410303592681885 32
-14.557498931884766 1.4222439527511597 2.307990789413452 32
-18.66352653503418 1.826684832572937 2.2978463172912598 32
-25.627140045166016 2.512761116027832 2.2494897842407227 32
-29.20745849609375 2.8689608573913574 1.5360602140426636 13
-29.187814712524414 2.8721747398376465 0.5112681984901428 13
-1.9652687311172485 0.19512054324150085 -0.5189324021339417 119
-2.272958278656006 0.22606992721557617 -0.518512487411499 119
-2.6999058723449707 0.2690103352069855 -0.5194879770278931 119
-3.3157145977020264 0.33095207810401917 -0.5217093825340271 119
-4.3539652824401855 0.4353507161140442 -0.5325696468353271 119
-6.124238967895508 0.6134389638900757 -0.5351370573043823 119
-10.739657402038574 1.0776389837265015 -0.5617825984954834 119
-29.171873092651367 2.9323081970214844 -0.5059874057769775 13
-8.779359817504883 0.8840343952178955 2.3524258136749268 32
-10.125596046447754 1.0213783979415894 2.338846206665039 32
-12.012237548828125 1.2138035297393799 2.3372175693511963 32
-14.552445411682129 1.4730504751205444 2.307990789413452 32
-18.652099609375 1.8913209438323975 2.2972371578216553 32
nan nan nan 0
-29.197265625 2.9708964824676514 1.5360602140426636 13
-29.18755531311035 2.975055456161499 0.5114427208900452 13
-1.9693800210952759 0.20247335731983185 -0.5202265381813049 119
-2.272155284881592 0.23400266468524933 -0.518512487411499 119
-2.6989505290985107 0.2784331440925598 -0.5194879770278931 119
-3.309626817703247 0.34201642870903015 -0.5209271907806396 119
-4.347482681274414 0.4500352144241333 -0.5319602489471436 119
-6.122060298919678 0.6348128318786621 -0.5351370573043823 119
-10.730863571166992 1.1146049499511719 -0.5615217685699463 119
-29.146543502807617 3.032567024230957 -0.5057281851768494 13
-8.776220321655273 0.9146746397018433 2.3524258136749268 32
-10.126814842224121 1.0572229623794556 2.339970111846924 32
-11.98840045928955 1.253684639930725 2.333405017852783 32
-14.552125930786133 1.5243533849716187 2.308772087097168 32
-18.650320053100586 1.956935167312622 2.2978463172912598 32
-25.61392593383789 2.6921300888061523 2.249925374984741 32
nan nan nan 0
-29.162078857421875 3.075347900390625 0.5111809372901917 13
-1.9686613082885742 0.20934654772281647 -0.5202265381813049 119
-2.2761690616607666 0.24244853854179382 -0.5196372270584106 119
-2.6979622840881348 0.28785252571105957 -0.5194879770278931 119
-3.313323497772217 0.35409191250801086 -0.5217093825340271 119
-4.340950965881348 0.4646798372268677 -0.5313509702682495 119
-6.11980676651001 0.6561789512634277 -0.5351370573043823 119
-10.716978073120117 1.1509895324707031 -0.5610001683235168 119
-24.12544059753418 2.5953001976013184 -0.418646901845932 119
-8.772974014282227 0.9453038573265076 2.3524258136749268 32
-10.123062133789062 1.092565655708313 2.339970111846924 32
-11.964431762695312 1.2934141159057617 2.329592227935791 32
-14.546716690063477 1.5751405954360962 2.308772087097168 32
-18.653244018554688 2.0230953693389893 2.299065113067627 32
-24.60905647277832 2.6733970642089844 2.1623339653015137 32
-24.117652893066406 2.6242728233337402 1.2694085836410522 30
-23.95274543762207 2.6105592250823975 0.419904887676239 30
-1.9679185152053833 0.21621717512607574 -0.5202265381813049 119
-2.2801513671875 0.25092530250549316 -0.520762026309967 119
-2.6969408988952637 0.29726842045783997 -0.5194879770278931 119
-3.3120672702789307 0.36565539240837097 -0.5217093825340271 119
-4.3393025398254395 0.4798297584056854 -0.5313509702682495 119
-6.112528324127197 0.6769887208938599 -0.5347012877464294 119
-10.707932472229004 1.1878412961959839 -0.5607393383979797 119
-23.351055145263672 2.5944807529449463 -0.40534278750419617 119
-8.76482105255127 0.9753873348236084 2.35113263130188 32
-10.119187355041504 1.1278951168060303 2.339970111846924 32
-11.959843635559082 1.335170030593872 2.329592227935791 32
-14.546037673950195 1.6264573335647583 2.309553384780884 32
-18.650999069213867 2.088747262954712 2.2996742725372314 32
-22.921545028686523 2.571061611175537 2.0146050453186035 30
-22.545339584350586 2.5328476428985596 1.1869795322418213 30
-22.31402015686035 2.5108041763305664 0.39128294587135315 30
-1.9671128988265991 0.22342851758003235 -0.5202265381813049 119
-2.2792165279388428 0.2592807710170746 -0.520762026309967 119
-2.695833206176758 0.307151198387146 -0.5194879770278931 119
-3.3107049465179443 0.37779226899147034 -0.5217093825340271 119
-4.337514877319336 0.4957308769226074 -0.5313509702682495 119
-6.110005855560303 0.6993877291679382 -0.5347012877464294 119
-10.698546409606934 1.2265111207962036 -0.5604785680770874 119
-21.81167221069336 2.5044078826904297 -0.37873464822769165 0
-8.761187553405762 1.0075054168701172 2.35113263130188 32
-10.114985466003418 1.1649762392044067 2.339970111846924 32
-11.949995040893555 1.3784335851669312 2.328639030456543 32
-14.544885635375977 1.68032705783844 2.3103346824645996 32
-18.653078079223633 2.158233404159546 2.3008930683135986 32
-21.546356201171875 2.496807813644409 1.8943300247192383 30
-21.752243041992188 2.5245139598846436 1.1456340551376343 30
-20.96886444091797 2.4373056888580322 0.3678094446659088 30
-1.9615240097045898 0.22973184287548065 -0.5189324021339417 119
-2.2782974243164062 0.2672351598739624 -0.520762026309967 119
-2.69474458694458 0.3165595531463623 -0.5194879770278931 119
-3.30936598777771 0.38934648036956787 -0.5217093825340271 119
-4.335757732391357 0.5108686089515686 -0.5313509702682495 119
-6.102580547332764 0.7201276421546936 -0.5342655181884766 119
-10.69420051574707 1.2638485431671143 -0.5604785680770874 119
-20.596399307250977 2.4377429485321045 -0.3577418029308319 30
-8.752820014953613 1.037513017654419 2.349839448928833 32
-10.110857009887695 1.2002769708633423 2.339970111846924 32
-11.945109367370605 1.4201385974884033 2.328639030456543 32
-14.548739433288574 1.7322558164596558 2.3118972778320312 32
-18.665142059326172 2.225682020187378 2.303330421447754 32
-20.305999755859375 2.4249367713928223 1.7858211994171143 30
-20.46914291381836 2.448042869567871 1.0783823728561401 30
-19.83345603942871 2.375534772872925 0.3480009436607361 30
-1.9607101678848267 0.23657743632793427 -0.5189324021339417 119
-2.277350664138794 0.2751862704753876 -0.520762026309967 119
-2.6936233043670654 0.3259640336036682 -0.5194879770278931 119
-3.3079867362976074 0.40089595317840576 -0.5217093825340271 119
-4.338874816894531 0.5265979766845703 -0.5319602489471436 119
-6.100029945373535 0.7414252161979675 -0.5342655181884766 119
-10.684765815734863 1.3005672693252563 -0.5602177381515503 119
-19.496009826660156 2.3765392303466797 -0.338735967874527 119
-8.74435043334961 1.067474365234375 2.348546028137207 32
-10.106606483459473 1.2355631589889526 2.339970111846924 32
-11.940079689025879 1.4618260860443115 2.328639030456543 32
-14.547504425048828 1.7836307287216187 2.312678575515747 32
nan nan nan 0
-19.165294647216797 2.3565964698791504 1.6860277652740479 30
-19.360301971435547 2.384004831314087 1.020289421081543 30
-18.67889976501465 2.303407669067383 0.32784342765808105 30
-1.9598723649978638 0.24342015385627747 -0.5189324021339417 119
-2.276376247406006 0.2831340432167053 -0.520762026309967 119
-2.6924688816070557 0.33536455035209656 -0.5194879770278931 119
-3.3065671920776367 0.41244053840637207 -0.5217093825340271 119
-4.337010383605957 0.5417402982711792 -0.5319602489471436 119
-6.092462539672852 0.7620956301689148 -0.5338297486305237 119
-10.675207138061523 1.337235450744629 -0.5599569082260132 119
-18.014360427856445 2.2597720623016357 -0.3130780756473541 0
-8.740571022033691 1.0979913473129272 2.348546028137207 32
-10.097397804260254 1.2702261209487915 2.338846206665039 32
-11.934905052185059 1.5034958124160767 2.328639030456543 32
-14.555890083312988 1.836254596710205 2.3150224685668945 32
nan nan nan 0
-18.15875244140625 2.2972023487091064 1.5980005264282227 30
nan nan nan 0
-17.654052734375 2.2396159172058105 0.3099547326564789 30
-1.9590107202529907 0.2502599060535431 -0.5189324021339417 119
-2.2705416679382324 0.29046016931533813 -0.5196372270584106 119
-2.691281795501709 0.3447609841823578 -0.5194879770278931 119
-3.305107355117798 0.42398008704185486 -0.5217093825340271 119
-4.340014934539795 0.5575083494186401 -0.5325696468353271 119
-6.0897650718688965 0.7833576202392578 -0.5338297486305237 119
-10.6704740524292 1.3744908571243286 -0.5599569082260132 119
-17.599794387817383 2.2701966762542725 -0.30599406361579895 0
-8.731895446777344 1.1278764009475708 2.34725284576416 32
-10.092902183532715 1.3054649829864502 2.338846206665039 32
-11.93445110321045 1.5457775592803955 2.329592227935791 32
-14.539595603942871 1.8857823610305786 2.313459873199463 32
-17.622081756591797 2.2887074947357178 2.1771957874298096 30
-17.315866470336914 2.2520103454589844 1.5243539810180664 30
-17.422069549560547 2.2689146995544434 0.9187577366828918 30
-16.932279586791992 2.2081339359283447 0.2973889708518982 30
-1.9581252336502075 0.2570965886116028 -0.5189324021339417 119
-2.2695140838623047 0.29838404059410095 -0.5196372270584106 119
-2.6900620460510254 0.35415321588516235 -0.5194879770278931 119
-3.303607225418091 0.43551450967788696 -0.5217093825340271 119
-4.338042259216309 0.5726543664932251 -0.5325696468353271 119
-6.08699369430542 0.8046100735664368 -0.5338297486305237 119
-10.660660743713379 1.4110740423202515 -0.5596960783004761 119
-16.610490798950195 2.2015597820281982 -0.2888888120651245 119
-8.7279052734375 1.1583495140075684 2.34725284576416 32
-10.08828353881836 1.340687870979309 2.338846206665039 32
-11.933847427368164 1.5880746841430664 2.330545425415039 32
-14.576982498168945 1.9423941373825073 2.3204915523529053 32
-16.79248809814453 2.2405951023101807 2.075434684753418 30
-16.463655471801758 2.1996443271636963 1.4498357772827148 30
-16.547958374023438 2.2138473987579346 0.8729637265205383 30
-16.1514949798584 2.1636762619018555 0.2837761342525482 30
-1.9572159051895142 0.26393017172813416 -0.5189324021339417 119
-2.268458366394043 0.30630433559417725 -0.5196372270584106 119
-2.688809394836426 0.3635411262512207 -0.5194879770278931 119
-3.297173023223877 0.4463810324668884 -0.5209271907806396 119
-4.33601713180542 0.5877934694290161 -0.5325696468353271 119
-6.084147930145264 0.8258527517318726 -0.5338297486305237 119
-10.65072250366211 1.4476056098937988 -0.5594353079795837 119
-15.869573593139648 2.1597530841827393 -0.27610307931900024 119
-8.719022750854492 1.1881561279296875 2.345959424972534 32
-10.083541870117188 1.37589430809021 2.338846206665039 32
-11.93309497833252 1.630386471748352 2.331498622894287 32
-14.575007438659668 1.9939351081848145 2.3212730884552 32
-16.03229522705078 2.1961498260498047 1.982204794883728 30
-15.77487850189209 2.163693428039551 1.3896982669830322 30
-15.827802658081055 2.17376708984375 0.8352818489074707 30
-15.405900001525879 2.118563175201416 0.27077406644821167 30
-1.956282615661621 0.27076053619384766 -0.5189324021339417 119
-2.2577240467071533 0.31288331747055054 -0.5173877477645874 119
-2.6875240802764893 0.3729245662689209 -0.5194879770278931 119
-3.3004863262176514 0.45856723189353943 -0.5217093825340271 119
-4.333939075469971 0.6029254198074341 -0.5325696468353271 119
-6.076294898986816 0.8463981747627258 -0.5333939790725708 119
-10.640658378601074 1.484084963798523 -0.5591744780540466 119
-14.965770721435547 2.08998441696167 -0.26046645641326904 119
-8.714822769165039 1.2185840606689453 2.345959424972534 32
-10.078678131103516 1.4110839366912842 2.338846206665039 32
-11.932190895080566 1.6727120876312256 2.332451820373535 32
-14.567957878112793 2.0447990894317627 2.3212730884552 32
-15.351253509521484 2.1574769020080566 1.8987243175506592 30
-14.913928985595703 2.0986692905426025 1.3143086433410645 30
-14.959808349609375 2.107788324356079 0.7897495031356812 30
-14.769734382629395 2.083636522293091 0.2596918046474457 30
-1.9553256034851074 0.27758756279945374 -0.5189324021339417 119
-2.246971368789673 0.319391131401062 -0.5151382088661194 119
-2.686206102371216 0.38230353593826294 -0.5194879770278931 119
-3.298865556716919 0.4700852632522583 -0.5217093825340271 119
-4.326894760131836 0.6173490285873413 -0.5319602489471436 119
-6.07330322265625 0.8676032423973083 -0.5333939790725708 119
-10.630471229553223 1.5205118656158447 -0.5589137077331543 119
-14.671355247497559 2.1011059284210205 -0.2554558217525482 119
-8.710515022277832 1.2489970922470093 2.345959424972534 32
-10.078513145446777 1.4469490051269531 2.339970111846924 32
-11.935997009277344 1.715749740600586 2.3343582153320312 32
-14.179451942443848 2.0407631397247314 2.26033091545105 32
-14.700157165527344 2.118323802947998 1.8188998699188232 30
-14.448029518127441 2.0845658779144287 1.273781180381775 30
-14.60148811340332 2.1093084812164307 0.7711702585220337 30
-13.87177562713623 2.006366729736328 0.2439846247434616 30
-1.954344630241394 0.28441122174263 -0.5189324021339417 119
-2.236201047897339 0.3258276879787445 -0.5128887295722961 119
-2.6848552227020264 0.3916778266429901 -0.5194879770278931 119
-3.2972044944763184 0.4815976321697235 -0.5217093825340271 119
-4.319803237915039 0.631730854511261 -0.5313509702682495 119
-6.07023811340332 0.8887977600097656 -0.5333939790725708 119
-10.620158195495605 1.5568857192993164 -0.5586528778076172 119
-13.773604393005371 2.02162766456604 -0.23990556597709656 119
-8.70610237121582 1.2793948650360107 2.345959424972534 32
-10.07340145111084 1.4821207523345947 2.339970111846924 32
-11.939647674560547 1.7588346004486084 2.3362646102905273 32
-13.571296691894531 2.0016133785247803 2.16422963142395 30
-14.118263244628906 2.0848026275634766 1.7476063966751099 30
-13.795174598693848 2.03955340385437 1.2166942358016968 30
-13.808682441711426 2.044013500213623 0.7295631766319275 30
-13.666877746582031 2.0254604816436768 0.24049414694309235 30
-1.9485633373260498 0.29051926732063293 -0.5176383256912231 119
-2.215776205062866 0.33075445890426636 -0.5083897113800049 119
-2.6834716796875 0.40104731917381287 -0.5194879770278931 119
-3.2955033779144287 0.49310407042503357 -0.5217093825340271 119
-4.317571640014648 0.6468059420585632 -0.5313509702682495 119
-6.0621724128723145 0.9092426300048828 -0.5329581499099731 119
-10.609722137451172 1.5932060480117798 -0.5583921074867249 119
-13.425350189208984 2.0184099674224854 -0.23394465446472168 119
-8.701583862304688 1.309777021408081 2.345959424972534 32
-10.072983741760254 1.5180003643035889 2.3410940170288086 32
-11.947994232177734 1.8026976585388184 2.3391239643096924 32
-13.085675239562988 1.9766854047775269 2.0876612663269043 30
-13.51716136932373 2.0442774295806885 1.673875331878662 30
-13.300411224365234 2.013871669769287 1.17355215549469 30
-13.342347145080566 2.0226035118103027 0.7052269577980042 30
-13.135805130004883 1.993638515472412 0.23124437034130096 30
-1.9475373029708862 0.297319233417511 -0.5176383256912231 119
-2.238687515258789 0.34216728806495667 -0.5140134692192078 119
-2.6820554733276367 0.41041192412376404 -0.5194879770278931 119
-3.293761968612671 0.5046045184135437 -0.5217093825340271 119
-4.3152875900268555 0.6618731617927551 -0.5313509702682495 119
-6.058961868286133 0.9303979277610779 -0.5329581499099731 119
-10.599160194396973 1.6294723749160767 -0.5581312775611877 119
-13.082229614257812 2.0135467052459717 -0.22807012498378754 119
-8.701732635498047 1.3408788442611694 2.34725284576416 32
-10.067623138427734 1.5531524419784546 2.3410940170288086 32
-11.93677806854248 1.8436436653137207 2.3381707668304443 32
-12.634564399719238 1.9536750316619873 2.016561985015869 30
-12.970468521118164 2.0079336166381836 1.6068471670150757 30
-12.894601821899414 1.9984931945800781 1.138253927230835 30
-13.024356842041016 2.0209317207336426 0.688741147518158 30
-12.387767791748047 1.9243690967559814 0.21815507113933563 30
-1.946487545967102 0.3041155934333801 -0.5176383256912231 119
-2.242292881011963 0.35073262453079224 -0.5151382088661194 119
-2.6806063652038574 0.4197715222835541 -0.5194879770278931 119
-3.291980504989624 0.5160987973213196 -0.5217093825340271 119
-4.31295108795166 0.6769322752952576 -0.5313509702682495 119
-6.0556769371032715 0.9515420198440552 -0.5329581499099731 119
-10.588475227355957 1.665684461593628 -0.5578704476356506 119
-12.270164489746094 1.9324274063110352 -0.2139885127544403 119
