# .PCD v0.7 - Point Cloud Data file format
VERSION 0.7
FIELDS x y z intensity
SIZE 4 4 4 4
TYPE F F F F
COUNT 1 1 1 1
WIDTH 777
HEIGHT 1
VIEWPOINT 0 0 0 1 0 0 0
POINTS 777
DATA ascii
-1.7980611324310303 1.6042670011520386 0.6349868178367615 10
-1.8059669733047485 1.611886739730835 0.5495895147323608 10
-1.8042651414871216 1.610933780670166 0.46229633688926697 10
-1.8075686693191528 1.614450454711914 0.3773728907108307 10
-1.8011832237243652 1.6093124151229858 0.29187706112861633 10
-1.818558692932129 1.6254078149795532 0.21004533767700195 10
-1.8114827871322632 1.6196521520614624 0.12534461915493011 10
-1.8096482753753662 1.6185804605484009 0.04171124845743179 10
-1.4421086311340332 1.2921136617660522 -0.5085796117782593 119
-1.6428887844085693 1.4725276231765747 -0.5005163550376892 119
-1.8155049085617065 1.6278154850006104 -0.46610939502716064 0
-1.8114869594573975 1.6247833967208862 -0.3793538808822632 10
-1.8347469568252563 1.6462239027023315 -0.29797086119651794 10
-1.8188574314117432 1.632540225982666 -0.2104814499616623 10
-1.8081029653549194 1.6234571933746338 -0.12492751330137253 10
-1.8099792003631592 1.6257126331329346 -0.041380904614925385 10
-1.799635410308838 1.6169894933700562 0.6375733613967896 10
-1.8039528131484985 1.621437907218933 0.5507134199142456 10
-1.8022807836532593 1.6205037832260132 0.46324947476387024 10
-1.8055940866470337 1.624052882194519 0.3781541883945465 10
-1.8029330968856812 1.6222288608551025 0.29309576749801636 10
-1.820278286933899 1.6384104490280151 0.2109168916940689 10
-1.8095284700393677 1.6293065547943115 0.12560628354549408 10
-1.8077020645141602 1.6282334327697754 0.041798509657382965 10
-1.4411752223968506 1.3003751039505005 -0.5098737478256226 119
-1.637738823890686 1.4782533645629883 -0.5005163550376892 119
-1.8134548664093018 1.6374324560165405 -0.4670626223087311 0
-1.8094691038131714 1.6344069242477417 -0.38013604283332825 10
-1.8326716423034668 1.6559456586837769 -0.29858022928237915 10
-1.816842794418335 1.6422193050384521 -0.21091720461845398 10
-1.8061283826828003 1.6331075429916382 -0.12518832087516785 10
-1.8117084503173828 1.6387276649475098 -0.04155368357896805 10
-1.7975616455078125 1.626502275466919 0.6388666033744812 10
-1.801894187927246 1.6309945583343506 0.5518373250961304 10
-1.8002514839172363 1.6300795078277588 0.4642027020454407 10
-1.8072344064712524 1.6369763612747192 0.37971681356430054 10
-1.8009369373321533 1.631844401359558 0.2937051057815552 10
-1.8182387351989746 1.6480997800827026 0.21135267615318298 10
-1.8075292110443115 1.6389670372009277 0.12586797773838043 10
-1.8094133138656616 1.6412509679794312 0.04197303578257561 10
-1.4366272687911987 1.3053977489471436 -0.5098737478256226 119
-1.6325687170028687 1.4839611053466797 -0.5005163550376892 119
-1.8113594055175781 1.6470545530319214 -0.46801578998565674 0
-1.811059594154358 1.6473593711853027 -0.38170042634010315 10
-1.834221363067627 1.6690126657485962 -0.2997989356517792 10
-1.8184661865234375 1.6552568674087524 -0.21178877353668213 10
-1.8078006505966187 1.6461256742477417 -0.12570993602275848 10
-1.8096729516983032 1.64840829372406 -0.04164007306098938 10
-1.7954431772232056 1.6360200643539429 0.6401598453521729 10
-1.8033909797668457 1.6438384056091309 0.5540851354598999 10
-1.8018044233322144 1.642967939376831 0.4661090672016144 10
-1.8051581382751465 1.6466031074523926 0.38049814105033875 10
-1.7988958358764648 1.6414661407470703 0.294314444065094 10
-1.8161534070968628 1.65779447555542 0.21178844571113586 10
-1.805484414100647 1.6486334800720215 0.1261296421289444 10
-1.8073642253875732 1.6509286165237427 0.04206029698252678 10
-1.432061791419983 1.3104045391082764 -0.5098737478256226 119
-1.6273787021636963 1.489650845527649 -0.5005163550376892 119
-1.8128390312194824 1.659996747970581 -0.46992215514183044 0
-1.8089396953582764 1.657006859779358 -0.3824825882911682 10
-1.8320430517196655 1.678757905960083 -0.300408273935318 10
-1.8163492679595947 1.664960265159607 -0.2122245579957962 10
-1.8057239055633545 1.655800700187683 -0.1259707510471344 10
-1.8112760782241821 1.6614739894866943 -0.04181285202503204 10
-1.7968387603759766 1.6488083600997925 0.6427463293075562 10
-1.8012313842773438 1.6534183025360107 0.5552090406417847 10
-1.7996736764907837 1.6525672674179077 0.4670622944831848 10
-1.8030364513397217 1.6562352180480957 0.38127946853637695 10
-1.8004634380340576 1.6544512510299683 0.295533150434494 10
-1.8176898956298828 1.670865774154663 0.212660014629364 10
-1.8070693016052246 1.6616851091384888 0.12665300071239471 10
-1.805269718170166 1.6606119871139526 0.04214755818247795 10
-1.4274789094924927 1.315395474433899 -0.5098737478256226 119
-1.6257513761520386 1.498624563217163 -0.5016411542892456 119
-1.810641884803772 1.6696422100067139 -0.4708753526210785 0
-1.8067744970321655 1.6666594743728638 -0.38326478004455566 10
-1.8298193216323853 1.6885082721710205 -0.3010176122188568 10
-1.8141863346099854 1.6746690273284912 -0.21266034245491028 10
-1.8072699308395386 1.6688686609268188 -0.12649236619472504 10
-1.8091377019882202 1.6711786985397339 -0.041899245232343674 10
-1.7946196794509888 1.6583482027053833 0.6440396308898926 10
-1.802604079246521 1.6663098335266113 0.5574568510055542 10
-1.7974979877471924 1.6621716022491455 0.4680154621601105 10
-1.804494857788086 1.669226050376892 0.382842093706131 10
-1.7983198165893555 1.664096474647522 0.29614248871803284 10
-1.8155016899108887 1.680584192276001 0.2130957841873169 10
-1.8049215078353882 1.6713753938674927 0.12691469490528107 10
-1.8067971467971802 1.6736980676651 0.04232208430767059 10
-1.4228787422180176 1.3203703165054321 -0.5098737478256226 119
-1.620510220527649 1.504290223121643 -0.5016411542892456 119
-1.8119961023330688 1.6826320886611938 -0.4727817475795746 0
-1.8081823587417603 1.6796784400939941 -0.3848291039466858 10
-1.8275492191314697 1.6982632875442505 -0.30162695050239563 10
-1.811977744102478 1.6843827962875366 -0.21309611201286316 10
-1.8050899505615234 1.6785672903060913 -0.12675316631793976 10
-1.8069535493850708 1.6808884143829346 -0.041985634714365005 10
-1.7923557758331299 1.6678928136825562 0.6453328728675842 10
-1.8003426790237427 1.6759116649627686 0.558580756187439 10
-1.798869013786316 1.6751258373260498 0.4699218273162842 10
-1.802270531654358 1.6788809299468994 0.3836233615875244 10
-1.7961307764053345 1.6737470626831055 0.29675182700157166 10
-1.8132678270339966 1.6903076171875 0.21353158354759216 10
-1.806380033493042 1.684476375579834 0.12743805348873138 10
-1.804599404335022 1.683404803276062 0.04240934178233147 10
-1.4182610511779785 1.325329065322876 -0.5098737478256226 119
-1.6152493953704834 1.5099377632141113 -0.5016411542892456 119
-1.8096964359283447 1.692299246788025 -0.47373491525650024 0
-1.8059145212173462 1.6893534660339355 -0.38561126589775085 10
-1.825233817100525 1.7080234289169312 -0.30223631858825684 10
-1.8133596181869507 1.697505235671997 -0.2139676809310913 10
-1.8028643131256104 1.6882710456848145 -0.12701398134231567 10
-1.8047236204147339 1.690603494644165 -0.04207202419638634 10
-1.7935712337493896 1.6807441711425781 0.6479193568229675 10
-1.8015906810760498 1.688849687576294 0.5608285665512085 10
-1.79659104347229 1.684752345085144 0.4708750247955322 10
-1.8000013828277588 1.6885406970977783 0.3844046890735626 10
-1.7975150346755981 1.6867984533309937 0.2979705333709717 10
-1.8109878301620483 1.700035810470581 0.21396735310554504 10
-1.8041290044784546 1.6941896677017212 0.12769973278045654 10
-1.8023560047149658 1.6931167840957642 0.04249660670757294 10
-1.4133939743041992 1.330518364906311 -0.5098737478256226 119
-1.6097042560577393 1.51584792137146 -0.5016411542892456 119
-1.8106272220611572 1.705651879310608 -0.47564128041267395 0
-1.8033047914505005 1.6993482112884521 -0.3863934576511383 10
-1.826183557510376 1.7215099334716797 -0.30345502495765686 10
-1.810749888420105 1.7075577974319458 -0.21440346539020538 10
-1.8039284944534302 1.7017202377319336 -0.1275355964899063 10
-1.8057869672775269 1.7040690183639526 -0.0422448068857193 10
-1.790911316871643 1.690622329711914 0.649212658405304 10
-1.7989308834075928 1.6987866163253784 0.5619524717330933 10
-1.7939718961715698 1.6946961879730225 0.4718281924724579 10
-1.8009791374206543 1.7019106149673462 0.38596731424331665 10
-1.7949271202087402 1.6967846155166626 0.2985799014568329 10
-1.8119827508926392 1.7135066986083984 0.214838907122612 10
-1.805161952972412 1.707653522491455 0.12822309136390686 10
-1.799769401550293 1.703147530555725 0.04258387163281441 10
-1.4087409973144531 1.3354438543319702 -0.5098737478256226 119
-1.6044032573699951 1.521457552909851 -0.5016411542892456 119
-1.8082234859466553 1.7153400182724 -0.4765945076942444 0
-1.8045263290405273 1.7124310731887817 -0.3879578113555908 10
-1.8237625360488892 1.7312906980514526 -0.3040643334388733 10
-1.8083901405334473 1.717297911643982 -0.21483923494815826 10
-1.8015975952148438 1.711445689201355 -0.12779641151428223 10
-1.803451657295227 1.713805913925171 -0.04233120009303093 10
-1.7920000553131104 1.7035187482833862 0.6517991423606873 10
-1.8000510931015015 1.7117705345153809 0.5642002820968628 10
-1.7916018962860107 1.7043312788009644 0.4727814197540283 10
-1.798604965209961 1.7115912437438965 0.38674861192703247 10
-1.7925876379013062 1.7064611911773682 0.2991892099380493 10
-1.8095978498458862 1.7232563495635986 0.21527469158172607 10
-1.8028053045272827 1.7173880338668823 0.12848477065563202 10
-1.8010469675064087 1.7163219451904297 0.04275839403271675 10
-1.4040707349777222 1.3403531312942505 -0.5098737478256226 119
-1.599082589149475 1.5270487070083618 -0.5016411542892456 119
-1.8057738542556763 1.7250317335128784 -0.47754764556884766 0
-1.8021080493927002 1.7221314907073975 -0.3887399435043335 10
-1.8248826265335083 1.7445048093795776 -0.3052830398082733 10
-1.8095842599868774 1.730484962463379 -0.21571078896522522 10
-1.8028287887573242 1.7246272563934326 -0.12831802666187286 10
-1.8046821355819702 1.7270034551620483 -0.04250397905707359 10
-1.7895315885543823 1.7131036520004272 0.6530923247337341 10
-1.7975835800170898 1.721413016319275 0.5653241872787476 10
-1.792730450630188 1.7173653841018677 0.474687784910202 10
-1.799750804901123 1.7246930599212646 0.3883112370967865 10
-1.7937850952148438 1.7195769548416138 0.30040791630744934 10
-1.8107614517211914 1.7364574670791626 0.21614624559879303 10
-1.8004027605056763 1.7271273136138916 0.12874644994735718 10
-1.7986565828323364 1.7260550260543823 0.04284565523266792 10
-1.399383544921875 1.3452460765838623 -0.5098737478256226 119
-1.5937424898147583 1.5326212644577026 -0.5016411542892456 119
-1.8068158626556396 1.7381302118301392 -0.47945404052734375 0
-1.8032026290893555 1.735260248184204 -0.390304297208786 10
-1.822357416152954 1.7543061971664429 -0.3058924078941345 10
-1.8071205615997314 1.740246057510376 -0.2161465734243393 10
-1.80039381980896 1.734373927116394 -0.12857884168624878 10
-1.805842399597168 1.7402305603027344 -0.04267675802111626 10
-1.7904953956604004 1.726043939590454 0.6556788682937622 10
-1.7985780239105225 1.7344411611557007 0.5675719976425171 10
-1.7902573347091675 1.727020502090454 0.4756409525871277 10
-1.7972732782363892 1.7343943119049072 0.3890925645828247 10
-1.7913423776626587 1.7292747497558594 0.30101728439331055 10
-1.8082720041275024 1.7462276220321655 0.2165820151567459 10
-1.80154550075531 1.740339756011963 0.1292698085308075 10
-1.7998102903366089 1.739270806312561 0.04302017763257027 10
-1.394679307937622 1.3501226902008057 -0.5098737478256226 119
-1.5883829593658447 1.538175106048584 -0.5016411542892456 119
-1.8042631149291992 1.747841715812683 -0.4804072380065918 0
-1.8006807565689087 1.7449806928634644 -0.39108648896217346 10
-1.823349118232727 1.767565131187439 -0.30711108446121216 10
-1.808186650276184 1.7534786462783813 -0.21701814234256744 10
-1.8014966249465942 1.7476013898849487 -0.12910045683383942 10
-1.803344488143921 1.7500050067901611 -0.04276314750313759 10
-1.787925124168396 1.7356476783752441 0.6569721102714539 10
-1.7960078716278076 1.744103193283081 0.5686959028244019 10
-1.7912591695785522 1.7400991916656494 0.4775473177433014 10
-1.798291563987732 1.7475409507751465 0.39065515995025635 10
-1.7924119234085083 1.7424355745315552 0.3022359609603882 10
-1.8093074560165405 1.759474277496338 0.21745356917381287 10
-1.7990385293960571 1.7500993013381958 0.12953148782253265 10
-1.7973111867904663 1.7490293979644775 0.04310744255781174 10
-1.3899579048156738 1.3549827337265015 -0.5098737478256226 119
-1.5830039978027344 1.5437102317810059 -0.5016411542892456 119
-1.8016644716262817 1.7575565576553345 -0.48136040568351746 0
-1.8016475439071655 1.7581539154052734 -0.392650842666626 10
-1.8207191228866577 1.7773857116699219 -0.307720422744751 10
-1.8056182861328125 1.763259768486023 -0.21745391190052032 10
-1.7989572286605835 1.7573682069778442 -0.12936127185821533 10
-1.8043756484985352 1.7632771730422974 -0.04293592646718025 10
-1.788763165473938 1.7486306428909302 0.6595586538314819 10
-1.7968755960464478 1.7571744918823242 0.5709437131881714 10
-1.7921912670135498 1.7532057762145996 0.4794536828994751 10
-1.7957100868225098 1.7572615146636963 0.39143645763397217 10
-1.7898651361465454 1.7521532773971558 0.302845299243927 10
-1.8067134618759155 1.7692643404006958 0.21788936853408813 10
-1.8000524044036865 1.7633568048477173 0.13005484640598297 10
-1.7983360290527344 1.762290596961975 0.04328196495771408 10
-1.385219693183899 1.3598264455795288 -0.5098737478256226 119
-1.5776058435440063 1.5492264032363892 -0.5016411542892456 119
-1.795518398284912 1.7638347148895264 -0.48136040568351746 0
-1.7990217208862305 1.7678934335708618 -0.39343297481536865 10
-1.8180429935455322 1.787209391593933 -0.3083297908306122 10
-1.806555151939392 1.776536464691162 -0.21832546591758728 10
-1.7999309301376343 1.7706403732299805 -0.12988288700580597 10
-1.8017730712890625 1.7730714082717896 -0.04302231967449188 10
-1.7860901355743408 1.7582520246505737 0.6608518362045288 10
-1.794202208518982 1.7668544054031372 0.5720675587654114 10
-1.7895573377609253 1.7628957033157349 0.48040691018104553 10
-1.7930829524993896 1.7669856548309326 0.3922177851200104 10
-1.7908064126968384 1.7653582096099854 0.30406397581100464 10
-1.8076198101043701 1.7825548648834229 0.2187609225511551 10
-1.7974408864974976 1.7731359004974365 0.13031652569770813 10
-1.7957319021224976 1.772068738937378 0.04336922615766525 10
-1.3804646730422974 1.3646533489227295 -0.5098737478256226 119
-1.572188377380371 1.554723858833313 -0.5016411542892456 119
-1.7928400039672852 1.7735434770584106 -0.4823136329650879 0
-1.7998602390289307 1.7811098098754883 -0.39499732851982117 10
-1.8188471794128418 1.8005274534225464 -0.3095484673976898 10
-1.8074214458465576 1.7898415327072144 -0.21919701993465424 10
-1.7972866296768188 1.7804266214370728 -0.1301436871290207 10
-1.7991238832473755 1.7828688621520996 -0.043108709156513214 10
-1.7868021726608276 1.7712767124176025 0.6634384393692017 10
-1.7949427366256714 1.7799677848815918 0.5743153691291809 10
-1.7903621196746826 1.7760450839996338 0.48231327533721924 10
-1.7939149141311646 1.7801910638809204 0.3937804102897644 10
-1.788155436515808 1.775094985961914 0.30467334389686584 10
-1.8049207925796509 1.7923634052276611 0.21919669210910797 10
-1.7983250617980957 1.7864372730255127 0.13083988428115845 10
-1.7966272830963135 1.7853738069534302 0.043543748557567596 10
-1.3791154623031616 1.3728711605072021 -0.5111678242683411 119
-1.5667518377304077 1.5602024793624878 -0.5016411542892456 119
-1.7866382598876953 1.7797907590866089 -0.4823136329650879 0
-1.7971299886703491 1.790867567062378 -0.3957795202732086 10
-1.8160656690597534 1.8103691339492798 -0.31015780568122864 10
-1.8082166910171509 1.8031738996505737 -0.2200685739517212 10
-1.7945958375930786 1.7902159690856934 -0.1304045021533966 10
-1.7999670505523682 1.7962007522583008 -0.04328148812055588 10
-1.7874445915222168 1.7843273878097534 0.666024923324585 10
-1.792165994644165 1.7896651029586792 0.5754393339157104 10
-1.7876238822937012 1.7857526540756226 0.4832664430141449 10
-1.7911834716796875 1.7899329662322998 0.3945617079734802 10
-1.7889678478240967 1.788343071937561 0.30589205026626587 10
-1.8056974411010742 1.8056970834732056 0.22006824612617493 10
-1.7956085205078125 1.7962350845336914 0.1311015635728836 10
-1.7939181327819824 1.795170783996582 0.04363101348280907 10
-1.3743149042129517 1.3776768445968628 -0.5111678242683411 119
-1.5612961053848267 1.565661907196045 -0.5016411542892456 119
-1.7804147005081177 1.7860164642333984 -0.4823136329650879 0
-1.7978397607803345 1.8041259050369263 -0.39734387397766113 10
-1.8132377862930298 1.8202130794525146 -0.31076717376708984 10
-1.8054262399673462 1.8130043745040894 -0.22050437331199646 10
-1.7953813076019287 1.8035467863082886 -0.13092611730098724 10
-1.7972124814987183 1.8060165643692017 -0.04336788132786751 10
-1.784611701965332 1.7939800024032593 0.6673181653022766 10
-1.7893435955047607 1.7993649244308472 0.5765632390975952 10
-1.7883003950119019 1.7989437580108643 0.4851728081703186 10
-1.7918864488601685 1.803180456161499 0.39612433314323425 10
-1.7862118482589722 1.7980976104736328 0.3065013885498047 10
-1.8028931617736816 1.8155235052108765 0.220504030585289 10
-1.7963627576828003 1.8095791339874268 0.13162492215633392 10
-1.794683814048767 1.8085187673568726 0.04380553960800171 10
-1.3694974184036255 1.3824657201766968 -0.5111678242683411 119
-1.555821418762207 1.571102261543274 -0.5016411542892456 119
-1.7707164287567139 1.7887321710586548 -0.48136040568351746 0
-1.798478603363037 1.817411184310913 -0.39890819787979126 10
-1.8103630542755127 1.83005952835083 -0.31137651205062866 10
-1.8060914278030396 1.8263789415359497 -0.22137592732906342 10
-1.7925848960876465 1.8133536577224731 -0.13118691742420197 10
-1.797925353050232 1.8193907737731934 -0.04354066029191017 10
-1.7851271629333496 1.8070704936981201 0.6699046492576599 10
-1.7898982763290405 1.8125331401824951 0.5788110494613647 10
-1.7889065742492676 1.8121612071990967 0.4870792031288147 10
-1.7890504598617554 1.8129397630691528 0.39690566062927246 10
-1.7868947982788086 1.8113876581192017 0.3077200651168823 10
-1.803539514541626 1.8288989067077637 0.22137558460235596 10
-1.793540596961975 1.8193944692611694 0.13188660144805908 10
-1.7953778505325317 1.8218939304351807 0.04398006200790405 10
-1.3646633625030518 1.3872376680374146 -0.5111678242683411 119
-1.5503277778625488 1.5765235424041748 -0.5016411542892456 119
-1.785107135772705 1.815903663635254 -0.48707953095436096 0
-1.795584797859192 1.827200174331665 -0.3996903598308563 10
-1.8109196424484253 1.8434484004974365 -0.3125952184200287 10
-1.8031949996948242 1.836225986480713 -0.2218116968870163 10
-1.789742350578308 1.8231632709503174 -0.13144773244857788 10
-1.795064926147461 1.8292236328125 -0.0436270497739315 10
-1.7821907997131348 1.8167387247085571 0.6711979508399963 10
-1.7869718074798584 1.8222485780715942 0.5799349546432495 10
-1.786005973815918 1.8218997716903687 0.48803240060806274 10
-1.7896244525909424 1.826228141784668 0.3984682559967041 10
-1.7875066995620728 1.8247042894363403 0.30893877148628235 10
-1.8006296157836914 1.8387420177459717 0.22181135416030884 10
-1.794164776802063 1.832780122756958 0.1324099600315094 10
-1.7925037145614624 1.8317228555679321 0.044067323207855225 10
-1.35981285572052 1.3919928073883057 -0.5111678242683411 119
-1.548218846321106 1.5854110717773438 -0.5027658939361572 119
-1.7856149673461914 1.8291484117507935 -0.48898595571517944 0
-1.7960941791534424 1.8405258655548096 -0.4012547433376312 10
-1.8079391717910767 1.8533107042312622 -0.3132045567035675 10
-1.8037294149398804 1.84964120388031 -0.22268325090408325 10
-1.790338397026062 1.8365503549575806 -0.1319693624973297 10
-1.7956470251083374 1.8426393270492554 -0.04379982873797417 10
-1.7825788259506226 1.829867959022522 0.6737844347953796 10
-1.787398099899292 1.8354558944702148 0.582182765007019 10
-1.7864830493927002 1.8351569175720215 0.48993879556655884 10
-1.7901270389556885 1.8395426273345947 0.40003088116645813 10
-1.788047432899475 1.8380471467971802 0.31015744805336 10
-1.801145315170288 1.8521579504013062 0.2226829081773758 10
-1.791236400604248 1.8426117897033691 0.13267163932323456 10
-1.7930669784545898 1.8451392650604248 0.04424184560775757 10
-1.3549455404281616 1.396730899810791 -0.5111678242683411 119
-1.542675256729126 1.5908056497573853 -0.5027658939361572 119
-1.7997173070907593 1.8565152883529663 -0.49470508098602295 0
-1.7965320348739624 1.853877067565918 -0.40281909704208374 10
-1.808364987373352 1.8667395114898682 -0.31442326307296753 10
-1.800727128982544 1.8595043420791626 -0.22311905026435852 10
-1.7873893976211548 1.8463760614395142 -0.13223016262054443 10
-1.7961571216583252 1.8560811281204224 -0.04397260770201683 10
-1.7795385122299194 1.839550495147705 0.6750776767730713 10
-1.787753939628601 1.8486886024475098 0.5844305753707886 10
-1.7834776639938354 1.844910740852356 0.4908919930458069 10
-1.7905588150024414 1.8528826236724854 0.40159350633621216 10
-1.7885165214538574 1.851415991783142 0.31137615442276 10
-1.8015893697738647 1.8655999898910522 0.22355449199676514 10
-1.7917295694351196 1.8560380935668945 0.13319499790668488 10
-1.7900869846343994 1.8549845218658447 0.04432911053299904 10
-1.3467110395431519 1.397973895072937 -0.5098737478256226 119
-1.5371129512786865 1.5961809158325195 -0.5027658939361572 119
-1.7864177227020264 1.855713963508606 -0.49279871582984924 0
-1.7968984842300415 1.8672535419464111 -0.40438342094421387 10
-1.8052783012390137 1.8766169548034668 -0.31503260135650635 10
-1.7976781129837036 1.8693692684173584 -0.2235548347234726 10
-1.7878543138504028 1.8598031997680664 -0.13275177776813507 10
-1.7931313514709473 1.865944266319275 -0.04405900090932846 10
-1.7797983884811401 1.8527172803878784 0.6776641607284546 10
-1.7880393266677856 1.8619458675384521 0.5866783857345581 10
-1.7838250398635864 1.8582066297531128 0.4927983582019806 10
-1.7909189462661743 1.8662482500076294 0.4031561315059662 10
-1.7854787111282349 1.8612291812896729 0.31198549270629883 10
-1.7985138893127441 1.8754724264144897 0.22399026155471802 10
-1.788695216178894 1.865885615348816 0.13345667719841003 10
-1.7905187606811523 1.8684405088424683 0.04450363293290138 10
-1.3418229818344116 1.4026662111282349 -0.5098737478256226 119
-1.5348992347717285 1.6050578355789185 -0.5038906931877136 119
-1.7799291610717773 1.8619384765625 -0.49279871582984924 0
-1.7971935272216797 1.8806551694869995 -0.4059477746486664 10
-1.8055728673934937 1.890084147453308 -0.31625130772590637 10
-1.7980217933654785 1.8828372955322266 -0.22442638874053955 10
-1.7882472276687622 1.8732560873031616 -0.1332733929157257 10
-1.7935097217559814 1.8794254064559937 -0.044231779873371124 10
-1.7799879312515259 1.865907907485962 0.6802506446838379 10
-1.7882534265518188 1.8752275705337524 0.5889261960983276 10
-1.7807143926620483 1.8679746389389038 0.49375152587890625 10
-1.7878005504608154 1.8760634660720825 0.4039374589920044 10
-1.7858167886734009 1.8746367692947388 0.31320419907569885 10
-1.7988260984420776 1.8889532089233398 0.22486181557178497 10
-1.7890565395355225 1.8793507814407349 0.13398003578186035 10
-1.790878415107727 1.8819223642349243 0.044678159058094025 10
-1.336918592453003 1.407341480255127 -0.5098737478256226 119
-1.5292870998382568 1.6104058027267456 -0.5038906931877136 119
-1.77341890335083 1.8681403398513794 -0.49279871582984924 0
-1.79741632938385 1.8940813541412354 -0.4075121283531189 10
-1.8057951927185059 1.9035760164260864 -0.3174700140953064 10
-1.7948658466339111 1.8927162885665894 -0.22486215829849243 10
-1.785132646560669 1.8831106424331665 -0.13353420794010162 10
-1.7938158512115479 1.8929320573806763 -0.044404562562704086 10
-1.7801071405410767 1.8791226148605347 0.682837188243866 10
-1.7883968353271484 1.888533592224121 0.5911740064620972 10
-1.780931830406189 1.8813080787658691 0.49565789103507996 10
-1.7880300283432007 1.8894668817520142 0.4055000841617584 10
-1.7860832214355469 1.8880695104599 0.3144228756427765 10
-1.799066185951233 1.902458667755127 0.22573336958885193 10
-1.7893457412719727 1.8928414583206177 0.13450339436531067 10
-1.7877322435379028 1.8917957544326782 0.0447654202580452 10
-1.3319978713989258 1.4119995832443237 -0.5098737478256226 119
-1.5269986391067505 1.6192785501480103 -0.5050153732299805 119
-1.763520359992981 1.870747685432434 -0.4918454885482788 0
-1.7975677251815796 1.9075322151184082 -0.4090764820575714 10
-1.8059452772140503 1.9170924425125122 -0.31868869066238403 10
-1.7950776815414429 1.9062224626541138 -0.2257337123155594 10
-1.785393476486206 1.896601915359497 -0.13405582308769226 10
-1.7940495014190674 1.906463623046875 -0.04457734152674675 10
-1.7801556587219238 1.892360806465149 0.6854236721992493 10
-1.7884690761566162 1.9018632173538208 0.5934218168258667 10
-1.7810776233673096 1.8946657180786133 0.49756428599357605 10
-1.7881876230239868 1.9028944969177246 0.40706270933151245 10
-1.7828795909881592 1.8979096412658691 0.3150322437286377 10
-1.7958242893218994 1.9123581647872925 0.226169154047966 10
-1.789562463760376 1.906356692314148 0.13502676784992218 10
-1.7879594564437866 1.9053153991699219 0.04493994638323784 10
-1.3270609378814697 1.4166405200958252 -0.5098737478256226 119
-1.5246672630310059 1.6281551122665405 -0.5061401724815369 119
-1.7569794654846191 1.87689208984375 -0.4918454885482788 0
-1.7976469993591309 1.9210070371627808 -0.41064080595970154 10
-1.8026326894760132 1.927008867263794 -0.31929802894592285 10
-1.791814923286438 1.9161150455474854 -0.22616951167583466 10
-1.7855818271636963 1.910117745399475 -0.1345774382352829 10
-1.7907971143722534 1.9163670539855957 -0.04466373473405838 10
-1.7801332473754883 1.905622124671936 0.6880101561546326 10
-1.7851446866989136 1.9116555452346802 0.5945457220077515 10
-1.777802586555481 1.9044592380523682 0.4985174834728241 10
-1.7882729768753052 1.9163460731506348 0.4086253046989441 10
-1.7830142974853516 1.9113795757293701 0.3162509500980377 10
-1.7959319353103638 1.9259008169174194 0.22704072296619415 10
-1.7897064685821533 1.9198966026306152 0.1355501264333725 10
-1.7881141901016235 1.918859839439392 0.04511446878314018 10
-1.3221080303192139 1.4212642908096313 -0.5098737478256226 119
-1.51565682888031 1.6298993825912476 -0.5050153732299805 119
-1.7504171133041382 1.8830137252807617 -0.4918454885482788 0
-1.7976536750793457 1.9345053434371948 -0.41220515966415405 10
-1.8026502132415771 1.9405615329742432 -0.3205167353153229 10
-1.7918940782546997 1.9296578168869019 -0.2270410656929016 10
-1.78569757938385 1.923658013343811 -0.13509906828403473 10
-1.7908978462219238 1.9299356937408447 -0.044836513698101044 10
-1.78003990650177 1.9189060926437378 0.6905966401100159 10
-1.7850865125656128 1.9250200986862183 0.596793532371521 10
-1.7778176069259644 1.9178526401519775 0.5004238486289978 10
-1.7849295139312744 1.9261990785598755 0.4094066023826599 10
-1.7797038555145264 1.9212323427200317 0.31686028838157654 10
-1.7925825119018555 1.9358125925064087 0.22747647762298584 10
-1.7897777557373047 1.9334605932235718 0.13607348501682281 10
-1.7881959676742554 1.9324283599853516 0.045288994908332825 10
-1.3171387910842896 1.425870656967163 -0.5098737478256226 119
-1.5066533088684082 1.631601095199585 -0.5038906931877136 119
-1.7438335418701172 1.8891123533248901 -0.4918454885482788 0
-1.7975882291793823 1.9480273723602295 -0.41376951336860657 10
-1.8025952577590942 1.9541375637054443 -0.3217354118824005 10
-1.791900873184204 1.9432246685028076 -0.22791261970996857 10
-1.7823562622070312 1.9335510730743408 -0.13535988330841064 10
-1.7909256219863892 1.9435278177261353 -0.04500929266214371 10
-1.7766032218933105 1.92866051197052 0.6918899416923523 10
-1.7849563360214233 1.9384074211120605 0.5990413427352905 10
-1.7777605056762695 1.9312691688537598 0.5023302435874939 10
-1.7848832607269287 1.9396861791610718 0.41096922755241394 10
-1.779706358909607 1.9347379207611084 0.3180789649486542 10
-1.7925571203231812 1.9493910074234009 0.228348046541214 10
-1.7863969802856445 1.943372368812561 0.13633516430854797 10
-1.7848222255706787 1.942339539527893 0.0453762523829937 10
-1.3121534585952759 1.4304596185684204 -0.5098737478256226 119
-1.5009486675262451 1.636850357055664 -0.5038906931877136 119
-1.7372287511825562 1.8951879739761353 -0.4918454885482788 119
-1.7941137552261353 1.9579311609268188 -0.41455164551734924 10
-1.8024673461914062 1.967736840248108 -0.32295411825180054 10
-1.7918342351913452 1.9568146467208862 -0.22878417372703552 10
-1.7823388576507568 1.947126865386963 -0.13588149845600128 10
-1.7875053882598877 1.9534555673599243 -0.04509568214416504 10
-1.7763798236846924 1.9419777393341064 0.6944764256477356 10
-1.7814669609069824 1.9482218027114868 0.6001651883125305 10
-1.7743197679519653 1.941085696220398 0.5032833814620972 10
-1.7814329862594604 1.9495505094528198 0.41175055503845215 10
-1.7762889862060547 1.944602608680725 0.3186883330345154 10
-1.7891005277633667 1.9593148231506348 0.22878383100032806 10
-1.786334753036499 1.9569717645645142 0.1368585228919983 10
-1.7847708463668823 1.9559437036514282 0.04555077850818634 10
-1.307152271270752 1.4350311756134033 -0.5098737478256226 119
-1.4919456243515015 1.6384772062301636 -0.5027658939361572 119
-1.733906626701355 1.9048702716827393 -0.49279871582984924 119
-1.7939153909683228 1.971487045288086 -0.41611599922180176 10
-1.8022661209106445 1.9813590049743652 -0.3241727948188782 10
-1.7883436679840088 1.9667423963546753 -0.2292199432849884 10
-1.7822483777999878 1.9607263803482056 -0.13640311360359192 10
-1.7873996496200562 1.967083215713501 -0.0452684611082077 10
-1.7760851383209229 1.9553169012069702 0.6970629692077637 10
-1.7812058925628662 1.9616421461105347 0.6024129986763 10
-1.774131178855896 1.9545360803604126 0.5051897764205933 10
-1.777935266494751 1.9594141244888306 0.41253185272216797 10
-1.7761588096618652 1.9581429958343506 0.319907009601593 10
-1.7889419794082642 1.9729278087615967 0.22965538501739502 10
-1.782846212387085 1.9668947458267212 0.13712020218372345 10
-1.7846457958221436 1.9695709943771362 0.045725300908088684 10
-1.3021351099014282 1.4395852088928223 -0.5098737478256226 119
-1.4862172603607178 1.6436750888824463 -0.5027658939361572 119
-1.727246880531311 1.9109110832214355 -0.49279871582984924 119
-1.7936445474624634 1.9850654602050781 -0.4176803529262543 10
-1.8019920587539673 1.9950037002563477 -0.3253915011882782 10
-1.7881438732147217 1.980366826057434 -0.23009151220321655 10
-1.7820844650268555 1.9743489027023315 -0.13692472875118256 10
-1.7872204780578613 1.9807337522506714 -0.045441243797540665 10
-1.7757189273834229 1.9686776399612427 0.699649453163147 10
-1.7808728218078613 1.9750847816467285 0.6046608686447144 10
-1.7738701105117798 1.9680088758468628 0.5070961713790894 10
-1.7776964902877808 1.972946286201477 0.4140944480895996 10
-1.7759554386138916 1.9717057943344116 0.32112571597099304 10
-1.7887099981307983 1.9865633249282837 0.23052693903446198 10
-1.7826504707336426 1.980528473854065 0.13764356076717377 10
-1.7811038494110107 1.979504942893982 0.045812565833330154 10
-1.2971020936965942 1.4441217184066772 -0.5098737478256226 119
-1.4804706573486328 1.648853063583374 -0.5027658939361572 119
-1.720565915107727 1.9169286489486694 -0.49279871582984924 119
-1.7900025844573975 1.9949902296066284 -0.4184625446796417 10
-1.8049583435058594 2.0123648643493652 -0.32721954584121704 10
-1.7878705263137817 1.9940136671066284 -0.2309630662202835 10
-1.7818471193313599 1.987993836402893 -0.1374463438987732 10
-1.7836315631866455 1.990683674812317 -0.045527633279561996 10
-1.7720586061477661 1.978461742401123 0.7009427547454834 10
-1.7772175073623657 1.9849187135696411 0.6057847738265991 10
-1.7735365629196167 1.9815034866333008 0.5090025067329407 10
-1.7740918397903442 1.9828201532363892 0.4148758053779602 10
-1.772370457649231 1.9815919399261475 0.32173505425453186 10
-1.7884047031402588 2.0002214908599854 0.23139849305152893 10
-1.7790535688400269 1.990461826324463 0.13790524005889893 10
-1.780845046043396 1.993166208267212 0.0459870882332325 10
-1.288838505744934 1.4450364112854004 -0.5085796117782593 119
-1.4747060537338257 1.6540106534957886 -0.5027658939361572 119
-1.7138643264770508 1.9229228496551514 -0.49279871582984924 119
-1.7895981073379517 2.0086007118225098 -0.42002686858177185 10
-1.8045241832733154 2.0260651111602783 -0.32843825221061707 10
-1.7875235080718994 2.0076825618743896 -0.23183462023735046 10
-1.781536340713501 2.0016613006591797 -0.13796795904636383 10
-1.783318042755127 2.0043675899505615 -0.04570041596889496 10
-1.7715613842010498 1.9918533563613892 0.7035292387008667 10
-1.7767525911331177 1.9983924627304077 0.6080325841903687 10
-1.7731302976608276 1.9950194358825684 0.5109089016914368 10
-1.7737200260162354 1.996384620666504 0.41643840074539185 10
-1.7720335721969604 1.9951876401901245 0.3229537308216095 10
-1.7880257368087769 2.013901472091675 0.23227006196975708 10
-1.7787238359451294 2.004128932952881 0.13842859864234924 10
-1.7771944999694824 2.003109931945801 0.04607434943318367 10
-1.2835335731506348 1.449750542640686 -0.5085796117782593 119
-1.468634009361267 1.6594046354293823 -0.5027658939361572 119
-1.706804871559143 1.9291915893554688 -0.49279871582984924 119
-1.788767695426941 2.0225448608398438 -0.42159122228622437 10
-1.8036603927612305 2.0401015281677246 -0.3296569287776947 10
-1.7867501974105835 2.0216853618621826 -0.23270617425441742 10
-1.777493953704834 2.0119194984436035 -0.13822877407073975 10
-1.7792688608169556 2.014636993408203 -0.04578680172562599 10
-1.7706420421600342 2.0055747032165527 0.70611572265625 10
-1.775863766670227 2.0121967792510986 0.6102803945541382 10
-1.7723008394241333 2.008866548538208 0.5128152966499329 10
-1.7729241847991943 2.010280132293701 0.4180010259151459 10
-1.7712727785110474 2.0091140270233154 0.3241724371910095 10
-1.7872191667556763 2.0279152393341064 0.23314161598682404 10
-1.7779676914215088 2.018127918243408 0.13895195722579956 10
-1.7764488458633423 2.017113447189331 0.046248871833086014 10
-1.2784651517868042 1.4542220830917358 -0.5085796117782593 119
-1.4628325700759888 1.6645210981369019 -0.5027658939361572 119
-1.7000603675842285 1.9351377487182617 -0.49279871582984924 119
-1.7882143259048462 2.0361979007720947 -0.4231555759906769 10
-1.8030762672424316 2.0538437366485596 -0.3308756351470947 10
-1.7862532138824463 2.0353972911834717 -0.23357774317264557 10
-1.7770458459854126 2.0256187915802 -0.13875038921833038 10
-1.778818130493164 2.028352975845337 -0.045959584414958954 10
-1.76999831199646 2.0190064907073975 0.7087022662162781 10
-1.7752512693405151 2.0257115364074707 0.6125282049179077 10
-1.76851224899292 2.0187325477600098 0.5137684941291809 10
-1.772403597831726 2.0238871574401855 0.4195636510848999 10
-1.7707866430282593 2.0227530002593994 0.32539111375808716 10
-1.783409595489502 2.0378897190093994 0.23357738554477692 10
-1.7741998434066772 2.0280797481536865 0.13921363651752472 10
-1.775973916053772 2.0308330059051514 0.046423397958278656 10
-1.273381233215332 1.4586758613586426 -0.5085796117782593 119
-1.4570133686065674 1.6696171760559082 -0.5027658939361572 119
-1.6932951211929321 1.941060185432434 -0.49279871582984924 119
-1.7875871658325195 2.0498714447021484 -0.424719899892807 10
-1.7991572618484497 2.063866138458252 -0.33148500323295593 10
-1.7824097871780396 2.045375347137451 -0.23401352763175964 10
-1.7732442617416382 2.035574436187744 -0.1390112042427063 10
-1.7782933712005615 2.0420901775360107 -0.04613236337900162 10
-1.7692822217941284 2.032458543777466 0.7112887501716614 10
-1.7745659351348877 2.0392467975616455 0.6147760152816772 10
-1.7678974866867065 2.0322999954223633 0.515674889087677 10
-1.7718092203140259 2.0375146865844727 0.42112627625465393 10
-1.7702268362045288 2.0364127159118652 0.3266098201274872 10
-1.7828196287155151 2.051622152328491 0.23444895446300507 10
-1.7736587524414062 2.041799545288086 0.13973699510097504 10
-1.775434970855713 2.044564962387085 0.046597920358181 10
-1.2651182413101196 1.4594625234603882 -0.5072855353355408 119
-1.451176404953003 1.674692988395691 -0.5027658939361572 119
-1.686509132385254 1.946959137916565 -0.49279871582984924 119
-1.78688645362854 2.063565492630005 -0.4262842535972595 10
-1.7984379529953003 2.0776383876800537 -0.33270367980003357 10
-1.7817779779434204 2.0591180324554443 -0.2348850816488266 10
-1.7726610898971558 2.049304723739624 -0.13953281939029694 10
-1.7776939868927002 2.0558481216430664 -0.04630514234304428 10
-1.7684940099716187 2.0459301471710205 0.7138752341270447 10
-1.7738076448440552 2.0528016090393066 0.6170238256454468 10
-1.7672096490859985 2.0458874702453613 0.5175812244415283 10
-1.7711414098739624 2.0511629581451416 0.42268890142440796 10
-1.7695934772491455 2.050093412399292 0.3278285264968872 10
-1.7821553945541382 2.065375328063965 0.23532050848007202 10
-1.7730432748794556 2.055540084838867 0.14026035368442535 10
-1.7748163938522339 2.0583221912384033 0.046772442758083344 10
-1.2600160837173462 1.4638696908950806 -0.5072855353355408 119
-1.4484996795654297 1.683441400527954 -0.5038906931877136 119
-1.6797027587890625 1.9528343677520752 -0.49279871582984924 119
-1.7861117124557495 2.0772793292999268 -0.42784860730171204 10
-1.7944095134735107 2.0876667499542236 -0.3333130180835724 10
-1.781071662902832 2.072880744934082 -0.23575665056705475 10
-1.7720036506652832 2.0630555152893066 -0.14005443453788757 10
-1.7770204544067383 2.069627046585083 -0.04647792875766754 10
-1.7676327228546143 2.059420585632324 0.716461718082428 10
-1.772976279258728 2.066375970840454 0.6192715764045715 10
-1.7664484977722168 2.059494972229004 0.5194876194000244 10
-1.773614525794983 2.068580389022827 0.4250328242778778 10
-1.768885612487793 2.063793897628784 0.32904723286628723 10
-1.778175711631775 2.0753657817840576 0.2357562780380249 10
-1.7723536491394043 2.0693013668060303 0.14078372716903687 10
-1.7741236686706543 2.0721001625061035 0.046946972608566284 10
-1.2548985481262207 1.4682590961456299 -0.5072855353355408 119
-1.4426144361495972 1.6884872913360596 -0.5038906931877136 119
-1.6728757619857788 1.9586856365203857 -0.49279871582984924 119
-1.7852630615234375 2.091012954711914 -0.42941296100616455 10
-1.793554663658142 2.1014673709869385 -0.3345317244529724 10
-1.780290961265564 2.0866639614105225 -0.2366282045841217 10
-1.771271824836731 2.076826810836792 -0.1405760496854782 10
-1.776272177696228 2.083425998687744 -0.046650707721710205 10
-1.766699194908142 2.072930097579956 0.719048261642456 10
-1.7720718383789062 2.0799694061279297 0.6215193867683411 10
-1.7656136751174927 2.073122024536133 0.5213940143585205 10
-1.7727859020233154 2.082279682159424 0.42659544944763184 10
-1.7681037187576294 2.077514410018921 0.33026590943336487 10
-1.7773756980895996 2.0891475677490234 0.23662783205509186 10
-1.7715892791748047 2.083082914352417 0.14130708575248718 10
-1.7733559608459473 2.08589768409729 0.04712149500846863 10
-1.2497657537460327 1.472630500793457 -0.5072855353355408 119
-1.4367117881774902 1.6935126781463623 -0.5038906931877136 119
-1.666028618812561 1.9645130634307861 -0.49279871582984924 119
-1.781146764755249 2.100998878479004 -0.430195152759552 10
-1.7926253080368042 2.1152870655059814 -0.33575040102005005 10
-1.7794355154037476 2.10046648979187 -0.23749975860118866 10
-1.7704651355743408 2.0906176567077637 -0.14109766483306885 10
-1.775449275970459 2.09724497795105 -0.04682349041104317 10
-1.7656925916671753 2.086458206176758 0.7216347455978394 10
-1.771093726158142 2.093581438064575 0.6237671971321106 10
-1.7647051811218262 2.08676815032959 0.5233003497123718 10
-1.7718833684921265 2.0959982872009277 0.42815807461738586 10
-1.7672475576400757 2.091254711151123 0.3314846158027649 10
-1.776501178741455 2.1029491424560547 0.23749940097332 10
-1.7707500457763672 2.096883773803711 0.1418304443359375 10
-1.772513747215271 2.0997154712677 0.04729602113366127 10
-1.247729778289795 1.4806772470474243 -0.5085796117782593 119
-1.4276525974273682 1.6947911977767944 -0.5027658939361572 119
-1.6591609716415405 1.970316767692566 -0.49279871582984924 119
-1.7801624536514282 2.114759683609009 -0.43175947666168213 10
-1.791621208190918 2.1291263103485107 -0.3369691073894501 10
-1.7752989530563354 2.1104769706726074 -0.23793554306030273 10
-1.7695839405059814 2.104428291320801 -0.14161927998065948 10
-1.7745510339736938 2.1110830307006836 -0.04699626937508583 10
-1.764613151550293 2.1000044345855713 0.7242212295532227 10
-1.7731760740280151 2.110942840576172 0.6271389722824097 10
-1.7637227773666382 2.100433111190796 0.5252067446708679 10
-1.7709063291549683 2.1097357273101807 0.4297206997871399 10
-1.7663168907165527 2.1050140857696533 0.33270329236984253 10
-1.7787526845932007 2.1205861568450928 0.23880673944950104 10
-1.76983642578125 2.1107044219970703 0.14235380291938782 10
-1.7715965509414673 2.1135525703430176 0.047470543533563614 10
-1.2425537109375 1.4850236177444458 -0.5085796117782593 119
-1.4217280149459839 1.699764370918274 -0.5027658939361572 119
-1.6491247415542603 1.9723306894302368 -0.4918454885482788 119
-1.7791041135787964 2.1285390853881836 -0.43332383036613464 10
-1.7905423641204834 2.1429836750030518 -0.3381877839565277 10
-1.7743076086044312 2.1243069171905518 -0.23880711197853088 10
-1.7686277627944946 2.118257999420166 -0.14214091002941132 10
-1.7735780477523804 2.1249406337738037 -0.047169048339128494 10
-1.7634602785110474 2.1135683059692383 0.7268077731132507 10
-1.7720378637313843 2.1246025562286377 0.6293867826461792 10
-1.7626665830612183 2.114116668701172 0.527113139629364 10
-1.7698547840118408 2.1234915256500244 0.4312833249568939 10
-1.765311598777771 2.1187925338745117 0.33392199873924255 10
-1.7777152061462402 2.134437084197998 0.239678293466568 10
-1.7688474655151367 2.1245439052581787 0.14287716150283813 10
-1.7706040143966675 2.127408742904663 0.047645069658756256 10
-1.2373625040054321 1.4893518686294556 -0.5085796117782593 119
-1.4157861471176147 1.7047168016433716 -0.5027658939361572 119
-1.6390947103500366 1.9742988348007202 -0.49089235067367554 119
-1.7779710292816162 2.14233660697937 -0.43488818407058716 10
-1.7893882989883423 2.156859874725342 -0.33940649032592773 10
-1.7732408046722412 2.138155460357666 -0.23967866599559784 10
-1.7675964832305908 2.1321067810058594 -0.14266252517700195 10
-1.77252995967865 2.138817310333252 -0.047341831028461456 10
-1.7622343301773071 2.1271495819091797 0.729394257068634 10
-1.7708258628845215 2.138279914855957 0.6316345930099487 10
-1.7615361213684082 2.1278183460235596 0.5290194749832153 10
-1.7687289714813232 2.137265920639038 0.43284592032432556 10
-1.7642316818237305 2.132589340209961 0.3351406753063202 10
-1.7766023874282837 2.148306131362915 0.24054984748363495 10
-1.767783522605896 2.138401985168457 0.14340052008628845 10
-1.7695364952087402 2.1412835121154785 0.0478195920586586 10
-1.2321560382843018 1.4936619997024536 -0.5085796117782593 119
-1.4067274332046509 1.7058899402618408 -0.5016411542892456 119
-1.6290711164474487 1.9762208461761475 -0.4899391233921051 119
-1.7767629623413086 2.1561522483825684 -0.4364525079727173 10
-1.7881592512130737 2.1707537174224854 -0.34062519669532776 10
-1.7720988988876343 2.152022123336792 -0.2405502200126648 10
-1.7664899826049805 2.1459739208221436 -0.1431841403245926 10
-1.7714062929153442 2.152711868286133 -0.04751460999250412 10
-1.7640032768249512 2.1444783210754395 0.7332740426063538 10
-1.7695399522781372 2.1519744396209717 0.6338824033737183 10
-1.7634483575820923 2.145329475402832 0.5318790674209595 10
-1.7675285339355469 2.1510584354400635 0.4344085454940796 10
-1.7630767822265625 2.146404266357422 0.3363593816757202 10
-1.775414228439331 2.162193775177002 0.2414214164018631 10
-1.7666441202163696 2.1522786617279053 0.14392387866973877 10
-1.7683935165405273 2.1551766395568848 0.047994114458560944 10
-1.2238744497299194 1.4942176342010498 -0.5072855353355408 119
-1.4038505554199219 1.7145593166351318 -0.5027658939361572 119
-1.6190541982650757 1.9780972003936768 -0.48898595571517944 119
-1.7754803895950317 2.169985294342041 -0.4380168616771698 10
-1.786854863166809 2.1846652030944824 -0.3418438732624054 10
-1.7708820104599 2.165907382965088 -0.24142178893089294 10
-1.7653083801269531 2.1598596572875977 -0.14370575547218323 10
-1.770207166671753 2.1666250228881836 -0.04768738895654678 10
-1.7626173496246338 2.158104181289673 0.7358605265617371 10
-1.7681797742843628 2.1656861305236816 0.6361302137374878 10
-1.7621560096740723 2.1590771675109863 0.5337854623794556 10
-1.766253113746643 2.1648683547973633 0.4359711706638336 10
-1.7618467807769775 2.1602370738983154 0.33757805824279785 10
-1.7741509675979614 2.1760990619659424 0.24229297041893005 10
-1.7685837745666504 2.170043706893921 0.14470891654491425 10
-1.7671749591827393 2.169088125228882 0.048168640583753586 10
-1.218651294708252 1.4984806776046753 -0.5072855353355408 119
-1.3978570699691772 1.7194490432739258 -0.5027658939361572 119
-1.6090435981750488 1.97992742061615 -0.4880327582359314 119
-1.7772364616394043 2.187668561935425 -0.440363347530365 10
-1.7854753732681274 2.198594093322754 -0.3430625796318054 10
-1.7727285623550415 2.1836767196655273 -0.24272911250591278 10
-1.7671973705291748 2.177639961242676 -0.14448818564414978 10
-1.7689324617385864 2.180555820465088 -0.047860171645879745 10
-1.761157751083374 2.1717464923858643 0.7384470701217651 10
-1.766745686531067 2.1794145107269287 0.6383780241012573 10
-1.760789155960083 2.172841787338257 0.5356917977333069 10
-1.7649027109146118 2.1786954402923584 0.43753379583358765 10
-1.7605417966842651 2.1740877628326416 0.3387967646121979 10
-1.7728121280670166 2.190021514892578 0.243164524435997 10
-1.767280101776123 2.183967113494873 0.14523227512836456 10
-1.7690248489379883 2.186903715133667 0.0484304241836071 10
-1.213413119316101 1.50272536277771 -0.5072855353355408 119
-1.3918465375900269 1.724318027496338 -0.5027658939361572 119
-1.5990403890609741 1.9817121028900146 -0.48707953095436096 119
-1.7757903337478638 2.2015469074249268 -0.4419277310371399 10
-1.7871352434158325 2.216403007507324 -0.34489062428474426 10
-1.7713470458984375 2.1976075172424316 -0.24360066652297974 10
-1.7658509016036987 2.1915714740753174 -0.14500980079174042 10
-1.7675821781158447 2.1945040225982666 -0.04803295060992241 10
-1.7596242427825928 2.1854047775268555 0.7410335540771484 10
-1.765236735343933 2.1931588649749756 0.6406258344650269 10
-1.7593474388122559 2.1866230964660645 0.537598192691803 10
-1.7634773254394531 2.1925392150878906 0.4390964210033417 10
-1.7591614723205566 2.187954902648926 0.3400154411792755 10
-1.7745177745819092 2.207843542098999 0.24447184801101685 10
-1.7659006118774414 2.1979074478149414 0.14575563371181488 10
-1.7676414251327515 2.2008609771728516 0.048604946583509445 10
-1.208160161972046 1.5069518089294434 -0.5072855353355408 119
-1.3888659477233887 1.7329678535461426 -0.5038906931877136 119
-1.5921131372451782 1.9872817993164062 -0.48707953095436096 119
-1.7742687463760376 2.2154412269592285 -0.4434920847415924 10
-1.785590648651123 2.2303760051727295 -0.3461093306541443 10
-1.773002028465271 2.2154440879821777 -0.24490801990032196 10
-1.7644286155700684 2.2055201530456543 -0.14553143084049225 10
-1.7692779302597046 2.2123734951019287 -0.048292119055986404 10
-1.75801682472229 2.1990787982940674 0.7436200380325317 10
-1.7636537551879883 2.2069194316864014 0.6428735852241516 10
-1.760894775390625 2.2042558193206787 0.5404577851295471 10
-1.761976718902588 2.206399917602539 0.4406590163707733 10
-1.7577056884765625 2.2018394470214844 0.34123414754867554 10
-1.7730138301849365 2.221810817718506 0.2453434020280838 10
-1.764445185661316 2.211865186691284 0.1462789922952652 10
-1.7661819458007812 2.2148351669311523 0.04877947270870209 10
-1.202892541885376 1.5111600160598755 -0.5072855353355408 119
