# .PCD v0.7 - Point Cloud Data file format
VERSION 0.7
FIELDS x y z intensity
SIZE 4 4 4 4
TYPE F F F F
COUNT 1 1 1 1
WIDTH 800
HEIGHT 1
VIEWPOINT 0 0 0 1 0 0 0
POINTS 800
DATA ascii
-0.11671437323093414 2.169086217880249 0.2620190680027008 44
-0.11755621433258057 2.191861391067505 0.18869218230247498 44
-0.11692196130752563 2.187173843383789 0.11278398334980011 44
-0.11561591923236847 2.169846773147583 0.037260886281728745 44
-0.10108523815870285 1.9288173913955688 -0.5072855353355408 119
-0.1153346374630928 2.208085298538208 -0.5016411542892456 119
-0.11579442769289017 2.2243406772613525 -0.42512229084968567 0
-0.1137998029589653 2.1933987140655518 -0.34180957078933716 44
-0.11422136425971985 2.208974838256836 -0.2668941617012024 44
-0.11296532303094864 2.1921026706695557 -0.18869248032569885 44
-0.11182970553636551 2.177460193634033 -0.11188706010580063 44
-0.11158256232738495 2.1800761222839355 -0.03706139326095581 44
-0.11168273538351059 2.189518928527832 0.5767905116081238 44
-0.11101917922496796 2.184002637863159 0.4956420660018921 44
-0.11020530760288239 2.175480365753174 0.4155901074409485 44
-0.11024214327335358 2.1837503910064697 0.33987000584602356 44
-0.10914213955402374 2.169480562210083 0.2620190680027008 44
-0.10990447551012039 2.192258358001709 0.18869218230247498 44
-0.1092865914106369 2.187568426132202 0.11278398334980011 44
-0.10778579115867615 2.1652443408966064 0.037173621356487274 44
-0.09421496093273163 1.9194945096969604 -0.504697322845459 119
-0.10863600671291351 2.2133023738861084 -0.5027658939361572 119
-0.10880589485168457 2.224693536758423 -0.42512229084968567 0
-0.10666811466217041 2.1888129711151123 -0.3410274386405945 44
-0.10728111863136292 2.209322929382324 -0.2668941617012024 44
-0.1058373674750328 2.187471389770508 -0.18825668096542358 44
-0.1049884706735611 2.1778006553649902 -0.11188706010580063 44
-0.10473311692476273 2.1804158687591553 -0.03706139326095581 44
-0.10480362176895142 2.189858913421631 0.5767905116081238 44
-0.10392535477876663 2.179474115371704 0.4945181906223297 44
-0.1033702939748764 2.1758158206939697 0.4155901074409485 44
-0.10314764827489853 2.1791529655456543 0.33908867835998535 44
-0.10232599824666977 2.1698126792907715 0.2620190680027008 44
-0.10301676392555237 2.1925928592681885 0.18869218230247498 44
-0.1021801307797432 2.182913064956665 0.11252229660749435 44
-0.10098961740732193 2.165571928024292 0.037173621356487274 44
-0.08829071372747421 1.9294453859329224 -0.5072855353355408 119
-0.10090947896242142 2.21366810798645 -0.5027658939361572 119
-0.10081694275140762 2.22015643119812 -0.4241690933704376 0
-0.09902708232402802 2.1891720294952393 -0.3410274386405945 44
-0.09956847876310349 2.209683895111084 -0.2668941617012024 44
-0.09820102155208588 2.1878275871276855 -0.18825668096542358 44
-0.09738589078187943 2.1781537532806396 -0.11188706010580063 44
-0.09712140262126923 2.1807682514190674 -0.03706139326095581 44
-0.09715894609689713 2.190211534500122 0.5767905116081238 44
-0.09631694108247757 2.179823637008667 0.4945181906223297 44
-0.09577465802431107 2.1761634349823 0.4155901074409485 44
-0.0955403596162796 2.179499626159668 0.33908867835998535 44
-0.09475130587816238 2.170156717300415 0.2620190680027008 44
-0.09536255896091461 2.192939043045044 0.18869218230247498 44
-0.09455972164869308 2.1832563877105713 0.11252229660749435 44
-0.09342975169420242 2.1659111976623535 0.037173621356487274 44
-0.08088153600692749 1.9297702312469482 -0.5072855353355408 119
-0.09240887314081192 2.2140393257141113 -0.5027658939361572 119
-0.0922914370894432 2.220527172088623 -0.4241690933704376 0
-0.0904163271188736 2.1846017837524414 -0.34024524688720703 44
-0.09108319878578186 2.210049867630005 -0.2668941617012024 44
-0.08959542959928513 2.1832118034362793 -0.1878209114074707 44
-0.08902168273925781 2.178511619567871 -0.11188706010580063 44
-0.08854390680789948 2.1761298179626465 -0.03697500377893448 44
-0.08855292201042175 2.185742139816284 0.5754972100257874 44
-0.08774995803833008 2.175309419631958 0.49339425563812256 44
-0.0874181017279625 2.1765151023864746 0.4155901074409485 44
-0.08717100322246552 2.1798503398895264 0.33908867835998535 44
-0.08641782402992249 2.170504331588745 0.2620190680027008 44
-0.08694158494472504 2.193289041519165 0.18869218230247498 44
-0.08617594093084335 2.183603525161743 0.11252229660749435 44
-0.08511257916688919 2.1662540435791016 0.037173621356487274 44
nan nan nan 0
-0.08486605435609818 2.21921706199646 -0.5038906931877136 119
-0.08453978598117828 2.2208359241485596 -0.4241690933704376 0
-0.08279009908437729 2.184904098510742 -0.34024524688720703 44
-0.08336812257766724 2.2103543281555176 -0.2668941617012024 44
-0.08197405189275742 2.183511257171631 -0.1878209114074707 44
-0.08123026043176651 2.1738195419311523 -0.11162624508142471 44
-0.08094725757837296 2.1764254570007324 -0.03697500377893448 44
-0.08092271536588669 2.186038017272949 0.5754972100257874 44
-0.08015617728233337 2.175602436065674 0.49339425563812256 44
-0.07982011884450912 2.176806926727295 0.4155901074409485 44
-0.07938126474618912 2.175206184387207 0.33830738067626953 44
-0.07884082198143005 2.170792818069458 0.2620190680027008 44
-0.07928504794836044 2.1935791969299316 0.18869218230247498 44
-0.0785532221198082 2.1838908195495605 0.11252229660749435 44
-0.07736492902040482 2.1615424156188965 0.0370863638818264 44
nan nan nan 0
-0.07711902260780334 2.2194998264312744 -0.5038906931877136 119
-0.076617531478405 2.216212272644043 -0.42321592569351196 0
-0.0751628503203392 2.1851797103881836 -0.34024524688720703 44
-0.07565204054117203 2.210631847381592 -0.2668941617012024 44
-0.07435167580842972 2.183784246444702 -0.1878209114074707 44
-0.07364172488451004 2.1740899085998535 -0.11162624508142471 44
-0.07334961742162704 2.176694869995117 -0.03697500377893448 44
-0.07329151779413223 2.186307191848755 0.5754972100257874 44
-0.07256141304969788 2.1758689880371094 0.49339425563812256 44
-0.07222115248441696 2.177072286605835 0.4155901074409485 44
-0.07178789377212524 2.1754701137542725 0.33830738067626953 44
-0.07110006362199783 2.1660947799682617 0.261409729719162 44
-0.07162754982709885 2.193842649459839 0.18869218230247498 44
-0.07092953473329544 2.1841518878936768 0.11252229660749435 44
-0.06982593983411789 2.1617989540100098 0.0370863638818264 44
nan nan nan 0
-0.0693710520863533 2.2197554111480713 -0.5038906931877136 119
-0.06888104230165482 2.216466188430786 -0.42321592569351196 0
-0.06753469258546829 2.1854286193847656 -0.34024524688720703 44
-0.0679350346326828 2.2108824253082275 -0.2668941617012024 44
-0.0665762722492218 2.179051399230957 -0.18738512694835663 44
-0.06605228036642075 2.1743335723876953 -0.11162624508142471 44
-0.0657510906457901 2.1769375801086426 -0.03697500377893448 44
-0.065514475107193 2.1817221641540527 0.5742040276527405 44
-0.06496577709913254 2.1761090755462646 0.49339425563812256 44
-0.06462131440639496 2.1773111820220947 0.4155901074409485 44
-0.06419365108013153 2.1757073402404785 0.33830738067626953 44
-0.06353854387998581 2.166329860687256 0.261409729719162 44
-0.06382400542497635 2.1891002655029297 0.1882563978433609 44
-0.06330499053001404 2.1843860149383545 0.11252229660749435 44
-0.06227942928671837 2.16202974319458 0.0370863638818264 44
nan nan nan 0
-0.06162223592400551 2.2199838161468506 -0.5038906931877136 119
-0.06114371120929718 2.216693162918091 -0.42321592569351196 0
-0.060041021555662155 2.1905879974365234 -0.3410274386405945 44
-0.060082100331783295 2.2061452865600586 -0.2662848234176636 44
-0.058969561010599136 2.1792705059051514 -0.18738512694835663 44
-0.058327846229076385 2.1695594787597656 -0.11136544495820999 44
-0.0580182820558548 2.172156572341919 -0.03688861429691315 44
-0.057898446917533875 2.1819374561309814 0.5742040276527405 44
-0.05736934021115303 2.1763224601745605 0.49339425563812256 44
-0.05689220130443573 2.172616720199585 0.41463690996170044 44
-0.05659862235188484 2.1759181022644043 0.33830738067626953 44
-0.055976253002882004 2.1665384769439697 0.261409729719162 44
-0.05618222802877426 2.189309597015381 0.1882563978433609 44
-0.05567967891693115 2.184593677520752 0.11252229660749435 44
-0.05473215505480766 2.162233829498291 0.0370863638818264 44
nan nan nan 0
-0.05387267470359802 2.2201855182647705 -0.5038906931877136 119
-0.05328742042183876 2.2119858264923096 -0.42226269841194153 0
-0.0523940771818161 2.190784215927124 -0.3410274386405945 44
-0.05238084867596626 2.2063417434692383 -0.2662848234176636 44
-0.05124478042125702 2.1744837760925293 -0.18694935739040375 44
-0.05075431615114212 2.1697499752044678 -0.11136544495820999 44
-0.050435688346624374 2.1723458766937256 -0.03688861429691315 44
-0.05028171092271805 2.182126522064209 0.5742040276527405 44
-0.04977220669388771 2.176509380340576 0.49339425563812256 44
-0.04930800944566727 2.172802209854126 0.41463690996170044 44
-0.04900290444493294 2.17610239982605 0.33830738067626953 44
-0.04830242693424225 2.1617591381073 0.2608003616333008 44
-0.048539768904447556 2.1894924640655518 0.1882563978433609 44
-0.04805368557572365 2.184774875640869 0.11252229660749435 44
-0.04718421772122383 2.162411689758301 0.0370863638818264 44
nan nan nan 0
-0.046021267771720886 2.215489149093628 -0.5027658939361572 119
-0.04556582123041153 2.212158441543579 -0.42226269841194153 0
-0.04474649578332901 2.1909537315368652 -0.3410274386405945 44
-0.044678959995508194 2.2065110206604004 -0.2662848234176636 44
-0.043654102832078934 2.174649477005005 -0.18694935739040375 44
-0.04318016767501831 2.1699137687683105 -0.11136544495820999 44
-0.04285247623920441 2.172508716583252 -0.03688861429691315 44
-0.042664360255002975 2.182288646697998 0.5742040276527405 44
-0.04208008572459221 2.1717989444732666 0.4922703802585602 44
-0.04172321408987045 2.1729609966278076 0.41463690996170044 44
-0.04140659049153328 2.176260232925415 0.33830738067626953 44
-0.04075618088245392 2.161914587020874 0.2608003616333008 44
-0.040896717458963394 2.189648389816284 0.1882563978433609 44
-0.04042710363864899 2.184929370880127 0.11252229660749435 44
-0.039635706692934036 2.1625633239746094 0.0370863638818264 44
nan nan nan 0
-0.038287486881017685 2.2156362533569336 -0.5027658939361572 119
-0.037843670696020126 2.21230411529541 -0.42226269841194153 0
-0.037098366767168045 2.191096544265747 -0.3410274386405945 44
-0.03697652742266655 2.206653594970703 -0.2662848234176636 44
-0.03606289252638817 2.174788475036621 -0.18694935739040375 44
-0.03560549020767212 2.170051336288452 -0.11136544495820999 44
-0.03526874631643295 2.172645092010498 -0.03688861429691315 44
-0.03504649177193642 2.182424306869507 0.5742040276527405 44
-0.03449883684515953 2.1719324588775635 0.4922703802585602 44
-0.03406080603599548 2.1681854724884033 0.4136837124824524 44
-0.03380977362394333 2.1763916015625 0.33830738067626953 44
-0.03320944681763649 2.162043571472168 0.2608003616333008 44
-0.03325317054986954 2.1897778511047363 0.1882563978433609 44
-0.03272508829832077 2.1800646781921387 0.11226062476634979 44
-0.03201254457235336 2.1576895713806152 0.03699909895658493 44
nan nan nan 0
-0.03048607148230076 2.2108850479125977 -0.5016411542892456 119
-0.030121060088276863 2.2124226093292236 -0.42226269841194153 0
-0.029383419081568718 2.186274528503418 -0.34024524688720703 44
-0.02927364408969879 2.2067692279815674 -0.2662848234176636 44
-0.028406044468283653 2.1699206829071045 -0.18651357293128967 44
-0.028030382469296455 2.1701624393463135 -0.11136544495820999 44
-0.027684586122632027 2.1727547645568848 -0.03688861429691315 44
-0.027367498725652695 2.177703619003296 0.572910726070404 44
-0.026917168870568275 2.172039747238159 0.4922703802585602 44
-0.026492221280932426 2.1682910919189453 0.4136837124824524 44
-0.02621254324913025 2.1764962673187256 0.33830738067626953 44
-0.02566230297088623 2.1621463298797607 0.2608003616333008 44
-0.025550974532961845 2.1849002838134766 0.18782062828540802 44
-0.02511504478752613 2.1801655292510986 0.11226062476634979 44
-0.024480607360601425 2.157788038253784 0.03699909895658493 44
nan nan nan 0
-0.022718288004398346 2.206106185913086 -0.5005163550376892 119
-0.022398080676794052 2.2125141620635986 -0.42226269841194153 0
-0.02175171859562397 2.186363697052002 -0.34024524688720703 44
-0.02157040499150753 2.206857919692993 -0.2662848234176636 44
-0.020831434056162834 2.170006513595581 -0.18651357293128967 44
-0.020454930141568184 2.1702470779418945 -0.11136544495820999 44
-0.02010008692741394 2.1728382110595703 -0.03688861429691315 44
-0.01976572908461094 2.177785873413086 0.572910726070404 44
-0.019335171207785606 2.1721203327178955 0.4922703802585602 44
-0.018923310562968254 2.168370485305786 0.4136837124824524 44
-0.0186149962246418 2.176574468612671 0.33830738067626953 44
-0.0181148461997509 2.1622228622436523 0.2608003616333008 44
-0.017924092710018158 2.184976100921631 0.18782062828540802 44
-0.017504693940281868 2.1802399158477783 0.11226062476634979 44
-0.01694837212562561 2.157860517501831 0.03699909895658493 44
nan nan nan 0
-0.015017401427030563 2.206172227859497 -0.5005163550376892 119
-0.01464227493852377 2.2076709270477295 -0.42130953073501587 0
-0.014119751751422882 2.1864264011383057 -0.34024524688720703 44
-0.013835718855261803 2.2019572257995605 -0.26567548513412476 44
-0.013256571255624294 2.1700658798217773 -0.18651357293128967 44
-0.012879230082035065 2.1703052520751953 -0.11136544495820999 44
-0.01251534465700388 2.1728951930999756 -0.03688861429691315 44
-0.012163717299699783 2.1778414249420166 0.572910726070404 44
-0.011752938851714134 2.1721746921539307 0.4922703802585602 44
-0.011354169808328152 2.1684231758117676 0.4136837124824524 44
-0.011017218232154846 2.176626205444336 0.33830738067626953 44
-0.010567170567810535 2.1622729301452637 0.2608003616333008 44
-0.010296995751559734 2.185025453567505 0.18782062828540802 44
-0.009894129820168018 2.1802878379821777 0.11226062476634979 44
-0.009415930137038231 2.1579065322875977 0.03699909895658493 44
nan nan nan 0
-0.007316332310438156 2.2062110900878906 -0.5005163550376892 119
-0.0069359769113361835 2.2077085971832275 -0.42130953073501587 0
-0.006472960114479065 2.1815237998962402 -0.3394630551338196 44
-0.00614936975762248 2.2019920349121094 -0.26567548513412476 44
-0.005681547336280346 2.1700990200042725 -0.18651357293128967 44
-0.0053033726289868355 2.170336961746216 -0.11136544495820999 44
-0.004930448718369007 2.1729257106781006 -0.03688861429691315 44
-0.004561557900160551 2.177870750427246 0.572910726070404 44
-0.004170563071966171 2.1722023487091064 0.4922703802585602 44
-0.0037848909851163626 2.168449640274048 0.4136837124824524 44
-0.0034193082246929407 2.1766514778137207 0.33830738067626953 44
-0.0030193652492016554 2.1622965335845947 0.2608003616333008 44
-0.0026697712019085884 2.1850478649139404 0.18782062828540802 44
-0.0022782152518630028 2.1753158569335938 0.11199893802404404 44
-0.0018833735957741737 2.157926321029663 0.03699909895658493 44
nan nan nan 0
0.00038397646858356893 2.2013516426086426 -0.4993916451931 119
0.0007704069721512496 2.207719564437866 -0.42130953073501587 0
0.0011420183582231402 2.181533098220825 -0.3394630551338196 44
0.0015335900243371725 2.1970372200012207 -0.26506611704826355 44
0.001893546199426055 2.1701056957244873 -0.18651357293128967 44
0.002272549318149686 2.170342206954956 -0.11136544495820999 44
0.002654506592079997 2.172929525375366 -0.03688861429691315 44
0.003040657378733158 2.177873373031616 0.572910726070404 44
0.003411863697692752 2.172203779220581 0.4922703802585602 44
0.00378443393856287 2.168449640274048 0.4136837124824524 44
0.00417864415794611 2.176650047302246 0.33830738067626953 44
0.004528476390987635 2.1622939109802246 0.2608003616333008 44
0.004957485944032669 2.185044050216675 0.18782062828540802 44
0.005315067712217569 2.1753106117248535 0.11199893802404404 44
0.005636118818074465 2.1529204845428467 0.03691183775663376 44
nan nan nan 0
0.008085980080068111 2.2062084674835205 -0.5005163550376892 119
0.00845793541520834 2.2027950286865234 -0.4203563332557678 0
0.008756982162594795 2.181515693664551 -0.3394630551338196 44
0.00920267216861248 2.1970183849334717 -0.26506611704826355 44
0.009468616917729378 2.1700856685638428 -0.18651357293128967 44
0.009848443791270256 2.170320987701416 -0.11136544495820999 44
0.010239429771900177 2.1729071140289307 -0.03688861429691315 44
0.01064283587038517 2.177849531173706 0.572910726070404 44
0.010994249023497105 2.1721785068511963 0.4922703802585602 44
0.011353712528944016 2.1684231758117676 0.4136837124824524 44
0.011749825440347195 2.1716837882995605 0.3375260531902313 44
0.012076263315975666 2.162264823913574 0.2608003616333008 44
0.012584681622684002 2.1850132942199707 0.18782062828540802 44
0.012908286415040493 2.175278902053833 0.11199893802404404 44
0.013151179067790508 2.1528878211975098 0.03691183775663376 44
nan nan nan 0
0.0157870352268219 2.2061667442321777 -0.5005163550376892 119
0.016111094504594803 2.1978437900543213 -0.41940316557884216 0
0.016371840611100197 2.181472063064575 -0.3394630551338196 44
0.01687164045870304 2.1969728469848633 -0.26506611704826355 44
0.017043571919202805 2.170039653778076 -0.18651357293128967 44
0.017384130507707596 2.165280342102051 -0.11110462993383408 44
0.01782422885298729 2.172858238220215 -0.03688861429691315 44
0.01824488490819931 2.1777989864349365 0.572910726070404 44
0.018576500937342644 2.1721270084381104 0.4922703802585602 44
0.018922854214906693 2.168370485305786 0.4136837124824524 44
0.01933034509420395 2.1716294288635254 0.3375260531902313 44
0.01957886479794979 2.1572470664978027 0.26019105315208435 44
0.020211724564433098 2.1849560737609863 0.18782062828540802 44
0.02050134725868702 2.175220489501953 0.11199893802404404 44
0.020666079595685005 2.1528286933898926 0.03691183775663376 44
nan nan nan 0
0.023487897589802742 2.2060983180999756 -0.5005163550376892 119
0.02372979186475277 2.192866325378418 -0.41844993829727173 0
0.02398649975657463 2.181401491165161 -0.3394630551338196 44
0.024540405720472336 2.1969006061553955 -0.26506611704826355 44
0.024618320167064667 2.169966697692871 -0.18651357293128967 44
0.024942263960838318 2.1652066707611084 -0.11110462993383408 44
0.02540881186723709 2.1727826595306396 -0.03688861429691315 44
0.025846710428595543 2.177722215652466 0.572910726070404 44
0.026158524677157402 2.172048807144165 0.4922703802585602 44
0.026491763070225716 2.1682910919189453 0.4136837124824524 44
0.026910627260804176 2.171548843383789 0.3375260531902313 44
0.027108943089842796 2.157165765762329 0.26019105315208435 44
0.02783852070569992 2.1848721504211426 0.18782062828540802 44
0.028094157576560974 2.175135612487793 0.11199893802404404 44
0.02818072773516178 2.1527435779571533 0.03691183775663376 44
nan nan nan 0
0.031188474968075752 2.206002950668335 -0.5005163550376892 119
0.03138417750597 2.192770004272461 -0.41844993829727173 0
0.031600866466760635 2.181304454803467 -0.3394630551338196 44
0.032208871096372604 2.1968016624450684 -0.26506611704826355 44
0.032192766666412354 2.169867753982544 -0.18651357293128967 44
0.032500091940164566 2.1651062965393066 -0.11110462993383408 44
0.03291717544198036 2.16768217086792 -0.03680222108960152 44
0.033448223024606705 2.1776187419891357 0.572910726070404 44
0.03374022990465164 2.1719443798065186 0.4922703802585602 44
0.03406035155057907 2.1681854724884033 0.4136837124824524 44
0.03449058532714844 2.1714415550231934 0.3375260531902313 44
0.03463869169354439 2.157058000564575 0.26019105315208435 44
0.03546497970819473 2.1847617626190186 0.18782062828540802 44
0.03568662703037262 2.1750242710113525 0.11199893802404404 44
0.03569503128528595 2.152631998062134 0.03691183775663376 44
nan nan nan 0
0.03888867050409317 2.2058804035186768 -0.5005163550376892 119
0.03903818130493164 2.1926472187042236 -0.41844993829727173 0
0.0392148420214653 2.181180953979492 -0.3394630551338196 44
0.039876941591501236 2.1966757774353027 -0.26506611704826355 44
0.0397668220102787 2.1697421073913574 -0.18651357293128967 44
0.040057528764009476 2.1649796962738037 -0.11110462993383408 44
0.04048359766602516 2.1675541400909424 -0.03680222108960152 44
0.041049323976039886 2.1774888038635254 0.572910726070404 44
0.0413215272128582 2.1718132495880127 0.4922703802585602 44
0.04162852466106415 2.168053388595581 0.4136837124824524 44
0.04207012057304382 2.1713080406188965 0.3375260531902313 44
0.042168017476797104 2.15692400932312 0.26019105315208435 44
0.043091002851724625 2.184624671936035 0.18782062828540802 44
0.043278664350509644 2.174886465072632 0.11199893802404404 44
0.04330923780798912 2.1574923992156982 0.03699909895658493 44
nan nan nan 0
0.04697336629033089 2.205723285675049 -0.5005163550376892 119
0.04707437381148338 2.1924893856048584 -0.41844993829727173 0
0.04710214585065842 2.1760854721069336 -0.3386808931827545 44
0.047927889972925186 2.196514844894409 -0.26506611704826355 44
0.047828588634729385 2.1745615005493164 -0.18694935739040375 44
0.04799230396747589 2.164818286895752 -0.11110462993383408 44
0.04842780902981758 2.167391061782837 -0.03680222108960152 44
0.04902994632720947 2.177323579788208 0.572910726070404 44
0.04917081072926521 2.166776418685913 0.491146445274353 44
0.049462348222732544 2.1629793643951416 0.41273054480552673 44
0.05002807825803757 2.1711392402648926 0.3375260531902313 44
0.050073254853487015 2.156754732131958 0.26019105315208435 44
0.05109776556491852 2.1844520568847656 0.18782062828540802 44
0.051249731332063675 2.174713373184204 0.11199893802404404 44
0.051216550171375275 2.1573193073272705 0.03699909895658493 44
nan nan nan 0
0.05455176532268524 2.2006757259368896 -0.4993916451931 119
0.05472730100154877 2.1923117637634277 -0.41844993829727173 0
0.05469781532883644 2.175907850265503 -0.3386808931827545 44
0.05572045221924782 2.2012956142425537 -0.26567548513412476 44
0.05541893094778061 2.1743812561035156 -0.18694935739040375 44
0.055548638105392456 2.164637565612793 -0.11110462993383408 44
0.05599312111735344 2.1672089099884033 -0.03680222108960152 44
0.05662992596626282 2.1771390438079834 0.572910726070404 44
0.05673396959900856 2.1665916442871094 0.491146445274353 44
0.05701225623488426 2.1627936363220215 0.41273054480552673 44
0.05760646238923073 2.1709513664245605 0.3375260531902313 44
0.057601429522037506 2.156566858291626 0.26019105315208435 44
0.058588750660419464 2.179280996322632 0.18738484382629395 44
0.05884058400988579 2.1745212078094482 0.11199893802404404 44
0.0587533600628376 2.1571271419525146 0.03699909895658493 44
nan nan nan 0
0.062233224511146545 2.200471878051758 -0.4993916451931 119
0.062379565089941025 2.1921072006225586 -0.41844993829727173 0
0.06229282170534134 2.175703763961792 -0.3386808931827545 44
0.06340406835079193 2.201087713241577 -0.26567548513412476 44
0.06300859898328781 2.1741745471954346 -0.18694935739040375 44
0.0631042942404747 2.164430618286133 -0.11110462993383408 44
0.06355775147676468 2.1670000553131104 -0.03680222108960152 44
0.06422921270132065 2.1769282817840576 0.572910726070404 44
0.06429643929004669 2.1663804054260254 0.491146445274353 44
0.06456146389245987 2.162581443786621 0.41273054480552673 44
0.06518414616584778 2.1707370281219482 0.3375260531902313 44
0.06512890011072159 2.1563527584075928 0.26019105315208435 44
0.06619550287723541 2.179063320159912 0.18738484382629395 44
0.0664307177066803 2.174302577972412 0.11199893802404404 44
0.06627611070871353 2.1569089889526367 0.03699909895658493 44
nan nan nan 0
0.06991393119096756 2.2002413272857666 -0.4993916451931 119
0.0700310692191124 2.191876173019409 -0.41844993829727173 0
0.06988706439733505 2.1754729747772217 -0.3386808931827545 44
0.07108690589666367 2.200852870941162 -0.26567548513412476 44
0.07059750705957413 2.1739413738250732 -0.18694935739040375 44
0.07065918296575546 2.1641969680786133 -0.11110462993383408 44
0.07112160325050354 2.166764974594116 -0.03680222108960152 44
0.0718277171254158 2.1766908168792725 0.572910726070404 44
0.07185813039541245 2.166142702102661 0.491146445274353 44
0.0721098929643631 2.1623430252075195 0.41273054480552673 44
0.07259558141231537 2.165560722351074 0.3367447555065155 44
0.0726555809378624 2.1561121940612793 0.26019105315208435 44
0.0738014504313469 2.178818941116333 0.18738484382629395 44
0.07402005046606064 2.1740572452545166 0.11199893802404404 44
0.07380472123622894 2.1566646099090576 0.03699909895658493 44
nan nan nan 0
0.07759377360343933 2.199983596801758 -0.4993916451931 119
0.07768171280622482 2.1916184425354004 -0.41844993829727173 0
0.07748045772314072 2.175215721130371 -0.3386808931827545 44
0.07876889407634735 2.2005913257598877 -0.26567548513412476 44
0.0781855434179306 2.1736817359924316 -0.18694935739040375 44
0.07839356362819672 2.1689271926879883 -0.11136544495820999 44
0.07868459820747375 2.166503667831421 -0.03680222108960152 44
0.07942534983158112 2.176426649093628 0.572910726070404 44
0.07941893488168716 2.1658787727355957 0.491146445274353 44
0.07965743541717529 2.1620781421661377 0.41273054480552673 44
0.08015435189008713 2.1652941703796387 0.3367447555065155 44
0.08018137514591217 2.1558454036712646 0.26019105315208435 44
0.08159249275922775 2.183525562286377 0.18782062828540802 44
0.08160846680402756 2.17378568649292 0.11199893802404404 44
0.08133243769407272 2.1563937664031982 0.03699909895658493 44
nan nan nan 0
0.08527268469333649 2.1996994018554688 -0.4993916451931 119
0.08533141762018204 2.191333770751953 -0.41844993829727173 0
0.08507289737462997 2.1749320030212402 -0.3386808931827545 44
0.08644990622997284 2.200302839279175 -0.26567548513412476 44
0.08557621389627457 2.1684184074401855 -0.18651357293128967 44
0.08596406131982803 2.168640375137329 -0.11136544495820999 44
0.08624662458896637 2.1662158966064453 -0.03680222108960152 44
0.08702200651168823 2.1761362552642822 0.572910726070404 44
0.08697878569364548 2.16558837890625 0.491146445274353 44
0.08720400929450989 2.1617867946624756 0.41273054480552673 44
0.08771215379238129 2.165001153945923 0.3367447555065155 44
0.08770618587732315 2.155552387237549 0.26019105315208435 44
0.08921392261981964 2.1832275390625 0.18782062828540802 44
0.08899116516113281 2.1684985160827637 0.11173726618289948 44
0.08885915577411652 2.1560966968536377 0.03699909895658493 44
nan nan nan 0
0.09274481981992722 2.1945207118988037 -0.49826687574386597 119
0.09298007935285568 2.1910226345062256 -0.41844993829727173 0
0.09266431629657745 2.174621820449829 -0.3386808931827545 44
0.09412986785173416 2.1999878883361816 -0.26567548513412476 44
0.09314488619565964 2.1681065559387207 -0.18651357293128967 44
0.09374868124723434 2.1733155250549316 -0.11162624508142471 44
0.09380760043859482 2.1659014225006104 -0.03680222108960152 44
0.09461761265993118 2.175819158554077 0.572910726070404 44
0.09453757107257843 2.165271520614624 0.491146445274353 44
0.09474952518939972 2.1614692211151123 0.41273054480552673 44
0.09526888281106949 2.1646816730499268 0.3367447555065155 44
0.09522993862628937 2.155233144760132 0.26019105315208435 44
0.09683427214622498 2.1829028129577637 0.18782062828540802 44
0.09656009078025818 2.1681747436523438 0.11173726618289948 44
0.09638480097055435 2.155773401260376 0.03699909895658493 44
nan nan nan 0
0.10040456056594849 2.194183588027954 -0.49826687574386597 119
0.1006276085972786 2.1906845569610596 -0.41844993829727173 0
0.1002545952796936 2.1742851734161377 -0.3386808931827545 44
0.1015792265534401 2.194688320159912 -0.26506611704826355 44
0.10071241855621338 2.1677682399749756 -0.18651357293128967 44
0.10133440792560577 2.1729750633239746 -0.11162624508142471 44
0.10136744379997253 2.1655609607696533 -0.03680222108960152 44
0.101985402405262 2.170651435852051 0.5716174840927124 44
0.10209520161151886 2.1649281978607178 0.491146445274353 44
0.10206181555986404 2.156222343444824 0.4117773175239563 44
0.10282445698976517 2.1643359661102295 0.3367447555065155 44
0.10275252908468246 2.1548876762390137 0.26019105315208435 44
0.1046915277838707 2.1875264644622803 0.1882563978433609 44
0.10412784665822983 2.1678245067596436 0.11173726618289948 44
0.10390926897525787 2.155423879623413 0.03699909895658493 44
nan nan nan 0
0.10806308686733246 2.193819761276245 -0.49826687574386597 119
0.10827391594648361 2.1903200149536133 -0.41844993829727173 0
0.10784365236759186 2.173921823501587 -0.3386808931827545 44
0.10923949629068375 2.1943202018737793 -0.26506611704826355 44
0.10827872902154922 2.16740345954895 -0.18651357293128967 44
0.10891888290643692 2.1726081371307373 -0.11162624508142471 44
0.10892603546380997 2.165194034576416 -0.03680222108960152 44
0.10956176370382309 2.1702821254730225 0.5716174840927124 44
0.109651580452919 2.1645586490631104 0.491146445274353 44
0.10958781093358994 2.155853033065796 0.4117773175239563 44
0.11037876456975937 2.163963794708252 0.3367447555065155 44
0.11027386039495468 2.1545157432556152 0.26019105315208435 44
0.11232678592205048 2.187147855758667 0.1882563978433609 44
0.1116943284869194 2.167447805404663 0.11173726618289948 44
0.11143247038125992 2.15504789352417 0.03699909895658493 44
nan nan nan 0
0.11572028696537018 2.1934292316436768 -0.49826687574386597 119
0.11591889709234238 2.1899287700653076 -0.41844993829727173 0
0.11543140560388565 2.173532247543335 -0.3386808931827545 44
0.11689843982458115 2.193925619125366 -0.26506611704826355 44
0.11584372073411942 2.1670122146606445 -0.18651357293128967 44
0.11650203168392181 2.1722147464752197 -0.11162624508142471 44
0.11648331582546234 2.1648004055023193 -0.03680222108960152 44
0.11713679879903793 2.169886589050293 0.5716174840927124 44
0.1172066330909729 2.1641628742218018 0.491146445274353 44
0.11737876385450363 2.160358428955078 0.41273054480552673 44
0.11793173849582672 2.1635653972625732 0.3367447555065155 44
0.11779385060071945 2.1541178226470947 0.26019105315208435 44
0.11968784779310226 2.1817691326141357 0.18782062828540802 44
0.11953382939100266 2.172030448913574 0.11199893802404404 44
0.1186787337064743 2.1496543884277344 0.03691183775663376 44
nan nan nan 0
0.12337607145309448 2.193011999130249 -0.49826687574386597 119
0.12356247007846832 2.1895108222961426 -0.41844993829727173 0
0.12301774322986603 2.1731162071228027 -0.3386808931827545 44
0.12455596029758453 2.1935040950775146 -0.26506611704826355 44
0.12340729683637619 2.1665947437286377 -0.18651357293128967 44
0.12379895895719528 2.1668097972869873 -0.11136544495820999 44
0.1240391656756401 2.1643805503845215 -0.03680222108960152 44
0.12471040338277817 2.169464349746704 0.5716174840927124 44
0.12476026266813278 2.163740396499634 0.491146445274353 44
0.1249191090464592 2.159935712814331 0.41273054480552673 44
0.12548327445983887 2.1631405353546143 0.3367447555065155 44
0.1253124177455902 2.153693437576294 0.26019105315208435 44
0.12730291485786438 2.18133807182312 0.18782062828540802 44
0.1271149069070816 2.171599864959717 0.11199893802404404 44
0.1261817067861557 2.1492271423339844 0.03691183775663376 44
nan nan nan 0
0.1313210129737854 2.1974313259124756 -0.4993916451931 119
0.1312045305967331 2.189066171646118 -0.41844993829727173 0
0.13060258328914642 2.172673463821411 -0.3386808931827545 44
0.13221196830272675 2.193056106567383 -0.26506611704826355 44
0.13096937537193298 2.1661508083343506 -0.18651357293128967 44
0.13136176764965057 2.1663644313812256 -0.11136544495820999 44
0.1315935105085373 2.1639344692230225 -0.03680222108960152 44
0.13228248059749603 2.169015884399414 0.5716174840927124 44
0.1326097995042801 2.168154716491699 0.4922703802585602 44
0.1324579268693924 2.1594862937927246 0.41273054480552673 44
0.13333648443222046 2.1676185131073 0.3375260531902313 44
0.1328294426202774 2.153243064880371 0.26019105315208435 44
0.13460887968540192 2.1759088039398193 0.18738484382629395 44
0.1346944272518158 2.171143054962158 0.11199893802404404 44
0.13368314504623413 2.148773431777954 0.03691183775663376 44
nan nan nan 0
0.13899067044258118 2.1969594955444336 -0.4993916451931 119
0.13884499669075012 2.1885948181152344 -0.41844993829727173 0
0.13818582892417908 2.1722042560577393 -0.3386808931827545 44
0.13986633718013763 2.1925811767578125 -0.26506611704826355 44
0.13852985203266144 2.165680408477783 -0.18651357293128967 44
0.13892300426959991 2.1658926010131836 -0.11136544495820999 44
0.13914625346660614 2.163461923599243 -0.03680222108960152 44
0.13985295593738556 2.1685409545898438 0.5716174840927124 44
0.14017724990844727 2.1676788330078125 0.4922703802585602 44
0.13999514281749725 2.159010887145996 0.41273054480552673 44
0.1409020721912384 2.167139768600464 0.3375260531902313 44
0.14034484326839447 2.152766227722168 0.26019105315208435 44
0.14220339059829712 2.1754257678985596 0.18738484382629395 44
0.14227230846881866 2.1706595420837402 0.11199893802404404 44
0.14118294417858124 2.1482937335968018 0.03691183775663376 44
nan nan nan 0
0.14665864408016205 2.1964609622955322 -0.4993916451931 119
0.14648377895355225 2.188096761703491 -0.41844993829727173 0
0.14576740562915802 2.171708822250366 -0.3386808931827545 44
0.14785225689411163 2.197031259536743 -0.26567548513412476 44
0.146088644862175 2.1651835441589355 -0.18651357293128967 44
0.14648252725601196 2.1653945446014404 -0.11136544495820999 44
0.1466972976922989 2.1629631519317627 -0.03680222108960152 44
0.1474217176437378 2.168039560317993 0.5716174840927124 44
0.14774301648139954 2.1671762466430664 0.4922703802585602 44
0.14753064513206482 2.1585090160369873 0.41273054480552673 44
0.14846593141555786 2.1666347980499268 0.3375260531902313 44
0.14785856008529663 2.1522631645202637 0.26019105315208435 44
0.14979617297649384 2.1749160289764404 0.18738484382629395 44
0.14984846115112305 2.170149803161621 0.11199893802404404 44
0.1483357548713684 2.1428003311157227 0.03682457283139229 44
nan nan nan 0
0.15432482957839966 2.1959354877471924 -0.4993916451931 119
0.1541207730770111 2.1875722408294678 -0.41844993829727173 0
0.1533471792936325 2.171186685562134 -0.3386808931827545 44
0.15516991913318634 2.1915512084960938 -0.26506611704826355 44
0.15364564955234528 2.1646604537963867 -0.18651357293128967 44
0.15404027700424194 2.164870023727417 -0.11136544495820999 44
0.15389086306095123 2.1574513912200928 -0.03671583533287048 44
0.15498870611190796 2.1675117015838623 0.5716174840927124 44
0.15530698001384735 2.166647434234619 0.4922703802585602 44
0.15506434440612793 2.1579809188842773 0.41273054480552673 44
0.15602800250053406 2.1661033630371094 0.3375260531902313 44
0.15537044405937195 2.151733875274658 0.26019105315208435 44
0.1573871374130249 2.174379825592041 0.18738484382629395 44
0.15706144273281097 2.164633274078369 0.11173726618289948 44
0.15581463277339935 2.1422693729400635 0.03682457283139229 44
nan nan nan 0
0.16198913753032684 2.1953835487365723 -0.4993916451931 119
0.16175587475299835 2.187021017074585 -0.41844993829727173 0
0.16092512011528015 2.170638084411621 -0.3386808931827545 44
0.16281892359256744 2.1909964084625244 -0.26506611704826355 44
0.1608308106660843 2.1591439247131348 -0.1860778033733368 44
0.161224365234375 2.1593399047851562 -0.11110462993383408 44
0.1614208221435547 2.1569011211395264 -0.03671583533287048 44
0.16291505098342896 2.171773672103882 0.572910726070404 44
0.16286903619766235 2.1660921573638916 0.4922703802585602 44
0.16296499967575073 2.162320852279663 0.4136837124824524 44
0.16358815133571625 2.1655454635620117 0.3375260531902313 44
0.16288045048713684 2.1511785984039307 0.26019105315208435 44
0.16497617959976196 2.1738171577453613 0.18738484382629395 44
0.16461646556854248 2.164071798324585 0.11173726618289948 44
0.1632915884256363 2.1417126655578613 0.03682457283139229 44
nan nan nan 0
0.16965146362781525 2.1948046684265137 -0.4993916451931 119
0.1693890243768692 2.1864428520202637 -0.41844993829727173 0
0.16850106418132782 2.1700632572174072 -0.3386808931827545 44
0.17046591639518738 2.1904146671295166 -0.26506611704826355 44
0.1687539666891098 2.1635351181030273 -0.18651357293128967 44
0.16915003955364227 2.1637418270111084 -0.11136544495820999 44
0.16894884407520294 2.1563243865966797 -0.03671583533287048 44
0.17049497365951538 2.171191692352295 0.572910726070404 44
0.17042911052703857 2.165510416030884 0.4922703802585602 44
0.17051191627979279 2.161738634109497 0.4136837124824524 44
0.17114633321762085 2.164961338043213 0.3375260531902313 44
0.17038847506046295 2.150596857070923 0.26019105315208435 44
0.17256321012973785 2.1732282638549805 0.18738484382629395 44
0.17216947674751282 2.1634840965270996 0.11173726618289948 44
0.17076657712459564 2.141129493713379 0.03682457283139229 44
nan nan nan 0
0.17691929638385773 2.189342975616455 -0.49826687574386597 119
0.1770200878381729 2.185838460922241 -0.41844993829727173 0
0.17607496678829193 2.169461727142334 -0.3386808931827545 44
0.17811086773872375 2.1898062229156494 -0.26506611704826355 44
0.17630508542060852 2.162932872772217 -0.18651357293128967 44
0.17629535496234894 2.1581616401672363 -0.11110462993383408 44
0.17688266932964325 2.1607041358947754 -0.03680222108960152 44
0.17807279527187347 2.170583486557007 0.572910726070404 44
0.17798712849617004 2.1649022102355957 0.4922703802585602 44
0.1780567765235901 2.161130428314209 0.4136837124824524 44
0.17870241403579712 2.164350748062134 0.3375260531902313 44
0.17789442837238312 2.149988889694214 0.26019105315208435 44
0.18055975437164307 2.1775765419006348 0.18782062828540802 44
0.17972040176391602 2.162869930267334 0.11173726618289948 44
0.17865434288978577 2.1455025672912598 0.03691183775663376 44
0.16074158251285553 1.9102245569229126 -0.5034032464027405 119
0.18456046283245087 2.1887118816375732 -0.49826687574386597 119
0.1846490204334259 2.1852071285247803 -0.41844993829727173 119
0.18364673852920532 2.1688339710235596 -0.3386808931827545 44
0.18575362861156464 2.189171314239502 -0.26506611704826355 44
0.18385405838489532 2.162304162979126 -0.18651357293128967 44
0.1842515617609024 2.162508249282837 -0.11136544495820999 44
0.18442386388778687 2.1600735187530518 -0.03680222108960152 44
0.18564847111701965 2.1699485778808594 0.572910726070404 44
0.18554295599460602 2.1642675399780273 0.4922703802585602 44
0.1855994313955307 2.1604955196380615 0.4136837124824524 44
0.186679869890213 2.1686341762542725 0.33830738067626953 44
0.18539820611476898 2.149354934692383 0.26019105315208435 44
0.18815980851650238 2.1769330501556396 0.18782062828540802 44
0.18769997358322144 2.167203903198242 0.11199893802404404 44
0.1861424595117569 2.1448659896850586 0.03691183775663376 44
0.16909560561180115 1.928896427154541 -0.5085796117782593 119
0.19219936430454254 2.188054323196411 -0.49826687574386597 119
0.19227570295333862 2.184549331665039 -0.41844993829727173 119
0.19121627509593964 2.168179750442505 -0.3386808931827545 44
0.19339412450790405 2.188509464263916 -0.26506611704826355 44
0.19140079617500305 2.161649227142334 -0.18651357293128967 44
0.19179901480674744 2.1618518829345703 -0.11136544495820999 44
0.19152013957500458 2.1544370651245117 -0.03671583533287048 44
0.19322186708450317 2.1692872047424316 0.572910726070404 44
0.19309653341770172 2.163606882095337 0.4922703802585602 44
0.19313985109329224 2.159834623336792 0.4136837124824524 44
0.19424869120121002 2.167969226837158 0.33830738067626953 44
0.19289971888065338 2.1486945152282715 0.26019105315208435 44
0.19575758278369904 2.1762630939483643 0.18782062828540802 44
0.1952637881040573 2.1665356159210205 0.11199893802404404 44
0.19407790899276733 2.149181842803955 0.03699909895658493 44
0.17451199889183044 1.9138654470443726 -0.504697322845459 119
0.19983592629432678 2.1873700618743896 -0.49826687574386597 119
0.19990001618862152 2.1838648319244385 -0.41844993829727173 0
0.19833242893218994 2.162580966949463 -0.33789870142936707 44
0.20103226602077484 2.18782114982605 -0.26506611704826355 44
0.1994018256664276 2.1659281253814697 -0.18694935739040375 44
0.19934411346912384 2.1611692905426025 -0.11136544495820999 44
0.19949939846992493 2.1587331295013428 -0.03680222108960152 44
0.20079292356967926 2.1685996055603027 0.572910726070404 44
0.2006477564573288 2.162919759750366 0.4922703802585602 44
0.20067788660526276 2.159147262573242 0.4136837124824524 44
0.20181512832641602 2.1672780513763428 0.33830738067626953 44
0.20039889216423035 2.148008108139038 0.26019105315208435 44
0.20335295796394348 2.1755664348602295 0.18782062828540802 44
0.20282521843910217 2.1658408641815186 0.11199893802404404 44
0.2015787661075592 2.148491382598877 0.03699909895658493 44
0.1830129623413086 1.9324769973754883 -0.5098737478256226 119
0.20747005939483643 2.186659336090088 -0.49826687574386597 119
0.20752191543579102 2.1831536293029785 -0.41844993829727173 0
0.2058800309896469 2.1618754863739014 -0.33789870142936707 44
0.20866796374320984 2.187105894088745 -0.26506611704826355 44
0.20696109533309937 2.1652188301086426 -0.18694935739040375 44
0.20641079545021057 2.155489683151245 -0.11110462993383408 44
0.20703357458114624 2.1580235958099365 -0.03680222108960152 44
0.20836152136325836 2.1678855419158936 0.572910726070404 44
0.20819653570652008 2.162205934524536 0.4922703802585602 44
0.20774222910404205 2.153548240661621 0.41273054480552673 44
0.20937910676002502 2.166560411453247 0.33830738067626953 44
0.20789562165737152 2.1472954750061035 0.26019105315208435 44
0.21094585955142975 2.1748433113098145 0.18782062828540802 44
0.21038417518138885 2.1651196479797363 0.11199893802404404 44
0.2090771645307541 2.1477746963500977 0.03699909895658493 44
0.18928532302379608 1.9270199537277222 -0.5085796117782593 119
0.21557877957820892 2.190770387649536 -0.4993916451931 119
0.21514128148555756 2.1824159622192383 -0.41844993829727173 0
0.21342512965202332 2.1611437797546387 -0.33789870142936707 44
0.21630112826824188 2.18636417388916 -0.26506611704826355 44
0.21451786160469055 2.1644833087921143 -0.18694935739040375 44
0.21393361687660217 2.1547563076019287 -0.11110462993383408 44
0.2145652174949646 2.157287836074829 -0.03680222108960152 44
0.2159275859594345 2.167145013809204 0.572910726070404 44
0.2152588814496994 2.156618118286133 0.491146445274353 44
0.21525824069976807 2.1528098583221436 0.41273054480552673 44
0.2164483219385147 2.160902261734009 0.3375260531902313 44
0.21538981795310974 2.146556854248047 0.26019105315208435 44
0.2190343588590622 2.179049491882324 0.1882563978433609 44
0.2179405689239502 2.164371967315674 0.11199893802404404 44
0.21657302975654602 2.147031784057617 0.03699909895658493 44
0.19649963080883026 1.93115234375 -0.5098737478256226 119
0.2232246696949005 2.190004587173462 -0.4993916451931 119
0.22275802493095398 2.1816518306732178 -0.41844993829727173 0
0.220967635512352 2.1603856086730957 -0.33789870142936707 44
0.22393164038658142 2.185595989227295 -0.26506611704826355 44
0.22207202017307281 2.1637213230133057 -0.18694935739040375 44
0.22145381569862366 2.153996229171753 -0.11110462993383408 44
0.22209425270557404 2.1565258502960205 -0.03680222108960152 44
0.22349102795124054 2.1663780212402344 0.572910726070404 44
0.22328637540340424 2.1606998443603516 0.4922703802585602 44
0.22277164459228516 2.152045488357544 0.41273054480552673 44
0.22398994863033295 2.1601336002349854 0.3375260531902313 44
0.22288136184215546 2.14579176902771 0.26019105315208435 44
0.22663931548595428 2.178271770477295 0.1882563978433609 44
0.22601191699504852 2.1685643196105957 0.11226062476634979 44
0.22406625747680664 2.1462626457214355 0.03699909895658493 44
0.20323939621448517 1.9304547309875488 -0.5098737478256226 119
0.23086786270141602 2.1892120838165283 -0.4993916451931 119
0.23037205636501312 2.180860757827759 -0.41844993829727173 0
0.22850742936134338 2.1596009731292725 -0.33789870142936707 44
0.23155944049358368 2.184800863265991 -0.26506611704826355 44
0.2296234518289566 2.162932872772217 -0.18694935739040375 44
0.22897131741046906 2.153210163116455 -0.11110462993383408 44
0.229620561003685 2.1557374000549316 -0.03680222108960152 44
0.2310517281293869 2.1655848026275635 0.572910726070404 44
0.23082727193832397 2.159907341003418 0.4922703802585602 44
0.23028232157230377 2.151254653930664 0.41273054480552673 44
0.2315288782119751 2.1593384742736816 0.3375260531902313 44
0.23037022352218628 2.145000696182251 0.26019105315208435 44
0.2342415153980255 2.1774673461914062 0.1882563978433609 44
0.23358023166656494 2.167762279510498 0.11226062476634979 44
0.2315567433834076 2.145467519760132 0.03699909895658493 44
0.21049915254116058 1.9345347881317139 -0.5111678242683411 119
0.23798036575317383 2.183549404144287 -0.49826687574386597 119
0.23798327147960663 2.1800434589385986 -0.41844993829727173 0
0.2365812510251999 2.1636996269226074 -0.3386808931827545 44
0.2391843944787979 2.1839792728424072 -0.26506611704826355 44
0.23717211186885834 2.1621181964874268 -0.18694935739040375 44
0.2364860326051712 2.152397871017456 -0.11110462993383408 44
0.2371441125869751 2.1549227237701416 -0.03680222108960152 44
0.23860961198806763 2.164764881134033 0.572910726070404 44
0.23836535215377808 2.159088373184204 0.4922703802585602 44
0.23832963407039642 2.155316114425659 0.4136837124824524 44
0.23906496167182922 2.1585171222686768 0.3375260531902313 44
0.23840342462062836 2.149116039276123 0.2608003616333008 44
0.2418408840894699 2.176636219024658 0.1882563978433609 44
0.24114571511745453 2.16693377494812 0.11226062476634979 44
0.2390444129705429 2.144646167755127 0.03699909895658493 44
0.2169131338596344 1.9338260889053345 -0.5111678242683411 119
0.24483899772167206 2.182790994644165 -0.49826687574386597 119
0.2448309063911438 2.1792850494384766 -0.41844993829727173 0
0.24337753653526306 2.1629457473754883 -0.3386808931827545 44
0.24604438245296478 2.1832170486450195 -0.26506611704826355 44
0.24396342039108276 2.161362409591675 -0.18694935739040375 44
0.24324680864810944 2.151644229888916 -0.11110462993383408 44
0.24447527527809143 2.15913462638855 -0.03688861429691315 44
0.24540923535823822 2.1640045642852783 0.572910726070404 44
0.24514712393283844 2.1583290100097656 0.4922703802585602 44
0.24509958922863007 2.1545567512512207 0.4136837124824524 44
0.24584494531154633 2.1577553749084473 0.3375260531902313 44
0.24515388906002045 2.1483564376831055 0.2608003616333008 44
0.2486777901649475 2.175865888595581 0.1882563978433609 44
0.24795213341712952 2.166165351867676 0.11226062476634979 44
0.245780810713768 2.1438846588134766 0.03699909895658493 44
0.22277046740055084 1.9282983541488647 -0.5098737478256226 119
0.2524568736553192 2.1819231510162354 -0.49826687574386597 119
0.2524365186691284 2.178417205810547 -0.41844993829727173 0
0.25092613697052 2.162083148956299 -0.3386808931827545 44
0.25366371870040894 2.182344913482666 -0.26506611704826355 44
0.251506507396698 2.1604976654052734 -0.18694935739040375 44
0.2507559657096863 2.1507821083068848 -0.11110462993383408 44
0.2520105540752411 2.1582679748535156 -0.03688861429691315 44
0.25296151638031006 2.163134813308716 0.572910726070404 44
0.25324633717536926 2.162299156188965 0.49339425563812256 44
0.2526188790798187 2.1536879539489746 0.4136837124824524 44
0.25337541103363037 2.15688419342041 0.3375260531902313 44
0.252651572227478 2.1474876403808594 0.2608003616333008 44
0.25627145171165466 2.1749844551086426 0.1882563978433609 44
0.25551193952560425 2.1652867794036865 0.11226062476634979 44
0.25326287746429443 2.1430134773254395 0.03699909895658493 44
0.23017296195030212 1.9274288415908813 -0.5098737478256226 119
0.2608329653739929 2.1809375286102295 -0.49826687574386597 119
0.2607991695404053 2.17743182182312 -0.41844993829727173 0
0.25922608375549316 2.1611034870147705 -0.3386808931827545 44
0.262633353471756 2.1862823963165283 -0.26567548513412476 44
0.25980034470558167 2.1595160961151123 -0.18694935739040375 44
0.25901249051094055 2.149803400039673 -0.11110462993383408 44
0.2602958381175995 2.1572844982147217 -0.03688861429691315 44
0.26126548647880554 2.1621475219726562 0.572910726070404 44
0.2615470886230469 2.1613106727600098 0.49339425563812256 44
0.2608865797519684 2.1527023315429688 0.4136837124824524 44
0.2622503936290741 2.1607980728149414 0.33830738067626953 44
