# .PCD v0.7 - Point Cloud Data file format
VERSION 0.7
FIELDS x y z intensity
SIZE 4 4 4 4
TYPE F F F F
COUNT 1 1 1 1
WIDTH 824
HEIGHT 1
VIEWPOINT 0 0 0 1 0 0 0
POINTS 824
DATA ascii
nan nan nan 0
1.845468282699585 0.29361456632614136 -0.4904623031616211 119
2.092273712158203 0.3325069546699524 -0.4802708029747009 119
2.4421887397766113 0.38767898082733154 -0.4727817475795746 119
2.939893960952759 0.4661599099636078 -0.46539291739463806 119
3.7875266075134277 0.5998858213424683 -0.46615076065063477 119
5.0707197189331055 0.8022167086601257 -0.4458023011684418 119
8.067061424255371 1.2748117446899414 -0.42459702491760254 119
nan nan nan 0
9.202715873718262 1.4509830474853516 2.484337568283081 107
10.226326942443848 1.6105458736419678 2.3793067932128906 51
10.263640403747559 1.6145864725112915 2.0102741718292236 51
10.395299911499023 1.6334389448165894 1.6587218046188354 51
9.102899551391602 1.4287328720092773 1.1266820430755615 48
9.18075942993164 1.4393116235733032 0.8096768856048584 48
nan nan nan 0
nan nan nan 0
1.8464317321777344 0.28749316930770874 -0.4904623031616211 119
2.0933077335357666 0.32593226432800293 -0.4802708029747009 119
2.443394660949707 0.3800047039985657 -0.4727817475795746 119
2.9413440227508545 0.45692166686058044 -0.46539291739463806 119
3.7893927097320557 0.587984025478363 -0.46615076065063477 119
5.073215007781982 0.7862825393676758 -0.4458023011684418 119
8.071026802062988 1.2494621276855469 -0.42459702491760254 119
nan nan nan 0
9.207228660583496 1.4220646619796753 2.484337568283081 107
10.380603790283203 1.6014388799667358 2.4141478538513184 51
10.433597564697266 1.6077499389648438 2.042682647705078 51
10.590743064880371 1.630072832107544 1.6891928911209106 51
9.283926010131836 1.427275538444519 1.1486185789108276 48
nan nan nan 0
nan nan nan 0
nan nan nan 0
1.8473750352859497 0.281368613243103 -0.4904623031616211 119
2.0992491245269775 0.31935596466064453 -0.48139551281929016 119
2.449558734893799 0.37221068143844604 -0.47373491525650024 119
2.9429211616516113 0.4466516673564911 -0.46539291739463806 119
3.7717950344085693 0.5717777609825134 -0.4637133479118347 119
5.085779190063477 0.7700604200363159 -0.4466738700866699 119
8.075339317321777 1.2212812900543213 -0.42459702491760254 119
nan nan nan 0
9.207361221313477 1.3891962766647339 2.483044147491455 107
10.56920051574707 1.592782735824585 2.4568560123443604 107
10.642997741699219 1.6020042896270752 2.082716464996338 51
10.718461036682129 1.611449956893921 1.7087256908416748 51
9.480252265930176 1.4236016273498535 1.1723830699920654 48
nan nan nan 0
9.523810386657715 1.4267431497573853 0.5026867985725403 48
nan nan nan 0
1.8483939170837402 0.2745957374572754 -0.4904623031616211 119
2.100405693054199 0.31165969371795654 -0.48139551281929016 119
2.45090651512146 0.3632300794124603 -0.47373491525650024 119
2.9445383548736572 0.43586233258247375 -0.46539291739463806 119
3.7591376304626465 0.555772066116333 -0.46188533306121826 119
5.08856725692749 0.751414954662323 -0.4466738700866699 119
8.084701538085938 1.1924041509628296 -0.42485785484313965 119
nan nan nan 0
9.212389945983887 1.355440378189087 2.483044147491455 107
10.729217529296875 1.5767016410827637 2.492821216583252 107
10.750779151916504 1.5779533386230469 2.1027333736419678 51
10.909976959228516 1.599374532699585 1.7384154796600342 51
9.603255271911621 1.4061005115509033 1.1870073080062866 48
nan nan nan 0
9.632731437683105 1.4069819450378418 0.5081821084022522 48
nan nan nan 0
1.8493411540985107 0.2681419551372528 -0.4904623031616211 119
2.101480722427368 0.30432602763175964 -0.48139551281929016 119
2.4521594047546387 0.3546726107597351 -0.47373491525650024 119
2.9460418224334717 0.42558130621910095 -0.46539291739463806 119
3.746318817138672 0.5405207872390747 -0.4600572884082794 119
5.0960893630981445 0.7343584299087524 -0.4471096694469452 119
8.093756675720215 1.1648874282836914 -0.42511865496635437 119
nan nan nan 0
9.217065811157227 1.3232749700546265 2.483044147491455 107
10.763591766357422 1.5433892011642456 2.4995646476745605 107
10.98458194732666 1.5731202363967896 2.1475331783294678 51
11.174600601196289 1.5983428955078125 1.7798248529434204 51
nan nan nan 0
nan nan nan 0
nan nan nan 0
nan nan nan 0
1.8550479412078857 0.2623612582683563 -0.491756409406662 119
2.1025302410125732 0.2969886064529419 -0.48139551281929016 119
2.4533824920654297 0.34611082077026367 -0.47373491525650024 119
2.952399730682373 0.4159841537475586 -0.4661751091480255 119
3.7678401470184326 0.530206561088562 -0.4624946713447571 119
5.103553771972656 0.7172584533691406 -0.4475454092025757 119
8.097773551940918 1.1366277933120728 -0.42511865496635437 119
nan nan nan 0
9.221628189086914 1.2910932302474976 2.483044147491455 107
10.76408863067627 1.5051331520080566 2.498440742492676 107
11.189312934875488 1.56260085105896 2.1866137981414795 51
11.370870590209961 1.5859321355819702 1.8102960586547852 51
9.951991081237793 1.3862658739089966 1.2290523052215576 48
nan nan nan 0
nan nan nan 0
nan nan nan 0
1.855952501296997 0.2558843195438385 -0.491756409406662 119
2.1035542488098145 0.2896476089954376 -0.48139551281929016 119
2.4497134685516357 0.33687615394592285 -0.4727817475795746 119
2.953833818435669 0.4056757986545563 -0.4661751091480255 119
3.779501438140869 0.5183998346328735 -0.4637133479118347 119
5.110961437225342 0.7001153230667114 -0.44798120856285095 119
8.10663890838623 1.1090312004089355 -0.4253794848918915 119
nan nan nan 0
9.230864524841309 1.2595487833023071 2.484337568283081 107
10.764449119567871 1.4668922424316406 2.497316837310791 107
11.437871932983398 1.5566277503967285 2.2342731952667236 51
11.56229305267334 1.5715053081512451 1.8399858474731445 51
10.133804321289062 1.3755488395690918 1.2509887218475342 48
10.240259170532227 1.388178825378418 0.9007546305656433 48
nan nan nan 0
10.283111572265625 1.390332579612732 0.18045787513256073 48
1.8616209030151367 0.2500472068786621 -0.4930504858493805 119
2.1045525074005127 0.2823030650615692 -0.48139551281929016 119
2.4508743286132812 0.32832297682762146 -0.4727817475795746 119
2.9552319049835205 0.3953624963760376 -0.4661751091480255 119
3.791126012802124 0.5065182447433472 -0.46493205428123474 119
5.11337423324585 0.6822704672813416 -0.44798120856285095 119
8.115410804748535 1.0813864469528198 -0.4256402850151062 119
nan nan nan 0
9.235204696655273 1.2273194789886475 2.484337568283081 107
10.759843826293945 1.4280264377593994 2.4950687885284424 107
11.633001327514648 1.541844129562378 2.2714476585388184 51
11.7880220413208 1.5602973699569702 1.8751448392868042 51
nan nan nan 0
10.447505950927734 1.3791519403457642 0.9186215400695801 48
nan nan nan 0
10.496072769165039 1.381835699081421 0.18412289023399353 48
1.8624824285507202 0.24354742467403412 -0.4930504858493805 119
2.105525016784668 0.2749551236629486 -0.48139551281929016 119
2.452005386352539 0.3197658658027649 -0.4727817475795746 119
2.9467997550964355 0.38376888632774353 -0.464610755443573 119
3.7928712368011475 0.49328160285949707 -0.46493205428123474 119
5.110785007476807 0.6637757420539856 -0.4475454092025757 119
8.1240873336792 1.0536940097808838 -0.4259011149406433 119
10.821235656738281 1.4015936851501465 -0.1878986805677414 48
9.244222640991211 1.1956946849822998 2.485630750656128 107
10.759931564331055 1.3898348808288574 2.4939448833465576 107
11.862237930297852 1.5301121473312378 2.3152942657470703 51
12.033405303955078 1.550055980682373 1.9134290218353271 51
10.512323379516602 1.3522560596466064 1.296689748764038 48
12.028237342834473 1.5451221466064453 1.057634949684143 51
nan nan nan 0
12.162002563476562 1.5579901933670044 0.2133556455373764 51
1.8633211851119995 0.23704466223716736 -0.4930504858493805 119
2.1064717769622803 0.2676037549972534 -0.48139551281929016 119
2.448237419128418 0.310587078332901 -0.47182852029800415 119
2.9432218074798584 0.3728596270084381 -0.46382856369018555 119
3.794569730758667 0.4800390303134918 -0.46493205428123474 119
5.108129501342773 0.6453075408935547 -0.4471096694469452 119
8.127715110778809 1.0253292322158813 -0.4259011149406433 119
10.92030143737793 1.3756839036941528 -0.1895400881767273 48
9.257925033569336 1.1646246910095215 2.488217353820801 107
10.759883880615234 1.3516600131988525 2.492821216583252 107
12.111014366149902 1.519242286682129 2.3629536628723145 51
12.25925350189209 1.535664677619934 1.9485878944396973 51
12.10754680633545 1.514514684677124 1.4935088157653809 51
12.241144180297852 1.5290563106536865 1.0759376287460327 51
12.241510391235352 1.5269321203231812 0.6445172429084778 51
12.380684852600098 1.542097568511963 0.21710792183876038 51
1.8641371726989746 0.2305389940738678 -0.4930504858493805 119
2.1073930263519287 0.26024919748306274 -0.48139551281929016 119
2.4493067264556885 0.3020392656326294 -0.47182852029800415 119
2.9248998165130615 0.360169380903244 -0.4606998860836029 119
3.7912967205047607 0.46618491411209106 -0.4643227159976959 119
5.105407238006592 0.6268658638000488 -0.4466738700866699 119
8.131244659423828 0.9969519972801208 -0.4259011149406433 119
11.22773265838623 1.3746155500411987 -0.1948098987340927 48
9.266728401184082 1.132887601852417 2.4895105361938477 107
10.76453685760498 1.314092755317688 2.492821216583252 107
12.359855651855469 1.5066537857055664 2.4106130599975586 51
12.49005126953125 1.5203120708465576 1.9845283031463623 51
12.324596405029297 1.4979898929595947 1.5197105407714844 51
12.503531455993652 1.5175238847732544 1.0985981225967407 51
12.494608879089355 1.5142282247543335 0.6576012372970581 51
12.649033546447754 1.530703067779541 0.22173281013965607 51
1.8649306297302246 0.224030539393425 -0.4930504858493805 119
2.103451728820801 0.25231119990348816 -0.4802708029747009 119
2.450345993041992 0.2934877574443817 -0.47182852029800415 119
2.9604640007019043 0.3540624976158142 -0.4661751091480255 119
3.792901039123535 0.4529479742050171 -0.4643227159976959 119
5.107564449310303 0.6090408563613892 -0.4466738700866699 119
8.134675025939941 0.9685625433921814 -0.4259011149406433 119
12.726715087890625 1.513065218925476 -0.2208133488893509 119
9.294607162475586 1.103380560874939 2.495976686477661 107
10.773896217346191 1.277082920074463 2.4939448833465576 107
12.589256286621094 1.490038514137268 2.4544599056243896 51
12.755217552185059 1.5074238777160645 2.025937795639038 51
12.590963363647461 1.4857840538024902 1.5520060062408447 51
12.731356620788574 1.5000981092453003 1.1182081699371338 51
12.713052749633789 1.4956917762756348 0.6688535213470459 51
12.818147659301758 1.5057882070541382 0.22461245954036713 51
1.8657013177871704 0.2175193578004837 -0.4930504858493805 119
2.1043195724487305 0.2449672371149063 -0.4802708029747009 119
2.456231117248535 0.28549936413764954 -0.4727817475795746 119
2.976398229598999 0.3454343378543854 -0.4685215950012207 119
3.7993884086608887 0.4402768015861511 -0.46493205428123474 119
5.114606857299805 0.591780960559845 -0.4471096694469452 119
8.142967224121094 0.9407343864440918 -0.42616191506385803 119
12.94050407409668 1.4926918745040894 -0.2244417369365692 119
9.284008026123047 1.0692718029022217 2.4920971393585205 107
10.783127784729004 1.2400237321853638 2.4950687885284424 107
12.828441619873047 1.4729595184326172 2.5002129077911377 107
13.035161972045898 1.4943901300430298 2.0696911811828613 51
12.739059448242188 1.4581913948059082 1.5696771144866943 51
12.949312210083008 1.479968547821045 1.136946678161621 51
12.936478614807129 1.4762145280838013 0.6803674101829529 51
13.141220092773438 1.4972548484802246 0.2301972210407257 51
1.8664491176605225 0.21100552380084991 -0.4930504858493805 119
2.1051619052886963 0.2376203089952469 -0.4802708029747009 119
2.4572126865386963 0.2769237458705902 -0.4727817475795746 119
2.977585792541504 0.33504265546798706 -0.4685215950012207 119
3.8009023666381836 0.42701175808906555 -0.46493205428123474 119
5.116641521453857 0.5739240050315857 -0.4471096694469452 119
8.146201133728027 0.9123044013977051 -0.42616191506385803 119
13.218892097473145 1.4780659675598145 -0.22919318079948425 119
9.278083801269531 1.0357862710952759 2.4895105361938477 107
10.797075271606445 1.2034555673599243 2.497316837310791 107
12.955459594726562 1.4417425394058228 2.5240426063537598 107
13.320075988769531 1.4799652099609375 2.1142258644104004 51
13.074546813964844 1.450374960899353 1.6105033159255981 51
13.25144100189209 1.4676567316055298 1.1630933284759521 51
13.239326477050781 1.4639759063720703 0.6960681676864624 51
nan nan nan 0
1.8671743869781494 0.2044891119003296 -0.4930504858493805 119
2.105978488922119 0.23027049005031586 -0.4802708029747009 119
2.463043451309204 0.26887744665145874 -0.47373491525650024 119
2.9787373542785645 0.324646919965744 -0.4685215950012207 119
3.8073034286499023 0.41427838802337646 -0.46554142236709595 119
5.123565196990967 0.5565980076789856 -0.4475454092025757 119
8.149335861206055 0.8838632702827454 -0.42616191506385803 119
14.521193504333496 1.5723799467086792 -0.2517410218715668 0
9.272039413452148 1.0023552179336548 2.486923933029175 107
10.810898780822754 1.1668049097061157 2.4995646476745605 107
12.945772171020508 1.3949332237243652 2.5211830139160156 107
13.61486530303955 1.4646254777908325 2.160323143005371 51
13.267034530639648 1.4248652458190918 1.633658528327942 51
nan nan nan 0
13.725940704345703 1.4693048000335693 0.7214511632919312 51
13.673301696777344 1.4612563848495483 0.2393597513437271 51
1.8678768873214722 0.1979702115058899 -0.4930504858493805 119
2.106769323348999 0.222917839884758 -0.4802708029747009 119
2.4639670848846436 0.2602781653404236 -0.47373491525650024 119
2.9700300693511963 0.3132113814353943 -0.4669572412967682 119
3.813661575317383 0.4015055000782013 -0.46615076065063477 119
5.130430221557617 0.5392307043075562 -0.44798120856285095 119
8.15733814239502 0.8559324741363525 -0.42642274498939514 119
13.676374435424805 1.4326201677322388 -0.23696832358837128 119
9.270676612854004 0.9694812297821045 2.485630750656128 107
10.829442024230957 1.1305783987045288 2.5029361248016357 107
12.945680618286133 1.349226713180542 2.5202298164367676 107
13.909708023071289 1.4472455978393555 2.206420421600342 51
13.716184616088867 1.4246904850006104 1.6884996891021729 51
nan nan nan 0
13.666419982910156 1.414699673652649 0.7180492877960205 51
13.638535499572754 1.4094074964523315 0.23866163194179535 51
1.8685563802719116 0.1914488971233368 -0.4930504858493805 119
2.1026880741119385 0.21506677567958832 -0.47914600372314453 119
2.4697437286376953 0.25217434763908386 -0.4746881127357483 119
2.9711050987243652 0.3028421103954315 -0.4669572412967682 119
3.819977283477783 0.38869327306747437 -0.4667600989341736 119
5.132281303405762 0.5213188529014587 -0.44798120856285095 119
8.165243148803711 0.82795649766922 -0.4266835153102875 119
14.158778190612793 1.433205008506775 -0.2452617734670639 0
9.274004936218262 0.9371146559715271 2.485630750656128 107
10.843017578125 1.093747615814209 2.5051839351654053 107
12.945429801940918 1.3035379648208618 2.5192768573760986 107
14.219329833984375 1.4293063879013062 2.25486159324646 51
13.948219299316406 1.399595856666565 1.7165296077728271 51
13.840999603271484 1.386397123336792 1.2136436700820923 51
13.651400566101074 1.3649992942810059 0.7170025706291199 51
14.42934799194336 1.4402424097061157 0.25244906544685364 51
1.869213342666626 0.18492525815963745 -0.4930504858493805 119
2.103425979614258 0.20772570371627808 -0.47914600372314453 119
2.470608949661255 0.24355179071426392 -0.4746881127357483 119
2.9672296047210693 0.29198557138442993 -0.4661751091480255 119
3.8064939975738525 0.37390127778053284 -0.46493205428123474 119
5.1390275955200195 0.5038867592811584 -0.4484170079231262 119
8.168083190917969 0.7994494438171387 -0.4266835153102875 119
14.54681396484375 1.4212032556533813 -0.25191381573677063 119
9.277219772338867 0.9047366380691528 2.485630750656128 107
10.856468200683594 1.0568358898162842 2.507431983947754 107
12.94990062713623 1.2583421468734741 2.5192768573760986 107
14.499502182006836 1.4063624143600464 2.298614978790283 51
14.269155502319336 1.3815064430236816 1.7555278539657593 51
14.529940605163574 1.4041953086853027 1.273781180381775 51
14.520875930786133 1.4007612466812134 0.7625348567962646 51
14.678122520446777 1.4133445024490356 0.25672489404678345 51
1.8698475360870361 0.17839935421943665 -0.4930504858493805 119
2.1041383743286133 0.20038211345672607 -0.47914600372314453 119
2.4714441299438477 0.2349262535572052 -0.4746881127357483 119
2.968230724334717 0.28162625432014465 -0.4661751091480255 119
3.827538251876831 0.3624834418296814 -0.4673694372177124 119
5.140754699707031 0.48594510555267334 -0.4484170079231262 119
8.175795555114746 0.7714017033576965 -0.4269443154335022 119
14.72091293334961 1.3863537311553955 -0.2548510730266571 119
9.28032112121582 0.8723475337028503 2.485630750656128 107
10.855239868164062 1.018478274345398 2.506308078765869 107
12.954214096069336 1.2131308317184448 2.5192768573760986 107
14.863273620605469 1.38929283618927 2.3556506633758545 51
14.580248832702637 1.3602710962295532 1.7933073043823242 51
14.837285041809082 1.3816393613815308 1.3003636598587036 51
14.794148445129395 1.3750181198120117 0.7766655087471008 51
15.031415939331055 1.3944244384765625 0.26283320784568787 51
1.8704588413238525 0.17187128961086273 -0.4930504858493805 119
2.104825019836426 0.19303609430789948 -0.47914600372314453 119
2.4722490310668945 0.22629788517951965 -0.4746881127357483 119
2.96919584274292 0.27126345038414 -0.4661751091480255 119
3.794184923171997 0.345966100692749 -0.4631040394306183 119
5.147380352020264 0.46844902634620667 -0.4488527774810791 119
8.183411598205566 0.7433098554611206 -0.4272051453590393 119
15.133925437927246 1.3719710111618042 -0.2619350850582123 119
9.283308982849121 0.8399478793144226 2.485630750656128 107
10.849023818969727 0.9797037839889526 2.5040600299835205 107
12.958370208740234 1.1679048538208008 2.5192768573760986 107
15.212343215942383 1.3683730363845825 2.410342216491699 51
14.9407958984375 1.341318130493164 1.837180256843567 51
15.17937183380127 1.3600659370422363 1.3299965858459473 51
15.171855926513672 1.356723427772522 0.7962915301322937 51
15.42956829071045 1.3770544528961182 0.2697269320487976 51
1.8710473775863647 0.1653411090373993 -0.4930504858493805 119
2.100632905960083 0.18525969982147217 -0.4780212938785553 119
2.4681341648101807 0.21723635494709015 -0.47373491525650024 119
2.965204954147339 0.26046523451805115 -0.46539291739463806 119
nan nan nan 0
5.148983955383301 0.4504784643650055 -0.4488527774810791 119
8.190930366516113 0.7151742577552795 -0.42746594548225403 119
15.507171630859375 1.3512495756149292 -0.2683279514312744 119
9.286185264587402 0.8075379729270935 2.485630750656128 107
10.842670440673828 0.9409851431846619 2.50181245803833 107
12.96236801147461 1.122664451599121 2.5192768573760986 107
15.586044311523438 1.3471591472625732 2.468940496444702 51
15.296435356140137 1.3194377422332764 1.880443811416626 51
15.511560440063477 1.3352664709091187 1.3587579727172852 51
15.544637680053711 1.3353807926177979 0.8156558871269226 51
15.802872657775879 1.3547863960266113 0.2761843204498291 51
1.8716130256652832 0.15880894660949707 -0.4930504858493805 119
2.101266860961914 0.1779259890317917 -0.4780212938785553 119
2.4688773155212402 0.20861965417861938 -0.47373491525650024 119
2.9660961627960205 0.2501131296157837 -0.46539291739463806 119
3.7965075969696045 0.31946948170661926 -0.4631040394306183 119
5.15548849105835 0.4329192042350769 -0.4492885172367096 119
8.19835376739502 0.6869951486587524 -0.42772677540779114 119
15.9103422164917 1.330438256263733 -0.27523916959762573 119
9.288947105407715 0.7751181721687317 2.485630750656128 107
10.841034889221191 0.9027272462844849 2.5006885528564453 107
12.971097946166992 1.0778169631958008 2.5202298164367676 107
15.940091133117676 1.3217203617095947 2.524413585662842 107
15.681777000427246 1.2975457906723022 1.9273635149002075 51
15.913253784179688 1.3139023780822754 1.3936203718185425 51
15.897542953491211 1.3098115921020508 0.8339734077453613 51
16.20111846923828 1.3319765329360962 0.28307801485061646 51
1.872156023979187 0.15227481722831726 -0.4930504858493805 119
2.1067309379577637 0.17098422348499298 -0.47914600372314453 119
2.464698553085327 0.19960419833660126 -0.4727817475795746 119
2.9718735218048096 0.24015580117702484 -0.4661751091480255 119
3.812439441680908 0.3074118494987488 -0.46493205428123474 119
5.156968116760254 0.41492053866386414 -0.4492885172367096 119
8.20567798614502 0.6587729454040527 -0.42798757553100586 119
16.328502655029297 1.3080259561538696 -0.28240954875946045 119
9.291596412658691 0.7426890134811401 2.485630750656128 107
10.834405899047852 0.8641047477722168 2.498440742492676 107
12.974781036376953 1.032532811164856 2.5202298164367676 107
16.013532638549805 1.2715439796447754 2.5353522300720215 107
16.086936950683594 1.2745472192764282 1.9767205715179443 51
16.354705810546875 1.292889952659607 1.4319689273834229 51
16.33009910583496 1.2880768775939941 0.8564779162406921 51
16.62430763244629 1.3083637952804565 0.29040801525115967 51
1.8726762533187866 0.14573884010314941 -0.4930504858493805 119
2.1121723651885986 0.16400647163391113 -0.4802708029747009 119
2.4653801918029785 0.1909995824098587 -0.4727817475795746 119
2.972693681716919 0.22978056967258453 -0.4661751091480255 119
3.8332815170288086 0.29562845826148987 -0.4673694372177124 119
5.158384799957275 0.39691680669784546 -0.4492885172367096 119
8.207927703857422 0.6301257610321045 -0.42798757553100586 119
16.751678466796875 1.2830919027328491 -0.2896663248538971 119
9.294132232666016 0.7102507948875427 2.485630750656128 107
10.832497596740723 0.8259099125862122 2.497316837310791 107
12.983200073242188 0.9876083135604858 2.5211830139160156 107
16.008024215698242 1.2148910760879517 2.5337893962860107 107
16.487173080444336 1.2483608722686768 2.025468349456787 51
16.776330947875977 1.267310380935669 1.4685742855072021 51
16.7377986907959 1.2614614963531494 0.8776739835739136 51
17.06747055053711 1.2833118438720703 0.29808709025382996 51
1.8731735944747925 0.1392011046409607 -0.4930504858493805 119
2.1175904273986816 0.1569928228855133 -0.48139551281929016 119
2.466032028198242 0.1823926419019699 -0.4727817475795746 119
2.978402614593506 0.21976591646671295 -0.4669572412967682 119
3.8095436096191406 0.2804243862628937 -0.4643227159976959 119
5.15477180480957 0.378543496131897 -0.4488527774810791 119
8.210077285766602 0.6014708876609802 -0.42798757553100586 119
17.219751358032227 1.2584987878799438 -0.2977006137371063 119
9.296554565429688 0.6778038740158081 2.485630750656128 107
10.830455780029297 0.7877389788627625 2.496192693710327 107
12.986568450927734 0.942282497882843 2.5211830139160156 107
16.002317428588867 1.158292293548584 2.532226800918579 107
16.917116165161133 1.2215399742126465 2.0778722763061523 51
17.247655868530273 1.2423813343048096 1.5095374584197998 51
17.225189208984375 1.2377411127090454 0.9030568599700928 51
17.540571212768555 1.2573262453079224 0.3062897026538849 51
1.8736480474472046 0.13266165554523468 -0.4930504858493805 119
2.1229851245880127 0.14994332194328308 -0.48252031207084656 119
2.46665358543396 0.17378348112106323 -0.4727817475795746 119
2.9840779304504395 0.20971421897411346 -0.46773943305015564 119
3.830301523208618 0.2685130834579468 -0.4667600989341736 119
5.15606164932251 0.3605476915836334 -0.4488527774810791 119
8.212126731872559 0.5728087425231934 -0.42798757553100586 119
17.692834854125977 1.2310000658035278 -0.3058212995529175 119
9.298864364624023 0.6453487277030945 2.485630750656128 107
10.833138465881348 0.7499287724494934 2.496192693710327 107
12.989778518676758 0.8969451785087585 2.5211830139160156 107
16.021041870117188 1.1034445762634277 2.5345706939697266 107
17.401531219482422 1.1954739093780518 2.1369788646698 51
17.709062576293945 1.2134957313537598 1.5496289730072021 51
17.67774200439453 1.2082496881484985 0.9266080856323242 51
18.008705139160156 1.227712869644165 0.31440508365631104 51
1.874099612236023 0.12612059712409973 -0.4930504858493805 119
2.1186347007751465 0.14220553636550903 -0.48139551281929016 119
2.467245101928711 0.16517217457294464 -0.4727817475795746 119
2.9897191524505615 0.19962558150291443 -0.4685215950012207 119
3.8213117122650146 0.2544816732406616 -0.46554142236709595 119
5.157289028167725 0.3425474762916565 -0.4488527774810791 119
8.214076042175293 0.544139564037323 -0.42798757553100586 119
18.1759090423584 1.2008726596832275 -0.3141147792339325 119
9.305879592895508 0.6132032871246338 2.486923933029175 107
10.830828666687012 0.7117900252342224 2.4950687885284424 107
12.987933158874512 0.8512758612632751 2.5202298164367676 107
16.034652709960938 1.0481584072113037 2.536133289337158 107
17.871105194091797 1.165071725845337 2.1942572593688965 51
18.190357208251953 1.1826965808868408 1.5914639234542847 51
18.195068359375 1.1798137426376343 0.9535610675811768 51
18.50677490234375 1.1967819929122925 0.3230440318584442 51
1.874528408050537 0.11957799643278122 -0.4930504858493805 119
2.1142561435699463 0.1344999521970749 -0.4802708029747009 119
2.4629082679748535 0.15624812245368958 -0.47182852029800415 119
2.9903976917266846 0.18918828666210175 -0.4685215950012207 119
nan nan nan 0
5.158453464508057 0.3245430886745453 -0.4488527774810791 119
8.215925216674805 0.5154637694358826 -0.42798757553100586 119
16.348844528198242 1.0228550434112549 -0.28240954875946045 0
9.307963371276855 0.5807159543037415 2.486923933029175 107
10.833247184753418 0.6739790439605713 2.4950687885284424 107
12.990824699401855 0.8059343695640564 2.5202298164367676 107
16.048070907592773 0.9927904009819031 2.53769588470459 107
18.36048698425293 1.1326279640197754 2.2539732456207275 51
18.736276626586914 1.1525273323059082 1.6389638185501099 51
18.72237205505371 1.148391842842102 0.981037437915802 51
19.07969093322754 1.1669665575027466 0.33299189805984497 51
1.874934434890747 0.11303394287824631 -0.4930504858493805 119
2.114712715148926 0.1271190047264099 -0.4802708029747009 119
2.4634387493133545 0.14765001833438873 -0.47182852029800415 119
2.9861104488372803 0.17845410108566284 -0.46773943305015564 119
nan nan nan 0
5.154582500457764 0.30623936653137207 -0.4484170079231262 119
8.22265911102295 0.48707693815231323 -0.42824840545654297 119
16.35730743408203 0.966075599193573 -0.2824959456920624 0
9.3147554397583 0.548505425453186 2.488217353820801 107
10.83553409576416 0.6361598372459412 2.4950687885284424 107
12.993558883666992 0.7605829834938049 2.5202298164367676 107
16.06130027770996 0.9373416304588318 2.5392587184906006 107
18.924171447753906 1.1011054515838623 2.322829484939575 51
19.312036514282227 1.1202914714813232 1.6890782117843628 51
19.30450439453125 1.116473913192749 1.0113922357559204 51
19.612686157226562 1.130863070487976 0.34224164485931396 51
1.8801394701004028 0.10676231980323792 -0.4943445920944214 119
2.1102795600891113 0.11946115642786026 -0.47914600372314453 119
2.459038496017456 0.13877356052398682 -0.4708753526210785 119
2.986715078353882 0.1680295467376709 -0.46773943305015564 119
nan nan nan 0
5.155620098114014 0.2882446348667145 -0.4484170079231262 119
8.224308967590332 0.4583715498447418 -0.42824840545654297 119
17.00948143005371 0.9450241327285767 -0.29372668266296387 119
9.31661319732666 0.5159875750541687 2.488217353820801 107
10.842554092407227 0.5986015200614929 2.496192693710327 107
12.991235733032227 0.7149527668952942 2.5192768573760986 107
16.06447410583496 0.8812715411186218 2.5392587184906006 107
19.507675170898438 1.0667450428009033 2.3941233158111572 51
20.49954605102539 1.1173954010009766 1.79279363155365 51
nan nan nan 0
20.569971084594727 1.1140327453613281 0.3589087128639221 51
1.8805007934570312 0.10019875317811966 -0.4943445920944214 119
2.105818748474121 0.11183581501245499 -0.4780212938785553 119
2.459507942199707 0.13018906116485596 -0.4708753526210785 119
2.9823520183563232 0.15734277665615082 -0.4669572412967682 119
nan nan nan 0
5.161569118499756 0.2705070972442627 -0.4488527774810791 119
8.225859642028809 0.4296605587005615 -0.42824840545654297 119
17.03264617919922 0.8866838216781616 -0.2940722405910492 119
9.318357467651367 0.4834633767604828 2.488217353820801 107
10.844576835632324 0.5607502460479736 2.496192693710327 107
12.99365234375 0.6696005463600159 2.5192768573760986 107
16.067453384399414 0.8251906633377075 2.5392587184906006 107
20.165504455566406 1.032129168510437 2.4745569229125977 51
20.617733001708984 1.0516676902770996 1.8028165102005005 51
20.643281936645508 1.049358606338501 1.0812608003616333 51
20.588714599609375 1.0429822206497192 0.35917049646377563 51
1.8808389902114868 0.0936339721083641 -0.4943445920944214 119
2.0964646339416504 0.10400167852640152 -0.47577178478240967 119
2.4599475860595703 0.12160298228263855 -0.4708753526210785 119
2.9828829765319824 0.1469314694404602 -0.4669572412967682 119
nan nan nan 0
5.172431468963623 0.25297483801841736 -0.44972431659698486 119
8.217334747314453 0.40045827627182007 -0.42772677540779114 119
17.030643463134766 0.8269808888435364 -0.29398584365844727 119
9.319988250732422 0.4509332776069641 2.488217353820801 107
10.851334571838379 0.5231268405914307 2.497316837310791 107
12.991006851196289 0.6240046620368958 2.5183234214782715 107
16.070234298706055 0.769099771976471 2.5392587184906006 107
20.84314727783203 0.9938787817955017 2.5574278831481934 51
21.208370208740234 1.0075840950012207 1.8542383909225464 51
21.295202255249023 1.0079842805862427 1.115279197692871 51
nan nan nan 0
1.8811542987823486 0.08706805109977722 -0.4943445920944214 119
2.101681709289551 0.09690741449594498 -0.4768964946269989 119
2.4652600288391113 0.11324065178632736 -0.47182852029800415 119
2.983377695083618 0.13651835918426514 -0.4669572412967682 119
3.8059730529785156 0.1734943985939026 -0.4631040394306183 119
5.183235168457031 0.23537005484104156 -0.450595885515213 119
8.21369457244873 0.37154632806777954 -0.42746594548225403 119
17.0234375 0.7670776844024658 -0.2938130497932434 119
9.321505546569824 0.4183976948261261 2.488217353820801 107
10.857962608337402 0.48546302318573 2.498440742492676 107
12.993106842041016 0.5786537528038025 2.5183234214782715 107
16.067886352539062 0.7127805948257446 2.5384771823883057 107
21.1092586517334 0.9327272772789001 2.589723587036133 107
21.674541473388672 0.9539142847061157 1.894765853881836 51
21.677705764770508 0.9502627849578857 1.1351667642593384 0
21.90904426574707 0.9565725922584534 0.38212043046951294 60
1.8814468383789062 0.08050106465816498 -0.4943445920944214 119
2.111741781234741 0.08998541533946991 -0.47914600372314453 119
2.4705440998077393 0.10484270006418228 -0.4727817475795746 119
2.9838359355926514 0.12610359489917755 -0.4669572412967682 119
3.8214304447174072 0.16083405911922455 -0.46493205428123474 119
5.189001560211182 0.21748434007167816 -0.4510316550731659 119
8.204963684082031 0.3424564599990845 -0.4269443154335022 119
nan nan nan 0
9.318083763122559 0.38565734028816223 2.486923933029175 107
10.859591484069824 0.4475587010383606 2.498440742492676 107
12.995046615600586 0.5332958698272705 2.5183234214782715 107
16.070276260375977 0.6566888093948364 2.5384771823883057 107
21.127260208129883 0.8596416711807251 2.5915515422821045 107
21.936538696289062 0.8887352347373962 1.917426347732544 60
21.950300216674805 0.8854554295539856 1.1492974758148193 60
21.937225341796875 0.8810930252075195 0.3825567364692688 60
1.8817163705825806 0.07393310219049454 -0.4943445920944214 119
2.1120431423187256 0.082613505423069 -0.47914600372314453 119
2.475799560546875 0.09640923887491226 -0.47373491525650024 119
2.9842581748962402 0.115687295794487 -0.4669572412967682 119
3.836845636367798 0.14806793630123138 -0.4667600989341736 119
5.1897292137146 0.19936999678611755 -0.4510316550731659 119
8.201118469238281 0.3136228919029236 -0.4266835153102875 119
16.378944396972656 0.6234921813011169 -0.2825823426246643 119
9.314546585083008 0.35294589400291443 2.485630750656128 107
10.856218338012695 0.40946531295776367 2.497316837310791 107
12.991924285888672 0.4877472519874573 2.5173702239990234 107
16.072471618652344 0.6005890965461731 2.5384771823883057 107
21.115257263183594 0.7853353023529053 2.589723587036133 107
21.954439163208008 0.8127097487449646 1.9187337160110474 60
21.963237762451172 0.8091968894004822 1.1498209238052368 60
21.945159912109375 0.8046956062316895 0.38264399766921997 60
1.8819630146026611 0.06736423820257187 -0.4943445920944214 119
2.122056245803833 0.0755874514579773 -0.48139551281929016 119
2.476120948791504 0.08776649087667465 -0.47373491525650024 119
2.9846436977386475 0.10526959598064423 -0.4669572412967682 119
3.8224599361419678 0.13415174186229706 -0.46493205428123474 119
5.185415744781494 0.1810794323682785 -0.450595885515213 119
8.197174072265625 0.2848203480243683 -0.42642274498939514 119
16.475950241088867 0.569597065448761 -0.284223735332489 119
9.310894012451172 0.3202638626098633 2.484337568283081 107
10.85271167755127 0.3714008629322052 2.496192693710327 107
12.993547439575195 0.4423940181732178 2.5173702239990234 107
16.07447052001953 0.5444820523262024 2.5384771823883057 107
21.10795021057129 0.711290180683136 2.5885047912597656 107
21.947185516357422 0.7357357144355774 1.917862057685852 60
21.950960159301758 0.7320268154144287 1.149035930633545 60
21.937843322753906 0.7277563214302063 0.38246944546699524 60
1.8821866512298584 0.06079454720020294 -0.4943445920944214 119
2.122307062149048 0.06817962974309921 -0.48139551281929016 119
2.476412296295166 0.07912268489599228 -0.47373491525650024 119
2.9849929809570312 0.09485059976577759 -0.4669572412967682 119
nan nan nan 0
5.176058769226074 0.16266492009162903 -0.44972431659698486 119
8.198118209838867 0.25620514154434204 -0.42642274498939514 119
16.387895584106445 0.509286642074585 -0.28266870975494385 119
9.311955451965332 0.28776082396507263 2.484337568283081 107
10.849072456359863 0.33336594700813293 2.4950687885284424 107
12.990106582641602 0.3968854546546936 2.5164170265197754 107
16.07133674621582 0.48821839690208435 2.53769588470459 107
21.115262985229492 0.6377551555633545 2.58911395072937 107
21.93468475341797 0.6586728096008301 1.9165548086166382 60
21.953380584716797 0.6553992033004761 1.149035930633545 60
21.93525505065918 0.6510262489318848 0.38238221406936646 60
1.8823875188827515 0.05422411859035492 -0.4943445920944214 119
2.117662191390991 0.06063154712319374 -0.4802708029747009 119
2.4766733646392822 0.0704779103398323 -0.47373491525650024 119
2.9853057861328125 0.08443045616149902 -0.4669572412967682 119
nan nan nan 0
5.18157434463501 0.1447352021932602 -0.45016011595726013 119
8.198962211608887 0.2275868058204651 -0.42642274498939514 119
nan nan nan 0
9.308075904846191 0.25512194633483887 2.483044147491455 107
10.840431213378906 0.29522836208343506 2.492821216583252 107
12.991413116455078 0.35153910517692566 2.5164170265197754 107
16.07294273376465 0.43211600184440613 2.53769588470459 107
21.117361068725586 0.564045250415802 2.58911395072937 107
21.93684959411621 0.5821024179458618 1.9165548086166382 60
21.95054054260254 0.5786319375038147 1.1487741470336914 60
21.84743881225586 0.5720983743667603 0.380811482667923 60
1.8777371644973755 0.04753081873059273 -0.4930504858493805 119
2.117861032485962 0.053239159286022186 -0.4802708029747009 119
2.4719977378845215 0.06170979514718056 -0.4727817475795746 119
2.9855825901031494 0.07400927692651749 -0.4669572412967682 119
nan nan nan 0
5.192007064819336 0.1268906444311142 -0.4510316550731659 119
8.19970703125 0.19896571338176727 -0.42642274498939514 119
16.99078941345215 0.4093139171600342 -0.2930355370044708 119
9.30890941619873 0.22262915968894958 2.483044147491455 107
10.83652400970459 0.2572707533836365 2.491697311401367 107
12.992560386657715 0.3061884939670563 2.5164170265197754 107
16.07435417175293 0.3760083317756653 2.53769588470459 107
21.124162673950195 0.4904436767101288 2.589723587036133 107
21.779399871826172 0.5018531680107117 1.902609944343567 60
21.792688369750977 0.49835383892059326 1.1404004096984863 60
21.76433563232422 0.4939049482345581 0.37932801246643066 60
1.8778915405273438 0.04097600281238556 -0.4930504858493805 119
2.1180338859558105 0.0458461195230484 -0.4802708029747009 119
2.472198009490967 0.05308053642511368 -0.4727817475795746 119
2.9858226776123047 0.06358720362186432 -0.4669572412967682 119
nan nan nan 0
5.202377796173096 0.10897501558065414 -0.45190322399139404 119
8.20035171508789 0.17034217715263367 -0.42642274498939514 119
16.997112274169922 0.3501054346561432 -0.29312193393707275 119
9.309629440307617 0.19013364613056183 2.483044147491455 107
10.83248519897461 0.21934401988983154 2.4905734062194824 107
12.993550300598145 0.26083409786224365 2.5164170265197754 107
16.0755672454834 0.3198961019515991 2.53769588470459 107
21.130706787109375 0.41680145263671875 2.5903327465057373 107
21.771059036254883 0.4256311357021332 1.9017382860183716 60
21.784311294555664 0.4220866858959198 1.1398770809173584 60
21.760929107666016 0.41783425211906433 0.3792407810688019 60
1.8731944561004639 0.034332189708948135 -0.491756409406662 119
2.118180990219116 0.038452524691820145 -0.4802708029747009 119
2.4723682403564453 0.044450629502534866 -0.4727817475795746 119
2.9860262870788574 0.053164348006248474 -0.4669572412967682 119
nan nan nan 0
5.207707405090332 0.09090159833431244 -0.4523390233516693 119
8.200896263122559 0.14171656966209412 -0.42642274498939514 119
16.983234405517578 0.29051581025123596 -0.29286274313926697 119
9.310236930847168 0.15763582289218903 2.483044147491455 107
10.828312873840332 0.18144862353801727 2.4894495010375977 107
12.989474296569824 0.21539518237113953 2.5154638290405273 107
16.07658576965332 0.2637799084186554 2.53769588470459 107
21.11714744567871 0.3427973687648773 2.5885047912597656 107
21.757471084594727 0.34939345717430115 1.9004310369491577 60
21.78066062927246 0.34596338868141174 1.1396154165267944 60
21.76225471496582 0.34187188744544983 0.3792407810688019 60
1.873302936553955 0.027793310582637787 -0.491756409406662 119
2.123173713684082 0.031129879876971245 -0.48139551281929016 119
2.4774160385131836 0.03589127957820892 -0.47373491525650024 119
2.9861936569213867 0.042740847915410995 -0.4669572412967682 119
nan nan nan 0
5.207993030548096 0.07272274792194366 -0.4523390233516693 119
8.201340675354004 0.11308923363685608 -0.42642274498939514 119
16.98914337158203 0.2312995344400406 -0.2929491698741913 119
9.31072998046875 0.12513606250286102 2.483044147491455 107
10.824007987976074 0.14358502626419067 2.488325595855713 107
12.99014663696289 0.1700521558523178 2.5154638290405273 107
16.07246971130371 0.2075967639684677 2.536914587020874 107
21.098365783691406 0.26882973313331604 2.5860674381256104 107
21.763538360595703 0.27350613474845886 1.9008667469024658 60
21.76675796508789 0.2697469890117645 1.1388304233551025 60
21.753318786621094 0.2657831907272339 0.37906622886657715 60
1.8733885288238525 0.02125409245491028 -0.491756409406662 119
2.1232693195343018 0.02371842972934246 -0.48139551281929016 119
2.4775261878967285 0.027243269607424736 -0.47373491525650024 119
2.9863247871398926 0.032316822558641434 -0.4669572412967682 119
nan nan nan 0
5.20821475982666 0.05454302206635475 -0.4523390233516693 119
8.201685905456543 0.08446052670478821 -0.42642274498939514 119
16.98484992980957 0.17194435000419617 -0.29286274313926697 119
9.311110496520996 0.09263479709625244 2.483044147491455 107
10.819572448730469 0.10575369000434875 2.487201690673828 107
12.985753059387207 0.12465992569923401 2.5145106315612793 107
16.073097229003906 0.15149210393428802 2.536914587020874 107
21.069398880004883 0.194905623793602 2.582411050796509 107
21.749418258666992 0.19739992916584015 1.899559497833252 60
21.767566680908203 0.19376517832279205 1.1388304233551025 60
21.744115829467773 0.18976107239723206 0.3788917064666748 60
1.8734513521194458 0.014714616350829601 -0.491756409406662 119
2.1233391761779785 0.016306694597005844 -0.48139551281929016 119
2.4825146198272705 0.018631761893630028 -0.4746881127357483 119
2.986419200897217 0.021892407909035683 -0.4669572412967682 119
nan nan nan 0
5.208373546600342 0.036362629383802414 -0.4523390233516693 119
8.20193099975586 0.055830784142017365 -0.42642274498939514 119
16.965349197387695 0.11252249032258987 -0.29251721501350403 119
9.311376571655273 0.06013239175081253 2.483044147491455 107
10.815003395080566 0.06795508414506912 2.4860775470733643 107
12.986108779907227 0.0793304368853569 2.5145106315612793 107
16.068592071533203 0.09535631537437439 2.536133289337158 107
21.0699520111084 0.12135850638151169 2.582411050796509 107
21.754955291748047 0.12150690704584122 1.89999520778656 60
21.75812339782715 0.11772697418928146 1.138306975364685 60
21.73464584350586 0.11380642652511597 0.37871718406677246 60
1.8734911680221558 0.008174962364137173 -0.491756409406662 119
2.1233832836151123 0.008894757367670536 -0.48139551281929016 119
2.4825644493103027 0.009966053999960423 -0.4746881127357483 119
2.9864776134490967 0.011467725969851017 -0.4669572412967682 119
3.8198249340057373 0.014000988565385342 -0.4643227159976959 119
5.208468914031982 0.01818179152905941 -0.4523390233516693 119
8.202075958251953 0.02720036543905735 -0.42642274498939514 119
nan nan nan 0
9.306699752807617 0.02761492319405079 2.481750965118408 107
10.81517505645752 0.030203264206647873 2.4860775470733643 107
12.981398582458496 0.033987123519182205 2.5135574340820312 107
16.063888549804688 0.03925381600856781 2.5353522300720215 107
21.055360794067383 0.04777613282203674 2.580583095550537 107
21.755247116088867 0.04556720331311226 1.89999520778656 60
21.75840187072754 0.04177623614668846 1.138306975364685 60
21.739910125732422 0.037946395576000214 0.378804475069046 60
1.8783379793167114 0.001639423193410039 -0.4930504858493805 119
2.123401403427124 0.0014827122213318944 -0.48139551281929016 119
2.482584238052368 0.0013002267805859447 -0.4746881127357483 119
2.986499309539795 0.001042904332280159 -0.4669572412967682 119
3.8397016525268555 0.0006706935819238424 -0.4667600989341736 119
5.208500385284424 -0.0 -0.4523390233516693 119
8.197127342224121 -0.0014306686352938414 -0.42616191506385803 119
16.9907169342041 -0.00593087961897254 -0.2929491698741913 119
9.306739807128906 -0.004872997757047415 2.481750965118408 107
10.815214157104492 -0.007550444919615984 2.4860775470733643 107
12.981438636779785 -0.011328444816172123 2.5135574340820312 107
16.05898666381836 -0.016816938295960426 2.5345706939697266 107
21.07524871826172 -0.02574828825891018 2.5830206871032715 107
nan nan nan 0
nan nan nan 0
nan nan nan 0
1.878332257270813 -0.004917473066598177 -0.4930504858493805 119
2.1185219287872314 -0.005916044116020203 -0.4802708029747009 119
2.4825735092163086 -0.007365965750068426 -0.4746881127357483 119
2.9864847660064697 -0.00938234943896532 -0.4669572412967682 119
3.8247923851013184 -0.012683537788689137 -0.46493205428123474 119
5.208468914031982 -0.018181057646870613 -0.4523390233516693 119
8.19707202911377 -0.03004397265613079 -0.42616191506385803 119
19.540193557739258 -0.07502932846546173 -0.33700814843177795 119
9.306666374206543 -0.03735955432057381 2.481750965118408 107
10.815122604370117 -0.04530254006385803 2.4860775470733643 107
12.981319427490234 -0.05664205178618431 2.5135574340820312 107
16.053892135620117 -0.07285075634717941 2.5337893962860107 107
21.08991813659668 -0.09938463568687439 2.584848642349243 107
23.18455696105957 -0.11330202221870422 2.0250635147094727 80
22.676891326904297 -0.1147790402173996 1.1864560842514038 80
24.33421516418457 -0.12741480767726898 0.42409345507621765 80
1.8783035278320312 -0.011474045924842358 -0.4930504858493805 119
2.118488311767578 -0.01331102941185236 -0.4802708029747009 119
2.4776241779327393 -0.016000021249055862 -0.47373491525650024 119
2.986433982849121 -0.01980706863105297 -0.4669572412967682 119
3.8445751667022705 -0.02616959623992443 -0.4673694372177124 119
5.208373546600342 -0.03636189550161362 -0.4523390233516693 119
8.196917533874512 -0.05865691229701042 -0.42616191506385803 119
19.554811477661133 -0.14334683120250702 -0.33726733922958374 119
9.301651000976562 -0.06980940699577332 2.4804577827453613 107
10.819769859313965 -0.08309150487184525 2.487201690673828 107
12.97613525390625 -0.10191641747951508 2.512604236602783 107
16.048601150512695 -0.12884919345378876 2.533008098602295 107
21.079517364501953 -0.17292015254497528 2.583629846572876 107
24.65335464477539 -0.2065402865409851 2.153618335723877 80
24.36397361755371 -0.20836853981018066 1.2749037742614746 80
25.408418655395508 -0.2217359095811844 0.44285479187965393 80
1.8830814361572266 -0.018076838925480843 -0.4943445920944214 119
2.118428945541382 -0.020705852657556534 -0.4802708029747009 119
2.4726455211639404 -0.024599621072411537 -0.4727817475795746 119
2.9665935039520264 -0.030031586065888405 -0.46382856369018555 119
3.839498281478882 -0.03953840583562851 -0.4667600989341736 119
5.213195323944092 -0.05459444597363472 -0.4527747631072998 119
8.201656341552734 -0.08732229471206665 -0.42642274498939514 119
19.534196853637695 -0.21138858795166016 -0.3369217813014984 119
9.301350593566895 -0.10227780789136887 2.4804577827453613 107
10.819414138793945 -0.1208590492606163 2.487201690673828 107
12.975699424743652 -0.147210955619812 2.512604236602783 107
16.04311752319336 -0.18481162190437317 2.532226800918579 107
21.06886100769043 -0.24638429284095764 2.582411050796509 107
26.6347713470459 -0.3161226809024811 2.3270583152770996 80
26.759634017944336 -0.3222757577896118 1.4005101919174194 80
27.90192222595215 -0.34090322256088257 0.48639851808547974 80
1.873348593711853 -0.024523476138710976 -0.491756409406662 119
2.1183435916900635 -0.028100421652197838 -0.4802708029747009 119
2.46272873878479 -0.03309869393706322 -0.4708753526210785 119
2.986222743988037 -0.04065566137433052 -0.4669572412967682 119
3.8591856956481934 -0.053214214742183685 -0.46919748187065125 119
5.217953681945801 -0.07286110520362854 -0.4532105624675751 119
8.201300621032715 -0.11595088243484497 -0.42642274498939514 119
19.568328857421875 -0.28007516264915466 -0.33752650022506714 119
9.300936698913574 -0.13474495708942413 2.4804577827453613 107
10.818926811218262 -0.15862511098384857 2.487201690673828 107
12.975107192993164 -0.19250370562076569 2.512604236602783 107
16.042373657226562 -0.24081140756607056 2.532226800918579 107
21.05794906616211 -0.31977614760398865 2.5811927318573 107
28.441387176513672 -0.4368627071380615 2.485245943069458 80
nan nan nan 0
30.304899215698242 -0.4760674238204956 0.5283715724945068 80
1.8732515573501587 -0.03106253407895565 -0.491756409406662 119
2.1182327270507812 -0.03549464792013168 -0.4802708029747009 119
2.457690715789795 -0.0416119247674942 -0.46992215514183044 119
2.98606276512146 -0.05107927322387695 -0.4669572412967682 119
3.8689005374908447 -0.06685645133256912 -0.47041618824005127 119
5.222647666931152 -0.09116164594888687 -0.45364633202552795 119
8.200846672058105 -0.14457805454730988 -0.42642274498939514 119
19.537242889404297 -0.3478457033634186 -0.33700814843177795 119
9.29557991027832 -0.16712363064289093 2.4791646003723145 107
10.813435554504395 -0.19630080461502075 2.4860775470733643 107
12.974355697631836 -0.23779410123825073 2.512604236602783 107
16.036497116088867 -0.2967168986797333 2.531445264816284 107
21.041818618774414 -0.39300215244293213 2.579364538192749 107
30.391881942749023 -0.5729413032531738 2.656071186065674 107
nan nan nan 0
32.407344818115234 -0.6222528219223022 0.5651088953018188 80
1.863480806350708 -0.037082113325595856 -0.4891682267189026 119
2.1132397651672363 -0.04205216094851494 -0.47914600372314453 119
2.4379184246063232 -0.048938728868961334 -0.46610939502716064 119
2.9908249378204346 -0.06055997312068939 -0.46773943305015564 119
3.868671178817749 -0.07901061326265335 -0.47041618824005127 119
5.242255210876465 -0.10797891020774841 -0.45538946986198425 119
8.205343246459961 -0.17044471204280853 -0.4266835153102875 119
