# .PCD v0.7 - Point Cloud Data file format
VERSION 0.7
FIELDS x y z intensity
SIZE 4 4 4 4
TYPE F F F F
COUNT 1 1 1 1
WIDTH 861
HEIGHT 1
VIEWPOINT 0 0 0 1 0 0 0
POINTS 861
DATA ascii
-6.164764881134033 -0.5556140542030334 0.5381866693496704 11
-6.149998188018799 -0.5532010793685913 0.3216044306755066 11
-6.227258682250977 -0.5590551495552063 0.10846669971942902 11
-1.8806110620498657 -0.16684770584106445 -0.4956386983394623 119
-2.153949737548828 -0.19071942567825317 -0.49039360880851746 119
-2.5609540939331055 -0.2263067662715912 -0.4918454885482788 119
-3.1176135540008545 -0.2749493420124054 -0.4896402657032013 119
-4.0226593017578125 -0.3540598154067993 -0.49113398790359497 119
-5.466385841369629 -0.48016995191574097 -0.47674262523651123 119
-6.131396293640137 -0.5375064611434937 -0.31949102878570557 11
-6.283312797546387 -0.5497190952301025 -0.10833331197500229 11
-6.1102800369262695 -0.5335060358047485 1.6320843696594238 11
-6.04207706451416 -0.5264885425567627 1.390270471572876 11
-6.037949562072754 -0.5250670313835144 1.1695619821548462 11
nan nan nan 0
-6.000838279724121 -0.5197293162345886 0.7348721027374268 16
-6.305709362030029 -0.5450252890586853 0.550388514995575 11
-6.296249866485596 -0.5431005358695984 0.3291931450366974 11
-6.368729114532471 -0.5482326149940491 0.11091003566980362 11
-1.8811819553375244 -0.16028214991092682 -0.4956386983394623 119
-2.154602527618408 -0.18319958448410034 -0.49039360880851746 119
-2.5666191577911377 -0.2177809774875641 -0.49279871582984924 119
-3.1234753131866455 -0.26448187232017517 -0.49042245745658875 119
-4.023870468139648 -0.3400159478187561 -0.49113398790359497 119
-5.468028545379639 -0.46108579635620117 -0.47674262523651123 119
-6.287479400634766 -0.5290799140930176 -0.3275761008262634 11
-6.434645652770996 -0.5403327345848083 -0.11092501878738403 11
-6.367193698883057 -0.5335495471954346 1.7006267309188843 11
nan nan nan 0
nan nan nan 0
-6.49026346206665 -0.5404403209686279 1.024297833442688 16
nan nan nan 0
-6.461455345153809 -0.5357704162597656 0.5638976693153381 11
-6.442415237426758 -0.5330595970153809 0.3367818593978882 11
-6.525055408477783 -0.5387440919876099 0.11361515522003174 11
-1.88654363155365 -0.15410782396793365 -0.4969327747821808 119
-2.155228853225708 -0.17567749321460724 -0.49039360880851746 119
-2.567363739013672 -0.20882046222686768 -0.49279871582984924 119
-3.144068479537964 -0.25517526268959045 -0.4935511350631714 119
-4.029979705810547 -0.3263685703277588 -0.4917433559894562 119
-5.469604969024658 -0.4419960081577301 -0.47674262523651123 119
-6.4385986328125 -0.5191687941551208 -0.33540037274360657 11
-6.590969562530518 -0.5302972793579102 -0.11360310763120651 11
-6.503818988800049 -0.5221428275108337 1.7368377447128296 11
-6.50697135925293 -0.5212529301643372 1.4970413446426392 16
-6.516059875488281 -0.5208364129066467 1.2620213031768799 16
-6.5068793296813965 -0.5189597010612488 1.0266417264938354 16
-6.499029636383057 -0.5171921849250793 0.7958067655563354 16
-6.622176647186279 -0.5258291363716125 0.5778425335884094 11
-6.608495712280273 -0.5235821604728699 0.3454172909259796 11
-6.676406383514404 -0.5277900099754333 0.11623302102088928 11
-1.8870700597763062 -0.14752162992954254 -0.4969327747821808 119
-2.1558289527893066 -0.16815327107906342 -0.49039360880851746 119
-2.5680770874023438 -0.1998574286699295 -0.49279871582984924 119
-3.1350927352905273 -0.24343423545360565 -0.49198681116104126 119
-4.031094074249268 -0.31229934096336365 -0.4917433559894562 119
-5.471114158630371 -0.42290082573890686 -0.47674262523651123 119
-6.5996809005737305 -0.508976936340332 -0.34374624490737915 11
-6.74730110168457 -0.5191770195960999 -0.11628121137619019 11
-6.678966999053955 -0.5127463340759277 1.7833948135375977 11
-6.528182506561279 -0.5000244975090027 1.5015369653701782 16
-6.512944221496582 -0.49771395325660706 1.2610681056976318 16
-6.597288131713867 -0.50300133228302 1.0407053232192993 16
-6.510692596435547 -0.4952560365200043 0.7970255017280579 16
-6.782906532287598 -0.5147721767425537 0.5917875170707703 11
-6.744712829589844 -0.5106896758079529 0.3524826467037201 11
-6.8476996421813965 -0.5172854661941528 0.11919993162155151 11
-1.8875735998153687 -0.14093361794948578 -0.4969327747821808 119
-2.1612608432769775 -0.16098886728286743 -0.4915183484554291 119
-2.563864231109619 -0.19052819907665253 -0.4918454885482788 119
-3.1260735988616943 -0.2317589968442917 -0.49042245745658875 119
-4.027210712432861 -0.2978602349758148 -0.49113398790359497 119
-5.472557067871094 -0.40380048751831055 -0.47674262523651123 119
-6.750809192657471 -0.4969334900379181 -0.3515705168247223 11
-6.913604259490967 -0.5077038407325745 -0.11913208663463593 11
-6.844492435455322 -0.5014275312423706 1.8273653984069824 11
-6.563901901245117 -0.47971972823143005 1.5094043016433716 16
-6.730035781860352 -0.4906806945800781 1.3030084371566772 16
-6.9339423179626465 -0.5043306946754456 1.0938345193862915 16
-6.665822505950928 -0.4836598336696625 0.8159152269363403 16
-6.948605060577393 -0.5029588937759399 0.6061682105064392 11
-6.930721759796143 -0.5004485249519348 0.36216482520103455 11
-7.023984432220459 -0.5059504508972168 0.12225409597158432 11
-1.8880540132522583 -0.13434389233589172 -0.4969327747821808 119
-2.1618096828460693 -0.15344369411468506 -0.4915183484554291 119
-2.5547215938568115 -0.18088416755199432 -0.4899391233921051 119
-3.1219372749328613 -0.22049762308597565 -0.4896402657032013 119
-4.04307746887207 -0.2848471701145172 -0.4929620623588562 119
-5.473933219909668 -0.38469526171684265 -0.47674262523651123 119
-6.931817531585693 -0.48593613505363464 -0.3609596788883209 11
-7.104842662811279 -0.49681952595710754 -0.12241490930318832 11
-7.010017395019531 -0.4889591932296753 1.8713359832763672 11
-6.866874694824219 -0.47777044773101807 1.579086422920227 16
-7.010808944702148 -0.4865553081035614 1.3573400974273682 16
-7.113024711608887 -0.49240177869796753 1.1219615936279297 16
-6.905115604400635 -0.47679823637008667 0.845163881778717 16
-7.13417911529541 -0.4913639724254608 0.6222919821739197 11
-7.106775283813477 -0.4882303476333618 0.3713235855102539 11
-7.205258846282959 -0.49373266100883484 0.1253955364227295 11
-1.8885114192962646 -0.12775254249572754 -0.4969327747821808 119
-2.1671931743621826 -0.14622461795806885 -0.4926431179046631 119
-2.525954246520996 -0.16998803615570068 -0.4842199981212616 119
-3.0931236743927 -0.20761430263519287 -0.48494723439216614 119
-3.994530439376831 -0.2674175202846527 -0.48686856031417847 119
-5.470273017883301 -0.3652534484863281 -0.47630685567855835 119
-7.122793197631836 -0.47434455156326294 -0.3708703815937042 11
-7.291099548339844 -0.48427483439445496 -0.1256113499403 11
-7.214091777801514 -0.4778952896595001 1.9256525039672852 11
-7.101850509643555 -0.4692149758338928 1.6330338716506958 16
-7.178986072540283 -0.47305288910865784 1.3897485733032227 16
-7.306890487670898 -0.4802002012729645 1.1524327993392944 16
-7.070157527923584 -0.4634031057357788 0.8652722835540771 16
-7.215376853942871 -0.47165653109550476 0.6292644739151001 11
-7.297774314880371 -0.47576361894607544 0.3812674283981323 11
-7.416464328765869 -0.482201486825943 0.1290605366230011 11
-1.88412606716156 -0.12085048109292984 -0.4956386983394623 119
-2.1676905155181885 -0.138658806681633 -0.4926431179046631 119
-2.541226863861084 -0.1621071696281433 -0.48707953095436096 119
-3.1234004497528076 -0.19869719445705414 -0.4896402657032013 119
-4.025156497955322 -0.25535762310028076 -0.49052467942237854 119
-5.4715142250061035 -0.34615641832351685 -0.47630685567855835 119
-7.303804397583008 -0.4607967138290405 -0.38025954365730286 119
-7.487331390380859 -0.471063494682312 -0.12898056209087372 11
-7.394070625305176 -0.4639003872871399 1.9735028743743896 11
-7.278495788574219 -0.45537397265434265 1.6734944581985474 16
-7.356949329376221 -0.4589933156967163 1.4240633249282837 16
-7.515542030334473 -0.4675709903240204 1.185247778892517 16
-7.245093822479248 -0.4494759440422058 0.8865994215011597 16
-7.3462371826171875 -0.4544636607170105 0.6405947208404541 11
-7.513688087463379 -0.46350640058517456 0.39251965284347534 11
-7.627674102783203 -0.4692016541957855 0.1327255517244339 11
-1.8845365047454834 -0.11427291482686996 -0.4956386983394623 119
-2.168161153793335 -0.13109131157398224 -0.4926431179046631 119
-2.5270793437957764 -0.1523495465517044 -0.4842199981212616 119
-3.129004716873169 -0.18808960914611816 -0.49042245745658875 119
-4.055746078491211 -0.24308715760707855 -0.49418073892593384 119
-5.472689628601074 -0.3270551562309265 -0.47630685567855835 119
-7.499757289886475 -0.44688180088996887 -0.39043107628822327 119
-7.703519821166992 -0.45767396688461304 -0.13269534707069397 11
-7.612608432769775 -0.45093944668769836 2.0316994190216064 11
-7.30922269821167 -0.43168798089027405 1.680237889289856 16
-7.53980016708374 -0.44398555159568787 1.4593312740325928 16
-7.704472064971924 -0.452333003282547 1.2149375677108765 16
-7.514148235321045 -0.4398430585861206 0.9195041060447693 16
-7.467119216918945 -0.43578246235847473 0.6510533690452576 11
-7.724618434906006 -0.44945740699768066 0.4035102128982544 11
-7.833890438079834 -0.4544435441493988 0.13630329072475433 11
-1.8801021575927734 -0.1074184775352478 -0.4943445920944214 119
-2.1686055660247803 -0.12352221459150314 -0.4926431179046631 119
-2.5618984699249268 -0.14547531306743622 -0.49089235067367554 119
-3.134572744369507 -0.17744530737400055 -0.4912046194076538 119
nan nan nan 0
-5.468824863433838 -0.30767014622688293 -0.47587108612060547 119
-7.7305989265441895 -0.4335615634918213 -0.4024282693862915 119
-7.949651718139648 -0.4444551169872284 -0.13692845404148102 11
-7.831141948699951 -0.4364583194255829 2.089895725250244 11
-7.870108127593994 -0.4372521936893463 1.809486985206604 16
-7.654022216796875 -0.42390674352645874 1.4812546968460083 16
-7.947625637054443 -0.4387761950492859 1.2532217502593994 16
-7.748533725738525 -0.4264281392097473 0.9481434226036072 16
-7.697375297546387 -0.4222652316093445 0.6710991859436035 11
-7.9654541015625 -0.4355771839618683 0.4160708487033844 11
-8.06505298614502 -0.4396117627620697 0.14031733572483063 11
-1.8804656267166138 -0.1008550375699997 -0.4943445920944214 119
-2.1690235137939453 -0.11595162004232407 -0.4926431179046631 119
-2.586897373199463 -0.1378375142812729 -0.4956582486629486 119
-3.1401045322418213 -0.16676442325115204 -0.49198681116104126 119
nan nan nan 0
-5.469865798950195 -0.28857851028442383 -0.47587108612060547 119
-7.996339321136475 -0.42047038674354553 -0.41625118255615234 119
-8.180806159973145 -0.42873844504356384 -0.14090241491794586 11
-8.035195350646973 -0.41970106959342957 2.144212245941162 11
-8.090532302856445 -0.4211755394935608 1.860062599182129 11
-7.8662285804748535 -0.40812215209007263 1.5222417116165161 16
-8.057612419128418 -0.4166416525840759 1.2704106569290161 16
-7.992826461791992 -0.41189292073249817 0.9780014157295227 16
-8.091782569885254 -0.41557636857032776 0.7055257558822632 0
-8.191324234008789 -0.41925522685050964 0.42784643173217773 11
-8.34113883972168 -0.42546358704566956 0.14511674642562866 11
-1.8808062076568604 -0.09429037570953369 -0.4943445920944214 119
-2.1645491123199463 -0.10813651233911514 -0.4915183484554291 119
-2.582460641860962 -0.12856268882751465 -0.49470508098602295 119
-3.135735273361206 -0.15555772185325623 -0.4912046194076538 119
nan nan nan 0
-5.465864658355713 -0.26923832297325134 -0.4754353165626526 119
-8.242130279541016 -0.4045499563217163 -0.42903077602386475 11
-8.431917190551758 -0.4123901426792145 -0.14522191882133484 11
-8.316411018371582 -0.4052859842777252 2.2192208766937256 11
-8.335268020629883 -0.4047467112541199 1.9162578582763672 11
-8.284323692321777 -0.4008236825466156 1.6032626628875732 11
-8.56710147857666 -0.4130066931247711 1.3508855104446411 11
-8.078485488891602 -0.3880380094051361 0.9883602857589722 0
-8.466329574584961 -0.4051865041255951 0.7382091879844666 11
-8.501961708068848 -0.40540453791618347 0.4440705478191376 11
-8.652177810668945 -0.4110538959503174 0.1505270004272461 11
-1.8811239004135132 -0.08772455900907516 -0.4943445920944214 119
-2.1649134159088135 -0.10058016330003738 -0.4915183484554291 119
-2.573087453842163 -0.11909355968236923 -0.49279871582984924 119
-3.136259078979492 -0.14461101591587067 -0.4912046194076538 119
-4.02404260635376 -0.18484234809875488 -0.48991531133651733 119
-5.466771125793457 -0.2501572370529175 -0.4754353165626526 119
-8.542773246765137 -0.3894197344779968 -0.4446793496608734 11
-8.702986717224121 -0.3952009081840515 -0.14988699555397034 11
-8.583146095275879 -0.38825783133506775 2.2903497219085693 32
-8.614055633544922 -0.38814952969551086 1.9803204536437988 11
-8.677940368652344 -0.3895105719566345 1.6795177459716797 11
-8.711566925048828 -0.38949641585350037 1.373543620109558 11
-8.610276222229004 -0.3834618628025055 1.0535603761672974 11
-8.721470832824707 -0.3868888020515442 0.7604337930679321 11
-8.707843780517578 -0.3847614824771881 0.45479944348335266 11
-8.718485832214355 -0.38370710611343384 0.15166139602661133 11
-1.8862438201904297 -0.08136581629514694 -0.4956386983394623 119
-2.1652512550354004 -0.09302259236574173 -0.4915183484554291 119
-2.5685837268829346 -0.10990126430988312 -0.4918454885482788 119
-3.1318109035491943 -0.13345231115818024 -0.49042245745658875 119
-4.034579277038574 -0.1712155044078827 -0.49113398790359497 119
-5.467610836029053 -0.23107312619686127 -0.4754353165626526 119
-8.723676681518555 -0.3671562373638153 -0.45406848192214966 119
-8.739276885986328 -0.36628487706184387 -0.15049172937870026 11
-8.820905685424805 -0.3681638836860657 2.3537189960479736 32
-8.873353958129883 -0.3688015639781952 2.0398874282836914 11
-8.728289604187012 -0.361246258020401 1.6890496015548706 11
nan nan nan 0
-8.715692520141602 -0.3576774299144745 1.0663567781448364 11
-8.782490730285645 -0.3588832914829254 0.765663206577301 11
-8.754034996032715 -0.3561900556087494 0.4571545422077179 11
nan nan nan 0
-1.8865163326263428 -0.07478110492229462 -0.4956386983394623 119
-2.165562629699707 -0.08546389639377594 -0.4915183484554291 119
-2.56404709815979 -0.10074186325073242 -0.49089235067367554 119
-3.1322576999664307 -0.12251942604780197 -0.49042245745658875 119
-4.040111064910889 -0.15732426941394806 -0.4917433559894562 119
-5.468384265899658 -0.21198619902133942 -0.4754353165626526 119
-8.804736137390137 -0.3397834599018097 -0.45824143290519714 119
-9.674674034118652 -0.3716641664505005 -0.16664668917655945 11
-9.106890678405762 -0.3482602834701538 2.430020809173584 32
-9.229989051818848 -0.3513544201850891 2.1219325065612793 11
nan nan nan 0
-9.666543006896973 -0.364593505859375 1.5243364572525024 11
nan nan nan 0
-9.67963981628418 -0.36170387268066406 0.8441033363342285 11
-9.67332935333252 -0.35977739095687866 0.5053036212921143 11
-9.670158386230469 -0.35796937346458435 0.16824118793010712 11
-1.8915923833847046 -0.06836992502212524 -0.4969327747821808 119
-2.1658477783203125 -0.07790414243936539 -0.4915183484554291 119
-2.5643832683563232 -0.0917910635471344 -0.49089235067367554 119
-3.1326661109924316 -0.11158506572246552 -0.49042245745658875 119
nan nan nan 0
-5.469090938568115 -0.19289667904376984 -0.4754353165626526 119
-8.830819129943848 -0.3099227845668793 -0.45954543352127075 119
-9.675912857055664 -0.33789098262786865 -0.16664668917655945 11
-9.146665573120117 -0.31781092286109924 2.4403669834136963 32
-9.596344947814941 -0.33175861835479736 2.2062253952026367 11
-9.682246208190918 -0.3330364525318146 1.873968243598938 11
-9.677626609802246 -0.33118653297424316 1.525899052619934 11
-9.670269012451172 -0.329245001077652 1.1833512783050537 11
-9.685822486877441 -0.32808205485343933 0.8445391058921814 11
-9.684507369995117 -0.3263453245162964 0.505827009677887 11
-9.676344871520996 -0.324379563331604 0.1683284491300583 11
-1.8918194770812988 -0.061766624450683594 -0.4969327747821808 119
-2.166106700897217 -0.07034345716238022 -0.4915183484554291 119
-2.569593667984009 -0.08299758285284042 -0.4918454885482788 119
-3.1330366134643555 -0.10064934194087982 -0.49042245745658875 119
nan nan nan 0
-5.469730854034424 -0.17380480468273163 -0.4754353165626526 119
-8.896726608276367 -0.281145840883255 -0.4629359841346741 119
-9.736993789672852 -0.3059980571269989 -0.16768337786197662 11
-9.133237838745117 -0.28542861342430115 2.4364871978759766 32
-9.933452606201172 -0.30870121717453003 2.2837748527526855 32
-10.100357055664062 -0.312123566865921 1.9549893140792847 11
-10.221711158752441 -0.3140879273414612 1.611843228340149 11
-9.691201210021973 -0.2960936725139618 1.185788631439209 11
-9.826311111450195 -0.298505038022995 0.8567409515380859 11
-9.76544189453125 -0.2949499785900116 0.5100138783454895 11
-10.302042007446289 -0.30935749411582947 0.17923620343208313 11
-1.8920235633850098 -0.05516256019473076 -0.4969327747821808 119
-2.1614694595336914 -0.06264077872037888 -0.49039360880851746 119
-2.5747742652893066 -0.0741688534617424 -0.49279871582984924 119
-3.133368968963623 -0.08971238881349564 -0.49042245745658875 119
nan nan nan 0
-5.470304489135742 -0.1547108143568039 -0.4754353165626526 119
-8.89266300201416 -0.24994845688343048 -0.46267518401145935 119
-10.492596626281738 -0.2930854856967926 -0.18072830140590668 11
-9.139006614685059 -0.25367990136146545 2.4377806186676025 32
-10.34356689453125 -0.2853093445301056 2.378182888031006 32
-10.425210952758789 -0.2857404351234436 2.017899751663208 11
-10.721357345581055 -0.29198476672172546 1.6907556056976318 11
-10.307329177856445 -0.2789088487625122 1.2613476514816284 11
-10.56919002532959 -0.28414857387542725 0.921671986579895 11
-10.475186347961426 -0.2797917425632477 0.5471724271774292 11
-10.8128023147583 -0.286920964717865 0.18813693523406982 11
-1.8922045230865479 -0.0485578328371048 -0.4969327747821808 119
-2.161674976348877 -0.05509546026587486 -0.49039360880851746 119
-2.5799241065979004 -0.0653049647808075 -0.4937518835067749 119
-3.128726005554199 -0.07865023612976074 -0.4896402657032013 119
nan nan nan 0
-5.470811367034912 -0.13561496138572693 -0.4754353165626526 119
-8.89348030090332 -0.2189057469367981 -0.46267518401145935 119
-10.993331909179688 -0.26867201924324036 -0.18936732411384583 11
-9.130179405212402 -0.22154295444488525 2.4351940155029297 32
-10.612384796142578 -0.2556552290916443 2.439997673034668 32
-10.867765426635742 -0.2599095404148102 2.103686571121216 11
-11.166658401489258 -0.2651076912879944 1.7610734701156616 11
-10.799413681030273 -0.2545030415058136 1.3216729164123535 11
-10.993385314941406 -0.2571544647216797 0.958713173866272 11
-11.005228996276855 -0.25550973415374756 0.5749104619026184 11
-11.268548011779785 -0.2596554160118103 0.19607777893543243 11
-1.8923625946044922 -0.04195250943303108 -0.4969327747821808 119
-2.1618540287017822 -0.047549471259117126 -0.49039360880851746 119
-2.580136299133301 -0.05629895627498627 -0.4937518835067749 119
-3.1191067695617676 -0.06751472502946854 -0.4880759119987488 119
nan nan nan 0
-5.46627140045166 -0.11641138046979904 -0.4749995172023773 119
-8.889198303222656 -0.18775491416454315 -0.46241435408592224 119
-11.479022979736328 -0.24045208096504211 -0.1977471560239792 11
-9.130897521972656 -0.1896713227033615 2.4351940155029297 32
-10.632696151733398 -0.2190108746290207 2.444493293762207 32
-11.315169334411621 -0.2310926616191864 2.1904265880584717 11
-11.646459579467773 -0.23582513630390167 1.8368606567382812 11
-11.236868858337402 -0.22556950151920319 1.3752955198287964 11
-11.457353591918945 -0.22799503803253174 0.9992406368255615 11
-11.480310440063477 -0.22644738852977753 0.5997700691223145 11
-11.779210090637207 -0.23028646409511566 0.20497851073741913 11
-1.8876686096191406 -0.035256486386060715 -0.4956386983394623 119
-2.1620068550109863 -0.04000290110707283 -0.49039360880851746 119
-2.570502281188965 -0.0471123643219471 -0.4918454885482788 119
-3.109448194503784 -0.05644733086228371 -0.48651158809661865 119
nan nan nan 0
-5.466644287109375 -0.09732982516288757 -0.4749995172023773 119
-8.874822616577148 -0.15646064281463623 -0.4616319239139557 119
-11.949651718139648 -0.2085827738046646 -0.20586784183979034 11
-9.126673698425293 -0.15771393477916718 2.4339005947113037 32
-10.638267517089844 -0.18197783827781677 2.445617198944092 32
-11.855742454528809 -0.20073409378528595 2.2952773571014404 32
-12.195316314697266 -0.2043544501066208 1.9235860109329224 11
-11.723868370056152 -0.19440771639347076 1.435011386871338 11
-11.990972518920898 -0.19674353301525116 1.0458688735961914 11
-11.990264892578125 -0.19463863968849182 0.6264613270759583 11
-12.299795150756836 -0.19751600921154022 0.21405375003814697 11
-1.8877803087234497 -0.028667079284787178 -0.4956386983394623 119
-2.16213321685791 -0.032455846667289734 -0.49039360880851746 119
-2.570651054382324 -0.03813935071229935 -0.4918454885482788 119
-3.0849368572235107 -0.04523099213838577 -0.48260071873664856 119
nan nan nan 0
-5.471931457519531 -0.07831836491823196 -0.4754353165626526 119
-8.860336303710938 -0.12526902556419373 -0.4608495235443115 119
-12.515167236328125 -0.17475692927837372 -0.2156299352645874 11
-9.127168655395508 -0.12585493922233582 2.4339005947113037 32
-10.643709182739258 -0.14490856230258942 2.4467411041259766 32
-12.381512641906738 -0.16640646755695343 2.397268533706665 32
-12.832976341247559 -0.17023392021656036 2.0243752002716064 11
-12.250480651855469 -0.1603684276342392 1.499602198600769 11
-12.604195594787598 -0.16279861330986023 1.0994696617126465 11
-12.575021743774414 -0.1602267026901245 0.6570779085159302 11
-12.785298347473145 -0.16067415475845337 0.2225181758403778 11
-1.8878687620162964 -0.022077320143580437 -0.4956386983394623 119
-2.162233352661133 -0.024908393621444702 -0.49039360880851746 119
-2.5609524250030518 -0.029054507613182068 -0.4899391233921051 119
-3.0801377296447754 -0.0344071164727211 -0.4818185567855835 119
nan nan nan 0
-5.472171306610107 -0.05921728536486626 -0.4754353165626526 119
-8.84574031829834 -0.09418043494224548 -0.4600670635700226 119
-12.810640335083008 -0.13415852189064026 -0.22072695195674896 11
-9.127552032470703 -0.09399441629648209 2.4339005947113037 32
-10.634406089782715 -0.10765556246042252 2.444493293762207 32
-12.67159366607666 -0.12606683373451233 2.4535067081451416 32
-13.500168800354004 -0.13195368647575378 2.129852056503296 11
-12.786914825439453 -0.12275023013353348 1.5654115676879883 11
-12.838781356811523 -0.12100715190172195 1.1199512481689453 11
-12.855109214782715 -0.11891721189022064 0.6717320084571838 11
nan nan nan 0
-1.8879344463348389 -0.01548729557543993 -0.4956386983394623 119
-2.1623072624206543 -0.017360638827085495 -0.49039360880851746 119
-2.5610382556915283 -0.020114939659833908 -0.4899391233921051 119
-3.1049306392669678 -0.023844841867685318 -0.4857294261455536 119
-4.062910079956055 -0.03049265593290329 -0.49418073892593384 119
-5.477325439453125 -0.04015199840068817 -0.47587108612060547 119
-8.826044082641602 -0.06315954029560089 -0.4590238630771637 119
-13.705876350402832 -0.09568758308887482 -0.2361908107995987 119
-9.122995376586914 -0.06209985911846161 2.432607412338257 32
-10.62984561920166 -0.07050158083438873 2.4433693885803223 32
-12.671956062316895 -0.08183394372463226 2.4535067081451416 32
-14.19687271118164 -0.08920375257730484 2.2400166988372803 11
-13.715279579162598 -0.08378387987613678 1.6793594360351562 11
-14.029558181762695 -0.08325503021478653 1.2241023778915405 11
-13.879024505615234 -0.07993929833173752 0.725376307964325 11
nan nan nan 0
-1.8879770040512085 -0.008897079154849052 -0.4956386983394623 119
-2.1623547077178955 -0.009812673553824425 -0.49039360880851746 119
-2.570909261703491 -0.01121796015650034 -0.4918454885482788 119
-3.119809865951538 -0.01306852512061596 -0.4880759119987488 119
-4.053066730499268 -0.01627042330801487 -0.4929620623588562 119
-5.4774322509765625 -0.021032318472862244 -0.47587108612060547 119
-8.851176261901855 -0.03244201838970184 -0.4603278934955597 119
-14.356025695800781 -0.050113189965486526 -0.2474215179681778 119
-9.123157501220703 -0.030254283919930458 2.432607412338257 32
-10.625154495239258 -0.03338076174259186 2.4422454833984375 32
-12.657439231872559 -0.037556376308202744 2.4506471157073975 32
-14.89343547821045 -0.04159146919846535 2.3501815795898438 32
-14.325902938842773 -0.03750621899962425 1.754309058189392 11
-14.40831470489502 -0.03520723432302475 1.2572215795516968 11
-14.358560562133789 -0.03257960453629494 0.750497579574585 11
nan nan nan 0
-1.8879964351654053 -0.0023067565634846687 -0.4956386983394623 119
-2.1672472953796387 -0.002269688993692398 -0.4915183484554291 119
-2.575841188430786 -0.0022480268962681293 -0.49279871582984924 119
-3.1346521377563477 -0.002188620390370488 -0.49042245745658875 119
nan nan nan 0
-5.477472305297852 -0.0019123833626508713 -0.47587108612060547 119
-8.851235389709473 -0.0015454534441232681 -0.4603278934955597 119
-15.345964431762695 -1.0775946748253773e-06 -0.2645267844200134 119
-9.123207092285156 0.0015916592674329877 2.432607412338257 32
-10.620333671569824 0.0037064501084387302 2.4411215782165527 32
-12.637860298156738 0.006616280879825354 2.4468343257904053 32
-15.54044246673584 0.01084818597882986 2.45253324508667 32
-15.090206146240234 0.01316763274371624 1.8481485843658447 11
-15.459335327148438 0.016187896952033043 1.3491709232330322 11
-15.387173652648926 0.01879790797829628 0.8044036030769348 11
-15.965807914733887 0.022291366010904312 0.2780168056488037 11
-1.8879930973052979 0.004283595364540815 -0.4956386983394623 119
-2.1672420501708984 0.005295429844409227 -0.4915183484554291 119
-2.575833320617676 0.006743350066244602 -0.49279871582984924 119
-3.1395790576934814 0.008767160587012768 -0.4912046194076538 119
nan nan nan 0
-5.477445602416992 0.01720757596194744 -0.47587108612060547 119
-8.861173629760742 0.029384249821305275 -0.4608495235443115 119
-16.205738067626953 0.05656779184937477 -0.27938589453697205 119
-9.118315696716309 0.033419881016016006 2.43131422996521 32
-10.620256423950195 0.04077830910682678 2.4411215782165527 32
-12.642668724060059 0.050750311464071274 2.4477875232696533 32
nan nan nan 0
-15.953574180603027 0.06960991770029068 1.9541748762130737 11
-16.500198364257812 0.0748748779296875 1.4402486085891724 11
-16.36566162109375 0.07712078094482422 0.8556928634643555 11
-16.95547103881836 0.08285953104496002 0.29529470205307007 11
-1.8879666328430176 0.010873894207179546 -0.4956386983394623 119
-2.162338972091675 0.01283157616853714 -0.49039360880851746 119
-2.580702304840088 0.01576462760567665 -0.4937518835067749 119
-3.1494057178497314 0.019788339734077454 -0.49276894330978394 119
nan nan nan 0
-5.472371578216553 0.03629428893327713 -0.4754353165626526 119
-8.861017227172852 0.060315340757369995 -0.4608495235443115 119
-17.265256881713867 0.1205349788069725 -0.2977006137371063 119
-9.118143081665039 0.0652485340833664 2.43131422996521 32
-10.615178108215332 0.07781396806240082 2.439997673034668 32
-12.647322654724121 0.09491797536611557 2.4487407207489014 32
-15.604186058044434 0.11983280628919601 2.4626901149749756 32
-16.93582534790039 0.1330152004957199 2.0748255252838135 11
-17.51592254638672 0.1406286358833313 1.5291475057601929 11
-17.448766708374023 0.14313505589962006 0.9124773740768433 11
-18.16485023498535 0.1521797776222229 0.316412091255188 11
-1.8879170417785645 0.017464062198996544 -0.4956386983394623 119
-2.162280797958374 0.02037946879863739 -0.49039360880851746 119
-2.5806314945220947 0.02477286569774151 -0.4937518835067749 119
-3.159193992614746 0.030878229066729546 -0.49433329701423645 119
nan nan nan 0
-5.4722113609313965 0.05539620667695999 -0.4754353165626526 119
-8.855759620666504 0.0911942720413208 -0.4605886936187744 119
-18.209537506103516 0.19069552421569824 -0.3140283524990082 119
-9.117859840393066 0.0970764011144638 2.43131422996521 32
-10.614842414855957 0.11486737430095673 2.439997673034668 32
-12.646913528442383 0.13906478881835938 2.4487407207489014 32
-15.564167022705078 0.17385955154895782 2.456439733505249 32
-18.126235961914062 0.2056431770324707 2.221068859100342 32
-18.252458572387695 0.2102612555027008 1.5936428308486938 11
-18.12718391418457 0.2119823396205902 0.9480658173561096 11
-19.35894203186035 0.22976598143577576 0.3372677266597748 11
-1.8878446817398071 0.024054015055298805 -0.4956386983394623 119
-2.162196636199951 0.027927111834287643 -0.49039360880851746 119
-2.5756216049194336 0.03371655195951462 -0.49279871582984924 119
-3.1245009899139404 0.04144716262817383 -0.48885810375213623 119
-4.062657833099365 0.05460119992494583 -0.49418073892593384 119
-5.476964950561523 0.07456526160240173 -0.47587108612060547 119
-8.860380172729492 0.122174933552742 -0.4608495235443115 119
-19.913339614868164 0.27805933356285095 -0.343487411737442 119
-9.122295379638672 0.12897136807441711 2.432607412338257 32
-10.609504699707031 0.1518496572971344 2.438873529434204 32
-12.64635181427002 0.18320991098880768 2.4487407207489014 32
-15.558527946472168 0.22811517119407654 2.455658197402954 32
-19.26671028137207 0.2858470380306244 2.3612184524536133 32
-20.004718780517578 0.3002886176109314 1.7470369338989258 11
-19.983570098876953 0.3034597337245941 1.0454107522964478 11
-20.957590103149414 0.3219093084335327 0.36519157886505127 11
-1.8877438306808472 0.030973149463534355 -0.4956386983394623 119
-2.1620798110961914 0.035851772874593735 -0.49039360880851746 119
-2.595111131668091 0.04348539188504219 -0.49661147594451904 119
-3.114452838897705 0.052731551229953766 -0.4872937798500061 119
-4.042582035064697 0.06915169209241867 -0.4917433559894562 119
-5.481635093688965 0.09472489356994629 -0.47630685567855835 119
-8.829917907714844 0.1541261523962021 -0.45928463339805603 119
-21.176803588867188 0.37333816289901733 -0.36534416675567627 119
-9.121761322021484 0.16240538656711578 2.432607412338257 32
-10.60887622833252 0.19073441624641418 2.438873529434204 32
-12.645594596862793 0.22955988347530365 2.4487407207489014 32
-15.552650451660156 0.2850480377674103 2.4548771381378174 32
-20.34722328186035 0.37647509574890137 2.494055986404419 32
-21.681779861450195 0.404953271150589 1.8938943147659302 11
-21.484994888305664 0.4050290584564209 1.124176263809204 11
-22.670698165893555 0.4313398003578186 0.3951224684715271 11
-1.8876241445541382 0.03756241500377655 -0.4956386983394623 119
-2.166811943054199 0.04349638894200325 -0.4915183484554291 119
-2.55568528175354 0.05174883082509041 -0.48898595571517944 119
-3.1191868782043457 0.06370352953672409 -0.4880759119987488 119
-4.052239418029785 0.08346692472696304 -0.4929620623588562 119
-5.476291656494141 0.11375536024570465 -0.47587108612060547 119
-8.869263648986816 0.18578395247459412 -0.46137115359306335 119
nan nan nan 0
-9.125967025756836 0.19434811174869537 2.4339005947113037 32
-10.613017082214355 0.22786973416805267 2.439997673034668 32
-12.64962387084961 0.27380606532096863 2.4496939182281494 32
-15.55156135559082 0.3393351435661316 2.4548771381378174 32
nan nan nan 0
-23.44804573059082 0.5198253393173218 2.048595666885376 11
-23.445266723632812 0.5238577723503113 1.2270164489746094 11
-24.408348083496094 0.5496456027030945 0.4254896342754364 11
-1.8874815702438354 0.04415122792124748 -0.4956386983394623 119
-2.166646957397461 0.05105971172451973 -0.4915183484554291 119
-2.5800235271453857 0.06125199422240257 -0.4937518835067749 119
nan nan nan 0
-4.0618462562561035 0.09785041213035583 -0.49418073892593384 119
-5.475861072540283 0.13287049531936646 -0.47587108612060547 119
-8.873552322387695 0.21686431765556335 -0.4616319239139557 119
-22.972867965698242 0.5654550790786743 -0.3964446187019348 119
-9.12523365020752 0.22620248794555664 2.4339005947113037 32
-10.612156867980957 0.26491469144821167 2.439997673034668 32
-12.648591041564941 0.31795981526374817 2.4496939182281494 32
-15.555217742919922 0.393743097782135 2.455658197402954 32
-20.34906005859375 0.5186416506767273 2.4946653842926025 32
-25.567285537719727 0.6561051607131958 2.2342374324798584 32
-25.569665908813477 0.6606319546699524 1.3384920358657837 11
-28.66419219970703 0.7455899715423584 0.49983689188957214 11
-1.8921438455581665 0.05086929351091385 -0.4969327747821808 119
-2.17132568359375 0.058754194527864456 -0.4926431179046631 119
nan nan nan 0
nan nan nan 0
nan nan nan 0
-5.49030065536499 0.15239861607551575 -0.4771784245967865 119
nan nan nan 0
-23.010730743408203 0.6467655301094055 -0.39713573455810547 119
-9.129216194152832 0.25819069147109985 2.4351940155029297 32
-10.616037368774414 0.3020949959754944 2.4411215782165527 32
-12.647404670715332 0.3621096909046173 2.4496939182281494 32
-15.558685302734375 0.44818076491355896 2.456439733505249 32
-20.342164993286133 0.5895262360572815 2.494055986404419 32
-28.706497192382812 0.8369432091712952 2.50921368598938 32
-28.701553344726562 0.8418127298355103 1.5028269290924072 11
-29.800745010375977 0.8792575597763062 0.5197325944900513 13
-1.8967821598052979 0.057620443403720856 -0.4982268810272217 119
-2.171107530593872 0.06633317470550537 -0.4926431179046631 119
nan nan nan 0
nan nan nan 0
nan nan nan 0
nan nan nan 0
nan nan nan 0
-22.988346099853516 0.7264524698257446 -0.39679017663002014 119
-9.133088111877441 0.29020941257476807 2.4364871978759766 32
-10.61978816986084 0.3393056094646454 2.4422454833984375 32
-12.650969505310059 0.4064127802848816 2.4506471157073975 32
-15.56196117401123 0.5026473999023438 2.457221031188965 32
-20.34494400024414 0.6606910824775696 2.4946653842926025 32
nan nan nan 0
-29.826282501220703 0.9790149331092834 1.5619665384292603 13
-29.78250503540039 0.9827815890312195 0.5194708704948425 13
-1.9013962745666504 0.06440459191799164 -0.4995209574699402 119
-2.1708626747131348 0.07391135394573212 -0.4926431179046631 119
nan nan nan 0
nan nan nan 0
nan nan nan 0
nan nan nan 0
nan nan nan 0
-22.925716400146484 0.8045881986618042 -0.3957534730434418 119
-9.136845588684082 0.3222582936286926 2.4377806186676025 32
-10.618538856506348 0.3763735294342041 2.4422454833984375 32
-12.649473190307617 0.4505704343318939 2.4506471157073975 32
-15.560111999511719 0.556965708732605 2.457221031188965 32
-20.33259391784668 0.731347382068634 2.4934465885162354 32
nan nan nan 0
-29.72288703918457 1.0794975757598877 1.5567328929901123 13
nan nan nan 0
-1.9011598825454712 0.07104131579399109 -0.4995209574699402 119
-2.1657228469848633 0.0813058540225029 -0.4915183484554291 119
nan nan nan 0
nan nan nan 0
nan nan nan 0
nan nan nan 0
-8.814774513244629 0.3386288583278656 -0.458763062953949 119
-22.94774627685547 0.8855729699134827 -0.3961854577064514 119
-9.135664939880371 0.35414987802505493 2.4377806186676025 32
-10.622028350830078 0.41362643241882324 2.4433693885803223 32
-12.652727127075195 0.4949144124984741 2.4516003131866455 32
-15.563008308410645 0.6114711165428162 2.4580023288726807 32
-20.32495880126953 0.8021212220191956 2.492837429046631 32
nan nan nan 0
nan nan nan 0
nan nan nan 0
-1.891249179840088 0.07728278636932373 -0.4969327747821808 119
-2.1654257774353027 0.08886513859033585 -0.4915183484554291 119
nan nan nan 0
nan nan nan 0
nan nan nan 0
-5.452801704406738 0.22758635878562927 -0.47412797808647156 119
-8.818528175354004 0.3696052134037018 -0.4590238630771637 119
-22.89956283569336 0.9637781977653503 -0.39540794491767883 119
-9.139198303222656 0.38624107837677 2.4390735626220703 32
-10.625388145446777 0.4509083032608032 2.444493293762207 32
-12.650922775268555 0.539077639579773 2.4516003131866455 32
-15.560778617858887 0.6657924652099609 2.4580023288726807 32
-20.331951141357422 0.8734896779060364 2.494055986404419 32
nan nan nan 0
-45.98701858520508 1.9917505979537964 2.410332441329956 16
-43.31571578979492 1.8836275339126587 0.7561255097389221 18
-1.8861429691314697 0.08366997539997101 -0.4956386983394623 119
-2.165102481842041 0.09642334282398224 -0.4915183484554291 119
nan nan nan 0
nan nan nan 0
nan nan nan 0
-5.491781234741211 0.24841947853565216 -0.47761422395706177 119
-8.837135314941406 0.4012913405895233 -0.4600670635700226 119
nan nan nan 0
-9.13779354095459 0.4181404709815979 2.4390735626220703 32
-10.623749732971191 0.48799505829811096 2.444493293762207 32
-12.653867721557617 0.5834604501724243 2.4525535106658936 32
-15.558361053466797 0.7201057076454163 2.4580023288726807 32
-20.343650817871094 0.9451470971107483 2.4958839416503906 32
nan nan nan 0
nan nan nan 0
-43.26892852783203 2.0329389572143555 0.755427360534668 18
-1.8617188930511475 0.0890989676117897 -0.4891682267189026 119
-2.159886598587036 0.10374664515256882 -0.49039360880851746 119
nan nan nan 0
nan nan nan 0
nan nan nan 0
-5.411279201507568 0.26370862126350403 -0.47064176201820374 119
nan nan nan 0
-22.92223358154297 1.1250929832458496 -0.39592626690864563 119
-9.136279106140137 0.4500347673892975 2.4390735626220703 32
-10.621981620788574 0.5250759124755859 2.444493293762207 32
-12.651753425598145 0.6276270747184753 2.4525535106658936 32
-15.55575180053711 0.7744101285934448 2.4580023288726807 32
-20.360055923461914 1.0171444416046143 2.498321533203125 32
nan nan nan 0
nan nan nan 0
-43.27155303955078 2.1844675540924072 0.7556018829345703 18
-1.8855129480361938 0.09683559089899063 -0.4956386983394623 119
-2.1595113277435303 0.11128542572259903 -0.49039360880851746 119
nan nan nan 0
nan nan nan 0
nan nan nan 0
nan nan nan 0
nan nan nan 0
-22.87323570251465 1.2027369737625122 -0.39514875411987305 119
-9.134652137756348 0.4819236099720001 2.4390735626220703 32
-10.620083808898926 0.5621503591537476 2.444493293762207 32
-12.64948558807373 0.6717861294746399 2.4525535106658936 32
-15.557886123657227 0.8289678692817688 2.4587836265563965 32
-20.36629295349121 1.088737964630127 2.499540090560913 32
nan nan nan 0
nan nan nan 0
-43.498287200927734 2.34816575050354 0.7597032189369202 18
-1.885163426399231 0.10341666638851166 -0.4956386983394623 119
-2.1591098308563232 0.11882284283638 -0.49039360880851746 119
nan nan nan 0
nan nan nan 0
nan nan nan 0
-5.449092864990234 0.3036971688270569 -0.47412797808647156 119
nan nan nan 0
-22.873891830444336 1.2828521728515625 -0.395235151052475 119
-9.132914543151855 0.5138065814971924 2.4390735626220703 32
-10.613192558288574 0.5989434123039246 2.4433693885803223 32
-12.647064208984375 0.7159369587898254 2.4525535106658936 32
-15.55489730834961 0.8832699656486511 2.4587836265563965 32
-20.347501754760742 1.1589761972427368 2.4977118968963623 32
-28.666963577270508 1.6378651857376099 2.5087780952453613 32
nan nan nan 0
-43.8741340637207 2.522080659866333 0.7664223909378052 18
-1.8896123170852661 0.11027786135673523 -0.4969327747821808 119
-2.158681869506836 0.12635882198810577 -0.49039360880851746 119
nan nan nan 0
-3.065143346786499 0.1804923266172409 -0.480254203081131 119
nan nan nan 0
-5.462915897369385 0.32359981536865234 -0.4754353165626526 119
-8.780827522277832 0.5216766595840454 -0.4574589729309082 119
-22.85929298400879 1.3620944023132324 -0.3950623869895935 119
-9.12624454498291 0.5453951358795166 2.4377806186676025 32
-10.606173515319824 0.635695219039917 2.4422454833984375 32
-12.639588356018066 0.7597845792770386 2.4516003131866455 32
-15.551719665527344 0.9375613331794739 2.4587836265563965 32
-20.328472137451172 1.22909677028656 2.4958839416503906 32
-28.52185821533203 1.7294801473617554 2.4965760707855225 32
nan nan nan 0
nan nan nan 0
-1.8940362930297852 0.11717137694358826 -0.4982268810272217 119
-2.1582276821136475 0.13389325141906738 -0.49039360880851746 119
nan nan nan 0
nan nan nan 0
nan nan nan 0
-5.461752891540527 0.34266695380210876 -0.4754353165626526 119
-8.838752746582031 0.556086540222168 -0.4605886936187744 119
nan nan nan 0
-9.124284744262695 0.5772483348846436 2.4377806186676025 32
-10.603889465332031 0.6727138161659241 2.4422454833984375 32
-12.636858940124512 0.8039003610610962 2.4516003131866455 32
-15.548351287841797 0.9918412566184998 2.4587836265563965 32
-20.309200286865234 1.2990984916687012 2.494055986404419 32
nan nan nan 0
nan nan nan 0
-43.935279846191406 2.833463430404663 0.7678185701370239 18
-1.8887964487075806 0.12346705049276352 -0.4969327747821808 119
-2.1577470302581787 0.14142607152462006 -0.49039360880851746 119
nan nan nan 0
nan nan nan 0
nan nan nan 0
-5.445613861083984 0.3607422709465027 -0.47412797808647156 119
-8.82181167602539 0.5859434604644775 -0.45980626344680786 119
-22.76442527770996 1.5160006284713745 -0.3935937285423279 119
-9.117396354675293 0.6087728142738342 2.4364871978759766 32
-10.5966157913208 0.7093986868858337 2.4411215782165527 32
-12.62907886505127 0.8476776480674744 2.4506471157073975 32
-15.544795036315918 1.0461090803146362 2.4587836265563965 32
-20.279783248901367 1.3683122396469116 2.49100923538208 32
-28.583635330200195 1.9335992336273193 2.503113031387329 32
nan nan nan 0
-43.974998474121094 2.9902007579803467 0.7686911821365356 18
-1.888353943824768 0.13005943596363068 -0.4969327747821808 119
-2.157240390777588 0.14895714819431305 -0.49039360880851746 119
nan nan nan 0
-3.112351179122925 0.21599902212619781 -0.4880759119987488 119
nan nan nan 0
nan nan nan 0
-8.799788475036621 0.615340530872345 -0.458763062953949 119
-22.714111328125 1.5923075675964355 -0.3928162157535553 119
-9.115215301513672 0.6405947208404541 2.4364871978759766 32
-10.594075202941895 0.7463834881782532 2.4411215782165527 32
-12.626043319702148 0.8917562365531921 2.4506471157073975 32
-15.541049003601074 1.1003642082214355 2.4587836265563965 32
-20.2847843170166 1.4397964477539062 2.492227792739868 32
-28.63633155822754 2.0376052856445312 2.5083422660827637 32
nan nan nan 0
-46.03369140625 3.291656970977783 0.8049049377441406 16
-1.887864589691162 0.13697972893714905 -0.4969327747821808 119
-2.15667986869812 0.15686281025409698 -0.49039360880851746 119
nan nan nan 0
-3.131239891052246 0.2288447767496109 -0.4912046194076538 119
nan nan nan 0
nan nan nan 0
nan nan nan 0
nan nan nan 0
-9.11280632019043 0.6739993691444397 2.4364871978759766 32
-10.591268539428711 0.7852076888084412 2.4411215782165527 32
-12.622690200805664 0.938027024269104 2.4506471157073975 32
-15.536911964416504 1.1573175191879272 2.4587836265563965 32
-20.289268493652344 1.5148732662200928 2.4934465885162354 32
-28.65847396850586 2.1447794437408447 2.5109570026397705 32
nan nan nan 0
-46.001373291015625 3.458857536315918 0.8045558929443359 16
-1.8873748779296875 0.143568754196167 -0.4969327747821808 119
-2.1561191082000732 0.16439008712768555 -0.49039360880851746 119
nan nan nan 0
nan nan nan 0
nan nan nan 0
nan nan nan 0
nan nan nan 0
nan nan nan 0
-9.110397338867188 0.7058048844337463 2.4364871978759766 32
-10.588462829589844 0.8221733570098877 2.4411215782165527 32
-12.619338989257812 0.9820826649665833 2.4506471157073975 32
-15.537699699401855 1.2119284868240356 2.4595649242401123 32
-20.28880500793457 1.586073637008667 2.494055986404419 32
-28.695505142211914 2.248304605484009 2.514878988265991 0
nan nan nan 0
-45.99898910522461 3.6202023029327393 0.8047304153442383 16
-1.8868883848190308 0.14982673525810242 -0.4969327747821808 119
-2.1555919647216797 0.1711629033088684 -0.49039360880851746 119
nan nan nan 0
nan nan nan 0
nan nan nan 0
-5.474876880645752 0.43857434391975403 -0.4771784245967865 119
nan nan nan 0
-22.88587188720703 1.841351866722107 -0.3960990607738495 119
-9.108136177062988 0.7344225645065308 2.4364871978759766 32
-10.585827827453613 0.8554338812828064 2.4411215782165527 32
-12.621082305908203 1.0221186876296997 2.4516003131866455 32
-15.53381633758545 1.2607355117797852 2.4595649242401123 32
-20.288667678833008 1.6502070426940918 2.4946653842926025 32
-28.618797302246094 2.332777976989746 2.5087780952453613 32
nan nan nan 0
-44.83143615722656 3.6700572967529297 0.7844856381416321 30
-1.8863812685012817 0.15608304738998413 -0.4969327747821808 119
-2.1598362922668457 0.17908886075019836 -0.4915183484554291 119
-2.5131895542144775 0.20882977545261383 -0.4823136329650879 119
-3.109077215194702 0.2588905692100525 -0.4880759119987488 119
-4.039061546325684 0.3370395004749298 -0.4929620623588562 119
-5.488204002380371 0.45892778038978577 -0.47848576307296753 119
nan nan nan 0
nan nan nan 0
-9.10551643371582 0.7662113308906555 2.4364871978759766 32
-10.58277702331543 0.8923800587654114 2.4411215782165527 32
-12.622329711914062 1.0665816068649292 2.4525535106658936 32
-15.52932071685791 1.3149510622024536 2.4595649242401123 32
-20.2679500579834 1.7197588682174683 2.492837429046631 32
-28.55588722229004 2.4280200004577637 2.5039844512939453 32
-45.91868209838867 3.912398099899292 2.413210868835449 20
-37.4761848449707 3.19966197013855 0.6558613777160645 30
-1.8905795812606812 0.163741797208786 -0.4982268810272217 119
-2.159132719039917 0.18738068640232086 -0.4915183484554291 119
-2.531928777694702 0.22017908096313477 -0.4861263632774353 119
-3.1178998947143555 0.27168402075767517 -0.4896402657032013 119
-4.022905349731445 0.35125085711479187 -0.49113398790359497 119
-5.491363525390625 0.4804316461086273 -0.4789215326309204 119
-8.802496910095215 0.7716661691665649 -0.45954543352127075 119
-22.891679763793945 2.010812997817993 -0.3964446187019348 119
-9.107317924499512 0.801591694355011 2.4377806186676025 32
-10.579272270202637 0.9330083131790161 2.4411215782165527 32
-12.623029708862305 1.1154719591140747 2.4535067081451416 32
-15.52415657043457 1.3745694160461426 2.4595649242401123 32
-20.246366500854492 1.7962535619735718 2.49100923538208 32
-28.556276321411133 2.5385305881500244 2.5048561096191406 32
nan nan nan 0
-31.488285064697266 2.8102524280548096 0.5511469841003418 30
-1.8899965286254883 0.1703401654958725 -0.4982268810272217 119
-2.158465623855591 0.19491632282733917 -0.4915183484554291 119
-2.5604746341705322 0.2316695600748062 -0.4918454885482788 119
-3.107095956802368 0.2816741168498993 -0.4880759119987488 119
-4.001885414123535 0.3634955585002899 -0.4886966049671173 119
-5.469810962677002 0.4977913796901703 -0.4771784245967865 119
-8.78980541229248 0.8014811277389526 -0.4590238630771637 119
-22.909414291381836 2.0929818153381348 -0.39687657356262207 119
-9.104464530944824 0.8333773612976074 2.4377806186676025 32
-10.580802917480469 0.9703761339187622 2.4422454833984375 32
-12.623947143554688 1.1599769592285156 2.4544599056243896 32
-15.519264221191406 1.4287505149841309 2.4595649242401123 32
-20.225149154663086 1.8655483722686768 2.4891812801361084 32
-28.557159423828125 2.6391117572784424 2.505727767944336 32
-37.39679718017578 3.4626102447509766 1.966261863708496 30
-31.438459396362305 2.9164621829986572 0.5504488348960876 30
-1.889390468597412 0.17693643271923065 -0.4982268810272217 119
-2.152921676635742 0.20199450850486755 -0.49039360880851746 119
-2.530329942703247 0.23784975707530975 -0.4861263632774353 119
-3.101177215576172 0.2920551896095276 -0.4872937798500061 119
-4.020355224609375 0.3793272376060486 -0.49113398790359497 119
-5.487875461578369 0.5187565684318542 -0.4789215326309204 119
-8.791923522949219 0.8326290845870972 -0.45928463339805603 119
-22.911922454833984 2.173882007598877 -0.39704933762550354 119
-9.106307983398438 0.8656097650527954 2.4390735626220703 32
-10.577351570129395 1.0073041915893555 2.4422454833984375 32
-12.619821548461914 1.2040356397628784 2.4544599056243896 32
-15.50926685333252 1.4824442863464355 2.4587836265563965 32
-20.203693389892578 1.9347167015075684 2.4873533248901367 32
-28.592397689819336 2.7430598735809326 2.5096497535705566 32
-29.675636291503906 2.8522093296051025 1.560396432876587 13
-29.681434631347656 2.857994794845581 0.5198199152946472 13
-1.8935682773590088 0.18399764597415924 -0.4995209574699402 119
-2.1522035598754883 0.20950838923454285 -0.49039360880851746 119
-2.5392541885375977 0.24763360619544983 -0.4880327582359314 119
-3.105053663253784 0.30335867404937744 -0.4880759119987488 119
nan nan nan 0
-5.486031532287598 0.5379096865653992 -0.4789215326309204 119
-8.818779945373535 0.8662423491477966 -0.4608495235443115 119
-22.934045791625977 2.256783962249756 -0.3975676894187927 119
-9.103231430053711 0.8973913788795471 2.4390735626220703 32
-10.578619003295898 1.044698715209961 2.4433693885803223 32
