# .PCD v0.7 - Point Cloud Data file format
VERSION 0.7
FIELDS x y z intensity
SIZE 4 4 4 4
TYPE F F F F
COUNT 1 1 1 1
WIDTH 798
HEIGHT 1
VIEWPOINT 0 0 0 1 0 0 0
POINTS 798
DATA ascii
-0.009091314859688282 2.1703243255615234 -0.11136544495820999 44
-0.008722910657525063 2.1729137897491455 -0.03688861429691315 44
-0.008362650871276855 2.1778595447540283 0.572910726070404 44
-0.007961763069033623 2.172191858291626 0.4922703802585602 44
-0.007552409078925848 2.16353178024292 0.41273054480552673 44
-0.007218274287879467 2.1766421794891357 0.33830738067626953 44
-0.006793278269469738 2.162287950515747 0.2608003616333008 44
-0.0064981719478964806 2.190020799636841 0.1882563978433609 44
-0.006060908082872629 2.1703155040740967 0.11173726618289948 44
-0.005649660248309374 2.1579196453094482 0.03699909895658493 44
nan nan nan 0
-0.0035040248185396194 2.2305798530578613 -0.5061401724815369 119
-0.0030485205352306366 2.183175802230835 -0.416543573141098 0
-0.002665475010871887 2.1815316677093506 -0.3394630551338196 44
-0.002306160982698202 2.2019994258880615 -0.26567548513412476 44
-0.0018983506597578526 2.175086736679077 -0.18694935739040375 44
-0.0015119275776669383 2.1653497219085693 -0.11110462993383408 44
-0.0011379729257896543 2.172930955886841 -0.03688861429691315 44
-0.0007604513666592538 2.177875518798828 0.572910726070404 44
-0.00037935032742097974 2.172206401824951 0.4922703802585602 44
-2.2788640308135655e-07 2.1635448932647705 0.41273054480552673 44
0.00037966854870319366 2.176654100418091 0.33830738067626953 44
0.0007545568514615297 2.1622986793518066 0.2608003616333008 44
0.001143859000876546 2.185049295425415 0.18782062828540802 44
0.0015149430837482214 2.170323371887207 0.11173726618289948 44
0.0018829189939424396 2.157926321029663 0.03699909895658493 44
nan nan nan 0
0.004282173700630665 2.230578660964966 -0.5061401724815369 119
0.00456192484125495 2.17826509475708 -0.41559040546417236 119
0.004949508234858513 2.181527853012085 -0.3394630551338196 44
0.005380265414714813 2.2019941806793213 -0.26567548513412476 44
0.005694129969924688 2.1750800609588623 -0.18694935739040375 44
0.00604656245559454 2.165341854095459 -0.11110462993383408 44
0.006446978077292442 2.172921657562256 -0.03688861429691315 44
0.006826584693044424 2.173035144805908 0.5716174840927124 44
0.007203067187219858 2.172194480895996 0.4922703802585602 44
0.007551953196525574 2.16353178024292 0.41273054480552673 44
0.007977606728672981 2.1766395568847656 0.33830738067626953 44
0.008283327333629131 2.157320022583008 0.26019105315208435 44
0.008771097287535667 2.1850318908691406 0.18782062828540802 44
0.009090776555240154 2.170304775238037 0.11173726618289948 44
0.00939366314560175 2.152907371520996 0.03691183775663376 44
nan nan nan 0
0.01206832006573677 2.2305500507354736 -0.5061401724815369 119
0.012165460735559464 2.1782357692718506 -0.41559040546417236 0
0.012564430944621563 2.18149733543396 -0.3394630551338196 44
0.013037175871431828 2.1969990730285645 -0.26506611704826355 44
0.013256114907562733 2.1700658798217773 -0.18651357293128967 44
0.01360497809946537 2.1653075218200684 -0.11110462993383408 44
0.013999568298459053 2.167886734008789 -0.03680222108960152 44
0.01441185176372528 2.1729981899261475 0.5716174840927124 44
0.014785396866500378 2.1721560955047607 0.4922703802585602 44
0.015104042366147041 2.163492202758789 0.41273054480552673 44
0.015540109016001225 2.1716599464416504 0.3375260531902313 44
0.015813730657100677 2.157278060913086 0.26019105315208435 44
0.016398228704929352 2.184988021850586 0.18782062828540802 44
0.01666649803519249 2.170259952545166 0.11173726618289948 44
0.016908656805753708 2.1528615951538086 0.03691183775663376 44
nan nan nan 0
0.02024361491203308 2.2304909229278564 -0.5061401724815369 119
0.02014901302754879 2.1781766414642334 -0.41559040546417236 0
0.02055993303656578 2.181436538696289 -0.3394630551338196 44
0.021089492365717888 2.19693660736084 -0.26506611704826355 44
0.0212097130715847 2.1700029373168945 -0.18651357293128967 44
0.021590810269117355 2.170236110687256 -0.11136544495820999 44
0.021945178508758545 2.167820930480957 -0.03680222108960152 44
0.02237619087100029 2.1729307174682617 0.5716174840927124 44
0.02269562892615795 2.167215585708618 0.491146445274353 44
0.023033535107970238 2.1634223461151123 0.41273054480552673 44
0.023499537259340286 2.17158842086792 0.3375260531902313 44
0.02372044324874878 2.157205581665039 0.26019105315208435 44
0.024406500160694122 2.184913158416748 0.18782062828540802 44
0.02462078630924225 2.1701841354370117 0.11173726618289948 44
0.024799173697829247 2.152785062789917 0.03691183775663376 44
nan nan nan 0
0.02802935615181923 2.2304065227508545 -0.5061401724815369 119
0.027689607813954353 2.173184871673584 -0.4146372079849243 119
0.028174441307783127 2.18135142326355 -0.3394630551338196 44
0.028758103027939796 2.1968495845794678 -0.26506611704826355 44
0.028784308582544327 2.1699154376983643 -0.18651357293128967 44
0.029166214168071747 2.17014741897583 -0.11136544495820999 44
0.029512150213122368 2.1677310466766357 -0.03680222108960152 44
0.029960997402668 2.172839403152466 0.5716174840927124 44
0.030260484665632248 2.1671230792999268 0.491146445274353 44
0.030585147440433502 2.1633288860321045 0.41273054480552673 44
0.031079651787877083 2.1714930534362793 0.3375260531902313 44
0.031250350177288055 2.1571097373962402 0.26019105315208435 44
0.031960099935531616 2.1798341274261475 0.18738484382629395 44
0.03219599276781082 2.1700851917266846 0.11173726618289948 44
0.03232032060623169 2.1526851654052734 0.03691183775663376 44
nan nan nan 0
0.03495970740914345 2.225435972213745 -0.5050153732299805 119
0.034516721963882446 2.1730871200561523 -0.4146372079849243 119
0.03502720966935158 2.1812520027160645 -0.3394630551338196 44
0.0356595553457737 2.1967482566833496 -0.26506611704826355 44
0.035601142793893814 2.169814348220825 -0.18651357293128967 44
0.03598377853631973 2.1700451374053955 -0.11136544495820999 44
0.03632212057709694 2.1676278114318848 -0.03680222108960152 44
0.036787014454603195 2.172734498977661 0.5716174840927124 44
0.03706853836774826 2.1670172214508057 0.491146445274353 44
0.03729647770524025 2.1583144664764404 0.4117773175239563 44
0.03790143504738808 2.171384811401367 0.3375260531902313 44
0.038026947528123856 2.157000780105591 0.26019105315208435 44
0.038808081299066544 2.179723024368286 0.18738484382629395 44
0.039013344794511795 2.169973134994507 0.11173726618289948 44
0.03907633572816849 2.1525731086730957 0.03691183775663376 44
nan nan nan 0
0.042727719992399216 2.2253005504608154 -0.5050153732299805 0
0.04210200160741806 2.1729536056518555 -0.4146372079849243 119
0.042640987783670425 2.1811165809631348 -0.3394630551338196 44
0.04332742094993591 2.196610450744629 -0.26506611704826355 44
0.043174996972084045 2.1696767807006836 -0.18651357293128967 44
0.04355843365192413 2.1699063777923584 -0.11136544495820999 44
0.043888334184885025 2.167487859725952 -0.03680222108960152 44
0.044371046125888824 2.172592878341675 0.5716174840927124 44
0.04463261738419533 2.166874647140503 0.491146445274353 44
0.04483017325401306 2.1581711769104004 0.4117773175239563 44
0.04558417201042175 2.1761767864227295 0.33830738067626953 44
0.045556049793958664 2.1568548679351807 0.26019105315208435 44
0.046416498720645905 2.1795742511749268 0.18738484382629395 44
0.04658772796392441 2.1698238849639893 0.11173726618289948 44
0.04658997803926468 2.152423620223999 0.03691183775663376 44
nan nan nan 0
0.05115969851613045 2.220249652862549 -0.5038906931877136 119
0.05044521391391754 2.1727757453918457 -0.4146372079849243 119
0.05101553723216057 2.180936813354492 -0.3394630551338196 44
0.051761459559202194 2.196427822113037 -0.26506611704826355 44
0.051505617797374725 2.169495105743408 -0.18651357293128967 44
0.05188992992043495 2.1697230339050293 -0.11136544495820999 44
0.052210547029972076 2.1673033237457275 -0.03680222108960152 44
0.052712857723236084 2.1724064350128174 0.5716174840927124 44
0.052952468395233154 2.166687488555908 0.491146445274353 44
0.053116604685783386 2.1579830646514893 0.4117773175239563 44
0.053939733654260635 2.175985813140869 0.33830738067626953 44
0.05383742228150368 2.1566641330718994 0.26019105315208435 44
0.054785098880529404 2.179380178451538 0.18738484382629395 44
0.054918888956308365 2.169628858566284 0.11173726618289948 44
0.05485432967543602 2.152228832244873 0.03691183775663376 44
nan nan nan 0
0.05890950188040733 2.220057725906372 -0.5038906931877136 119
0.05816036835312843 2.1774933338165283 -0.41559040546417236 0
0.05862811580300331 2.1807453632354736 -0.3394630551338196 44
0.05942811071872711 2.1962337493896484 -0.26506611704826355 44
0.05907825380563736 2.169302225112915 -0.18651357293128967 44
0.05932655557990074 2.1645374298095703 -0.11110462993383408 44
0.05977552756667137 2.1671078205108643 -0.03680222108960152 44
0.060295648872852325 2.1722092628479004 0.5716174840927124 44
0.06051529943943024 2.166489362716675 0.491146445274353 44
0.060649048537015915 2.1577844619750977 0.4117773175239563 44
0.06153501570224762 2.175784111022949 0.33830738067626953 44
0.06136525794863701 2.156463146209717 0.26019105315208435 44
0.06253477931022644 2.184154510498047 0.18782062828540802 44
0.06249197572469711 2.169424057006836 0.11173726618289948 44
0.06237334758043289 2.152024269104004 0.03691183775663376 44
nan nan nan 0
0.06665859371423721 2.2198383808135986 -0.5038906931877136 119
0.06576088815927505 2.177277088165283 -0.41559040546417236 0
0.06623998284339905 2.180527448654175 -0.3394630551338196 44
0.06709403544664383 2.1960129737854004 -0.26506611704826355 44
0.06665016710758209 2.1690826416015625 -0.18651357293128967 44
0.06688183546066284 2.1643171310424805 -0.11110462993383408 44
0.06733977794647217 2.1668858528137207 -0.03680222108960152 44
0.06787770986557007 2.171985387802124 0.5716174840927124 44
0.06807738542556763 2.1662650108337402 0.491146445274353 44
0.06818075478076935 2.157559633255005 0.4117773175239563 44
0.06912954896688461 2.175556182861328 0.33830738067626953 44
0.06889234483242035 2.156235694885254 0.26019105315208435 44
0.07015851885080338 2.1839230060577393 0.18782062828540802 44
0.07006429135799408 2.1691925525665283 0.11173726618289948 44
0.06987826526165009 2.1517934799194336 0.03691183775663376 44
nan nan nan 0
0.07440686970949173 2.219592332839966 -0.5038906931877136 119
0.07336059957742691 2.1770341396331787 -0.41559040546417236 0
0.07385104149580002 2.1802830696105957 -0.3394630551338196 44
0.07475914061069489 2.195765495300293 -0.26506611704826355 44
0.07422127574682236 2.168836832046509 -0.18651357293128967 44
0.07443631440401077 2.1640703678131104 -0.11110462993383408 44
0.0749032124876976 2.166637659072876 -0.03680222108960152 44
0.07545893639326096 2.1717352867126465 0.5716174840927124 44
0.07563865184783936 2.1660141944885254 0.491146445274353 44
0.07571162283420563 2.157308340072632 0.4117773175239563 44
0.07672323286533356 2.1753015518188477 0.33830738067626953 44
0.07641858607530594 2.15598201751709 0.26019105315208435 44
0.07778140157461166 2.1836647987365723 0.18782062828540802 44
0.0776357650756836 2.1689348220825195 0.11173726618289948 44
0.07738899439573288 2.151536464691162 0.03691183775663376 44
nan nan nan 0
0.08233444392681122 2.2241873741149902 -0.5050153732299805 119
0.08095941692590714 2.176764965057373 -0.41559040546417236 0
0.08146119862794876 2.1800119876861572 -0.3394630551338196 44
0.08242333680391312 2.195491075515747 -0.26506611704826355 44
0.0816037505865097 2.1635873317718506 -0.1860778033733368 44
0.08198986947536469 2.163797378540039 -0.11110462993383408 44
0.08246573060750961 2.166363000869751 -0.03680222108960152 44
0.08303924649953842 2.1714587211608887 0.5716174840927124 44
0.08319899439811707 2.1657369136810303 0.491146445274353 44
0.08324157446622849 2.1570310592651367 0.4117773175239563 44
0.08431598544120789 2.175020456314087 0.33830738067626953 44
0.0839439108967781 2.1557021141052246 0.26019105315208435 44
0.08540333807468414 2.183379888534546 0.18782062828540802 44
0.0852062851190567 2.1686506271362305 0.11173726618289948 44
0.08489879220724106 2.1512532234191895 0.03691183775663376 44
nan nan nan 0
0.0900978073477745 2.223886251449585 -0.5050153732299805 119
0.08855725079774857 2.176468849182129 -0.41559040546417236 0
0.08907035738229752 2.1797142028808594 -0.3394630551338196 44
0.08988304436206818 2.1902315616607666 -0.26445674896240234 44
0.08915558457374573 2.1632893085479736 -0.1860778033733368 44
0.0895424336194992 2.1634979248046875 -0.11110462993383408 44
0.09002725034952164 2.166062116622925 -0.03680222108960152 44
0.0906185507774353 2.1711556911468506 0.5716174840927124 44
0.090758316218853 2.165433406829834 0.491146445274353 44
0.09077050536870956 2.1567273139953613 0.4117773175239563 44
0.09190770238637924 2.174712896347046 0.33830738067626953 44
0.0914682000875473 2.155395984649658 0.26019105315208435 44
0.092812180519104 2.1780920028686523 0.18738484382629395 44
0.09277576953172684 2.168339967727661 0.11173726618289948 44
0.09240754693746567 2.1509439945220947 0.03691183775663376 44
nan nan nan 0
0.0980742871761322 2.2284255027770996 -0.5061401724815369 119
0.09615401178598404 2.1761465072631836 -0.41559040546417236 0
0.09667844325304031 2.1793901920318604 -0.3394630551338196 44
0.09752782434225082 2.1899044513702393 -0.26445674896240234 44
0.0967063307762146 2.1629648208618164 -0.1860778033733368 44
0.09709390252828598 2.1631722450256348 -0.11110462993383408 44
0.09758766740560532 2.1657345294952393 -0.03680222108960152 44
0.09819674491882324 2.1708261966705322 0.5716174840927124 44
0.09831653535366058 2.1651031970977783 0.491146445274353 44
0.0982983410358429 2.1563973426818848 0.4117773175239563 44
0.09927255660295486 2.169445276260376 0.3375260531902313 44
0.09899137914180756 2.1550636291503906 0.26019105315208435 44
0.10041457414627075 2.1777548789978027 0.18738484382629395 44
0.10011326521635056 2.163015127182007 0.11147557944059372 44
0.09991518408060074 2.1506083011627197 0.03691183775663376 44
nan nan nan 0
0.10585235059261322 2.22806978225708 -0.5061401724815369 119
0.1037495955824852 2.175797700881958 -0.41559040546417236 0
0.1042853444814682 2.179039239883423 -0.3394630551338196 44
0.10517141968011856 2.1895506381988525 -0.26445674896240234 44
0.10425589233636856 2.162614107131958 -0.1860778033733368 44
0.10464419424533844 2.1628201007843018 -0.11110462993383408 44
0.10514689981937408 2.1653807163238525 -0.03680222108960152 44
0.10577374696731567 2.1704699993133545 0.5716174840927124 44
0.10587355494499207 2.1647467613220215 0.491146445274353 44
0.10558434575796127 2.1511385440826416 0.41082414984703064 44
0.10684473812580109 2.1690855026245117 0.3375260531902313 44
0.1065133586525917 2.154705047607422 0.26019105315208435 44
0.1080157458782196 2.1773910522460938 0.18738484382629395 44
0.10766298323869705 2.1626524925231934 0.11147557944059372 44
0.10742159932851791 2.1502463817596436 0.03691183775663376 44
nan nan nan 0
0.11362911760807037 2.227686643600464 -0.5061401724815369 119
0.11134391278028488 2.175422430038452 -0.41559040546417236 0
0.11189097166061401 2.178662061691284 -0.3394630551338196 44
0.11281374096870422 2.1891701221466064 -0.26445674896240234 44
0.11180419474840164 2.1622369289398193 -0.1860778033733368 44
0.11219321191310883 2.1624417304992676 -0.11110462993383408 44
0.11270485073328018 2.1650004386901855 -0.03680222108960152 44
0.11334945261478424 2.1700875759124756 0.5716174840927124 44
0.11342928558588028 2.1643640995025635 0.491146445274353 44
0.1130925789475441 2.150757074356079 0.41082414984703064 44
0.11441560089588165 2.1686995029449463 0.3375260531902313 44
0.11403403431177139 2.154320001602173 0.26019105315208435 44
0.1156155988574028 2.1770005226135254 0.18738484382629395 44
0.11521138995885849 2.1622633934020996 0.11147557944059372 44
0.11492670327425003 2.149858236312866 0.03691183775663376 44
nan nan nan 0
0.1214045062661171 2.227276563644409 -0.5061401724815369 119
0.11893687397241592 2.175020456314087 -0.41559040546417236 0
0.11949524283409119 2.178258180618286 -0.3394630551338196 44
0.12045468389987946 2.188762903213501 -0.26445674896240234 44
0.11935112625360489 2.1618335247039795 -0.1860778033733368 44
0.11974085122346878 2.162036895751953 -0.11110462993383408 44
0.12026142328977585 2.1645939350128174 -0.03680222108960152 44
0.12092378735542297 2.1696786880493164 0.5716174840927124 44
0.12098363786935806 2.163954973220825 0.491146445274353 44
0.12059943377971649 2.1503491401672363 0.41082414984703064 44
0.12198507785797119 2.1682870388031006 0.3375260531902313 44
0.12155331671237946 2.1539089679718018 0.26019105315208435 44
0.12321404367685318 2.176583766937256 0.18738484382629395 44
0.1227584034204483 2.1618480682373047 0.11147557944059372 44
0.12243040651082993 2.149444103240967 0.03691183775663376 44
nan nan nan 0
0.12917841970920563 2.226839065551758 -0.5061401724815369 119
0.12681348621845245 2.1794917583465576 -0.416543573141098 0
0.12709805369377136 2.177827835083008 -0.3394630551338196 44
0.1280941665172577 2.1883292198181152 -0.26445674896240234 44
0.12689660489559174 2.1614038944244385 -0.1860778033733368 44
0.12728704512119293 2.1616058349609375 -0.11110462993383408 44
0.12781652808189392 2.164160966873169 -0.03680222108960152 44
0.12849663197994232 2.169243574142456 0.5716174840927124 44
0.12853650748729706 2.1635193824768066 0.491146445274353 44
0.1281048208475113 2.1499149799346924 0.41082414984703064 44
0.12955307960510254 2.1678478717803955 0.3375260531902313 44
0.12907111644744873 2.1534714698791504 0.26019105315208435 44
0.13081099092960358 2.176140546798706 0.18738484382629395 44
0.13030391931533813 2.1614065170288086 0.11147557944059372 44
0.12993261218070984 2.149003505706787 0.03691183775663376 44
nan nan nan 0
0.13695074617862701 2.226374626159668 -0.5061401724815369 0
0.13442055881023407 2.1790359020233154 -0.416543573141098 0
0.13469931483268738 2.17737078666687 -0.3394630551338196 44
0.13573206961154938 2.18786883354187 -0.26445674896240234 44
0.13444054126739502 2.160947561264038 -0.1860778033733368 44
0.13483168184757233 2.1611483097076416 -0.11110462993383408 44
0.13537007570266724 2.1637015342712402 -0.03680222108960152 44
0.1360679268836975 2.1687817573547363 0.5716174840927124 44
0.1360878199338913 2.163057565689087 0.491146445274353 44
0.13591769337654114 2.154353380203247 0.4117773175239563 44
0.13711947202682495 2.1673824787139893 0.3375260531902313 44
0.13658735156059265 2.153007745742798 0.26019105315208435 44
0.13840633630752563 2.175670623779297 0.18738484382629395 44
0.13784782588481903 2.160938262939453 0.11147557944059372 44
0.1374332457780838 2.1485369205474854 0.03691183775663376 44
nan nan nan 0
0.1447214037179947 2.2258830070495605 -0.5061401724815369 0
0.14234529435634613 2.1834514141082764 -0.41749680042266846 0
0.14229895174503326 2.1768875122070312 -0.3394630551338196 44
0.14336833357810974 2.1873817443847656 -0.26445674896240234 44
0.14198283851146698 2.1604652404785156 -0.1860778033733368 44
0.1423746645450592 2.1606645584106445 -0.11110462993383408 44
0.14292199909687042 2.1632158756256104 -0.03680222108960152 44
0.143637552857399 2.1682934761047363 0.5716174840927124 44
0.14363746345043182 2.162569522857666 0.491146445274353 44
0.1434369683265686 2.1538658142089844 0.4117773175239563 44
0.14468422532081604 2.1668906211853027 0.3375260531902313 44
0.14410193264484406 2.152517795562744 0.26019105315208435 44
0.14600001275539398 2.1751742362976074 0.18738484382629395 44
0.1453900784254074 2.1604440212249756 0.11147557944059372 44
0.14493221044540405 2.1480441093444824 0.03691183775663376 44
nan nan nan 0
0.1521572321653366 2.220503568649292 -0.5050153732299805 119
0.14996610581874847 2.182941198348999 -0.41749680042266846 0
0.14989683032035828 2.176377534866333 -0.3394630551338196 44
0.15100285410881042 2.1868679523468018 -0.26445674896240234 44
0.14986737072467804 2.1649253368377686 -0.18651357293128967 44
0.1499159336090088 2.160154342651367 -0.11110462993383408 44
0.15047214925289154 2.1627037525177 -0.03680222108960152 44
0.15120545029640198 2.167778968811035 0.5716174840927124 44
0.15118536353111267 2.1620547771453857 0.491146445274353 44
0.150954470038414 2.1533520221710205 0.4117773175239563 44
0.15224719047546387 2.166372299194336 0.3375260531902313 44
0.1516147255897522 2.1520018577575684 0.26019105315208435 44
0.15359188616275787 2.1746513843536377 0.18738484382629395 44
0.15328319370746613 2.1649041175842285 0.11173726618289948 44
0.15242940187454224 2.1475250720977783 0.03691183775663376 44
nan nan nan 0
0.15990731120109558 2.219959020614624 -0.5050153732299805 119
0.15758506953716278 2.1824042797088623 -0.41749680042266846 0
0.15749289095401764 2.1758408546447754 -0.3394630551338196 44
0.15863552689552307 2.1863274574279785 -0.26445674896240234 44
0.1574234664440155 2.16438889503479 -0.18651357293128967 44
0.15745535492897034 2.1596179008483887 -0.11110462993383408 44
0.15802046656608582 2.162165403366089 -0.03680222108960152 44
0.15877147018909454 2.1672379970550537 0.5716174840927124 44
0.15873143076896667 2.1615140438079834 0.491146445274353 44
0.15847015380859375 2.1528120040893555 0.4117773175239563 44
0.15980833768844604 2.165827751159668 0.3375260531902313 44
0.1591256856918335 2.1514594554901123 0.26019105315208435 44
0.16155017912387848 2.1790692806243896 0.18782062828540802 44
0.16083920001983643 2.164355993270874 0.11173726618289948 44
0.1599247306585312 2.146980047225952 0.03691183775663376 44
nan nan nan 0
0.16728846728801727 2.214529275894165 -0.5038906931877136 119
0.16520212590694427 2.1818408966064453 -0.41749680042266846 0
0.165087029337883 2.1752779483795166 -0.3394630551338196 44
0.16626626253128052 2.185760259628296 -0.26445674896240234 44
0.16497762501239777 2.1638262271881104 -0.18651357293128967 44
0.16499288380146027 2.15905499458313 -0.11110462993383408 44
0.16556687653064728 2.1616005897521973 -0.03680222108960152 44
0.1663355827331543 2.166670560836792 0.5716174840927124 44
0.16627554595470428 2.160946846008301 0.491146445274353 44
0.1659839153289795 2.1522457599639893 0.4117773175239563 44
0.16736748814582825 2.1652567386627197 0.3375260531902313 44
0.1666347235441208 2.150890827178955 0.26019105315208435 44
0.169155552983284 2.1784920692443848 0.18782062828540802 44
0.16839322447776794 2.1637814044952393 0.11173726618289948 44
0.16741810739040375 2.1464085578918457 0.03691183775663376 44
nan nan nan 0
0.1750176101922989 2.2139320373535156 -0.5038906931877136 119
0.17242948710918427 2.1763579845428467 -0.416543573141098 0
0.17267915606498718 2.1746885776519775 -0.3394630551338196 44
0.1738949716091156 2.185166835784912 -0.26445674896240234 44
0.17252978682518005 2.1632373332977295 -0.18651357293128967 44
0.17252838611602783 2.158466100692749 -0.11110462993383408 44
0.17311127483844757 2.1610093116760254 -0.03680222108960152 44
0.1738976687192917 2.16607666015625 0.5716174840927124 44
0.17381764948368073 2.160353183746338 0.491146445274353 44
0.17349563539028168 2.151653289794922 0.4117773175239563 44
0.17492462694644928 2.164659261703491 0.3375260531902313 44
0.17414170503616333 2.150296211242676 0.26019105315208435 44
0.17675888538360596 2.1778883934020996 0.18782062828540802 44
0.1759452074766159 2.163180351257324 0.11173726618289948 44
0.17490945756435394 2.145811080932617 0.03691183775663376 44
nan nan nan 0
0.1827446073293686 2.2133076190948486 -0.5038906931877136 119
0.1800253689289093 2.1757428646087646 -0.416543573141098 0
0.18026919662952423 2.174072504043579 -0.3394630551338196 44
0.18152156472206116 2.18454647064209 -0.26445674896240234 44
0.180079847574234 2.1626217365264893 -0.18651357293128967 44
0.18006177246570587 2.157850742340088 -0.11110462993383408 44
0.18065352737903595 2.1603920459747314 -0.03680222108960152 44
0.18145762383937836 2.165456533432007 0.5716174840927124 44
0.18135763704776764 2.159733295440674 0.491146445274353 44
0.18100525438785553 2.151034355163574 0.4117773175239563 44
0.18289461731910706 2.1689565181732178 0.33830738067626953 44
0.18164658546447754 2.149675130844116 0.26019105315208435 44
0.18393979966640472 2.172294855117798 0.18738484382629395 44
0.18391720950603485 2.1675283908843994 0.11199893802404404 44
0.18239866197109222 2.1451876163482666 0.03691183775663376 44
0.16614216566085815 1.9340006113052368 -0.5098737478256226 119
0.1908871829509735 2.2175097465515137 -0.5050153732299805 119
0.18761901557445526 2.1751012802124023 -0.416543573141098 0
0.1878570169210434 2.1734299659729004 -0.3394630551338196 44
0.18914596736431122 2.183899402618408 -0.26445674896240234 44
0.18762771785259247 2.161980152130127 -0.18651357293128967 44
0.1875929832458496 2.1572089195251465 -0.11110462993383408 44
0.18819360435009003 2.1597483158111572 -0.03680222108960152 44
0.18901537358760834 2.1648099422454834 0.5716174840927124 44
0.18889538943767548 2.1590869426727295 0.491146445274353 44
0.1885126680135727 2.1503894329071045 0.4117773175239563 44
0.1904645562171936 2.168304920196533 0.33830738067626953 44
0.1895843744277954 2.1539716720581055 0.2608003616333008 44
0.19152140617370605 2.1716394424438477 0.18738484382629395 44
0.19148217141628265 2.166872978210449 0.11199893802404404 44
0.18988566100597382 2.1445376873016357 0.03691183775663376 44
0.17332224547863007 1.9382193088531494 -0.5111678242683411 119
0.1986265778541565 2.216830015182495 -0.5050153732299805 119
0.19521039724349976 2.1744329929351807 -0.416543573141098 0
0.19500015676021576 2.1678426265716553 -0.3386808931827545 44
0.19676803052425385 2.1832258701324463 -0.26445674896240234 44
0.19517329335212708 2.1613118648529053 -0.18651357293128967 44
0.1951219141483307 2.156541109085083 -0.11110462993383408 44
0.19573140144348145 2.159078359603882 -0.03680222108960152 44
0.19657081365585327 2.1641368865966797 0.5716174840927124 44
0.19643087685108185 2.158414602279663 0.491146445274353 44
0.1960177719593048 2.1497182846069336 0.4117773175239563 44
0.1980322003364563 2.1676268577575684 0.33830738067626953 44
0.19710196554660797 2.153296709060669 0.2608003616333008 44
0.19910067319869995 2.1709578037261963 0.18738484382629395 44
0.19904479384422302 2.166191577911377 0.11199893802404404 44
0.19737033545970917 2.143861770629883 0.03691183775663376 44
0.177852064371109 1.913558006286621 -0.504697322845459 119
0.20681528747081757 2.2209744453430176 -0.5061401724815369 0
0.20279939472675323 2.173738479614258 -0.416543573141098 0
0.20256614685058594 2.1671488285064697 -0.3386808931827545 44
0.20438772439956665 2.182525873184204 -0.26445674896240234 44
0.20271648466587067 2.1606173515319824 -0.18651357293128967 44
0.20264846086502075 2.1558468341827393 -0.11110462993383408 44
0.20326679944992065 2.158381700515747 -0.03680222108960152 44
0.2041238695383072 2.163437604904175 0.5716174840927124 44
0.20396395027637482 2.1577155590057373 0.491146445274353 44
0.2035204917192459 2.1490209102630615 0.4117773175239563 44
0.2055974304676056 2.1669223308563232 0.33830738067626953 44
0.20461717247962952 2.1525955200195312 0.2608003616333008 44
0.20667749643325806 2.1702494621276855 0.18738484382629395 44
0.20660500228405 2.1654834747314453 0.11199893802404404 44
0.20485259592533112 2.143159866333008 0.03691183775663376 44
0.18592174351215363 1.9273473024368286 -0.5085796117782593 119
0.2145666629076004 2.2202389240264893 -0.5061401724815369 119
0.21038591861724854 2.1730172634124756 -0.416543573141098 0
0.21012967824935913 2.166428565979004 -0.3386808931827545 44
0.2120049148797989 2.1817991733551025 -0.26445674896240234 44
0.21025720238685608 2.1598966121673584 -0.18651357293128967 44
0.21017253398895264 2.1551263332366943 -0.11110462993383408 44
0.21079972386360168 2.1576590538024902 -0.03680222108960152 44
0.21167442202568054 2.1627118587493896 0.5716174840927124 44
0.2114945501089096 2.1569905281066895 0.491146445274353 44
0.21102073788642883 2.1482975482940674 0.4117773175239563 44
0.21316014230251312 2.166191577911377 0.33830738067626953 44
0.2121298909187317 2.1518681049346924 0.2608003616333008 44
0.21474136412143707 2.174471855163574 0.18782062828540802 44
0.2141627073287964 2.1647491455078125 0.11199893802404404 44
0.21233238279819489 2.1424317359924316 0.03691183775663376 44
0.19168728590011597 1.9170753955841064 -0.5059914588928223 119
0.22231543064117432 2.2194764614105225 -0.5061401724815369 119
0.2179698944091797 2.172269582748413 -0.416543573141098 0
0.21769064664840698 2.165681838989258 -0.3386808931827545 44
0.2196195274591446 2.1810457706451416 -0.26445674896240234 44
0.21779537200927734 2.159149646759033 -0.18651357293128967 44
0.21769404411315918 2.154379367828369 -0.11110462993383408 44
0.21883352100849152 2.161884069442749 -0.03688861429691315 44
0.21922241151332855 2.161959648132324 0.5716174840927124 44
0.21902254223823547 2.1562392711639404 0.491146445274353 44
0.2185184210538864 2.147547960281372 0.4117773175239563 44
0.22072026133537292 2.1654343605041504 0.33830738067626953 44
0.21964001655578613 2.1511147022247314 0.2608003616333008 44
0.22233037650585175 2.173708915710449 0.18782062828540802 44
0.22171778976917267 2.1639883518218994 0.11199893802404404 44
0.21980957686901093 2.1416773796081543 0.03691183775663376 44
0.19837795197963715 1.916394591331482 -0.5059914588928223 119
0.23006150126457214 2.218686819076538 -0.5061401724815369 119
0.22555118799209595 2.1714954376220703 -0.416543573141098 0
0.22575998306274414 2.1698203086853027 -0.3394630551338196 44
0.2277458906173706 2.185201644897461 -0.26506611704826355 44
0.2253308892250061 2.1583762168884277 -0.18651357293128967 44
0.22521290183067322 2.153606414794922 -0.11110462993383408 44
0.22637856006622314 2.161106824874878 -0.03688861429691315 44
0.22727172076702118 2.165984630584717 0.572910726070404 44
0.22654788196086884 2.155461549758911 0.491146445274353 44
0.2260134220123291 2.1467721462249756 0.4117773175239563 44
0.22827769815921783 2.1646506786346436 0.33830738067626953 44
0.22714747488498688 2.1503348350524902 0.2608003616333008 44
0.22991667687892914 2.172919511795044 0.18782062828540802 44
0.22927016019821167 2.163201332092285 0.11199893802404404 44
0.22728407382965088 2.140897035598755 0.03691183775663376 44
0.20558026432991028 1.9204925298690796 -0.5072855353355408 119
0.23780477046966553 2.2178702354431152 -0.5061401724815369 119
0.23312975466251373 2.1706950664520264 -0.416543573141098 0
0.23333269357681274 2.1690189838409424 -0.3394630551338196 44
0.23537226021289825 2.1843934059143066 -0.26506611704826355 44
0.232863649725914 2.157576560974121 -0.18651357293128967 44
0.2332656979560852 2.157771348953247 -0.11136544495820999 44
0.2339208573102951 2.1603033542633057 -0.03688861429691315 44
0.2348310351371765 2.165178060531616 0.572910726070404 44
0.23459666967391968 2.159501075744629 0.4922703802585602 44
0.23350568115711212 2.145969867706299 0.4117773175239563 44
0.2358323484659195 2.1638405323028564 0.33830738067626953 44
0.23465216159820557 2.149528741836548 0.2608003616333008 44
0.23750019073486328 2.1721038818359375 0.18782062828540802 44
0.23681972920894623 2.1623878479003906 0.11199893802404404 44
0.23475581407546997 2.1400907039642334 0.03691183775663376 44
0.2128135859966278 1.9245636463165283 -0.5085796117782593 119
0.2455451339483261 2.217026472091675 -0.5061401724815369 119
0.2407054603099823 2.169867992401123 -0.416543573141098 0
0.24090257287025452 2.1681911945343018 -0.3394630551338196 44
0.24299579858779907 2.183558464050293 -0.26506611704826355 44
0.24039357900619507 2.1567506790161133 -0.18651357293128967 44
0.2407962828874588 2.1569440364837646 -0.11136544495820999 44
0.24146030843257904 2.1594738960266113 -0.03688861429691315 44
0.24238748848438263 2.1643452644348145 0.572910726070404 44
0.24213328957557678 2.1586689949035645 0.4922703802585602 44
0.24099509418010712 2.145141839981079 0.4117773175239563 44
0.24338412284851074 2.163004159927368 0.33830738067626953 44
0.24215398728847504 2.1486966609954834 0.2608003616333008 44
0.24508078396320343 2.171261787414551 0.18782062828540802 44
0.24436643719673157 2.161547899246216 0.11199893802404404 44
0.24222470819950104 2.1392581462860107 0.03691183775663376 44
0.22007784247398376 1.9286075830459595 -0.5098737478256226 119
0.2532825171947479 2.216156005859375 -0.5061401724815369 119
0.2488364428281784 2.173891067504883 -0.41749680042266846 0
0.2484695017337799 2.16733717918396 -0.3394630551338196 44
0.2506163418292999 2.182697057723999 -0.26506611704826355 44
0.24792057275772095 2.155898332595825 -0.18651357293128967 44
0.2483239620923996 2.156090497970581 -0.11136544495820999 44
0.2489968091249466 2.1586177349090576 -0.03688861429691315 44
0.24994097650051117 2.1634860038757324 0.572910726070404 44
0.2496669888496399 2.157810688018799 0.4922703802585602 44
0.24904656410217285 2.149163246154785 0.41273054480552673 44
0.2509329319000244 2.1621415615081787 0.33830738067626953 44
0.24965286254882812 2.1478383541107178 0.2608003616333008 44
0.2526584267616272 2.1703927516937256 0.18782062828540802 44
0.25191015005111694 2.16068172454834 0.11199893802404404 44
0.25027042627334595 2.1433651447296143 0.03699909895658493 44
0.2268086075782776 1.9278275966644287 -0.5098737478256226 119
0.2610167860984802 2.2152583599090576 -0.5061401724815369 119
0.2564232349395752 2.173009157180786 -0.41749680042266846 0
0.25603342056274414 2.166456699371338 -0.3394630551338196 44
0.2582338750362396 2.1818089485168457 -0.26506611704826355 44
0.25544455647468567 2.155019760131836 -0.18651357293128967 44
0.25584861636161804 2.155210494995117 -0.11136544495820999 44
0.2565302848815918 2.1577353477478027 -0.03688861429691315 44
0.25749143958091736 2.16260027885437 0.572910726070404 44
0.25719761848449707 2.156926155090332 0.4922703802585602 44
0.2565470337867737 2.1482808589935303 0.41273054480552673 44
0.25847870111465454 2.161252498626709 0.33830738067626953 44
0.2571486830711365 2.146953821182251 0.2608003616333008 44
0.26023295521736145 2.1694977283477783 0.18782062828540802 44
0.2594507932662964 2.1597893238067627 0.11199893802404404 44
0.25775063037872314 2.1424784660339355 0.03699909895658493 44
0.23411765694618225 1.9318187236785889 -0.5111678242683411 119
0.26874789595603943 2.2143337726593018 -0.5061401724815369 119
0.2640068829059601 2.172100782394409 -0.41749680042266846 0
0.2635941803455353 2.1655497550964355 -0.3394630551338196 44
0.26584821939468384 2.180894136428833 -0.26506611704826355 44
0.26296544075012207 2.1541149616241455 -0.18651357293128967 44
0.2633701264858246 2.154304265975952 -0.11136544495820999 44
0.2640606164932251 2.1568267345428467 -0.03688861429691315 44
0.26503875851631165 2.1616883277893066 0.572910726070404 44
0.2647251486778259 2.156015157699585 0.4922703802585602 44
0.2640443742275238 2.147372245788574 0.41273054480552673 44
0.2660213112831116 2.160336971282959 0.33830738067626953 44
0.2646414041519165 2.146043062210083 0.2608003616333008 44
0.2678043246269226 2.168576240539551 0.18782062828540802 44
0.26637545228004456 2.1539149284362793 0.11173726618289948 44
0.26522770524024963 2.1415655612945557 0.03699909895658493 44
0.24085953831672668 1.9309897422790527 -0.5111678242683411 119
0.276475727558136 2.2133822441101074 -0.5061401724815369 119
0.2715873122215271 2.171165943145752 -0.41749680042266846 0
0.27115175127983093 2.164616584777832 -0.3394630551338196 44
0.2734593451023102 2.179953098297119 -0.26506611704826355 44
0.2704831063747406 2.153183937072754 -0.18651357293128967 44
0.27088844776153564 2.153371810913086 -0.11136544495820999 44
0.2715877294540405 2.1558918952941895 -0.03688861429691315 44
0.2725828289985657 2.160750150680542 0.572910726070404 44
0.2722494304180145 2.1550779342651367 0.4922703802585602 44
0.27153846621513367 2.146437406539917 0.41273054480552673 44
0.2741813361644745 2.164294719696045 0.33908867835998535 44
0.2721308767795563 2.145106315612793 0.2608003616333008 44
0.2753724455833435 2.167628049850464 0.18782062828540802 44
0.2738924026489258 2.1529722213745117 0.11173726618289948 44
0.27270156145095825 2.140626907348633 0.03699909895658493 44
0.24793533980846405 1.9300938844680786 -0.5111678242683411 119
0.28396469354629517 2.207521677017212 -0.5050153732299805 119
0.2795432209968567 2.1701560020446777 -0.41749680042266846 0
0.2790836691856384 2.1636080741882324 -0.3394630551338196 44
0.2814474105834961 2.178936004638672 -0.26506611704826355 44
0.2790120244026184 2.157118082046509 -0.18694935739040375 44
0.27877914905548096 2.152364492416382 -0.11136544495820999 44
0.279487669467926 2.1548819541931152 -0.03688861429691315 44
0.2805005609989166 2.159736394882202 0.572910726070404 44
0.28014636039733887 2.1540656089782715 0.4922703802585602 44
0.2794037461280823 2.145427703857422 0.41273054480552673 44
0.2821120321750641 2.1632752418518066 0.33908867835998535 44
0.2799912393093109 2.144094467163086 0.2608003616333008 44
0.2833153307437897 2.1666042804718018 0.18782062828540802 44
0.2817815840244293 2.15195369720459 0.11173726618289948 44
0.28054553270339966 2.139612913131714 0.03699909895658493 44
0.2546711266040802 1.929216742515564 -0.5111678242683411 119
0.29166868329048157 2.206516981124878 -0.5050153732299805 119
0.28711676597595215 2.1691670417785645 -0.41749680042266846 0
0.2872832417488098 2.1675164699554443 -0.34024524688720703 44
0.2890516221523285 2.1779401302337646 -0.26506611704826355 44
0.28654006123542786 2.156130790710449 -0.18694935739040375 44
0.28629061579704285 2.1513781547546387 -0.11136544495820999 44
0.2870078980922699 2.153893232345581 -0.03688861429691315 44
0.2880377173423767 2.1587440967559814 0.572910726070404 44
0.2876637578010559 2.1530747413635254 0.4922703802585602 44
0.28689098358154297 2.144439458847046 0.41273054480552673 44
0.28966155648231506 2.1622772216796875 0.33908867835998535 44
0.2874738276004791 2.143103837966919 0.2608003616333008 44
0.2915395498275757 2.1705386638641357 0.1882563978433609 44
0.2892916202545166 2.1509571075439453 0.11173726618289948 44
0.288019061088562 2.1386196613311768 0.03699909895658493 44
0.2610672116279602 1.9283616542816162 -0.5111678242683411 119
0.2985991835594177 2.205589771270752 -0.5050153732299805 119
0.29392996430397034 2.1682543754577637 -0.41749680042266846 0
0.29409128427505493 2.1666033267974854 -0.34024524688720703 44
0.2958923876285553 2.1770215034484863 -0.26506611704826355 44
0.29331234097480774 2.1552200317382812 -0.18694935739040375 44
0.2930479347705841 2.150468111038208 -0.11136544495820999 44
0.2937730848789215 2.1529810428619385 -0.03688861429691315 44
0.2948181629180908 2.1578285694122314 0.572910726070404 44
0.29508674144744873 2.156987428665161 0.49339425563812256 44
0.2936265170574188 2.1435275077819824 0.41273054480552673 44
0.2964531183242798 2.1613566875457764 0.33908867835998535 44
0.2942051589488983 2.1421902179718018 0.2608003616333008 44
0.2983570098876953 2.169611930847168 0.1882563978433609 44
0.2967287003993988 2.1549839973449707 0.11199893802404404 44
0.29472967982292175 2.137705087661743 0.03699909895658493 44
0.2674604654312134 1.9274852275848389 -0.5111678242683411 119
0.30629634857177734 2.2045340538024902 -0.5050153732299805 119
0.30149683356285095 2.16721510887146 -0.41749680042266846 119
0.30165234208106995 2.1655635833740234 -0.34024524688720703 44
0.3034898042678833 2.1759753227233887 -0.26506611704826355 44
0.30083367228507996 2.1541831493377686 -0.18694935739040375 44
0.3012441396713257 2.1543772220611572 -0.11162624508142471 44
0.30197978019714355 2.156893491744995 -0.03697500377893448 44
0.3030191659927368 2.161569833755493 0.5742040276527405 44
0.3026142716407776 2.155944347381592 0.49339425563812256 44
0.3011070191860199 2.142489433288574 0.41273054480552673 44
0.30399584770202637 2.160308599472046 0.33908867835998535 44
0.3016809821128845 2.1411502361297607 0.2608003616333008 44
0.3059285581111908 2.1685574054718018 0.1882563978433609 44
0.30424919724464417 2.153935194015503 0.11199893802404404 44
0.3021898865699768 2.1366634368896484 0.03699909895658493 44
0.2748595178127289 1.926444172859192 -0.5111678242683411 119
0.31475886702537537 2.2033417224884033 -0.5050153732299805 119
0.3098160922527313 2.166041612625122 -0.41749680042266846 119
0.30996525287628174 2.1643893718719482 -0.34024524688720703 44
0.311842679977417 2.1747939586639404 -0.26506611704826355 44
0.3091028928756714 2.1530120372772217 -0.18694935739040375 44
0.3095141053199768 2.1532046794891357 -0.11162624508142471 44
0.3102594017982483 2.1557178497314453 -0.03697500377893448 44
0.31131675839424133 2.1603901386260986 0.5742040276527405 44
0.31089022755622864 2.154766321182251 0.49339425563812256 44
0.30933135747909546 2.14131760597229 0.41273054480552673 44
0.3122885525226593 2.159125566482544 0.33908867835998535 44
0.3099001944065094 2.1399760246276855 0.2608003616333008 44
0.31425297260284424 2.1673665046691895 0.1882563978433609 44
0.3125174343585968 2.1527512073516846 0.11199893802404404 44
0.3103918135166168 2.1354873180389404 0.03699909895658493 44
0.2815823554992676 1.9254729747772217 -0.5111678242683411 119
0.3224480152130127 2.2022297382354736 -0.5050153732299805 119
0.3173750936985016 2.1649467945098877 -0.41749680042266846 119
0.3175185024738312 2.1632940769195557 -0.34024524688720703 44
0.3201538026332855 2.178602457046509 -0.26567548513412476 44
0.316616415977478 2.1519200801849365 -0.18694935739040375 44
0.31702831387519836 2.152111053466797 -0.11162624508142471 44
0.3177824020385742 2.1546218395233154 -0.03697500377893448 44
0.31885603070259094 2.159290313720703 0.5742040276527405 44
0.31840988993644714 2.153668165206909 0.49339425563812256 44
0.31680405139923096 2.1402246952056885 0.41273054480552673 44
0.3198234438896179 2.158022165298462 0.33908867835998535 44
0.3180966079235077 2.1437902450561523 0.261409729719162 44
0.3218165636062622 2.1662564277648926 0.1882563978433609 44
0.3200300633907318 2.1516470909118652 0.11199893802404404 44
0.3178507685661316 2.134389877319336 0.03699909895658493 44
0.2883017957210541 1.92447829246521 -0.5111678242683411 119
0.33013325929641724 2.2010905742645264 -0.5050153732299805 119
0.32493022084236145 2.163825750350952 -0.41749680042266846 119
0.3250678777694702 2.162172794342041 -0.34024524688720703 44
0.3277565836906433 2.17747163772583 -0.26567548513412476 44
0.32412609457969666 2.150801658630371 -0.18694935739040375 44
0.3245386481285095 2.150991439819336 -0.11162624508142471 44
0.32530149817466736 2.1534993648529053 -0.03697500377893448 44
0.32566913962364197 2.153388500213623 0.572910726070404 44
0.32592564821243286 2.152543544769287 0.49339425563812256 44
0.32427290081977844 2.139105796813965 0.41273054480552673 44
0.327354371547699 2.156892776489258 0.33908867835998535 44
0.32557788491249084 2.142666816711426 0.261409729719162 44
0.3293762505054474 2.1651198863983154 0.1882563978433609 44
0.32753872871398926 2.1505167484283447 0.11199893802404404 44
0.3252926468849182 2.133268356323242 0.03699909895658493 44
0.2950177490711212 1.9234602451324463 -0.5111678242683411 119
0.3378145098686218 2.199924945831299 -0.5050153732299805 119
0.3332272469997406 2.167529821395874 -0.41844993829727173 119
0.3333645462989807 2.1659059524536133 -0.3410274386405945 44
0.33535540103912354 2.176314115524292 -0.26567548513412476 44
0.3316318392753601 2.1496572494506836 -0.18694935739040375 44
0.3320450484752655 2.1498453617095947 -0.11162624508142471 44
0.33281660079956055 2.152350664138794 -0.03697500377893448 44
0.3331838548183441 2.152238368988037 0.572910726070404 44
0.333437442779541 2.151392698287964 0.49339425563812256 44
0.33249035477638245 2.142810821533203 0.4136837124824524 44
0.33563944697380066 2.160616874694824 0.33987000584602356 44
0.33305519819259644 2.141517162322998 0.261409729719162 44
0.3369319438934326 2.163956880569458 0.1882563978433609 44
0.335812509059906 2.154294013977051 0.11226062476634979 44
0.33350804448127747 2.137059450149536 0.0370863638818264 44
0.30098119378089905 1.917647361755371 -0.5098737478256226 119
0.3454916179180145 2.1987321376800537 -0.5050153732299805 119
0.3407912850379944 2.166353225708008 -0.41844993829727173 119
0.3409229815006256 2.164729118347168 -0.3410274386405945 44
0.34295010566711426 2.1751303672790527 -0.26567548513412476 44
0.33913350105285645 2.148486375808716 -0.18694935739040375 44
0.33954736590385437 2.1486732959747314 -0.11162624508142471 44
0.3403276801109314 2.1511759757995605 -0.03697500377893448 44
0.3406945466995239 2.151062250137329 0.572910726070404 44
0.34094515442848206 2.1502156257629395 0.49339425563812256 44
0.33996814489364624 2.1416373252868652 0.4136837124824524 44
0.3431793451309204 2.1594321727752686 0.33987000584602356 44
0.3405284583568573 2.1403417587280273 0.261409729719162 44
0.34448352456092834 2.1627676486968994 0.1882563978433609 44
0.34333035349845886 2.153108596801758 0.11226062476634979 44
0.34096574783325195 2.1358823776245117 0.0370863638818264 44
0.30767321586608887 1.9165852069854736 -0.5098737478256226 119
0.3531644940376282 2.1975128650665283 -0.5050153732299805 119
0.34835121035575867 2.1651506423950195 -0.41844993829727173 119
0.34847718477249146 2.1635258197784424 -0.3410274386405945 44
0.3505406379699707 2.173919916152954 -0.26567548513412476 44
0.3466310501098633 2.147289514541626 -0.18694935739040375 44
0.34704557061195374 2.147475004196167 -0.11162624508142471 44
0.3486330509185791 2.154910087585449 -0.03706139326095581 44
0.3489733636379242 2.154628038406372 0.5742040276527405 44
0.34922856092453003 2.1538217067718506 0.4945181906223297 44
0.34744179248809814 2.140437364578247 0.4136837124824524 44
0.3507150709629059 2.1582210063934326 0.33987000584602356 44
0.3479975759983063 2.1391398906707764 0.261409729719162 44
0.35283157229423523 2.166468620300293 0.18869218230247498 44
0.35084402561187744 2.1518971920013428 0.11226062476634979 44
0.34841927886009216 2.134679079055786 0.0370863638818264 44
0.31436145305633545 1.9154994487762451 -0.5098737478256226 119
0.36004331707954407 2.1914596557617188 -0.5038906931877136 119
0.3559068739414215 2.163921356201172 -0.41844993829727173 119
0.35602718591690063 2.1622960567474365 -0.3410274386405945 44
0.3581269085407257 2.1726832389831543 -0.26567548513412476 44
0.35493531823158264 2.1509809494018555 -0.18738512694835663 44
0.35453954339027405 2.1462504863739014 -0.11162624508142471 44
0.3561529815196991 2.1536800861358643 -0.03706139326095581 44
0.356492280960083 2.1533968448638916 0.5742040276527405 44
0.356744647026062 2.1525895595550537 0.4945181906223297 44
0.354911208152771 2.139211654663086 0.4136837124824524 44
0.3582465350627899 2.1569838523864746 0.33987000584602356 44
0.3554624617099762 2.1379122734069824 0.261409729719162 44
0.3603918254375458 2.1652238368988037 0.18869218230247498 44
0.3583534061908722 2.1506593227386475 0.11226062476634979 44
0.3558685779571533 2.1334497928619385 0.0370863638818264 44
0.3210459053516388 1.9143904447555542 -0.5098737478256226 119
0.367690771818161 2.1901893615722656 -0.5038906931877136 119
0.36427170038223267 2.167506217956543 -0.41940316557884216 119
0.3635728359222412 2.1610403060913086 -0.3410274386405945 44
0.36653298139572144 2.176313638687134 -0.2662848234176636 44
0.36244145035743713 2.149728775024414 -0.18738512694835663 44
0.36202919483184814 2.1449997425079346 -0.11162624508142471 44
0.3636685609817505 2.152423620223999 -0.03706139326095581 44
0.3640068471431732 2.152139186859131 0.5742040276527405 44
0.3642564117908478 2.1513311862945557 0.4945181906223297 44
0.36237627267837524 2.1379597187042236 0.4136837124824524 44
0.36577361822128296 2.1557199954986572 0.33987000584602356 44
0.3637540340423584 2.1415507793426514 0.2620190680027008 44
0.36794763803482056 2.163952589035034 0.18869218230247498 44
0.36669623851776123 2.154317617416382 0.11252229660749435 44
0.3641532063484192 2.137122631072998 0.037173621356487274 44
0.3277263939380646 1.9132581949234009 -0.5098737478256226 119
0.3753337264060974 2.1888926029205322 -0.5038906931877136 119
0.37183547019958496 2.1662216186523438 -0.41940316557884216 119
0.3711140751838684 2.1597580909729004 -0.3410274386405945 44
