# .PCD v0.7 - Point Cloud Data file format
VERSION 0.7
FIELDS x y z intensity
SIZE 4 4 4 4
TYPE F F F F
COUNT 1 1 1 1
WIDTH 768
HEIGHT 1
VIEWPOINT 0 0 0 1 0 0 0
POINTS 768
DATA ascii
-0.5036402940750122 2.2149903774261475 -0.43370094895362854 119
-0.5030096173286438 2.2140040397644043 -0.35354217886924744 44
-0.5028563737869263 2.215118885040283 -0.27420634031295776 44
-0.5031837821006775 2.2183547019958496 -0.19566494226455688 44
-0.5073204636573792 2.2384026050567627 -0.11788567155599594 44
-0.5031181573867798 2.2216598987579346 -0.03870280832052231 44
-0.4998387098312378 2.208968162536621 0.5961893200874329 44
-0.49837037920951843 2.20426607131958 0.5125006437301636 44
-0.497302383184433 2.201328754425049 0.4308411180973053 44
-0.4988439083099365 2.209946870803833 0.352370947599411 44
-0.4953954517841339 2.1964542865753174 0.27176862955093384 44
-0.5022760629653931 2.228773355484009 0.19653619825839996 44
-0.49870565533638 2.2147328853607178 0.11697085201740265 44
-0.4923325777053833 2.1882121562957764 0.038482554256916046 44
-0.4304356575012207 1.9225050210952759 -0.5176383256912231 119
-0.4859030544757843 2.1720235347747803 -0.5050153732299805 119
-0.4955185651779175 2.2168214321136475 -0.43370094895362854 119
-0.494891494512558 2.2158327102661133 -0.35354217886924744 44
-0.49473416805267334 2.216947078704834 -0.27420634031295776 44
-0.49504974484443665 2.220184087753296 -0.19566494226455688 44
-0.49911290407180786 2.2402470111846924 -0.11788567155599594 44
-0.4938856363296509 2.218609094619751 -0.03861641883850098 44
-0.49173906445503235 2.210785388946533 0.5961893200874329 44
-0.4902879595756531 2.206078052520752 0.5125006437301636 44
-0.489230751991272 2.203136682510376 0.4308411180973053 44
-0.49074068665504456 2.2117602825164795 0.352370947599411 44
-0.4873417019844055 2.1982553005218506 0.27176862955093384 44
-0.4941037893295288 2.2305994033813477 0.19653619825839996 44
-0.4895058870315552 2.2116706371307373 0.11670918017625809 44
-0.4843091070652008 2.190001964569092 0.038482554256916046 44
-0.42164477705955505 1.9145625829696655 -0.5150501132011414 119
-0.47831833362579346 2.173706293106079 -0.5050153732299805 119
-0.4867234230041504 2.2137441635131836 -0.4327477812767029 119
-0.4860941469669342 2.2127232551574707 -0.35275998711586 44
-0.48699256777763367 2.218660593032837 -0.27420634031295776 44
-0.486229807138443 2.2170333862304688 -0.195229172706604 44
-0.4902211129665375 2.237098217010498 -0.11762485653162003 44
-0.48506903648376465 2.2154359817504883 -0.038530029356479645 44
-0.4840189814567566 2.2124881744384766 0.5961893200874329 44
-0.4815439283847809 2.2030162811279297 0.5113767385482788 44
-0.480490118265152 2.200035810470581 0.42988792061805725 44
-0.4819643497467041 2.208634853363037 0.3515896499156952 44
-0.4786081314086914 2.195094108581543 0.27115926146507263 44
-0.4863145351409912 2.2323105335235596 0.19653619825839996 44
-0.4817827343940735 2.2133657932281494 0.11670918017625809 44
-0.4766550660133362 2.191680669784546 0.038482554256916046 44
-0.4173397123813629 1.925390362739563 -0.5176383256912231 119
-0.4704550802707672 2.1704373359680176 -0.5038906931877136 119
-0.4797663688659668 2.2152624130249023 -0.4327477812767029 119
-0.4791402816772461 2.2142393589019775 -0.35275998711586 44
-0.4789712727069855 2.2153286933898926 -0.27359697222709656 44
-0.47926241159439087 2.218549966812134 -0.195229172706604 44
-0.4831906259059906 2.2386271953582764 -0.11762485653162003 44
-0.4770526885986328 2.212061882019043 -0.038443636149168015 44
-0.47604846954345703 2.2092764377593994 0.5948960185050964 44
-0.4746205806732178 2.2045183181762695 0.5113767385482788 44
-0.473576158285141 2.2015342712402344 0.42988792061805725 44
-0.4750233590602875 2.2101383209228516 0.3515896499156952 44
-0.4717096984386444 2.196586847305298 0.27115926146507263 44
-0.4782542288303375 2.228957414627075 0.19610042870044708 44
-0.47378021478652954 2.2099862098693848 0.11644749343395233 44
-0.46977391839027405 2.1931660175323486 0.038482554256916046 44
-0.40994516015052795 1.922040343284607 -0.5163442492485046 119
-0.46287596225738525 2.1720664501190186 -0.5038906931877136 119
-0.4710085391998291 2.212122678756714 -0.43179458379745483 119
-0.47038063406944275 2.2110681533813477 -0.3519778251647949 44
-0.47123539447784424 2.216987133026123 -0.27359697222709656 44
-0.47151532769203186 2.2202093601226807 -0.195229172706604 44
-0.47433701157569885 2.2354156970977783 -0.1173640564084053 44
-0.46932825446128845 2.2137136459350586 -0.038443636149168015 44
-0.46833378076553345 2.2109246253967285 0.5948960185050964 44
-0.4659137427806854 2.201395273208618 0.510252833366394 44
-0.46588847041130066 2.203174114227295 0.42988792061805725 44
-0.46628475189208984 2.206951141357422 0.350808322429657 44
-0.46301427483558655 2.193364381790161 0.2705499529838562 44
-0.4704707860946655 2.2306132316589355 0.19610042870044708 44
-0.4660630226135254 2.2116265296936035 0.11644749343395233 44
-0.46211546659469604 2.1947925090789795 0.038482554256916046 44
-0.4035513401031494 1.9283274412155151 -0.5176383256912231 119
-0.4545324444770813 2.173827648162842 -0.5038906931877136 119
-0.4625111222267151 2.213914632797241 -0.43179458379745483 119
-0.46188727021217346 2.212857961654663 -0.3519778251647949 44
-0.46170616149902344 2.2139220237731934 -0.27298763394355774 44
-0.46197083592414856 2.2171270847320557 -0.19479337334632874 44
-0.465750128030777 2.237220525741577 -0.1173640564084053 44
-0.4598067104816437 2.2106049060821533 -0.03835725039243698 44
-0.4588582217693329 2.207977533340454 0.59360271692276 44
-0.457457572221756 2.2031681537628174 0.510252833366394 44
-0.45742547512054443 2.204946756362915 0.42988792061805725 44
-0.4578072726726532 2.2087249755859375 0.350808322429657 44
-0.45458897948265076 2.1951260566711426 0.2705499529838562 44
-0.4608931541442871 2.227525472640991 0.19566462934017181 44
-0.4565567672252655 2.208510160446167 0.11618582159280777 44
-0.4526734948158264 2.191654682159424 0.038395293056964874 44
-0.39681777358055115 1.9297244548797607 -0.5176383256912231 119
-0.446941614151001 2.175400972366333 -0.5038906931877136 119
-0.4547802805900574 2.215515613555908 -0.43179458379745483 119
-0.45316794514656067 2.2096188068389893 -0.35119566321372986 44
-0.4539753496646881 2.215520143508911 -0.27298763394355774 44
-0.45422878861427307 2.21872615814209 -0.19479337334632874 44
-0.45693734288215637 2.233940601348877 -0.11710324138402939 44
-0.45108649134635925 2.2072982788085938 -0.03827085718512535 44
-0.451148122549057 2.2095658779144287 0.59360271692276 44
-0.44879040122032166 2.199977397918701 0.5091289281845093 44
-0.44874581694602966 2.201720714569092 0.4289347529411316 44
-0.44910913705825806 2.205470323562622 0.35002702474594116 44
-0.44593438506126404 2.191836357116699 0.269940584897995 44
-0.45212259888648987 2.2242395877838135 0.19522887468338013 44
-0.448844850063324 2.210090398788452 0.11618582159280777 44
-0.4450138807296753 2.193222761154175 0.038395293056964874 44
-0.3900793492794037 1.9310977458953857 -0.5176383256912231 119
-0.4393453299999237 2.176947832107544 -0.5038906931877136 119
-0.4460738003253937 2.2122786045074463 -0.4308414161205292 119
-0.44545218348503113 2.2111871242523193 -0.35119566321372986 44
-0.4462389349937439 2.2170913219451904 -0.27298763394355774 44
-0.44648122787475586 2.2202982902526855 -0.19479337334632874 44
-0.4491366446018219 2.2355220317840576 -0.11710324138402939 44
-0.44239503145217896 2.203958511352539 -0.03818446770310402 44
-0.4424828886985779 2.2063918113708496 0.5923095345497131 44
-0.4411083161830902 2.201530694961548 0.5091289281845093 44
-0.44105759263038635 2.2032737731933594 0.4289347529411316 44
-0.44140785932540894 2.2070248126983643 0.35002702474594116 44
-0.43828073143959045 2.1933796405792236 0.269940584897995 44
-0.4443558156490326 2.225804090499878 0.19522887468338013 44
-0.44015079736709595 2.206746816635132 0.11592413485050201 44
-0.4373619258403778 2.1947615146636963 0.038395293056964874 44
-0.3833361864089966 1.9324476718902588 -0.5176383256912231 119
-0.43174368143081665 2.1784682273864746 -0.5038906931877136 119
-0.43834879994392395 2.21382212638855 -0.4308414161205292 119
-0.43773096799850464 2.21272873878479 -0.35119566321372986 44
-0.437534898519516 2.2137670516967773 -0.27237826585769653 44
-0.4387282133102417 2.2218432426452637 -0.19479337334632874 44
-0.44036412239074707 2.232177734375 -0.11684243381023407 44
-0.43469905853271484 2.205489158630371 -0.03818446770310402 44
-0.43477845191955566 2.20792293548584 0.5923095345497131 44
-0.43248042464256287 2.1982767581939697 0.5080050230026245 44
-0.4333640933036804 2.2047998905181885 0.4289347529411316 44
-0.43274959921836853 2.2037060260772705 0.34924569725990295 44
-0.4306217432022095 2.1948962211608887 0.269940584897995 44
-0.43562549352645874 2.2224535942077637 0.19479307532310486 44
-0.43148550391197205 2.2033698558807373 0.11566246300935745 44
-0.42873820662498474 2.191368579864502 0.038308028131723404 44
-0.3765883445739746 1.9337739944458008 -0.5176383256912231 119
-0.42506715655326843 2.184743881225586 -0.5050153732299805 119
-0.4296818673610687 2.2105202674865723 -0.42988821864128113 119
-0.4290630519390106 2.20939564704895 -0.3504135012626648 44
-0.4298047721385956 2.215280771255493 -0.27237826585769653 44
-0.4300220310688019 2.2184715270996094 -0.19435760378837585 44
-0.4316202700138092 2.2287988662719727 -0.11658161878585815 44
-0.4260481894016266 2.20208477973938 -0.03809807822108269 44
-0.42615213990211487 2.2046849727630615 0.5910162329673767 44
-0.42480435967445374 2.199773073196411 0.5080050230026245 44
-0.4247353672981262 2.201479434967041 0.42798152565956116 44
-0.4250545799732208 2.205203056335449 0.34924569725990295 44
-0.4220190644264221 2.1915128231048584 0.2693312466144562 44
-0.4269240200519562 2.219069719314575 0.19435730576515198 44
-0.42379167675971985 2.204862594604492 0.11566246300935745 44
-0.42108628153800964 2.1928517818450928 0.038308028131723404 44
-0.36892929673194885 1.930332899093628 -0.5163442492485046 119
-0.4174383878707886 2.1862142086029053 -0.5050153732299805 119
-0.421963095664978 2.2120068073272705 -0.42988821864128113 119
-0.4213482141494751 2.2108798027038574 -0.3504135012626648 44
-0.42206940054893494 2.2167675495147705 -0.27237826585769653 44
-0.42227548360824585 2.219959020614624 -0.19435760378837585 44
-0.4229055345058441 2.22538685798645 -0.11632081866264343 44
-0.4183588922023773 2.2035584449768066 -0.03809807822108269 44
-0.41845372319221497 2.2061591148376465 0.5910162329673767 44
-0.41712313890457153 2.201242446899414 0.5080050230026245 44
-0.4170481860637665 2.202948570251465 0.42798152565956116 44
-0.41735440492630005 2.2066733837127686 0.34924569725990295 44
-0.4143666923046112 2.1929726600646973 0.2693312466144562 44
-0.41825148463249207 2.215651750564575 0.1939215213060379 44
-0.41516733169555664 2.2014217376708984 0.1154007762670517 44
-0.4125036299228668 2.1893956661224365 0.03822077065706253 44
-0.3612988293170929 1.9268620014190674 -0.5150501132011414 119
-0.41070157289505005 2.1924469470977783 -0.5061401724815369 119
-0.4133363366127014 2.208641767501831 -0.42893505096435547 119
-0.4136282503604889 2.2123372554779053 -0.3504135012626648 44
-0.41341763734817505 2.2133491039276123 -0.2717689573764801 44
-0.4136101007461548 2.216522693634033 -0.19392181932926178 44
-0.41421979665756226 2.221940517425537 -0.11606000363826752 44
-0.4097491502761841 2.2000906467437744 -0.038011688739061356 44
-0.41075024008750916 2.207606315612793 0.5910162329673767 44
-0.40943682193756104 2.2026851177215576 0.5080050230026245 44
-0.4084598124027252 2.1995654106140137 0.4270283579826355 44
-0.409649133682251 2.2081167697906494 0.34924569725990295 44
-0.4058048725128174 2.189525842666626 0.26872187852859497 44
-0.40960803627967834 2.21220064163208 0.19348575174808502 44
-0.4074804186820984 2.202857494354248 0.1154007762670517 44
-0.40485867857933044 2.190822124481201 0.03822077065706253 44
-0.3545706272125244 1.9281115531921387 -0.5150501132011414 119
-0.40304604172706604 2.1938672065734863 -0.5061401724815369 119
-0.4056241810321808 2.210071325302124 -0.42893505096435547 119
-0.4050125479698181 2.2089099884033203 -0.34963130950927734 44
-0.4056890904903412 2.2147786617279053 -0.2717689573764801 44
-0.4049738943576813 2.2130534648895264 -0.1934860497713089 44
-0.4055633246898651 2.218461275100708 -0.1157992035150528 44
-0.4020669162273407 2.201507568359375 -0.038011688739061356 44
-0.40217483043670654 2.204275369644165 0.5897230505943298 44
-0.4017455279827118 2.2041008472442627 0.5080050230026245 44
-0.4007793962955475 2.2009778022766113 0.4270283579826355 44
-0.4010549783706665 2.204674482345581 0.3484644293785095 44
-0.3981595039367676 2.1909289360046387 0.26872187852859497 44
-0.4018835425376892 2.2136170864105225 0.19348575174808502 44
-0.3988974988460541 2.1993536949157715 0.11513910442590714 44
-0.3972088396549225 2.1922218799591064 0.03822077065706253 44
-0.3478381037712097 1.9293373823165894 -0.5150501132011414 119
-0.39452192187309265 2.1904656887054443 -0.5050153732299805 119
-0.39703795313835144 2.2066428661346436 -0.42798182368278503 119
-0.39729955792427063 2.210310220718384 -0.34963130950927734 44
-0.39795562624931335 2.2161812782287598 -0.2717689573764801 44
-0.39724642038345337 2.21445369720459 -0.1934860497713089 44
-0.3969361484050751 2.2149484157562256 -0.11553838849067688 44
-0.39437976479530334 2.202897548675537 -0.038011688739061356 44
-0.3944780230522156 2.2056658267974854 0.5897230505943298 44
-0.3940493166446686 2.2054896354675293 0.5080050230026245 44
-0.39223161339759827 2.197531223297119 0.42607516050338745 44
-0.3933567702770233 2.2060608863830566 0.3484644293785095 44
-0.3896390497684479 2.187419891357422 0.26811254024505615 44
-0.3932814300060272 2.210102081298828 0.19304996728897095 44
-0.3912178874015808 2.200732707977295 0.11513910442590714 44
-0.38955411314964294 2.1935951709747314 0.03822077065706253 44
-0.3419416546821594 1.935295820236206 -0.5163442492485046 119
-0.38687336444854736 2.1918294429779053 -0.5050153732299805 119
-0.38933292031288147 2.2080154418945312 -0.42798182368278503 119
-0.38872504234313965 2.206820011138916 -0.3488491475582123 44
-0.39021724462509155 2.217556953430176 -0.2717689573764801 44
-0.3886517584323883 2.210921049118042 -0.19305026531219482 44
-0.388338565826416 2.2114028930664062 -0.11527758091688156 44
-0.3866878151893616 2.20426082611084 -0.038011688739061356 44
-0.3859427273273468 2.2022719383239746 0.5884297490119934 44
-0.3855081796646118 2.202052593231201 0.5068811178207397 44
-0.38455840945243835 2.1988871097564697 0.42607516050338745 44
-0.3856537938117981 2.207420587539673 0.3484644293785095 44
-0.3820011615753174 2.1887667179107666 0.26811254024505615 44
-0.38556432723999023 2.2114615440368652 0.19304996728897095 44
-0.38267675042152405 2.1971657276153564 0.11487741768360138 44
-0.38103774189949036 2.190016269683838 0.03813350573182106 44
-0.33518415689468384 1.9364776611328125 -0.5163442492485046 119
-0.37755993008613586 2.183565378189087 -0.5027658939361572 119
-0.38162314891815186 2.2093610763549805 -0.42798182368278503 119
-0.38017967343330383 2.2032968997955322 -0.34806695580482483 44
-0.38163116574287415 2.214014768600464 -0.2711595892906189 44
-0.3809318244457245 2.2122642993927 -0.19305026531219482 44
-0.3797704577445984 2.2078237533569336 -0.11501676589250565 44
-0.3781445324420929 2.2006702423095703 -0.037925295531749725 44
-0.3782529830932617 2.2036056518554688 0.5884297490119934 44
-0.3778192400932312 2.2033848762512207 0.5068811178207397 44
-0.3760518729686737 2.195378303527832 0.4251219928264618 44
-0.3771131932735443 2.203885316848755 0.3476831018924713 44
-0.37352243065834045 2.185194969177246 0.26750320196151733 44
-0.3778425455093384 2.2127938270568848 0.19304996728897095 44
-0.3750048875808716 2.1984879970550537 0.11487741768360138 44
-0.3733908236026764 2.1913328170776367 0.03813350573182106 44
-0.32842254638671875 1.937635898590088 -0.5163442492485046 119
-0.3699355721473694 2.1848702430725098 -0.5027658939361572 119
-0.3739086985588074 2.210679531097412 -0.42798182368278503 119
-0.372486412525177 2.2046103477478027 -0.34806695580482483 44
-0.37390047311782837 2.2153334617614746 -0.2711595892906189 44
-0.3723791837692261 2.2086689472198486 -0.19261449575424194 44
-0.3720613718032837 2.2091357707977295 -0.11501676589250565 44
-0.3704604208469391 2.201976776123047 -0.037925295531749725 44
-0.3697581887245178 2.2001495361328125 0.5871365070343018 44
-0.3701256811618805 2.204690456390381 0.5068811178207397 44
-0.36838629841804504 2.1966776847839355 0.4251219928264618 44
-0.36941787600517273 2.205188512802124 0.3476831018924713 44
-0.3658923804759979 2.1864852905273438 0.26750320196151733 44
-0.3692949414253235 2.209186553955078 0.19261419773101807 44
-0.36650604009628296 2.1948587894439697 0.11461574584245682 44
-0.3657393455505371 2.1926229000091553 0.03813350573182106 44
-0.32244738936424255 1.9435348510742188 -0.5176383256912231 119
-0.36310330033302307 2.1909544467926025 -0.5038906931877136 119
-0.36538806557655334 2.2071290016174316 -0.4270286560058594 119
-0.3639829158782959 2.2010250091552734 -0.34728479385375977 44
-0.3661652207374573 2.2166249752044678 -0.2711595892906189 44
-0.36466723680496216 2.2099552154541016 -0.19261449575424194 44
-0.3635357618331909 2.2054946422576904 -0.11475596576929092 44
-0.3627718389034271 2.203256368637085 -0.037925295531749725 44
-0.3620759844779968 2.2014267444610596 0.5871365070343018 44
-0.36163774132728577 2.2011611461639404 0.505757212638855 44
-0.36071619391441345 2.1979501247406006 0.4251219928264618 44
-0.361718088388443 2.2064645290374756 0.3476831018924713 44
-0.358257919549942 2.187749147415161 0.26750320196151733 44
-0.3615812063217163 2.2104623317718506 0.19261419773101807 44
-0.35884231328964233 2.196124792098999 0.11461574584245682 44
-0.3572781980037689 2.188952684402466 0.03804624453186989 44
-0.3164350390434265 1.9494158029556274 -0.5189324021339417 119
-0.355453222990036 2.192208766937256 -0.5038906931877136 119
-0.3576815128326416 2.208390951156616 -0.4270286560058594 119
-0.35629767179489136 2.202282190322876 -0.34728479385375977 44
-0.3592173159122467 2.2227890491485596 -0.2717689573764801 44
-0.35615700483322144 2.2062973976135254 -0.19217871129512787 44
-0.3550400733947754 2.2018208503723145 -0.11449515074491501 44
-0.3550788164138794 2.2045092582702637 -0.037925295531749725 44
-0.35438936948776245 2.2026772499084473 0.5871365070343018 44
-0.3539520502090454 2.2024102210998535 0.505757212638855 44
-0.35304173827171326 2.1991958618164062 0.4251219928264618 44
-0.3532319962978363 2.2028374671936035 0.3469018042087555 44
-0.35061904788017273 2.188986301422119 0.26750320196151733 44
-0.35386303067207336 2.2117109298706055 0.19261419773101807 44
-0.35038626194000244 2.1924333572387695 0.11435405910015106 44
-0.34963515400886536 2.1901865005493164 0.03804624453186989 44
-0.3100443184375763 1.955332636833191 -0.5202265381813049 119
-0.34817808866500854 2.1983084678649902 -0.5050153732299805 119
-0.34881794452667236 2.204838991165161 -0.42607545852661133 119
-0.3482235074043274 2.203573226928711 -0.34728479385375977 44
-0.35338926315307617 2.2387967109680176 -0.27359697222709656 44
-0.34806811809539795 2.207587957382202 -0.19217871129512787 44
-0.34696757793426514 2.2031071186065674 -0.11449515074491501 44
-0.3469965159893036 2.205796003341675 -0.037925295531749725 44
-0.3455640375614166 2.1991899013519287 0.5858432650566101 44
-0.34512200951576233 2.1988797187805176 0.5046333074569702 44
-0.3442187011241913 2.1956260204315186 0.42416879534721375 44
-0.34515580534935 2.2041175365448 0.3469018042087555 44
-0.34182673692703247 2.1853537559509277 0.2668938636779785 44
-0.3449854254722595 2.208071708679199 0.192178413271904 44
-0.34234824776649475 2.1937026977539062 0.11435405910015106 44
-0.3408353626728058 2.1865134239196777 0.037958983331918716 44
-0.3039567172527313 1.961175560951233 -0.5215205550193787 119
-0.34050241112709045 2.199510335922241 -0.5050153732299805 119
-0.3411194980144501 2.206043004989624 -0.42607545852661133 119
-0.3397756814956665 2.199894905090332 -0.3465026021003723 44
-0.347085565328598 2.249825954437256 -0.2748156785964966 44
-0.3396015167236328 2.203866481781006 -0.191742941737175 44
-0.33851560950279236 2.1993699073791504 -0.11423435062170029 44
-0.3385351300239563 2.202052593231201 -0.03783890977501869 44
-0.337885320186615 2.200382947921753 0.5858432650566101 44
-0.33744439482688904 2.200070858001709 0.5046333074569702 44
-0.3365524113178253 2.1968140602111816 0.42416879534721375 44
-0.33671286702156067 2.2004268169403076 0.3461204767227173 44
-0.3341963291168213 2.1865336894989014 0.2668938636779785 44
-0.3372757136821747 2.2092626094818115 0.192178413271904 44
-0.334688663482666 2.1948845386505127 0.11435405910015106 44
-0.3331943154335022 2.1876907348632812 0.037958983331918716 44
-0.2978321313858032 1.9669997692108154 -0.5228146910667419 119
-0.33282265067100525 2.200685501098633 -0.5050153732299805 119
-0.3334169089794159 2.2072205543518066 -0.42607545852661133 119
-0.33209455013275146 2.2010676860809326 -0.3465026021003723 44
-0.34144869446754456 2.2657458782196045 -0.2766437232494354 44
-0.3319064974784851 2.205038547515869 -0.191742941737175 44
-0.33083632588386536 2.200538158416748 -0.11423435062170029 44
-0.3308464586734772 2.203220844268799 -0.03783890977501869 44
-0.32948610186576843 2.196772813796997 0.5845500230789185 44
-0.32904085516929626 2.1964173316955566 0.5035094022750854 44
-0.3281557261943817 2.1931211948394775 0.4232156276702881 44
-0.3290298581123352 2.2015888690948486 0.3461204767227173 44
-0.3265618681907654 2.1876869201660156 0.2668938636779785 44
-0.3288274109363556 2.2055001258850098 0.1917426437139511 44
-0.32628965377807617 2.191100835800171 0.1140923872590065 44
-0.325562447309494 2.1888396739959717 0.037958983331918716 44
-0.29025784134864807 1.963249683380127 -0.5215205550193787 119
-0.32513877749443054 2.201833963394165 -0.5050153732299805 119
-0.3249940872192383 2.20351505279541 -0.42512229084968567 119
-0.32368966937065125 2.1973278522491455 -0.34572046995162964 44
-0.33426007628440857 2.271833658218384 -0.27725306153297424 44
-0.32348325848579407 2.2012555599212646 -0.19130714237689972 44
-0.322427898645401 2.1967391967773438 -0.11397353559732437 44
-0.3231537640094757 2.204362392425537 -0.03783890977501869 44
-0.32181593775749207 2.197909355163574 0.5845500230789185 44
-0.3213719129562378 2.197552442550659 0.5035094022750854 44
-0.3204982876777649 2.194253444671631 0.4232156276702881 44
-0.3206299841403961 2.1978373527526855 0.34533917903900146 44
-0.31820788979530334 2.1839027404785156 0.2662844955921173 44
-0.3211267590522766 2.206634521484375 0.1917426437139511 44
-0.31863927841186523 2.1922264099121094 0.1140923872590065 44
-0.3179199695587158 2.18996262550354 0.037958983331918716 44
-0.282713383436203 1.9594708681106567 -0.5202265381813049 119
-0.31745094060897827 2.202955484390259 -0.5050153732299805 119
-0.31730037927627563 2.2046360969543457 -0.42512229084968567 119
-0.31601759791374207 2.198444366455078 -0.34572046995162964 44
-0.3263278603553772 2.272986650466919 -0.27725306153297424 44
-0.31579744815826416 2.20237135887146 -0.19130714237689972 44
-0.3147578835487366 2.1978511810302734 -0.11397353559732437 44
-0.31474927067756653 2.2005279064178467 -0.03775251656770706 44
-0.3141418695449829 2.199019432067871 0.5845500230789185 44
-0.3136990964412689 2.1986608505249023 0.5035094022750854 44
-0.31283697485923767 2.1953587532043457 0.4232156276702881 44
-0.31295615434646606 2.1989431381225586 0.34533917903900146 44
-0.3105827271938324 2.18500018119812 0.2662844955921173 44
-0.31342220306396484 2.2077419757843018 0.1917426437139511 44
-0.3109850585460663 2.1933252811431885 0.1140923872590065 44
-0.3102736473083496 2.191059112548828 0.037958983331918716 44
-0.2751988172531128 1.9556632041931152 -0.5189324021339417 119
-0.309759259223938 2.204050064086914 -0.5050153732299805 119
-0.30960285663604736 2.2057301998138428 -0.42512229084968567 119
-0.30765601992607117 2.194643259048462 -0.3449382781982422 44
-0.31839168071746826 2.2741119861602783 -0.27725306153297424 44
-0.3074180781841278 2.1985273361206055 -0.19087137281894684 44
-0.30639341473579407 2.1939914226531982 -0.11371272802352905 44
-0.30706605315208435 2.201613187789917 -0.03775251656770706 44
-0.30646392703056335 2.2001025676727295 0.5845500230789185 44
-0.30535104870796204 2.1949167251586914 0.5023854970932007 44
-0.3044963777065277 2.191575765609741 0.42226240038871765 44
-0.30459970235824585 2.1951301097869873 0.34455785155296326 44
-0.3022724986076355 2.181155204772949 0.2656751573085785 44
-0.3050309419631958 2.2038886547088623 0.19130685925483704 44
-0.3026433289051056 2.189451217651367 0.11383070051670074 44
-0.30193984508514404 2.187176465988159 0.037871718406677246 44
-0.26771432161331177 1.9518272876739502 -0.5176383256912231 119
-0.30206382274627686 2.20511794090271 -0.5050153732299805 119
-0.30123621225357056 2.201934337615967 -0.4241690933704376 119
-0.2999934256076813 2.1957037448883057 -0.3449382781982422 44
-0.30978065729141235 2.270292282104492 -0.2766437232494354 44
-0.2997419238090515 2.199587106704712 -0.19087137281894684 44
-0.298733115196228 2.195047616958618 -0.11371272802352905 44
-0.2987058758735657 2.1977181434631348 -0.03766612708568573 44
-0.29813259840011597 2.1963727474212646 0.583256721496582 44
-0.29768750071525574 2.1959691047668457 0.5023854970932007 44
-0.296844482421875 2.1926252841949463 0.42226240038871765 44
-0.29693543910980225 2.1961801052093506 0.34455785155296326 44
-0.29465702176094055 2.182197093963623 0.2656751573085785 44
-0.2973361015319824 2.204939842224121 0.19130685925483704 44
-0.2949988842010498 2.1904945373535156 0.11383070051670074 44
-0.2943033277988434 2.1882169246673584 0.037871718406677246 44
-0.2602599859237671 1.9479626417160034 -0.5163442492485046 119
-0.29436469078063965 2.2061588764190674 -0.5050153732299805 119
-0.29354819655418396 2.202972650527954 -0.4241690933704376 119
-0.2923271656036377 2.19673752784729 -0.3449382781982422 44
-0.3018539845943451 2.271359920501709 -0.2766437232494354 44
-0.2914067506790161 2.1956822872161865 -0.19043558835983276 44
-0.2904130518436432 2.191127061843872 -0.11345191299915314 44
-0.2910325527191162 2.198747158050537 -0.03766612708568573 44
-0.29046401381492615 2.197399854660034 0.583256721496582 44
-0.2893827259540558 2.192164897918701 0.5012615919113159 44
-0.28854748606681824 2.188781976699829 0.421309232711792 44
-0.28926748037338257 2.1972031593322754 0.34455785155296326 44
-0.286391019821167 2.1782917976379395 0.2650658190250397 44
-0.28963762521743774 2.2059643268585205 0.19130685925483704 44
-0.2873508334159851 2.1915109157562256 0.11383070051670074 44
-0.2860141694545746 2.184274196624756 0.037784457206726074 44
-0.25283583998680115 1.9440699815750122 -0.5150501132011414 119
-0.28666195273399353 2.2071731090545654 -0.5050153732299805 119
-0.2852253317832947 2.1991164684295654 -0.42321592569351196 119
-0.2840230166912079 2.1928470134735107 -0.3441561162471771 44
-0.2932870090007782 2.2674779891967773 -0.2760343551635742 44
-0.2837406396865845 2.196686029434204 -0.19043558835983276 44
-0.2827628254890442 2.1921274662017822 -0.11345191299915314 44
-0.2827170193195343 2.194791316986084 -0.0375797376036644 44
-0.2827918529510498 2.1984004974365234 0.583256721496582 44
-0.2817288637161255 2.193161725997925 0.5012615919113159 44
-0.28090545535087585 2.1897757053375244 0.421309232711792 44
-0.2815960645675659 2.198199510574341 0.34455785155296326 44
-0.2787855863571167 2.1792781352996826 0.2650658190250397 44
-0.28130441904067993 2.2020211219787598 0.19087108969688416 44
-0.27969926595687866 2.192500591278076 0.11383070051670074 44
-0.2783878743648529 2.1852591037750244 0.037784457206726074 44
-0.24544210731983185 1.9401493072509766 -0.5137560367584229 119
-0.27895575761795044 2.208160161972046 -0.5050153732299805 119
-0.2775472104549408 2.200098752975464 -0.42321592569351196 119
-0.27636682987213135 2.1938250064849854 -0.3441561162471771 44
-0.28537026047706604 2.2684879302978516 -0.2760343551635742 44
-0.27607104182243347 2.1976630687713623 -0.19043558835983276 44
-0.2751091718673706 2.193101167678833 -0.11345191299915314 44
-0.27505403757095337 2.1957647800445557 -0.0375797376036644 44
-0.27451685070991516 2.194581985473633 0.5819635391235352 44
-0.2734677195549011 2.1892971992492676 0.5001376867294312 44
-0.2732599973678589 2.1907429695129395 0.421309232711792 44
-0.2739212214946747 2.1991689205169678 0.34455785155296326 44
-0.271176815032959 2.1802380084991455 0.2650658190250397 44
-0.273616224527359 2.2029898166656494 0.19087108969688416 44
-0.27204430103302 2.1934635639190674 0.11383070051670074 44
-0.2707582116127014 2.186217784881592 0.037784457206726074 44
-0.2380787879228592 1.9362006187438965 -0.5124619007110596 119
-0.27124613523483276 2.209120512008667 -0.5050153732299805 119
-0.2698657512664795 2.201054334640503 -0.42321592569351196 119
-0.2681070864200592 2.1898746490478516 -0.3433739244937897 44
-0.276847779750824 2.2645442485809326 -0.2754250168800354 44
-0.26839807629585266 2.198613405227661 -0.19043558835983276 44
-0.2668479084968567 2.189091444015503 -0.11319109797477722 44
-0.2667836844921112 2.191749095916748 -0.03749334439635277 44
-0.2668546438217163 2.1955268383026123 0.5819635391235352 44
-0.26582399010658264 2.1902387142181396 0.5001376867294312 44
-0.2650206983089447 2.1868107318878174 0.42035603523254395 44
-0.26624301075935364 2.2001118659973145 0.34455785155296326 44
-0.26356470584869385 2.181171417236328 0.2650658190250397 44
-0.26532799005508423 2.198986053466797 0.1904352903366089 44
-0.26438602805137634 2.19439959526062 0.11383070051670074 44
-0.2631252408027649 2.1871492862701416 0.037784457206726074 44
-0.23131874203681946 1.937019944190979 -0.5124619007110596 119
-0.26353320479393005 2.2100539207458496 -0.5050153732299805 119
-0.26160064339637756 2.197108507156372 -0.42226269841194153 119
-0.26046139001846313 2.1907970905303955 -0.3433739244937897 44
-0.26894137263298035 2.2654967308044434 -0.2754250168800354 44
-0.2607218623161316 2.1995368003845215 -0.19043558835983276 44
-0.2592049241065979 2.190009593963623 -0.11319109797477722 44
-0.2585447132587433 2.1877024173736572 -0.037406954914331436 44
-0.2591891884803772 2.1964449882507324 0.5819635391235352 44
-0.2581770122051239 2.191153049468994 0.5001376867294312 44
-0.2573856711387634 2.1877224445343018 0.42035603523254395 44
-0.2579854130744934 2.1961231231689453 0.34377655386924744 44
-0.25594937801361084 2.1820781230926514 0.2650658190250397 44
-0.2576504647731781 2.1998989582061768 0.1904352903366089 44
-0.2567245364189148 2.1953091621398926 0.11383070051670074 44
-0.2549092471599579 2.183089017868042 0.037697192281484604 44
-0.2245558649301529 1.937815546989441 -0.5124619007110596 119
-0.25637704133987427 2.2158000469207764 -0.5061401724815369 119
-0.2539297342300415 2.1980085372924805 -0.42226269841194153 119
-0.252246618270874 2.1867871284484863 -0.3425917625427246 44
-0.2604638338088989 2.261491537094116 -0.2748156785964966 44
-0.2524734139442444 2.1954853534698486 -0.18999981880187988 44
-0.25098922848701477 2.1859405040740967 -0.1129302978515625 44
-0.2509066164493561 2.188591480255127 -0.037406954914331436 44
-0.2515206038951874 2.197336435317993 0.5819635391235352 44
-0.25052687525749207 2.1920409202575684 0.5001376867294312 44
-0.24974751472473145 2.188607692718506 0.42035603523254395 44
-0.25031793117523193 2.1970102787017822 0.34377655386924744 44
-0.2477700263261795 2.178027391433716 0.26445645093917847 44
-0.24996981024742126 2.200784683227539 0.1904352903366089 44
-0.24849723279476166 2.191230297088623 0.11356901377439499 44
-0.24728728830814362 2.1839654445648193 0.037697192281484604 44
-0.21779026091098785 1.9385875463485718 -0.5124619007110596 119
-0.24864090979099274 2.216681480407715 -0.5061401724815369 119
-0.24625569581985474 2.1988813877105713 -0.42226269841194153 119
-0.24461178481578827 2.187654495239258 -0.3425917625427246 44
-0.2520175874233246 2.2574551105499268 -0.27420634031295776 44
-0.24480821192264557 2.1963531970977783 -0.18999981880187988 44
-0.2433573603630066 2.1868033409118652 -0.1129302978515625 44
-0.24271340668201447 2.1844851970672607 -0.037320561707019806 44
-0.2433164119720459 2.1934003829956055 0.5806702375411987 44
-0.24287371337413788 2.192902088165283 0.5001376867294312 44
-0.24156689643859863 2.1845877170562744 0.4194028675556183 44
-0.24210548400878906 2.1929616928100586 0.34299522638320923 44
-0.24016578495502472 2.1788790225982666 0.26445645093917847 44
-0.24228613078594208 2.201643943786621 0.1904352903366089 44
-0.2408469170331955 2.192084312438965 0.11356901377439499 44
-0.2396623194217682 2.1848154067993164 0.037697192281484604 44
-0.2115444391965866 1.944137454032898 -0.5137560367584229 119
-0.24090172350406647 2.217535972595215 -0.5061401724815369 119
-0.238578662276268 2.1997275352478027 -0.42226269841194153 119
-0.23644229769706726 2.1835851669311523 -0.34180957078933716 44
-0.24413608014583588 2.2583210468292236 -0.27420634031295776 44
-0.2371400147676468 2.1971945762634277 -0.18999981880187988 44
-0.23572249710559845 2.1876394748687744 -0.1129302978515625 44
-0.23508664965629578 2.185319185256958 -0.037320561707019806 44
-0.23565852642059326 2.1942365169525146 0.5806702375411987 44
-0.23469814658164978 2.188892126083374 0.4990138113498688 44
-0.23393981158733368 2.185417652130127 0.4194028675556183 44
-0.2344491332769394 2.193793535232544 0.34299522638320923 44
-0.23203212022781372 2.174769401550293 0.26384711265563965 44
-0.23459948599338531 2.2024762630462646 0.1904352903366089 44
-0.23319363594055176 2.1929116249084473 0.11356901377439499 44
-0.23203442990779877 2.185638666152954 0.037697192281484604 44
-0.20475684106349945 1.94486403465271 -0.5137560367584229 119
-0.23366884887218475 2.22320818901062 -0.5072649121284485 119
-0.23089872300624847 2.200546979904175 -0.42226269841194153 119
-0.22881872951984406 2.1843972206115723 -0.34180957078933716 44
-0.23573538661003113 2.254223346710205 -0.27359697222709656 44
-0.22895170748233795 2.193054676055908 -0.1895640343427658 44
-0.22808478772640228 2.1884491443634033 -0.1129302978515625 44
-0.22745701670646667 2.186126470565796 -0.037320561707019806 44
-0.2279977947473526 2.1950457096099854 0.5806702375411987 44
-0.22705605626106262 2.1896982192993164 0.4990138113498688 44
-0.2258044332265854 2.1813385486602783 0.41844967007637024 44
-0.2267899215221405 2.19459867477417 0.34299522638320923 44
-0.2244393527507782 2.1755659580230713 0.26384711265563965 44
-0.22690996527671814 2.2032816410064697 0.1904352903366089 44
-0.22502689063549042 2.1887457370758057 0.11330734193325043 44
-0.2244037240743637 2.1864352226257324 0.037697192281484604 44
-0.1979667693376541 1.9455668926239014 -0.5137560367584229 119
-0.22590696811676025 2.2240102291107178 -0.5072649121284485 119
-0.2232159972190857 2.2013394832611084 -0.42226269841194153 0
-0.2211923599243164 2.185182571411133 -0.34180957078933716 44
-0.22736631333827972 2.2500951290130615 -0.27298763394355774 44
-0.22129511833190918 2.193840265274048 -0.1895640343427658 44
-0.22044429183006287 2.1892318725585938 -0.1129302978515625 44
-0.2198246419429779 2.1869070529937744 -0.037320561707019806 44
-0.2203342616558075 2.1958281993865967 0.5806702375411987 44
-0.2194111943244934 2.1904773712158203 0.4990138113498688 44
-0.21818874776363373 2.1821134090423584 0.41844967007637024 44
-0.21912798285484314 2.1953768730163574 0.34299522638320923 44
-0.21684382855892181 2.1763362884521484 0.26384711265563965 44
-0.2192177027463913 2.2040603160858154 0.1904352903366089 44
-0.21738536655902863 2.1895177364349365 0.11330734193325043 44
-0.2167702615261078 2.1872050762176514 0.037697192281484604 44
-0.19117425382137299 1.9462461471557617 -0.5137560367584229 119
-0.2181423455476761 2.224785327911377 -0.5072649121284485 119
-0.21505242586135864 2.19722056388855 -0.42130953073501587 119
-0.21308311820030212 2.1810262203216553 -0.3410274386405945 44
-0.21951062977313995 2.2508749961853027 -0.27298763394355774 44
-0.21315322816371918 2.1896419525146484 -0.18912823498249054 44
-0.21231815218925476 2.1850178241729736 -0.11266948282718658 44
-0.21218957006931305 2.1876609325408936 -0.037320561707019806 44
-0.21220260858535767 2.1917765140533447 0.5793769955635071 44
-0.2117636650800705 2.191230058670044 0.4990138113498688 44
-0.21057042479515076 2.182861804962158 0.41844967007637024 44
-0.2114633470773697 2.1961283683776855 0.34299522638320923 44
-0.2092456817626953 2.177079916000366 0.26384711265563965 44
-0.21152275800704956 2.2048120498657227 0.1904352903366089 44
-0.20974119007587433 2.190263271331787 0.11330734193325043 44
-0.20865851640701294 2.182971954345703 0.03760993480682373 44
-0.1843794286251068 1.946901559829712 -0.5137560367584229 119
-0.21037507057189941 2.2255332469940186 -0.5072649121284485 119
-0.20738138258457184 2.197957754135132 -0.42130953073501587 119
-0.20546860992908478 2.1817567348480225 -0.3410274386405945 44
-0.21118783950805664 2.2466866970062256 -0.27237826585769653 44
-0.20550866425037384 2.1903724670410156 -0.18912823498249054 44
-0.20468972623348236 2.1857457160949707 -0.11266948282718658 44
-0.20455190539360046 2.1883883476257324 -0.037320561707019806 44
-0.2045505791902542 2.1925036907196045 0.5793769955635071 44
-0.20366182923316956 2.1871047019958496 0.4978898763656616 44
-0.20294953882694244 2.1835834980010986 0.41844967007637024 44
-0.20333994925022125 2.1919357776641846 0.3422139286994934 44
-0.20118741691112518 2.1728551387786865 0.26323774456977844 44
-0.2038252353668213 2.2055370807647705 0.1904352903366089 44
-0.20163585245609283 2.1860098838806152 0.11304565519094467 44
-0.2010372281074524 2.183687210083008 0.03760993480682373 44
-0.17758235335350037 1.947533369064331 -0.5137560367584229 119
-0.2026052325963974 2.2262542247772217 -0.5072649121284485 119
-0.19970782101154327 2.1986684799194336 -0.42130953073501587 119
-0.19785161316394806 2.1824607849121094 -0.3410274386405945 44
-0.20289695262908936 2.2424676418304443 -0.2717689573764801 44
-0.19786158204078674 2.1910765171051025 -0.18912823498249054 44
-0.1970587968826294 2.1864469051361084 -0.11266948282718658 44
-0.1969117671251297 2.189089059829712 -0.037320561707019806 44
-0.19689607620239258 2.193204402923584 0.5793769955635071 44
-0.19602617621421814 2.1878020763397217 0.4978898763656616 44
-0.19532617926597595 2.1842784881591797 0.41844967007637024 44
-0.1956874281167984 2.1926321983337402 0.3422139286994934 44
-0.19360151886940002 2.17354416847229 0.26323774456977844 44
-0.19612523913383484 2.20623517036438 0.1904352903366089 44
-0.19400402903556824 2.1867005825042725 0.11304565519094467 44
-0.19341352581977844 2.184375524520874 0.03760993480682373 44
-0.1707831174135208 1.94814133644104 -0.5137560367584229 119
-0.1948329210281372 2.226947784423828 -0.5072649121284485 119
-0.19203181564807892 2.1993520259857178 -0.42130953073501587 0
-0.19023218750953674 2.183138132095337 -0.3410274386405945 44
-0.19463808834552765 2.238218069076538 -0.2711595892906189 44
-0.19021210074424744 2.19175386428833 -0.18912823498249054 44
-0.1894254833459854 2.1871213912963867 -0.11266948282718658 44
-0.18883873522281647 2.1847825050354004 -0.03723417595028877 44
-0.18882408738136292 2.1890664100646973 0.5780837535858154 44
-0.18838812410831451 2.1884732246398926 0.4978898763656616 44
-0.18770043551921844 2.1849472522735596 0.41844967007637024 44
-0.18803252279758453 2.1933019161224365 0.3422139286994934 44
-0.18601325154304504 2.1742067337036133 0.26323774456977844 44
-0.18799912929534912 2.2019433975219727 0.1899995356798172 44
-0.18636983633041382 2.187364339828491 0.11304565519094467 44
-0.18578743934631348 2.18503737449646 0.03760993480682373 44
-0.16357679665088654 1.9439128637313843 -0.5124619007110596 119
-0.187058225274086 2.227614402770996 -0.5072649121284485 119
-0.18435347080230713 2.2000091075897217 -0.42130953073501587 0
-0.18261046707630157 2.183788776397705 -0.3410274386405945 44
-0.18641139566898346 2.233938217163086 -0.2705502510070801 44
-0.1825602799654007 2.1924045085906982 -0.18912823498249054 44
-0.1817898452281952 2.1877694129943848 -0.11266948282718658 44
-0.18121126294136047 2.1854283809661865 -0.03723417595028877 44
-0.1811816692352295 2.1897120475769043 0.5780837535858154 44
-0.18074777722358704 2.189117431640625 0.4978898763656616 44
-0.17966938018798828 2.180697441101074 0.4174965023994446 44
-0.18037532269954681 2.1939449310302734 0.3422139286994934 44
-0.1784227043390274 2.1748428344726562 0.26323774456977844 44
-0.18031176924705505 2.2025864124298096 0.1899995356798172 44
-0.17873337864875793 2.1880016326904297 0.11304565519094467 44
-0.17815911769866943 2.1856725215911865 0.03760993480682373 44
-0.15679028630256653 1.9444719552993774 -0.5124619007110596 119
-0.17928126454353333 2.2282536029815674 -0.5072649121284485 119
-0.17667287588119507 2.200639009475708 -0.42130953073501587 0
-0.17498651146888733 2.184412956237793 -0.3410274386405945 44
-0.17821693420410156 2.229628562927246 -0.26994088292121887 44
-0.17490625381469727 2.193028450012207 -0.18912823498249054 44
-0.17415198683738708 2.1883904933929443 -0.11266948282718658 44
-0.17358160018920898 2.1860475540161133 -0.03723417595028877 44
-0.17353704571723938 2.190331220626831 0.5780837535858154 44
-0.17272129654884338 2.184878349304199 0.49676600098609924 44
-0.17205622792243958 2.1813113689422607 0.4174965023994446 44
-0.17232844233512878 2.1896376609802246 0.3414326012134552 44
-0.17083001136779785 2.175452470779419 0.26323774456977844 44
-0.17223313450813293 2.1982364654541016 0.18956373631954193 44
-0.17109473049640656 2.188612222671509 0.11304565519094467 44
-0.1705286055803299 2.186281204223633 0.03760993480682373 44
-0.15000185370445251 1.9450074434280396 -0.5124619007110596 119
-0.17150212824344635 2.2288658618927 -0.5072649121284485 119
-0.1689901500940323 2.201242446899414 -0.42130953073501587 0
-0.16736041009426117 2.1850104331970215 -0.3410274386405945 44
-0.17043299973011017 2.2302370071411133 -0.26994088292121887 44
-0.16725009679794312 2.1936256885528564 -0.18912823498249054 44
-0.16651202738285065 2.1889851093292236 -0.11266948282718658 44
-0.16557148098945618 2.181655168533325 -0.03714778274297714 44
-0.16589030623435974 2.1909236907958984 0.5780837535858154 44
-0.16509360074996948 2.1854679584503174 0.49676600098609924 44
-0.16444098949432373 2.181898593902588 0.4174965023994446 44
-0.16468413174152374 2.190225839614868 0.3414326012134552 44
-0.16323523223400116 2.1760356426239014 0.26323774456977844 44
-0.16455881297588348 2.198824405670166 0.18956373631954193 44
-0.16345401108264923 2.1891961097717285 0.11304565519094467 44
-0.16252467036247253 2.181877613067627 0.03752266988158226 44
-0.14321160316467285 1.945519208908081 -0.5124619007110596 119
-0.16407769918441772 2.2343099117279053 -0.5083897113800049 119
-0.16130535304546356 2.2018187046051025 -0.42130953073501587 0
-0.15973228216171265 2.1855814456939697 -0.3410274386405945 44
-0.16228610277175903 2.2258687019348145 -0.26933157444000244 44
-0.1595918983221054 2.1941959857940674 -0.18912823498249054 44
-0.15887002646923065 2.1895530223846436 -0.11266948282718658 44
-0.15795506536960602 2.1822197437286377 -0.03714778274297714 44
-0.15824154019355774 2.1914894580841064 0.5780837535858154 44
-0.15746387839317322 2.186030864715576 0.49676600098609924 44
-0.15647195279598236 2.1775636672973633 0.41654327511787415 44
-0.15703782439231873 2.1907873153686523 0.3414326012134552 44
-0.15528450906276703 2.1716420650482178 0.262628436088562 44
-0.15688247978687286 2.199385404586792 0.18956373631954193 44
-0.15545691549777985 2.1847729682922363 0.11278398334980011 44
-0.15490750968456268 2.182431936264038 0.03752266988158226 44
-0.13608185946941376 1.9411894083023071 -0.5111678242683411 119
-0.15627749264240265 2.2348690032958984 -0.5083897113800049 119
-0.15327705442905426 2.197472095489502 -0.4203563332557678 0
-0.15210220217704773 2.1861255168914795 -0.3410274386405945 44
-0.15451540052890778 2.226421594619751 -0.26933157444000244 44
-0.15158778429031372 2.1897706985473633 -0.18869248032569885 44
-0.15088215470314026 2.1851131916046143 -0.11240868270397186 44
-0.15033674240112305 2.18275785446167 -0.03714778274297714 44
-0.1502598375082016 2.1872100830078125 0.5767905116081238 44
-0.14983223378658295 2.1865673065185547 0.49676600098609924 44
-0.14886988699436188 2.1780965328216553 0.41654327511787415 44
-0.1493895947933197 2.1913223266601562 0.3414326012134552 44
-0.1477031111717224 2.172170877456665 0.262628436088562 44
-0.1488671898841858 2.1949498653411865 0.18912795186042786 44
-0.14782969653606415 2.185302257537842 0.11278398334980011 44
-0.1472884565591812 2.1829593181610107 0.03752266988158226 44
-0.12930500507354736 1.941652536392212 -0.5111678242683411 119
-0.14847539365291595 2.235401153564453 -0.5083897113800049 119
-0.14560550451278687 2.197993755340576 -0.4203563332557678 0
-0.14447027444839478 2.186643362045288 -0.3410274386405945 44
-0.14641647040843964 2.2219953536987305 -0.26872220635414124 44
-0.14394311606884003 2.190286636352539 -0.18869248032569885 44
-0.14325375854969025 2.185626745223999 -0.11240868270397186 44
-0.14271657168865204 2.1832692623138428 -0.03714778274297714 44
-0.1426241397857666 2.1877214908599854 0.5767905116081238 44
-0.14219878613948822 2.187077045440674 0.49676600098609924 44
-0.14094839990139008 2.1737051010131836 0.4155901074409485 44
-0.1414208561182022 2.1869022846221924 0.34065133333206177 44
-0.14011992514133453 2.172673225402832 0.262628436088562 44
-0.14120446145534515 2.1954562664031982 0.18912795186042786 44
-0.1402006596326828 2.185804843902588 0.11278398334980011 44
-0.13934847712516785 2.178471088409424 0.03743540868163109 44
-0.12222249060869217 1.937272071838379 -0.5098737478256226 119
-0.1406714916229248 2.235905647277832 -0.5083897113800049 119
-0.1376248300075531 2.193589925765991 -0.41940316557884216 0
-0.13652820885181427 2.1822052001953125 -0.34024524688720703 44
-0.13865937292575836 2.2224929332733154 -0.26872220635414124 44
-0.13629671931266785 2.1907756328582764 -0.18869248032569885 44
-0.13562363386154175 2.1861133575439453 -0.11240868270397186 44
-0.134785994887352 2.178764581680298 -0.03706139326095581 44
-0.13498669862747192 2.1882057189941406 0.5767905116081238 44
-0.13426445424556732 2.18269681930542 0.4956420660018921 44
-0.133359894156456 2.1741836071014404 0.4155901074409485 44
-0.13378627598285675 2.187382698059082 0.34065133333206177 44
-0.13253502547740936 2.173149347305298 0.262628436088562 44
-0.13354003429412842 2.1959357261657715 0.18912795186042786 44
-0.13226769864559174 2.1812968254089355 0.11252229660749435 44
-0.13174335658550262 2.1789443492889404 0.03743540868163109 44
-0.11574666947126389 1.9425079822540283 -0.5111678242683411 119
-0.13315477967262268 2.241245985031128 -0.5095144510269165 119
-0.12996694445610046 2.194056987762451 -0.41940316557884216 0
-0.12891006469726562 2.182668447494507 -0.34024524688720703 44
-0.13060885667800903 2.2180094718933105 -0.2681128680706024 44
-0.1283567100763321 2.186265707015991 -0.18825668096542358 44
-0.1277000606060028 2.181588649749756 -0.11214786767959595 44
-0.12717986106872559 2.1792218685150146 -0.03706139326095581 44
-0.12734760344028473 2.1886637210845947 0.5767905116081238 44
-0.12664461135864258 2.183152198791504 0.4956420660018921 44
-0.12576976418495178 2.174635887145996 0.4155901074409485 44
-0.12615007162094116 2.187836170196533 0.34065133333206177 44
-0.12494850903749466 2.1735987663269043 0.262628436088562 44
-0.12558899819850922 2.191415786743164 0.18869218230247498 44
-0.12465273588895798 2.1817452907562256 0.11252229660749435 44
-0.12413661181926727 2.1793909072875977 0.03743540868163109 44
-0.10842447727918625 1.9332561492919922 -0.5085796117782593 119
-0.12533056735992432 2.241697311401367 -0.5095144510269165 119
