# .PCD v0.7 - Point Cloud Data file format
VERSION 0.7
FIELDS x y z intensity
SIZE 4 4 4 4
TYPE F F F F
COUNT 1 1 1 1
WIDTH 778
HEIGHT 1
VIEWPOINT 0 0 0 1 0 0 0
POINTS 778
DATA ascii
-2.0396344661712646 0.9029897451400757 -0.5061401724815369 119
-2.3955461978912354 1.0610594749450684 -0.5013774037361145 119
-2.8974735736846924 1.2839832305908203 -0.49589765071868896 119
-3.3604750633239746 1.4898589849472046 -0.4466516375541687 0
-3.326906681060791 1.475671410560608 -0.3150685131549835 30
-3.325596570968628 1.4757848978042603 -0.18804329633712769 30
-3.2836410999298096 1.4578524827957153 -0.06142342835664749 30
-3.3145620822906494 1.4722732305526733 0.9608864188194275 30
-3.311786651611328 1.4717326164245605 0.8271940350532532 30
-3.3000328540802 1.4671990871429443 0.6939210891723633 30
-3.2883286476135254 1.462682843208313 0.5633247494697571 30
-3.281313180923462 1.4602482318878174 0.43629223108291626 30
-3.347594976425171 1.4904450178146362 0.3172468841075897 30
-3.309819459915161 1.4743183851242065 0.1878860741853714 30
-3.263327121734619 1.4542917013168335 0.061694253236055374 30
-1.7679293155670166 0.7897221446037292 -0.5085796117782593 119
-2.0409176349639893 0.9120916128158569 -0.5072649121284485 119
-2.3873467445373535 1.0674116611480713 -0.5004242062568665 119
-2.8929738998413086 1.294089436531067 -0.49589765071868896 119
-3.328075408935547 1.4894168376922607 -0.4429955780506134 0
-3.289912700653076 1.473027229309082 -0.3120180368423462 30
-3.293083667755127 1.4751368761062622 -0.18647843599319458 30
-3.2465975284576416 1.4549938440322876 -0.06081869825720787 30
-3.278553009033203 1.4700020551681519 0.9518336057662964 30
-3.2710671424865723 1.4673315286636353 0.818202793598175 30
-3.263545274734497 1.4646415710449219 0.6872487664222717 30
-3.2516660690307617 1.4599922895431519 0.5578556060791016 30
-3.2399802207946777 1.4554247856140137 0.43141746520996094 30
-3.3105692863464355 1.4878284931182861 0.31419646739959717 30
-3.268220901489258 1.469482183456421 0.18579263985157013 30
-3.2308754920959473 1.4533685445785522 0.061170678585767746 30
-1.7651618719100952 0.7958886027336121 -0.5085796117782593 119
-2.0377213954925537 0.9192101359367371 -0.5072649121284485 119
-2.383606433868408 1.0757384300231934 -0.5004242062568665 119
-2.888439178466797 1.3041800260543823 -0.49589765071868896 119
-3.295719861984253 1.4887667894363403 -0.4393394887447357 0
-3.257516860961914 1.4721940755844116 -0.30940335988998413 30
-3.2697153091430664 1.4783942699432373 -0.1854351907968521 30
-3.2096147537231445 1.4518946409225464 -0.06021396815776825 30
-3.2425999641418457 1.467497706413269 0.9427809119224548 30
-3.239295482635498 1.4666833877563477 0.8114593625068665 30
-3.2271158695220947 1.4618474245071411 0.6805764436721802 30
-3.215062379837036 1.4570637941360474 0.5523864030838013 30
-3.198721408843994 1.4503309726715088 0.4265426993370056 30
-3.2736029624938965 1.4849717617034912 0.31114599108695984 30
-3.231243848800659 1.4664369821548462 0.18396086990833282 30
-3.1939189434051514 1.4501701593399048 0.06055985018610954 30
-1.7623728513717651 0.8020452857017517 -0.5085796117782593 119
-2.0345003604888916 0.926317572593689 -0.5072649121284485 119
-2.3798367977142334 1.084052324295044 -0.5004242062568665 119
-2.883868932723999 1.314254641532898 -0.49589765071868896 119
-3.258894205093384 1.4858503341674805 -0.4350740313529968 0
-3.225167751312256 1.4711531400680542 -0.30678868293762207 30
-3.205482006072998 1.462849497795105 -0.18204468488693237 30
-3.1681454181671143 1.4464788436889648 -0.059522844851017 30
-3.206705331802368 1.464760422706604 0.9337280988693237 30
-3.203136920928955 1.46380615234375 0.8035920262336731 30
-3.1952102184295654 1.4608579874038696 0.6748573184013367 30
-3.1740283966064453 1.4518433809280396 0.5461359024047852 30
-3.162050724029541 1.4470319747924805 0.4222772419452667 30
-3.2412261962890625 1.483948826789856 0.30853134393692017 30
-3.1943283081054688 1.4631518125534058 0.1821291297674179 30
-3.1524789333343506 1.4446486234664917 0.05986174941062927 30
-1.7595624923706055 0.8081921935081482 -0.5085796117782593 119
-2.031254529953003 0.9334136247634888 -0.5072649121284485 119
-2.3760383129119873 1.0923528671264648 -0.5004242062568665 119
-2.8792638778686523 1.3243131637573242 -0.49589765071868896 119
-3.226637840270996 1.484769582748413 -0.43141797184944153 0
-3.1702427864074707 1.4594894647598267 -0.30199509859085083 30
-3.159538984298706 1.4552299976348877 -0.1796974092721939 30
-3.126753807067871 1.440791368484497 -0.058831725269556046 30
-3.1708693504333496 1.4617904424667358 0.9246753454208374 30
-3.1714630126953125 1.4627352952957153 0.7968485951423645 30
-3.154437780380249 1.4555506706237793 0.6672317981719971 30
-3.133070468902588 1.446354627609253 0.5398854613304138 30
-3.1254420280456543 1.4434947967529297 0.4180118143558502 30
-3.1998534202575684 1.4785395860671997 0.30504509806632996 30
-3.1529428958892822 1.4575316905975342 0.18003568053245544 30
-3.1111176013946533 1.4388558864593506 0.0591636523604393 30
-1.7567306756973267 0.8143293261528015 -0.5085796117782593 119
-2.023564577102661 0.9384487271308899 -0.5061401724815369 119
-2.372210741043091 1.1006401777267456 -0.5004242062568665 119
-2.8746237754821777 1.3343555927276611 -0.49589765071868896 119
-3.185427188873291 1.4793015718460083 -0.4265431761741638 0
-3.1199567317962646 1.4495593309402466 -0.29763731360435486 30
-3.1046323776245117 1.4430984258651733 -0.1768285036087036 30
-3.0854413509368896 1.4348329305648804 -0.05814060568809509 30
-3.1307146549224854 1.456551194190979 0.9143292903900146 30
-3.1310017108917236 1.4573495388031006 0.7878573536872864 30
-3.113741397857666 1.4499768018722534 0.6596063375473022 30
-3.0877130031585693 1.4385119676589966 0.5328536629676819 30
-3.084399461746216 1.4376235008239746 0.4131370484828949 30
-3.1811301708221436 1.4833849668502808 0.3037377595901489 30
-3.111636161804199 1.4516408443450928 0.17794224619865417 30
-3.0698349475860596 1.432792067527771 0.05846555903553963 30
-1.7538774013519287 0.8204564452171326 -0.5085796117782593 119
-2.0158636569976807 0.9434414505958557 -0.5050153732299805 119
-2.368354320526123 1.1089140176773071 -0.5004242062568665 119
-2.874420642852783 1.346476674079895 -0.4966798424720764 119
-3.144294023513794 1.4735639095306396 -0.4216684103012085 0
-3.06977915763855 1.4392962455749512 -0.2932795286178589 30
-3.0453293323516846 1.428481101989746 -0.1736987978219986 30
-3.044208288192749 1.4286035299301147 -0.05744947865605354 30
-3.086263418197632 1.448996663093567 0.902690052986145 30
-3.0817975997924805 1.447556495666504 0.7766183018684387 30
-3.0642385482788086 1.4399616718292236 0.6500744223594666 30
-3.042449474334717 1.430370807647705 0.52582186460495 30
-3.047927141189575 1.4335956573486328 0.4088716506958008 30
-3.126356363296509 1.471151351928711 0.2989441752433777 30
-3.0704095363616943 1.4454795122146606 0.1758487969636917 30
-3.019587993621826 1.4221975803375244 0.05759293958544731 30
-1.7510027885437012 0.8265736699104309 -0.5085796117782593 119
-2.0125582218170166 0.950472354888916 -0.5050153732299805 119
-2.364469051361084 1.1171743869781494 -0.5004242062568665 119
-2.8697030544281006 1.3565021753311157 -0.4966798424720764 119
-3.0942676067352295 1.4633140563964844 -0.41557490825653076 0
-3.019711494445801 1.428700566291809 -0.2889217138290405 30
-3.0132458209991455 1.4262851476669312 -0.1721339374780655 30
-2.994020700454712 1.4178248643875122 -0.05658557638525963 30
-3.041903495788574 1.4411500692367554 0.8910508155822754 30
-3.0371029376983643 1.43952476978302 0.7665031552314758 30
-3.0237138271331787 1.4338250160217285 0.642448902130127 30
-2.988356590270996 1.4176976680755615 0.5172274708747864 30
-2.998070478439331 1.4229470491409302 0.40277814865112305 30
-3.0582094192504883 1.4521442651748657 0.2928432822227478 30
-3.024754524230957 1.4369056224822998 0.17349368333816528 30
-2.9920289516448975 1.4219995737075806 0.057156626135110855 30
-1.7481069564819336 0.8326807618141174 -0.5085796117782593 119
-2.0048303604125977 0.9553959369659424 -0.5038906931877136 119
-2.3605549335479736 1.1254210472106934 -0.5004242062568665 119
-2.869407892227173 1.368636965751648 -0.4974619746208191 119
-3.044351816177368 1.4527333974838257 -0.4094814360141754 30
-2.9922311305999756 1.4285030364990234 -0.28674283623695374 30
-2.9767088890075684 1.421730637550354 -0.17030827701091766 30
-2.9755210876464844 1.421801209449768 -0.05632640793919563 30
-2.993278980255127 1.430928349494934 0.8781182765960693 30
-2.9837119579315186 1.4269945621490479 0.7541402578353882 30
-2.965559482574463 1.418949007987976 0.6310106515884399 30
-2.974480628967285 1.4238556623458862 0.51566481590271 30
-2.9662296772003174 1.4205423593521118 0.39912205934524536 30
-2.9857418537139893 1.4305274486541748 0.28630661964416504 30
-2.979196786880493 1.428031086921692 0.17113856971263885 30
-2.964508533477783 1.4216266870498657 0.056720320135354996 30
-1.7495425939559937 0.8408699035644531 -0.5098737478256226 119
-2.001483201980591 0.962388277053833 -0.5038906931877136 119
-2.356612205505371 1.1336541175842285 -0.5004242062568665 119
-2.869062900543213 1.380786418914795 -0.49824416637420654 119
-2.9945478439331055 1.4418221712112427 -0.40338799357414246 30
-2.9647889137268066 1.428131103515625 -0.28456392884254456 30
-2.9582338333129883 1.4256095886230469 -0.1695258617401123 30
-2.948023796081543 1.4213234186172485 -0.055894456803798676 30
-2.97086501121521 1.4329748153686523 0.872945249080658 30
-2.9655489921569824 1.4310487508773804 0.7507684826850891 30
-2.9517481327056885 1.4250242710113525 0.6291042566299438 30
-2.9472570419311523 1.4234905242919922 0.5117582678794861 30
-2.947847604751587 1.424410343170166 0.3972940444946289 30
-2.9807300567626953 1.4409409761428833 0.28630661964416504 30
-2.9607083797454834 1.4318996667861938 0.17035353183746338 30
-2.9325270652770996 1.418901801109314 0.05619674548506737 30
-1.7465968132019043 0.8469718098640442 -0.5098737478256226 119
-1.998111605644226 0.9693688750267029 -0.5038906931877136 119
-2.3526406288146973 1.1418732404708862 -0.5004242062568665 119
-2.8642256259918213 1.3907928466796875 -0.49824416637420654 119
-2.967177391052246 1.4414236545562744 -0.4003412425518036 30
-2.93290638923645 1.425407886505127 -0.2819492518901825 30
-2.9352774620056152 1.4271936416625977 -0.16848261654376984 30
-2.9250619411468506 1.4228578805923462 -0.05554889515042305 30
-2.9441304206848145 1.4327690601348877 0.8664789795875549 30
-2.9386329650878906 1.4307280778884888 0.7451489567756653 30
-2.929105043411255 1.4267215728759766 0.6252915263175964 30
-2.9245123863220215 1.4251161813735962 0.508633017539978 30
-2.9250142574310303 1.4259926080703735 0.39485666155815125 30
-2.9488208293914795 1.4382357597351074 0.283691942691803 30
-2.933255434036255 1.4312777519226074 0.16904513537883759 30
-2.9050936698913574 1.4181641340255737 0.05576043576002121 30
-1.7436296939849854 0.8530634045600891 -0.5098737478256226 119
-1.9947158098220825 0.9763376712799072 -0.5038906931877136 119
-2.3486404418945312 1.150078535079956 -0.5004242062568665 119
-2.8593533039093018 1.4007824659347534 -0.49824416637420654 119
-2.9398465156555176 1.4408518075942993 -0.3972945213317871 30
-2.9010791778564453 1.4224796295166016 -0.27933457493782043 30
-2.907863140106201 1.4264355897903442 -0.16717857122421265 30
-2.8976378440856934 1.4220471382141113 -0.05511694401502609 30
-2.917433500289917 1.432394027709961 0.8600127100944519 30
-2.9117565155029297 1.4302372932434082 0.7395294308662415 30
-2.902081251144409 1.4261138439178467 0.620525598526001 30
-2.897360324859619 1.4244216680526733 0.5047264695167542 30
-2.8977527618408203 1.4252426624298096 0.3918099105358124 30
-2.9169671535491943 1.4353255033493042 0.2810772657394409 30
-2.910322427749634 1.4326868057250977 0.16799841821193695 30
-2.8732166290283203 1.415043592453003 0.05523686483502388 30
-1.740491271018982 0.8594484329223633 -0.5098737478256226 119
-1.9954915046691895 0.9857998490333557 -0.5050153732299805 119
-2.3488097190856934 1.1608538627624512 -0.5013774037361145 119
-2.8541998863220215 1.4112530946731567 -0.49824416637420654 119
-2.912304401397705 1.4406152963638306 -0.39424777030944824 30
-2.8735249042510986 1.422056794166565 -0.27715566754341125 30
-2.880241632461548 1.426006555557251 -0.16587452590465546 30
-2.870007276535034 1.4215633869171143 -0.054684996604919434 30
-2.886198043823242 1.4302102327346802 0.8522531986236572 30
-2.884669065475464 1.4300798177719116 0.7339099049568176 30
-2.8748490810394287 1.4258365631103516 0.6157596707344055 30
-2.8655762672424316 1.4218608140945435 0.5000385642051697 30
-2.870283365249634 1.4248207807540894 0.3887631595134735 30
-2.884920120239258 1.4327141046524048 0.27846258878707886 30
-2.8782217502593994 1.43001389503479 0.1664283275604248 30
-2.8456273078918457 1.4144389629364014 0.054800551384687424 30
-1.7331576347351074 0.863365113735199 -0.5085796117782593 119
-1.992038369178772 0.9927593469619751 -0.5050153732299805 119
-2.344743251800537 1.1690455675125122 -0.5013774037361145 119
-2.853675603866577 1.4234118461608887 -0.4990263283252716 119
-2.880614757537842 1.4374769926071167 -0.39059168100357056 30
-2.8418047428131104 1.418729543685913 -0.2745409905910492 30
-2.8529114723205566 1.424896478652954 -0.16457048058509827 30
-2.8381950855255127 1.4181654453277588 -0.054166655987501144 30
-2.855267286300659 1.427318811416626 0.8444936871528625 30
-2.857872486114502 1.4292445182800293 0.7282904386520386 30
-2.8479068279266357 1.4248820543289185 0.6109936833381653 30
-2.838514566421509 1.420802354812622 0.4961320757865906 30
-2.8431050777435303 1.4237207174301147 0.3857164680957794 30
-2.8576345443725586 1.4316203594207764 0.2762836813926697 30
-2.850893259048462 1.4288655519485474 0.165119931101799 30
-2.813859224319458 1.4109187126159668 0.054276980459690094 30
-1.7301334142684937 0.8694097399711609 -0.5085796117782593 119
-1.9885607957839966 0.9997068643569946 -0.5050153732299805 119
-2.3406481742858887 1.1772230863571167 -0.5013774037361145 119
-2.8354549407958984 1.426705241203308 -0.4966798424720764 119
-2.8534152507781982 1.436366319656372 -0.3875449299812317 30
-2.814591646194458 1.4174388647079468 -0.2723621129989624 30
-2.821164846420288 1.4213664531707764 -0.16300563514232635 30
-2.810906410217285 1.4168132543563843 -0.05373470112681389 30
-2.828704833984375 1.426403522491455 0.8380274772644043 30
-2.8267667293548584 1.4260450601577759 0.72154700756073 30
-2.816624402999878 1.4215452671051025 0.6052745580673218 30
-2.811495304107666 1.4195722341537476 0.4922254979610443 30
-2.815969944000244 1.4224483966827393 0.38266971707344055 30
-2.8303921222686768 1.4303537607192993 0.2741048038005829 30
-2.823607921600342 1.427544116973877 0.16381153464317322 30
-2.786611795425415 1.4094504117965698 0.053840670734643936 30
-1.7227802276611328 0.8732601404190063 -0.5072855353355408 119
-1.9850590229034424 1.0066421031951904 -0.5050153732299805 119
-2.3409018516540527 1.1876070499420166 -0.5023306012153625 119
-2.8040354251861572 1.423183560371399 -0.49198681116104126 119
-2.8262596130371094 1.4350837469100952 -0.3844982087612152 30
-2.7874226570129395 1.4159754514694214 -0.2701832056045532 30
-2.7939295768737793 1.4198944568634033 -0.16170157492160797 30
-2.7836623191833496 1.415287971496582 -0.05330275371670723 30
-2.7978787422180176 1.4231306314468384 0.8302679657936096 30
-2.800060749053955 1.4248557090759277 0.7159274220466614 30
-2.7897744178771973 1.4202343225479126 0.6005086302757263 30
-2.7845194339752197 1.4181711673736572 0.4883189797401428 30
-2.7888784408569336 1.4210041761398315 0.3796229958534241 30
-2.8031935691833496 1.4289145469665527 0.2719259262084961 30
-2.7963674068450928 1.4260497093200684 0.16250313818454742 30
-2.759408950805664 1.4078092575073242 0.05340436100959778 30
-1.7197214365005493 0.8792684078216553 -0.5072855353355408 119
-1.981533169746399 1.013565182685852 -0.5050153732299805 119
-2.3367421627044678 1.1957710981369019 -0.5023306012153625 119
-2.777071237564087 1.42171049118042 -0.4880759119987488 119
-2.799147129058838 1.4336289167404175 -0.38145145773887634 30
-2.760298252105713 1.4143399000167847 -0.26800432801246643 30
-2.7667391300201416 1.4182498455047607 -0.16039754450321198 30
-2.756462812423706 1.413589596748352 -0.05287080258131027 30
-2.7714076042175293 1.4218647480010986 0.8238016963005066 30
-2.77339768409729 1.4234973192214966 0.7103078961372375 30
-2.7629685401916504 1.4187536239624023 0.5957427024841309 30
-2.7575876712799072 1.4165990352630615 0.48441240191459656 30
-2.761831283569336 1.4193882942199707 0.3765762448310852 30
-2.7760400772094727 1.4273029565811157 0.2697470188140869 30
-2.7691712379455566 1.4243825674057007 0.16119474172592163 30
-2.7322518825531006 1.4059953689575195 0.05296804755926132 30
-1.7166417837142944 0.8852660059928894 -0.5072855353355408 119
-1.9779831171035767 1.0204758644104004 -0.5050153732299805 119
-2.3325538635253906 1.203920602798462 -0.5023306012153625 119
-2.7501518726348877 1.4200668334960938 -0.4841650724411011 119
-2.772080183029175 1.4320026636123657 -0.37840473651885986 30
-2.733219623565674 1.4125323295593262 -0.26582542061805725 30
-2.7395944595336914 1.4164328575134277 -0.15909349918365479 30
-2.729309320449829 1.4117189645767212 -0.052438847720623016 30
-2.7449798583984375 1.4204317331314087 0.8173353672027588 30
-2.746778726577759 1.4219704866409302 0.7046884298324585 30
-2.7362067699432373 1.4171030521392822 0.5909767150878906 30
-2.730701446533203 1.4148563146591187 0.48050588369369507 30
-2.734829902648926 1.4176009893417358 0.37352949380874634 30
-2.748931646347046 1.425519347190857 0.2675681412220001 30
-2.742021322250366 1.4225431680679321 0.15988633036613464 30
-2.705141544342041 1.4040093421936035 0.05253174155950546 30
-1.7135411500930786 0.8912528157234192 -0.5072855353355408 119
-1.9787309169769287 1.029623031616211 -0.5061401724815369 119
-2.3283371925354004 1.2120553255081177 -0.5023306012153625 119
-2.7276580333709717 1.4205336570739746 -0.48103639483451843 119
-2.749459743499756 1.4324979782104492 -0.3759673535823822 30
-2.7061872482299805 1.4105530977249146 -0.26364651322364807 30
-2.712496280670166 1.4144436120986938 -0.1577894389629364 30
-2.7022032737731934 1.409676194190979 -0.05200690031051636 30
-2.7228775024414062 1.4210660457611084 0.8121623992919922 30
-2.7245230674743652 1.422529935836792 0.7001928091049194 30
-2.709491014480591 1.4152833223342896 0.5862108469009399 30
-2.7038612365722656 1.4129433631896973 0.4765993058681488 30
-2.7078750133514404 1.4156426191329956 0.37048280239105225 30
-2.721870183944702 1.423564076423645 0.26538923382759094 30
-2.714918375015259 1.4205317497253418 0.15857794880867004 30
-2.6825077533721924 1.4041697978973389 0.05218269303441048 30
-1.7146966457366943 0.8994722962379456 -0.5085796117782593 119
-1.9794385433197021 1.038787603378296 -0.5072649121284485 119
-2.324092149734497 1.2201753854751587 -0.5023306012153625 119
-2.700822114944458 1.4185644388198853 -0.47712549567222595 119
-2.7224769592285156 1.4305446147918701 -0.37292060256004333 30
-2.6792025566101074 1.4084025621414185 -0.2614676356315613 30
-2.6898651123046875 1.4146068096160889 -0.15674620866775513 30
-2.6751444339752197 1.4074612855911255 -0.0515749454498291 30
-2.69653058052063 1.4193141460418701 0.8056961894035339 30
-2.697986364364624 1.4206817150115967 0.6945732235908508 30
-2.682821035385132 1.4132943153381348 0.5814448595046997 30
-2.681436777114868 1.4131629467010498 0.47347405552864075 30
-2.680967330932617 1.413513422012329 0.3674360513687134 30
-2.6948561668395996 1.421437382698059 0.26321035623550415 30
-2.6878631114959717 1.4183485507965088 0.15726953744888306 30
-2.655484914779663 1.40185546875 0.05174638330936432 30
-1.7115464210510254 0.9054521918296814 -0.5085796117782593 119
-1.9801064729690552 1.0479698181152344 -0.5083897113800049 119
-2.3198187351226807 1.2282805442810059 -0.5023306012153625 119
-2.6783981323242188 1.4187370538711548 -0.4739968180656433 119
-2.6999263763427734 1.4307440519332886 -0.3704832196235657 30
-2.6566667556762695 1.4084138870239258 -0.25972452759742737 30
-2.6628549098968506 1.4122899770736694 -0.15544216334819794 30
-2.6525509357452393 1.4074182510375977 -0.051229387521743774 30
-2.670229196548462 1.4173954725265503 0.7992298603057861 30
-2.6757991313934326 1.4209507703781128 0.6900776028633118 30
-2.656198501586914 1.411136507987976 0.5766789317131042 30
-2.6546828746795654 1.4109253883361816 0.46956750750541687 30
-2.6541078090667725 1.4112138748168945 0.3643893301486969 30
-2.672287940979004 1.4214787483215332 0.26146721839904785 30
-2.665264368057251 1.418339490890503 0.15622282028198242 30
-2.6329238414764404 1.401719093322754 0.05139733478426933 30
-1.708375334739685 0.9114211201667786 -0.5085796117782593 119
-1.9807342290878296 1.0571690797805786 -0.5095144510269165 119
-2.3155171871185303 1.2363708019256592 -0.5023306012153625 119
-2.6516497135162354 1.4164437055587769 -0.4700859487056732 119
-2.6730310916900635 1.428464651107788 -0.3674364686012268 30
-2.6297712326049805 1.40593683719635 -0.2575456202030182 30
-2.6358940601348877 1.4098018407821655 -0.15413811802864075 30
-2.625582218170166 1.4048759937286377 -0.05079743266105652 30
-2.648232936859131 1.4175902605056763 0.7940568923950195 30
-2.6493477821350098 1.4187819957733154 0.6844580769538879 30
-2.633950710296631 1.4111281633377075 0.5728661417961121 30
-2.6323304176330566 1.4108514785766602 0.4664422571659088 30
-2.6272971630096436 1.4087440967559814 0.36134257912635803 30
-2.6453630924224854 1.4190255403518677 0.25928834080696106 30
-2.638298988342285 1.4158291816711426 0.15491442382335663 30
-2.605991840362549 1.3990776538848877 0.05096102133393288 30
-1.7094367742538452 0.9196670651435852 -0.5098737478256226 119
-1.981321930885315 1.0663857460021973 -0.5106391906738281 119
-2.311187267303467 1.2444459199905396 -0.5023306012153625 119
-2.624950408935547 1.4139809608459473 -0.4661751091480255 119
-2.6505534648895264 1.428369402885437 -0.36499908566474915 30
-2.6073100566864014 1.4056528806686401 -0.2558025121688843 30
-2.613377809524536 1.4095131158828735 -0.15309488773345947 30
-2.6030638217926025 1.4045367240905762 -0.05045187473297119 30
-2.6220173835754395 1.4153544902801514 0.7875905632972717 30
-2.6229448318481445 1.4164462089538574 0.6788386106491089 30
-2.607416868209839 1.4086488485336304 0.5681002140045166 30
-2.610011100769043 1.4106389284133911 0.46331703662872314 30
-2.6049020290374756 1.4084649085998535 0.35890519618988037 30
-2.6228692531585693 1.418771505355835 0.25754523277282715 30
-2.6157748699188232 1.4155242443084717 0.1538676917552948 30
-2.5835070610046387 1.3986454010009766 0.05061197280883789 30
-1.7062160968780518 0.9256284832954407 -0.5098737478256226 119
-1.9904329776763916 1.0802669525146484 -0.5140134692192078 119
-2.3068292140960693 1.252505898475647 -0.5023306012153625 119
-2.5983009338378906 1.4113491773605347 -0.46226420998573303 119
-2.623749017715454 1.4257652759552002 -0.36195236444473267 30
-2.5805068016052246 1.4028505086898804 -0.2536236047744751 30
-2.5865097045898438 1.4066988229751587 -0.1517908275127411 30
-2.5805797576904297 1.404057502746582 -0.050106313079595566 30
-2.6000924110412598 1.415262222290039 0.7824175953865051 30
-2.6008694171905518 1.416273593902588 0.6743429899215698 30
-2.585242986679077 1.4083495140075684 0.5642874836921692 30
-2.5877256393432617 1.4102877378463745 0.4601917862892151 30
-2.578183650970459 1.4056711196899414 0.3558584451675415 30
-2.600409746170044 1.4183779954910278 0.25580209493637085 30
-2.5932857990264893 1.4150795936584473 0.15282097458839417 30
-2.5610570907592773 1.398073434829712 0.0502629280090332 30
-1.7029746770858765 0.9315787553787231 -0.5098737478256226 119
-1.9994713068008423 1.0942248106002808 -0.5173877477645874 119
-2.298137664794922 1.2581934928894043 -0.5013774037361145 119
-2.571701765060425 1.4085488319396973 -0.45835334062576294 119
-2.5969948768615723 1.422991394996643 -0.3589056134223938 30
-2.5581228733062744 1.4022725820541382 -0.2518804669380188 30
-2.5640711784362793 1.406115174293518 -0.15074759721755981 30
-2.558130979537964 1.4034384489059448 -0.04976075142621994 30
-2.5739662647247314 1.4127105474472046 0.7759513854980469 30
-2.574556350708008 1.4136191606521606 0.6687234044075012 30
-2.563103199005127 1.4079127311706543 0.560474693775177 30
-2.5611462593078613 1.4074196815490723 0.4562852084636688 30
-2.555865526199341 1.405098795890808 0.35342106223106384 30
-2.5779850482940674 1.4178448915481567 0.25405898690223694 30
-2.570831775665283 1.4144952297210693 0.15177425742149353 30
-2.5386428833007812 1.3973618745803833 0.04991387948393822 30
-1.7039414644241333 0.9398500919342041 -0.5111678242683411 119
-2.016967296600342 1.1129662990570068 -0.5230115056037903 119
-2.293731927871704 1.2662078142166138 -0.5013774037361145 119
-2.545154571533203 1.4055800437927246 -0.45444250106811523 0
-2.574636697769165 1.4224483966827393 -0.35646823048591614 30
-2.5357751846313477 1.4015555381774902 -0.2501373589038849 30
-2.537299156188965 1.402976155281067 -0.14944356679916382 30
-2.5357184410095215 1.4026800394058228 -0.04941519349813461 30
-2.5521156787872314 1.41233229637146 0.7707783579826355 30
-2.5525565147399902 1.4131584167480469 0.6642277836799622 30
-2.5367045402526855 1.4049606323242188 0.5557087659835815 30
-2.5389387607574463 1.406777262687683 0.45315998792648315 30
-2.533583164215088 1.4043879508972168 0.3509836792945862 30
-2.555595874786377 1.4171727895736694 0.252315878868103 30
-2.5484135150909424 1.4137715101242065 0.1507275402545929 30
-2.5118939876556396 1.394085168838501 0.04947756975889206 30
-1.7006503343582153 0.9457922577857971 -0.5111678242683411 119
-1.996040940284729 1.1105256080627441 -0.518512487411499 119
-2.2892980575561523 1.2742066383361816 -0.5013774037361145 119
-2.5186593532562256 1.402443289756775 -0.45053160190582275 0
-2.547978401184082 1.41935133934021 -0.35342147946357727 30
-2.5134634971618652 1.4006997346878052 -0.24839425086975098 30
-2.514941453933716 1.4020987749099731 -0.14840032160282135 30
-2.5133421421051025 1.4017821550369263 -0.04906963184475899 30
-2.530299186706543 1.4118188619613647 0.7656053304672241 30
-2.5305917263031006 1.412561297416687 0.6597322225570679 30
-2.5146431922912598 1.404234528541565 0.5518960356712341 30
-2.5167670249938965 1.4059969186782837 0.4500347375869751 30
-2.5113375186920166 1.4035388231277466 0.3485462963581085 30
-2.528895378112793 1.413930892944336 0.25013697147369385 30
-2.526031970977783 1.412908673286438 0.14968082308769226 30
-2.4895615577697754 1.3930798768997192 0.049128517508506775 30
-1.697338581085205 0.9517229199409485 -0.5111678242683411 119
-1.9879032373428345 1.1151028871536255 -0.5173877477645874 119
-2.2848362922668457 1.2821900844573975 -0.5013774037361145 119
-2.4922173023223877 1.3991389274597168 -0.44662076234817505 0
-2.5213735103607178 1.4160860776901245 -0.3503747582435608 30
-2.4911887645721436 1.3997052907943726 -0.24665112793445587 30
-2.4926211833953857 1.4010825157165527 -0.14735709130764008 30
-2.4910037517547607 1.4007455110549927 -0.04872407019138336 30
-2.504307985305786 1.4088022708892822 0.7591390609741211 30
-2.508661985397339 1.4118280410766602 0.6552366018295288 30
-2.4926180839538574 1.403371810913086 0.5480833053588867 30
-2.4903292655944824 1.4026556015014648 0.4461282193660736 30
-2.489128589630127 1.402551531791687 0.34610891342163086 30
-2.5065884590148926 1.4129661321640015 0.24839386343955994 30
-2.503687620162964 1.4119068384170532 0.14863410592079163 30
-2.4672672748565674 1.3919358253479004 0.04877947270870209 30
-1.694006085395813 0.9576418995857239 -0.5111678242683411 119
-1.9797579050064087 1.1196367740631104 -0.516262948513031 119
-2.280346632003784 1.2901577949523926 -0.5013774037361145 119
-2.465829372406006 1.3956669569015503 -0.44270989298820496 0
-2.490504026412964 1.4102071523666382 -0.3467186689376831 30
-2.464617967605591 1.3961175680160522 -0.2444722205400467 30
-2.4703383445739746 1.3999274969100952 -0.1463138461112976 30
-2.4730517864227295 1.4020355939865112 -0.04846489802002907 30
-2.486771583557129 1.4103870391845703 0.7552592754364014 30
-2.4825310707092285 1.4085549116134644 0.6496170163154602 30
-2.470629930496216 1.4023722410202026 0.5442705154418945 30
-2.4682397842407227 1.401585340499878 0.44300296902656555 30
-2.462642192840576 1.398975133895874 0.343062162399292 30
-2.4799885749816895 1.4094018936157227 0.24621498584747314 30
-2.4813811779022217 1.4107664823532104 0.147587388753891 30
-2.4450113773345947 1.3906532526016235 0.0484304241836071 30
-1.6948490142822266 0.9659407138824463 -0.5124619007110596 119
-1.9758375883102417 1.1265406608581543 -0.516262948513031 119
-2.280092716217041 1.3005417585372925 -0.5023306012153625 119
-2.460942506790161 1.4042658805847168 -0.44270989298820496 119
-2.4769465923309326 1.413971185684204 -0.34549999237060547 30
-2.4510791301727295 1.3997719287872314 -0.24360066652297974 30
-2.452430486679077 1.401111364364624 -0.14553143084049225 30
-2.4507815837860107 1.4007368087768555 -0.04811934009194374 30
-2.465061664581299 1.409469485282898 0.75008624792099 30
-2.4606831073760986 1.4075356721878052 0.6451213955879211 30
-2.4486794471740723 1.4012367725372314 0.5404577851295471 30
-2.4419023990631104 1.397924542427063 0.4390964210033417 30
-2.4405179023742676 1.3976975679397583 0.34062477946281433 30
-2.453444242477417 1.4056692123413086 0.24403607845306396 30
-2.459113597869873 1.4094874858856201 0.14654067158699036 30
-2.4401419162750244 1.399179458618164 0.0484304241836071 30
-1.6912972927093506 0.9721460938453674 -0.5124619007110596 119
-1.9759188890457153 1.1362035274505615 -0.5173877477645874 119
-2.2795653343200684 1.3113374710083008 -0.5032837390899658 119
-2.438657760620117 1.4034230709075928 -0.4395812153816223 119
-2.4588446617126465 1.4156118631362915 -0.34367191791534424 30
-2.445932149887085 1.4087462425231934 -0.24360066652297974 30
-2.4342992305755615 1.4026119709014893 -0.1447489857673645 30
-2.4369685649871826 1.4047167301177979 -0.04794655740261078 30
-2.447327136993408 1.4112567901611328 0.746206521987915 30
-2.4344069957733154 1.4043724536895752 0.6395019292831421 30
-2.422271251678467 1.3979350328445435 0.5356917977333069 30
-2.432485580444336 1.4043959379196167 0.43831509351730347 30
-2.413891553878784 1.3942224979400635 0.33757805824279785 30
-2.439650058746338 1.4096680879592896 0.243164524435997 30
-2.440962314605713 1.410994529724121 0.14575563371181488 30
-2.4306700229644775 1.4056111574172974 0.04834316298365593 30
-1.6878935098648071 0.9780439138412476 -0.5124619007110596 119
-1.9761556386947632 1.1455371379852295 -0.518512487411499 119
-2.2749741077423096 1.319286584854126 -0.5032837390899658 119
-2.4380156993865967 1.4144052267074585 -0.440363347530365 119
-2.453888177871704 1.4241862297058105 -0.34367191791534424 30
-2.436692237854004 1.4147745370864868 -0.24316489696502686 30
-2.4250707626342773 1.4085928201675415 -0.14448818564414978 30
-2.4320504665374756 1.4132146835327148 -0.04794655740261078 30
-2.4215080738067627 1.4076542854309082 0.739740252494812 30
-2.4210665225982666 1.4079629182815552 0.6372541189193726 30
-2.4131338596343994 1.4039134979248047 0.5347386002540588 30
-2.4275684356689453 1.4128782749176025 0.43831509351730347 30
-2.4132988452911377 1.4051371812820435 0.33818739652633667 30
-2.4347145557403564 1.418175458908081 0.243164524435997 30
-2.4360220432281494 1.419506549835205 0.14575563371181488 30
-2.4257452487945557 1.414093017578125 0.04834316298365593 30
-1.684640884399414 0.9836358428001404 -0.5124619007110596 119
-1.9725470542907715 1.1517397165298462 -0.518512487411499 119
-2.2750563621520996 1.3289027214050293 -0.5042369961738586 119
-2.437824010848999 1.4245492219924927 -0.44114553928375244 119
-2.449402093887329 1.431888222694397 -0.34367191791534424 30
-2.4322357177734375 1.4224227666854858 -0.24316489696502686 30
-2.424943208694458 1.4187259674072266 -0.1447489857673645 30
-2.427598476409912 1.4208482503890991 -0.04794655740261078 30
-2.4212417602539062 1.4176950454711914 0.7410335540771484 0
-2.420835256576538 1.4180245399475098 0.6383780241012573 10
-2.4171812534332275 1.41645085811615 0.5366449952125549 30
-2.4231176376342773 1.4204977750778198 0.43831509351730347 0
-2.4174342155456543 1.417732834815979 0.3394061028957367 10
-2.4345433712005615 1.428337812423706 0.2436002939939499 10
-2.4315505027770996 1.4271525144577026 0.14575563371181488 30
-2.4212942123413086 1.4217009544372559 0.04834316298365593 30
-1.6813699007034302 0.9892168045043945 -0.5124619007110596 119
-1.9685148000717163 1.1586182117462158 -0.518512487411499 119
-2.2704038619995117 1.3368360996246338 -0.5042369961738586 119
-2.437091827392578 1.4355566501617432 -0.4419277310371399 119
-2.448664665222168 1.4429490566253662 -0.34428128600120544 30
-2.4358372688293457 1.4359631538391113 -0.2440364509820938 30
-2.4242773056030273 1.4297183752059937 -0.14500980079174042 30
-2.4269299507141113 1.4318537712097168 -0.04803295060992241 30
-2.420437812805176 1.4285931587219238 0.7423267960548401 10
-2.4200661182403564 1.428943395614624 0.6395019292831421 10
-2.4164481163024902 1.4273759126663208 0.537598192691803 10
-2.422396183013916 1.4314597845077515 0.4390964210033417 10
-2.4167428016662598 1.4286881685256958 0.3400154411792755 10
-2.4338302612304688 1.4393630027770996 0.24403607845306396 10
-2.430851459503174 1.4381740093231201 0.14601731300354004 10
-2.420618772506714 1.4326903820037842 0.0484304241836071 10
-1.6777328252792358 0.9953728318214417 -0.5124619007110596 119
-1.9642549753189087 1.1658254861831665 -0.518512487411499 119
-2.265488862991333 1.3451486825942993 -0.5042369961738586 119
-2.4360599517822266 1.447001338005066 -0.44270989298820496 119
-2.451892137527466 1.4569846391677856 -0.34549999237060547 30
-2.4348392486572266 1.447426438331604 -0.2444722205400467 10
-2.4233124256134033 1.4411466121673584 -0.14527061581611633 10
-2.421665668487549 1.440739393234253 -0.04803295060992241 10
-2.4151854515075684 1.4374549388885498 0.7423267960548401 10
-2.4148125648498535 1.4378037452697754 0.6395019292831421 10
-2.415417432785034 1.4387351274490356 0.538551390171051 10
-2.4171335697174072 1.4403287172317505 0.4390964210033417 10
-2.420015811920166 1.4426188468933105 0.34123414754867554 10
-2.43281626701355 1.4508248567581177 0.24447184801101685 10
-2.42985200881958 1.4496320486068726 0.1462789922952652 10
-2.415351390838623 1.441552758216858 0.0484304241836071 10
-1.6701031923294067 0.9987443089485168 -0.5111678242683411 119
-1.960173487663269 1.1726748943328857 -0.518512487411499 119
-2.260779619216919 1.353048324584961 -0.5042369961738586 119
-2.4352309703826904 1.4580328464508057 -0.4434920847415924 119
-2.4510488510131836 1.468084454536438 -0.3461093306541443 10
-2.43404483795166 1.4584770202636719 -0.24490801990032196 10
-2.4225499629974365 1.452163815498352 -0.14553143084049225 10
-2.4209091663360596 1.4517548084259033 -0.04811934009194374 10
-2.414294958114624 1.4483613967895508 0.7436200380325317 10
-2.4139561653137207 1.4487313032150269 0.6406258344650269 10
-2.414588689804077 1.4496839046478271 0.5395045876502991 10
-2.4163246154785156 1.4513001441955566 0.4398776888847351 10
-2.4192192554473877 1.45361328125 0.34184348583221436 10
-2.4320061206817627 1.46187424659729 0.24490763247013092 10
-2.429056167602539 1.460678219795227 0.14654067158699036 10
-2.414588689804077 1.4525521993637085 0.04851768910884857 10
-1.6666067838668823 1.0045679807662964 -0.5111678242683411 119
-1.9560681581497192 1.1795099973678589 -0.518512487411499 119
-2.256042957305908 1.3609317541122437 -0.5042369961738586 119
-2.434354782104492 1.4690759181976318 -0.44427424669265747 119
-2.450157880783081 1.4791961908340454 -0.3467186689376831 10
-2.4332025051116943 1.4695395231246948 -0.24534378945827484 10
-2.4217398166656494 1.463193416595459 -0.14579223096370697 10
-2.420105218887329 1.4627825021743774 -0.04820572957396507 10
-2.4133574962615967 1.4592790603637695 0.7449132800102234 10
-2.413053274154663 1.4596705436706543 0.6417497396469116 10
-2.413713216781616 1.4606449604034424 0.5404577851295471 10
-2.415468692779541 1.4622833728790283 0.4406590163707733 10
-2.4183754920959473 1.4646199941635132 0.34245285391807556 10
-2.4311485290527344 1.472935438156128 0.2453434020280838 10
-2.4239425659179688 1.4691483974456787 0.14654067158699036 10
-2.413778305053711 1.4635639190673828 0.048604946583509445 10
-1.6630899906158447 1.010379433631897 -0.5111678242683411 119
-1.9519389867782593 1.1863306760787964 -0.518512487411499 119
-2.2512784004211426 1.3687984943389893 -0.5042369961738586 119
-2.433431386947632 1.480130910873413 -0.4450564384460449 119
-2.449218988418579 1.4903194904327393 -0.3473280072212219 10
-2.4323129653930664 1.4806140661239624 -0.24577957391738892 10
-2.420882225036621 1.4742350578308105 -0.14605304598808289 10
-2.4192535877227783 1.4738222360610962 -0.048292119055986404 10
-2.4123733043670654 1.470207929611206 0.746206521987915 10
-2.4121031761169434 1.47062087059021 0.6428735852241516 10
-2.416980266571045 1.4741730690002441 0.5423641800880432 10
-2.414565324783325 1.473278284072876 0.4414403438568115 10
-2.4174842834472656 1.4756383895874023 0.343062162399292 10
-2.4302432537078857 1.4840087890625 0.24577918648719788 10
-2.423060417175293 1.4802032709121704 0.14680235087871552 10
-2.4129207134246826 1.4745875597000122 0.048692211508750916 10
-1.6636717319488525 1.0187004804611206 -0.5124619007110596 119
-1.9436317682266235 1.1905921697616577 -0.5173877477645874 119
-2.2464869022369385 1.3766486644744873 -0.5042369961738586 119
-2.432460069656372 1.4911972284317017 -0.4458385705947876 119
-2.448232412338257 1.5014543533325195 -0.34793737530708313 10
-2.4356210231781006 1.494304895401001 -0.24665112793445587 10
-2.4199769496917725 1.485288381576538 -0.1463138461112976 10
-2.4183547496795654 1.48487389087677 -0.048378512263298035 10
-2.411341905593872 1.4811475276947021 0.7474997639656067 10
-2.4111061096191406 1.4815824031829834 0.6439975500106812 10
-2.416001319885254 1.4851713180541992 0.5433173179626465 10
-2.4136149883270264 1.48428475856781 0.44222164154052734 10
-2.4165451526641846 1.486668348312378 0.3436715304851532 10
-2.429290533065796 1.4950937032699585 0.24621498584747314 10
-2.422130823135376 1.4912701845169067 0.14706403017044067 10
-2.412015438079834 1.4856228828430176 0.04877947270870209 10
-1.6601057052612305 1.0245016813278198 -0.5124619007110596 119
-1.9394638538360596 1.1973695755004883 -0.5173877477645874 119
-2.2416677474975586 1.3844819068908691 -0.5042369961738586 119
-2.43144154548645 1.502274751663208 -0.44662076234817505 119
-2.447197914123535 1.5126001834869385 -0.34854671359062195 10
-2.434626579284668 1.5054173469543457 -0.24708691239356995 10
-2.4190239906311035 1.4963533878326416 -0.14657466113567352 10
-2.417407989501953 1.4959371089935303 -0.04846489802002907 10
-2.410263776779175 1.4920979738235474 0.7487930655479431 10
-2.4142038822174072 1.4951201677322388 0.6462453603744507 10
-2.4149746894836426 1.4961806535720825 0.5442705154418945 10
-2.412616729736328 1.4953025579452515 0.44300296902656555 10
-2.4155590534210205 1.49770987033844 0.3442808985710144 10
-2.4282896518707275 1.5061899423599243 0.24665075540542603 10
-2.4211533069610596 1.5023486614227295 0.14732570946216583 10
-2.4068148136138916 1.4940334558486938 0.04877947270870209 10
-1.6604403257369995 1.0331308841705322 -0.5137560367584229 119
-1.935062289237976 1.2044700384140015 -0.5173877477645874 119
-2.2365784645080566 1.3926888704299927 -0.5042369961738586 119
-2.430110454559326 1.5137872695922852 -0.4474029242992401 119
-2.4458494186401367 1.5241843461990356 -0.34915608167648315 10
-2.433319330215454 1.516965627670288 -0.24752268195152283 10
-2.417759895324707 1.5078516006469727 -0.14683546125888824 10
-2.4161503314971924 1.5074336528778076 -0.0485512912273407 10
-2.4047787189483643 1.5009220838546753 0.7487930655479431 10
-2.4128401279449463 1.5065388679504395 0.6473692059516907 10
-2.413637638092041 1.507622241973877 0.5452237129211426 10
-2.4113080501556396 1.5067522525787354 0.44378426671028137 10
-2.41426157951355 1.5091837644577026 0.3448902368545532 10
-2.426975965499878 1.5177209377288818 0.2470865398645401 10
-2.419863700866699 1.5138607025146484 0.147587388753891 10
-2.4055607318878174 1.5054970979690552 0.04886673390865326 10
-1.6650073528289795 1.044052004814148 -0.5163442492485046 119
-1.934973120689392 1.21380615234375 -0.518512487411499 119
-2.227545738220215 1.3978784084320068 -0.5032837390899658 119
-2.4289941787719727 1.5248866081237793 -0.44818511605262756 119
-2.444716691970825 1.5353519916534424 -0.3497653901576996 10
-2.43222713470459 1.5281001329421997 -0.2479584813117981 10
-2.4167096614837646 1.5189392566680908 -0.14709627628326416 10
-2.4151058197021484 1.518519401550293 -0.04863768070936203 10
-2.4036130905151367 1.5118788480758667 0.75008624792099 10
-2.4116907119750977 1.5175468921661377 0.6484931707382202 10
-2.4125142097473145 1.5186530351638794 0.5461769104003906 10
-2.410212993621826 1.517791748046875 0.4445655941963196 10
-2.413177967071533 1.520247220993042 0.34549957513809204 10
-2.425877332687378 1.528838872909546 0.24752230942249298 10
-2.418788433074951 1.5249613523483276 0.14784908294677734 10
-2.404515266418457 1.516557216644287 0.04895399510860443 10
-1.6656192541122437 1.0521469116210938 -0.5176383256912231 119
-1.9311504364013672 1.2198790311813354 -0.518512487411499 119
-2.2231433391571045 1.4048694372177124 -0.5032837390899658 119
-2.428365707397461 1.5351488590240479 -0.4489672780036926 119
-2.444075584411621 1.5456774234771729 -0.3503747582435608 10
-2.431623697280884 1.5383965969085693 -0.24839425086975098 10
-2.416144847869873 1.5291944742202759 -0.14735709130764008 10
-2.4145474433898926 1.528773546218872 -0.04872407019138336 10
-2.4070122241973877 1.524591326713562 0.7526727914810181 10
-2.4110264778137207 1.5277235507965088 0.6496170163154602 10
-2.411876916885376 1.5288523435592651 0.5471300482749939 10
-2.4096033573150635 1.528000831604004 0.4453468918800354 10
-2.412580728530884 1.5304791927337646 0.34610891342163086 10
-2.4252679347991943 1.5391215085983276 0.24795809388160706 10
-2.4224166870117188 1.537905216217041 0.14837244153022766 10
-2.403963088989258 1.5267783403396606 0.0490412600338459 10
-1.674344778060913 1.0654429197311401 -0.5215205550193787 119
-1.930990219116211 1.2292288541793823 -0.5196372270584106 119
-2.2182257175445557 1.412621259689331 -0.5032837390899658 119
-2.427157402038574 1.5462695360183716 -0.4497494697570801 119
-2.442850112915039 1.5568664073944092 -0.3509840965270996 10
-2.430438995361328 1.5495530366897583 -0.24883003532886505 10
-2.4150021076202393 1.5403040647506714 -0.1476178914308548 10
-2.4134109020233154 1.539881706237793 -0.04881046339869499 10
-2.4057469367980957 1.5355826616287231 0.7539660334587097 10
-2.409785509109497 1.5387524366378784 0.6507409811019897 10
-2.4106619358062744 1.5399045944213867 0.5480833053588867 10
-2.408416509628296 1.5390620231628418 0.4461282193660736 10
-2.411404848098755 1.5415645837783813 0.34671828150749207 10
-2.424076795578003 1.5502616167068481 0.24839386343955994 10
-2.4212393760681152 1.5490423440933228 0.14863410592079163 10
-2.4070401191711426 1.5405503511428833 0.049215782433748245 10
-1.6621122360229492 1.0666471719741821 -0.5189324021339417 119
-1.9262560606002808 1.2366341352462769 -0.5196372270584106 119
-2.212785482406616 1.4211280345916748 -0.5032837390899658 119
-2.4253571033477783 1.5582470893859863 -0.45053160190582275 119
-2.4452037811279297 1.5716012716293335 -0.35220277309417725 10
-2.4286606311798096 1.5615676641464233 -0.24926580488681793 10
-2.413269519805908 1.5522667169570923 -0.1478787064552307 10
-2.411684036254883 1.551842212677002 -0.048896852880716324 10
-2.4038939476013184 1.5474227666854858 0.7552592754364014 10
-2.4120516777038574 1.5532695055007935 0.6529887914657593 10
-2.4088573455810547 1.5518075227737427 0.54903644323349 10
-2.4107913970947266 1.5536487102508545 0.44769084453582764 10
-2.4096388816833496 1.5535013675689697 0.3473276197910309 10
-2.422292470932007 1.5622576475143433 0.248829647898674 10
-2.4194693565368652 1.5610347986221313 0.14889580011367798 10
-2.4053077697753906 1.5524924993515015 0.049303047358989716 10
-1.6502678394317627 1.067197322845459 -0.5163442492485046 119
-1.9219276905059814 1.2433505058288574 -0.5196372270584106 119
-2.207811117172241 1.4288434982299805 -0.5032837390899658 119
-2.42404842376709 1.569387435913086 -0.4513137936592102 119
-2.443868398666382 1.5828248262405396 -0.35281214118003845 10
-2.427375316619873 1.5727441310882568 -0.249701589345932 10
-2.4120264053344727 1.5633970499038696 -0.14813950657844543 10
-2.414641857147217 1.5656907558441162 -0.04906963184475899 10
-2.4025299549102783 1.558433175086975 0.7565525770187378 10
-2.4107019901275635 1.5643316507339478 0.6541126370429993 10
-2.4075429439544678 1.5628790855407715 0.549989640712738 10
-2.4094953536987305 1.5647443532943726 0.44847211241722107 10
-2.408363103866577 1.5646066665649414 0.3479369580745697 10
-2.4210007190704346 1.5734177827835083 0.2492654174566269 10
-2.41819167137146 1.5721925497055054 0.14915746450424194 10
-2.4040606021881104 1.5636101961135864 0.04939030855894089 10
-1.6384398937225342 1.0676778554916382 -0.5137560367584229 119
-1.9175759553909302 1.250051736831665 -0.5196372270584106 119
-2.206921339035034 1.4392226934432983 -0.5042369961738586 119
-2.422691583633423 1.5805377960205078 -0.45209595561027527 119
-2.4424843788146973 1.5940582752227783 -0.35342147946357727 10
-2.4260413646698 1.5839307308197021 -0.2501373589038849 10
-2.4107348918914795 1.5745375156402588 -0.14840032160282135 10
-2.413347005844116 1.5768444538116455 -0.04915602505207062 10
-2.405161142349243 1.5720949172973633 0.7591390609741211 10
-2.40930438041687 1.5754033327102661 0.6552366018295288 10
-2.4061803817749023 1.573960304260254 0.5509428381919861 10
-2.408151149749756 1.5758496522903442 0.4492534399032593 10
-2.41119122505188 1.5784400701522827 0.3491556644439697 10
-2.4196605682373047 1.584587812423706 0.24970120191574097 10
-2.416865825653076 1.5833604335784912 0.1494191586971283 10
-2.402773141860962 1.5747272968292236 0.04947756975889206 10
-1.630665898323059 1.07073974609375 -0.5124619007110596 119
-1.921344518661499 1.2620872259140015 -0.5218867659568787 119
-2.2018842697143555 1.4469174146652222 -0.5042369961738586 119
-2.4212863445281982 1.5916976928710938 -0.4528781473636627 119
-2.441051959991455 1.6053012609481812 -0.3540308475494385 10
-2.42465877532959 1.5951272249221802 -0.25057315826416016 10
-2.4093949794769287 1.5856881141662598 -0.14866113662719727 10
-2.412003517150879 1.588008165359497 -0.04924241080880165 10
-2.4036922454833984 1.5831376314163208 0.7604323029518127 10
-2.4078588485717773 1.586484432220459 0.6563604474067688 10
-2.4047696590423584 1.5850510597229004 0.5518960356712341 10
-2.4067585468292236 1.5869646072387695 0.4500347375869751 10
-2.4098093509674072 1.5895798206329346 0.34976500272750854 10
-2.418271780014038 1.5957677364349365 0.25013697147369385 10
-2.4154911041259766 1.5945379734039307 0.14968082308769226 10
-2.4014334678649902 1.585859775543213 0.04956483095884323 10
-1.6228904724121094 1.0737602710723877 -0.5111678242683411 119
-1.9250524044036865 1.2741641998291016 -0.5241362452507019 119
-2.196820020675659 1.454594612121582 -0.5042369961738586 119
-2.419832706451416 1.6028671264648438 -0.4536603093147278 119
-2.439570188522339 1.616553544998169 -0.3546401858329773 10
-2.423227548599243 1.6063331365585327 -0.25100892782211304 10
-2.4080066680908203 1.5968482494354248 -0.14892195165157318 10
-2.4064457416534424 1.596417784690857 -0.04924241080880165 10
-2.4021759033203125 1.594189167022705 0.7617255449295044 10
-2.406365394592285 1.5975745916366577 0.6574844121932983 10
-2.403311014175415 1.5961511135101318 0.5528491735458374 10
