# .PCD v0.7 - Point Cloud Data file format
VERSION 0.7
FIELDS x y z intensity
SIZE 4 4 4 4
TYPE F F F F
COUNT 1 1 1 1
WIDTH 836
HEIGHT 1
VIEWPOINT 0 0 0 1 0 0 0
POINTS 836
DATA ascii
1.2828854322433472 -5.744007587432861 0.9250714778900146 114
1.2945966720581055 -5.80120325088501 0.7251225709915161 114
1.8457391262054443 -8.277717590332031 0.7386448979377747 112
nan nan nan 0
nan nan nan 0
0.42118147015571594 -1.8998265266418457 -0.5111678242683411 119
0.4824064373970032 -2.177793264389038 -0.5061401724815369 119
5.355145454406738 -24.19546127319336 -4.805025577545166 113
5.343207359313965 -24.161510467529297 -3.9132113456726074 113
1.7118141651153564 -7.747084617614746 -0.9694716930389404 111
1.7070547342300415 -7.731950759887695 -0.6894029974937439 111
5.341160297393799 -24.212379455566406 -1.293091058731079 113
5.334794044494629 -24.203598022460938 -0.4276314973831177 113
1.099992036819458 -4.9947357177734375 1.359208106994629 114
1.1505311727523804 -5.2285637855529785 1.2261803150177002 114
1.20132577419281 -5.463942527770996 1.0790091753005981 114
1.2617676258087158 -5.743627071380615 0.924290120601654 114
1.272210955619812 -5.795992374420166 0.7239038944244385 114
1.816833257675171 -8.284110069274902 0.7386448979377747 112
5.322263240814209 -24.287874221801758 1.3010717630386353 113
5.314878463745117 -24.27443504333496 0.43308141827583313 113
0.41454726457595825 -1.901285171508789 -0.5111678242683411 119
0.4758385419845581 -2.1842238903045654 -0.5072649121284485 119
5.267523288726807 -24.19961929321289 -4.802165985107422 113
5.256736755371094 -24.170364379882812 -3.911646842956543 113
1.683707594871521 -7.74816370010376 -0.9688623547554016 111
1.677941083908081 -7.728126525878906 -0.6885313987731934 111
5.251317977905273 -24.20647621154785 -1.291787028312683 113
5.244980335235596 -24.19764518737793 -0.4271995425224304 113
1.0825504064559937 -4.998545169830322 1.359208106994629 114
1.1312426328659058 -5.227785587310791 1.2250564098358154 114
1.1812084913253784 -5.46330451965332 1.07805597782135 114
1.2406681776046753 -5.74316930770874 0.9235088229179382 114
1.2509243488311768 -5.795547008514404 0.7232945561408997 114
1.785805344581604 -8.280664443969727 0.7377734184265137 112
5.226933002471924 -24.25749397277832 1.298454999923706 113
nan nan nan 0
0.40790802240371704 -1.90272057056427 -0.5111678242683411 119
0.46821129322052 -2.1858716011047363 -0.5072649121284485 119
5.177882671356201 -24.19386100769043 -4.797399997711182 113
5.170268535614014 -24.17890739440918 -3.9100825786590576 113
1.654577374458313 -7.744287490844727 -0.967643678188324 111
1.6499148607254028 -7.729065895080566 -0.6880956888198853 111
5.162623405456543 -24.20512580871582 -1.2907437086105347 113
5.155272483825684 -24.191356658935547 -0.4267675578594208 113
1.0640897750854492 -4.997569561004639 1.357914924621582 114
1.111973524093628 -5.2269368171691895 1.2239323854446411 114
1.1611104011535645 -5.462594032287598 1.077102780342102 114
1.2195872068405151 -5.742634296417236 0.9227274656295776 114
1.2296563386917114 -5.795023441314697 0.7226851582527161 114
1.7517240047454834 -8.262482643127441 0.7355944514274597 112
5.145330429077148 -24.290245056152344 1.299239993095398 113
5.123544692993164 -24.20823860168457 0.4312489330768585 113
0.4012638032436371 -1.9041328430175781 -0.5111678242683411 119
0.4605783224105835 -2.187492609024048 -0.5072649121284485 119
5.089356899261475 -24.19257354736328 -4.7935872077941895 113
5.082789897918701 -24.182310104370117 -3.90773606300354 113
1.6265146732330322 -7.745159149169922 -0.9670343399047852 111
1.6208795309066772 -7.725028038024902 -0.6872240900993347 111
5.0729780197143555 -24.198564529418945 -1.2894396781921387 113
5.065672874450684 -24.18474006652832 -0.4263356328010559 113
1.0466384887695312 -5.001253604888916 1.357914924621582 114
1.092724323272705 -5.22601842880249 1.222808599472046 114
1.1410316228866577 -5.461809158325195 1.076149582862854 114
1.198525309562683 -5.742022514343262 0.9219462275505066 114
1.2084072828292847 -5.794421672821045 0.7220758199691772 114
1.7198238372802734 -8.25391960144043 0.7342871427536011 112
nan nan nan 0
nan nan nan 0
0.39494726061820984 -1.9054529666900635 -0.5111678242683411 119
0.4537038505077362 -2.1889286041259766 -0.5072649121284485 119
5.008351802825928 -24.18441390991211 -4.788821220397949 113
5.0037922859191895 -24.183650970458984 -3.9053897857666016 113
1.6011699438095093 -7.745370388031006 -0.9664250016212463 111
1.5955952405929565 -7.7252044677734375 -0.6867883205413818 111
4.991885185241699 -24.18993377685547 -1.2881356477737427 113
4.984622478485107 -24.17605209350586 -0.42590367794036865 113
1.0299469232559204 -4.999786376953125 1.3566216230392456 114
1.0753185749053955 -5.224653244018555 1.2216846942901611 114
1.1228785514831543 -5.460558891296387 1.075196385383606 114
1.1794863939285278 -5.740921497344971 0.921164870262146 114
1.1891998052597046 -5.793328285217285 0.7214664816856384 114
1.6928843259811401 -8.254402160644531 0.7338513731956482 112
nan nan nan 0
nan nan nan 0
0.388626366853714 -1.9067522287368774 -0.5111678242683411 119
0.44606029987335205 -2.1904990673065186 -0.5072649121284485 119
4.91998815536499 -24.182510375976562 -4.785008907318115 113
4.916393756866455 -24.186450958251953 -3.903043031692505 113
1.5721484422683716 -7.741185665130615 -0.9652062654495239 111
1.566638469696045 -7.720963478088379 -0.6859167814254761 111
4.902456283569336 -24.182741165161133 -1.2868316173553467 113
4.89523983001709 -24.168807983398438 -0.4254717230796814 113
1.0115302801132202 -4.998617172241211 1.3553283214569092 114
1.0561091899871826 -5.223599433898926 1.2205607891082764 114
1.1028389930725098 -5.459634304046631 1.074243187904358 114
1.158462643623352 -5.740162372589111 0.9203835725784302 114
1.1679891347885132 -5.792579174041748 0.7208571434020996 114
1.6640608310699463 -8.260260581970215 0.7338513731956482 112
nan nan nan 0
nan nan nan 0
0.3816351890563965 -1.9081639051437378 -0.5111678242683411 119
0.4380287230014801 -2.1921193599700928 -0.5072649121284485 119
4.826516628265381 -24.176311492919922 -4.780242443084717 113
4.821917533874512 -24.175251007080078 -3.898350238800049 113
1.5427950620651245 -7.742028713226318 -0.9645969271659851 111
1.5373566150665283 -7.721768856048584 -0.6854809522628784 111
4.808918476104736 -24.17605972290039 -1.2855274677276611 113
4.801751613616943 -24.16206932067871 -0.42503979802131653 113
0.9922619462013245 -4.99755334854126 1.3540350198745728 114
1.036008596420288 -5.22265625 1.219436764717102 114
1.08186674118042 -5.458824634552002 1.0732899904251099 114
1.136456847190857 -5.739525318145752 0.9196022152900696 114
1.1457873582839966 -5.791953086853027 0.7202478051185608 114
1.6328084468841553 -8.261418342590332 0.7334156036376953 112
nan nan nan 0
nan nan nan 0
0.3749721050262451 -1.9094843864440918 -0.5111678242683411 119
0.4303741157054901 -2.1936349868774414 -0.5072649121284485 119
4.7373762130737305 -24.168930053710938 -4.775476455688477 113
4.732755184173584 -24.167701721191406 -3.8944389820098877 113
1.513855218887329 -7.737626075744629 -0.9633782505989075 111
1.5084822177886963 -7.717311382293701 -0.6846094131469727 111
4.7197136878967285 -24.168195724487305 -1.2842235565185547 113
4.712594032287598 -24.15414810180664 -0.4246078133583069 113
0.9738872051239014 -4.996246337890625 1.3527418375015259 114
1.01777184009552 -5.226241111755371 1.219436764717102 114
1.0618679523468018 -5.45775032043457 1.0723369121551514 114
1.1154729127883911 -5.738609313964844 0.9188209176063538 114
1.1246165037155151 -5.791045665740967 0.7196384072303772 114
1.6039607524871826 -8.267066955566406 0.7334156036376953 112
nan nan nan 0
nan nan nan 0
0.3683044910430908 -1.9107816219329834 -0.5111678242683411 119
0.4227142930030823 -2.1951239109039307 -0.5072649121284485 119
4.649272441864014 -24.166038513183594 -4.771663665771484 113
4.643704414367676 -24.159826278686523 -3.8905282020568848 113
1.485900640487671 -7.7379889488220215 -0.9627688527107239 111
1.4805961847305298 -7.71763801574707 -0.6841736435890198 111
4.632502555847168 -24.16981315612793 -1.2834410667419434 113
4.624491214752197 -24.150815963745117 -0.42426228523254395 113
0.9555335640907288 -4.994871139526367 1.3514485359191895 114
0.9986081123352051 -5.224976539611816 1.2183129787445068 114
1.0418897867202759 -5.456602573394775 1.0713835954666138 114
1.094509243965149 -5.737617492675781 0.9180396795272827 114
1.1034661531448364 -5.7900614738464355 0.7190291285514832 114
1.5741618871688843 -8.267723083496094 0.7329797744750977 112
4.599641799926758 -24.18094253540039 1.2879878282546997 113
nan nan nan 0
0.3625299036502838 -1.91680109500885 -0.5124619007110596 119
0.4141448140144348 -2.1917991638183594 -0.5061401724815369 119
4.561246871948242 -24.16282844543457 -4.76785135269165 113
4.55293607711792 -24.141918182373047 -3.8850529193878174 113
1.4579622745513916 -7.73825216293335 -0.9621595740318298 111
1.452726125717163 -7.717864513397217 -0.6837378740310669 111
4.544414520263672 -24.16620635986328 -1.2823978662490845 113
4.537391662597656 -24.152069091796875 -0.42400309443473816 113
0.9380924105644226 -4.998176097869873 1.3514485359191895 114
0.9794654846191406 -5.223641395568848 1.217189073562622 114
1.021932601928711 -5.455381870269775 1.0704303979873657 114
1.0735660791397095 -5.736548900604248 0.9172583222389221 114
1.082336187362671 -5.788999557495117 0.7184197306632996 114
1.5434634685516357 -8.263374328613281 0.7321082353591919 112
4.519786357879639 -24.221393585205078 1.289296269416809 113
nan nan nan 0
0.3567177951335907 -1.9228036403656006 -0.5137560367584229 119
0.40826714038848877 -2.2028119564056396 -0.5083897113800049 119
4.47240686416626 -24.15447235107422 -4.763084888458252 113
4.463248252868652 -24.128528594970703 -3.8803601264953613 113
1.4300400018692017 -7.738414287567139 -0.9615501761436462 111
1.424872636795044 -7.717989921569824 -0.6833020448684692 111
4.457314491271973 -24.167192459106445 -1.2816154956817627 113
4.44943380355835 -24.14809226989746 -0.42365750670433044 113
0.9197654128074646 -4.996670246124268 1.3501553535461426 114
0.9612256288528442 -5.227028846740723 1.217189073562622 114
1.0028835535049438 -5.458915710449219 1.0704303979873657 114
1.0526437759399414 -5.735403537750244 0.9164770245552063 114
1.0612272024154663 -5.78786039352417 0.7178103923797607 114
1.5137120485305786 -8.263812065124512 0.7316724061965942 112
4.42622184753418 -24.18790626525879 1.2866793870925903 113
nan nan nan 0
0.35000377893447876 -1.9240370988845825 -0.5137560367584229 119
0.402317613363266 -2.213810443878174 -0.5106391906738281 119
4.384557723999023 -24.150619506835938 -4.759272575378418 113
4.371945858001709 -24.105087280273438 -3.8741025924682617 113
1.4021342992782593 -7.738475799560547 -0.9609408378601074 111
1.3961488008499146 -7.713114261627197 -0.6824305057525635 111
4.369373798370361 -24.162948608398438 -1.2805721759796143 113
4.362447738647461 -24.148717880249023 -0.42339834570884705 113
0.9023181796073914 -4.999850273132324 1.3501553535461426 114
0.9421095848083496 -5.225557804107666 1.2160651683807373 114
0.9829521775245667 -5.457551956176758 1.0694772005081177 114
1.0317424535751343 -5.734182357788086 0.9156956672668457 114
1.0401393175125122 -5.78664493560791 0.7172010540962219 114
1.4830961227416992 -8.259241104125977 0.7308009266853333 112
nan nan nan 0
nan nan nan 0
0.3432855010032654 -1.9252471923828125 -0.5137560367584229 119
0.39715054631233215 -2.2295899391174316 -0.5140134692192078 119
4.29679012298584 -24.146448135375977 -4.755459785461426 113
4.286048412322998 -24.110477447509766 -3.8725383281707764 113
1.3742457628250122 -7.738436698913574 -0.9603314995765686 111
1.3683464527130127 -7.713036060333252 -0.6819947361946106 111
4.282388687133789 -24.163305282592773 -1.2797898054122925 113
4.2746405601501465 -24.144107818603516 -0.4230527877807617 113
0.8840187788009644 -4.998213768005371 1.3488620519638062 114
0.9230155348777771 -5.224016189575195 1.214941143989563 114
0.9630427360534668 -5.456117153167725 1.0685241222381592 114
1.0108625888824463 -5.732885837554932 0.9149144291877747 114
1.0190730094909668 -5.785353660583496 0.7165916562080383 114
1.453393816947937 -8.259462356567383 0.7303651571273804 112
nan nan nan 0
nan nan nan 0
0.3365630507469177 -1.9264336824417114 -0.5137560367584229 119
0.3935534954071045 -2.2549595832824707 -0.5196372270584106 119
4.209105014801025 -24.141958236694336 -4.751646995544434 113
4.200165748596191 -24.11556053161621 -3.870973825454712 113
1.34637451171875 -7.738297462463379 -0.9597221612930298 111
1.3405615091323853 -7.712858200073242 -0.6815589666366577 111
4.1946001052856445 -24.15842628479004 -1.278746485710144 113
4.18691873550415 -24.13918113708496 -0.4227072596549988 113
0.8657418489456177 -4.9965105056762695 1.3475688695907593 114
0.9039437770843506 -5.222405910491943 1.2138173580169678 114
0.9431551694869995 -5.454608917236328 1.0675709247589111 114
0.9900043606758118 -5.731513023376465 0.9141330718994141 114
0.9980282783508301 -5.783985137939453 0.7159823775291443 114
1.4228618144989014 -8.254668235778809 0.7294935584068298 112
4.155742645263672 -24.1345157623291 1.2814457416534424 113
nan nan nan 0
0.32983648777008057 -1.9275966882705688 -0.5137560367584229 119
0.3832172155380249 -2.241912603378296 -0.516262948513031 119
4.121503829956055 -24.137149810791016 -4.747834205627441 113
4.113470554351807 -24.1154727935791 -3.8686275482177734 113
1.3185210227966309 -7.738057613372803 -0.959112823009491 111
1.3127946853637695 -7.71258020401001 -0.6811231970787048 111
4.105223655700684 -24.143386840820312 -1.277181625366211 113
4.099282741546631 -24.133934020996094 -0.42236167192459106 113
0.8474874496459961 -4.994739532470703 1.3462755680084229 114
0.8848945498466492 -5.220726490020752 1.212693452835083 114
0.9241092801094055 -5.4578680992126465 1.0675709247589111 114
0.9691680073738098 -5.730064392089844 0.9133517742156982 114
0.9778323173522949 -5.787433624267578 0.7159823775291443 114
1.392380952835083 -8.249761581420898 0.7286220192909241 112
4.0772833824157715 -24.183340072631836 1.2832775115966797 113
nan nan nan 0
0.32310590147972107 -1.9287363290786743 -0.5137560367584229 119
0.3745850920677185 -2.238431930541992 -0.5151382088661194 119
4.033987045288086 -24.13202667236328 -4.744021415710449 113
4.027639865875244 -24.11993980407715 -3.867063045501709 113
1.2898690700531006 -7.732822418212891 -0.9578940868377686 111
1.285046100616455 -7.712203025817871 -0.680687427520752 111
4.017643928527832 -24.137868881225586 -1.276138424873352 113
4.012555122375488 -24.13330078125 -0.42210251092910767 113
0.8300474286079407 -4.9976677894592285 1.3462755680084229 114
0.8666654229164124 -5.223783493041992 1.212693452835083 114
0.9042496085166931 -5.4562177658081055 1.066617727279663 114
0.9483537673950195 -5.72853946685791 0.9125704169273376 114
0.9568147659301758 -5.785915374755859 0.7153730392456055 114
1.3619515895843506 -8.244741439819336 0.7277504205703735 112
3.9920296669006348 -24.1924991607666 1.2830159664154053 113
nan nan nan 0
0.3163714110851288 -1.9298524856567383 -0.5137560367584229 119
0.3659818768501282 -2.234917640686035 -0.5140134692192078 119
3.9457643032073975 -24.12173843383789 -4.739255428314209 113
3.939439296722412 -24.109485626220703 -3.863152265548706 113
1.2620692253112793 -7.732380390167236 -0.9572848081588745 111
1.2573161125183105 -7.711725234985352 -0.6802515983581543 111
3.927743911743164 -24.11724853515625 -1.2743128538131714 113
3.9242753982543945 -24.122488021850586 -0.421670526266098 113
0.8118225336074829 -4.995767593383789 1.3449822664260864 114
0.8476450443267822 -5.2219672203063965 1.2115695476531982 114
0.8844127058982849 -5.454495906829834 1.065664529800415 114
0.9275621771812439 -5.726940631866455 0.9117891788482666 114
0.9358197450637817 -5.784320831298828 0.7147636413574219 114
1.3315746784210205 -8.239611625671387 0.7268789410591125 112
nan nan nan 0
nan nan nan 0
0.3096330165863037 -1.9309450387954712 -0.5137560367584229 119
0.3574078381061554 -2.2313714027404785 -0.5128887295722961 119
3.856887102127075 -24.106285095214844 -4.733536720275879 113
3.856816053390503 -24.132841110229492 -3.8647167682647705 113
1.2335057258605957 -7.726937294006348 -0.9560660719871521 111
1.2296051979064941 -7.711148262023926 -0.6798158288002014 111
3.8411788940429688 -24.116018295288086 -1.27353036403656 113
3.838477611541748 -24.126163482666016 -0.42149776220321655 113
0.7936210036277771 -4.993800640106201 1.34368896484375 114
0.828648030757904 -5.220082759857178 1.2104456424713135 114
0.865367591381073 -5.457549571990967 1.065664529800415 114
0.907565712928772 -5.7301435470581055 0.9117891788482666 114
0.9148474931716919 -5.782649993896484 0.7141543030738831 114
1.3012501001358032 -8.234369277954102 0.726007342338562 112
nan nan nan 0
nan nan nan 0
0.30214282870292664 -1.927242636680603 -0.5124619007110596 119
0.34886297583580017 -2.2277920246124268 -0.5117639303207397 119
3.7765097618103027 -24.143850326538086 -4.738302230834961 113
3.767216920852661 -24.112003326416016 -3.859241485595703 113
1.2057609558105469 -7.726292133331299 -0.9554566740989685 111
1.2011464834213257 -7.705550670623779 -0.6789442896842957 111
3.752365827560425 -24.09967803955078 -1.271965503692627 113
3.749628782272339 -24.109777450561523 -0.42097944021224976 113
0.7754432559013367 -4.9917683601379395 1.3423959016799927 114
0.8104214668273926 -5.222943305969238 1.2104456424713135 114
0.8455601930618286 -5.455687522888184 1.064711332321167 114
0.8868027925491333 -5.728395938873291 0.9110078811645508 114
0.8938983678817749 -5.780904293060303 0.7135449647903442 114
1.2709780931472778 -8.229016304016113 0.7251357436180115 112
nan nan nan 0
nan nan nan 0
0.29541367292404175 -1.9282855987548828 -0.5124619007110596 119
0.34108442068099976 -2.2289960384368896 -0.5117639303207397 119
3.691467523574829 -24.15203285217285 -4.737349510192871 113
3.681536912918091 -24.11524200439453 -3.8576772212982178 113
1.178035855293274 -7.725548267364502 -0.9548473954200745 111
1.1734918355941772 -7.704771995544434 -0.6785085201263428 111
3.6682190895080566 -24.112628936767578 -1.271965503692627 113
3.663944959640503 -24.112834930419922 -0.4208066463470459 113
0.7580140233039856 -4.994444370269775 1.3423959016799927 114
0.7914549112319946 -5.220923900604248 1.2093217372894287 114
0.8257763385772705 -5.453752517700195 1.063758134841919 114
0.8668015003204346 -5.731456756591797 0.9110078811645508 114
0.8729725480079651 -5.779082775115967 0.7129356265068054 114
1.2415026426315308 -8.228477478027344 0.7246999740600586 112
3.641955852508545 -24.166881561279297 1.2788289785385132 113
nan nan nan 0
0.28868088126182556 -1.929305076599121 -0.5124619007110596 119
0.33258160948753357 -2.2253551483154297 -0.5106391906738281 119
nan nan nan 0
nan nan nan 0
1.1495994329452515 -7.719796180725098 -0.953628659248352 111
1.1458570957183838 -7.70389461517334 -0.6780726909637451 111
nan nan nan 0
3.579019546508789 -24.120532989501953 -0.42072027921676636 113
0.7398674488067627 -4.992282390594482 1.3411026000976562 114
0.7732256650924683 -5.223654747009277 1.2093217372894287 114
0.8067341446876526 -5.456602096557617 1.063758134841919 114
0.846068263053894 -5.729561805725098 0.9102265238761902 114
0.8520703315734863 -5.777184963226318 0.7123262882232666 114
1.2105947732925415 -8.217978477478027 0.7233927249908447 112
3.5568485260009766 -24.17450714111328 1.2785674333572388 113
3.5467803478240967 -24.135324478149414 0.4251405894756317 113
0.28194460272789 -1.9303009510040283 -0.5124619007110596 119
0.3248116672039032 -2.2265024185180664 -0.5106391906738281 119
nan nan nan 0
nan nan nan 0
1.1219314336776733 -7.718850612640381 -0.9530193209648132 111
1.118242859840393 -7.70291805267334 -0.6776369214057922 111
1.194139838218689 -8.23583698272705 -0.4326821565628052 112
1.1919937133789062 -8.231152534484863 -0.14306215941905975 112
0.7217451333999634 -4.990054130554199 1.3398092985153198 114
0.7542903423309326 -5.221499443054199 1.208197832107544 114
0.7869812250137329 -5.454526424407959 1.062804937362671 114
0.8260632157325745 -5.732480525970459 0.9102265238761902 114
0.8311920166015625 -5.775211334228516 0.711716890335083 114
1.181901216506958 -8.222153663635254 0.7233927249908447 112
3.4688940048217773 -24.162059783935547 1.2772588729858398 113
3.462510585784912 -24.147558212280273 0.4251405894756317 113
0.2752048671245575 -1.931273341178894 -0.5124619007110596 119
0.3163512647151947 -2.222799301147461 -0.5095144510269165 119
nan nan nan 0
1.1722019910812378 -8.256979942321777 -1.3148326873779297 112
1.094284176826477 -7.717806339263916 -0.9524099826812744 111
1.0906494855880737 -7.701842784881592 -0.6772011518478394 111
1.1611886024475098 -8.21028995513916 -0.4311172664165497 112
1.1562621593475342 -8.185761451721191 -0.14219826459884644 112
0.7043222784996033 -4.992542743682861 1.3398092985153198 114
0.736059308052063 -5.224100589752197 1.208197832107544 114
0.7679365277290344 -5.457240104675293 1.062804937362671 114
0.8053607940673828 -5.730438232421875 0.9094452261924744 114
0.8103379011154175 -5.773163318634033 0.711107611656189 114
1.1518104076385498 -8.216363906860352 0.7225211262702942 112
nan nan nan 0
nan nan nan 0
0.26912644505500793 -1.9370059967041016 -0.5137560367584229 119
0.30725106596946716 -2.2142386436462402 -0.5072649121284485 119
nan nan nan 0
1.114936351776123 -8.055564880371094 -1.2819814682006836 112
1.0666579008102417 -7.716662883758545 -0.9518006443977356 111
1.0630772113800049 -7.700668811798096 -0.6767653822898865 111
1.1277484893798828 -8.179669380187988 -0.42929160594940186 112
nan nan nan 0
0.6862327456474304 -4.9901862144470215 1.3385159969329834 114
0.7171564102172852 -5.221811771392822 1.2070739269256592 114
0.7482156157493591 -5.4550251960754395 1.0618517398834229 114
0.7846826910972595 -5.7283220291137695 0.9086639285087585 114
0.7895082235336304 -5.771039962768555 0.7104982733726501 114
1.1197514533996582 -8.195658683776855 0.7203421592712402 112
nan nan nan 0
1.0514404773712158 -7.715758323669434 0.13525614142417908 0
0.2649551331996918 -1.9570773839950562 -0.5189324021339417 119
0.2988673448562622 -2.210469961166382 -0.5061401724815369 119
1.0421991348266602 -7.718413829803467 -1.5050853490829468 111
1.0386321544647217 -7.70213508605957 -1.2248828411102295 111
1.0390527248382568 -7.715421199798584 -0.9511913061141968 111
1.0348625183105469 -7.694458961486816 -0.6758937835693359 111
1.0387014150619507 -7.733218669891357 -0.4055579900741577 0
1.0339521169662476 -7.708056926727295 -0.13373202085494995 111
0.6688095331192017 -4.992551326751709 1.3385159969329834 114
0.6989245414733887 -5.224283218383789 1.2070739269256592 114
0.729169487953186 -5.457603454589844 1.0618517398834229 114
0.7646823525428772 -5.7310261726379395 0.9086639285087585 114
0.7687031626701355 -5.768840789794922 0.7098888754844666 114
1.0287175178527832 -7.730460166931152 0.6789432168006897 111
1.0259202718734741 -7.719743251800537 0.406127005815506 111
1.0218702554702759 -7.699558258056641 0.1349070966243744 111
0.2518097758293152 -1.9101083278656006 -0.5059914588928223 119
0.28797000646591187 -2.1873488426208496 -0.5005163550376892 119
1.0152504444122314 -7.722004413604736 -1.5050853490829468 111
1.0104546546936035 -7.695920944213867 -1.2233184576034546 111
1.0114693641662598 -7.714080333709717 -0.9505819082260132 111
1.0073509216308594 -7.69308614730835 -0.6754580736160278 111
1.007169246673584 -7.7021403312683105 -0.4037323296070099 111
1.0076870918273926 -7.71657657623291 -0.13381841778755188 111
0.6513782739639282 -4.9948554039001465 1.3385159969329834 114
0.6800549030303955 -5.221859455108643 1.2059500217437744 114
0.709481418132782 -5.4552483558654785 1.0608986616134644 114
0.7440365552902222 -5.728762626647949 0.9078826308250427 114
0.7485615015029907 -5.771489143371582 0.7098888754844666 114
1.001086950302124 -7.729063510894775 0.6785074472427368 111
0.9970455169677734 -7.708421230316162 0.4053419530391693 111
0.9956279397010803 -7.708036422729492 0.13499435782432556 111
0.2420681267976761 -1.8870238065719604 -0.4995209574699402 119
nan nan nan 0
0.9845524430274963 -7.696289539337158 -1.499366283416748 111
0.9835847616195679 -7.699400901794434 -1.2233184576034546 111
0.9832800626754761 -7.707718849182129 -0.9493632316589355 111
0.9798614978790283 -7.691614627838135 -0.6750222444534302 111
0.9802775979042053 -7.705609321594238 -0.4037323296070099 111
0.9788550138473511 -7.705169200897217 -0.1335592418909073 111
0.6333311796188354 -4.992307662963867 1.3372228145599365 114
0.6618230938911438 -5.224201679229736 1.2059500217437744 114
0.6904347538948059 -5.457691669464111 1.0608986616134644 114
0.7240349054336548 -5.731325149536133 0.9078826308250427 114
0.7277895212173462 -5.769143104553223 0.7092795372009277 114
0.9716112613677979 -7.712743759155273 0.6767643690109253 111
0.9701319932937622 -7.711854934692383 0.4053419530391693 111
0.9662232995033264 -7.691624164581299 0.13464529812335968 111
nan nan nan 0
0.26727306842803955 -2.1457955837249756 -0.49039360880851746 119
0.9570755958557129 -7.6948089599609375 -1.4984129667282104 111
0.9554854035377502 -7.692986011505127 -1.2217541933059692 111
0.9551474452018738 -7.701253890991211 -0.9481445550918579 111
0.9530067443847656 -7.694988250732422 -0.6750222444534302 111
0.9515354633331299 -7.694118022918701 -0.40294989943504333 111
0.9519529938697815 -7.708539009094238 -0.1335592418909073 111
0.6159008741378784 -4.99448823928833 1.3372228145599365 114
0.6429877281188965 -5.221643924713135 1.2048259973526 114
0.670780599117279 -5.455196857452393 1.0599453449249268 114
0.7040244340896606 -5.7338175773620605 0.9078826308250427 114
0.7070431709289551 -5.7667236328125 0.7086701989173889 114
0.944682776927948 -7.716087818145752 0.6767643690109253 111
0.9413889646530151 -7.7003254890441895 0.40455693006515503 111
0.9399744868278503 -7.699911594390869 0.13473257422447205 111
nan nan nan 0
0.11228837817907333 -0.9279009103775024 -0.20695509016513824 40
0.9302098751068115 -7.698102951049805 -1.4984129667282104 111
0.9286260604858398 -7.696274757385254 -1.2217541933059692 111
0.9282591938972473 -7.704540729522705 -0.9481445550918579 111
0.9261403679847717 -7.698267936706543 -0.6750222444534302 111
0.9240766763687134 -7.692434787750244 -0.4026890993118286 111
0.9250394105911255 -7.711814880371094 -0.1335592418909073 111
0.5978887677192688 -4.991811752319336 1.3359296321868896 114
0.6241783499717712 -5.219019889831543 1.2037022113800049 114
0.6517342925071716 -5.457504749298096 1.0599453449249268 114
0.6828358769416809 -5.7264323234558105 0.9063199758529663 114
0.6869091987609863 -5.769155979156494 0.7086701989173889 114
0.917154848575592 -7.714392185211182 0.6763285398483276 111
0.9150926470756531 -7.708523273468018 0.404818594455719 111
0.9119141697883606 -7.693218231201172 0.1345580518245697 111
nan nan nan 0
0.11018553376197815 -0.9379643797874451 -0.20920461416244507 40
nan nan nan 0
nan nan nan 0
nan nan nan 0
nan nan nan 0
0.8977976441383362 -7.700573444366455 -0.40294989943504333 111
nan nan nan 0
0.5804604291915894 -4.993868350982666 1.3359296321868896 114
0.6059567928314209 -5.221166610717773 1.2037022113800049 114
0.6326800584793091 -5.459746837615967 1.0599453449249268 114
0.6628427505493164 -5.728780746459961 0.9063199758529663 114
0.6661973595619202 -5.7665886878967285 0.7080608606338501 114
0.8902209997177124 -7.717546463012695 0.6763285398483276 111
0.8876080513000488 -7.706710338592529 0.40455693006515503 111
0.8844830393791199 -7.691387176513672 0.13447079062461853 111
0.11457262933254242 -1.0024795532226562 -0.26011326909065247 119
0.10817922651767731 -0.9480055570602417 -0.2114541232585907 40
0.8755667805671692 -7.684749603271484 -1.4946002960205078 111
nan nan nan 0
nan nan nan 0
nan nan nan 0
nan nan nan 0
nan nan nan 0
0.5638969540596008 -4.995765686035156 1.3359296321868896 114
0.5891849994659424 -5.227988243103027 1.2048259973526 114
0.6140226721763611 -5.456937313079834 1.0589921474456787 114
nan nan nan 0
0.6465177536010742 -5.763833999633789 0.7074515223503113 114
nan nan nan 0
nan nan nan 0
nan nan nan 0
nan nan nan 0
0.10808213800191879 -0.9774313569068909 -0.2182026505470276 40
nan nan nan 0
nan nan nan 0
nan nan nan 0
0.10372786968946457 -0.9440868496894836 -0.07974762469530106 40
0.8426388502120972 -7.681689262390137 -0.40164586901664734 111
nan nan nan 0
0.5459300875663757 -4.992902755737305 1.3346363306045532 114
0.5709323287010193 -5.230012893676758 1.2048259973526 114
0.5955023765563965 -5.463926792144775 1.0599453449249268 114
0.6238331198692322 -5.733160018920898 0.9063199758529663 114
0.6263943314552307 -5.766055583953857 0.7074515223503113 114
0.8355208039283752 -7.703619480133057 0.6745854616165161 111
0.8335173726081848 -7.697680473327637 0.40377187728881836 111
nan nan nan 0
0.10791021585464478 -1.0080758333206177 -0.26140734553337097 119
0.10398124158382416 -0.9729766249656677 -0.21707789599895477 40
nan nan nan 0
nan nan nan 0
nan nan nan 0
nan nan nan 0
nan nan nan 0
nan nan nan 0
0.5276265144348145 -4.994870185852051 1.3346363306045532 114
nan nan nan 0
0.5759860277175903 -5.470953941345215 1.0608986616134644 114
nan nan nan 0
0.6052564382553101 -5.768312931060791 0.7074515223503113 114
nan nan nan 0
nan nan nan 0
nan nan nan 0
0.10488800704479218 -1.0132503509521484 -0.26270145177841187 119
0.10008349269628525 -0.9684876799583435 -0.21595314145088196 40
0.10214371979236603 -0.9901140928268433 -0.18587183952331543 40
0.10105524212121964 -0.9812407493591309 -0.1501772105693817 40
0.10186847299337387 -0.9908341765403748 -0.11760404706001282 40
0.09747806936502457 -0.949759840965271 -0.08018340170383453 40
nan nan nan 0
nan nan nan 0
nan nan nan 0
nan nan nan 0
nan nan nan 0
0.09619419276714325 -0.9470138549804688 0.1445424109697342 40
nan nan nan 0
0.10016490519046783 -0.9895402789115906 0.083669513463974 40
nan nan nan 0
0.09514747560024261 -0.9433250427246094 0.01588168926537037 40
0.09654529392719269 -0.9655535817146301 -0.2497604787349701 40
0.09573449194431305 -0.9591355919837952 -0.21370363235473633 40
0.09576712548732758 -0.9611599445343018 -0.18015271425247192 40
0.09420806914567947 -0.9471881985664368 -0.1447019875049591 40
0.09595763683319092 -0.9664914608001709 -0.11455731093883514 40
0.09317970275878906 -0.9401809573173523 -0.07931184768676758 40
0.09372615069150925 -0.9473792910575867 -0.0477280467748642 40
0.0946524366736412 -0.9584495425224304 -0.015982186421751976 40
0.09567514806985855 -0.9705373644828796 0.25089094042778015 40
nan nan nan 0
0.09202590584754944 -0.9368687272071838 0.17538663744926453 40
0.09288790822029114 -0.9473438858985901 0.1445424109697342 40
0.09219098836183548 -0.9419288635253906 0.11151044070720673 40
0.09622582793235779 -0.9849265217781067 0.08323373645544052 40
0.09434104710817337 -0.9673793315887451 0.04893411695957184 40
0.09186071902513504 -0.9436507821083069 0.01588168926537037 40
0.09039187431335449 -0.9370409250259399 -0.2419959157705307 40
0.09145200997591019 -0.9497650861740112 -0.2114541232585907 40
0.09194187819957733 -0.9566025137901306 -0.17919953167438507 40
0.09090118855237961 -0.9475112557411194 -0.1447019875049591 40
0.09116415679454803 -0.9520001411437988 -0.1127292662858963 40
0.09037123620510101 -0.9454588890075684 -0.07974762469530106 40
0.08994437754154205 -0.9427301287651062 -0.04746723920106888 40
0.09035834670066833 -0.9488205909729004 -0.015809405595064163 40
nan nan nan 0
nan nan nan 0
0.0901433676481247 -0.9518436193466187 0.17824621498584747 40
0.08911573886871338 -0.9427457451820374 0.14376109838485718 40
0.0884363129734993 -0.9373041391372681 0.11090109497308731 40
0.09045211225748062 -0.9604613184928894 0.08105484396219254 40
0.08909449726343155 -0.9478176832199097 0.047887396067380905 40
0.0871652215719223 -0.9290335178375244 0.01561990287154913 40
0.08773183077573776 -0.9421442747116089 -0.2432900071144104 40
0.0875643715262413 -0.9403460025787354 -0.20920461416244507 40
0.08848194032907486 -0.9519994854927063 -0.17824633419513702 40
0.08746787905693054 -0.9428747892379761 -0.14391982555389404 40
0.08908801525831223 -0.962165117263794 -0.11394796520471573 40
0.08694218844175339 -0.9407782554626465 -0.07931184768676758 40
0.08652363717556 -0.9380359649658203 -0.04720642790198326 40
0.08646048605442047 -0.9391433596611023 -0.01563662476837635 40
0.08746848255395889 -0.9519122838973999 0.24571792781352997 40
0.08669959753751755 -0.9453554153442383 0.2101702243089676 40
0.08625778555870056 -0.9423462748527527 0.17633983492851257 40
0.08480564504861832 -0.9282667636871338 0.14141717553138733 40
0.08504059910774231 -0.9326351284980774 0.1102917492389679 40
0.08607997000217438 -0.9458593130111694 0.0797475054860115 40
0.08611640334129333 -0.9480929374694824 0.047887396067380905 40
0.08469750732183456 -0.9342816472053528 0.015707165002822876 40
0.0846070796251297 -0.9424300789833069 -0.2432900071144104 40
0.08384664356708527 -0.9357934594154358 -0.20807984471321106 40
0.08515829592943192 -0.9523025155067444 -0.17824633419513702 40
0.08417610079050064 -0.9431743621826172 -0.14391982555389404 40
0.08528859168291092 -0.9575270414352417 -0.11333861947059631 40
0.08365772664546967 -0.9410760402679443 -0.07931184768676758 40
0.08280748873949051 -0.9333586096763611 -0.04694562032818794 40
0.08318173140287399 -0.9394394755363464 -0.01563662476837635 40
0.08286970853805542 -0.9377784729003906 0.24183817207813263 40
0.08254313468933105 -0.9359458684921265 0.20792241394519806 40
0.08210716396570206 -0.9328628778457642 0.17443345487117767 40
0.08199701458215714 -0.9334767460823059 0.14219847321510315 40
0.08135119080543518 -0.9279825687408447 0.10968240350484848 40
0.08321189135313034 -0.9511159658432007 0.08018328249454498 40
0.08237210661172867 -0.9434135556221008 0.047625716775655746 40
0.08143573999404907 -0.9345716238021851 0.015707165002822876 40
0.08115233480930328 -0.9427338242530823 -0.2432900071144104 40
0.08041621744632721 -0.9360945224761963 -0.20807984471321106 40
0.08166737109422684 -0.9526082277297974 -0.17824633419513702 40
0.08071862906217575 -0.9434765577316284 -0.14391982555389404 40
0.08177850395441055 -0.9578331708908081 -0.11333861947059631 40
0.0802079513669014 -0.9413763284683228 -0.07931184768676758 40
0.0798090398311615 -0.9386311173439026 -0.04720642790198326 40
0.07973795384168625 -0.9397380352020264 -0.01563662476837635 40
0.07943202555179596 -0.9380759000778198 0.24183817207813263 40
0.0787019431591034 -0.9313873052597046 0.2067985087633133 40
0.07868749648332596 -0.9331575632095337 0.17443345487117767 40
0.07857510447502136 -0.9337710738182068 0.14219847321510315 40
0.0779494121670723 -0.9282745122909546 0.10968240350484848 40
0.07930939644575119 -0.9464510679244995 0.0797475054860115 40
0.07891377061605453 -0.943709135055542 0.047625716775655746 40
0.07800981402397156 -0.9348638653755188 0.015707165002822876 40
0.07786108553409576 -0.9430113434791565 -0.2432900071144104 40
0.07674811035394669 -0.9315140843391418 -0.20695509016513824 40
0.07834164798259735 -0.9528875350952148 -0.17824633419513702 40
0.07702100276947021 -0.9388306736946106 -0.14313764870166779 40
0.0784345492720604 -0.9581128358840942 -0.11333861947059631 40
0.07692144066095352 -0.9416505694389343 -0.07931184768676758 40
0.07653211802244186 -0.9389039278030396 -0.04720642790198326 40
0.076457180082798 -0.940010666847229 -0.01563662476837635 40
0.07576633244752884 -0.9335334300994873 0.24054491519927979 40
0.07623687386512756 -0.9413687586784363 0.20904631912708282 40
0.07542969286441803 -0.933426558971405 0.17443345487117767 40
0.07531515508890152 -0.9340395927429199 0.14219847321510315 40
0.07470866292715073 -0.9285409450531006 0.10968240350484848 40
0.07600518316030502 -0.9467220902442932 0.0797475054860115 40
0.07522042095661163 -0.9390016198158264 0.04736403748393059 40
0.07474605739116669 -0.9351304769515991 0.015707165002822876 40
0.07456889003515244 -0.9432774186134338 -0.2432900071144104 40
0.07349605113267899 -0.9317762851715088 -0.20695509016513824 40
0.07501497119665146 -0.9531551599502563 -0.17824633419513702 40
0.07374340295791626 -0.939093828201294 -0.14313764870166779 40
0.07508963346481323 -0.9583807587623596 -0.11333861947059631 40
0.07363399863243103 -0.9419133067131042 -0.07931184768676758 40
0.07325426489114761 -0.9391653537750244 -0.04720642790198326 40
0.0727875679731369 -0.935287594795227 -0.015550235286355019 40
0.07250723242759705 -0.933792233467102 0.24054491519927979 40
0.07257409393787384 -0.9367715716362 0.20792241394519806 40
0.07217096537351608 -0.9336841106414795 0.17443345487117767 40
0.07205428183078766 -0.9342967867851257 0.14219847321510315 40
0.07146698981523514 -0.9287960529327393 0.10968240350484848 40
0.07270004600286484 -0.94698166847229 0.0797475054860115 40
0.07194223999977112 -0.9392585158348083 0.04736403748393059 40
0.07148139178752899 -0.9353856444358826 0.015707165002822876 40
0.07091198116540909 -0.9387160539627075 -0.2419959157705307 40
0.07024309784173965 -0.9320272207260132 -0.20695509016513824 40
0.07131936401128769 -0.9485166668891907 -0.17729315161705017 40
0.07046490162611008 -0.9393455386161804 -0.14313764870166779 40
0.07174380123615265 -0.958636999130249 -0.11333861947059631 40
0.07034566253423691 -0.9421646595001221 -0.07931184768676758 40
0.06997552514076233 -0.9394153356552124 -0.04720642790198326 40
0.06952236592769623 -0.9355359673500061 -0.015550235286355019 40
0.06924725323915482 -0.9340396523475647 0.24054491519927979 40
0.06930370628833771 -0.9370192289352417 0.20792241394519806 40
0.0689113587141037 -0.9339303374290466 0.17443345487117767 40
0.06879254430532455 -0.9345426559448242 0.14219847321510315 40
0.0682244524359703 -0.9290398359298706 0.10968240350484848 40
0.06939401477575302 -0.9472296833992004 0.0797475054860115 40
0.06866317242383957 -0.9395039081573486 0.04736403748393059 40
0.06821584701538086 -0.9356294274330139 0.015707165002822876 40
0.06763482093811035 -0.938957929611206 -0.2419959157705307 40
0.06698928773403168 -0.9322667121887207 -0.20695509016513824 40
0.06800798326730728 -0.9487598538398743 -0.17729315161705017 40
0.06718554347753525 -0.9395857453346252 -0.14313764870166779 40
0.06804399937391281 -0.9539313912391663 -0.1127292662858963 40
0.0667029321193695 -0.9374359846115112 -0.0788760706782341 40
0.0666959211230278 -0.9396539330482483 -0.04720642790198326 40
0.06625630706548691 -0.9357729554176331 -0.015550235286355019 40
0.06598641723394394 -0.9342756867408752 0.24054491519927979 40
0.06569007784128189 -0.932395339012146 0.2067985087633133 40
0.06565091758966446 -0.9341652393341064 0.17443345487117767 40
0.065529964864254 -0.9347770810127258 0.14219847321510315 40
0.06498108059167862 -0.9292723536491394 0.10968240350484848 40
0.06608714163303375 -0.9474661350250244 0.0797475054860115 40
0.06538327783346176 -0.939737856388092 0.04736403748393059 40
0.06494947522878647 -0.9358618855476379 0.015707165002822876 40
0.06435683369636536 -0.9391882419586182 -0.2419959157705307 40
0.06373465806245804 -0.9324948787689209 -0.20695509016513824 40
0.06469578295946121 -0.9489915370941162 -0.17729315161705017 40
0.06390537321567535 -0.939814567565918 -0.14313764870166779 40
0.0647137388586998 -0.954163134098053 -0.1127292662858963 40
0.06343027204275131 -0.9376631379127502 -0.0788760706782341 40
0.06307937204837799 -0.934899091720581 -0.04694562032818794 40
0.06298945099115372 -0.9359985589981079 -0.015550235286355019 40
0.06272478401660919 -0.9345002770423889 0.24054491519927979 40
0.062435004860162735 -0.9326189756393433 0.2067985087633133 40
0.062389668077230453 -0.9343887567520142 0.17443345487117767 40
0.06226658448576927 -0.9350001215934753 0.14219847321510315 40
0.06173692271113396 -0.9294935464859009 0.10968240350484848 40
0.06245023012161255 -0.9427209496498108 0.07931172102689743 40
0.062102578580379486 -0.9399603605270386 0.04736403748393059 40
0.061682313680648804 -0.9360828995704651 0.015707165002822876 40
0.061078064143657684 -0.9394071698188782 -0.2419959157705307 40
0.060479260981082916 -0.932711660861969 -0.20695509016513824 40
0.06138278543949127 -0.9492115378379822 -0.17729315161705017 40
0.06062442064285278 -0.940031886100769 -0.14313764870166779 40
0.06138269975781441 -0.9543831944465637 -0.1127292662858963 40
0.060156822204589844 -0.9378788471221924 -0.0788760706782341 40
0.05981558561325073 -0.9351136088371277 -0.04694562032818794 40
0.059721820056438446 -0.9362127184867859 -0.015550235286355019 40
0.05946239084005356 -0.9347135424613953 0.24054491519927979 40
0.05917917937040329 -0.9328312277793884 0.2067985087633133 40
0.05912766233086586 -0.9346007704734802 0.17443345487117767 40
0.05900244042277336 -0.9352117776870728 0.14219847321510315 40
0.05849200487136841 -0.9297033548355103 0.10968240350484848 40
0.059159137308597565 -0.942933201789856 0.07931172102689743 40
0.05882113054394722 -0.9401714205741882 0.04736403748393059 40
0.05810309946537018 -0.9313029050827026 0.01561990287154913 40
0.05779854580760002 -0.9396147131919861 -0.2419959157705307 40
0.0572231225669384 -0.9329171180725098 -0.20695509016513824 40
0.058069050312042236 -0.9494200348854065 -0.17729315161705017 40
0.05734272301197052 -0.940237820148468 -0.14313764870166779 40
0.05805090442299843 -0.954591691493988 -0.1127292662858963 40
0.05688265338540077 -0.9380831122398376 -0.0788760706782341 40
0.05655106529593468 -0.9353166818618774 -0.04694562032818794 40
0.05645346641540527 -0.9364154934883118 -0.015550235286355019 40
0.056199267506599426 -0.9349154233932495 0.24054491519927979 40
0.055922627449035645 -0.9330321550369263 0.2067985087633133 40
0.05586493760347366 -0.9348015189170837 0.17443345487117767 40
0.05573758855462074 -0.9354120492935181 0.14219847321510315 40
0.05524637922644615 -0.9299018383026123 0.10968240350484848 40
0.05586732551455498 -0.9431339502334595 0.07931172102689743 40
0.05553895980119705 -0.9403709769248962 0.04736403748393059 40
0.054851893335580826 -0.9315000772476196 0.01561990287154913 40
0.05451832711696625 -0.9398106932640076 -0.2419959157705307 40
0.05396628379821777 -0.9331111311912537 -0.20695509016513824 40
0.05447205901145935 -0.94471675157547 -0.17633995413780212 40
0.05406033247709274 -0.9404322504997253 -0.14313764870166779 40
0.054434459656476974 -0.9498338103294373 -0.11211992055177689 40
0.05360778421163559 -0.9382759928703308 -0.0788760706782341 40
0.053285855799913406 -0.9355083703994751 -0.04694562032818794 40
0.05318441987037659 -0.9366068243980408 -0.015550235286355019 40
0.052935462445020676 -0.9351059198379517 0.24054491519927979 40
0.05266539752483368 -0.933221697807312 0.2067985087633133 40
0.05260153487324715 -0.9349907636642456 0.17443345487117767 40
0.05247205123305321 -0.9356009364128113 0.14219847321510315 40
0.052000079303979874 -0.930088996887207 0.10968240350484848 40
0.05257483199238777 -0.9433232545852661 0.07931172102689743 40
0.05197913199663162 -0.9355736970901489 0.04710235819220543 40
0.05160002037882805 -0.9316858649253845 0.01561990287154913 40
0.05123744532465935 -0.939995288848877 -0.2419959157705307 40
0.05070878937840462 -0.933293879032135 -0.20695509016513824 40
0.05117404833436012 -0.9449011087417603 -0.17633995413780212 40
0.05077727884054184 -0.940615177154541 -0.14313764870166779 40
0.05111858621239662 -0.950018048286438 -0.11211992055177689 40
0.050332263112068176 -0.9384573698043823 -0.0788760706782341 40
0.049753449857234955 -0.9307026267051697 -0.046684812754392624 40
0.049914728850126266 -0.9367867708206177 -0.015550235286355019 40
0.04967100918292999 -0.9352849721908569 0.24054491519927979 40
0.04940752312541008 -0.9333997964859009 0.2067985087633133 40
0.049337487667798996 -0.9351687431335449 0.17443345487117767 40
0.04920587316155434 -0.9357783794403076 0.14219847321510315 40
0.04875314608216286 -0.9302648901939392 0.10968240350484848 40
0.04928170144557953 -0.9435009956359863 0.07931172102689743 40
0.04871305078268051 -0.9357494115829468 0.04710235819220543 40
0.04834751412272453 -0.9318603277206421 0.01561990287154913 40
0.047955937683582306 -0.9401683807373047 -0.2419959157705307 40
0.047450680285692215 -0.9334651827812195 -0.20695509016513824 40
0.04787541553378105 -0.9450740218162537 -0.17633995413780212 40
0.04749361053109169 -0.9407866597175598 -0.14313764870166779 40
0.047802094370126724 -0.9501907825469971 -0.11211992055177689 40
0.047056131064891815 -0.938627302646637 -0.0788760706782341 40
0.04650438576936722 -0.9308706521987915 -0.046684812754392624 40
0.046395860612392426 -0.931962251663208 -0.015463844873011112 40
0.04616664722561836 -0.9306286573410034 0.23925165832042694 40
0.04614905267953873 -0.9335665702819824 0.2067985087633133 40
0.046072836965322495 -0.9353352189064026 0.17443345487117767 40
0.045696984976530075 -0.9310117959976196 0.14141717553138733 40
0.045505620539188385 -0.9304293990135193 0.10968240350484848 40
0.045987967401742935 -0.9436672925949097 0.07931172102689743 40
0.045446380972862244 -0.9359137415885925 0.04710235819220543 40
0.04509441927075386 -0.9320234060287476 0.01561990287154913 40
0.044673845171928406 -0.9403300285339355 -0.2419959157705307 40
0.044191986322402954 -0.9336251020431519 -0.20695509016513824 40
0.04457620158791542 -0.9452353715896606 -0.17633995413780212 40
0.04420936480164528 -0.9409467577934265 -0.14313764870166779 40
0.04448501765727997 -0.9503517746925354 -0.11211992055177689 40
0.04354739189147949 -0.9338103532791138 -0.07844028621912003 40
0.04325475916266441 -0.9310272932052612 -0.046684812754392624 40
0.043142423033714294 -0.9321184754371643 -0.015463844873011112 40
0.04291786253452301 -0.9307841658592224 0.23925165832042694 40
0.04289001598954201 -0.9337219595909119 0.2067985087633133 40
0.042807627469301224 -0.9354903697967529 0.17443345487117767 40
0.04244687035679817 -0.9311656355857849 0.14141717553138733 40
0.04225753992795944 -0.930582582950592 0.10968240350484848 40
0.04269367456436157 -0.9438220858573914 0.07931172102689743 40
0.042179156094789505 -0.936066746711731 0.04710235819220543 40
0.04161661118268967 -0.9271809458732605 0.015532640740275383 40
0.04139120876789093 -0.9404802322387695 -0.2419959157705307 40
0.040932755917310715 -0.9337736964225769 -0.20695509016513824 40
0.041276440024375916 -0.945385217666626 -0.17633995413780212 40
0.04092457890510559 -0.9410953521728516 -0.14313764870166779 40
0.041167400777339935 -0.9505012631416321 -0.11211992055177689 40
0.04028752073645592 -0.9339566230773926 -0.07844028621912003 40
0.040004607290029526 -0.9311726093292236 -0.046684812754392624 40
0.040102165192365646 -0.9372581243515015 -0.015550235286355019 40
0.03966856002807617 -0.9309282898902893 0.23925165832042694 40
0.039630454033613205 -0.933866024017334 0.2067985087633133 40
0.03954189643263817 -0.9356340765953064 0.17443345487117767 40
0.03919623792171478 -0.9313081502914429 0.14141717553138733 40
0.03900894150137901 -0.9307244420051575 0.10968240350484848 40
0.039398860186338425 -0.9439653158187866 0.07931172102689743 40
0.03891141340136528 -0.9362082481384277 0.04710235819220543 40
0.03837989270687103 -0.9273205399513245 0.015532640740275383 40
0.03791256248950958 -0.9357933402061462 -0.240701824426651 50
0.037476662546396255 -0.9290429949760437 -0.20583033561706543 50
0.03797617927193642 -0.9455235004425049 -0.17633995413780212 40
0.03763929381966591 -0.941232442855835 -0.14313764870166779 40
0.03784928098320961 -0.9506391882896423 -0.11211992055177689 40
0.03702715411782265 -0.9340915679931641 -0.07844028621912003 40
0.03675395995378494 -0.9313065409660339 -0.046684812754392624 50
0.03663400933146477 -0.9323970079421997 -0.015463844873011112 40
0.03641877323389053 -0.9310610890388489 0.23925165832042694 40
0.0363704152405262 -0.9339986443519592 0.2067985087633133 40
0.03627568110823631 -0.9357663989067078 0.17443345487117767 40
0.03594512492418289 -0.931439220905304 0.14141717553138733 40
0.03575986996293068 -0.9308549165725708 0.10968240350484848 40
0.036103568971157074 -0.944097101688385 0.07931172102689743 40
0.03564320132136345 -0.9363383650779724 0.04710235819220543 40
