# .PCD v0.7 - Point Cloud Data file format
VERSION 0.7
FIELDS x y z intensity
SIZE 4 4 4 4
TYPE F F F F
COUNT 1 1 1 1
WIDTH 807
HEIGHT 1
VIEWPOINT 0 0 0 1 0 0 0
POINTS 807
DATA ascii
-2.163146734237671 0.19724227488040924 -0.4926431179046631 119
-2.5895988941192627 0.23658324778079987 -0.4975646436214447 119
-3.180617094039917 0.29113784432411194 -0.49980852007865906 119
-4.154768466949463 0.38103801012039185 -0.5075863599777222 119
-5.677698135375977 0.521706759929657 -0.4954811632633209 119
-9.37581729888916 0.8631661534309387 -0.48979929089546204 119
-13.269935607910156 1.2240060567855835 -0.2296251505613327 11
-8.969071388244629 0.828877329826355 2.401569366455078 32
-10.424711227416992 0.9652353525161743 2.406280517578125 32
-12.412775039672852 1.151497483253479 2.413472890853882 32
-14.067383766174316 1.3074671030044556 2.2290782928466797 11
-13.374796867370605 1.245450496673584 1.6446267366409302 11
-13.309537887573242 1.241716742515564 1.1661438941955566 11
-13.301984786987305 1.2433539628982544 0.6981616616249084 11
-14.124296188354492 1.3227031230926514 0.24695153534412384 11
-1.913276195526123 0.18085771799087524 -0.504697322845459 119
-2.1818454265594482 0.2066291868686676 -0.49714213609695435 119
-2.588757276535034 0.24562117457389832 -0.4975646436214447 119
-3.2139954566955566 0.3055097758769989 -0.505283772945404 119
-4.1435322761535645 0.394597589969635 -0.5063676834106445 119
-5.680800914764404 0.5419955253601074 -0.4959169626235962 119
-9.372747421264648 0.8958885669708252 -0.48979929089546204 119
-14.604257583618164 1.3985116481781006 -0.2528640925884247 119
-8.966123580932617 0.8601802587509155 2.401569366455078 32
-10.411579132080078 1.0006862878799438 2.4040327072143555 32
-12.408679962158203 1.1948189735412598 2.413472890853882 32
-14.78534984588623 1.4262707233428955 2.343930959701538 32
-14.111326217651367 1.3637367486953735 1.736028790473938 11
-14.658599853515625 1.419208288192749 1.285111427307129 11
-14.689114570617676 1.424750566482544 0.7714319825172424 11
-14.78635025024414 1.4367867708206177 0.25864464044570923 11
-1.9126332998275757 0.18753518164157867 -0.504697322845459 119
-2.1859593391418457 0.214720219373703 -0.49826687574386597 119
-2.5878841876983643 0.2546561360359192 -0.4975646436214447 119
-3.193251371383667 0.31478890776634216 -0.502155065536499 119
-4.152007102966309 0.41003426909446716 -0.5075863599777222 119
-5.683830738067627 0.5623122453689575 -0.4963527023792267 119
-9.369563102722168 0.9286001324653625 -0.48979929089546204 119
-14.743556022644043 1.4638051986694336 -0.2553694248199463 119
-8.958260536193848 0.8909944891929626 2.4002761840820312 32
-10.40317440032959 1.0365402698516846 2.4029088020324707 32
-12.384897232055664 1.2361761331558228 2.4096598625183105 32
-15.168493270874023 1.516689658164978 2.4056544303894043 32
-14.871872901916504 1.489652395248413 1.8304774761199951 11
-15.074824333190918 1.5126384496688843 1.3221526145935059 11
-14.828125953674316 1.4904985427856445 0.7790206670761108 11
-15.751192092895508 1.5860605239868164 0.27566075325012207 11
-1.911933183670044 0.19454407691955566 -0.504697322845459 119
-2.1948511600494385 0.2237187623977661 -0.5005163550376892 119
-2.5869336128234863 0.2641395032405853 -0.4975646436214447 119
-3.196988821029663 0.3269931674003601 -0.5029371976852417 119
nan nan nan 0
-5.681731700897217 0.5831407308578491 -0.4963527023792267 119
-9.366096496582031 0.9629350304603577 -0.48979929089546204 119
-16.23992156982422 1.6725022792816162 -0.281459242105484 119
-8.954934120178223 0.9238222241401672 2.4002761840820312 32
-10.394458770751953 1.0741620063781738 2.401784658432007 32
-12.370519638061523 1.2805500030517578 2.4077537059783936 32
-15.18248176574707 1.5743122100830078 2.4087798595428467 32
-15.680781364440918 1.6287485361099243 1.93101966381073 11
-16.352323532104492 1.7013858556747437 1.4350193738937378 11
-16.23297882080078 1.691832423210144 0.8533377647399902 11
-16.689992904663086 1.742408037185669 0.29224053025245667 11
-1.9112423658370972 0.20121678709983826 -0.504697322845459 119
-2.208591938018799 0.23291167616844177 -0.5038906931877136 119
-2.585995674133301 0.2731679677963257 -0.4975646436214447 119
-3.1958277225494385 0.3381507098674774 -0.5029371976852417 119
nan nan nan 0
-5.679661273956299 0.6029701828956604 -0.4963527023792267 119
-9.362678527832031 0.9956229329109192 -0.48979929089546204 119
-17.17850112915039 1.8297861814498901 -0.2978734076023102 119
-8.951655387878418 0.9550751447677612 2.4002761840820312 32
-10.385802268981934 1.1099213361740112 2.400660753250122 32
-12.370853424072266 1.324245810508728 2.4087066650390625 32
-15.17198371887207 1.6267728805541992 2.407998561859131 32
-16.652002334594727 1.7884035110473633 2.0516703128814697 11
-17.252573013305664 1.8559499979019165 1.514766812324524 11
-17.145389556884766 1.8474469184875488 0.9017484784126282 11
-17.817054748535156 1.9229724407196045 0.31213629245758057 11
-1.9057270288467407 0.20736461877822876 -0.5034032464027405 119
-2.183549404144287 0.2379804253578186 -0.49826687574386597 119
-2.585026502609253 0.282193124294281 -0.4975646436214447 119
-3.184809684753418 0.34823063015937805 -0.5013728737831116 119
nan nan nan 0
-5.6775221824646 0.6227921843528748 -0.4963527023792267 119
-9.359145164489746 1.0282987356185913 -0.48979929089546204 119
-18.404382705688477 2.0253591537475586 -0.3192981779575348 119
-8.948266983032227 0.9863163828849792 2.4002761840820312 32
-10.377022743225098 1.1456331014633179 2.3995370864868164 32
-12.366155624389648 1.3674200773239136 2.4087066650390625 32
-15.156394958496094 1.6786357164382935 2.40643572807312 32
-17.651884078979492 1.95814049243927 2.1759769916534424 11
-18.52817153930664 2.058621644973755 1.6276334524154663 11
-18.503528594970703 2.0591530799865723 0.9737104177474976 11
-18.68468475341797 2.0826144218444824 0.32749438285827637 11
-1.904991626739502 0.21401557326316833 -0.5034032464027405 119
-2.1827054023742676 0.24560099840164185 -0.49826687574386597 119
-2.5840256214141846 0.29121482372283936 -0.4975646436214447 119
-3.1786673069000244 0.35879161953926086 -0.5005906820297241 119
nan nan nan 0
-5.675313949584961 0.6426066160202026 -0.4963527023792267 119
-9.355499267578125 1.0609619617462158 -0.48979929089546204 119
-19.569490432739258 2.222740888595581 -0.3396862745285034 119
-8.949568748474121 1.0180915594100952 2.401569366455078 32
-10.368119239807129 1.1812971830368042 2.3984131813049316 32
-12.361307144165039 1.410577654838562 2.4087066650390625 32
-15.140629768371582 1.7304096221923828 2.4048731327056885 32
-18.665559768676758 2.1365714073181152 2.302111864089966 32
-19.7332706451416 2.262277126312256 1.7343993186950684 11
-19.75124740600586 2.2678308486938477 1.0399153232574463 11
-20.678804397583008 2.3779890537261963 0.3626609742641449 11
-1.9042329788208008 0.22066393494606018 -0.5034032464027405 119
-2.1721560955047607 0.2520952820777893 -0.49601736664772034 119
-2.582993507385254 0.30023297667503357 -0.4975646436214447 119
-3.1675848960876465 0.36874300241470337 -0.4990263283252716 119
-4.149063587188721 0.48373234272003174 -0.5081957578659058 119
-5.673036098480225 0.6624132990837097 -0.4963527023792267 119
-9.356698036193848 1.0941922664642334 -0.49006009101867676 119
-21.031343460083008 2.4631712436676025 -0.36525774002075195 119
-8.94596004486084 1.0493252277374268 2.401569366455078 32
-10.363932609558105 1.2174814939498901 2.3984131813049316 32
-12.356308937072754 1.4537180662155151 2.4087066650390625 32
-15.124688148498535 1.7820940017700195 2.403310537338257 32
nan nan nan 0
-21.283418655395508 2.5152902603149414 1.8716696500778198 11
-20.358070373535156 2.4095349311828613 1.0723637342453003 11
-22.15972137451172 2.6266961097717285 0.38883957266807556 11
-1.9034510850906372 0.22730959951877594 -0.5034032464027405 119
-2.1712629795074463 0.2596759796142578 -0.49601736664772034 119
-2.577056407928467 0.3086637854576111 -0.49661147594451904 119
-3.1564717292785645 0.3786213994026184 -0.4974619746208191 119
-4.137495040893555 0.4970284700393677 -0.5069770216941833 119
-5.670689105987549 0.6822118163108826 -0.4963527023792267 119
-9.357779502868652 1.1274439096450806 -0.49032092094421387 119
-22.700199127197266 2.7389845848083496 -0.3944576382637024 119
-8.947037696838379 1.0811254978179932 2.402862787246704 32
-10.359620094299316 1.2536509037017822 2.3984131813049316 32
-12.34628677368164 1.4962503910064697 2.4077537059783936 32
-15.108570098876953 1.8336881399154663 2.401747941970825 32
nan nan nan 0
-22.930906295776367 2.7911875247955322 2.017655372619629 11
-22.089250564575195 2.6926522254943848 1.1642132997512817 11
-24.12049102783203 2.944530487060547 0.42348262667655945 11
-1.9026459455490112 0.23395249247550964 -0.5034032464027405 119
-2.1703431606292725 0.2672535181045532 -0.49601736664772034 119
-2.575963258743286 0.3176575303077698 -0.49661147594451904 119
-3.1453285217285156 0.38842669129371643 -0.49589765071868896 119
-4.165286540985107 0.515122652053833 -0.510633111000061 119
-5.668272972106934 0.7020020484924316 -0.4963527023792267 119
-9.358741760253906 1.1607162952423096 -0.4905817210674286 119
-24.833709716796875 3.084397554397583 -0.431778222322464 0
-8.943208694458008 1.1123498678207397 2.402862787246704 32
-10.360014915466309 1.290407419204712 2.3995370864868164 32
-12.340988159179688 1.5393378734588623 2.4077537059783936 32
-15.097177505493164 1.8858035802841187 2.4009666442871094 32
-19.65658187866211 2.4588077068328857 2.4276373386383057 32
nan nan nan 0
-23.87318229675293 2.9947192668914795 1.258941411972046 11
nan nan nan 0
-1.901817798614502 0.24059253931045532 -0.5034032464027405 119
-2.1693971157073975 0.2748278081417084 -0.49601736664772034 119
-2.574838876724243 0.3266473710536957 -0.49661147594451904 119
-3.1684489250183105 0.4025154113769531 -0.49980852007865906 119
-4.129001617431641 0.5252750515937805 -0.5063676834106445 119
-5.665788173675537 0.7217838168144226 -0.4963527023792267 119
-9.354632377624512 1.1933772563934326 -0.4905817210674286 119
-26.568344116210938 3.3940556049346924 -0.4621875584125519 0
-8.944063186645508 1.1441736221313477 2.404155969619751 32
-10.355447769165039 1.326562762260437 2.3995370864868164 32
-12.335539817810059 1.5824065208435059 2.4077537059783936 32
-15.090502738952637 1.9384912252426147 2.4009666442871094 32
-19.652801513671875 2.5280401706695557 2.42824649810791 32
-27.401466369628906 3.5296523571014404 2.413778305053711 32
-27.616289138793945 3.5622241497039795 1.4572945833206177 11
nan nan nan 0
-1.9009664058685303 0.247229665517807 -0.5034032464027405 119
-2.173255681991577 0.28302791714668274 -0.49714213609695435 119
-2.5736827850341797 0.335633248090744 -0.49661147594451904 119
-3.1719212532043457 0.4142124056816101 -0.5005906820297241 119
-4.132063388824463 0.5403282046318054 -0.5069770216941833 119
-5.663234233856201 0.7415566444396973 -0.4963527023792267 119
-9.350410461425781 1.22602379322052 -0.4905817210674286 119
nan nan nan 0
-8.944803237915039 1.1760168075561523 2.405449151992798 32
-10.355584144592285 1.363337755203247 2.400660753250122 32
-12.329940795898438 1.6254559755325317 2.4077537059783936 32
-15.083643913269043 1.9911550283432007 2.4009666442871094 32
-19.643857955932617 2.596625804901123 2.42824649810791 32
nan nan nan 0
-30.088516235351562 3.9879417419433594 1.5886578559875488 13
-30.06500816345215 3.9901654720306396 0.5287206172943115 13
-1.9000917673110962 0.25386378169059753 -0.5034032464027405 119
-2.1722545623779297 0.29061228036880493 -0.49714213609695435 119
-2.5676302909851074 0.34396326541900635 -0.4956582486629486 119
-3.1802456378936768 0.4265950620174408 -0.502155065536499 119
-4.13507080078125 0.5554091334342957 -0.5075863599777222 119
-5.660611152648926 0.7613204717636108 -0.4963527023792267 119
-9.34112548828125 1.2579889297485352 -0.49032092094421387 119
-26.489501953125 3.572103977203369 -0.4612372815608978 119
-8.945428848266602 1.2078790664672852 2.4067423343658447 32
-10.355588912963867 1.400129795074463 2.401784658432007 32
-12.329055786132812 1.6691440343856812 2.4087066650390625 32
-15.086389541625977 2.045121431350708 2.402529239654541 32
-19.6297550201416 2.6645123958587646 2.4276373386383057 32
-27.381092071533203 3.72153377532959 2.4142141342163086 32
-30.08925437927246 4.094965934753418 1.5894428491592407 13
-29.996410369873047 4.087662220001221 0.5277607440948486 13
-1.8991941213607788 0.26049476861953735 -0.5034032464027405 119
-2.171226978302002 0.298193097114563 -0.49714213609695435 119
-2.5664141178131104 0.3529238998889923 -0.4956582486629486 119
-3.173844575881958 0.437019944190979 -0.5013728737831116 119
-4.103609561920166 0.5657729506492615 -0.5039302706718445 119
-5.657918930053711 0.781075119972229 -0.4963527023792267 119
-9.331730842590332 1.289904236793518 -0.49006009101867676 119
-26.437253952026367 3.659064531326294 -0.4605461359024048 119
-8.945943832397461 1.239760160446167 2.4080355167388916 32
-10.350638389587402 1.436268925666809 2.401784658432007 32
-12.32315444946289 1.7121702432632446 2.4087066650390625 32
-15.084049224853516 2.0984506607055664 2.403310537338257 32
-19.620336532592773 2.7330167293548584 2.4276373386383057 32
-27.323535919189453 3.810896396636963 2.410291910171509 32
nan nan nan 0
-43.57265090942383 6.092716217041016 0.7672950029373169 18
-1.9030557870864868 0.267795592546463 -0.504697322845459 119
-2.170172691345215 0.30577027797698975 -0.49714213609695435 119
-2.565166711807251 0.36188021302223206 -0.4956582486629486 119
-3.172299861907959 0.44809606671333313 -0.5013728737831116 119
-4.136006832122803 0.5849586129188538 -0.5081957578659058 119
-5.655158042907715 0.8008201718330383 -0.4963527023792267 119
-9.327171325683594 1.3224701881408691 -0.49006009101867676 119
-26.44906997680664 3.7548389434814453 -0.46097812056541443 119
-8.946342468261719 1.2716593742370605 2.4093289375305176 32
-10.350385665893555 1.4730772972106934 2.4029088020324707 32
-12.317102432250977 1.7551755905151367 2.4087066650390625 32
-15.081521987915039 2.1517887115478516 2.4040918350219727 32
-19.610675811767578 2.801487922668457 2.4276373386383057 32
-27.314998626708984 3.9069557189941406 2.4107279777526855 32
-46.14848327636719 6.6089911460876465 2.4412107467651367 16
-43.5362663269043 6.24264669418335 0.7670332193374634 18
-1.9021093845367432 0.274436891078949 -0.504697322845459 119
-2.1690921783447266 0.31334373354911804 -0.49714213609695435 119
-2.559030294418335 0.3701295256614685 -0.49470508098602295 119
-3.1658287048339844 0.45845893025398254 -0.5005906820297241 119
-4.129027843475342 0.5986802577972412 -0.5075863599777222 119
-5.6523284912109375 0.8205554485321045 -0.4963527023792267 119
-9.32249927520752 1.3550199270248413 -0.49006009101867676 119
-26.43085479736328 3.8464207649230957 -0.4608916938304901 0
-8.941849708557129 1.3028802871704102 2.4093289375305176 32
-10.340359687805176 1.5084946155548096 2.401784658432007 32
-12.310900688171387 1.7981597185134888 2.4087066650390625 32
-15.093465805053711 2.207278251647949 2.407217264175415 32
-19.595867156982422 2.869205951690674 2.427027702331543 32
-27.320907592773438 4.005168914794922 2.412471055984497 32
-46.1251335144043 6.770039081573486 2.4412107467651367 16
-43.5587272644043 6.401120662689209 0.7678185701370239 18
-1.9011398553848267 0.2810748219490051 -0.504697322845459 119
-2.167985200881958 0.3209133744239807 -0.49714213609695435 119
-2.557722568511963 0.37905994057655334 -0.49470508098602295 119
-3.1642091274261475 0.4695069491863251 -0.5005906820297241 119
nan nan nan 0
-5.649429798126221 0.8402807712554932 -0.4963527023792267 119
-9.31771183013916 1.387553334236145 -0.49006009101867676 119
-26.382654190063477 3.933497428894043 -0.4602869749069214 119
-8.937247276306152 1.33408522605896 2.4093289375305176 32
-10.335030555725098 1.5445799827575684 2.401784658432007 32
-12.304549217224121 1.841121792793274 2.4087066650390625 32
-15.080784797668457 2.259219169616699 2.40643572807312 32
-19.585731506347656 2.9375908374786377 2.427027702331543 32
-27.331390380859375 4.10421085357666 2.4146499633789062 32
-46.07653045654297 6.927292823791504 2.4399020671844482 16
nan nan nan 0
-1.9049222469329834 0.28843235969543457 -0.5059914588928223 119
-2.1668519973754883 0.3284791111946106 -0.49714213609695435 119
-2.5563838481903076 0.3879857659339905 -0.49470508098602295 119
-3.162550926208496 0.48054924607276917 -0.5005906820297241 119
nan nan nan 0
-5.6464619636535645 0.8599959015846252 -0.4963527023792267 119
-9.312811851501465 1.4200698137283325 -0.49006009101867676 119
-26.344051361083984 4.021793842315674 -0.45985502004623413 119
-8.932535171508789 1.3652738332748413 2.4093289375305176 32
-10.32957649230957 1.5806465148925781 2.401784658432007 32
-12.298047065734863 1.884061574935913 2.4087066650390625 32
-15.077688217163086 2.312595844268799 2.407217264175415 32
-19.575359344482422 3.0059397220611572 2.427027702331543 32
-27.321819305419922 4.20034646987915 2.415085554122925 32
-46.0816764831543 7.092645168304443 2.441472291946411 16
-43.53768539428711 6.708866119384766 0.7682549357414246 18
-1.903903841972351 0.2950800061225891 -0.5059914588928223 119
-2.165692090988159 0.33604082465171814 -0.49714213609695435 119
-2.559863805770874 0.3976602554321289 -0.4956582486629486 119
-3.1608543395996094 0.49158570170402527 -0.5005906820297241 119
nan nan nan 0
-5.638504505157471 0.878933310508728 -0.4959169626235962 119
-9.307798385620117 1.4525688886642456 -0.49006009101867676 119
-26.305156707763672 4.10986852645874 -0.45942309498786926 119
-8.922944068908691 1.3956996202468872 2.4080355167388916 32
-10.319183349609375 1.6159400939941406 2.400660753250122 32
-12.29139518737793 1.9269782304763794 2.4087066650390625 32
-15.045129776000977 2.361384153366089 2.403310537338257 32
-19.559843063354492 3.073481798171997 2.4264185428619385 32
-27.370956420898438 4.305754661560059 2.420750856399536 32
-46.10103225708008 7.260448455810547 2.4438273906707764 16
-43.84980010986328 6.913745403289795 0.774188756942749 18
-1.9076322317123413 0.30248042941093445 -0.5072855353355408 119
-2.164505958557129 0.34359845519065857 -0.49714213609695435 119
-2.563308000564575 0.40736380219459534 -0.49661147594451904 119
-3.1542420387268066 0.5018401741981506 -0.49980852007865906 119
nan nan nan 0
-5.630483150482178 0.8978257179260254 -0.4954811632633209 119
-9.29773998260498 1.4842631816864014 -0.48979929089546204 119
-26.285715103149414 4.2008771896362305 -0.45933666825294495 119
-8.918017387390137 1.4268379211425781 2.4080355167388916 32
-10.308670043945312 1.6511805057525635 2.3995370864868164 32
-12.284594535827637 1.9698712825775146 2.4087066650390625 32
-15.031919479370117 2.413104295730591 2.402529239654541 32
-19.548995971679688 3.141739845275879 2.4264185428619385 32
-27.2967472076416 4.3917765617370605 2.4155213832855225 32
-46.03104019165039 7.414180755615234 2.441472291946411 20
-43.87968444824219 7.075520992279053 0.7751485705375671 18
-1.906564712524414 0.3091374635696411 -0.5072855353355408 119
-2.1632933616638184 0.35115185379981995 -0.49714213609695435 119
-2.5667150020599365 0.41709622740745544 -0.4975646436214447 119
-3.1524710655212402 0.5128475427627563 -0.49980852007865906 119
nan nan nan 0
-5.63223123550415 0.918275773525238 -0.4959169626235962 119
-9.292502403259277 1.516709327697754 -0.48979929089546204 119
-26.29555892944336 4.296636581420898 -0.4597686231136322 119
-8.908215522766113 1.4571791887283325 2.4067423343658447 32
-10.30284309387207 1.6871545314788818 2.3995370864868164 32
-12.277643203735352 2.0127408504486084 2.4087066650390625 32
-15.008783340454102 2.4631614685058594 2.4001853466033936 32
-19.53791046142578 3.2099592685699463 2.4264185428619385 32
-27.227188110351562 4.478140830993652 2.4107279777526855 32
nan nan nan 0
-43.87445068359375 7.231899261474609 0.7754976153373718 18
-1.905418872833252 0.31612327694892883 -0.5072855353355408 119
-2.161991596221924 0.35907840728759766 -0.49714213609695435 119
-2.565168857574463 0.4265008866786957 -0.4975646436214447 119
-3.1456987857818604 0.5235876441001892 -0.4990263283252716 119
nan nan nan 0
-5.633740425109863 0.9397322535514832 -0.4963527023792267 119
-9.281956672668457 1.5499355792999268 -0.4895385205745697 119
-26.269773483276367 4.391336917877197 -0.45959582924842834 119
-8.902814865112305 1.4898195266723633 2.4067423343658447 32
-10.296589851379395 1.7249048948287964 2.3995370864868164 32
-12.270183563232422 2.0577268600463867 2.4087066650390625 32
-14.994784355163574 2.517336845397949 2.3994040489196777 32
-19.52601432800293 3.281547784805298 2.4264185428619385 32
-27.181116104125977 4.5729451179504395 2.4081132411956787 32
-45.96696090698242 7.741721153259277 2.440948963165283 20
-43.951171875 7.410112380981445 0.7773301005363464 18
-1.899542212486267 0.32196542620658875 -0.5059914588928223 119
-2.1607251167297363 0.3666229546070099 -0.49714213609695435 119
-2.5685036182403564 0.43627434968948364 -0.49851784110069275 119
-3.1389834880828857 0.5337371230125427 -0.49824416637420654 119
nan nan nan 0
-5.635335922241211 0.9602286219596863 -0.49678850173950195 119
-9.276490211486816 1.5823262929916382 -0.4895385205745697 119
-26.328203201293945 4.495631217956543 -0.4608916938304901 119
-8.892800331115723 1.520073413848877 2.405449151992798 32
-10.285703659057617 1.7600144147872925 2.3984131813049316 32
-12.26292610168457 2.1005454063415527 2.4087066650390625 32
-14.985905647277832 2.5696632862091064 2.3994040489196777 32
-19.514440536499023 3.3496861457824707 2.4264185428619385 32
-27.218990325927734 4.6770758628845215 2.4129066467285156 32
-45.969181060791016 7.9072065353393555 2.442518949508667 20
-45.98440933227539 7.918096542358398 0.8138056397438049 16
-1.898406744003296 0.3285941183567047 -0.5059914588928223 119
-2.1594321727752686 0.37416306138038635 -0.49714213609695435 119
-2.566965341567993 0.44523748755455017 -0.49851784110069275 119
-3.137101411819458 0.5446910262107849 -0.49824416637420654 119
-4.081240653991699 0.7093545794487 -0.5039302706718445 119
-5.636857032775879 0.9807475805282593 -0.49722427129745483 119
-9.270910263061523 1.6146974563598633 -0.4895385205745697 119
-26.35175132751465 4.5943756103515625 -0.46158283948898315 119
-8.887439727783203 1.5511058568954468 2.405449151992798 32
-10.279497146606445 1.7959076166152954 2.3984131813049316 32
-12.255518913269043 2.143338203430176 2.4087066650390625 32
-14.976844787597656 2.621958017349243 2.3994040489196777 32
-19.502628326416016 3.4177839756011963 2.4264185428619385 32
-27.222122192382812 4.7755022048950195 2.4146499633789062 32
-45.936378479003906 8.066757202148438 2.4422571659088135 20
-45.93680191040039 8.075096130371094 0.813456654548645 16
-1.8972481489181519 0.33521878719329834 -0.5059914588928223 119
-2.1581130027770996 0.3816986083984375 -0.49714213609695435 119
-2.5605621337890625 0.4533393979072571 -0.4975646436214447 119
-3.135180950164795 0.5556381940841675 -0.49824416637420654 119
-4.108058452606201 0.7287977337837219 -0.5075863599777222 119
-5.633399486541748 1.000417947769165 -0.49722427129745483 119
-9.270133018493652 1.6479231119155884 -0.48979929089546204 119
-26.345396041870117 4.688083648681641 -0.46175557374954224 119
-8.88197135925293 1.582119345664978 2.405449151992798 32
-10.273165702819824 1.8317787647247314 2.3984131813049316 32
-12.247962951660156 2.1861050128936768 2.4087066650390625 32
-14.972463607788086 2.6750898361206055 2.4001853466033936 32
-19.495466232299805 3.4867138862609863 2.427027702331543 32
-27.254316329956055 4.879273414611816 2.4190075397491455 32
-45.8931999206543 8.224413871765137 2.441472291946411 20
-45.9083366394043 8.235396385192871 0.813456654548645 16
-1.896066427230835 0.34183937311172485 -0.5059914588928223 119
-2.1567676067352295 0.38922950625419617 -0.49714213609695435 119
-2.5589640140533447 0.4622746407985687 -0.4975646436214447 119
-3.1332223415374756 0.5665786266326904 -0.49824416637420654 119
-4.0810723304748535 0.7387134432792664 -0.5045396685600281 119
-5.634774208068848 1.0209640264511108 -0.4976600706577301 119
-9.264323234558105 1.6802717447280884 -0.48979929089546204 119
-26.461679458618164 4.804129123687744 -0.4640881419181824 119
-8.876394271850586 1.6131136417388916 2.405449151992798 32
-10.266709327697754 1.8676276206970215 2.3984131813049316 32
-12.240257263183594 2.2288448810577393 2.4087066650390625 32
-14.963033676147461 2.727337121963501 2.4001853466033936 32
-19.48317527770996 3.5547444820404053 2.427027702331543 32
-27.20281982421875 4.968114852905273 2.41595721244812 32
-45.86421203613281 8.384560585021973 2.441472291946411 20
nan nan nan 0
-1.8948616981506348 0.3484558165073395 -0.5059914588928223 119
-2.160186767578125 0.39763757586479187 -0.49826687574386597 119
-2.5573348999023438 0.4712042808532715 -0.4975646436214447 119
-3.131225347518921 0.5775122046470642 -0.49824416637420654 119
-4.054068088531494 0.7484496235847473 -0.5014929175376892 119
-5.631175994873047 1.040626883506775 -0.4976600706577301 119
-9.263312339782715 1.7135082483291626 -0.49006009101867676 119
-26.41033935546875 4.890097141265869 -0.46348339319229126 119
-8.875457763671875 1.6449682712554932 2.4067423343658447 32
-10.260127067565918 1.9034538269042969 2.3984131813049316 32
-12.232402801513672 2.2715578079223633 2.4087066650390625 32
-14.953422546386719 2.7795512676239014 2.4001853466033936 32
-19.47064781188965 3.622731924057007 2.427027702331543 32
-27.195104598999023 5.064864158630371 2.4168288707733154 32
-45.844482421875 8.546436309814453 2.441995620727539 20
-45.196109771728516 8.433727264404297 0.8018507957458496 30
-1.8983806371688843 0.3559580445289612 -0.5072855353355408 119
-2.158785581588745 0.4051756262779236 -0.49826687574386597 119
-2.5604984760284424 0.481034517288208 -0.49851784110069275 119
-3.129190444946289 0.5884386897087097 -0.49824416637420654 119
-4.051430702209473 0.7625963687896729 -0.5014929175376892 119
-5.627509117126465 1.0602771043777466 -0.4976600706577301 119
-9.257274627685547 1.745832920074463 -0.49006009101867676 119
-26.4274959564209 4.988748073577881 -0.4640881419181824 119
-8.869662284851074 1.6759394407272339 2.4067423343658447 32
-10.258208274841309 1.940162181854248 2.3995370864868164 32
-12.224398612976074 2.3142430782318115 2.4087066650390625 32
-14.943629264831543 2.8317315578460693 2.4001853466033936 32
-19.457883834838867 3.6906747817993164 2.427027702331543 32
-27.172365188598633 5.158832550048828 2.4163928031921387 32
-45.784934997558594 8.700817108154297 2.440425395965576 0
-42.25406265258789 8.037463188171387 0.7501043677330017 30
-1.9018702507019043 0.3634890913963318 -0.5085796117782593 119
-2.1621434688568115 0.4136241674423218 -0.4993916451931 119
-2.5588037967681885 0.4899693727493286 -0.49851784110069275 119
-3.131967544555664 0.6002876162528992 -0.4990263283252716 119
-4.048743724822998 0.776733934879303 -0.5014929175376892 119
-5.618882656097412 1.078974962234497 -0.49722427129745483 119
-9.251123428344727 1.7781362533569336 -0.49006009101867676 119
-26.189006805419922 5.038465976715088 -0.46020060777664185 119
-8.868501663208008 1.7078033685684204 2.4080355167388916 32
-10.256156921386719 1.9768801927566528 2.400660753250122 32
-12.216245651245117 2.3568999767303467 2.4087066650390625 32
-14.933652877807617 2.8838772773742676 2.4001853466033936 32
-19.444883346557617 3.758573055267334 2.427027702331543 32
-27.15908432006836 5.254597187042236 2.4168288707733154 32
nan nan nan 0
nan nan nan 0
-1.9005898237228394 0.3701256513595581 -0.5085796117782593 119
-2.160686492919922 0.4211689233779907 -0.4993916451931 119
-2.5570778846740723 0.4988982677459717 -0.49851784110069275 119
-3.1298530101776123 0.6112165451049805 -0.4990263283252716 119
-4.055749416351318 0.7927660346031189 -0.5027115941047668 119
-5.619969844818115 1.0995383262634277 -0.4976600706577301 119
-9.249761581420898 1.8113775253295898 -0.49032092094421387 119
-26.09276580810547 5.114466190338135 -0.45881834626197815 119
-8.862485885620117 1.7387499809265137 2.4080355167388916 32
-10.253973007202148 2.0136075019836426 2.401784658432007 32
-12.207944869995117 2.3995282649993896 2.4087066650390625 32
-14.92349624633789 2.935987949371338 2.4001853466033936 32
-19.426774978637695 3.8254666328430176 2.4264185428619385 32
-27.145462036132812 5.350330829620361 2.417264461517334 32
-29.743423461914062 5.867778301239014 1.586826205253601 13
-29.759017944335938 5.876250743865967 0.5288078784942627 13
-1.8992862701416016 0.3767576813697815 -0.5085796117782593 119
-2.159203052520752 0.42870858311653137 -0.4993916451931 119
-2.555320978164673 0.5078210830688477 -0.49851784110069275 119
-3.1277003288269043 0.6221380233764648 -0.4990263283252716 119
-4.05782413482666 0.8078873753547668 -0.5033209919929504 119
-5.616097927093506 1.1191489696502686 -0.4976600706577301 119
-9.243382453918457 1.8436540365219116 -0.49032092094421387 119
-26.05023956298828 5.200621604919434 -0.4583863615989685 119
-8.861098289489746 1.770621418952942 2.4093289375305176 32
-10.246882438659668 2.0493881702423096 2.401784658432007 32
-12.199494361877441 2.4421274662017822 2.4087066650390625 32
-14.908313751220703 2.9870922565460205 2.3994040489196777 32
-19.408437728881836 3.892279624938965 2.425809144973755 32
-27.13150405883789 5.446033954620361 2.4177002906799316 32
-29.757028579711914 5.978451251983643 1.5886578559875488 13
-29.72852325439453 5.978122234344482 0.5286333560943604 13
-1.897959589958191 0.3833851218223572 -0.5085796117782593 119
-2.15769362449646 0.4362429976463318 -0.4993916451931 119
-2.5583431720733643 0.5177112221717834 -0.4994710087776184 119
-3.12550950050354 0.6330519914627075 -0.4990263283252716 119
-4.0549798011779785 0.8220469355583191 -0.5033209919929504 119
-5.612156867980957 1.1387460231781006 -0.4976600706577301 119
-9.236889839172363 1.875908374786377 -0.49032092094421387 119
-26.051523208618164 5.295505523681641 -0.4587319493293762 119
-8.859597206115723 1.8025047779083252 2.4106221199035645 32
-10.244441032409668 2.086116313934326 2.4029088020324707 32
-12.190895080566406 2.484696626663208 2.4087066650390625 32
-14.89295768737793 3.0381269454956055 2.398622751235962 32
-19.394733428955078 3.9600040912628174 2.425809144973755 32
nan nan nan 0
-29.67238426208496 6.069278240203857 1.5852559804916382 13
-29.70257568359375 6.080855369567871 0.5285460948944092 13
-1.8966097831726074 0.3900079131126404 -0.5085796117782593 119
-2.1561574935913086 0.4437721073627472 -0.4993916451931 119
-2.556520462036133 0.526638388633728 -0.4994710087776184 119
-3.1232810020446777 0.6439581513404846 -0.4990263283252716 119
-4.0861077308654785 0.8432173132896423 -0.5075863599777222 119
-5.608147621154785 1.1583291292190552 -0.4976600706577301 119
-9.23028564453125 1.908139705657959 -0.49032092094421387 119
nan nan nan 0
-8.853251457214355 1.8334194421768188 2.4106221199035645 32
-10.237096786499023 2.12186336517334 2.4029088020324707 32
-12.182147979736328 2.527235746383667 2.4087066650390625 32
-14.882261276245117 3.0900943279266357 2.398622751235962 32
-19.371074676513672 4.025660991668701 2.424590587615967 32
nan nan nan 0
-29.651016235351562 6.172817230224609 1.5852559804916382 13
-29.681169509887695 6.184499263763428 0.5285460948944092 13
-1.895236849784851 0.39662593603134155 -0.5085796117782593 119
-2.154595375061035 0.45129576325416565 -0.4993916451931 119
-2.554666757583618 0.5355590581893921 -0.4994710087776184 119
-3.12101411819458 0.6548565626144409 -0.4990263283252716 119
-4.044285297393799 0.849315881729126 -0.5027115941047668 119
-5.608944416046143 1.1789226531982422 -0.4980958104133606 119
-9.223567962646484 1.940347671508789 -0.49032092094421387 119
-24.61480712890625 5.1826653480529785 -0.4340243339538574 119
-8.851523399353027 1.8653078079223633 2.4119153022766113 32
-10.224860191345215 2.15657901763916 2.401784658432007 32
-12.17325210571289 2.5697438716888428 2.4087066650390625 32
-14.866552352905273 3.1410036087036133 2.397841453552246 32
-19.366613388061523 4.095306873321533 2.425809144973755 32
-24.69007682800293 5.225520133972168 2.2046046257019043 32
-24.690797805786133 5.230175495147705 1.3206977844238281 30
-23.932580947875977 5.073929309844971 0.4263622760772705 30
-1.8938407897949219 0.4032391309738159 -0.5085796117782593 119
-2.1530070304870605 0.45881396532058716 -0.4993916451931 119
-2.552781581878662 0.5444732308387756 -0.4994710087776184 119
-3.118709087371826 0.6657469272613525 -0.4990263283252716 119
-4.031589508056641 0.8613539934158325 -0.5014929175376892 119
-5.609665870666504 1.199535846710205 -0.49853160977363586 119
-9.2216215133667 1.9735770225524902 -0.4905817210674286 119
-23.046955108642578 4.9366302490234375 -0.40663865208625793 119
-8.844958305358887 1.8961939811706543 2.4119153022766113 32
-10.217269897460938 2.1922574043273926 2.401784658432007 32
-12.159409523010254 2.6111905574798584 2.4077537059783936 32
-14.855497360229492 3.192878246307373 2.397841453552246 32
-19.36190414428711 4.164971351623535 2.427027702331543 32
-23.10860824584961 4.975151062011719 2.0647194385528564 30
-23.017690658569336 4.959781169891357 1.2319883108139038 30
-22.272729873657227 4.803327560424805 0.39704224467277527 30
-1.8877015113830566 0.408825159072876 -0.5072855353355408 119
-2.1561532020568848 0.4673585593700409 -0.5005163550376892 119
-2.550865650177002 0.5533807873725891 -0.4994710087776184 119
-3.116366386413574 0.6766291856765747 -0.4990263283252716 119
nan nan nan 0
-5.605444431304932 1.2191100120544434 -0.49853160977363586 119
-9.214675903320312 2.0057544708251953 -0.4905817210674286 119
-21.407867431640625 4.663754463195801 -0.37795713543891907 119
-8.838285446166992 1.9270570278167725 2.4119153022766113 32
-10.204795837402344 2.22687029838562 2.400660753250122 32
-12.145425796508789 2.652571678161621 2.4068005084991455 32
-14.844261169433594 3.2447142601013184 2.397841453552246 32
-19.33755111694336 4.230410575866699 2.425809144973755 32
-21.558401107788086 4.72020149230957 1.9274492263793945 30
-21.70772361755371 4.756865978240967 1.1626431941986084 30
-20.9910831451416 4.60366678237915 0.37444135546684265 30
-1.8862628936767578 0.41541197896003723 -0.5072855353355408 119
-2.1545088291168213 0.4748820662498474 -0.5005163550376892 119
-2.5489182472229004 0.562281608581543 -0.4994710087776184 119
-3.1091630458831787 0.6864385604858398 -0.49824416637420654 119
-4.049706935882568 0.8948323726654053 -0.5045396685600281 119
-5.606018543243408 1.239744782447815 -0.49896740913391113 119
-9.212493896484375 2.0389864444732666 -0.4908425509929657 119
-20.322532653808594 4.501674175262451 -0.3590376377105713 119
-8.831504821777344 1.9578967094421387 2.4119153022766113 32
-10.187447547912598 2.2603676319122314 2.3984131813049316 32
-12.136093139648438 2.694951057434082 2.4068005084991455 32
-14.847309112548828 3.29972505569458 2.4001853466033936 32
nan nan nan 0
-20.35547637939453 4.531338691711426 1.8211193084716797 30
-20.418964385986328 4.549212455749512 1.0943448543548584 30
-19.81846809387207 4.419056415557861 0.3537602722644806 30
-1.8848013877868652 0.4219937324523926 -0.5072855353355408 119
-2.1528379917144775 0.4823998212814331 -0.5005163550376892 119
-2.5469400882720947 0.5711755752563477 -0.4994710087776184 119
-3.106748104095459 0.697287380695343 -0.49824416637420654 119
-4.046558856964111 0.9089630246162415 -0.5045396685600281 119
-5.601656913757324 1.2593058347702026 -0.49896740913391113 119
-9.210192680358887 2.072227716445923 -0.4911033511161804 119
-19.31175994873047 4.348549842834473 -0.34141406416893005 119
-8.824616432189941 1.9887124300003052 2.4119153022766113 32
-10.174742698669434 2.294842481613159 2.397289276123047 32
-12.121824264526367 2.7362167835235596 2.4058473110198975 32
-14.850152015686035 3.3547966480255127 2.402529239654541 32
-19.34627342224121 4.374063491821289 2.4306838512420654 32
-19.193008422851562 4.342933177947998 1.718275547027588 30
nan nan nan 0
-18.335369110107422 4.15559720993042 0.32749438285827637 30
-1.8880261182785034 0.4296419620513916 -0.5085796117782593 119
-2.1558914184570312 0.49099358916282654 -0.5016411542892456 119
-2.5449306964874268 0.5800625681877136 -0.4994710087776184 119
-3.104295253753662 0.7081277370452881 -0.49824416637420654 119
-4.053038120269775 0.9252918362617493 -0.5057583451271057 119
-5.592370986938477 1.2777420282363892 -0.49853160977363586 119
-9.207770347595215 2.105477809906006 -0.49136418104171753 119
-18.16098976135254 4.1560845375061035 -0.3212851285934448 119
-8.812912940979004 2.018425941467285 2.4106221199035645 32
-10.161920547485352 2.329256534576416 2.396165370941162 32
-12.112198829650879 2.778512954711914 2.4058473110198975 32
-14.852789878845215 3.4099276065826416 2.4048731327056885 32
-18.58119773864746 4.269315242767334 2.336235284805298 32
-18.16318702697754 4.176608562469482 1.6271977424621582 30
-18.21162223815918 4.1910929679870605 0.9773738980293274 30
-17.68743133544922 4.0737104415893555 0.31615033745765686 30
-1.8959258794784546 0.43840596079826355 -0.5111678242683411 119
-2.1541645526885986 0.4985160529613495 -0.5016411542892456 119
-2.5428905487060547 0.5889425277709961 -0.4994710087776184 119
-3.0969934463500977 0.7178443074226379 -0.4974619746208191 119
-4.054617404937744 0.9405553340911865 -0.5063676834106445 119
-5.592728614807129 1.2983818054199219 -0.49896740913391113 119
-9.205228805541992 2.1387360095977783 -0.49162498116493225 119
-17.274757385253906 4.016782283782959 -0.3058212995529175 119
-8.805813789367676 2.0491764545440674 2.4106221199035645 32
-10.148983001708984 2.3636090755462646 2.3950414657592773 32
-12.102426528930664 2.8207755088806152 2.4058473110198975 32
-14.860034942626953 3.466240406036377 2.407998561859131 32
-17.657615661621094 4.12205171585083 2.2216780185699463 30
-17.241479873657227 4.028080463409424 1.5457069873809814 30
-17.26823616027832 4.037510395050049 0.9273930788040161 30
-16.79203987121582 3.9292612075805664 0.3003558814525604 30
-1.8990856409072876 0.4461258053779602 -0.5124619007110596 119
-2.1524112224578857 0.5060324668884277 -0.5016411542892456 119
-2.5455970764160156 0.5989394187927246 -0.5004242062568665 119
-3.0896618366241455 0.7275185585021973 -0.4966798424720764 119
nan nan nan 0
-5.597858428955078 1.3201828002929688 -0.4998389482498169 119
-9.197707176208496 2.1708555221557617 -0.49162498116493225 119
-16.433517456054688 3.8816895484924316 -0.2911349833011627 119
-8.793906211853027 2.0787906646728516 2.4093289375305176 32
-10.140670776367188 2.3990211486816406 2.3950414657592773 32
-12.097282409667969 2.8641345500946045 2.4068005084991455 32
-14.862261772155762 3.5215063095092773 2.410342216491699 32
-16.778757095336914 3.9786994457244873 2.112604856491089 30
-16.422813415527344 3.8973228931427 1.4733678102493286 30
-16.45732307434082 3.9085464477539062 0.8844776153564453 30
-15.946521759033203 3.7901737689971924 0.2854340970516205 30
-1.9022146463394165 0.45387303829193115 -0.5137560367584229 119
-2.1506316661834717 0.5135427117347717 -0.5016411542892456 119
-2.5434908866882324 0.6078215837478638 -0.5004242062568665 119
-3.0823004245758057 0.7371503710746765 -0.49589765071868896 119
-4.081737518310547 0.9769247770309448 -0.510633111000061 119
-5.598060131072998 1.340875267982483 -0.5002747178077698 119
-9.19007396697998 2.2029480934143066 -0.49162498116493225 119
-15.505939483642578 3.719783306121826 -0.2748936116695404 119
-8.781900405883789 2.108346939086914 2.4080355167388916 32
-10.127498626708984 2.4332659244537354 2.3939175605773926 32
-12.087210655212402 2.906344413757324 2.4068005084991455 32
-14.869085311889648 3.5779852867126465 2.4134676456451416 32
-16.041048049926758 3.862959861755371 2.021202802658081 30
-15.537489891052246 3.7445638179779053 1.3949276208877563 30
-15.540741920471191 3.7482173442840576 0.8358051776885986 30
-15.427787780761719 3.7238237857818604 0.27635884284973145 30
-1.9006187915802002 0.46051025390625 -0.5137560367584229 119
-2.1488258838653564 0.5210466980934143 -0.5016411542892456 119
-2.541353702545166 0.616696298122406 -0.5004242062568665 119
-3.0749096870422363 0.7467397451400757 -0.4951154887676239 119
-4.025256156921387 0.9782747030258179 -0.5039302706718445 119
-5.612704753875732 1.3651164770126343 -0.5020178556442261 119
-9.182327270507812 2.235013961791992 -0.49162498116493225 119
-14.924565315246582 3.635456085205078 -0.2647859454154968 119
-8.774487495422363 2.138988733291626 2.4080355167388916 32
-10.118943214416504 2.4686026573181152 2.3939175605773926 32
-12.08176040649414 2.9496829509735107 2.4077537059783936 32
-14.678998947143555 3.586496591567993 2.384559154510498 32
-15.304360389709473 3.7421209812164307 1.9298009872436523 30
-14.711503028869629 3.5998806953430176 1.3217169046401978 30
-15.028029441833496 3.680114269256592 0.8088521957397461 30
-14.477572441101074 3.547995090484619 0.25951728224754333 30
-1.8896199464797974 0.4648344814777374 -0.5111678242683411 119
-2.146994113922119 0.5285443067550659 -0.5016411542892456 119
-2.5391855239868164 0.6255635023117065 -0.5004242062568665 119
-3.0770788192749023 0.7586507201194763 -0.49589765071868896 119
-3.9977262020111084 0.9863755106925964 -0.5008835792541504 119
-5.588562488555908 1.3799240589141846 -0.5002747178077698 119
-9.169622421264648 2.265854835510254 -0.49136418104171753 119
-14.421624183654785 3.5663187503814697 -0.25606054067611694 119
-8.76227855682373 2.1684441566467285 2.4067423343658447 32
-10.110264778137207 2.5039093494415283 2.3939175605773926 32
-12.076153755187988 2.993018865585327 2.4087066650390625 32
-14.05284309387207 3.4855356216430664 2.2845513820648193 30
-14.578351020812988 3.6185786724090576 1.8396176099777222 30
-14.39913558959961 3.5767626762390137 1.2946985960006714 30
-14.419074058532715 3.5843875408172607 0.7766655087471008 30
-13.960556030273438 3.4729933738708496 0.2504419982433319 30
-1.8833001852035522 0.47025761008262634 -0.5098737478256226 119
-2.140409231185913 0.5348543524742126 -0.5005163550376892 119
-2.5369863510131836 0.6344231367111206 -0.5004242062568665 119
-3.0744121074676514 0.7693870663642883 -0.49589765071868896 119
-4.027956962585449 1.0087635517120361 -0.5051490068435669 119
-5.569217205047607 1.3957905769348145 -0.49896740913391113 119
-9.161657333374023 2.29784893989563 -0.49136418104171753 119
-13.875714302062988 3.4827628135681152 -0.24655762314796448 119
-8.754655838012695 2.19901704788208 2.4067423343658447 32
-10.106186866760254 2.5403730869293213 2.3950414657592773 32
-12.060873031616211 3.033957004547119 2.4077537059783936 32
-13.537729263305664 3.407978057861328 2.2025136947631836 30
-13.978522300720215 3.5215373039245605 1.76527738571167 30
-13.869769096374512 3.4967141151428223 1.248070240020752 30
-13.873916625976562 3.500335216522217 0.7478808164596558 30
-13.45394229888916 3.3968751430511475 0.2415412962436676 30
-1.8722838163375854 0.47445595264434814 -0.5072855353355408 119
-2.1385293006896973 0.5423225164413452 -0.5005163550376892 119
-2.5347564220428467 0.6432749629020691 -0.5004242062568665 119
-3.0764944553375244 0.7813297510147095 -0.4966798424720764 119
nan nan nan 0
-5.554656028747559 1.4127668142318726 -0.4980958104133606 119
-9.148740768432617 2.3285834789276123 -0.4911033511161804 119
-12.94784927368164 3.2979576587677 -0.23022988438606262 119
-8.746927261352539 2.229562997817993 2.4067423343658447 32
-10.101978302001953 2.576838970184326 2.396165370941162 32
-12.064476013183594 3.079680919647217 2.4106130599975586 32
-12.956345558166504 3.309755563735962 2.1095378398895264 30
-13.369939804077148 3.417895793914795 1.6897183656692505 30
-13.003353118896484 3.326599597930908 1.170937418937683 30
-12.99576473236084 3.327075242996216 0.7010400891304016 30
-12.8560209274292 3.293689727783203 0.23098258674144745 30
-1.8752937316894531 0.4821912348270416 -0.5085796117782593 119
-2.1319053173065186 0.5485700964927673 -0.4993916451931 119
-2.5277421474456787 0.6508950591087341 -0.4994710087776184 119
-3.0737481117248535 0.7920639514923096 -0.4966798424720764 119
nan nan nan 0
-5.540045261383057 1.4296584129333496 -0.49722427129745483 119
-9.135722160339355 2.359255790710449 -0.4908425509929657 119
-12.64100170135498 3.2668306827545166 -0.2249600738286972 119
-8.739090919494629 2.2600817680358887 2.4067423343658447 32
-10.097639083862305 2.6133065223693848 2.397289276123047 32
-12.048900604248047 3.120544195175171 2.4096598625183105 32
-12.437966346740723 3.2236249446868896 2.026718854904175 30
-12.82470703125 3.3262476921081543 1.6220808029174805 30
-12.596321105957031 3.2693593502044678 1.13520348072052 30
-12.655442237854004 3.2870616912841797 0.683245837688446 30
-12.375113487243652 3.2165565490722656 0.2225181758403778 30
-1.8735991716384888 0.48873433470726013 -0.5085796117782593 119
-2.1299774646759033 0.5560084581375122 -0.4993916451931 119
-2.5254547595977783 0.6597145795822144 -0.4994710087776184 119
-3.0709645748138428 0.8027885556221008 -0.4966798424720764 119
nan nan nan 0
-5.549476623535156 1.4527722597122192 -0.49853160977363586 119
-9.122600555419922 2.3898653984069824 -0.4905817210674286 119
-12.184624671936035 3.194302558898926 -0.2170121669769287 30
-8.735820770263672 2.2917988300323486 2.4080355167388916 32
-10.097881317138672 2.651012420654297 2.3995370864868164 32
-12.037935256958008 3.162583827972412 2.4096598625183105 32
-11.98244571685791 3.1502416133880615 1.954057216644287 30
-12.337876319885254 3.245988368988037 1.5617555379867554 30
-12.136866569519043 3.195369243621826 1.09467613697052 30
-12.19485092163086 3.212911605834961 0.6589096784591675 30
-11.952916145324707 3.1514010429382324 0.21510089933872223 30
-1.8718817234039307 0.49527138471603394 -0.5085796117782593 119
-2.128023624420166 0.5634400844573975 -0.4993916451931 119
-2.5183920860290527 0.6672689318656921 -0.49851784110069275 119
-3.0729172229766846 0.8147689700126648 -0.4974619746208191 119
-3.9894959926605225 1.0585405826568604 -0.502102255821228 119
-5.549185752868652 1.4734129905700684 -0.49896740913391113 119
-9.10937786102295 2.42041277885437 -0.49032092094421387 119
-11.782058715820312 3.132760763168335 -0.21001456677913666 30
-8.727767944335938 2.3222784996032715 2.4080355167388916 32
-10.093273162841797 2.687498092651367 2.400660753250122 32
-11.803910255432129 3.145189046859741 2.3648600578308105 32
-11.565768241882324 3.083897352218628 1.8876458406448364 30
-11.909308433532715 3.1777255535125732 1.5087424516677856 30
-11.71658706665039 3.128492832183838 1.057634949684143 30
-11.76388168334961 3.1433210372924805 0.6361435055732727 30
-11.53615951538086 3.0846304893493652 0.20777088403701782 30
-1.8701415061950684 0.5018025040626526 -0.5085796117782593 119
-2.1260437965393066 0.5708648562431335 -0.4993916451931 119
-2.5113072395324707 0.6747820377349854 -0.4975646436214447 119
-3.070054292678833 0.8254904747009277 -0.4974619746208191 119
-3.9809842109680176 1.071170687675476 -0.5014929175376892 119
-5.553628444671631 1.4953644275665283 -0.4998389482498169 119
-9.096052169799805 2.450896739959717 -0.49006009101867676 119
-11.355940818786621 3.061940908432007 -0.20258501172065735 30
-8.719608306884766 2.3527300357818604 2.4080355167388916 32
-10.093236923217773 2.7252533435821533 2.4029088020324707 32
-11.404312133789062 3.0813896656036377 2.286698818206787 30
-11.197378158569336 3.0275745391845703 1.8290475606918335 30
-11.495742797851562 3.1104001998901367 1.4575573205947876 30
-11.320966720581055 3.0652315616607666 1.0227726697921753 30
-11.367287635803223 3.079902410507202 0.61520916223526 30
-11.12484359741211 3.0162980556488037 0.20052814483642578 30
-1.8637182712554932 0.5070595145225525 -0.5072855353355408 119
-2.1240382194519043 0.5782826542854309 -0.4993916451931 119
-2.5042009353637695 0.6822537779808044 -0.49661147594451904 119
-3.0671541690826416 0.8362019658088684 -0.4974619746208191 119
-3.991584300994873 1.0889790058135986 -0.5033209919929504 119
-5.553179740905762 1.5160528421401978 -0.5002747178077698 119
-9.082624435424805 2.4813168048858643 -0.48979929089546204 119
-10.954577445983887 2.9947774410247803 -0.1955874115228653 30
