# .PCD v0.7 - Point Cloud Data file format
VERSION 0.7
FIELDS x y z intensity
SIZE 4 4 4 4
TYPE F F F F
COUNT 1 1 1 1
WIDTH 764
HEIGHT 1
VIEWPOINT 0 0 0 1 0 0 0
POINTS 764
DATA ascii
-2.2806344032287598 -0.9807812571525574 0.474687784910202 40
-2.285583257675171 -0.9824367761611938 0.3875299394130707 40
-2.287642240524292 -0.9828488230705261 0.30101728439331055 40
-2.3052480220794678 -0.9899362921714783 0.21614624559879303 40
-2.2972044944763184 -0.9860073328018188 0.12900812923908234 40
-2.2725703716278076 -0.9749642610549927 0.04249660670757294 40
-1.7845555543899536 -0.7637558579444885 -0.5098737478256226 119
-2.0463409423828125 -0.8753724694252014 -0.5050153732299805 119
-2.3142752647399902 -0.9895100593566895 -0.48136040568351746 119
-2.292114496231079 -0.9795617461204529 -0.3887399435043335 40
-2.3170785903930664 -0.9897521734237671 -0.3046737015247345 40
-2.2889926433563232 -0.9772827625274658 -0.21440346539020538 40
-2.29010009765625 -0.9772831201553345 -0.12805721163749695 40
-2.279212713241577 -0.9721667766571045 -0.04215841740369797 40
-2.2877538204193115 -0.9753379225730896 0.6556788682937622 40
-2.294156789779663 -0.9775946140289307 0.5664480924606323 40
-2.2795283794403076 -0.9708910584449768 0.473734587430954 40
-2.284454584121704 -0.9725182056427002 0.38674861192703247 40
-2.286492347717285 -0.9729143381118774 0.30040791630744934 40
-2.304105758666992 -0.97993403673172 0.21571046113967896 40
-2.296036958694458 -0.9760292172431946 0.12874644994735718 40
-2.2713584899902344 -0.9650705456733704 0.04240934178233147 40
-1.796104073524475 -0.7612914443016052 -0.5124619007110596 119
-2.05387020111084 -0.8701245784759521 -0.5061401724815369 119
-2.31319522857666 -0.9795118570327759 -0.4804072380065918 119
-2.2909722328186035 -0.9696300029754639 -0.3879578113555908 40
-2.315948486328125 -0.9797244668006897 -0.3040643334388733 40
-2.28780198097229 -0.9673467874526978 -0.2139676809310913 40
-2.288898229598999 -0.9673394560813904 -0.12779641151428223 40
-2.277987003326416 -0.9622595310211182 -0.04207202419638634 40
-2.2866947650909424 -0.965467631816864 0.6543856263160706 40
-2.2885777950286865 -0.9657920002937317 0.5642002820968628 40
-2.27838134765625 -0.9610205888748169 0.4727814197540283 40
-2.2832846641540527 -0.9626194834709167 0.38596731424331665 40
-2.2807278633117676 -0.9610727429389954 0.2991892099380493 40
-2.302922010421753 -0.969951868057251 0.21527469158172607 40
-2.294827938079834 -0.9660712480545044 0.12848477065563202 40
-2.2701056003570557 -0.955197274684906 0.04232208430767059 40
-1.8121103048324585 -0.760624885559082 -0.5163442492485046 119
-2.0568950176239014 -0.8629499077796936 -0.5061401724815369 119
-2.3120737075805664 -0.9695332646369934 -0.47945404052734375 119
-2.289788246154785 -0.9597181677818298 -0.38717561960220337 40
-2.31477689743042 -0.9697167277336121 -0.30345502495765686 40
-2.2865703105926514 -0.9574312567710876 -0.21353191137313843 40
-2.2876548767089844 -0.9574160575866699 -0.1275355964899063 40
-2.276719808578491 -0.9523727297782898 -0.041985634714365005 40
-2.285594940185547 -0.9556165933609009 0.6530923247337341 40
-2.2874395847320557 -0.9559189081192017 0.563076376914978 40
-2.2771925926208496 -0.9511698484420776 0.4718281924724579 40
-2.282073736190796 -0.9527407884597778 0.38518598675727844 40
-2.279489040374756 -0.9511945843696594 0.2985799014568329 40
-2.2970993518829346 -0.9580724835395813 0.21440313756465912 40
-2.2935776710510254 -0.9561336636543274 0.12822309136390686 40
-2.2688112258911133 -0.9453444480895996 0.04223481938242912 40
-1.801375150680542 -0.7487337589263916 -0.5124619007110596 119
-2.059894561767578 -0.8557647466659546 -0.5061401724815369 119
-2.310910940170288 -0.9595743417739868 -0.4785008728504181 119
-2.2840018272399902 -0.9479333758354187 -0.38561126589775085 40
-2.313563823699951 -0.9597292542457581 -0.30284565687179565 40
-2.285297393798828 -0.9475359916687012 -0.21309611201286316 40
-2.286370277404785 -0.9475132822990417 -0.1272747963666916 40
-2.27541184425354 -0.9425065517425537 -0.041899245232343674 40
-2.284454107284546 -0.9457849860191345 0.6517991423606873 40
-2.2862606048583984 -0.9460654854774475 0.5619524717330933 40
-2.275963544845581 -0.9413393139839172 0.4708750247955322 40
-2.2853853702545166 -0.9447690844535828 0.38518598675727844 40
-2.2782087326049805 -0.9413366913795471 0.2979705333709717 40
-2.295825719833374 -0.9481469392776489 0.21396735310554504 40
-2.292285680770874 -0.9462166428565979 0.1279614120721817 40
-2.2674758434295654 -0.935512363910675 0.04214755818247795 40
-1.7995115518569946 -0.7406032085418701 -0.5111678242683411 119
-2.0628693103790283 -0.8485692143440247 -0.5061401724815369 119
-2.3051674365997314 -0.9477691054344177 -0.4765945076942444 119
-2.282729148864746 -0.9380778670310974 -0.3848291039466858 40
-2.3123092651367188 -0.9497619867324829 -0.30223631858825684 40
-2.2839832305908203 -0.9376614689826965 -0.21266034245491028 40
-2.2850441932678223 -0.9376310110092163 -0.12701398134231567 40
-2.274062395095825 -0.9326611161231995 -0.04181285202503204 40
-2.2832727432250977 -0.935973048210144 0.6505058407783508 40
-2.285040855407715 -0.9362320303916931 0.5608285665512085 40
-2.274693489074707 -0.9315288662910461 0.4699218273162842 40
-2.2840991020202637 -0.9349151253700256 0.3844046890735626 40
-2.2768874168395996 -0.9314994215965271 0.29736119508743286 40
-2.294511318206787 -0.9382420778274536 0.21353158354759216 40
-2.290952682495117 -0.9363202452659607 0.12769973278045654 40
-2.266099691390991 -0.9257012605667114 0.04206029698252678 40
-1.7931405305862427 -0.7306721806526184 -0.5085796117782593 119
-2.0658187866210938 -0.841363251209259 -0.5061401724815369 119
-2.303915500640869 -0.9378660917282104 -0.47564128041267395 119
-2.2814152240753174 -0.9282427430152893 -0.38404691219329834 40
-2.3110132217407227 -0.9398152232170105 -0.30162695050239563 40
-2.282627820968628 -0.9278075695037842 -0.2122245579957962 40
-2.283677101135254 -0.9277696013450623 -0.12675316631793976 40
-2.272672414779663 -0.9228366613388062 -0.04172646626830101 40
-2.282050848007202 -0.9261809587478638 0.649212658405304 40
-2.283780336380005 -0.9264187216758728 0.5597046613693237 40
-2.2733824253082275 -0.9217387437820435 0.4689686596393585 40
-2.282771110534668 -0.9250815510749817 0.3836233615875244 40
-2.2755253314971924 -0.9216828346252441 0.29675182700157166 40
-2.2931551933288574 -0.9283578395843506 0.2130957841873169 40
-2.289578437805176 -0.9264446496963501 0.12743805348873138 40
-2.2646827697753906 -0.915911078453064 0.04197303578257561 40
-1.7956801652908325 -0.7244085669517517 -0.5085796117782593 119
-2.0642244815826416 -0.8323251605033875 -0.5050153732299805 119
-2.298070192337036 -0.9261487722396851 -0.47373491525650024 119
-2.2800607681274414 -0.9184283018112183 -0.38326478004455566 40
-2.3096764087677 -0.9298892021179199 -0.3010176122188568 40
-2.281231641769409 -0.9179744720458984 -0.21178877353668213 40
-2.282269239425659 -0.9179292917251587 -0.12649236619472504 40
-2.2712411880493164 -0.9130332469940186 -0.04164007306098938 40
-2.2807881832122803 -0.9164087176322937 0.6479193568229675 40
-2.2824790477752686 -0.9166255593299866 0.558580756187439 40
-2.2765860557556152 -0.9137975573539734 0.4689686596393585 40
-2.2814033031463623 -0.9152687788009644 0.382842093706131 40
-2.274122476577759 -0.9118871092796326 0.29614248871803284 40
-2.2917582988739014 -0.9184945225715637 0.212660014629364 40
-2.288163185119629 -0.9165902137756348 0.12717635929584503 40
-2.2632248401641846 -0.9061420559883118 0.04188577085733414 40
-1.8026829957962036 -0.7199272513389587 -0.5098737478256226 119
-2.0625927448272705 -0.8233085870742798 -0.5038906931877136 119
-2.2967302799224854 -0.9163026213645935 -0.4727817475795746 119
-2.2832529544830322 -0.910463809967041 -0.38326478004455566 40
-2.308297872543335 -0.9199838042259216 -0.300408273935318 40
-2.279794692993164 -0.9081626534461975 -0.21135300397872925 40
-2.280820608139038 -0.9081099629402161 -0.12623155117034912 40
-2.2697694301605225 -0.9032511115074158 -0.04155368357896805 40
-2.2794852256774902 -0.9066567420959473 0.6466261148452759 40
-2.281137466430664 -0.9068527817726135 0.5574568510055542 40
-2.275200605392456 -0.904032826423645 0.4680154621601105 40
-2.279994249343872 -0.9054768085479736 0.3820607364177704 40
-2.272679090499878 -0.9021124243736267 0.295533150434494 40
-2.290320634841919 -0.9086523652076721 0.21222423017024994 40
-2.2867071628570557 -0.9067568778991699 0.12691469490528107 40
-2.2617266178131104 -0.8963944911956787 0.041798509657382965 40
-1.805185079574585 -0.7136303186416626 -0.5098737478256226 119
-2.060922861099243 -0.8143134117126465 -0.5027658939361572 119
-2.2907843589782715 -0.904674232006073 -0.4708753526210785 119
-2.2818236351013184 -0.9006751179695129 -0.3824825882911682 40
-2.3068788051605225 -0.910099446773529 -0.2997989356517792 40
-2.2783172130584717 -0.8983719348907471 -0.21091720461845398 40
-2.2793309688568115 -0.8983120918273926 -0.1259707510471344 40
-2.2682571411132812 -0.8934904336929321 -0.041467294096946716 40
-2.278142213821411 -0.8969249129295349 0.6453328728675842 40
-2.2797553539276123 -0.897100567817688 0.5563329458236694 40
-2.2737746238708496 -0.8942887783050537 0.4670622944831848 40
-2.2785449028015137 -0.8957058191299438 0.38127946853637695 40
-2.27119517326355 -0.8923589587211609 0.2949237823486328 40
-2.28884220123291 -0.8988314270973206 0.21178844571113586 40
-2.285210371017456 -0.8969448804855347 0.12665300071239471 40
-2.2601876258850098 -0.88666832447052 0.04171124845743179 40
-1.8121626377105713 -0.7090845704078674 -0.5111678242683411 119
-2.0637528896331787 -0.8071144819259644 -0.5027658939361572 119
-2.2893569469451904 -0.8948854804039001 -0.46992215514183044 119
-2.2803537845611572 -0.8909074664115906 -0.38170042634010315 40
-2.3007960319519043 -0.8984311819076538 -0.29858022928237915 40
-2.2814390659332275 -0.8904137015342712 -0.21091720461845398 40
-2.277801036834717 -0.888535737991333 -0.12570993602275848 40
-2.266704797744751 -0.883751392364502 -0.041380904614925385 40
-2.276758909225464 -0.8872135877609253 0.6440396308898926 40
-2.2783331871032715 -0.8873690962791443 0.5552090406417847 40
-2.272308349609375 -0.8845658302307129 0.4661090672016144 40
-2.2724523544311523 -0.8841651678085327 0.37971681356430054 40
-2.274296283721924 -0.8844255805015564 0.2949237823486328 40
-2.2919657230377197 -0.8908363580703735 0.21178844571113586 40
-2.2836732864379883 -0.8871545195579529 0.12639133632183075 40
-2.2586090564727783 -0.8769639730453491 0.04162398725748062 40
-1.819130539894104 -0.7044987678527832 -0.5124619007110596 119
-2.0665576457977295 -0.7999057173728943 -0.5027658939361572 119
-2.287889003753662 -0.8851176500320435 -0.4689689874649048 119
-2.278843641281128 -0.8811610341072083 -0.3809182345867157 40
-2.2992889881134033 -0.8886054158210754 -0.29797086119651794 40
-2.2798871994018555 -0.8806498646736145 -0.2104814499616623 40
-2.276230573654175 -0.8787809014320374 -0.12544913589954376 40
-2.2651114463806152 -0.8740339279174805 -0.041294511407613754 40
-2.2753355503082275 -0.8775228261947632 0.6427463293075562 40
-2.2768707275390625 -0.8776584267616272 0.5540851354598999 40
-2.2708024978637695 -0.8748641610145569 0.4651558995246887 40
-2.270916223526001 -0.8744528889656067 0.3789355158805847 40
-2.272738218307495 -0.8746989369392395 0.294314444065094 40
-2.290412425994873 -0.8810423016548157 0.21135267615318298 40
-2.2820956707000732 -0.8773857951164246 0.1261296421289444 40
-2.2569897174835205 -0.867281436920166 0.04153672233223915 40
-1.8215786218643188 -0.6981445550918579 -0.5124619007110596 119
-2.0693373680114746 -0.7926872372627258 -0.5027658939361572 119
-2.2863807678222656 -0.8753710389137268 -0.46801578998565674 119
-2.2772932052612305 -0.8714359998703003 -0.38013604283332825 40
-2.297741651535034 -0.8788011074066162 -0.2973615527153015 40
-2.278294801712036 -0.8709076642990112 -0.21004565060138702 40
-2.2746198177337646 -0.869047999382019 -0.12518832087516785 40
-2.2634785175323486 -0.8643385171890259 -0.04120812565088272 40
-2.2738726139068604 -0.8678529858589172 0.6414531469345093 40
-2.2753684520721436 -0.8679689168930054 0.5529612302780151 40
-2.2692558765411377 -0.8651835322380066 0.4642027020454407 40
-2.2693400382995605 -0.864762008190155 0.3781541883945465 40
-2.2665021419525146 -0.8632276058197021 0.29309576749801636 40
-2.288818836212158 -0.8712698221206665 0.2109168916940689 40
-2.280477523803711 -0.8676389455795288 0.12586797773838043 40
-2.2553305625915527 -0.857620894908905 0.04144946485757828 40
-1.8240045309066772 -0.6917818188667297 -0.5124619007110596 119
-2.072091579437256 -0.785459041595459 -0.5027658939361572 119
-2.284832715988159 -0.8656458258628845 -0.4670626223087311 119
-2.275702714920044 -0.8617326617240906 -0.3793538808822632 40
-2.2961537837982178 -0.8690185546875 -0.2967521846294403 40
-2.2766618728637695 -0.8611872792243958 -0.20960988104343414 40
-2.2729692459106445 -0.8593370914459229 -0.12492751330137253 40
-2.2618050575256348 -0.8546651005744934 -0.04112173244357109 40
-2.272369623184204 -0.8582038879394531 0.6401598453521729 40
-2.2738261222839355 -0.8583005666732788 0.5518373250961304 40
-2.267669677734375 -0.8555245399475098 0.46324947476387024 40
-2.267723798751831 -0.8550928831100464 0.3773728907108307 40
-2.264857530593872 -0.8535606265068054 0.29248639941215515 40
-2.287184953689575 -0.8615192174911499 0.21048112213611603 40
-2.2788193225860596 -0.8579140305519104 0.12560628354549408 40
-2.253631353378296 -0.8479824662208557 0.04136219993233681 40
-1.8264081478118896 -0.6854106187820435 -0.5124619007110596 119
-2.0702595710754395 -0.7765104174613953 -0.5016411542892456 119
-2.2832443714141846 -0.8559420108795166 -0.46610939502716064 119
-2.2740726470947266 -0.8520510792732239 -0.37857168912887573 40
-2.294525623321533 -0.8592577576637268 -0.2961428165435791 40
-2.274989128112793 -0.8514890074729919 -0.20917409658432007 40
-2.271278142929077 -0.849648118019104 -0.12466669827699661 40
-2.26009202003479 -0.8450139760971069 -0.04103534296154976 40
-2.270827293395996 -0.848576009273529 0.6388666033744812 40
-2.2722442150115967 -0.8486535549163818 0.5507134199142456 40
-2.2706422805786133 -0.8476036787033081 0.46324947476387024 40
-2.2660677433013916 -0.845445454120636 0.3765915632247925 40
-2.2631733417510986 -0.8439156413078308 0.29187706112861633 40
-2.285510778427124 -0.8517906665802002 0.21004533767700195 40
-2.277121067047119 -0.848211407661438 0.12534461915493011 40
-2.2518928050994873 -0.8383664488792419 0.041274938732385635 40
-1.8242619037628174 -0.6773499846458435 -0.5111678242683411 119
-2.0729572772979736 -0.7692791819572449 -0.5016411542892456 119
-2.281616449356079 -0.8462599515914917 -0.465156227350235 119
-2.2677717208862305 -0.8406746983528137 -0.3770073652267456 40
-2.2928574085235596 -0.849518895149231 -0.2955334782600403 40
-2.2732768058776855 -0.8418129682540894 -0.2087383270263672 40
-2.269547700881958 -0.8399816751480103 -0.12440589815378189 40
-2.2583391666412354 -0.8353851437568665 -0.04094895347952843 40
-2.269245147705078 -0.8389692306518555 0.6375733613967896 40
-2.270622730255127 -0.8390280604362488 0.5495895147323608 40
-2.2689826488494873 -0.8379720449447632 0.46229633688926697 40
-2.2643723487854004 -0.835820198059082 0.37581026554107666 40
-2.25679349899292 -0.8325752019882202 0.2906583845615387 40
-2.283797025680542 -0.842084527015686 0.20960956811904907 40
-2.2753827571868896 -0.838530957698822 0.12508292496204376 40
-2.2501144409179688 -0.8287729024887085 0.041187677532434464 40
-1.8266152143478394 -0.6709780097007751 -0.5111678242683411 119
-2.075629949569702 -0.7620384693145752 -0.5016411542892456 119
-2.2799487113952637 -0.8365997076034546 -0.46420302987098694 119
-2.2660560607910156 -0.8310532569885254 -0.37622520327568054 40
-2.291149139404297 -0.8398022651672363 -0.29492413997650146 40
-2.27152419090271 -0.8321592211723328 -0.2083025425672531 40
-2.2677767276763916 -0.8303374648094177 -0.12414508312940598 40
-2.256546974182129 -0.8257790803909302 -0.040862563997507095 40
-2.2676241397857666 -0.8293839693069458 0.6362801194190979 40
-2.2689619064331055 -0.8294243812561035 0.5484656095504761 40
-2.2672836780548096 -0.8283622860908508 0.46134310960769653 40
-2.262636661529541 -0.8262169361114502 0.37502893805503845 40
-2.255023717880249 -0.8229909539222717 0.2900490164756775 40
-2.282042980194092 -0.8324005007743835 0.2091737687587738 40
-2.2736048698425293 -0.8288730978965759 0.1248212531208992 40
-2.2482964992523193 -0.8192020654678345 0.04110041633248329 40
-1.8289462327957153 -0.6645978689193726 -0.5111678242683411 119
-2.073698043823242 -0.7531253695487976 -0.5005163550376892 119
-2.278240919113159 -0.8269612789154053 -0.4632498025894165 119
-2.264300584793091 -0.821453869342804 -0.3754430115222931 40
-2.289401054382324 -0.8301079273223877 -0.29431480169296265 40
-2.2697324752807617 -0.822528064250946 -0.20786677300930023 40
-2.2659668922424316 -0.8207160830497742 -0.12388427555561066 40
-2.2547147274017334 -0.8161954879760742 -0.040776170790195465 40
-2.2614219188690186 -0.8181771039962769 0.6336936354637146 40
-2.267261266708374 -0.8198422789573669 0.5473417043685913 40
-2.265545606613159 -0.8187748193740845 0.4603899419307709 40
-2.260862350463867 -0.8166361451148987 0.37424764037132263 40
-2.2532153129577637 -0.8134294152259827 0.28943967819213867 40
-2.2802493572235107 -0.8227391839027405 0.20873799920082092 40
-2.271787166595459 -0.8192377686500549 0.12455956637859344 40
-2.2511425018310547 -0.8113490343093872 0.04110041633248329 40
-1.8267099857330322 -0.6565759778022766 -0.5098737478256226 119
-2.0763142108917236 -0.7458822727203369 -0.5005163550376892 119
-2.2764945030212402 -0.8173452019691467 -0.46229663491249084 119
-2.2671542167663574 -0.8135449886322021 -0.3754430115222931 40
-2.2876133918762207 -0.8204359412193298 -0.29370543360710144 40
-2.2679007053375244 -0.8129193782806396 -0.20743097364902496 40
-2.2641170024871826 -0.8111172914505005 -0.12362346053123474 40
-2.257550001144409 -0.8083201050758362 -0.040776170790195465 40
-2.259716510772705 -0.8086509108543396 0.6324003338813782 40
-2.265522003173828 -0.810282289981842 0.5462177991867065 40
-2.263767719268799 -0.8092093467712402 0.4594367444515228 40
-2.2590482234954834 -0.8070777058601379 0.3734663128852844 40
-2.2513670921325684 -0.8038904070854187 0.28883031010627747 40
-2.2784159183502197 -0.8131003379821777 0.20830221474170685 40
-2.269930124282837 -0.8096253871917725 0.12429789453744888 40
-2.2492518424987793 -0.8018074631690979 0.04101315140724182 40
-1.8289908170700073 -0.6501955389976501 -0.5098737478256226 119
-2.0789051055908203 -0.7386299967765808 -0.5005163550376892 119
-2.2747080326080322 -0.8077511787414551 -0.4613434374332428 119
-2.265326499938965 -0.8039746284484863 -0.374660849571228 40
-2.2857863903045654 -0.8107866644859314 -0.2930960953235626 40
-2.2660298347473145 -0.8033337593078613 -0.20699521899223328 40
-2.26222825050354 -0.8015416264533997 -0.12336266040802002 40
-2.255645513534546 -0.7987661361694336 -0.04068978503346443 40
-2.2579727172851562 -0.7991467118263245 0.6311070919036865 40
-2.2637434005737305 -0.8007445931434631 0.5450938940048218 40
-2.2573232650756836 -0.7980303764343262 0.45753034949302673 40
-2.257195472717285 -0.7975419759750366 0.372685045003891 40
-2.254159450531006 -0.7960267663002014 0.28883031010627747 40
-2.276543617248535 -0.8034845590591431 0.20786644518375397 40
-2.268033742904663 -0.8000359535217285 0.12403620779514313 40
-2.2520368099212646 -0.7939512133598328 0.04101315140724182 40
-1.8312492370605469 -0.6438072323799133 -0.5098737478256226 119
-2.0768747329711914 -0.729753851890564 -0.4993916451931 119
-2.2728829383850098 -0.7981798648834229 -0.46039026975631714 119
-2.2634592056274414 -0.794426679611206 -0.3738786578178406 40
-2.283919334411621 -0.8011601567268372 -0.2924867272377014 40
-2.264119863510132 -0.7937709093093872 -0.206559419631958 40
-2.2602999210357666 -0.7919888496398926 -0.1231018453836441 40
-2.2537014484405518 -0.7892352342605591 -0.0406033918261528 40
-2.2561895847320557 -0.7896643877029419 0.6298138499259949 40
-2.26192569732666 -0.7912290096282959 0.543969988822937 40
-2.2554619312286377 -0.788526177406311 0.45657721161842346 40
-2.255303382873535 -0.7880290150642395 0.3719037175178528 40
-2.2522389888763428 -0.7865172624588013 0.28822100162506104 40
-2.2746315002441406 -0.7938916087150574 0.2074306607246399 40
-2.270812511444092 -0.7921141982078552 0.12403620779514313 40
-2.2500739097595215 -0.7844396233558655 0.04092589020729065 40
-1.8334853649139404 -0.6374110579490662 -0.5098737478256226 119
-2.07940936088562 -0.7224997282028198 -0.4993916451931 119
-2.2710185050964355 -0.7886309623718262 -0.4594370722770691 119
-2.256887435913086 -0.7832825183868408 -0.37231430411338806 40
-2.2867021560668945 -0.7931828498840332 -0.2924867272377014 40
-2.2621705532073975 -0.784231424331665 -0.20612365007400513 40
-2.2583329677581787 -0.7824594974517822 -0.12284104526042938 40
-2.251718759536743 -0.7797276973724365 -0.04051700234413147 40
-2.258932113647461 -0.7817840576171875 0.6298138499259949 40
-2.2600696086883545 -0.7817360162734985 0.5428460836410522 40
-2.2535619735717773 -0.7790446877479553 0.455623984336853 40
-2.2533726692199707 -0.7785390019416809 0.37112241983413696 40
-2.2502799034118652 -0.777030885219574 0.28761163353919983 40
-2.2726805210113525 -0.7843219637870789 0.206994891166687 40
-2.268843412399292 -0.7825546264648438 0.12377453595399857 40
-2.2480719089508057 -0.7749512791633606 0.04083862900733948 40
-1.835699200630188 -0.6310070753097534 -0.5098737478256226 119
-2.077310800552368 -0.7136539220809937 -0.49826687574386597 119
-2.2691152095794678 -0.7791048884391785 -0.45848390460014343 119
-2.254936933517456 -0.7737968564033508 -0.3715321719646454 40
-2.2847626209259033 -0.7835859656333923 -0.291877418756485 40
-2.2601823806762695 -0.7747151255607605 -0.20568786561489105 40
-2.256326675415039 -0.772953450679779 -0.12258023023605347 40
-2.2544267177581787 -0.7718629837036133 -0.04051700234413147 40
-2.25707745552063 -0.7723304033279419 0.6285205483436584 40
-2.2581746578216553 -0.772265613079071 0.5417221784591675 40
-2.2516229152679443 -0.7695861458778381 0.45467081665992737 40
-2.2514030933380127 -0.7690721154212952 0.37034109234809875 40
-2.252978563308716 -0.7691712379455566 0.28761163353919983 40
-2.2706902027130127 -0.7747755646705627 0.20655910670757294 40
-2.2668352127075195 -0.7730185389518738 0.12351284921169281 40
-2.2460317611694336 -0.7654867768287659 0.040751367807388306 40
-1.837890625 -0.6245954632759094 -0.5098737478256226 119
-2.079789400100708 -0.7063983678817749 -0.49826687574386597 119
-2.2671730518341064 -0.7696017622947693 -0.457530677318573 119
-2.2529475688934326 -0.7643343210220337 -0.37074998021125793 40
-2.2827839851379395 -0.7740123867988586 -0.2912680506706238 40
-2.2628729343414307 -0.7668209075927734 -0.20568786561489105 40
-2.254281759262085 -0.7634710073471069 -0.12231942266225815 40
-2.2523717880249023 -0.7623859643936157 -0.04043061286211014 40
-2.2551848888397217 -0.7628993988037109 0.6272273063659668 40
-2.2608566284179688 -0.7643784284591675 0.5417221784591675 40
-2.249645471572876 -0.7601505517959595 0.4537176191806793 40
-2.2493951320648193 -0.7596284747123718 0.36955979466438293 40
-2.2509477138519287 -0.75971519947052 0.287002295255661 40
-2.273380994796753 -0.7668446898460388 0.20655910670757294 40
-2.269519805908203 -0.7651010155677795 0.12351284921169281 40
-2.243952512741089 -0.7560456991195679 0.040664102882146835 40
-1.8400596380233765 -0.618176281452179 -0.5098737478256226 119
-2.082242488861084 -0.6991342306137085 -0.49826687574386597 119
-2.269845724105835 -0.7616831064224243 -0.457530677318573 119
-2.250919818878174 -0.7548952102661133 -0.36996781826019287 40
-2.280766487121582 -0.7644620537757874 -0.29065871238708496 40
-2.260812759399414 -0.7573351263999939 -0.20525209605693817 40
-2.2521982192993164 -0.7540122270584106 -0.12205860763788223 40
-2.2502784729003906 -0.7529328465461731 -0.040344223380088806 40
-2.253253221511841 -0.7534909248352051 0.6259340643882751 40
-2.258890151977539 -0.7549375295639038 0.5405982732772827 40
-2.2522852420806885 -0.7522931694984436 0.4537176191806793 40
-2.252032995223999 -0.7517720460891724 0.36955979466438293 40
-2.2535858154296875 -0.7518532872200012 0.287002295255661 40
-2.2713184356689453 -0.7573288083076477 0.20612333714962006 40
-2.267439603805542 -0.7555958032608032 0.12325117737054825 40
-2.246577739715576 -0.7482081651687622 0.040664102882146835 40
-1.8422062397003174 -0.6117494702339172 -0.5098737478256226 119
-2.084670305252075 -0.691861629486084 -0.49826687574386597 119
-2.267832040786743 -0.7522099614143372 -0.45657750964164734 119
-2.2488534450531006 -0.7454794645309448 -0.3691856265068054 40
-2.278710126876831 -0.7549353241920471 -0.29004934430122375 40
-2.258713960647583 -0.7478731274604797 -0.2048163115978241 40
-2.2500760555267334 -0.7445773482322693 -0.12179780751466751 40
-2.2481465339660645 -0.7435035705566406 -0.040257830172777176 40
-2.251284122467041 -0.7441052794456482 0.6246408224105835 40
-2.256885528564453 -0.7455198168754578 0.539474368095398 40
-2.250236749649048 -0.7428879737854004 0.45276445150375366 40
-2.249953269958496 -0.7423588633537292 0.3687784671783447 40
-2.251483201980591 -0.7424280047416687 0.2863929271697998 40
-2.2692174911499023 -0.7478368282318115 0.20568755269050598 40
-2.2653207778930664 -0.7461142539978027 0.12298949062824249 40
-2.244427442550659 -0.7387985587120056 0.04057684540748596 40
-1.8443305492401123 -0.6053152084350586 -0.5098737478256226 119
-2.0870726108551025 -0.6845805644989014 -0.49826687574386597 119
-2.265779733657837 -0.7427602410316467 -0.4556243121623993 119
-2.2514419555664062 -0.7376249432563782 -0.3691856265068054 40
-2.2766151428222656 -0.7454323172569275 -0.28944000601768494 40
-2.2613108158111572 -0.7399842739105225 -0.2048163115978241 40
-2.247915506362915 -0.7351664900779724 -0.1215369924902916 40
-2.250728130340576 -0.7356514930725098 -0.040257830172777176 40
-2.249276638031006 -0.7347425818443298 0.6233475208282471 40
-2.254842758178711 -0.7361252903938293 0.5383504629135132 40
-2.248149871826172 -0.7335061430931091 0.4518112540245056 40
-2.252530813217163 -0.734500527381897 0.3687784671783447 40
-2.254061222076416 -0.7345643043518066 0.2863929271697998 40
-2.267078161239624 -0.7383687496185303 0.2052517831325531 40
-2.267911434173584 -0.7382022738456726 0.12298949062824249 40
-2.2422385215759277 -0.7294130325317383 0.04048958048224449 40
-1.8418381214141846 -0.5973836183547974 -0.5085796117782593 119
-2.089449644088745 -0.6772910952568054 -0.49826687574386597 119
-2.2636892795562744 -0.7333340644836426 -0.45467114448547363 119
-2.24930477142334 -0.7282403707504272 -0.36840346455574036 40
-2.2744815349578857 -0.7359530329704285 -0.2888306677341461 40
-2.259140968322754 -0.7305537462234497 -0.20438054203987122 40
-2.2457168102264404 -0.7257797718048096 -0.12127619236707687 40
-2.248525381088257 -0.7262541055679321 -0.04017144441604614 40
-2.2518277168273926 -0.7268866896629333 0.6233475208282471 40
-2.2527616024017334 -0.7267540097236633 0.5372265577316284 40
-2.246025323867798 -0.7241480946540833 0.45085808634757996 40
-2.250380754470825 -0.7251187562942505 0.3679971694946289 40
-2.251887798309326 -0.7251705527305603 0.2857836186885834 40
-2.269641876220703 -0.7304506897926331 0.2052517831325531 40
-2.265721082687378 -0.7287524342536926 0.12272781878709793 40
-2.24001145362854 -0.7200518250465393 0.04040231928229332 40
-1.843912124633789 -0.5909507274627686 -0.5085796117782593 119
-2.0918009281158447 -0.6699934601783752 -0.49826687574386597 119
-2.266235589981079 -0.7254278063774109 -0.45467114448547363 119
-2.251833200454712 -0.7203843593597412 -0.36840346455574036 40
-2.277036666870117 -0.7280091643333435 -0.2888306677341461 40
-2.256932497024536 -0.721147358417511 -0.20394474267959595 40
-2.248236656188965 -0.7179363965988159 -0.12127619236707687 40
-2.246284008026123 -0.7168808579444885 -0.04008505120873451 40
-2.2497496604919434 -0.7175542116165161 0.6220543384552002 40
-2.2552847862243652 -0.7188860177993774 0.5372265577316284 40
-2.2438623905181885 -0.7148136496543884 0.4499048590660095 40
-2.248192071914673 -0.7157607674598694 0.3672158420085907 40
-2.24967622756958 -0.7158008217811584 0.28517425060272217 40
-2.2674307823181152 -0.7210142016410828 0.20481598377227783 40
-2.2634923458099365 -0.7193268537521362 0.12246613204479218 40
-2.242511510848999 -0.7122282981872559 0.04040231928229332 40
-1.8413593769073486 -0.5830527544021606 -0.5072855353355408 119
-2.0941269397735596 -0.6626876592636108 -0.49826687574386597 119
-2.2640738487243652 -0.7160326838493347 -0.4537179470062256 119
-2.2496249675750732 -0.7110312581062317 -0.3676212728023529 40
-2.274831771850586 -0.718561589717865 -0.2882213294506073 40
-2.2594361305236816 -0.7132647633552551 -0.20394474267959595 40
-2.245967149734497 -0.708581805229187 -0.12101537734270096 40
-2.244004964828491 -0.7075321674346924 -0.03999866172671318 40
-2.247634172439575 -0.7082452178001404 0.6207610368728638 40
-2.253133535385132 -0.7095457911491394 0.5361026525497437 40
-2.2463438510894775 -0.7069767713546753 0.4499048590660095 40
-2.2506768703460693 -0.7079087495803833 0.3672158420085907 40
-2.247426748275757 -0.7064554691314697 0.28456491231918335 40
-2.2651820182800293 -0.7116022706031799 0.20438022911548615 40
-2.261225938796997 -0.7099258899688721 0.12220446020364761 40
-2.2402138710021973 -0.7028994560241699 0.04031505808234215 40
-1.8433834314346313 -0.5766216516494751 -0.5072855353355408 119
-2.0964274406433105 -0.6553736925125122 -0.49826687574386597 119
-2.2618746757507324 -0.706661581993103 -0.4527647793292999 119
-2.2520933151245117 -0.7031742334365845 -0.3676212728023529 40
-2.2725887298583984 -0.7091383337974548 -0.2876119613647461 40
-2.25715708732605 -0.7038906812667847 -0.20350897312164307 40
-2.248426914215088 -0.7007376551628113 -0.12101537734270096 40
-2.241687774658203 -0.6982081532478333 -0.03991227224469185 40
-2.245481014251709 -0.6989597082138062 0.6194678544998169 40
-2.2509443759918213 -0.7002294063568115 0.5349787473678589 40
-2.2441112995147705 -0.6976741552352905 0.44895169138908386 40
-2.248418092727661 -0.6985828280448914 0.3664345443248749 40
-2.2498791217803955 -0.6986061930656433 0.28456491231918335 40
-2.262894868850708 -0.7022146582603455 0.20394442975521088 40
-2.258920907974243 -0.7005493640899658 0.12194277346134186 40
-2.2378787994384766 -0.6935954689979553 0.040227796882390976 40
-1.8407707214355469 -0.5687578320503235 -0.5059914588928223 119
-2.0987024307250977 -0.6480517983436584 -0.49826687574386597 119
-2.2596371173858643 -0.6973145008087158 -0.4518115520477295 119
-2.2498154640197754 -0.6938534379005432 -0.36683914065361023 40
-2.275050163269043 -0.7012011408805847 -0.2876119613647461 40
-2.2548398971557617 -0.6945410966873169 -0.203073188662529 40
-2.246086835861206 -0.6914158463478088 -0.12075457721948624 40
-2.239333152770996 -0.6889089941978455 -0.03982588276267052 40
-2.2479071617126465 -0.6911172866821289 0.6194678544998169 40
-2.248717784881592 -0.6909369230270386 0.5338548421859741 40
-2.246532917022705 -0.6898365020751953 0.44895169138908386 40
-2.250843048095703 -0.6907301545143127 0.3664345443248749 40
-2.247559070587158 -0.6892932653427124 0.28395554423332214 40
-2.2653322219848633 -0.6943113803863525 0.20394442975521088 40
-2.2565784454345703 -0.6911976337432861 0.1216811016201973 40
-2.240286350250244 -0.6857796311378479 0.040227796882390976 40
-1.8427448272705078 -0.5623288750648499 -0.5059914588928223 119
-2.100951671600342 -0.6407220363616943 -0.49826687574386597 119
-2.2573628425598145 -0.687991738319397 -0.45085838437080383 119
-2.2474992275238037 -0.6845568418502808 -0.3660569489002228 40
-2.2727365493774414 -0.6918103694915771 -0.2870026230812073 40
-2.2524852752685547 -0.6852164268493652 -0.2026374191045761 40
-2.2437093257904053 -0.6821189522743225 -0.12049376219511032 40
-2.236940860748291 -0.6796347498893738 -0.03973948955535889 40
-2.2456843852996826 -0.6818631291389465 0.6181745529174805 40
-2.2464535236358643 -0.6816685199737549 0.5327309370040894 40
-2.244229793548584 -0.6805659532546997 0.4479984939098358 40
-2.248514175415039 -0.6814366579055786 0.36565321683883667 40
-2.2452023029327393 -0.6800051331520081 0.2833462357521057 40
-2.262974739074707 -0.6849567294120789 0.203508660197258 40
-2.2541980743408203 -0.6818707585334778 0.12141941487789154 40
-2.2378809452056885 -0.6765087246894836 0.040140531957149506 40
-1.8400721549987793 -0.5544995665550232 -0.504697322845459 119
-2.103175401687622 -0.6333844661712646 -0.49826687574386597 119
-2.2597503662109375 -0.680107831954956 -0.45085838437080383 119
-2.2451460361480713 -0.6752851009368896 -0.3652747869491577 40
-2.2703845500946045 -0.682444155216217 -0.28639328479766846 40
-2.2500929832458496 -0.6759166121482849 -0.20220163464546204 40
-2.2412943840026855 -0.6728470921516418 -0.120232954621315 40
-2.2392995357513428 -0.671822190284729 -0.03973948955535889 40
-2.2480509281158447 -0.6740201115608215 0.6181745529174805 40
-2.244152545928955 -0.6724244356155396 0.5316070318222046 40
-2.2418899536132812 -0.6713200807571411 0.44704532623291016 40
-2.246147632598877 -0.6721678376197815 0.36487194895744324 40
-2.242807388305664 -0.6707417964935303 0.2827368676662445 40
-2.2605793476104736 -0.6756269931793213 0.20307287573814392 40
-2.2517805099487305 -0.6725690364837646 0.12115773558616638 40
-2.235438108444214 -0.6672629714012146 0.040053267031908035 40
-1.8419965505599976 -0.5480731725692749 -0.504697322845459 119
-2.1053736209869385 -0.6260391473770142 -0.49826687574386597 119
-2.2574057579040527 -0.6708175539970398 -0.4499051868915558 119
-2.24275541305542 -0.6660380363464355 -0.36449259519577026 40
-2.2727530002593994 -0.674514889717102 -0.28639328479766846 40
-2.2476634979248047 -0.666641891002655 -0.20176586508750916 40
-2.238842248916626 -0.663600504398346 -0.11997213959693909 40
-2.236837387084961 -0.6625816226005554 -0.039653100073337555 40
-2.2457590103149414 -0.6647979021072388 0.6168813109397888 40
-2.246486186981201 -0.6645867824554443 0.5316070318222046 40
-2.2395126819610596 -0.66209876537323 0.4460921287536621 40
-2.2484803199768066 -0.6643232703208923 0.36487194895744324 40
-2.240375518798828 -0.6615034937858582 0.2821275293827057 40
-2.2629241943359375 -0.6677319407463074 0.20307287573814392 40
-2.2541143894195557 -0.6647047400474548 0.12115773558616638 40
-2.2377538681030273 -0.6594557762145996 0.040053267031908035 40
-1.8438984155654907 -0.541640043258667 -0.504697322845459 119
-2.107546091079712 -0.6186861991882324 -0.49826687574386597 119
-2.255023717880249 -0.6615519523620605 -0.4489520192146301 119
-2.2450666427612305 -0.6582053303718567 -0.36449259519577026 40
-2.270331382751465 -0.6651821136474609 -0.28578394651412964 50
-2.249976873397827 -0.6587920188903809 -0.20176586508750916 40
-2.2363526821136475 -0.6543791890144348 -0.11971132457256317 40
-2.2343382835388184 -0.6533664464950562 -0.03956671059131622 40
-2.243429660797119 -0.6555998921394348 0.6155880689620972 40
-2.2441153526306152 -0.6553751826286316 0.5304831266403198 40
-2.237098455429077 -0.6529022455215454 0.44513896107673645 40
-2.246044635772705 -0.6550877690315247 0.36409062147140503 40
-2.2379064559936523 -0.6522904634475708 0.2815181612968445 40
-2.2604589462280273 -0.6584358215332031 0.20263710618019104 40
-2.25162672996521 -0.6554368138313293 0.12089605629444122 40
-2.2352418899536133 -0.6502441167831421 0.03996600955724716 40
-1.8550549745559692 -0.5378902554512024 -0.5072855353355408 119
-2.1096928119659424 -0.611325740814209 -0.49826687574386597 119
-2.257319211959839 -0.653676450252533 -0.4489520192146301 119
-2.2426066398620605 -0.6489917039871216 -0.3637104332447052 40
-2.267871856689453 -0.6558743119239807 -0.28517457842826843 50
-2.2474775314331055 -0.6495510935783386 -0.20133008062839508 40
-2.2386233806610107 -0.6465688347816467 -0.11971132457256317 40
-2.231802463531494 -0.6441768407821655 -0.03948031738400459 40
-2.2410640716552734 -0.6464263200759888 0.6142948269844055 40
-2.246389150619507 -0.6475377678871155 0.5304831266403198 40
-2.2393639087677 -0.6450892686843872 0.44513896107673645 40
-2.2435717582702637 -0.645877480506897 0.3633093237876892 40
-2.2401697635650635 -0.6444746851921082 0.2815181612968445 40
-2.2627434730529785 -0.650541365146637 0.20263710618019104 40
-2.2491016387939453 -0.646194338798523 0.12063437700271606 40
-2.2326929569244385 -0.6410580277442932 0.03987874463200569 40
-1.8615645170211792 -0.5327404737472534 -0.5085796117782593 119
-2.1071300506591797 -0.6026182770729065 -0.49714213609695435 119
-2.2548677921295166 -0.6444441080093384 -0.4479987919330597 119
-2.244858503341675 -0.6411596536636353 -0.3637104332447052 40
-2.2701475620269775 -0.647953987121582 -0.28517457842826843 50
-2.244941234588623 -0.640335738658905 -0.2008943110704422 40
-2.2360646724700928 -0.6373818516731262 -0.11945052444934845 40
-2.234037399291992 -0.6363824605941772 -0.03948031738400459 40
-2.238661527633667 -0.6372772455215454 0.6130015254020691 40
-2.243950128555298 -0.6383593678474426 0.5293592214584351 40
-2.2368807792663574 -0.635926365852356 0.444185733795166 40
-2.2410619258880615 -0.6366922855377197 0.362527996301651 40
-2.2376317977905273 -0.6352956891059875 0.28090885281562805 40
-2.26020884513855 -0.6412793397903442 0.20220132172107697 40
-2.2513437271118164 -0.6383395791053772 0.12063437700271606 40
-2.230107307434082 -0.6318978071212769 0.03979148343205452 40
-1.8727084398269653 -0.528864324092865 -0.5111678242683411 119
-2.1092207431793213 -0.5952593684196472 -0.49714213609695435 119
-2.257103681564331 -0.6365692019462585 -0.4479987919330597 119
-2.2423295974731445 -0.6319800615310669 -0.36292824149131775 40
-2.2676186561584473 -0.6386803388595581 -0.2845652401447296 50
-2.242367744445801 -0.6311460137367249 -0.20045851171016693 40
-2.2382757663726807 -0.6295726895332336 -0.11945052444934845 40
-2.2314324378967285 -0.6272275447845459 -0.03939393162727356 40
-2.236222505569458 -0.6281527876853943 0.6117083430290222 40
-2.246164560317993 -0.630522608757019 0.5293592214584351 40
-2.234361410140991 -0.6267886757850647 0.44323256611824036 40
-2.2432708740234375 -0.628865659236908 0.362527996301651 40
-2.239835739135742 -0.6274810433387756 0.28090885281562805 40
-2.2624332904815674 -0.6333858370780945 0.20220132172107697 50
-2.2487497329711914 -0.6291317939758301 0.1203726977109909 40
-2.227484703063965 -0.6227633357048035 0.03970422223210335 40
-1.88859224319458 -0.5258835554122925 -0.5150501132011414 119
-2.1113882064819336 -0.5875246524810791 -0.49714213609695435 119
-2.254692792892456 -0.626977264881134 -0.4470456540584564 119
-2.244630813598633 -0.6237573027610779 -0.36292824149131775 50
-2.265162229537964 -0.6290368437767029 -0.2839558720588684 50
-2.24466609954834 -0.6229230761528015 -0.20045851171016693 50
-2.2357566356658936 -0.620030403137207 -0.11918970942497253 40
-2.2337164878845215 -0.6190447211265564 -0.03939393162727356 40
-2.2338550090789795 -0.6186633706092834 0.6104150414466858 40
-2.243764877319336 -0.62098628282547 0.5282353162765503 40
-2.2366435527801514 -0.6185950636863708 0.44323256611824036 40
-2.240800619125366 -0.6193238496780396 0.3617466986179352 40
-2.2373366355895996 -0.6179461479187012 0.28029948472976685 40
-2.2599382400512695 -0.6237640976905823 0.20176555216312408 50
-2.251040458679199 -0.62088543176651 0.1203726977109909 50
-2.224932909011841 -0.6132665872573853 0.039616961032152176 40
-1.8671307563781738 -0.5128914713859558 -0.5085796117782593 119
-2.118124008178711 -0.5814405679702759 -0.49826687574386597 119
-2.252134084701538 -0.6178045868873596 -0.446092426776886 119
-2.242032051086426 -0.6146126985549927 -0.3621461093425751 50
-2.2673442363739014 -0.621126115322113 -0.2839558720588684 50
-2.2420225143432617 -0.6137687563896179 -0.20002272725105286 50
-2.2379074096679688 -0.6122223138809204 -0.11918970942497253 40
-2.231041193008423 -0.6099254488945007 -0.03930753841996193 40
-2.231342077255249 -0.609589159488678 0.6091217994689941 40
-2.2459189891815186 -0.6131502985954285 0.5282353162765503 40
-2.23405385017395 -0.6094920039176941 0.4422793686389923 40
-2.2429487705230713 -0.6114981770515442 0.3617466986179352 40
-2.2394800186157227 -0.61013263463974 0.28029948472976685 40
-2.257295608520508 -0.6145631670951843 0.20132976770401 50
-2.24837589263916 -0.611713171005249 0.12011101096868515 50
-2.2270617485046387 -0.6054899096488953 0.039616961032152176 40
-1.8641599416732788 -0.505433201789856 -0.5072855353355408 119
-2.1199402809143066 -0.5747833847999573 -0.49826687574386597 119
-2.249326705932617 -0.6094427704811096 -0.4451392590999603 119
-2.239184617996216 -0.6062753796577454 -0.3613639175891876 50
-2.2644941806793213 -0.6127038598060608 -0.283346563577652 50
-2.2391316890716553 -0.6054221391677856 -0.19958695769309998 50
-2.234999418258667 -0.6038863062858582 -0.11892890930175781 50
-2.2329463958740234 -0.6029134392738342 -0.03930753841996193 40
-2.233246088027954 -0.6025761961936951 0.6091217994689941 40
-2.2478342056274414 -0.6060914993286133 0.5282353162765503 40
-2.235957384109497 -0.6024705767631531 0.4422793686389923 40
-2.2400898933410645 -0.6031646728515625 0.360965371131897 40
-2.236593723297119 -0.6018046140670776 0.27969011664390564 40
-2.2592151165008545 -0.6074686646461487 0.20132976770401 50
-2.25028657913208 -0.6046467423439026 0.12011101096868515 50
-2.2241227626800537 -0.5972003936767578 0.039529696106910706 40
-1.8564949035644531 -0.49675193428993225 -0.504697322845459 119
-2.121933698654175 -0.5673799514770508 -0.49826687574386597 119
-2.2514402866363525 -0.6015874743461609 -0.4451392590999603 0
-2.2412874698638916 -0.5984554886817932 -0.3613639175891876 50
-2.2666192054748535 -0.6047956347465515 -0.283346563577652 50
-2.2412312030792236 -0.5976024270057678 -0.19958695769309998 50
-2.232268810272217 -0.5947954058647156 -0.1186680942773819 50
-2.2302064895629883 -0.5938290357589722 -0.0392211489379406 50
-2.230668067932129 -0.5935350656509399 0.6078285574913025 40
-2.245227575302124 -0.5969893932342529 0.5271114110946655 50
-2.238046884536743 -0.5946619510650635 0.4422793686389923 40
-2.246955156326294 -0.5966090559959412 0.3617466986179352 50
-2.238680601119995 -0.5939937829971313 0.27969011664390564 50
-2.256507396697998 -0.5983022451400757 0.20089399814605713 50
-2.2523834705352783 -0.5967881083488464 0.12011101096868515 50
-2.226193904876709 -0.5894331336021423 0.039529696106910706 40
-1.8583885431289673 -0.4896198511123657 -0.504697322845459 119
-2.1193854808807373 -0.5579878091812134 -0.49714213609695435 119
-2.2489867210388184 -0.5916891694068909 -0.4441860616207123 0
-2.238792657852173 -0.5885895490646362 -0.36058175563812256 50
-2.2689247131347656 -0.5960879921913147 -0.283346563577652 50
-2.238691568374634 -0.5877274870872498 -0.1991511732339859 50
-2.224876880645752 -0.5836856365203857 -0.11814647167921066 50
-2.2276341915130615 -0.5839934945106506 -0.039134759455919266 50
-2.2329306602478027 -0.5849655866622925 0.6078285574913025 40
-2.2475032806396484 -0.5883640050888062 0.5271114110946655 50
-2.235565423965454 -0.5848219394683838 0.44132620096206665 50
-2.2492294311523438 -0.5879769921302795 0.3617466986179352 50
-2.2361433506011963 -0.5841392278671265 0.2790807783603668 50
-2.2587881088256836 -0.5896335244178772 0.20089399814605713 50
-2.2498271465301514 -0.5868749022483826 0.11984933912754059 50
-2.228440761566162 -0.5808808207511902 0.039529696106910706 50
-1.8600863218307495 -0.4831298589706421 -0.504697322845459 119
-2.1213204860687256 -0.5505864024162292 -0.49714213609695435 119
-2.2510383129119873 -0.5838351845741272 -0.4441860616207123 0
-2.2408335208892822 -0.5807710886001587 -0.36058175563812256 50
-2.2757956981658936 -0.5894085168838501 -0.2839558720588684 50
-2.240729331970215 -0.5799095034599304 -0.1991511732339859 50
-2.226900577545166 -0.5759158134460449 -0.11814647167921066 50
-2.22965931892395 -0.576214075088501 -0.039134759455919266 50
-2.234959125518799 -0.5771676301956177 0.6078285574913025 50
-2.244825839996338 -0.5792977809906006 0.5259875059127808 50
-2.2423458099365234 -0.5782403349876404 0.4422793686389923 50
-2.246485471725464 -0.5788897275924683 0.360965371131897 50
-2.2429747581481934 -0.5775675773620605 0.27969011664390564 50
-2.2656562328338623 -0.5829864740371704 0.20132976770401 50
-2.251862049102783 -0.5790179967880249 0.11984933912754059 50
-2.230456590652466 -0.5730921030044556 0.039529696106910706 50
-1.8664401769638062 -0.4778318405151367 -0.5059914588928223 119
-2.1232292652130127 -0.5431782007217407 -0.49714213609695435 119
-2.2578182220458984 -0.5771897435188293 -0.4451392590999603 119
-2.242847204208374 -0.5729455351829529 -0.36058175563812256 50
-2.2826478481292725 -0.5826884508132935 -0.2845652401447296 50
-2.2523927688598633 -0.5745465755462646 -0.20002272725105286 50
-2.2240588665008545 -0.5669056177139282 -0.11788567155599594 50
-2.2413461208343506 -0.5708955526351929 -0.03930753841996193 50
-2.236959934234619 -0.5693626403808594 0.6078285574913025 50
-2.2468342781066895 -0.5714583396911621 0.5259875059127808 50
-2.2443506717681885 -0.5704095959663391 0.4422793686389923 50
-2.238919496536255 -0.5686132311820984 0.35940274596214294 50
-2.2497873306274414 -0.5709553956985474 0.28029948472976685 50
-2.2676775455474854 -0.575074315071106 0.20132976770401 50
-2.2490289211273193 -0.5699273943901062 0.11958765238523483 50
-2.227595567703247 -0.5640822052955627 0.03944243863224983 50
-1.8680967092514038 -0.47131383419036865 -0.5059914588928223 119
-2.125112533569336 -0.5357634425163269 -0.49714213609695435 119
-2.2645785808563232 -0.5705040097236633 -0.446092426776886 119
-2.2544116973876953 -0.567524254322052 -0.3621461093425751 50
-2.289480447769165 -0.5759276151657104 -0.28517457842826843 50
-2.273707628250122 -0.5715379118919373 -0.20176586508750916 50
-2.2550806999206543 -0.566437304019928 -0.11945052444934845 50
-2.2627205848693848 -0.5679364800453186 -0.039653100073337555 50
-2.2483034133911133 -0.5639007091522217 0.6104150414466858 50
-2.26771879196167 -0.5683495998382568 0.5304831266403198 50
-2.251089572906494 -0.5637643933296204 0.44323256611824036 50
-2.2648448944091797 -0.5667892098426819 0.3633093237876892 50
-2.2613956928253174 -0.565506637096405 0.2815181612968445 50
-2.2696709632873535 -0.567155122756958 0.20132976770401 50
-2.2752270698547363 -0.568121612071991 0.12089605629444122 50
-2.2392520904541016 -0.5587235689163208 0.039616961032152176 50
-1.8650435209274292 -0.4636249840259552 -0.504697322845459 119
-2.126969575881958 -0.5283421874046326 -0.49714213609695435 119
-2.2808475494384766 -0.5661429762840271 -0.4489520192146301 119
-2.265965223312378 -0.5620291233062744 -0.3637104332447052 50
-2.3011109828948975 -0.5703200697898865 -0.28639328479766846 50
-2.2950284481048584 -0.5683873891830444 -0.20350897312164307 50
-2.2764322757720947 -0.5633601546287537 -0.12049376219511032 50
-2.2792487144470215 -0.563634991645813 -0.03991227224469185 50
-2.278391122817993 -0.5630009770393372 0.6181745529174805 50
-2.288609027862549 -0.5651021003723145 0.5349787473678589 50
-2.2721052169799805 -0.5606062412261963 0.44704532623291016 50
-2.2907841205596924 -0.5647909045219421 0.3672158420085907 50
-2.2778120040893555 -0.5611708760261536 0.2833462357521057 50
-2.2958199977874756 -0.5651823878288269 0.203508660197258 50
-2.296590566635132 -0.5649470090866089 0.12194277346134186 50
-2.275171995162964 -0.5592570900917053 0.040227796882390976 50
-1.8666505813598633 -0.4571119248867035 -0.504697322845459 119
-2.128800868988037 -0.5209144353866577 -0.49714213609695435 119
-2.2971131801605225 -0.5616752505302429 -0.4518115520477295 119
-2.2823052406311035 -0.5576323866844177 -0.3660569489002228 50
-2.3175511360168457 -0.5658153295516968 -0.2882213294506073 50
-2.316354513168335 -0.5650948286056519 -0.20525209605693817 50
