# .PCD v0.7 - Point Cloud Data file format
VERSION 0.7
FIELDS x y z intensity
SIZE 4 4 4 4
TYPE F F F F
COUNT 1 1 1 1
WIDTH 778
HEIGHT 1
VIEWPOINT 0 0 0 1 0 0 0
POINTS 778
DATA ascii
-2.825822591781616 1.3868030309677124 0.054276980459690094 30
-1.7678420543670654 0.8695027232170105 -0.5176383256912231 119
-2.027637004852295 0.9977208971977234 -0.5128887295722961 119
-2.4122812747955322 1.1875122785568237 -0.5147220492362976 119
-2.8386921882629395 1.3980404138565063 -0.4951154887676239 119
-2.8611433506011963 1.4097181558609009 -0.38693559169769287 30
-2.8176753520965576 1.3889120817184448 -0.27149057388305664 30
-2.8287389278411865 1.3949793577194214 -0.16274482011795044 30
-2.8139536380767822 1.388298749923706 -0.053561922162771225 30
-2.801820755004883 1.3829208612442017 0.8263881802558899 30
-2.817016363143921 1.3910326957702637 0.7159274220466614 30
-2.802274703979492 1.384361743927002 0.5995554327964783 30
-2.801395893096924 1.384535789489746 0.4883189797401428 30
-2.810236930847168 1.38951575756073 0.3802323341369629 30
-2.824662446975708 1.3972619771957397 0.272361695766449 30
-2.81781268119812 1.3944857120513916 0.16276481747627258 30
-2.7985634803771973 1.3855677843093872 0.053840670734643936 30
-1.7646431922912598 0.8759763240814209 -0.5176383256912231 119
-2.0239665508270264 1.005145788192749 -0.5128887295722961 119
-2.407912492752075 1.1963458061218262 -0.5147220492362976 119
-2.8070154190063477 1.3952466249465942 -0.49042245745658875 119
-2.8337390422821045 1.4091465473175049 -0.383888840675354 30
-2.7902677059173584 1.3881369829177856 -0.26931166648864746 30
-2.8012566566467285 1.3942137956619263 -0.16144077479839325 30
-2.786470651626587 1.387461543083191 -0.053129974752664566 30
-2.7751173973083496 1.3824130296707153 0.8199219107627869 30
-2.785735845565796 1.388309359550476 0.7091840505599976 30
-2.775218963623047 1.383672833442688 0.5947895050048828 30
-2.7742056846618652 1.383772373199463 0.48441240191459656 30
-2.7829229831695557 1.3887269496917725 0.3771856129169464 30
-2.7972400188446045 1.3964812755584717 0.2701827883720398 30
-2.7903480529785156 1.3936489820480347 0.1614564210176468 30
-2.771106004714966 1.3846428394317627 0.05340436100959778 30
-1.7615747451782227 0.8821307420730591 -0.5176383256912231 119
-2.024801015853882 1.014386773109436 -0.5140134692192078 119
-2.403721809387207 1.2047436237335205 -0.5147220492362976 119
-2.780055046081543 1.3939687013626099 -0.48651158809661865 119
-2.802187442779541 1.405678391456604 -0.3802327811717987 30
-2.763146162033081 1.38669753074646 -0.2671327590942383 30
-2.7740607261657715 1.3927812576293945 -0.16013672947883606 30
-2.7592737674713135 1.3859601020812988 -0.05269801989197731 30
-2.74869704246521 1.3812483549118042 0.8134556412696838 30
-2.759108066558838 1.3870831727981567 0.703564465045929 30
-2.7484474182128906 1.3823248147964478 0.5900235772132874 30
-2.747300624847412 1.382348895072937 0.48050588369369507 30
-2.755894184112549 1.3872755765914917 0.37413886189460754 30
-2.7745535373687744 1.3972755670547485 0.2684396803379059 30
-2.7631702423095703 1.392147421836853 0.160148024559021 30
-2.743931531906128 1.3830626010894775 0.05296804755926132 30
-1.7584848403930664 0.8882744312286377 -0.5176383256912231 119
-2.0299441814422607 1.0258431434631348 -0.516262948513031 119
-2.4038820266723633 1.2153414487838745 -0.5156752467155457 119
-2.753138303756714 1.3925198316574097 -0.48260071873664856 119
-2.775123357772827 1.4042479991912842 -0.3771860599517822 30
-2.7360689640045166 1.3850858211517334 -0.2649538815021515 30
-2.7513644695281982 1.3934322595596313 -0.15909349918365479 30
-2.732121229171753 1.3842856884002686 -0.05226606875658035 30
-2.7223188877105713 1.3799163103103638 0.8069893717765808 30
-2.732523202896118 1.385688304901123 0.6979449987411499 30
-2.72171950340271 1.380806803703308 0.5852575898170471 30
-2.7204394340515137 1.3807544708251953 0.4765993058681488 30
-2.724485158920288 1.3834059238433838 0.37048280239105225 30
-2.74745512008667 1.3956725597381592 0.2662607729434967 30
-2.736037254333496 1.3904732465744019 0.158839613199234 30
-2.716808795928955 1.3812978267669678 0.05253174155950546 30
-1.751070261001587 0.8922146558761597 -0.5163442492485046 119
-2.030691623687744 1.0351353883743286 -0.5173877477645874 119
-2.399625301361084 1.2237250804901123 -0.5156752467155457 119
-2.7262654304504395 1.3909000158309937 -0.47868984937667847 119
-2.748103141784668 1.4026457071304321 -0.37413930892944336 30
-2.7090368270874023 1.383302092552185 -0.2627749741077423 30
-2.724250555038452 1.3916701078414917 -0.1577894389629364 30
-2.705014705657959 1.3824390172958374 -0.051834121346473694 30
-2.695983648300171 1.3784170150756836 0.8005231618881226 30
-2.705981731414795 1.384124755859375 0.6923254132270813 30
-2.695035696029663 1.3791191577911377 0.5804916620254517 30
-2.6936230659484863 1.378989577293396 0.47269272804260254 30
-2.697554111480713 1.381596326828003 0.3674360513687134 30
-2.7204020023345947 1.3938976526260376 0.2640818953514099 30
-2.7089502811431885 1.3886269330978394 0.1575312316417694 30
-2.6897284984588623 1.3793665170669556 0.052095428109169006 30
-1.7436496019363403 0.8961139917373657 -0.5150501132011414 119
-2.035731554031372 1.0466728210449219 -0.5196372270584106 119
-2.3997037410736084 1.2343389987945557 -0.5166284441947937 119
-2.6994380950927734 1.3891096115112305 -0.4747789800167084 119
-2.7211287021636963 1.4008722305297852 -0.3710925579071045 30
-2.682050943374634 1.3813468217849731 -0.26059606671333313 30
-2.697183132171631 1.3897359371185303 -0.1564854085445404 30
-2.67795467376709 1.3804199695587158 -0.05140216648578644 30
-2.669692277908325 1.3767507076263428 0.7940568923950195 30
-2.6794850826263428 1.3823928833007812 0.6867058873176575 30
-2.6683974266052246 1.3772623538970947 0.5757257342338562 30
-2.6668527126312256 1.3770545721054077 0.46878620982170105 30
-2.6706690788269043 1.3796156644821167 0.3643893301486969 30
-2.693394899368286 1.3919508457183838 0.26190298795700073 30
-2.6819093227386475 1.3866082429885864 0.15622282028198242 30
-2.6626951694488525 1.3772631883621216 0.05165912210941315 30
-1.7362232208251953 0.8999724388122559 -0.5137560367584229 119
-2.0320653915405273 1.0537724494934082 -0.5196372270584106 119
-2.3953804969787598 1.2427080869674683 -0.5166284441947937 119
-2.672656536102295 1.3871492147445679 -0.47086814045906067 119
-2.694200038909912 1.3989275693893433 -0.368045836687088 30
-2.659532308578491 1.3815160989761353 -0.2588529586791992 30
-2.674593210220337 1.38993239402771 -0.15544216334819794 30
-2.655377149581909 1.3805350065231323 -0.05105660483241081 30
-2.6434454917907715 1.3749178647994995 0.7875905632972717 30
-2.653033494949341 1.3804930448532104 0.6810864210128784 30
-2.6461589336395264 1.3775027990341187 0.5719130039215088 30
-2.6401288509368896 1.3749494552612305 0.4648796319961548 30
-2.6438310146331787 1.3774641752243042 0.36134257912635803 30
-2.6664347648620605 1.389832854270935 0.25972411036491394 30
-2.654916286468506 1.384418249130249 0.15491442382335663 30
-2.635709524154663 1.3749879598617554 0.05122280865907669 30
-1.7330710887908936 0.9060274958610535 -0.5137560367584229 119
-2.032691717147827 1.0631171464920044 -0.520762026309967 119
-2.395376682281494 1.2533373832702637 -0.517581582069397 119
-2.6459219455718994 1.3850188255310059 -0.4669572412967682 119
-2.66731858253479 1.3968122005462646 -0.36499908566474915 30
-2.6326329708099365 1.3792335987091064 -0.25667405128479004 30
-2.6476120948791504 1.3876701593399048 -0.15413811802864075 30
-2.628404378890991 1.378187894821167 -0.050624653697013855 30
-2.6215217113494873 1.3751623630523682 0.7824175953865051 30
-2.6266281604766846 1.3784254789352417 0.6754668354988098 30
-2.619605302810669 1.3753232955932617 0.5671470165252686 30
-2.6178243160247803 1.3749711513519287 0.4617544114589691 30
-2.621434211730957 1.3774508237838745 0.35890519618988037 30
-2.6395225524902344 1.3875435590744019 0.25754523277282715 30
-2.6279711723327637 1.3820565938949585 0.15360602736473083 30
-2.6087725162506104 1.3725413084030151 0.05078649893403053 30
-1.7298979759216309 0.9120715260505676 -0.5137560367584229 119
-2.028968572616577 1.0702061653137207 -0.520762026309967 119
-2.3953282833099365 1.2639819383621216 -0.5185348391532898 119
-2.619235038757324 1.3827189207077026 -0.4630464017391205 119
-2.6404850482940674 1.3945263624191284 -0.36195236444473267 30
-2.6101863384246826 1.3791072368621826 -0.25493094325065613 30
-2.6206798553466797 1.3852366209030151 -0.15283407270908356 30
-2.601480722427368 1.3756693601608276 -0.050192706286907196 30
-2.5953595638275146 1.3730120658874512 0.7759513854980469 30
-2.6002697944641113 1.3761907815933228 0.6698473691940308 30
-2.59309983253479 1.372975468635559 0.5623810887336731 30
-2.5911881923675537 1.3725422620773315 0.45784783363342285 30
-2.594684362411499 1.374974250793457 0.3558584451675415 30
-2.612658977508545 1.3850834369659424 0.25536632537841797 30
-2.6054861545562744 1.3818633556365967 0.1525593101978302 30
-2.58630108833313 1.3722667694091797 0.05043745040893555 30
-1.7267036437988281 0.9181044697761536 -0.5137560367584229 119
-2.0252203941345215 1.0772819519042969 -0.520762026309967 119
-2.390901803970337 1.2723355293273926 -0.5185348391532898 119
-2.5925965309143066 1.3802496194839478 -0.4591355323791504 119
-2.6180803775787354 1.3944032192230225 -0.359514981508255 30
-2.583376884460449 1.3764985799789429 -0.25275203585624695 30
-2.593797206878662 1.3826322555541992 -0.15153002738952637 30
-2.5790181159973145 1.375332236289978 -0.04984714463353157 30
-2.5735056400299072 1.372969627380371 0.7707783579826355 30
-2.5782575607299805 1.3760827779769897 0.6653517484664917 30
-2.570972204208374 1.3727710247039795 0.5585682988166809 30
-2.5689570903778076 1.3722714185714722 0.4547226130962372 30
-2.5723612308502197 1.3746669292449951 0.35342106223106384 30
-2.5858452320098877 1.3824529647827148 0.2531874477863312 30
-2.57863187789917 1.3791753053665161 0.1512508988380432 30
-2.5594558715820312 1.3694936037063599 0.05000114440917969 30
-1.723488450050354 0.9241262078285217 -0.5137560367584229 119
-2.0214476585388184 1.084344744682312 -0.520762026309967 119
-2.390770673751831 1.2829943895339966 -0.5194879770278931 119
-2.566007614135742 1.3776112794876099 -0.4552246630191803 119
-2.591336965560913 1.3917925357818604 -0.35646823048591614 30
-2.5610053539276123 1.3760775327682495 -0.25100892782211304 30
-2.5713632106781006 1.3822213411331177 -0.1504867970943451 30
-2.5521867275238037 1.3724874258041382 -0.04941519349813461 30
-2.5474305152893066 1.3705028295516968 0.7643120884895325 30
-2.551987648010254 1.373529076576233 0.6597322225570679 30
-2.5445563793182373 1.3701021671295166 0.5538024306297302 30
-2.546759843826294 1.3718619346618652 0.4515973627567291 30
-2.550072193145752 1.3742204904556274 0.3509836792945862 30
-2.559081792831421 1.3796521425247192 0.251008540391922 30
-2.5562233924865723 1.3786870241165161 0.15020418167114258 30
-2.5370614528656006 1.3689237833023071 0.0496520958840847 30
-1.7202521562576294 0.9301366806030273 -0.5137560367584229 119
-2.0176501274108887 1.091394305229187 -0.520762026309967 119
-2.386277437210083 1.2913318872451782 -0.5194879770278931 119
-2.543811559677124 1.3771553039550781 -0.45209595561027527 119
-2.569007635116577 1.3913756608963013 -0.3540308475494385 30
-2.5342893600463867 1.373144268989563 -0.24883003532886505 30
-2.5445733070373535 1.3792911767959595 -0.1491827517747879 30
-2.529801607131958 1.3718552589416504 -0.04906963184475899 30
-2.5256495475769043 1.3701741695404053 0.7591390609741211 30
-2.5300493240356445 1.3731328248977661 0.6552366018295288 30
-2.5225043296813965 1.369607925415039 0.549989640712738 30
-2.524596929550171 1.371314525604248 0.44847211241722107 30
-2.527817726135254 1.3736355304718018 0.3485462963581085 30
-2.53674578666687 1.3790606260299683 0.2492654174566269 30
-2.5338494777679443 1.3780590295791626 0.14915746450424194 30
-2.514702320098877 1.3682143688201904 0.049303047358989716 30
-1.7169948816299438 0.9361357688903809 -0.5137560367584229 119
-2.0181052684783936 1.1007634401321411 -0.5218867659568787 119
-2.3817553520202637 1.2996537685394287 -0.5194879770278931 119
-2.5173158645629883 1.3741952180862427 -0.44818511605262756 119
-2.5423572063446045 1.3884413242340088 -0.3509840965270996 30
-2.511996269226074 1.372429609298706 -0.24708691239356995 30
-2.5222177505493164 1.378585934638977 -0.14813950657844543 30
-2.503065824508667 1.368685245513916 -0.04863768070936203 30
-2.499664783477783 1.3673924207687378 0.7526727914810181 30
-2.503871440887451 1.370261311531067 0.6496170163154602 30
-2.5004870891571045 1.368976354598999 0.5461769104003906 30
-2.4981377124786377 1.36825692653656 0.4445655941963196 30
-2.501246452331543 1.3705271482467651 0.34549957513809204 30
-2.510077714920044 1.3759357929229736 0.2470865398645401 30
-2.5115115642547607 1.3772919178009033 0.1481107473373413 30
-2.4923787117004395 1.3673655986785889 0.04895399510860443 30
-1.7179487943649292 0.9444501996040344 -0.5150501132011414 119
-2.0142505168914795 1.1078011989593506 -0.5218867659568787 119
-2.372904062271118 1.3055936098098755 -0.5185348391532898 119
-2.4951982498168945 1.3734484910964966 -0.4450564384460449 119
-2.520106554031372 1.3877320289611816 -0.34854671359062195 30
-2.4853761196136475 1.3691726922988892 -0.24490801990032196 30
-2.4955248832702637 1.375331163406372 -0.14683546125888824 30
-2.4807610511779785 1.367759108543396 -0.048292119055986404 30
-2.4779598712921143 1.3667786121368408 0.7474997639656067 30
-2.4820101261138916 1.3695778846740723 0.6451213955879211 30
-2.474207878112793 1.3658359050750732 0.5414109230041504 30
-2.4760537147521973 1.367418646812439 0.4414403438568115 30
-2.479071617126465 1.36965012550354 0.343062162399292 30
-2.487821578979492 1.3750510215759277 0.2453434020280838 30
-2.4892101287841797 1.3763858079910278 0.14706403017044067 30
-2.4657180309295654 1.3639580011367798 0.04851768910884857 30
-1.7146415710449219 0.9504411816596985 -0.5150501132011414 119
-2.006110906600952 1.1124628782272339 -0.520762026309967 119
-2.3683321475982666 1.3138686418533325 -0.5185348391532898 119
-2.4731171131134033 1.3725641965866089 -0.4419277310371399 119
-2.4935529232025146 1.3844753503799438 -0.34549999237060547 30
-2.4631645679473877 1.3681654930114746 -0.24316489696502686 30
-2.4732506275177 1.3743326663970947 -0.14579223096370697 30
-2.458493709564209 1.3666942119598389 -0.04794655740261078 30
-2.452068567276001 1.363682746887207 0.7410335540771484 30
-2.460184335708618 1.3687584400177002 0.6406258344650269 30
-2.452270269393921 1.3649158477783203 0.537598192691803 30
-2.4496915340423584 1.3640406131744385 0.43753379583358765 30
-2.4569337368011475 1.3686350584030151 0.34062477946281433 30
-2.4656026363372803 1.374027967453003 0.2436002939939499 30
-2.4669456481933594 1.3753408193588257 0.14601731300354004 30
-2.4434776306152344 1.3628162145614624 0.048168640583753586 30
-1.715529441833496 0.9587767720222473 -0.5163442492485046 119
-2.0022153854370117 1.1194586753845215 -0.520762026309967 119
-2.359447717666626 1.319731593132019 -0.517581582069397 119
-2.4510722160339355 1.3715424537658691 -0.43879902362823486 119
-2.471383571624756 1.3834744691848755 -0.3430625796318054 30
-2.4366443157196045 1.3645861148834229 -0.24098598957061768 30
-2.4510138034820557 1.3731952905654907 -0.1447489857673645 30
-2.4362640380859375 1.3654905557632446 -0.04760099574923515 30
-2.4304425716400146 1.3627852201461792 0.7358605265617371 30
-2.438394784927368 1.3678035736083984 0.6361302137374878 30
-2.4303693771362305 1.3638594150543213 0.5337854623794556 30
-2.427689790725708 1.362912893295288 0.4344085454940796 30
-2.434833288192749 1.367482304573059 0.33818739652633667 30
-2.4434216022491455 1.3728668689727783 0.24185717105865479 30
-2.4447193145751953 1.374157190322876 0.1449705958366394 30
-2.4212756156921387 1.361535906791687 0.0478195920586586 30
-1.7121721506118774 0.9647592306137085 -0.5163442492485046 119
-1.9982954263687134 1.1264410018920898 -0.520762026309967 119
-2.3505513668060303 1.325548529624939 -0.5166284441947937 119
-2.429064989089966 1.370383620262146 -0.43567031621932983 119
-2.449251651763916 1.3823357820510864 -0.34062519669532776 30
-2.4145166873931885 1.3632874488830566 -0.23924288153648376 30
-2.4244678020477295 1.3694640398025513 -0.1434449553489685 30
-2.4140732288360596 1.3641486167907715 -0.047255437821149826 30
-2.4088525772094727 1.3617531061172485 0.7306875586509705 30
-2.416642189025879 1.3667134046554565 0.6316345930099487 30
-2.408505916595459 1.3626667261123657 0.5299726724624634 30
-2.4057259559631348 1.3616483211517334 0.4312833249568939 30
-2.4084527492523193 1.3637468814849854 0.3351406753063202 30
-2.421278715133667 1.3715674877166748 0.24011406302452087 30
-2.4225311279296875 1.3728355169296265 0.14392387866973877 30
-2.3991122245788574 1.3601173162460327 0.047470543533563614 30
-1.7086246013641357 0.971028208732605 -0.5163442492485046 119
-1.9899182319641113 1.1313496828079224 -0.5196372270584106 119
-2.3414106369018555 1.331728219985962 -0.5156752467155457 119
-2.4068570137023926 1.3695082664489746 -0.4325416386127472 0
-2.42691707611084 1.3814830780029297 -0.3381877839565277 30
-2.392190456390381 1.3622685670852661 -0.23749975860118866 30
-2.4020779132843018 1.3684543371200562 -0.14240172505378723 30
-2.391683578491211 1.3630857467651367 -0.0469098761677742 30
-2.3870620727539062 1.3610037565231323 0.7255144715309143 30
-2.394688606262207 1.365906000137329 0.6271389722824097 30
-2.3864431381225586 1.3617550134658813 0.526159942150116 30
-2.383563280105591 1.3606631755828857 0.42815807461738586 30
-2.386200428009033 1.3627208471298218 0.33270329236984253 30
-2.3989360332489014 1.370549201965332 0.23837095499038696 30
-2.4001431465148926 1.371794581413269 0.14287716150283813 30
-2.376751184463501 1.3589754104614258 0.04712149500846863 30
-1.7052247524261475 0.9769864678382874 -0.5163442492485046 119
-1.990183711051941 1.1407114267349243 -0.520762026309967 119
-2.336747884750366 1.3398932218551636 -0.5156752467155457 119
-2.3892109394073486 1.3705296516418457 -0.430195152759552 0
-2.404862403869629 1.3800657987594604 -0.33575040102005005 30
-2.3701417446136475 1.360690712928772 -0.23575665056705475 30
-2.379966974258423 1.3668837547302246 -0.14135847985744476 30
-2.369572162628174 1.3614639043807983 -0.046564314514398575 30
-2.3613598346710205 1.3572934865951538 0.719048261642456 30
-2.368788480758667 1.3621134757995605 0.6215193867683411 30
-2.364656925201416 1.3602869510650635 0.5223472118377686 30
-2.361677646636963 1.3591217994689941 0.4250328242778778 30
-2.364225387573242 1.3611373901367188 0.33026590943336487 30
-2.3768723011016846 1.3689707517623901 0.23662783205509186 30
-2.3780345916748047 1.3701930046081543 0.1418304443359375 30
-2.3589961528778076 1.3597795963287354 0.046859707683324814 30
-1.7018040418624878 0.9829329252243042 -0.5163442492485046 119
-1.9946264028549194 1.1525263786315918 -0.5230115056037903 119
-2.3278071880340576 1.3455853462219238 -0.5147220492362976 119
-2.367311954498291 1.3689724206924438 -0.427066445350647 0
-2.387143611907959 1.3809967041015625 -0.3339223861694336 30
-2.352444648742676 1.3614708185195923 -0.23444931209087372 30
-2.357896327972412 1.3651756048202515 -0.1403152495622635 30
-2.351827383041382 1.3622097969055176 -0.04630514234304428 30
-2.3398916721343994 1.355841875076294 0.7138752341270447 30
-2.347158908843994 1.360600233078003 0.6170238256454468 30
-2.3429102897644043 1.358683705329895 0.5185344219207764 30
-2.339832067489624 1.357444405555725 0.42190760374069214 30
-2.3422911167144775 1.3594175577163696 0.3278285264968872 30
-2.354848861694336 1.3672552108764648 0.23488472402095795 30
-2.355966806411743 1.368454098701477 0.14078372716903687 30
-2.336948871612549 1.3579531908035278 0.04651065915822983 30
-1.6983625888824463 0.9888673424720764 -0.5163442492485046 119
-1.9948009252548218 1.1619340181350708 -0.5241362452507019 119
-2.318855047225952 1.351231575012207 -0.5137688517570496 119
-2.3454530239105225 1.367279052734375 -0.42393776774406433 0
-2.3651607036590576 1.379320740699768 -0.33148500323295593 30
-2.3304684162139893 1.3596339225769043 -0.23270617425441742 30
-2.340179204940796 1.3658469915390015 -0.13953281939029694 30
-2.329789161682129 1.360327959060669 -0.045959584414958954 30
-2.318462610244751 1.3542571067810059 0.7087022662162781 30
-2.3255691528320312 1.3589527606964111 0.6125282049179077 30
-2.3212037086486816 1.356945276260376 0.514721691608429 30
-2.3180270195007324 1.3556309938430786 0.4187823235988617 30
-2.324680805206299 1.3600668907165527 0.32600048184394836 30
-2.337165355682373 1.367918610572815 0.23357738554477692 30
-2.333939790725708 1.3665776252746582 0.13973699510097504 30
-2.3192532062530518 1.3585219383239746 0.046248871833086014 30
-1.694900393486023 0.9947896599769592 -0.5163442492485046 119
-1.9949339628219604 1.1713567972183228 -0.5252610445022583 119
-2.314124345779419 1.359317660331726 -0.5137688517570496 119
-2.3236351013183594 1.3654499053955078 -0.4208090603351593 0
-2.3432185649871826 1.3775079250335693 -0.32904762029647827 30
-2.3128275871276855 1.3601852655410767 -0.23139885067939758 30
-2.318182945251465 1.3638793230056763 -0.13848958909511566 30
-2.3121016025543213 1.3608447313308716 -0.04570041596889496 30
-2.3012351989746094 1.3549898862838745 0.7048224806785583 30
-2.3040199279785156 1.3571712970733643 0.6080325841903687 30
-2.2995378971099854 1.3550716638565063 0.5109089016914368 30
-2.2962634563446045 1.3536821603775024 0.41565707325935364 30
-2.3028204441070557 1.3580892086029053 0.3235630989074707 30
-2.315216302871704 1.3659443855285645 0.2318342626094818 30
-2.311955451965332 1.3645644187927246 0.1386902779340744 30
-2.3015825748443604 1.358984112739563 0.0459870882332325 30
-1.6955742835998535 1.0031591653823853 -0.5176383256912231 119
-1.999218225479126 1.1832761764526367 -0.5275105237960815 119
-2.3093652725219727 1.3673871755599976 -0.5137688517570496 119
-2.30185866355896 1.3634850978851318 -0.4176803529262543 0
-2.325587511062622 1.3780889511108398 -0.32721954584121704 30
-2.2952115535736084 1.3606302738189697 -0.23009151220321655 30
-2.3005237579345703 1.3643220663070679 -0.13770714402198792 30
-2.2901391983032227 1.3587039709091187 -0.04535485431551933 30
-2.2798779010772705 1.353154182434082 0.699649453163147 30
-2.286700963973999 1.3577433824539185 0.6046608686447144 30
-2.2821340560913086 1.3555705547332764 0.5080493688583374 30
-2.278787612915039 1.3541209697723389 0.4133131802082062 30
-2.2852680683135986 1.3585115671157837 0.32173505425453186 30
-2.2933096885681152 1.3638337850570679 0.2300911545753479 30
-2.294304847717285 1.3649675846099854 0.13790524005889893 30
-2.2796411514282227 1.3567825555801392 0.04563803970813751 30
-1.696210265159607 1.0115454196929932 -0.5189324021339417 119
-1.9992594718933105 1.1927435398101807 -0.5286352634429932 119
-2.30879282951355 1.3779555559158325 -0.5147220492362976 119
-2.2801249027252197 1.3613852262496948 -0.41455164551734924 0
-2.303720712661743 1.37601900100708 -0.3247821629047394 30
-2.277620792388916 1.360969066619873 -0.22878417372703552 30
-2.278604030609131 1.3620961904525757 -0.13666391372680664 30
-2.2725107669830322 1.3589922189712524 -0.04509568214416504 30
-2.2627065181732178 1.3536653518676758 0.695769727230072 30
-2.265225410461426 1.3557090759277344 0.6001651883125305 30
-2.2605435848236084 1.3534431457519531 0.50423663854599 30
-2.2613368034362793 1.3544542789459229 0.41096922755241394 30
-2.2677412033081055 1.358828067779541 0.319907009601593 30
-2.2757186889648438 1.3641479015350342 0.22878383100032806 30
-2.27239727973938 1.3626962900161743 0.1368585228919983 30
-2.2620301246643066 1.3570160865783691 0.0453762523829937 30
-1.6926689147949219 1.0174601078033447 -0.5189324021339417 119
-1.9950838088989258 1.1997150182724 -0.5286352634429932 119
-2.2955570220947266 1.3809459209442139 -0.5128157138824463 119
-2.262664794921875 1.361696720123291 -0.41220515966415405 0
-2.2861483097076416 1.3763729333877563 -0.32295411825180054 30
-2.255789041519165 1.3586317300796509 -0.2270410656929016 30
-2.26100492477417 1.3623110055923462 -0.13588149845600128 30
-2.250626802444458 1.356593370437622 -0.04475012049078941 30
-2.2414228916168213 1.3515790700912476 0.6905966401100159 30
-2.2479641437530518 1.3560583591461182 0.596793532371521 30
-2.2431981563568115 1.35371732711792 0.5013770461082458 30
-2.2396836280822754 1.3521298170089722 0.4078439772129059 30
-2.250239849090576 1.3590387105941772 0.3180789649486542 30
-2.253890037536621 1.3617801666259766 0.22704072296619415 30
-2.254807233810425 1.362871527671814 0.13607348501682281 30
-2.24444580078125 1.3571436405181885 0.04511446878314018 30
-1.6932379007339478 1.0258649587631226 -0.5202265381813049 119
-1.995050072669983 1.2091971635818481 -0.5297600626945496 119
-2.269737482070923 1.376226544380188 -0.508049726486206 119
-2.2410085201263428 1.3593418598175049 -0.4090764820575714 30
-2.26435923576355 1.3740466833114624 -0.3205167353153229 30
-2.2382593154907227 1.3587433099746704 -0.2257337123155594 30
-2.2391648292541504 1.3598278760910034 -0.1348382532596588 30
-2.233060121536255 1.356654167175293 -0.04449095204472542 30
-2.220182180404663 1.3493609428405762 0.6854236721992493 30
-2.226564645767212 1.3537722826004028 0.5922979116439819 30
-2.2258787155151367 1.3538873195648193 0.4985174834728241 30
-2.2222936153411865 1.3522381782531738 0.4055000841617584 30
-2.2285256385803223 1.3565633296966553 0.3156415820121765 30
-2.2363600730895996 1.3618671894073486 0.22573336958885193 30
-2.2329792976379395 1.3603429794311523 0.13502676784992218 30
-2.2268879413604736 1.357164740562439 0.04485268145799637 30
-1.689646601676941 1.0317692756652832 -0.5202265381813049 119
-1.9866596460342407 1.2136139869689941 -0.5286352634429932 119
-2.248167037963867 1.3739030361175537 -0.5042369961738586 119
-2.223609447479248 1.3594284057617188 -0.40672993659973145 30
-2.2468481063842773 1.3741743564605713 -0.31868869066238403 30
-2.2207562923431396 1.358749270439148 -0.22442638874053955 30
-2.221627950668335 1.3598154783248901 -0.13405582308769226 30
-2.211256742477417 1.353998064994812 -0.04414539039134979 30
-2.2031028270721436 1.349534034729004 0.6815439462661743 30
-2.2093632221221924 1.3538992404937744 0.5889261960983276 30
-2.2044010162353516 1.3513877391815186 0.4947047531604767 30
-2.2007200717926025 1.3496595621109009 0.40237483382225037 30
-2.2110867500305176 1.3565484285354614 0.31381356716156006 30
-2.2188572883605957 1.3618489503860474 0.2244260460138321 30
-2.215452194213867 1.3602913618087769 0.1342417299747467 30
-2.2050976753234863 1.3544635772705078 0.04450363293290138 30
-1.6860346794128418 1.0376609563827515 -0.5202265381813049 119
-1.9782626628875732 1.2179871797561646 -0.5275105237960815 119
-2.2266407012939453 1.3714457750320435 -0.5004242062568665 119
-2.206237554550171 1.3594101667404175 -0.40438342094421387 30
-2.2251393795013428 1.3715927600860596 -0.31625130772590637 30
-2.2032806873321533 1.3586496114730835 -0.22311905026435852 30
-2.2041187286376953 1.3596974611282349 -0.1332733929157257 30
-2.193753957748413 1.3538322448730469 -0.0438862219452858 30
-2.1819396018981934 1.34706711769104 0.6763709187507629 30
-2.192188262939453 1.3539228439331055 0.5855544805526733 30
-2.187143564224243 1.3513344526290894 0.49184516072273254 30
-2.1833925247192383 1.349543571472168 0.40003088116645813 30
-2.1894540786743164 1.3538182973861694 0.31137615442276 30
-2.197145462036133 1.3591043949127197 0.2226829081773758 30
-2.1979525089263916 1.3601338863372803 0.13345667719841003 30
-2.1876044273376465 1.354258418083191 0.04424184560775757 30
-1.6824023723602295 1.0435400009155273 -0.5202265381813049 119
-1.9698593616485596 1.2223165035247803 -0.5263857841491699 119
-2.2051594257354736 1.3688554763793945 -0.49661147594451904 119
-2.1888926029205322 1.3592872619628906 -0.4020369052886963 30
-2.2076914310455322 1.3714951276779175 -0.31442326307296753 30
-2.181602716445923 1.3558156490325928 -0.22137592732906342 30
-2.1823971271514893 1.356837511062622 -0.13223016262054443 30
-2.17203426361084 1.3509202003479004 -0.04354066029191017 30
-2.164921522140503 1.3470206260681152 0.6724911332130432 30
-2.1709041595458984 1.3512685298919678 0.5810588598251343 30
-2.1699135303497314 1.351177453994751 0.4889856278896332 30
-2.1619014739990234 1.3467121124267578 0.39690566062927246 30
-2.172079563140869 1.3535786867141724 0.30954810976982117 30
-2.1797075271606445 1.3588604927062988 0.22137558460235596 30
-2.1762444972991943 1.3572288751602173 0.1324099600315094 30
-2.165898084640503 1.3513015508651733 0.04389279708266258 30
-1.682844638824463 1.0519663095474243 -0.5215205550193787 119
-1.9573193788528442 1.224018931388855 -0.5241362452507019 119
-2.1878843307495117 1.3687349557876587 -0.4937518835067749 119
-2.1715757846832275 1.3590599298477173 -0.3996903598308563 30
-2.186065196990967 1.3686590194702148 -0.31198588013648987 30
-2.1641924381256104 1.3554905652999878 -0.2200685739517212 30
-2.16495418548584 1.3564938306808472 -0.13144773244857788 30
-2.154597759246826 1.3505284786224365 -0.04328148812055588 30
-2.14793062210083 1.3468718528747559 0.6686114072799683 30
-2.153792142868042 1.3510711193084717 0.57768714427948 30
-2.1485538482666016 1.3483076095581055 0.4851728081703186 30
-2.144639253616333 1.3463729619979858 0.3945617079734802 30
-2.1505305767059326 1.3505947589874268 0.3071107268333435 30
-2.1622979640960693 1.358511209487915 0.22006824612617493 30
-2.158811092376709 1.3568459749221802 0.13162492215633392 30
-2.1484713554382324 1.3508706092834473 0.04363101348280907 30
-1.6791623830795288 1.0578341484069824 -0.5215205550193787 119
-1.9489132165908813 1.2282462120056152 -0.5230115056037903 119
-2.1706371307373047 1.3685106039047241 -0.49089235067367554 119
-2.1501104831695557 1.3560937643051147 -0.3965616822242737 30
-2.168682813644409 1.368336796760559 -0.31015780568122864 30
-2.14259934425354 1.3524022102355957 -0.21832546591758728 30
-2.1475398540496826 1.3560447692871094 -0.13066530227661133 30
-2.137190580368042 1.3500316143035889 -0.04302231967449188 30
-2.130967378616333 1.346620798110962 0.6647316217422485 30
-2.1367084980010986 1.3507708311080933 0.5743153691291809 30
-2.1313893795013428 1.3479290008544922 0.48231327533721924 30
-2.127406358718872 1.345929741859436 0.3922177851200104 30
-2.133222818374634 1.3501311540603638 0.30528268218040466 30
-2.1449177265167236 1.3580572605133057 0.2187609225511551 30
-2.141407012939453 1.3563581705093384 0.13083988428115845 30
-2.1310741901397705 1.3503345251083374 0.04336922615766525 30
-1.679537057876587 1.0662776231765747 -0.5228146910667419 119
-1.9405014514923096 1.2324298620224 -0.5218867659568787 119
-2.1534183025360107 1.36818265914917 -0.4880327582359314 119
-2.1328604221343994 1.35564386844635 -0.3942151665687561 30
-2.151329755783081 1.3679101467132568 -0.3083297908306122 30
-2.1252574920654297 1.3518531322479248 -0.21701814234256744 30
-2.1259429454803467 1.3528103828430176 -0.12962207198143005 30
-2.1198132038116455 1.349429726600647 -0.04276314750313759 30
-2.1140317916870117 1.3462680578231812 0.6608518362045288 30
-2.1196534633636475 1.350367784500122 0.5709437131881714 30
-2.114253520965576 1.3474466800689697 0.4794536828994751 30
-2.1102023124694824 1.345382571220398 0.38987383246421814 30
-2.1159446239471436 1.3495632410049438 0.3034546673297882 30
-2.1275670528411865 1.3574985265731812 0.21745356917381287 30
-2.124032974243164 1.3557652235031128 0.13005484640598297 30
-2.1094934940338135 1.3470031023025513 0.04302017763257027 30
-1.679872989654541 1.074736475944519 -0.5241087675094604 119
-1.936187505722046 1.2391959428787231 -0.5218867659568787 119
-2.136228561401367 1.3677513599395752 -0.48517316579818726 119
-2.1156396865844727 1.355089783668518 -0.3918686509132385 30
-2.1340062618255615 1.3673789501190186 -0.30650171637535095 30
-2.107945203781128 1.3511993885040283 -0.21571078896522522 30
-2.108598232269287 1.3521370887756348 -0.1288396567106247 30
-2.102466344833374 1.34872305393219 -0.04250397905707359 30
-2.097125291824341 1.3458133935928345 0.6569721102714539 30
-2.1026270389556885 1.3498623371124268 0.5675719976425171 30
-2.093017578125 1.34420907497406 0.4756409525871277 30
-2.0930283069610596 1.3447320461273193 0.3875299394130707 30
-2.09869647026062 1.348891258239746 0.301626592874527 30
-2.1060569286346436 1.3541414737701416 0.21571046113967896 30
-2.106689214706421 1.3550677299499512 0.1292698085308075 30
-2.0921666622161865 1.346242904663086 0.04275839403271675 30
-1.6801704168319702 1.083210825920105 -0.5254029035568237 119
-1.9277560710906982 1.2433063983917236 -0.520762026309967 119
-2.119068145751953 1.3672168254852295 -0.4823136329650879 119
-2.0984489917755127 1.3544323444366455 -0.38952213525772095 30
-2.116712808609009 1.3667439222335815 -0.3046737015247345 30
-2.0906641483306885 1.3504414558410645 -0.21440346539020538 30
-2.0912840366363525 1.351359248161316 -0.12805721163749695 30
-2.0809521675109863 1.3451977968215942 -0.04215841740369797 30
-2.080247640609741 1.34525728225708 0.6530923247337341 30
-2.085630416870117 1.3492546081542969 0.5642002820968628 30
-2.075950860977173 1.3435065746307373 0.4727814197540283 30
-2.0758848190307617 1.343977928161621 0.38518598675727844 30
-2.081479072570801 1.3481154441833496 0.2997985780239105 30
-2.0887763500213623 1.353359341621399 0.21440313756465912 30
-2.089376449584961 1.3542656898498535 0.12848477065563202 30
-2.0748708248138428 1.3453781604766846 0.04249660670757294 30
-1.6844791173934937 1.0943313837051392 -0.5279910564422607 119
-1.9274892807006836 1.2526828050613403 -0.5218867659568787 119
-2.1019375324249268 1.366579294204712 -0.47945404052734375 119
-2.0854287147521973 1.3563637733459473 -0.3879578113555908 30
-2.099449872970581 1.3660047054290771 -0.30284565687179565 30
-2.073413610458374 1.3495793342590332 -0.21309611201286316 30
-2.0740013122558594 1.3504773378372192 -0.1272747963666916 30
-2.0636768341064453 1.3442676067352295 -0.041899245232343674 30
-2.06339955329895 1.344599962234497 0.649212658405304 30
-2.0686638355255127 1.3485445976257324 0.5608285665512085 30
-2.0589144229888916 1.3427013158798218 0.4699218273162842 30
-2.058772563934326 1.3431209325790405 0.382842093706131 30
-2.0642926692962646 1.347235918045044 0.2979705333709717 30
-2.0715274810791016 1.3524731397628784 0.2130957841873169 30
-2.0720949172973633 1.353359580039978 0.12769973278045654 30
-2.0576064586639404 1.3444089889526367 0.04223481938242912 30
-1.680648922920227 1.100204586982727 -0.5279910564422607 119
-1.9231048822402954 1.2594032287597656 -0.5218867659568787 119
-2.0848374366760254 1.365838885307312 -0.4765945076942444 119
-2.0682902336120605 1.3555140495300293 -0.38561126589775085 30
-2.0822181701660156 1.3651617765426636 -0.3010176122188568 30
-2.0603601932525635 1.351345181465149 -0.2122245579957962 30
-2.0567500591278076 1.349491000175476 -0.12649236619472504 30
-2.046433687210083 1.3432331085205078 -0.04164007306098938 30
-2.046581745147705 1.3438414335250854 0.6453328728675842 30
-2.051727533340454 1.3477329015731812 0.5574568510055542 30
-2.0419092178344727 1.3417935371398926 0.4670622944831848 30
-2.0416910648345947 1.3421605825424194 0.38049814105033875 30
-2.047137975692749 1.3462529182434082 0.29614248871803284 30
-2.054309844970703 1.3514831066131592 0.21178844571113586 30
-2.0548453330993652 1.3523492813110352 0.12691469490528107 30
-2.040374755859375 1.3433362245559692 0.04197303578257561 30
-1.6727666854858398 1.1034051179885864 -0.5266969799995422 119
-1.9186969995498657 1.266108512878418 -0.5218867659568787 119
-2.067768096923828 1.3649955987930298 -0.47373491525650024 119
-2.051182985305786 1.3545613288879395 -0.38326478004455566 30
-2.0650177001953125 1.3642151355743408 -0.29918956756591797 30
-2.043163776397705 1.350290060043335 -0.21091720461845398 30
-2.0395314693450928 1.3484008312225342 -0.12570993602275848 30
-2.0292234420776367 1.3420950174331665 -0.041380904614925385 30
-2.029794216156006 1.3429819345474243 0.6414531469345093 30
-2.0348222255706787 1.346819281578064 0.5540851354598999 30
-2.0290281772613525 1.3434935808181763 0.4651558995246887 30
-2.024641752243042 1.3410975933074951 0.3781541883945465 30
-2.030015707015991 1.3451669216156006 0.294314444065094 30
-2.0371248722076416 1.3503895998001099 0.21048112213611603 30
-2.037628412246704 1.3512351512908936 0.1261296421289444 30
-2.0231716632843018 1.3421647548675537 0.04171124845743179 30
-1.6687111854553223 1.109528660774231 -0.5266969799995422 119
-1.9140435457229614 1.2731324434280396 -0.5218867659568787 119
-2.0464060306549072 1.3616889715194702 -0.46992215514183044 119
-2.033871650695801 1.3538607358932495 -0.3809182345867157 30
-2.047611713409424 1.3635226488113403 -0.2973615527153015 30
-2.0257649421691895 1.3494850397109985 -0.20960988104343414 30
-2.0221104621887207 1.3475602865219116 -0.12492751330137253 30
-2.0159714221954346 1.3439772129058838 -0.04120812565088272 30
-2.0087854862213135 1.3396931886672974 0.6362801194190979 30
-2.017714023590088 1.3461565971374512 0.5507134199142456 30
-2.011842727661133 1.3427468538284302 0.46229633688926697 30
-2.0073914527893066 1.3402825593948364 0.37581026554107666 30
-2.012691020965576 1.3443288803100586 0.29248639941215515 30
-2.0197372436523438 1.3495451211929321 0.2091737687587738 30
-2.0202088356018066 1.350370168685913 0.12534461915493011 30
-2.0057754516601562 1.34122896194458 0.04144946485757828 30
-1.6648280620574951 1.115346908569336 -0.5266969799995422 119
-1.9055408239364624 1.277093529701233 -0.520762026309967 119
-2.0294101238250732 1.360624074935913 -0.4670626223087311 119
-2.016829490661621 1.3526995182037354 -0.37857168912887573 30
-2.0304763317108154 1.3623665571212769 -0.2955334782600403 30
-2.0086348056793213 1.3482202291488647 -0.2083025425672531 30
-2.004957914352417 1.3462599515914917 -0.12414508312940598 30
-1.998817801475525 1.342643141746521 -0.04094895347952843 30
-1.992070198059082 1.3386154174804688 0.6324003338813782 30
-2.0008723735809326 1.3450371026992798 0.5473417043685913 30
-1.9949243068695068 1.341544270515442 0.4594367444515228 30
-1.9904075860977173 1.3390114307403564 0.3734663128852844 30
-1.9956347942352295 1.3430339097976685 0.2906583845615387 30
-2.0026187896728516 1.348241925239563 0.20786644518375397 30
-2.0030581951141357 1.3490458726882935 0.12455956637859344 30
-1.9927855730056763 1.342640995979309 0.041274938732385635 30
-1.6571168899536133 1.1181600093841553 -0.5254029035568237 119
-1.8974809646606445 1.2803486585617065 -0.5196372270584106 119
-2.012921094894409 1.3587547540664673 -0.46420302987098694 119
-2.000291585922241 1.3507378101348877 -0.37622520327568054 30
-2.0138492584228516 1.3604047298431396 -0.29370543360710144 30
-1.9920084476470947 1.3461570739746094 -0.20699521899223328 30
-1.9883090257644653 1.3441627025604248 -0.12336266040802002 30
-1.9821666479110718 1.3405144214630127 -0.04068978503346443 30
-1.9718537330627441 1.3340414762496948 0.6272273063659668 30
-1.984532356262207 1.3431240320205688 0.543969988822937 30
-1.9785069227218628 1.3395495414733887 0.45657721161842346 30
-1.9739242792129517 1.3369494676589966 0.37112241983413696 30
-1.9749717712402344 1.338161826133728 0.28822100162506104 30
-1.9860039949417114 1.3461425304412842 0.20655910670757294 30
-1.9864122867584229 1.3469253778457642 0.12377453595399857 30
-1.9720125198364258 1.3376638889312744 0.04092589020729065 30
-1.6494051218032837 1.1209343671798706 -0.5241087675094604 119
-1.8849421739578247 1.2814861536026 -0.5173877477645874 119
-1.9959897994995117 1.3574917316436768 -0.4613434374332428 119
-1.9833154678344727 1.3493781089782715 -0.3738786578178406 30
-1.9967803955078125 1.3590492010116577 -0.291877418756485 30
-1.9749457836151123 1.3446924686431885 -0.20568786561489105 30
-1.971224308013916 1.3426622152328491 -0.12258023023605347 30
-1.9650812149047852 1.3389800786972046 -0.04043061286211014 30
-1.9512214660644531 1.3300349712371826 0.6220543384552002 30
-1.9677562713623047 1.3418089151382446 0.5405982732772827 30
-1.9616546630859375 1.3381497859954834 0.4537176191806793 30
-1.957007646560669 1.3354804515838623 0.3687784671783447 30
-1.9579923152923584 1.336653232574463 0.2863929271697998 30
-1.9648396968841553 1.3418306112289429 0.20481598377227783 30
-1.9652070999145508 1.3425846099853516 0.12272781878709793 30
-1.946694254875183 1.3304352760314941 0.04048958048224449 30
-1.641105055809021 1.124529480934143 -0.5228146910667419 119
-1.8759891986846924 1.2859596014022827 -0.516262948513031 119
-1.9826668500900269 1.3595941066741943 -0.4594370722770691 0
-1.9699747562408447 1.3513962030410767 -0.37231430411338806 30
-1.9792717695236206 1.3582820892333984 -0.29004934430122375 30
-1.961555004119873 1.3466274738311768 -0.2048163115978241 30
-1.9537062644958496 1.3417410850524902 -0.12179780751466751 30
-1.9475640058517456 1.3380229473114014 -0.04017144441604614 30
-1.9222177267074585 1.3211034536361694 0.6142948269844055 30
-1.9545602798461914 1.3438341617584229 0.5383504629135132 30
-1.9443700313568115 1.3373277187347412 0.45085808634757996 30
-1.9437280893325806 1.337386131286621 0.3672158420085907 30
-1.9364936351776123 1.3329064846038818 0.28395554423332214 30
-1.943263053894043 1.33806574344635 0.20307287573814392 30
-1.9477014541625977 1.3416231870651245 0.12194277346134186 30
-1.9251052141189575 1.3265538215637207 0.040140531957149506 30
-1.6371697187423706 1.130251169204712 -0.5228146910667419 119
-1.8674803972244263 1.2897319793701172 -0.5151382088661194 119
-1.9657940864562988 1.358136773109436 -0.45657750964164734 0
-1.9530580043792725 1.3498412370681763 -0.36996781826019287 30
-1.9581902027130127 1.353893518447876 -0.2876119613647461 30
-1.9445528984069824 1.3449662923812866 -0.20350897312164307 30
-1.9407986402511597 1.3428703546524048 -0.12127619236707687 30
-1.9346604347229004 1.3391226530075073 -0.03999866172671318 30
-1.9215651750564575 1.330554485321045 0.6155880689620972 30
-1.9378423690795898 1.3423259258270264 0.5349787473678589 30
-1.9275866746902466 1.3357198238372803 0.4479984939098358 30
-1.934989333152771 1.3413493633270264 0.3664345443248749 30
-1.9114389419555664 1.325518012046814 0.28090885281562805 30
-1.914024829864502 1.3278061151504517 0.20045821368694305 30
-1.9389044046401978 1.345566749572754 0.1216811016201973 30
-1.8999260663986206 1.3190160989761353 0.03970422223210335 30
-1.6292494535446167 1.1332013607025146 -0.5215205550193787 119
-1.8589677810668945 1.2934601306915283 -0.5140134692192078 119
-1.9529844522476196 1.3593823909759521 -0.45467114448547363 0
-1.9402287006378174 1.3510063886642456 -0.36840346455574036 30
-1.9330915212631226 1.346537709236145 -0.2845652401447296 30
-1.9357593059539795 1.348897933959961 -0.203073188662529 30
-1.9279069900512695 1.3439260721206665 -0.12075457721948624 30
-1.921772837638855 1.3401484489440918 -0.03982588276267052 30
-1.9129478931427002 1.3344906568527222 0.6142948269844055 30
-1.925154209136963 1.3435055017471313 0.5327309370040894 30
-1.9148633480072021 1.3368208408355713 0.4460921287536621 30
-1.9221975803375244 1.342440128326416 0.36487194895744324 30
-1.8905272483825684 1.3208129405975342 0.2784714102745056 30
-1.921626329421997 1.3430393934249878 0.20176555216312408 30
-1.9301033020019531 1.3494656085968018 0.12141941487789154 30
-1.8994107246398926 1.3284999132156372 0.03979148343205452 30
-1.62528395652771 1.1388815641403198 -0.5215205550193787 119
-1.8504523038864136 1.297144889831543 -0.5128887295722961 119
-1.940190076828003 1.3605550527572632 -0.4527647793292999 0
-1.9274154901504517 1.352098822593689 -0.36683914065361023 30
-1.9365041255950928 1.3589788675308228 -0.28578394651412964 30
-1.922885775566101 1.3499228954315186 -0.20220163464546204 30
-1.9150316715240479 1.3449081182479858 -0.120232954621315 30
-1.908901572227478 1.3411005735397339 -0.039653100073337555 30
-1.904326319694519 1.3383827209472656 0.6130015254020691 30
-1.9124815464019775 1.3446130752563477 0.5304831266403198 30
-1.9061706066131592 1.3406732082366943 0.44513896107673645 30
-1.9134608507156372 1.3462998867034912 0.36409062147140503 30
-1.8899636268615723 1.3302606344223022 0.2790807783603668 30
-1.9169265031814575 1.3497389554977417 0.20176555216312408 30
-1.9172170162200928 1.3504440784454346 0.12089605629444122 30
-1.8906751871109009 1.3322423696517944 0.03970422223210335 30
-1.6173532009124756 1.141762614250183 -0.5202265381813049 119
-1.8459131717681885 1.3035962581634521 -0.5128887295722961 119
-1.9274113178253174 1.3616551160812378 -0.45085838437080383 0
-1.9186509847640991 1.3559681177139282 -0.3660569489002228 30
-1.9317485094070435 1.3657301664352417 -0.28578394651412964 30
-1.9100286960601807 1.3508745431900024 -0.20133008062839508 30
-1.9021731615066528 1.3458168506622314 -0.11971132457256317 30
-1.896047592163086 1.3419795036315918 -0.03948031738400459 30
-1.8957010507583618 1.3422309160232544 0.6117083430290222 30
-1.9038007259368896 1.3484647274017334 0.5293592214584351 30
-1.8974741697311401 1.344481110572815 0.444185733795166 30
-1.9006915092468262 1.3472590446472168 0.362527996301651 30
-1.8812602758407593 1.3339790105819702 0.2784714102745056 30
-1.912203311920166 1.356421947479248 0.20176555216312408 30
-1.9043471813201904 1.351348876953125 0.1203726977109909 30
-1.88193678855896 1.3359401226043701 0.039616961032152176 30
-1.6133579015731812 1.1474013328552246 -0.5202265381813049 119
-1.8373816013336182 1.3072073459625244 -0.5117639303207397 119
-1.9146487712860107 1.3626824617385864 -0.4489520192146301 0
-1.9058600664138794 1.3569287061691284 -0.36449259519577026 30
-1.9269695281982422 1.3724650144577026 -0.28578394651412964 30
-1.8971883058547974 1.3517528772354126 -0.20045851171016693 30
-1.8893316984176636 1.3466520309448242 -0.11918970942497253 30
-1.8832107782363892 1.342785120010376 -0.03930753841996193 30
-1.887072205543518 1.346035361289978 0.6104150414466858 30
-1.8951160907745361 1.3522720336914062 0.5282353162765503 30
-1.8887748718261719 1.3482447862625122 0.44323256611824036 30
-1.8919583559036255 1.3510156869888306 0.3617466986179352 30
-1.8725543022155762 1.3376531600952148 0.2778621017932892 30
-1.9034043550491333 1.3601925373077393 0.20132976770401 30
-1.891494631767273 1.3521806001663208 0.11984933912754059 30
-1.8731955289840698 1.3395930528640747 0.039529696106910706 30
-1.6054167747497559 1.1502131223678589 -0.5189324021339417 119
-1.8288477659225464 1.3107751607894897 -0.5106391906738281 119
-1.901902437210083 1.3636375665664673 -0.4470456540584564 0
-1.8970990180969238 1.3606947660446167 -0.3637104332447052 30
-1.9181345701217651 1.3762898445129395 -0.28517457842826843 30
-1.8803188800811768 1.3496536016464233 -0.1991511732339859 30
-1.8765075206756592 1.347414255142212 -0.1186680942773819 30
-1.8703913688659668 1.3435174226760864 -0.039134759455919266 30
-1.8745176792144775 1.3469773530960083 0.6078285574913025 30
-1.8864283561706543 1.3560353517532349 0.5271114110946655 30
-1.8800718784332275 1.3519638776779175 0.4422793686389923 30
-1.8752037286758423 1.3489596843719482 0.35940274596214294 30
-1.8638453483581543 1.341282606124878 0.277252733707428 30
-1.8905600309371948 1.3610081672668457 0.20045821368694305 30
-1.8786594867706299 1.3529388904571533 0.11932597309350967 30
-1.856339454650879 1.3373570442199707 0.03926791250705719 30
-1.6013919115066528 1.155809998512268 -0.5189324021339417 119
-1.82426118850708 1.3171510696411133 -0.5106391906738281 119
-1.885193943977356 1.3616461753845215 -0.4441860616207123 0
-1.8843320608139038 1.361524224281311 -0.3621461093425751 30
-1.9052746295928955 1.3771624565124512 -0.2839558720588684 30
-1.867523431777954 1.3503715991973877 -0.19827960431575775 30
-1.859655737876892 1.3451769351959229 -0.11788567155599594 30
-1.853540062904358 1.3412460088729858 -0.03887559100985527 30
-1.8619794845581055 1.3478482961654663 0.6052420139312744 30
