# .PCD v0.7 - Point Cloud Data file format
VERSION 0.7
FIELDS x y z intensity
SIZE 4 4 4 4
TYPE F F F F
COUNT 1 1 1 1
WIDTH 778
HEIGHT 1
VIEWPOINT 0 0 0 1 0 0 0
POINTS 778
DATA ascii
-1.2264792919158936 2.3885204792022705 0.7087022662162781 44
-1.238844871520996 2.4136385917663574 0.6170238256454468 44
-1.222863793373108 2.383526563644409 0.5128152966499329 44
-1.2231197357177734 2.3850502967834473 0.4180010259151459 44
-1.2104871273040771 2.3614320755004883 0.32112571597099304 44
-1.2212733030319214 2.383498430252075 0.23096270859241486 44
-1.2192461490631104 2.380565881729126 0.13816691935062408 44
-1.202070951461792 2.348041534423828 0.0453762523829937 44
-0.8918510675430298 1.7458338737487793 -0.5150501132011414 119
-1.025475263595581 2.0082736015319824 -0.5117639303207397 119
-1.208943486213684 2.3685951232910156 -0.5090028643608093 119
-1.2113555669784546 2.3743443489074707 -0.41611599922180176 119
-1.225829839706421 2.4037513732910156 -0.32661017775535583 44
-1.2094922065734863 2.3727378845214844 -0.22965574264526367 44
-1.207468032836914 2.369788885116577 -0.13692472875118256 44
-1.2039607763290405 2.3639252185821533 -0.04518207535147667 44
-1.2137519121170044 2.384178876876831 0.70611572265625 44
-1.2237834930419922 2.404921770095825 0.6136521100997925 44
-1.2100856304168701 2.379030704498291 0.5109089016914368 44
-1.2103103399276733 2.380500555038452 0.41643840074539185 44
-1.1977401971817017 2.356794834136963 0.319907009601593 44
-1.210689902305603 2.3833060264587402 0.23052693903446198 44
-1.2064077854156494 2.3759031295776367 0.13764356076717377 44
-1.1916048526763916 2.3477652072906494 0.045288994908332825 44
-0.8857515454292297 1.748936414718628 -0.5150501132011414 119
-1.020659327507019 2.0161876678466797 -0.5128887295722961 119
-1.2006680965423584 2.372800827026367 -0.5090028643608093 119
-1.2008312940597534 2.3741517066955566 -0.4153338372707367 119
-1.2151926755905151 2.4035868644714355 -0.3260008692741394 44
-1.1989558935165405 2.372499704360962 -0.2292199432849884 44
-1.1969372034072876 2.369532346725464 -0.13666391372680664 44
-1.1934484243392944 2.3636507987976074 -0.04509568214416504 44
-1.203245997428894 2.3840889930725098 0.7048224806785583 44
-1.210992455482483 2.400479316711426 0.611404299736023 44
-1.199563980102539 2.3788578510284424 0.5099557638168335 44
-1.1997705698013306 2.380300760269165 0.41565707325935364 44
-1.1872731447219849 2.3565292358398438 0.3192976713180542 44
-1.1978825330734253 2.3786203861236572 0.22965538501739502 44
-1.1958619356155396 2.3756401538848877 0.1373818814754486 44
-1.178908348083496 2.3429789543151855 0.04511446878314018 44
-0.8796412348747253 1.7520174980163574 -0.5150501132011414 119
-1.0136152505874634 2.01973819732666 -0.5128887295722961 119
-1.1901774406433105 2.3725903034210205 -0.508049726486206 119
-1.1881096363067627 2.369499921798706 -0.41376951336860657 119
-1.2023478746414185 2.3989408016204834 -0.3247821629047394 44
-1.1862049102783203 2.3677637577056885 -0.22834838926792145 44
-1.1841872930526733 2.3647665977478027 -0.136142298579216 44
-1.1807150840759277 2.358861207962036 -0.044922903180122375 44
-1.1905944347381592 2.379635810852051 0.7022359371185303 44
-1.1982473134994507 2.3959767818450928 0.6091564893722534 44
-1.1868635416030884 2.3742499351501465 0.5080493688583374 44
-1.1870397329330444 2.375638723373413 0.4140944480895996 44
-1.174605131149292 2.3517799377441406 0.3180789649486542 44
-1.187347412109375 2.378330707550049 0.22921960055828094 44
-1.183103084564209 2.370864152908325 0.1368585228919983 44
-1.168491244316101 2.34260630607605 0.04502720385789871 44
-0.8735201954841614 1.7550773620605469 -0.5150501132011414 119
-1.0043888092041016 2.018902063369751 -0.5117639303207397 119
-1.1818883419036865 2.37673020362854 -0.508049726486206 119
-1.1776331663131714 2.3692102432250977 -0.4129873216152191 119
-1.1917585134506226 2.3986785411834717 -0.3241727948188782 44
-1.1757172346115112 2.367428779602051 -0.22791261970996857 44
-1.1737053394317627 2.3644134998321533 -0.13588149845600128 44
-1.1702520847320557 2.358490467071533 -0.044836513698101044 44
-1.1801347732543945 2.379450559616089 0.7009427547454834 44
-1.1855485439300537 2.3914146423339844 0.6069086790084839 44
-1.1742099523544312 2.369582414627075 0.5061429738998413 44
-1.1765480041503906 2.37534236907959 0.4133131802082062 44
-1.1641868352890015 2.3514182567596436 0.31746962666511536 44
-1.1768290996551514 2.3779966831207275 0.22878383100032806 44
-1.172606110572815 2.370504140853882 0.13659684360027313 44
-1.1580910682678223 2.342189311981201 0.04493994638323784 44
-0.8652517199516296 1.7537847757339478 -0.5137560367584229 119
-0.9973354339599609 2.022395610809326 -0.5117639303207397 119
-1.1714146137237549 2.376438617706299 -0.507096529006958 119
-1.167173147201538 2.3688766956329346 -0.41220515966415405 119
-1.1789929866790771 2.3939197063446045 -0.32295411825180054 44
-1.1630462408065796 2.3625807762145996 -0.2270410656929016 44
-1.1610358953475952 2.3595359325408936 -0.13535988330841064 44
-1.1575993299484253 2.353588819503784 -0.04466373473405838 44
-1.1675598621368408 2.3748865127563477 0.6983562111854553 44
-1.1728962659835815 2.386793375015259 0.6046608686447144 44
-1.161603569984436 2.3648557662963867 0.50423663854599 44
-1.1638962030410767 2.3705687522888184 0.41175055503845215 44
-1.153785228729248 2.3510122299194336 0.31686028838157654 44
-1.1663273572921753 2.377617835998535 0.228348046541214 44
-1.1599279642105103 2.3656165599823 0.13607348501682281 44
-1.145508050918579 2.3372395038604736 0.0447654202580452 44
-0.8612462878227234 1.761132836341858 -0.5150501132011414 119
-0.9902698397636414 2.025864601135254 -0.5117639303207397 119
-1.1631121635437012 2.3805131912231445 -0.507096529006958 119
-1.1567299365997314 2.3684988021850586 -0.4114229679107666 119
-1.168452501296997 2.3935611248016357 -0.3223447799682617 44
-1.1526079177856445 2.362149477005005 -0.22660528123378754 44
-1.1506035327911377 2.359086036682129 -0.13509906828403473 44
-1.1449953317642212 2.348628044128418 -0.04449095204472542 44
-1.1571471691131592 2.374605894088745 0.6970629692077637 44
-1.1602905988693237 2.382112503051758 0.6024129986763 44
-1.1511929035186768 2.364482879638672 0.5032833814620972 44
-1.1534532308578491 2.370176315307617 0.41096922755241394 44
-1.1434009075164795 2.3505630493164062 0.3162509500980377 44
-1.1536648273468018 2.372715711593628 0.22747647762298584 44
-1.1494807004928589 2.3651599884033203 0.13581180572509766 44
-1.132973551750183 2.3322300910949707 0.044590894132852554 44
-0.8550935387611389 1.7641284465789795 -0.5150501132011414 119
-0.9831922650337219 2.029309034347534 -0.5117639303207397 119
-1.154795527458191 2.38455867767334 -0.507096529006958 119
-1.146303653717041 2.368077278137207 -0.41064080595970154 119
-1.1557672023773193 2.388690710067749 -0.3211260735988617 44
-1.1400182247161865 2.3571903705596924 -0.2257337123155594 44
-1.1380152702331543 2.3540971279144287 -0.1345774382352829 44
-1.1346149444580078 2.348109006881714 -0.044404562562704086 44
-1.146750569343567 2.374281883239746 0.695769727230072 44
-1.147732138633728 2.377373218536377 0.6001651883125305 44
-1.1386659145355225 2.3596458435058594 0.5013770461082458 44
-1.1430271863937378 2.3697400093078613 0.4101879298686981 44
-1.1308784484863281 2.3455991744995117 0.3150322437286377 44
-1.143213152885437 2.372241497039795 0.22704072296619415 44
-1.139050841331482 2.364659547805786 0.1355501264333725 44
-1.1226568222045898 2.3316664695739746 0.04450363293290138 44
-0.8489303588867188 1.767102599143982 -0.5150501132011414 119
-0.9761025905609131 2.032728672027588 -0.5117639303207397 119
-1.1464648246765137 2.388575315475464 -0.507096529006958 119
-1.1337581872940063 2.3631591796875 -0.4090764820575714 119
-1.1452761888504028 2.388235569000244 -0.3205167353153229 44
-1.1296300888061523 2.356663703918457 -0.2252979427576065 44
-1.1276336908340454 2.3535523414611816 -0.13431663811206818 44
-1.1220929622650146 2.3430373668670654 -0.044231779873371124 44
-1.1342849731445312 2.3695569038391113 0.693183183670044 44
-1.1373236179351807 2.3769702911376953 0.5990413427352905 44
-1.1283047199249268 2.359178304672241 0.5004238486289978 44
-1.1326183080673218 2.369259834289551 0.4094066023826599 44
-1.120544195175171 2.3450543880462646 0.3144228756427765 44
-1.1327787637710571 2.371722936630249 0.22660492360591888 44
-1.126487374305725 2.359609365463257 0.13502676784992218 44
-1.1123579740524292 2.331059217453003 0.04441636800765991 44
-0.8427568078041077 1.7700550556182861 -0.5150501132011414 119
-0.9710947871208191 2.040522813796997 -0.5128887295722961 119
-1.1381200551986694 2.3925626277923584 -0.507096529006958 119
-1.1233816146850586 2.362642288208008 -0.40829429030418396 119
-1.1326721906661987 2.383254289627075 -0.31929802894592285 44
-1.1192595958709717 2.356093168258667 -0.22486215829849243 44
-1.1151279211044312 2.3484532833099365 -0.13379502296447754 44
-1.111763834953308 2.342423677444458 -0.04414539039134979 44
-1.123936653137207 2.369138479232788 0.6918899416923523 44
-1.1248446702957153 2.372121572494507 0.596793532371521 44
-1.1158581972122192 2.354231834411621 0.4985174834728241 44
-1.1222267150878906 2.3687360286712646 0.4086253046989441 44
-1.1102275848388672 2.3444664478302 0.31381356716156006 44
-1.1202309131622314 2.3666579723358154 0.22573336958885193 44
-1.1161085367202759 2.359013557434082 0.13476508855819702 44
-1.0999398231506348 2.3258893489837646 0.04424184560775757 44
-0.8365730047225952 1.7729860544204712 -0.5150501132011414 119
-0.9639661312103271 2.04390025138855 -0.5128887295722961 119
-1.1297615766525269 2.3965206146240234 -0.507096529006958 119
-1.1109176874160767 2.357614755630493 -0.40672993659973145 119
-1.1201170682907104 2.3782143592834473 -0.3180793225765228 44
-1.1067854166030884 2.350972890853882 -0.22399060428142548 44
-1.1047972440719604 2.347813129425049 -0.13353420794010162 44
-1.0993249416351318 2.337242603302002 -0.04397260770201683 44
-1.1115500926971436 2.3643054962158203 0.689303457736969 44
-1.1124132871627808 2.3672144412994385 0.5945457220077515 44
-1.1055469512939453 2.3536698818206787 0.49756428599357605 44
-1.1118525266647339 2.368168354034424 0.4078439772129059 44
-1.0978204011917114 2.3393421173095703 0.31259486079216003 44
-1.1098476648330688 2.366044759750366 0.22529760003089905 44
-1.1036279201507568 2.353853464126587 0.1342417299747467 44
-1.0896928310394287 2.325187921524048 0.044154584407806396 44
-0.8324247598648071 1.7802704572677612 -0.5163442492485046 119
-0.9568257331848145 2.047252655029297 -0.5128887295722961 119
-1.1213892698287964 2.400449752807617 -0.507096529006958 119
-1.1005918979644775 2.3570034503936768 -0.4059477746486664 119
-1.107610821723938 2.3731155395507812 -0.3168606460094452 44
-1.0964664220809937 2.3503081798553467 -0.2235548347234726 44
-1.0944850444793701 2.347130060195923 -0.1332733929157257 44
-1.0890477895736694 2.3365345001220703 -0.0438862219452858 44
-1.1012506484985352 2.363792896270752 0.6880101561546326 44
-1.1000300645828247 2.3622498512268066 0.5922979116439819 44
-1.093181848526001 2.3486146926879883 0.49565789103507996 44
-1.0994127988815308 2.363079786300659 0.40628135204315186 44
-1.0875552892684937 2.33866024017334 0.31198549270629883 44
-1.0994822978973389 2.365387439727783 0.22486181557178497 44
-1.0933008193969727 2.353163003921509 0.13398003578186035 44
-1.0794639587402344 2.3244431018829346 0.044067323207855225 44
-0.8262053728103638 1.7831653356552124 -0.5163442492485046 119
-0.949673593044281 2.0505800247192383 -0.5128887295722961 119
-1.115065336227417 2.408803939819336 -0.508049726486206 119
-1.0902838706970215 2.356348752975464 -0.40516558289527893 119
-1.0972373485565186 2.3724632263183594 -0.31625130772590637 44
-1.0840753316879272 2.345078468322754 -0.22268325090408325 44
-1.0820964574813843 2.3418707847595215 -0.13275177776813507 44
-1.0787888765335083 2.335783004760742 -0.04379982873797417 44
-1.0889440774917603 2.3588523864746094 0.6854236721992493 44
-1.0876951217651367 2.3572278022766113 0.5900501012802124 44
-1.0829213857650757 2.347959518432617 0.4947047531604767 44
-1.0870224237442017 2.357933282852173 0.4047187566757202 44
-1.0752314329147339 2.333427667617798 0.3107668161392212 44
-1.0891351699829102 2.364686965942383 0.2244260460138321 44
-1.0829919576644897 2.3524293899536133 0.1337183564901352 44
-1.0671640634536743 2.3191142082214355 0.04389279708266258 44
-0.8216785192489624 1.7905710935592651 -0.5176383256912231 119
-0.9421514868736267 2.054046869277954 -0.5128887295722961 119
-1.1062291860580444 2.412874698638916 -0.508049726486206 119
-1.0775253772735596 2.3513500690460205 -0.4036012589931488 119
-1.08440101146698 2.3674449920654297 -0.31503260135650635 44
-1.073399543762207 2.3445072174072266 -0.22224748134613037 44
-1.0714280605316162 2.341280937194824 -0.13249097764492035 44
-1.0681411027908325 2.335175037384033 -0.043713439255952835 44
-1.0762745141983032 2.3540425300598145 0.682837188243866 44
-1.074997901916504 2.3523359298706055 0.5878022909164429 44
-1.0722689628601074 2.3474481105804443 0.49375152587890625 44
-1.0763217210769653 2.3574090003967285 0.4039374589920044 44
-1.0646113157272339 2.3328380584716797 0.31015744805336 44
-1.0763264894485474 2.3595993518829346 0.22355449199676514 44
-1.0722912549972534 2.351840019226074 0.13345667719841003 44
-1.0565837621688843 2.3184609413146973 0.04380553960800171 44
-0.8154232501983643 1.7934284210205078 -0.5176383256912231 119
-0.934975802898407 2.0573232173919678 -0.5128887295722961 119
-1.087649941444397 2.3943772315979004 -0.5032837390899658 119
-1.0672695636749268 2.3506007194519043 -0.40281909704208374 119
-1.0740796327590942 2.36669659614563 -0.31442326307296753 44
-1.0631513595581055 2.3437037467956543 -0.2218116968870163 44
-1.0611870288848877 2.340458869934082 -0.13223016262054443 44
-1.0558559894561768 2.329782485961914 -0.04354066029191017 44
-1.0640649795532227 2.3489861488342285 0.6802506446838379 44
-1.0627610683441162 2.3471975326538086 0.5855544805526733 44
-1.060020923614502 2.342233419418335 0.49184516072273254 44
-1.06401526927948 2.3521523475646973 0.40237483382225037 44
-1.0544171333312988 2.3320181369781494 0.30954810976982117 44
-1.0660320520401 2.3588030338287354 0.22311870753765106 44
-1.0599641799926758 2.3464677333831787 0.13293331861495972 44
-1.046420931816101 2.3175811767578125 0.04371827468276024 44
-0.8111416697502136 1.8006671667099 -0.5189324021339417 119
-0.9297888278961182 2.065016508102417 -0.5140134692192078 119
-1.0712279081344604 2.3802554607391357 -0.4994710087776184 119
-1.0570318698883057 2.3498079776763916 -0.4020369052886963 119
-1.0617414712905884 2.3613789081573486 -0.3132045567035675 44
-1.0508803129196167 2.3383142948150635 -0.22094014286994934 44
-1.0489187240600586 2.3350393772125244 -0.1317085474729538 44
-1.045669436454773 2.3288931846618652 -0.04345426708459854 44
-1.0519039630889893 2.3438732624053955 0.6776641607284546 44
-1.0525672435760498 2.346447467803955 0.5844305753707886 44
-1.049830436706543 2.3414406776428223 0.4908919930458069 44
-1.0537785291671753 2.3513455390930176 0.40159350633621216 44
-1.046270489692688 2.3356845378875732 0.30954810976982117 44
-1.0537209510803223 2.3534176349639893 0.2222471386194229 44
-1.0497273206710815 2.3455958366394043 0.13267163932323456 44
-1.0362895727157593 2.3166537284851074 0.04363101348280907 44
-0.8048511743545532 1.8034876585006714 -0.5189324021339417 119
-0.9225748777389526 2.068249464035034 -0.5140134692192078 119
-1.05691659450531 2.3705317974090576 -0.49661147594451904 119
-1.046812891960144 2.3489725589752197 -0.4012547433376312 119
-1.0514729022979736 2.360537528991699 -0.3125952184200287 44
-1.0406856536865234 2.3374178409576416 -0.22050437331199646 44
-1.038731575012207 2.33412504196167 -0.13144773244857788 44
-1.0355019569396973 2.3279614448547363 -0.04336788132786751 44
-1.039791464805603 2.3387041091918945 0.6750776767730713 44
-1.0404130220413208 2.341202974319458 0.582182765007019 44
-1.0376659631729126 2.3361196517944336 0.4889856278896332 44
-1.041556477546692 2.345982074737549 0.40003088116645813 44
-1.0421369075775146 2.3483946323394775 0.3107668161392212 44
-1.0434799194335938 2.3525283336639404 0.22181135416030884 44
-1.039509654045105 2.3446812629699707 0.1324099600315094 44
-1.0241458415985107 2.3111157417297363 0.04345649108290672 44
-0.7965981960296631 1.8018689155578613 -0.5176383256912231 119
-0.9173189401626587 2.075913667678833 -0.5151382088661194 119
-1.0407030582427979 2.3562469482421875 -0.49279871582984924 119
-1.0346180200576782 2.343576431274414 -0.3996903598308563 119
-1.041223168373108 2.3596529960632324 -0.31198588013648987 44
-1.0305101871490479 2.3364787101745605 -0.2200685739517212 44
-1.0285632610321045 2.333167314529419 -0.13118691742420197 44
-1.023337960243225 2.3224122524261475 -0.043195098638534546 44
-1.0296748876571655 2.3378994464874268 0.6737844347953796 44
-1.0302715301513672 2.3403613567352295 0.5810588598251343 44
-1.0255513191223145 2.330742120742798 0.4870792031288147 44
-1.0313729047775269 2.3450827598571777 0.3992495536804199 44
-1.0359302759170532 2.3565611839294434 0.31137615442276 44
-1.0312541723251343 2.3470358848571777 0.22093980014324188 44
-1.0293110609054565 2.343723773956299 0.13214828073978424 44
-1.014062762260437 2.310098886489868 0.04336922615766525 44
-0.7903035879135132 1.8046386241912842 -0.5176383256912231 119
-0.9100670218467712 2.0791029930114746 -0.5151382088661194 119
-1.0285371541976929 2.3508718013763428 -0.49089235067367554 119
-1.024452567100525 2.342649221420288 -0.39890819787979126 119
-1.0290049314498901 2.3541784286499023 -0.31076717376708984 44
-1.0183597803115845 2.330933094024658 -0.21919701993465424 44
-1.0184146165847778 2.332167863845825 -0.13092611730098724 44
-1.0132249593734741 2.3213882446289062 -0.043108709156513214 44
-1.017645239830017 2.3326256275177 0.6711979508399963 44
-1.0182009935379028 2.3350114822387695 0.5788110494613647 44
-1.0154482126235962 2.329808235168457 0.48612603545188904 44
-1.0192358493804932 2.339613437652588 0.3976869285106659 44
-1.0296794176101685 2.364713191986084 0.31198549270629883 44
-1.0210676193237305 2.3460543155670166 0.220504030585289 44
-1.0191317796707153 2.3427236080169678 0.13188660144805908 44
-1.0039994716644287 2.309040069580078 0.04328196495771408 44
-0.782077431678772 1.8029555082321167 -0.5163442492485046 119
-0.9047419428825378 2.0867366790771484 -0.516262948513031 119
-1.0183731317520142 2.3499441146850586 -0.4899391233921051 119
-1.0143059492111206 2.341679334640503 -0.3981260061264038 0
-1.018809199333191 2.3532018661499023 -0.31015780568122864 44
-1.0082390308380127 2.329902410507202 -0.21876125037670135 44
-1.0082852840423584 2.331125497817993 -0.13066530227661133 44
-1.0031318664550781 2.320322275161743 -0.04302231967449188 44
-1.0075806379318237 2.3317298889160156 0.6699046492576599 44
-1.0081123113632202 2.334078788757324 0.57768714427948 44
-1.0034186840057373 2.3243260383605957 0.48421967029571533 44
-1.0091063976287842 2.338622570037842 0.39690566062927246 44
-1.0233840942382812 2.372849941253662 0.31259486079216003 44
-1.0109002590179443 2.3450300693511963 0.22006824612617493 44
-1.0069962739944458 2.3370957374572754 0.13136324286460876 44
-0.9939558506011963 2.307939052581787 0.04319470375776291 44
-0.7757792472839355 1.8056745529174805 -0.5163442492485046 119
-0.895530104637146 2.0854058265686035 -0.5151382088661194 119
-1.0062922239303589 2.34446382522583 -0.4880327582359314 119
-1.0041788816452026 2.340667247772217 -0.39734387397766113 0
-1.0086331367492676 2.3521828651428223 -0.3095484673976898 44
-0.9961755871772766 2.3242509365081787 -0.2178896963596344 44
-0.998175859451294 2.3300411701202393 -0.1304045021533966 44
-0.9930585026741028 2.3192138671875 -0.04293592646718025 44
-0.997534990310669 2.3307926654815674 0.6686114072799683 44
-0.998042643070221 2.333104372024536 0.5765632390975952 44
-0.993369460105896 2.323301315307617 0.4832664430141449 44
-0.9970553517341614 2.3330483436584473 0.39534303545951843 44
-1.0131456851959229 2.3718440532684326 0.31198549270629883 44
-1.0007526874542236 2.343963861465454 0.21963247656822205 44
-0.9968724250793457 2.3360040187835693 0.1311015635728836 44
-0.9839321970939636 2.306796073913574 0.04310744255781174 44
-0.767580509185791 1.8039275407791138 -0.5150501132011414 119
-0.8863384127616882 2.084035634994507 -0.5140134692192078 119
-0.9961821436882019 2.343445062637329 -0.48707953095436096 119
-0.9921398162841797 2.3350677490234375 -0.3957795202732086 0
-0.9984763264656067 2.351121187210083 -0.308939129114151 44
-0.9861100912094116 2.323129177093506 -0.21745391190052032 44
-0.9880862236022949 2.3289146423339844 -0.1301436871290207 44
-0.9830052256584167 2.318063974380493 -0.04284954071044922 44
-0.9875080585479736 2.3298134803771973 0.6673181653022766 44
-0.9860913157463074 2.327601432800293 0.5743153691291809 44
-0.983339786529541 2.322235107421875 0.48231327533721924 44
-0.9869805574417114 2.3319664001464844 0.3945617079734802 44
-1.0029265880584717 2.370795488357544 0.31137615442276 44
-0.990624725818634 2.3428547382354736 0.21919669210910797 44
-0.986768364906311 2.3348703384399414 0.13083988428115845 44
-0.9739285707473755 2.3056113719940186 0.04302017763257027 44
-0.7612789869308472 1.806595802307129 -0.5150501132011414 119
-0.8771674036979675 2.082627058029175 -0.5128887295722961 119
-0.9860915541648865 2.3423843383789062 -0.4861263632774353 119
-0.9820675849914551 2.3339648246765137 -0.39499732851982117 0
-0.986415445804596 2.3454430103302 -0.307720422744751 44
-0.9760646820068359 2.3219656944274902 -0.21701814234256744 44
-0.976082444190979 2.3231427669525146 -0.12962207198143005 44
-0.9729719161987305 2.3168716430664062 -0.04276314750313759 44
-0.9775001406669617 2.3287930488586426 0.666024923324585 44
-0.9760756492614746 2.3265368938446045 0.5731915235519409 44
-0.9714314937591553 2.3166005611419678 0.48040691018104553 44
-0.9769254326820374 2.3308427333831787 0.3937804102897644 44
-0.9927273392677307 2.369704484939575 0.3107668161392212 44
-0.9805169105529785 2.3417038917541504 0.2187609225511551 44
-0.9766844511032104 2.3336944580078125 0.1305782049894333 44
-0.9620161652565002 2.2997729778289795 0.04284565523266792 44
-0.7549681663513184 1.8092421293258667 -0.5150501132011414 119
-0.8680169582366943 2.081179618835449 -0.5117639303207397 119
-0.976020336151123 2.3412816524505615 -0.48517316579818726 119
-0.9720152020454407 2.332820177078247 -0.3942151665687561 0
-0.9763143658638 2.3442907333374023 -0.30711108446121216 44
-0.9660393595695496 2.3207600116729736 -0.21658234298229218 44
-0.9660491943359375 2.3219258785247803 -0.12936127185821533 44
-0.9629590511322021 2.3156378269195557 -0.04267675802111626 44
-0.9675114750862122 2.327730894088745 0.6647316217422485 44
-0.9660793542861938 2.325430393218994 0.5720675587654114 44
-0.9614567160606384 2.315443992614746 0.4794536828994751 44
-0.9668901562690735 2.3296773433685303 0.3929990828037262 44
-0.9806463718414307 2.363987445831299 0.30954810976982117 44
-0.9704290628433228 2.3405113220214844 0.21832512319087982 44
-0.9666208624839783 2.332476854324341 0.13031652569770813 44
-0.9520694613456726 2.2984983921051025 0.04275839403271675 44
-0.7486481070518494 1.8118665218353271 -0.5150501132011414 119
-0.8607469797134399 2.0841970443725586 -0.5117639303207397 119
-0.9640963077545166 2.3356003761291504 -0.48326680064201355 119
-0.9600991606712341 2.327068567276001 -0.392650842666626 0
-0.9662333726882935 2.3430964946746826 -0.30650171637535095 44
-0.9560344219207764 2.3195128440856934 -0.2161465734243393 44
-0.9560363292694092 2.320666790008545 -0.12910045683383942 44
-0.952966570854187 2.3143625259399414 -0.042590368539094925 44
-0.9575421810150146 2.326627731323242 0.6634384393692017 44
-0.9561027884483337 2.3242828845977783 0.5709437131881714 44
-0.9515021443367004 2.314246654510498 0.4785005450248718 44
-0.9568751454353333 2.328470468521118 0.3922177851200104 44
-0.9667319059371948 2.3536243438720703 0.3077200651168823 44
-0.960361659526825 2.3392767906188965 0.21788936853408813 44
-0.9565775394439697 2.3312172889709473 0.13005484640598297 44
-0.9421433806419373 2.297182321548462 0.04267112910747528 44
-0.7423189282417297 1.8144686222076416 -0.5150501132011414 119
-0.8534665107727051 2.087188720703125 -0.5117639303207397 119
-0.9540807604789734 2.3344082832336426 -0.4823136329650879 119
-0.9501027464866638 2.325834035873413 -0.3918686509132385 0
-0.9561726450920105 2.34186053276062 -0.3058924078941345 44
-0.9460499286651611 2.3182239532470703 -0.21571078896522522 44
-0.9441582560539246 2.3147430419921875 -0.12857884168624878 44
-0.9411075711250305 2.3084161281585693 -0.04241758584976196 44
-0.9475921988487244 2.3254828453063965 0.6621451377868652 44
-0.9461460113525391 2.323094129562378 0.5698198080062866 44
-0.9415674805641174 2.3130078315734863 0.4775473177433014 44
-0.9468801617622375 2.327221632003784 0.39143645763397217 44
-0.9547713398933411 2.347790241241455 0.3065013885498047 44
-0.9503145813941956 2.3380002975463867 0.21745356917381287 44
-0.9465548992156982 2.32991623878479 0.1297931671142578 44
-0.9322381615638733 2.2958250045776367 0.04258387163281441 44
-0.7377938628196716 1.8215252161026 -0.5163442492485046 119
-0.8480039238929749 2.0946712493896484 -0.5128887295722961 119
-0.9440852403640747 2.333174228668213 -0.48136040568351746 119
-0.9401267766952515 2.3245580196380615 -0.39108648896217346 0
-0.946132242679596 2.3405826091766357 -0.3052830398082733 44
-0.9360861778259277 2.316894054412842 -0.21527501940727234 44
-0.9342027902603149 2.3133950233459473 -0.12831802666187286 44
-0.9311728477478027 2.307051181793213 -0.04233120009303093 44
-0.9376620054244995 2.3242974281311035 0.6608518362045288 44
-0.9362091422080994 2.321863889694214 0.5686959028244019 44
-0.9316530823707581 2.311728000640869 0.47659415006637573 44
-0.9350603818893433 2.3213508129119873 0.38987383246421814 44
-0.9410099387168884 2.3372981548309326 0.30467334389686584 44
-0.9402881860733032 2.3366823196411133 0.21701779961585999 44
-0.9365530014038086 2.328573703765869 0.12953148782253265 44
-0.9223539233207703 2.294426918029785 0.04249660670757294 44
-0.7314310669898987 1.824089527130127 -0.5163442492485046 119
-0.8406869769096375 2.097618579864502 -0.5128887295722961 119
-0.9341100454330444 2.3318991661071777 -0.4804072380065918 119
-0.9283356666564941 2.3186566829681396 -0.38952213525772095 119
-0.9342687726020813 2.334656000137329 -0.3040643334388733 44
-0.9261432886123657 2.3155226707458496 -0.21483923494815826 44
-0.924268364906311 2.3120052814483643 -0.12805721163749695 44
-0.9212590456008911 2.305645227432251 -0.0422448068857193 44
-0.9259603023529053 2.3185853958129883 0.6582653522491455 44
-0.9244863986968994 2.316068172454834 0.5664480924606323 44
-0.9199403524398804 2.3058481216430664 0.474687784910202 44
-0.9251224994659424 2.3200137615203857 0.3890925645828247 44
-0.9291707277297974 2.331348180770874 0.3034546673297882 44
-0.9321258664131165 2.3399503231048584 0.21701779961585999 44
-0.9265721440315247 2.3271896839141846 0.1292698085308075 44
-0.912490725517273 2.29298734664917 0.04240934178233147 44
-0.7250593304634094 1.8266315460205078 -0.5163442492485046 119
-0.8315631151199341 2.0960116386413574 -0.5117639303207397 119
-0.9223459959030151 2.3260202407836914 -0.4785008728504181 119
-0.9184167981147766 2.317291736602783 -0.3887399435043335 119
-0.924285888671875 2.33328914642334 -0.30345502495765686 44
-0.9162213802337646 2.314110279083252 -0.21440346539020538 44
-0.9143550395965576 2.310574769973755 -0.12779641151428223 44
-0.9095278382301331 2.2995493412017822 -0.04207202419638634 44
-0.9160857796669006 2.317312002182007 0.6569721102714539 44
-0.9146056771278381 2.3147497177124023 0.5653241872787476 44
-0.9100829362869263 2.3044800758361816 0.473734587430954 44
-0.9152052998542786 2.3186349868774414 0.3883112370967865 44
-0.9173846244812012 2.3253445625305176 0.3022359609603882 44
-0.9221250414848328 2.3385560512542725 0.2165820151567459 44
-0.9166122078895569 2.3257644176483154 0.12900812923908234 44
-0.9026490449905396 2.2915072441101074 0.04232208430767059 44
-0.7186788320541382 1.8291513919830322 -0.5163442492485046 119
-0.8242416381835938 2.0989015102386475 -0.5117639303207397 119
-0.9124276638031006 2.3246569633483887 -0.47754764556884766 119
-0.9085188508033752 2.3158862590789795 -0.3879578113555908 119
-0.9143240451812744 2.331881046295166 -0.30284565687179565 44
-0.9063204526901245 2.3126566410064697 -0.2139676809310913 44
-0.904462993144989 2.309103012084961 -0.1275355964899063 44
-0.89967280626297 2.2980549335479736 -0.041985634714365005 44
-0.9062313437461853 2.315997838973999 0.6556788682937622 44
-0.9047456979751587 2.3133909702301025 0.5642002820968628 44
-0.9002464413642883 2.3030714988708496 0.4727814197540283 44
-0.9053090214729309 2.31721568107605 0.3875299394130707 44
-0.9074568748474121 2.3239097595214844 0.301626592874527 44
-0.9212002754211426 2.360321044921875 0.21832512319087982 44
-0.9066736102104187 2.324298143386841 0.12874644994735718 44
-0.892828643321991 2.2899861335754395 0.04223481938242912 44
-0.7122895121574402 1.8316489458084106 -0.5163442492485046 119
-0.8169100284576416 2.1017661094665527 -0.5117639303207397 119
-0.9025302529335022 2.3232524394989014 -0.4765945076942444 119
-0.8986417651176453 2.314439535140991 -0.38717561960220337 119
-0.9043832421302795 2.3304319381713867 -0.30223631858825684 44
-0.8964411020278931 2.3111624717712402 -0.21353191137313843 44
-0.8945924043655396 2.3075907230377197 -0.1272747963666916 44
-0.8898394703865051 2.2965197563171387 -0.041899245232343674 44
-0.8946529030799866 2.3101394176483154 0.6530923247337341 44
-0.894906222820282 2.3119914531707764 0.563076376914978 44
-0.8904306292533875 2.301622152328491 0.4718281924724579 44
-0.895433783531189 2.3157553672790527 0.38674861192703247 44
-0.8975505232810974 2.322434425354004 0.30101728439331055 44
-0.9183399081230164 2.3774616718292236 0.21963247656822205 44
-0.8967564105987549 2.3227908611297607 0.12848477065563202 44
-0.8830299377441406 2.2884249687194824 0.04214755818247795 44
-0.7055714130401611 1.834247350692749 -0.5163442492485046 119
-0.8092012405395508 2.104746103286743 -0.5117639303207397 119
-0.8904879093170166 2.3173813819885254 -0.4746881127357483 119
-0.8883824348449707 2.313107967376709 -0.3863934576511383 119
-0.8922787308692932 2.324465036392212 -0.3010176122188568 44
-0.8843958377838135 2.305131673812866 -0.21266034245491028 44
-0.8843408226966858 2.3061916828155518 -0.12701398134231567 44
-0.8796271085739136 2.295097589492798 -0.04181285202503204 44
-0.8844521641731262 2.3088924884796143 0.6517991423606873 44
-0.8846843242645264 2.3107059001922607 0.5619524717330933 44
-0.8802347183227539 2.300286054611206 0.4708750247955322 44
-0.883411705493927 2.3097963333129883 0.38518598675727844 44
-0.8872601985931396 2.321072816848755 0.30040791630744934 44
-0.9149529933929443 2.3947701454162598 0.22093980014324188 44
-0.8846744894981384 2.316732883453369 0.1279614120721817 44
-0.8728539347648621 2.286975383758545 0.04206029698252678 44
-0.6991643309593201 1.8366990089416504 -0.5163442492485046 119
-0.801849365234375 2.107557773590088 -0.5117639303207397 119
-0.880648672580719 2.315887689590454 -0.47373491525650024 119
-0.878548264503479 2.3115785121917725 -0.38561126589775085 119
-0.8823969960212708 2.3229260444641113 -0.300408273935318 44
-0.8745760917663574 2.3035480976104736 -0.2122245579957962 44
-0.8727422952651978 2.2999277114868164 -0.12649236619472504 44
-0.8680647611618042 2.2888052463531494 -0.04164007306098938 44
-0.8746752142906189 2.3074495792388916 0.6505058407783508 44
-0.8748869299888611 2.3092238903045654 0.5608285665512085 44
-0.8704617023468018 2.2987544536590576 0.4699218273162842 44
-0.873595654964447 2.3082473278045654 0.3844046890735626 44
-0.8756411075592041 2.3148722648620605 0.2991892099380493 44
-0.9083495736122131 2.4026083946228027 0.22137558460235596 44
-0.8765822052955627 2.3198068141937256 0.1279614120721817 44
-0.8630930781364441 2.2853341102600098 0.04197303578257561 44
-0.6927487850189209 1.8391283750534058 -0.5163442492485046 119
-0.7962043285369873 2.114903688430786 -0.5128887295722961 119
-0.8708308935165405 2.3143539428710938 -0.4727817475795746 119
-0.8687356114387512 2.3100087642669678 -0.3848291039466858 119
-0.8725370764732361 2.3213465213775635 -0.2997989356517792 44
-0.8647781014442444 2.3019237518310547 -0.21178877353668213 44
-0.8629535436630249 2.298285722732544 -0.12623155117034912 44
-0.8583135604858398 2.2871410846710205 -0.04155368357896805 44
-0.8649192452430725 2.30596661567688 0.649212658405304 44
-0.8651107549667358 2.307701826095581 0.5597046613693237 44
-0.860710084438324 2.29718279838562 0.4689686596393585 44
-0.8638010025024414 2.306657552719116 0.3836233615875244 44
-0.8658158183097839 2.3132669925689697 0.2985799014568329 44
-0.8964670300483704 2.3964340686798096 0.220504030585289 44
-0.8649819493293762 2.3134984970092773 0.12743805348873138 44
-0.8533667325973511 2.283647298812866 0.04188577085733414 44
-0.6880114674568176 1.8460607528686523 -0.5176383256912231 119
-0.7888170480728149 2.1176700592041016 -0.5128887295722961 119
-0.8610344529151917 2.3127799034118652 -0.47182852029800415 119
-0.8589446544647217 2.308398723602295 -0.38404691219329834 119
-0.8626987934112549 2.3197264671325684 -0.29918956756591797 44
-0.8567376136779785 2.3049285411834717 -0.21178877353668213 44
-0.8531869053840637 2.296603202819824 -0.1259707510471344 44
-0.8485845923423767 2.2854366302490234 -0.041467294096946716 44
-0.8551841974258423 2.304443359375 0.6479193568229675 44
-0.8553557991981506 2.3061397075653076 0.558580756187439 44
-0.8509800434112549 2.2955708503723145 0.4680154621601105 44
-0.8540282845497131 2.305027961730957 0.382842093706131 44
-0.8542889356613159 2.306967258453369 0.29736119508743286 44
-0.8863674998283386 2.3948774337768555 0.22006824612617493 44
-0.8569010496139526 2.3165037631988525 0.12743805348873138 44
-0.843656599521637 2.281923294067383 0.041798509657382965 44
-0.6815633773803711 1.8484511375427246 -0.5176383256912231 119
-0.7814202308654785 2.120410442352295 -0.5128887295722961 119
-0.8512596487998962 2.3111653327941895 -0.4708753526210785 119
-0.8491756319999695 2.306748628616333 -0.38326478004455566 119
-0.8528826832771301 2.3180665969848633 -0.29858022928237915 44
-0.8469676375389099 2.3032302856445312 -0.21135300397872925 44
-0.8434426188468933 2.2948808670043945 -0.12570993602275848 44
-0.8388780355453491 2.2836921215057373 -0.041380904614925385 44
-0.8454704880714417 2.3028807640075684 0.6466261148452759 44
-0.8456223607063293 2.304537534713745 0.5574568510055542 44
-0.8412718772888184 2.293919324874878 0.4670622944831848 44
-0.8442773818969727 2.3033580780029297 0.3820607364177704 44
-0.8428167104721069 2.3006153106689453 0.29614248871803284 44
-0.8762899041175842 2.393279790878296 0.21963247656822205 44
-0.8470937609672546 2.3147919178009033 0.12717635929584503 44
-0.8339687585830688 2.2801592350006104 0.04171124845743179 44
-0.6767618656158447 1.855356216430664 -0.5189324021339417 119
-0.774013876914978 2.1231253147125244 -0.5128887295722961 119
-0.8415066003799438 2.309511184692383 -0.46992215514183044 119
-0.8394285440444946 2.305058479309082 -0.3824825882911682 119
-0.8430885076522827 2.316365957260132 -0.29797086119651794 44
-0.8372198343276978 2.3014917373657227 -0.21091720461845398 44
-0.8320145606994629 2.2884256839752197 -0.12518832087516785 44
-0.8291939496994019 2.281907796859741 -0.041294511407613754 44
-0.835777997970581 2.3012781143188477 0.6453328728675842 44
-0.835910439491272 2.3028955459594727 0.5563329458236694 44
-0.8315855264663696 2.2922277450561523 0.4661090672016144 44
-0.8328651785850525 2.2970054149627686 0.38049814105033875 44
-0.8313992023468018 2.2942118644714355 0.2949237823486328 44
-0.8662341237068176 2.3916404247283936 0.21919669210910797 44
-0.8373088836669922 2.313039541244507 0.12691469490528107 44
-0.8243037462234497 2.278355598449707 0.04162398725748062 44
-0.6702812910079956 1.857707142829895 -0.5189324021339417 119
-0.7649452090263367 2.1212310791015625 -0.5117639303207397 119
-0.8317755460739136 2.307816982269287 -0.4689689874649048 119
-0.829703688621521 2.303328514099121 -0.38170042634010315 119
-0.8333167433738708 2.3146255016326904 -0.2973615527153015 44
-0.8274946808815002 2.299713611602783 -0.2104814499616623 44
-0.8223317265510559 2.2866175174713135 -0.12492751330137253 44
-0.819532573223114 2.280083656311035 -0.04120812565088272 44
-0.8261070847511292 2.299636125564575 0.6440396308898926 44
-0.8262205719947815 2.3012139797210693 0.5552090406417847 44
-0.8219214081764221 2.290496826171875 0.4651558995246887 44
-0.8231747150421143 2.2952497005462646 0.37971681356430054 44
-0.8217113018035889 2.2924282550811768 0.294314444065094 44
-0.856200635433197 2.389960527420044 0.2187609225511551 44
-0.8275465369224548 2.3112471103668213 0.12665300071239471 44
-0.8146613240242004 2.2765119075775146 0.04153672233223915 44
-0.663792610168457 1.8600355386734009 -0.5189324021339417 119
-0.7575361132621765 2.1238882541656494 -0.5117639303207397 119
-0.8220665454864502 2.3060827255249023 -0.46801578998565674 119
-0.8200010061264038 2.301558494567871 -0.3809182345867157 119
-0.8219025135040283 2.3081696033477783 -0.2961428165435791 44
-0.8177921175956726 2.2978954315185547 -0.21004565060138702 44
-0.8126714825630188 2.284769296646118 -0.12466669827699661 44
-0.8098939657211304 2.2782199382781982 -0.04112173244357109 44
-0.8148408532142639 2.2934036254882812 0.6414531469345093 44
-0.8165523409843445 2.299492597579956 0.5540851354598999 44
-0.8122793436050415 2.2887260913848877 0.4642027020454407 44
-0.8135069012641907 2.293454885482788 0.3789355158805847 44
-0.8103878498077393 2.2859277725219727 0.29309576749801636 44
-0.8445259928703308 2.383544921875 0.21788936853408813 44
-0.8178070783615112 2.309415102005005 0.12639133632183075 44
-0.8050419092178345 2.2746291160583496 0.04144946485757828 44
-0.6572958827018738 1.862341284751892 -0.5189324021339417 119
-0.7501177191734314 2.1265196800231934 -0.5117639303207397 119
-0.8123799562454224 2.304309606552124 -0.4670626223087311 119
-0.8103208541870117 2.2997488975524902 -0.38013604283332825 119
-0.8121920824050903 2.3063437938690186 -0.2955334782600403 44
-0.8081122636795044 2.296037435531616 -0.20960988104343414 44
-0.8030344247817993 2.2828822135925293 -0.12440589815378189 44
-0.8002785444259644 2.2763168811798096 -0.04103534296154976 44
-0.8052292466163635 2.2916769981384277 0.6401598453521729 44
-0.8069064021110535 2.297732353210449 0.5529612302780151 44
-0.8026596903800964 2.2869162559509277 0.46324947476387024 44
-0.8038615584373474 2.2916202545166016 0.3781541883945465 44
-0.8007615804672241 2.2840590476989746 0.29248639941215515 44
-0.8312593102455139 2.372375726699829 0.2165820151567459 44
-0.8080904483795166 2.3075432777404785 0.1261296421289444 44
-0.7954455018043518 2.2727065086364746 0.04136219993233681 44
-0.6507910490036011 1.8646243810653687 -0.5189324021339417 119
-0.7426902651786804 2.1291251182556152 -0.5117639303207397 119
-0.8010998368263245 2.2978618144989014 -0.465156227350235 119
-0.800663411617279 2.2978999614715576 -0.3793538808822632 0
-0.8041365146636963 2.3091647624969482 -0.2955334782600403 44
-0.7984554171562195 2.294140100479126 -0.20917409658432007 44
-0.7934202551841736 2.2809553146362305 -0.12414508312940598 44
-0.7906861305236816 2.274374485015869 -0.04094895347952843 44
-0.7956398129463196 2.2899117469787598 0.6388666033744812 44
-0.7956843972206116 2.291330099105835 0.5507134199142456 44
-0.793062686920166 2.285067081451416 0.46229633688926697 44
-0.7942389845848083 2.2897465229034424 0.3773728907108307 44
-0.7911583185195923 2.282151460647583 0.29187706112861633 44
-0.8180812001228333 2.3611438274383545 0.21527469158172607 44
-0.7983968257904053 2.305631637573242 0.12586797773838043 44
-0.7858724594116211 2.270745038986206 0.041274938732385635 44
-0.644278347492218 1.866884708404541 -0.5189324021339417 119
-0.7368422746658325 2.136310338973999 -0.5128887295722961 119
-0.7914743423461914 2.296003818511963 -0.46420302987098694 119
-0.7910287976264954 2.2960116863250732 -0.37857168912887573 0
-0.7944554090499878 2.307265281677246 -0.29492413997650146 44
-0.7872008681297302 2.2874934673309326 -0.2083025425672531 44
-0.7854533791542053 2.2837109565734863 -0.12414508312940598 44
-0.7827423214912415 2.277120590209961 -0.04094895347952843 44
-0.786072313785553 2.288106918334961 0.6375733613967896 44
-0.7860991358757019 2.289485454559326 0.5495895147323608 44
-0.7834883332252502 2.2831788063049316 0.46134310960769653 44
-0.784639298915863 2.2878334522247314 0.3765915632247925 44
-0.7815781831741333 2.2802047729492188 0.2912676930427551 44
-0.8033772706985474 2.3451364040374756 0.21353158354759216 44
-0.7887263894081116 2.303680658340454 0.12560628354549408 44
-0.7763227820396423 2.268744707107544 0.041187677532434464 44
-0.6377577781677246 1.8691222667694092 -0.5189324021339417 119
-0.72938072681427 2.138869285583496 -0.5128887295722961 119
-0.781871497631073 2.2941062450408936 -0.4632498025894165 119
-0.7814170718193054 2.2940845489501953 -0.37778955698013306 0
-0.7847973704338074 2.305326461791992 -0.29431480169296265 44
-0.7792112231254578 2.2902274131774902 -0.2083025425672531 44
-0.7758695483207703 2.2817115783691406 -0.12388427555561066 44
-0.773180365562439 2.2751057147979736 -0.040862563997507095 44
-0.7765272855758667 2.2862637042999268 0.6362801194190979 44
-0.7749704122543335 2.2829885482788086 0.5473417043685913 44
-0.773936927318573 2.281251907348633 0.4603899419307709 44
-0.7750627398490906 2.285881519317627 0.37581026554107666 44
-0.7720212936401367 2.2782187461853027 0.2906583845615387 44
-0.7919906973838806 2.3384909629821777 0.212660014629364 44
-0.7774785757064819 2.2969605922698975 0.12508292496204376 44
-0.7683987021446228 2.2714405059814453 0.041187677532434464 44
-0.6296858191490173 1.8667608499526978 -0.5176383256912231 119
-0.7219102382659912 2.14140248298645 -0.5128887295722961 119
-0.7722917199134827 2.292170524597168 -0.46229663491249084 119
-0.7718284726142883 2.2921178340911865 -0.3770073652267456 0
-0.7751625776290894 2.3033483028411865 -0.29370543360710144 44
-0.7696242332458496 2.288212537765503 -0.20786677300930023 44
-0.7663090825080872 2.279672861099243 -0.12362346053123474 44
-0.765234112739563 2.2777910232543945 -0.040862563997507095 44
-0.767004668712616 2.284381866455078 0.6349868178367615 44
-0.7654466032981873 2.2810606956481934 0.5462177991867065 44
-0.7659691572189331 2.2839395999908447 0.4603899419307709 44
-0.7655091881752014 2.28389048576355 0.37502893805503845 44
-0.7624876499176025 2.276193857192993 0.2900490164756775 44
-0.7822416424751282 2.336517810821533 0.21222423017024994 44
-0.7678715586662292 2.2949254512786865 0.1248212531208992 44
-0.7588797807693481 2.2693679332733154 0.04110041633248329 44
-0.6231657862663269 1.8689475059509277 -0.5176383256912231 119
-0.712890625 2.139286994934082 -0.5117639303207397 119
-0.7627348303794861 2.2901952266693115 -0.4613434374332428 119
-0.7622631788253784 2.290112257003784 -0.37622520327568054 44
-0.7655512094497681 2.3013312816619873 -0.2930960953235626 44
-0.7600606679916382 2.2861580848693848 -0.20743097364902496 44
-0.756772518157959 2.2775955200195312 -0.12336266040802002 44
-0.7557029128074646 2.2757036685943604 -0.040776170790195465 44
-0.7575046420097351 2.282461166381836 0.6336936354637146 44
-0.7559457421302795 2.279094696044922 0.5450938940048218 44
-0.7564475536346436 2.281940221786499 0.4594367444515228 44
-0.7559792399406433 2.281860828399658 0.37424764037132263 44
-0.7529777884483337 2.2741308212280273 0.28943967819213867 44
-0.772516131401062 2.334505319595337 0.21178844571113586 44
-0.7582882642745972 2.292851209640503 0.12455956637859344 44
-0.7493845820426941 2.267256259918213 0.04101315140724182 44
-0.6151264905929565 1.8665244579315186 -0.5163442492485046 119
-0.7054188251495361 2.1417624950408936 -0.5117639303207397 119
-0.7532013058662415 2.288181781768799 -0.46039026975631714 119
-0.7527211904525757 2.2880678176879883 -0.3754430115222931 44
-0.7559633851051331 2.2992749214172363 -0.2924867272377014 44
-0.7505210041999817 2.2840654850006104 -0.20699521899223328 44
-0.7472596764564514 2.2754790782928467 -0.1231018453836441 44
-0.7461956143379211 2.2735776901245117 -0.04068978503346443 44
-0.7480274438858032 2.2805020809173584 0.6324003338813782 44
-0.7449502944946289 2.2724602222442627 0.5428460836410522 44
-0.7469494342803955 2.279902458190918 0.45848357677459717 44
-0.7464726567268372 2.279792070388794 0.3734663128852844 44
-0.743491530418396 2.2720284461975098 0.28883031010627747 44
-0.7628142237663269 2.332453489303589 0.21135267615318298 44
-0.74872887134552 2.290738105773926 0.12429789453744888 44
-0.7414658665657043 2.2698583602905273 0.04101315140724182 44
-0.6086073517799377 1.8686602115631104 -0.5163442492485046 119
-0.696430504322052 2.1395792961120605 -0.5106391906738281 119
-0.743691086769104 2.2861292362213135 -0.4594370722770691 119
-0.7432029843330383 2.285985231399536 -0.374660849571228 44
-0.7463992238044739 2.297179937362671 -0.291877418756485 44
-0.7410051822662354 2.2819337844848633 -0.206559419631958 44
-0.7377709746360779 2.273324489593506 -0.12284104526042938 44
-0.7382548451423645 2.2761685848236084 -0.04068978503346443 44
-0.7385731339454651 2.2785050868988037 0.6311070919036865 44
-0.735511839389801 2.270411729812622 0.5417221784591675 44
-0.7374745607376099 2.2778260707855225 0.45753034949302673 44
-0.7385101318359375 2.282383918762207 0.3734663128852844 44
-0.7340291738510132 2.269887924194336 0.28822100162506104 44
-0.7516041994094849 2.325622797012329 0.21048112213611603 44
-0.7391934990882874 2.288586139678955 0.12403620779514313 44
-0.7320023775100708 2.2676751613616943 0.04092589020729065 44
-0.6020808219909668 1.8707733154296875 -0.5163442492485046 119
-0.6874659061431885 2.137359380722046 -0.5095144510269165 119
-0.7342044115066528 2.284038543701172 -0.45848390460014343 119
-0.7321978807449341 2.2791619300842285 -0.3730964958667755 44
-0.7368589043617249 2.295046091079712 -0.2912680506706238 44
-0.7315134406089783 2.27976393699646 -0.20612365007400513 44
-0.7283063530921936 2.2711312770843506 -0.12258023023605347 44
-0.7287792563438416 2.27397084236145 -0.0406033918261528 44
-0.729141891002655 2.2764694690704346 0.6298138499259949 44
-0.7260968685150146 2.2683253288269043 0.5405982732772827 44
-0.7280235290527344 2.27571177482605 0.45657721161842346 44
-0.7290347218513489 2.2802441120147705 0.372685045003891 44
-0.7245908379554749 2.2677090167999268 0.28761163353919983 44
-0.7404512763023376 2.318742275238037 0.20960956811904907 44
-0.7312003374099731 2.2911527156829834 0.12403620779514313 44
-0.7240822315216064 2.270216703414917 0.04092589020729065 44
-0.5955469012260437 1.872863531112671 -0.5163442492485046 119
-0.678525447845459 2.135103225708008 -0.5083897113800049 119
-0.7262271046638489 2.2865874767303467 -0.45848390460014343 119
-0.722743570804596 2.2769968509674072 -0.37231430411338806 44
-0.7273426651954651 2.2928738594055176 -0.29065871238708496 44
-0.7220458984375 2.277555227279663 -0.20568786561489105 44
-0.7188660502433777 2.26889967918396 -0.12231942266225815 44
-0.7193280458450317 2.2717349529266357 -0.04051700234413147 44
-0.7211911082267761 2.279000759124756 0.6298138499259949 44
-0.7167053818702698 2.266200542449951 0.539474368095398 44
-0.7185961008071899 2.273559093475342 0.455623984336853 44
-0.7195832133293152 2.2780656814575195 0.3719037175178528 44
-0.7166706323623657 2.2702245712280273 0.28761163353919983 44
-0.7293556332588196 2.31181263923645 0.20873799920082092 44
-0.7216967344284058 2.288928985595703 0.12377453595399857 44
-0.7146507501602173 2.2679619789123535 0.04083862900733948 44
-0.5890057682991028 1.87493097782135 -0.5163442492485046 119
-0.6696090698242188 2.132810354232788 -0.5072649121284485 119
