# .PCD v0.7 - Point Cloud Data file format
VERSION 0.7
FIELDS x y z intensity
SIZE 4 4 4 4
TYPE F F F F
COUNT 1 1 1 1
WIDTH 811
HEIGHT 1
VIEWPOINT 0 0 0 1 0 0 0
POINTS 811
DATA ascii
-1.2151697874069214 -3.6402039527893066 0.06631913781166077 116
-0.6269816756248474 -1.8727645874023438 -0.5189324021339417 119
-0.7286296486854553 -2.175121307373047 -0.520762026309967 119
-0.8825598955154419 -2.6331112384796143 -0.5318794250488281 119
-0.9637393951416016 -2.873645305633545 -0.4739968180656433 115
-0.9705024361610413 -2.892136335372925 -0.36987385153770447 115
-1.0664868354797363 -3.176335573196411 -0.2897932827472687 116
-1.118923544883728 -3.3305823802948 -0.18152306973934174 115
-1.133592128753662 -3.3722949028015137 -0.06081869825720787 115
-2.4711391925811768 -7.3470845222473145 2.065323829650879 118
nan nan nan 0
-1.7712291479110718 -5.260064601898193 1.0704303979873657 116
-1.6789315938949585 -4.983090877532959 0.8258450031280518 116
-1.4992977380752563 -4.44736909866333 0.5715672373771667 116
-1.4211657047271729 -4.21317720413208 0.3856641352176666 116
-1.3407193422317505 -3.9723968505859375 0.21771757304668427 116
-1.229468584060669 -3.640676259994507 0.06640639901161194 116
-0.633514940738678 -1.870564579963684 -0.5189324021339417 119
-0.7346542477607727 -2.1679506301879883 -0.5196372270584106 119
-0.8933219313621521 -2.6346628665924072 -0.5328326225280762 119
-0.9737644791603088 -2.8702638149261475 -0.4739968180656433 115
-0.9821870923042297 -2.893430471420288 -0.3704832196235657 115
-1.0775678157806396 -3.172593355178833 -0.2897932827472687 116
-1.1289360523223877 -3.3219287395477295 -0.18126225471496582 115
-1.1469662189483643 -3.3730504512786865 -0.0609050877392292 116
-1.9476090669631958 -5.724339485168457 1.608805775642395 117
-1.963952660560608 -5.769073486328125 1.397013783454895 117
-1.7895795106887817 -5.253849983215332 1.0704303979873657 117
-1.7042813301086426 -5.000572204589844 0.8297516107559204 116
-1.5148128271102905 -4.442108631134033 0.5715672373771667 116
-1.4358638525009155 -4.208190441131592 0.3856641352176666 116
-1.35619056224823 -3.9724178314208984 0.21797925233840942 116
-1.247017502784729 -3.650554895401001 0.06666819006204605 116
-0.6400406360626221 -1.8683418035507202 -0.5189324021339417 119
-0.7422173023223877 -2.1653730869293213 -0.5196372270584106 119
-0.9041054844856262 -2.636171579360962 -0.5337858200073242 119
-0.9837775826454163 -2.866847276687622 -0.4739968180656433 115
-0.9922811388969421 -2.889984369277954 -0.3704832196235657 115
-1.0886355638504028 -3.1688127517700195 -0.2897932827472687 116
-1.138901710510254 -3.3132457733154297 -0.1810014545917511 115
-1.1587332487106323 -3.3690261840820312 -0.0609050877392292 116
-1.9644356966018677 -5.708372592926025 1.6062192916870117 117
-1.9793199300765991 -5.748363494873047 1.3936420679092407 117
-1.8095067739486694 -5.252212047576904 1.0713835954666138 117
-1.7217262983322144 -4.994592666625977 0.8297516107559204 116
-1.5303095579147339 -4.436793804168701 0.5715672373771667 116
-1.4505444765090942 -4.203152656555176 0.3856641352176666 116
-1.3700486421585083 -3.9676597118377686 0.21797925233840942 116
-1.2630178928375244 -3.655630111694336 0.0668427124619484 116
-0.6465584635734558 -1.8660962581634521 -0.5189324021339417 119
-0.7497713565826416 -2.162768840789795 -0.5196372270584106 119
-0.9149104356765747 -2.63763689994812 -0.5347390174865723 119
-0.9937788248062134 -2.8633956909179688 -0.4739968180656433 115
-1.0039910078048706 -2.891191005706787 -0.3710925579071045 115
-1.0996901988983154 -3.1649935245513916 -0.2897932827472687 115
-1.1471809148788452 -3.2998173236846924 -0.18047983944416046 115
-1.170486330986023 -3.3649609088897705 -0.0609050877392292 115
nan nan nan 0
-1.9128516912460327 -5.492962837219238 1.3329511880874634 117
-1.8278294801712036 -5.245863437652588 1.0713835954666138 117
-1.7424017190933228 -4.9978790283203125 0.8313141465187073 117
-1.5457873344421387 -4.431425094604492 0.5715672373771667 116
-1.4668487310409546 -4.2027668952941895 0.3860999345779419 116
-1.3838900327682495 -3.962853193283081 0.21797925233840942 116
-1.2807177305221558 -3.6653575897216797 0.06710450351238251 116
-0.6549915671348572 -1.8682717084884644 -0.5202265381813049 119
-0.756080687046051 -2.155409097671509 -0.518512487411499 119
-0.9261972308158875 -2.638897180557251 -0.5356922149658203 119
-1.0042669773101807 -2.859734058380127 -0.4739968180656433 115
-1.0145809650421143 -2.8874919414520264 -0.3710925579071045 115
-1.1112831830978394 -3.1609413623809814 -0.2897932827472687 115
-1.1559537649154663 -3.28617000579834 -0.17995820939540863 115
-1.1828117370605469 -3.3606481552124023 -0.0609050877392292 115
-1.862451434135437 -5.288718223571777 1.4911198616027832 117
-1.8811602592468262 -5.338870525360107 1.2969863414764404 117
-1.8388843536376953 -5.2159833908081055 1.066617727279663 117
-1.760708212852478 -4.991458892822266 0.8313141465187073 117
-1.5636703968048096 -4.430408954620361 0.5721765160560608 116
-1.4822428226470947 -4.197361946105957 0.3860999345779419 116
-1.3984054327011108 -3.957754373550415 0.21797925233840942 116
-1.2974759340286255 -3.6700656414031982 0.06727902591228485 115
-0.6598952412605286 -1.861421823501587 -0.5189324021339417 119
-0.7652285099029541 -2.157348394393921 -0.5196372270584106 119
-0.937044620513916 -2.6402735710144043 -0.5366453528404236 119
-1.014243245124817 -2.8562111854553223 -0.4739968180656433 115
-1.0246540307998657 -2.8839328289031982 -0.3710925579071045 115
-1.1239784955978394 -3.161736488342285 -0.29022908210754395 115
-1.1674176454544067 -3.2821149826049805 -0.17995820939540863 115
-1.1962114572525024 -3.3612091541290283 -0.06099148094654083 115
-1.8598387241363525 -5.223034858703613 1.4743075370788574 117
-1.8572711944580078 -5.212944984436035 1.2677648067474365 117
-1.8422473669052124 -5.1679229736328125 1.0580389499664307 117
-1.7781208753585815 -4.985282897949219 0.8313141465187073 117
-1.580794095993042 -4.429597854614258 0.5727858543395996 117
-1.4985603094100952 -4.196854114532471 0.38653573393821716 115
-1.4138919115066528 -3.9575510025024414 0.21824093163013458 116
-1.3119679689407349 -3.6702191829681396 0.06736628711223602 115
-0.6628066897392273 -1.8501300811767578 -0.5163442492485046 119
-0.7723782658576965 -2.154798984527588 -0.5196372270584106 119
-0.9424810409545898 -2.6279115676879883 -0.5347390174865723 119
-1.0237091779708862 -2.852832078933716 -0.4739968180656433 115
-1.0342118740081787 -2.880519151687622 -0.3710925579071045 115
-1.134456992149353 -3.157991886138916 -0.29022908210754395 115
-1.1833618879318237 -3.2923223972320557 -0.18074063956737518 115
-1.2073510885238647 -3.3572237491607666 -0.06099148094654083 115
-1.7773977518081665 -4.93961763381958 1.3954192399978638 117
-1.8497925996780396 -5.137997150421143 1.250906229019165 117
-1.8760089874267578 -5.207963943481445 1.0675709247589111 117
-1.756129264831543 -4.872499942779541 0.8133440613746643 117
-1.5971579551696777 -4.428999900817871 0.5733952522277832 117
-1.514159917831421 -4.196547031402588 0.38697150349617004 115
-1.427007794380188 -3.952840805053711 0.21824093163013458 115
-1.3241254091262817 -3.6658506393432617 0.06736628711223602 115
-0.6659714579582214 -1.8387233018875122 -0.5137560367584229 119
-0.7815551161766052 -2.156670093536377 -0.520762026309967 119
-0.9466291069984436 -2.610762357711792 -0.5318794250488281 119
-1.0353453159332275 -2.8538835048675537 -0.4747789800167084 115
-1.0442603826522827 -2.8768913745880127 -0.3710925579071045 115
-1.1471738815307617 -3.158694267272949 -0.2906648516654968 115
-1.1999629735946655 -3.302250623703003 -0.18152306973934174 115
-1.2190626859664917 -3.3529887199401855 -0.06099148094654083 115
-1.733538269996643 -4.765445709228516 1.3475688695907593 117
-1.7943973541259766 -4.93006706237793 1.2014544010162354 117
-1.7766087055206299 -4.878543853759766 1.0008476972579956 117
-1.8086316585540771 -4.963783264160156 0.8297516107559204 117
-1.6143081188201904 -4.428060531616211 0.574004590511322 117
-1.5287994146347046 -4.1912360191345215 0.38697150349617004 115
-1.440797209739685 -3.947835683822632 0.21824093163013458 115
-1.3386282920837402 -3.6659023761749268 0.0674535483121872 115
nan nan nan 0
-0.7907543778419495 -2.158503293991089 -0.5218867659568787 119
-0.9523582458496094 -2.5982253551483154 -0.5299730896949768 119
-1.045300841331482 -2.850252151489258 -0.4747789800167084 115
-1.056005835533142 -2.8778879642486572 -0.3717019259929657 115
-1.158192753791809 -3.1546707153320312 -0.2906648516654968 115
-1.218369483947754 -3.3167898654937744 -0.182566300034523 115
-1.232483983039856 -3.353405475616455 -0.061077866703271866 115
-1.7001535892486572 -4.623372554779053 1.3087712526321411 117
-1.8115956783294678 -4.923773288726807 1.2014544010162354 117
nan nan nan 0
-1.7627922296524048 -4.78597354888916 0.8008431196212769 117
-1.633187174797058 -4.431711673736572 0.5752232670783997 117
-1.5451432466506958 -4.190546989440918 0.38740724325180054 115
-1.4545689821243286 -3.942782163619995 0.21824093163013458 115
-1.3514164686203003 -3.6612071990966797 0.0674535483121872 115
nan nan nan 0
-0.7932087182998657 -2.142024040222168 -0.518512487411499 119
-0.9580114483833313 -2.5856802463531494 -0.5280666947364807 119
-1.0569603443145752 -2.8512163162231445 -0.4755611717700958 115
-1.0660451650619507 -2.8741841316223145 -0.3717019259929657 115
-1.1709306240081787 -3.155278444290161 -0.2911006212234497 115
-1.231677770614624 -3.317197322845459 -0.18282711505889893 115
-1.2441819906234741 -3.3490827083587646 -0.061077866703271866 115
nan nan nan 0
-1.728574514389038 -4.6479973793029785 1.1351439952850342 117
-1.714768648147583 -4.608412265777588 0.947469174861908 117
-1.7312417030334473 -4.650200366973877 0.7789663672447205 117
-1.6486468315124512 -4.425983905792236 0.5752232670783997 117
-1.559761643409729 -4.1851277351379395 0.38740724325180054 115
-1.468322992324829 -3.937680721282959 0.21824093163013458 115
-1.3659358024597168 -3.66115140914917 0.06754080951213837 115
nan nan nan 0
-0.7955577373504639 -2.125553846359253 -0.5151382088661194 119
-0.9653097987174988 -2.577723264694214 -0.5271134972572327 119
-1.066906452178955 -2.8475096225738525 -0.4755611717700958 115
-1.0760715007781982 -2.870445489883423 -0.3717019259929657 115
-1.1836867332458496 -3.1558356285095215 -0.291536420583725 115
-1.2432494163513184 -3.312877655029297 -0.18282711505889893 115
-1.257622241973877 -3.3493998050689697 -0.061164259910583496 115
nan nan nan 0
-1.7465026378631592 -4.646495819091797 1.136267900466919 117
-1.7343000173568726 -4.611587047576904 0.949375569820404 117
nan nan nan 0
-1.6623377799987793 -4.415557384490967 0.5746139287948608 117
-1.576116681098938 -4.184319019317627 0.3878430426120758 115
-1.4820590019226074 -3.9325313568115234 0.21824093163013458 115
-1.3787071704864502 -3.6563611030578613 0.06754080951213837 115
nan nan nan 0
-0.8098670840263367 -2.140990972518921 -0.5196372270584106 119
-0.9743018746376038 -2.57433819770813 -0.5271134972572327 119
-1.0768396854400635 -2.8437681198120117 -0.4755611717700958 115
-1.0878428220748901 -2.871312379837036 -0.37231123447418213 115
-1.1964608430862427 -3.156342029571533 -0.29197219014167786 115
-1.256576657295227 -3.3131866455078125 -0.18308793008327484 115
-1.2693061828613281 -3.34498929977417 -0.061164259910583496 115
nan nan nan 0
-1.6986976861953735 -4.471854209899902 1.0946834087371826 117
-1.6405293941497803 -4.316454887390137 0.8893246650695801 117
nan nan nan 0
-1.6795055866241455 -4.414366245269775 0.5752232670783997 117
-1.5889410972595215 -4.174136638641357 0.38740724325180054 117
-1.4939998388290405 -3.9226677417755127 0.21797925233840942 115
-1.391461968421936 -3.6515262126922607 0.06754080951213837 115
-0.6979601383209229 -1.8268204927444458 -0.5137560367584229 119
nan nan nan 0
-0.9815287590026855 -2.5663373470306396 -0.5261602997779846 119
-1.088524580001831 -2.844604015350342 -0.4763433039188385 115
-1.0978589057922363 -2.867497682571411 -0.37231123447418213 115
-1.207471251487732 -3.152146339416504 -0.29197219014167786 115
-1.2681342363357544 -3.3087801933288574 -0.18308793008327484 115
-1.2809746265411377 -3.340538501739502 -0.061164259910583496 115
nan nan nan 0
nan nan nan 0
-1.65558660030365 -4.310701847076416 0.8893246650695801 117
-2.0880730152130127 -5.43394660949707 0.9149144291877747 117
nan nan nan 0
-1.6088666915893555 -4.182511806488037 0.38871461153030396 117
-1.5076833963394165 -3.917428731918335 0.21797925233840942 115
-1.4041996002197266 -3.6466469764709473 0.06754080951213837 115
-0.704332709312439 -1.8243730068206787 -0.5137560367584229 119
nan nan nan 0
-0.9904810190200806 -2.5628955364227295 -0.5261602997779846 119
-1.098447561264038 -2.840787172317505 -0.4763433039188385 115
-1.1096524000167847 -2.868276596069336 -0.37292060256004333 115
-1.2202650308609009 -3.152557611465454 -0.29240795969963074 115
-1.2868891954421997 -3.322958469390869 -0.18413116037845612 115
-1.2944337129592896 -3.340708017349243 -0.06125064939260483 115
-1.6164774894714355 -4.169686794281006 1.18720543384552 117
nan nan nan 0
-2.993565559387207 -7.7138800621032715 1.599449872970581 118
-2.140990972518921 -5.514095306396484 0.9297592639923096 117
-1.706688404083252 -4.393281936645508 0.574004590511322 117
-1.618043065071106 -4.162942409515381 0.38740724325180054 117
-1.5195389986038208 -3.9074885845184326 0.21771757304668427 115
-1.4169203042984009 -3.641723155975342 0.06754080951213837 115
-0.7194724082946777 -1.8444002866744995 -0.5202265381813049 119
-0.8251575231552124 -2.114238977432251 -0.5151382088661194 119
-0.9994211792945862 -2.559422492980957 -0.5261602997779846 119
-1.110154151916504 -2.8415355682373047 -0.47712549567222595 115
-1.1196577548980713 -2.8643856048583984 -0.37292060256004333 115
-1.2312620878219604 -3.1482789516448975 -0.29240795969963074 115
-1.2912026643753052 -3.2998464107513428 -0.18308793008327484 115
-1.3060870170593262 -3.3361692428588867 -0.06125064939260483 115
-1.616930603981018 -4.128041744232178 1.1768594980239868 117
nan nan nan 0
-2.98822283744812 -7.621131420135498 1.5822926759719849 118
nan nan nan 0
-1.725639820098877 -4.396536827087402 0.5752232670783997 117
-1.6380267143249512 -4.171177864074707 0.38871461153030396 117
-1.5313433408737183 -3.897512912750244 0.2174558788537979 117
-1.4296236038208008 -3.6367549896240234 0.06754080951213837 115
-0.7117393612861633 -1.8059314489364624 -0.5098737478256226 119
-0.8361067771911621 -2.120410203933716 -0.5173877477645874 119
-1.0101503133773804 -2.560483932495117 -0.5271134972572327 119
-1.1200662851333618 -2.8376429080963135 -0.47712549567222595 115
-1.1314723491668701 -2.8650755882263184 -0.37352994084358215 115
-1.2440744638442993 -3.1485941410064697 -0.2928437292575836 115
-1.3008776903152466 -3.290675401687622 -0.18282711505889893 115
-1.3195632696151733 -3.3362386226654053 -0.06133703887462616 115
-1.5744597911834717 -3.9786605834960938 1.1354753971099854 117
-1.5869975090026855 -4.008298873901367 0.9856646060943604 117
-1.5994073152542114 -4.037583351135254 0.8359460830688477 117
-1.611714482307434 -4.0665788650512695 0.6859904527664185 117
nan nan nan 0
nan nan nan 0
-1.543096899986267 -3.887503147125244 0.21719421446323395 117
-1.4423096179962158 -3.631742477416992 0.06754080951213837 115
nan nan nan 0
nan nan nan 0
-1.0208991765975952 -2.561501979827881 -0.5280666947364807 119
-1.131793737411499 -2.8383030891418457 -0.477907657623291 115
-1.1414663791656494 -2.8611085414886475 -0.37352994084358215 115
-1.255057454109192 -3.1442322731018066 -0.2928437292575836 115
-1.3030970096588135 -3.2629294395446777 -0.18152306973934174 115
-1.3312009572982788 -3.3316121101379395 -0.06133703887462616 115
-1.5686168670654297 -3.9238083362579346 1.1212496757507324 117
-1.566602349281311 -3.916785955429077 0.9643104672431946 117
-1.5879613161087036 -3.9681782722473145 0.8226014971733093 117
-2.211465358734131 -5.523466110229492 0.9352284073829651 117
-2.18996262550354 -5.466994285583496 0.7184197306632996 117
-1.6559888124465942 -4.131899356842041 0.3860999345779419 117
-1.5529406070709229 -3.87282395362854 0.21667084097862244 117
-1.453116536140442 -3.6220459938049316 0.0674535483121872 115
-0.7423514127731323 -1.8457266092300415 -0.5228146910667419 119
-0.8490707874298096 -2.110001564025879 -0.516262948513031 119
-1.028001070022583 -2.5533692836761475 -0.5271134972572327 119
-1.14169442653656 -2.8343350887298584 -0.477907657623291 115
-1.1514465808868408 -2.8571066856384277 -0.37352994084358215 115
-1.2660253047943115 -3.1398322582244873 -0.2928437292575836 115
-1.3070067167282104 -3.2398383617401123 -0.18047983944416046 115
-1.3446934223175049 -3.3315811157226562 -0.06142342835664749 115
-1.585920810699463 -3.9272654056549072 1.1238361597061157 117
nan nan nan 0
-1.5558161735534668 -3.848846435546875 0.7987717986106873 117
-2.227029323577881 -5.506556510925293 0.9336658716201782 117
-2.2164785861968994 -5.477718353271484 0.7208571434020996 117
-1.6834856271743774 -4.158412933349609 0.38915038108825684 117
-1.5664498805999756 -3.867379665374756 0.21667084097862244 117
-1.4638733863830566 -3.612318277359009 0.06736628711223602 115
-0.7578786611557007 -1.8654961585998535 -0.5292851328849792 119
-0.8656033277511597 -2.129591464996338 -0.5218867659568787 119
-1.0332098007202148 -2.5406720638275146 -0.5252071022987366 119
-1.151581048965454 -2.8303325176239014 -0.477907657623291 115
-1.1614128351211548 -2.853070020675659 -0.37352994084358215 115
-1.2769776582717896 -3.1353938579559326 -0.2928437292575836 115
-1.3164235353469849 -3.2306323051452637 -0.18021902441978455 115
-1.3563145399093628 -3.326866865158081 -0.06142342835664749 115
-1.6123889684677124 -3.9530112743377686 1.1328890323638916 117
nan nan nan 0
-1.5302793979644775 -3.7479655742645264 0.7787548899650574 117
-1.532817006111145 -3.7523090839385986 0.6352053284645081 117
-2.243096113204956 -5.48832368850708 0.7232945561408997 117
nan nan nan 0
-1.5610334873199463 -3.8156745433807373 0.21405403316020966 117
-1.470792531967163 -3.593306541442871 0.06710450351238251 115
-0.7295511364936829 -1.777945637702942 -0.504697322845459 119
-0.8656308054924011 -2.108529567718506 -0.5173877477645874 119
-1.0402072668075562 -2.5325098037719727 -0.5242539644241333 119
-1.1633310317993164 -2.8308634757995605 -0.47868984937667847 115
-1.1732518672943115 -2.853588342666626 -0.37413930892944336 116
-1.2879143953323364 -3.1309170722961426 -0.2928437292575836 115
-1.3162906169891357 -3.198312759399414 -0.17865416407585144 115
-1.36982262134552 -3.326734781265259 -0.06150982156395912 115
-1.6114596128463745 -3.9116320610046387 1.1225428581237793 117
nan nan nan 0
nan nan nan 0
-2.2333974838256836 -5.413264751434326 0.9203835725784302 117
nan nan nan 0
-1.5831860303878784 -3.8334994316101074 0.3595174551010132 117
-1.566715955734253 -3.791743278503418 0.21300731599330902 117
-1.4833265542984009 -3.5881507396698 0.06710450351238251 115
nan nan nan 0
-0.8629287481307983 -2.083294630050659 -0.5117639303207397 119
-1.0443999767303467 -2.520160675048828 -0.5223475694656372 119
-1.172218680381775 -2.827194929122925 -0.47868984937667847 115
-1.182210922241211 -2.849888324737549 -0.37413930892944336 115
-1.2958347797393799 -3.122255325317383 -0.29240795969963074 115
-1.3569692373275757 -3.267944574356079 -0.18282711505889893 115
-1.3821849822998047 -3.3270316123962402 -0.061596207320690155 115
-3.010349750518799 -7.242588043212891 2.089895725250244 118
nan nan nan 0
nan nan nan 0
-1.4608778953552246 -3.5095343589782715 0.5953584909439087 117
-1.5582399368286133 -3.741590738296509 0.49296149611473083 117
-3.0435433387756348 -7.30445671081543 0.6889661550521851 111
-1.6170456409454346 -3.8789775371551514 0.21824093163013458 117
-1.4945917129516602 -3.5834732055664062 0.06710450351238251 115
-0.7636828422546387 -1.8265382051467896 -0.5202265381813049 119
-0.8777158856391907 -2.098247528076172 -0.516262948513031 119
-1.0512956380844116 -2.511971950531006 -0.5213943719863892 119
-1.1820802688598633 -2.8230857849121094 -0.47868984937667847 115
-1.194069266319275 -2.8503217697143555 -0.37474867701530457 115
-1.3067256212234497 -3.11771297454834 -0.29240795969963074 115
-1.397331953048706 -3.332258939743042 -0.1867392510175705 115
-1.3957242965698242 -3.326796770095825 -0.061682600528001785 115
-3.046828508377075 -7.258756160736084 2.0976550579071045 118
-1.4730174541473389 -3.5075972080230713 0.8687785267829895 117
nan nan nan 0
nan nan nan 0
-2.296614170074463 -5.460761547088623 0.7226851582527161 114
-3.0728859901428223 -7.3029704093933105 0.6898376941680908 111
-1.6344505548477173 -3.8825128078460693 0.2187642902135849 117
-1.487686276435852 -3.5321614742279053 0.0662318766117096 115
-0.7684929370880127 -1.8192777633666992 -0.5189324021339417 119
-0.8835039734840393 -2.090529203414917 -0.5151382088661194 119
-1.0471148490905762 -2.4764564037323 -0.5147220492362976 119
-1.1943433284759521 -2.82328200340271 -0.47947201132774353 115
-1.2045081853866577 -2.84592604637146 -0.37474867701530457 115
-1.3181438446044922 -3.1129026412963867 -0.29240795969963074 115
-1.4153794050216675 -3.3409082889556885 -0.18752168118953705 115
-1.4098591804504395 -3.326261520385742 -0.06176899001002312 117
nan nan nan 0
-1.482057809829712 -3.4932048320770264 0.86653071641922 117
nan nan nan 0
nan nan nan 0
-2.324376106262207 -5.470577239990234 0.7251225709915161 114
-3.0957345962524414 -7.2824907302856445 0.6889661550521851 111
-1.5196934938430786 -3.5732359886169434 0.20149342715740204 117
-1.4830060005187988 -3.4852843284606934 0.06544651836156845 117
-0.7653645277023315 -1.7943722009658813 -0.5124619007110596 119
-0.8927079439163208 -2.0919129848480225 -0.516262948513031 119
-1.0711711645126343 -2.508898973464966 -0.5223475694656372 119
-1.2041912078857422 -2.819096088409424 -0.47947201132774353 115
-1.2163852453231812 -2.8462677001953125 -0.375357985496521 115
-1.3290019035339355 -3.1082825660705566 -0.29240795969963074 115
-1.4329241514205933 -3.349719524383545 -0.1883040964603424 115
-1.4214613437652588 -3.321320056915283 -0.06176899001002312 117
nan nan nan 0
-1.4923237562179565 -3.4835314750671387 0.8654068112373352 117
nan nan nan 0
nan nan nan 0
-1.4708054065704346 -3.4283411502838135 0.4533539414405823 117
-1.5160493850708008 -3.532099962234497 0.3329349458217621 117
-1.500633716583252 -3.4945015907287598 0.1973065435886383 117
-1.5385780334472656 -3.5811376571655273 0.06736628711223602 117
-0.7773544192314148 -1.8049969673156738 -0.5163442492485046 119
-0.9000046849250793 -2.0887842178344727 -0.516262948513031 119
-1.0818654298782349 -2.5096518993377686 -0.5233007073402405 119
-1.214024305343628 -2.814875364303589 -0.47947201132774353 115
-1.2263131141662598 -2.8420045375823975 -0.375357985496521 115
-1.33984375 -3.1036245822906494 -0.29240795969963074 115
-1.4485678672790527 -3.353865146636963 -0.18882571160793304 117
-1.43502938747406 -3.320927143096924 -0.06185537949204445 117
-2.3438708782196045 -5.421558380126953 1.5713014602661133 114
-1.5102769136428833 -3.4917163848876953 0.8687785267829895 117
-1.4537904262542725 -3.359511613845825 0.7034529447555542 117
-1.4318597316741943 -3.3072493076324463 0.5641060471534729 117
-1.5103789567947388 -3.486940383911133 0.4618847966194153 117
-1.5244083404541016 -3.517645835876465 0.33206337690353394 117
-1.496932864189148 -3.4525930881500244 0.19521310925483704 117
-1.561016321182251 -3.598676919937134 0.06780259311199188 117
-0.7855761051177979 -1.8067015409469604 -0.5176383256912231 119
-0.9072904586791992 -2.08562970161438 -0.516262948513031 119
-1.0964953899383545 -2.519361734390259 -0.5261602997779846 119
-1.2258143424987793 -2.81514835357666 -0.480254203081131 115
-1.2382081747055054 -2.8422563076019287 -0.3759673535823822 115
-1.3506691455841064 -3.098928689956665 -0.29240795969963074 115
-1.4582703113555908 -3.3442113399505615 -0.18856491148471832 117
-1.4486119747161865 -3.3204801082611084 -0.06194177269935608 117
-2.208214521408081 -5.0592169761657715 1.4678412675857544 114
-1.5166066884994507 -3.4730284214019775 0.8654068112373352 117
-1.437997817993164 -3.291447401046753 0.6901082992553711 117
-1.4157041311264038 -3.2388782501220703 0.5531677007675171 117
-2.38352370262146 -5.450483798980713 0.7257319092750549 114
-3.179811716079712 -7.267927169799805 0.6907092332839966 111
-3.1808087825775146 -7.266751766204834 0.4137157201766968 111
-1.5715631246566772 -3.5886266231536865 0.06771533191204071 117
-0.7938191294670105 -1.808370590209961 -0.5189324021339417 119
-0.9145650863647461 -2.0824501514434814 -0.516262948513031 119
-1.1052829027175903 -2.5155189037323 -0.5261602997779846 119
-1.2356334924697876 -2.810852289199829 -0.480254203081131 115
-1.2501198053359985 -2.8424594402313232 -0.376576691865921 115
-1.363484263420105 -3.0987541675567627 -0.2928437292575836 115
-1.4518287181854248 -3.297970771789551 -0.18621762096881866 117
-1.4601937532424927 -3.3154032230377197 -0.06194177269935608 117
-2.171330451965332 -4.9277238845825195 1.431630253791809 114
-1.5228246450424194 -3.454339027404785 0.8620350360870361 117
-1.4435362815856934 -3.272935152053833 0.6872487664222717 117
-1.4150390625 -3.2068071365356445 0.5484798550605774 117
-2.3945178985595703 -5.423970699310303 0.7232945561408997 114
-3.205162286758423 -7.2567830085754395 0.6907092332839966 111
-3.204136848449707 -7.251037120819092 0.4134540259838104 111
-3.2092936038970947 -7.259279727935791 0.13787399232387543 111
-0.8001266121864319 -1.8055886030197144 -0.5189324021339417 119
-0.9218286275863647 -2.079245090484619 -0.516262948513031 119
-1.114056944847107 -2.511645555496216 -0.5261602997779846 119
-1.2474409341812134 -2.8110361099243164 -0.48103639483451843 115
-1.2620481252670288 -2.8426144123077393 -0.3771860599517822 115
-1.376314640045166 -3.0985279083251953 -0.2932795286178589 115
-1.4410269260406494 -3.2426905632019043 -0.18334873020648956 117
-1.420983076095581 -3.1960833072662354 -0.05978201702237129 117
-2.1531853675842285 -4.840681076049805 1.4083516597747803 114
-2.1905388832092285 -4.9223432540893555 1.2340476512908936 114
-1.4270027875900269 -3.2051010131835938 0.6739041209220886 117
-1.4021103382110596 -3.1477129459381104 0.5391041040420532 117
nan nan nan 0
nan nan nan 0
nan nan nan 0
-1.4234025478363037 -3.189521074295044 0.06029805913567543 117
-0.8044524192810059 -1.7983760833740234 -0.5176383256912231 119
-0.9251007437705994 -2.0671210289001465 -0.5140134692192078 119
-1.1228175163269043 -2.5077412128448486 -0.5261602997779846 119
-1.257245659828186 -2.8066647052764893 -0.48103639483451843 115
-1.2719630002975464 -2.8381917476654053 -0.3771860599517822 115
-1.389159917831421 -3.098249673843384 -0.29371529817581177 117
-1.4421191215515137 -3.2148618698120117 -0.18204468488693237 115
-1.442365288734436 -3.2139081954956055 -0.06021396815776825 117
-2.1443512439727783 -4.7758564949035645 1.391539454460144 114
nan nan nan 0
-1.4100135564804077 -3.137422800064087 0.6605594754219055 117
-1.394862413406372 -3.102261781692505 0.5320723652839661 117
nan nan nan 0
-1.4588987827301025 -3.24165678024292 0.307659775018692 117
-1.452743411064148 -3.2264745235443115 0.1834375113248825 117
-1.4201542139053345 -3.1526260375976562 0.05968722328543663 117
-0.8107250332832336 -1.7955571413040161 -0.5176383256912231 119
-0.9303051829338074 -2.0594394207000732 -0.5128887295722961 119
-1.1295428276062012 -2.4993338584899902 -0.5252071022987366 119
-1.2690696716308594 -2.8067588806152344 -0.4818185567855835 119
-1.2818623781204224 -2.8337345123291016 -0.3771860599517822 115
-1.4020200967788696 -3.0979197025299072 -0.29415109753608704 117
-1.4924635887145996 -3.2962329387664795 -0.1870000660419464 117
-1.5113344192504883 -3.3363611698150635 -0.06263289600610733 117
-2.1291098594665527 -4.697955131530762 1.3708473443984985 114
-2.2248497009277344 -4.906930446624756 1.2340476512908936 114
-1.4087908267974854 -3.1056625843048096 0.654840350151062 117
-1.3852734565734863 -3.0524024963378906 0.5242592692375183 117
-1.3884029388427734 -3.05787992477417 0.40765294432640076 117
-1.4743255376815796 -3.245614767074585 0.30853134393692017 117
-1.4619312286376953 -3.2168385982513428 0.18317584693431854 117
-3.289273738861084 -7.234376907348633 0.13804852962493896 111
-0.8169877529144287 -1.792716145515442 -0.5176383256912231 119
-0.9294039607048035 -2.0384480953216553 -0.5083897113800049 119
-1.1382602453231812 -2.495375871658325 -0.5252071022987366 119
-1.2788593769073486 -2.802311658859253 -0.4818185567855835 119
-1.2938072681427002 -2.833756923675537 -0.37779536843299866 115
-1.4107557535171509 -3.0884761810302734 -0.29371529817581177 117
-1.514337420463562 -3.3137102127075195 -0.1883040964603424 117
-1.52089262008667 -3.3265185356140137 -0.0625464990735054 117
-2.143486976623535 -4.686102867126465 1.3695541620254517 114
-2.241964340209961 -4.899134635925293 1.2340476512908936 114
-1.4257526397705078 -3.114114284515381 0.6576998829841614 117
-1.3753536939620972 -3.0026488304138184 0.5164461135864258 117
-1.3887311220169067 -3.030456781387329 0.4046061933040619 117
-3.32485294342041 -7.252074718475342 0.6946312785148621 111
-3.3175551891326904 -7.232824325561523 0.4150241017341614 111
-3.318676471710205 -7.231937885284424 0.1382230520248413 111
-0.8212223649024963 -1.7854657173156738 -0.5163442492485046 119
-0.9426233172416687 -2.048468589782715 -0.5117639303207397 119
-1.1469638347625732 -2.491387367248535 -0.5252071022987366 119
-1.2906994819641113 -2.802316188812256 -0.48260071873664856 119
-1.303691029548645 -2.829223394393921 -0.37779536843299866 115
-1.4027599096298218 -3.0428221225738525 -0.2897932827472687 117
-1.523803949356079 -3.3038697242736816 -0.18804329633712769 117
-3.3359200954437256 -7.229532718658447 -0.13692845404148102 111
-2.155782461166382 -4.669821262359619 1.3669675588607788 114
-2.2610950469970703 -4.895701885223389 1.2351715564727783 114
-1.4386730194091797 -3.1135740280151367 0.6586531400680542 117
-1.3671760559082031 -2.957484722137451 0.5094143748283386 117
-1.380552053451538 -2.9850518703460693 0.39912205934524536 117
nan nan nan 0
-3.3427822589874268 -7.221200466156006 0.4150241017341614 111
-3.343900442123413 -7.220309734344482 0.1382230520248413 111
-0.8294832706451416 -1.7869689464569092 -0.5176383256912231 119
-0.9518201947212219 -2.0495846271514893 -0.5128887295722961 119
-1.1535853147506714 -2.482917308807373 -0.5242539644241333 119
-1.3004734516143799 -2.7977938652038574 -0.48260071873664856 119
-1.3135589361190796 -2.824655294418335 -0.37779536843299866 115
-1.3902606964111328 -2.988229513168335 -0.2849997282028198 117
-3.364250421524048 -7.2278289794921875 -0.41442549228668213 111
-3.363246202468872 -7.222376346588135 -0.13701485097408295 111
-2.176149368286133 -4.671024322509766 1.3695541620254517 114
-2.278170108795166 -4.887779712677002 1.2351715564727783 114
nan nan nan 0
-1.3587000370025635 -2.912414789199829 0.5023825168609619 117
-1.3720732927322388 -2.939741611480713 0.3936379849910736 117
-1.3628205060958862 -2.9185876846313477 0.27846258878707886 117
-3.3743085861206055 -7.223059177398682 0.41580915451049805 111
-3.3585000038146973 -7.185948848724365 0.13778674602508545 111
-0.8357158899307251 -1.7840626239776611 -0.5176383256912231 119
-0.9631035327911377 -2.05507230758667 -0.5151382088661194 119
-1.162245273590088 -2.4788753986358643 -0.5242539644241333 119
-1.312328815460205 -2.797708034515381 -0.4833828806877136 119
-1.3255192041397095 -2.8245456218719482 -0.37840473651885986 115
-1.3879820108413696 -2.956305742263794 -0.28238505125045776 117
nan nan nan 0
nan nan nan 0
-2.194495916366577 -4.6677703857421875 1.3708473443984985 114
-2.2972917556762695 -4.884206771850586 1.236295461654663 114
-1.4624645709991455 -3.107895851135254 0.6596063375473022 0
-1.3478227853775024 -2.8629722595214844 0.49456945061683655 117
-1.3611805438995361 -2.8900372982025146 0.3875444829463959 117
nan nan nan 0
nan nan nan 0
-1.3811280727386475 -2.9284110069274902 0.05584769695997238 117
-0.8440022468566895 -1.7855008840560913 -0.5189324021339417 119
-0.9723539352416992 -2.0561020374298096 -0.516262948513031 119
-1.1687918901443481 -2.4703664779663086 -0.5233007073402405 119
-1.3220866918563843 -2.7931101322174072 -0.4833828806877136 119
-1.3353705406188965 -2.819901704788208 -0.37840473651885986 115
-1.4409446716308594 -3.0414698123931885 -0.2911006212234497 117
-1.3957836627960205 -2.9448180198669434 -0.16822180151939392 117
-1.3958306312561035 -2.943589448928833 -0.05563528835773468 117
-2.2107760906219482 -4.66008186340332 1.3708473443984985 114
-2.314326763153076 -4.876157760620117 1.236295461654663 114
nan nan nan 0
-1.3408552408218384 -2.822563409805298 0.4883189797401428 117
-1.3520880937576294 -2.844928026199341 0.38206037878990173 117
-1.3617740869522095 -2.864018678665161 0.2741048038005829 117
-1.4020262956619263 -2.9473488330841064 0.16904513537883759 117
-1.3827486038208008 -2.905515670776367 0.055498648434877396 117
-0.8502296805381775 -1.7825438976287842 -0.5189324021339417 119
-0.9795252084732056 -2.0526955127716064 -0.516262948513031 119
-1.17740797996521 -2.46627140045166 -0.5233007073402405 119
-1.3339568376541138 -2.7929346561431885 -0.4841650724411011 119
-1.3473453521728516 -2.8197009563446045 -0.3790140748023987 115
-1.464442253112793 -3.063384771347046 -0.29371529817581177 117
-1.4039002656936646 -2.9354236125946045 -0.1679610013961792 117
-1.4104125499725342 -2.947718381881714 -0.055808067321777344 117
-2.2291147708892822 -4.6566925048828125 1.372140645980835 114
-2.333437919616699 -4.872443199157715 1.2374193668365479 114
-2.446972608566284 -5.1072258949279785 1.0923538208007812 114
-1.3464304208755493 -2.8089590072631836 0.4867563545703888 117
-1.3448435068130493 -2.8043925762176514 0.3771856129169464 117
-1.3480628728866577 -2.8098480701446533 0.26931124925613403 117
-3.4735288619995117 -7.236844539642334 0.418687641620636 111
nan nan nan 0
-0.8585412502288818 -1.7839170694351196 -0.5202265381813049 119
-0.984571099281311 -2.044874429702759 -0.5151382088661194 119
-1.1838796138763428 -2.4577245712280273 -0.5223475694656372 119
-1.341553807258606 -2.7838122844696045 -0.4833828806877136 119
-1.3614901304244995 -2.8239212036132812 -0.3802327811717987 115
-1.477290391921997 -3.0627405643463135 -0.29415109753608704 117
-3.4713492393493652 -7.193643569946289 -0.41520795226097107 111
-3.472452402114868 -7.192722320556641 -0.13736040890216827 111
-2.2474565505981445 -4.653232574462891 1.3734338283538818 114
-2.3504316806793213 -4.8642683029174805 1.2374193668365479 114
-2.464785099029541 -5.098653793334961 1.0923538208007812 114
-1.3669781684875488 -2.8264715671539307 0.4906628727912903 117
-1.3394938707351685 -2.7684099674224854 0.3729201853275299 117
-1.355692744255066 -2.8006420135498047 0.26887547969818115 117
-1.35292649269104 -2.7936840057373047 0.1606713831424713 117
-3.489020586013794 -7.2013421058654785 0.13900840282440186 111
-0.862653374671936 -1.7765647172927856 -0.5189324021339417 119
-0.9895740747451782 -2.0370426177978516 -0.5140134692192078 119
-1.1924514770507812 -2.4535772800445557 -0.5223475694656372 119
-1.3426252603530884 -2.7613472938537598 -0.480254203081131 119
-1.371339201927185 -2.8191514015197754 -0.3802327811717987 117
-3.506288766860962 -7.204909324645996 -0.697682797908783 111
-3.502995491027832 -7.194950580596924 -0.41599035263061523 111
-3.504105806350708 -7.194040775299072 -0.13761958479881287 111
-2.263685703277588 -4.645359039306641 1.3734338283538818 114
-2.3695318698883057 -4.860413551330566 1.238543152809143 114
-2.4761126041412354 -5.076783657073975 1.089494228363037 114
-1.372504711151123 -2.8128058910369873 0.48910024762153625 117
-1.3360868692398071 -2.736959218978882 0.3692640960216522 117
-1.3436018228530884 -2.7511353492736816 0.2645176649093628 117
-1.3297902345657349 -2.7216501235961914 0.15674617886543274 117
-3.511941432952881 -7.184628009796143 0.13892115652561188 111
-0.8667247891426086 -1.7692056894302368 -0.5176383256912231 119
-0.9966787099838257 -2.033576011657715 -0.5140134692192078 119
-1.1988478899002075 -2.444992780685425 -0.5213943719863892 119
-1.3631306886672974 -2.7788124084472656 -0.4841650724411011 119
-1.363680362701416 -2.7787063121795654 -0.375357985496521 117
-3.529222011566162 -7.188154697418213 -0.6972470283508301 111
-3.5280892848968506 -7.182678699493408 -0.41599035263061523 111
-3.5291965007781982 -7.181765079498291 -0.13761958479881287 111
-2.2820181846618652 -4.641763687133789 1.3747271299362183 114
-2.3886337280273438 -4.856484889984131 1.2396671772003174 114
-2.493818998336792 -5.068109512329102 1.089494228363037 114
-1.3866772651672363 -2.816859483718872 0.4906628727912903 117
-1.3324767351150513 -2.705566167831421 0.3656080365180969 117
-1.3333837985992432 -2.7062160968780518 0.2605956792831421 117
-1.3326596021652222 -2.7035560607910156 0.15596114099025726 117
-3.5436322689056396 -7.185776233673096 0.1391829401254654 111
-0.8707553148269653 -1.761839747428894 -0.5163442492485046 119
-1.0016119480133057 -2.0257177352905273 -0.5128887295722961 119
-1.2051990032196045 -2.4363937377929688 -0.5204411745071411 119
-1.3290141820907593 -2.6855154037475586 -0.4685215950012207 119
-1.3557559251785278 -2.738349437713623 -0.3704832196235657 117
nan nan nan 0
-3.555356979370117 -7.174793720245361 -0.41625118255615234 111
-3.558685302734375 -7.178360462188721 -0.13779236376285553 111
-2.2982070446014404 -4.633769512176514 1.3747271299362183 114
-2.405571460723877 -4.848117351531982 1.2396671772003174 114
-2.5136773586273193 -5.063770294189453 1.0904474258422852 114
-1.394304871559143 -2.8075788021087646 0.48988157510757446 117
-1.328663945198059 -2.674232244491577 0.36195194721221924 117
-1.3228685855865479 -2.6614019870758057 0.256673663854599 117
-1.317632794380188 -2.649707794189453 0.15308266878128052 117
-3.5575599670410156 -7.150982856750488 0.13874661922454834 111
-0.8747450113296509 -1.754467248916626 -0.5150501132011414 119
-1.0086768865585327 -2.0222091674804688 -0.5128887295722961 119
-1.2136962413787842 -2.4321718215942383 -0.5204411745071411 119
-1.3185279369354248 -2.641094207763672 -0.46148207783699036 119
-1.3453490734100342 -2.6936423778533936 -0.36499908566474915 117
-1.3328924179077148 -2.667536735534668 -0.2575456202030182 117
nan nan nan 0
nan nan nan 0
-2.3165290355682373 -4.630038261413574 1.3760203123092651 114
-2.4246606826782227 -4.844047546386719 1.2407910823822021 114
-2.5335354804992676 -5.059353828430176 1.0914006233215332 114
nan nan nan 0
-1.3224250078201294 -2.638521194458008 0.35768651962280273 117
-1.3120571374893188 -2.616694927215576 0.2527516484260559 117
-1.3134410381317139 -2.618314027786255 0.15151259303092957 117
nan nan nan 0
-0.8830339312553406 -1.7557177543640137 -0.5163442492485046 119
-1.0135396718978882 -2.0143234729766846 -0.5117639303207397 119
-1.2199716567993164 -2.4235363006591797 -0.5194879770278931 119
-1.4077037572860718 -2.7952606678009033 -0.4896402657032013 117
-1.3904706239700317 -2.7598419189453125 -0.37474867701530457 117
-1.3377119302749634 -2.6539721488952637 -0.25667405128479004 117
-1.339167594909668 -2.6557068824768066 -0.1533556878566742 117
-1.3299775123596191 -2.6363375186920166 -0.05036548525094986 117
-2.332676887512207 -4.621923923492432 1.3760203123092651 114
-2.4415547847747803 -4.835554122924805 1.2407910823822021 114
-2.5533933639526367 -5.054860591888428 1.0923538208007812 114
-2.6879799365997314 -5.3189897537231445 0.9367910623550415 114
-1.3137140274047852 -2.5984578132629395 0.352811723947525 117
-1.303197979927063 -2.57654070854187 0.2492654174566269 117
-1.3022828102111816 -2.5736160278320312 0.14915746450424194 117
-1.3313952684402466 -2.630009412765503 0.05078649893403053 117
-0.8891571760177612 -1.752624750137329 -0.5163442492485046 119
-1.0205647945404053 -2.0107734203338623 -0.5117639303207397 119
-1.228424072265625 -2.4192628860473633 -0.5194879770278931 119
-1.4107426404953003 -2.7771213054656982 -0.4872937798500061 117
-1.4180829524993896 -2.7903647422790527 -0.3796234428882599 117
nan nan nan 0
-1.352957010269165 -2.659917116165161 -0.15387731790542603 117
-1.3437066078186035 -2.640589952468872 -0.05053826421499252 117
-2.350987434387207 -4.6180572509765625 1.3773136138916016 114
-2.460630416870117 -4.831343650817871 1.241914987564087 114
-2.5732510089874268 -5.050289630889893 1.0933068990707397 114
-2.7065305709838867 -5.309574604034424 0.9367910623550415 114
-1.3024851083755493 -2.5540668964385986 0.3473276197910309 117
-1.2986021041870117 -2.5453546047210693 0.24665075540542603 117
-1.2930989265441895 -2.533475637435913 0.14706403017044067 117
-1.3292001485824585 -2.6030845642089844 0.050350189208984375 117
-0.8974696397781372 -1.7538096904754639 -0.5176383256912231 119
-1.0275774002075195 -2.0071988105773926 -0.5117639303207397 119
-1.2368613481521606 -2.4149601459503174 -0.5194879770278931 119
-1.4249318838119507 -2.7809698581695557 -0.48885810375213623 117
-1.4346059560775757 -2.7986466884613037 -0.38145145773887634 117
-3.674591302871704 -7.165356159210205 -0.7011690735816956 111
-1.3439993858337402 -2.6196372509002686 -0.1517908275127411 117
-1.3346532583236694 -2.6003026962280273 -0.04984714463353157 117
-2.367093086242676 -4.609822750091553 1.3773136138916016 114
-2.479706048965454 -4.827058792114258 1.2430387735366821 114
-2.5931074619293213 -5.045642375946045 1.0942600965499878 114
-2.7227895259857178 -5.2957024574279785 0.9360097646713257 114
-1.2932326793670654 -2.514199733734131 0.34245285391807556 117
-1.2915252447128296 -2.509803295135498 0.2436002939939499 117
-1.2790800333023071 -2.4845528602600098 0.1444472372531891 117
nan nan nan 0
-0.9058012366294861 -1.754957914352417 -0.5189324021339417 119
-1.0368130207061768 -2.0079286098480225 -0.5128887295722961 119
-1.2430309057235718 -2.4062674045562744 -0.5185348391532898 119
-1.4323632717132568 -2.7715916633605957 -0.4880759119987488 117
-1.4443663358688354 -2.793621778488159 -0.38145145773887634 117
-3.699580669403076 -7.1524858474731445 -0.7011690735816956 111
-3.700685739517212 -7.151562690734863 -0.4185984432697296 111
-3.7064058780670166 -7.159555435180664 -0.13865625858306885 111
-2.3853909969329834 -4.605820655822754 1.378606915473938 114
-2.498781681060791 -4.822699069976807 1.2441627979278564 114
-2.6107044219970703 -5.03656005859375 1.0942600965499878 114
-2.7435319423675537 -5.290550231933594 0.9367910623550415 114
-1.2837178707122803 -2.474428653717041 0.33757805824279785 117
-1.2865108251571655 -2.4787538051605225 0.24098561704158783 117
-1.2854440212249756 -2.4756414890289307 0.14418554306030273 117
-3.716387987136841 -7.154352188110352 0.1400555521249771 111
-0.9119216203689575 -1.751785397529602 -0.5189324021339417 119
-1.0460658073425293 -2.008617877960205 -0.5140134692192078 119
-1.249154806137085 -2.3975605964660645 -0.517581582069397 119
-1.9122473001480103 -3.6687018871307373 -0.6492035984992981 116
-3.739537239074707 -7.171356678009033 -0.9883614778518677 111
-3.7291321754455566 -7.148359775543213 -0.7020405530929565 111
-3.7279369831085205 -7.143028259277344 -0.41885924339294434 111
-3.731374979019165 -7.146574020385742 -0.13865625858306885 111
-2.401453971862793 -4.597466468811035 1.378606915473938 114
-2.5156009197235107 -4.813947677612305 1.2441627979278564 114
-2.6305434703826904 -5.031765937805176 1.0952132940292358 114
-2.7642717361450195 -5.285317420959473 0.9375724196434021 114
-1.2739415168762207 -2.4347550868988037 0.33270329236984253 117
-1.281295657157898 -2.447770357131958 0.23837095499038696 117
-1.2848122119903564 -2.4534459114074707 0.1431388258934021 117
-3.739018440246582 -7.13690710067749 0.13996829092502594 111
-0.9180309176445007 -1.748591423034668 -0.5189324021339417 119
-1.055336356163025 -2.009267568588257 -0.5151382088661194 119
-1.2575162649154663 -2.393185615539551 -0.517581582069397 119
-1.9250417947769165 -3.6620047092437744 -0.6492035984992981 116
-3.769167184829712 -7.167044639587402 -0.9895801544189453 111
-3.7540619373321533 -7.135299205780029 -0.7020405530929565 111
-3.7528483867645264 -7.129971504211426 -0.41885924339294434 111
-3.7586276531219482 -7.1379289627075195 -0.13874265551567078 111
-2.419738531112671 -4.593328952789307 1.3799002170562744 114
-2.534661054611206 -4.809447288513184 1.2452867031097412 114
-2.650380849838257 -5.026895046234131 1.0961666107177734 114
-2.7827038764953613 -5.275636196136475 0.9375724196434021 114
-1.26853609085083 -2.403958797454834 0.32904723286628723 117
-1.278205394744873 -2.4212586879730225 0.23619207739830017 117
-1.2793774604797363 -2.422454833984375 0.14156875014305115 117
-3.7709147930145264 -7.137072563171387 0.14023007452487946 111
-0.9263890981674194 -1.7496446371078491 -0.5202265381813049 119
-1.0646239519119263 -2.0098764896392822 -0.516262948513031 119
-1.2658623456954956 -2.3887815475463867 -0.517581582069397 119
-1.2739448547363281 -2.403020143508911 -0.424719899892807 119
nan nan nan 0
nan nan nan 0
-3.787078380584717 -7.1344709396362305 -0.419902503490448 111
-3.7858657836914062 -7.129181385040283 -0.1388290524482727 111
-2.435757637023926 -4.5848541259765625 1.3799002170562744 114
-2.553720235824585 -4.804872512817383 1.246410608291626 114
-2.6702158451080322 -5.021945953369141 1.097119688987732 114
-2.80574107170105 -5.274610996246338 0.9391350150108337 114
-1.2629313468933105 -2.37322998046875 0.32539111375808716 117
-1.2726049423217773 -2.390401840209961 0.23357738554477692 117
-1.2713950872421265 -2.38712477684021 0.13973699510097504 117
-3.7864010334014893 -7.106218338012695 0.13988101482391357 111
-0.9324908256530762 -1.746400237083435 -0.5202265381813049 119
-1.071633219718933 -2.006148099899292 -0.516262948513031 119
-1.27187979221344 -2.380019426345825 -0.5166284441947937 119
-1.284653663635254 -2.402913808822632 -0.42550209164619446 119
-1.2866235971450806 -2.4055886268615723 -0.3302662968635559 117
-1.2776085138320923 -2.3877310752868652 -0.23357774317264557 117
nan nan nan 0
nan nan nan 0
-2.4540274143218994 -4.580580711364746 1.3811932802200317 114
-2.57047700881958 -4.795929431915283 1.246410608291626 114
-2.6877293586730957 -5.012594699859619 1.097119688987732 114
-2.8288047313690186 -5.273488998413086 0.9406976699829102 114
-1.259474515914917 -2.346942663192749 0.3223443925380707 117
-1.2691609859466553 -2.3640027046203613 0.23139849305152893 117
-1.2631819248199463 -2.3518805503845215 0.13790524005889893 117
nan nan nan 0
-0.9385812282562256 -1.7431347370147705 -0.5202265381813049 119
-1.0763190984725952 -1.9981062412261963 -0.5151382088661194 119
-1.2801798582077026 -2.37556529045105 -0.5166284441947937 119
-1.2883464097976685 -2.3897206783294678 -0.42393776774406433 119
-1.3020802736282349 -2.414186477661133 -0.33209434151649475 117
-1.2835702896118164 -2.378873348236084 -0.2331419736146927 117
-1.2799752950668335 -2.371220350265503 -0.13875038921833038 117
-1.2795459032058716 -2.3694353103637695 -0.04587319493293762 117
-2.472297430038452 -4.576236248016357 1.3824865818023682 114
-2.5895183086395264 -4.791213035583496 1.2475343942642212 114
-2.7075448036193848 -5.007499694824219 1.09807288646698 114
-2.842495918273926 -5.254894733428955 0.9391350150108337 114
-1.2534875869750977 -2.3163442611694336 0.3186883330345154 117
-1.2631770372390747 -2.3332762718200684 0.22878383100032806 117
-1.2547383308410645 -2.316723108291626 0.13607348501682281 117
-1.2828490734100342 -2.3676393032073975 0.046336136758327484 117
-0.9446601867675781 -1.7398477792739868 -0.5202265381813049 119
-1.083287239074707 -1.9943369626998901 -0.5151382088661194 119
-1.2884643077850342 -2.371082305908203 -0.5166284441947937 0
-1.2943216562271118 -2.3808703422546387 -0.4231555759906769 117
-1.3033863306045532 -2.396547555923462 -0.3302662968635559 117
-1.2942466735839844 -2.378753423690796 -0.23357774317264557 117
-1.2977931499481201 -2.3842804431915283 -0.13979361951351166 117
-1.290199637413025 -2.369344711303711 -0.045959584414958954 117
-2.4882564544677734 -4.567578315734863 1.3824865818023682 114
-2.6085586547851562 -4.786423206329346 1.2486584186553955 114
