# .PCD v0.7 - Point Cloud Data file format
VERSION 0.7
FIELDS x y z intensity
SIZE 4 4 4 4
TYPE F F F F
COUNT 1 1 1 1
WIDTH 802
HEIGHT 1
VIEWPOINT 0 0 0 1 0 0 0
POINTS 802
DATA ascii
-0.09282451122999191 2.143192768096924 0.184334397315979 44
-0.09202681481838226 2.133388042449951 0.10990550369024277 44
-0.09133511036634445 2.1259706020355225 0.0364755280315876 44
nan nan nan 0
-0.09182015061378479 2.2091879844665527 -0.5016411542892456 119
-0.08987416326999664 2.1715023517608643 -0.4146372079849243 0
-0.0884082019329071 2.145143508911133 -0.33398786187171936 44
-0.08906953036785126 2.1703972816467285 -0.2620193660259247 44
-0.08738404512405396 2.1384360790252686 -0.1838988959789276 44
-0.08661147952079773 2.128636598587036 -0.10927897691726685 44
-0.08614037930965424 2.1261937618255615 -0.036111101508140564 44
-0.0860300213098526 2.1326723098754883 0.5612714290618896 44
-0.08561056852340698 2.1315114498138428 0.48327910900115967 44
-0.08507698774337769 2.127486228942871 0.4060581922531128 44
-0.08502229303121567 2.135453701019287 0.3320569097995758 44
-0.08407332748174667 2.1209311485290527 0.25592559576034546 44
-0.08459457755088806 2.143533229827881 0.184334397315979 44
-0.08383453637361526 2.133725643157959 0.10990550369024277 44
-0.0831713154911995 2.12630558013916 0.0364755280315876 44
nan nan nan 0
-0.08392275124788284 2.2046265602111816 -0.5005163550376892 119
-0.08210781216621399 2.166898012161255 -0.4136839807033539 119
-0.08073356747627258 2.1405038833618164 -0.3332056701183319 44
-0.08130671828985214 2.1657357215881348 -0.26141002774238586 44
-0.07991898059844971 2.138727903366089 -0.1838988959789276 44
-0.07918062061071396 2.1289260387420654 -0.10927897691726685 44
-0.07871805131435394 2.126481533050537 -0.036111101508140564 44
-0.07840725779533386 2.1281332969665527 0.5599782466888428 44
-0.07816968113183975 2.1317973136901855 0.48327910900115967 44
-0.07765015214681625 2.127770185470581 0.4060581922531128 44
-0.07738840579986572 2.1308021545410156 0.3312755823135376 44
-0.07666938751935959 2.1212117671966553 0.25592559576034546 44
-0.07711173593997955 2.143815517425537 0.184334397315979 44
-0.07638593018054962 2.134005308151245 0.10990550369024277 44
-0.07556398957967758 2.1215872764587402 0.03638826683163643 44
nan nan nan 0
-0.07622665911912918 2.2049059867858887 -0.5005163550376892 119
-0.07454342395067215 2.1671714782714844 -0.4136839807033539 0
-0.0732613280415535 2.140772819519043 -0.3332056701183319 44
-0.07374638319015503 2.166006326675415 -0.26141002774238586 44
-0.07228432595729828 2.1340160369873047 -0.18346312642097473 44
-0.07174880057573318 2.1291894912719727 -0.10927897691726685 44
-0.07129476219415665 2.1267433166503906 -0.036111101508140564 44
-0.07097820937633514 2.12839412689209 0.5599782466888428 44
-0.07056630402803421 2.127187728881836 0.4821552336215973 44
-0.07022237032651901 2.128028392791748 0.4060581922531128 44
-0.06995005160570145 2.131059169769287 0.3312755823135376 44
-0.06926450878381729 2.1214663982391357 0.25592559576034546 44
-0.06962794810533524 2.144071578979492 0.184334397315979 44
-0.06877519935369492 2.1292684078216553 0.10964382439851761 44
-0.06816447526216507 2.121837854385376 0.03638826683163643 44
nan nan nan 0
-0.06837831437587738 2.200289487838745 -0.4993916451931 119
-0.06697813421487808 2.1674184799194336 -0.4136839807033539 0
-0.0656365156173706 2.1360793113708496 -0.33242350816726685 44
-0.06603361666202545 2.161290168762207 -0.26080068945884705 44
-0.06483477354049683 2.1342554092407227 -0.18346312642097473 44
-0.06416535377502441 2.1244359016418457 -0.10901816189289093 44
-0.0638706162571907 2.126979351043701 -0.036111101508140564 44
-0.06340417265892029 2.1238012313842773 0.5586849451065063 44
-0.06314060837030411 2.1274211406707764 0.4821552336215973 44
-0.06264899671077728 2.123354434967041 0.40510502457618713 44
-0.06251084059476852 2.1312904357910156 0.3312755823135376 44
-0.061714157462120056 2.116734743118286 0.25531625747680664 44
-0.062143318355083466 2.144301652908325 0.184334397315979 44
-0.06134224683046341 2.12949538230896 0.10964382439851761 44
-0.060614388436079025 2.117065668106079 0.03630100190639496 44
nan nan nan 0
-0.06069745868444443 2.200514793395996 -0.4993916451931 119
-0.05927754193544388 2.1627326011657715 -0.4127308130264282 119
-0.058179810643196106 2.1362955570220947 -0.33242350816726685 44
-0.05848890170454979 2.1615076065063477 -0.26080068945884705 44
-0.057384442538022995 2.1344685554504395 -0.18346312642097473 44
-0.05674929916858673 2.1246469020843506 -0.10901816189289093 44
-0.05644568055868149 2.1271891593933105 -0.036111101508140564 44
-0.05599033460021019 2.124009370803833 0.5586849451065063 44
-0.05558659881353378 2.122758150100708 0.48103129863739014 44
-0.05523672327399254 2.1235601902008057 0.40510502457618713 44
-0.05494331568479538 2.126559019088745 0.3304942846298218 44
-0.054325003176927567 2.1169371604919434 0.25531625747680664 44
-0.05453101173043251 2.139525890350342 0.18389861285686493 44
-0.05390854552388191 2.1296966075897217 0.10964382439851761 44
-0.05322407931089401 2.1172642707824707 0.03630100190639496 44
nan nan nan 0
-0.05301585793495178 2.2007131576538086 -0.4993916451931 119
-0.05172783508896828 2.162926197052002 -0.4127308130264282 119
-0.050605177879333496 2.1315484046936035 -0.3316413164138794 44
-0.050826556980609894 2.1567370891571045 -0.2601913511753082 44
-0.04981691762804985 2.129676103591919 -0.18302734196186066 44
-0.04921666160225868 2.119840383529663 -0.10875736176967621 44
-0.0489048957824707 2.12237548828125 -0.03602471202611923 44
-0.04857581481337547 2.124191999435425 0.5586849451065063 44
-0.04817645624279976 2.122939348220825 0.48103129863739014 44
-0.0477132722735405 2.11883282661438 0.4041518270969391 44
-0.04751990735530853 2.1267378330230713 0.3304942846298218 44
-0.04682518541812897 2.112152576446533 0.2547069191932678 44
-0.04706234112381935 2.1397030353546143 0.18389861285686493 44
-0.04636526107788086 2.1248795986175537 0.10938214510679245 44
-0.045833125710487366 2.1174371242523193 0.03630100190639496 44
nan nan nan 0
-0.045333608984947205 2.2008848190307617 -0.4993916451931 119
-0.04407728090882301 2.158186197280884 -0.4117776155471802 119
-0.04316437616944313 2.1317121982574463 -0.3316413164138794 44
-0.04329783096909523 2.1569015979766846 -0.2601913511753082 44
-0.042382657527923584 2.1298367977142334 -0.18302734196186066 44
-0.04181673750281334 2.1199991703033447 -0.10875736176967621 44
-0.04149612784385681 2.1225333213806152 -0.03602471202611923 44
-0.0411607064306736 2.1243486404418945 0.5586849451065063 44
-0.040672194212675095 2.1182234287261963 0.47990742325782776 44
-0.0403168722987175 2.1189866065979004 0.4041518270969391 44
-0.04000282660126686 2.121952772140503 0.32971295714378357 44
-0.03945211321115494 2.1123030185699463 0.2547069191932678 44
-0.03950095549225807 2.1348745822906494 0.18346284329891205 44
-0.03894776850938797 2.125028610229492 0.10938214510679245 44
-0.03844161331653595 2.117584228515625 0.03630100190639496 44
nan nan nan 0
-0.037317510694265366 2.1815452575683594 -0.4948926270008087 119
-0.03654353320598602 2.158327102661133 -0.4117776155471802 119
-0.03572305291891098 2.131849765777588 -0.3316413164138794 44
-0.03568628802895546 2.1520771980285645 -0.259581983089447 44
-0.03494787961244583 2.129971981048584 -0.18302734196186066 44
-0.03433525562286377 2.1151394844055176 -0.10849654674530029 44
-0.03400657698512077 2.117666482925415 -0.0359383225440979 44
-0.03374509513378143 2.124479293823242 0.5586849451065063 44
-0.0332779623568058 2.1183526515960693 0.47990742325782776 44
-0.0329199843108654 2.119114398956299 0.4041518270969391 44
-0.03259558603167534 2.122079372406006 0.32971295714378357 44
-0.03207856044173241 2.1124279499053955 0.2547069191932678 44
-0.03204860910773277 2.1349992752075195 0.18346284329891205 44
-0.03152979537844658 2.1251516342163086 0.10938214510679245 44
-0.030976343899965286 2.1127071380615234 0.036213744431734085 44
nan nan nan 0
-0.029436983168125153 2.1621763706207275 -0.49039360880851746 119
-0.028943385928869247 2.153533697128296 -0.4108244478702545 119
-0.02828129008412361 2.1319613456726074 -0.3316413164138794 44
-0.028173919767141342 2.152188777923584 -0.259581983089447 44
-0.027448350563645363 2.125100612640381 -0.18259157240390778 44
-0.026951832696795464 2.115246534347534 -0.10849654674530029 44
-0.02661433443427086 2.117772340774536 -0.0359383225440979 44
-0.026269223541021347 2.1197547912597656 0.5573917031288147 44
-0.025883331894874573 2.1184558868408203 0.47990742325782776 44
-0.025463588535785675 2.1143085956573486 0.4031986594200134 44
-0.02518794871866703 2.122180223464966 0.32971295714378357 44
-0.024704618379473686 2.1125268936157227 0.2547069191932678 44
-0.024538500234484673 2.130117416381836 0.18302705883979797 44
-0.024054797366261482 2.120256185531616 0.10912046581506729 44
-0.023601433262228966 2.112802267074585 0.036213744431734085 44
nan nan nan 0
-0.02174144610762596 2.147650957107544 -0.4870193302631378 119
-0.021377142518758774 2.1487133502960205 -0.40987125039100647 119
-0.02079091966152191 2.1271092891693115 -0.3308591842651367 44
-0.020613571628928185 2.1473116874694824 -0.2589726448059082 44
-0.020030196756124496 2.125183343887329 -0.18259157240390778 44
-0.019568080082535744 2.1153275966644287 -0.10849654674530029 44
-0.019221767783164978 2.117852210998535 -0.0359383225440979 44
-0.018869739025831223 2.119833469390869 0.5573917031288147 44
-0.018488382920622826 2.1185333728790283 0.47990742325782776 44
-0.01808311976492405 2.114384651184082 0.4031986594200134 44
-0.01773863099515438 2.117316961288452 0.32893165946006775 44
-0.017330370843410492 2.112600326538086 0.2547069191932678 44
-0.017102854326367378 2.130190134048462 0.18302705883979797 44
-0.016653576865792274 2.1203272342681885 0.10912046581506729 44
-0.016226232051849365 2.1128718852996826 0.036213744431734085 44
nan nan nan 0
-0.014147677458822727 2.133098602294922 -0.4836450219154358 119
-0.013844906352460384 2.143867015838623 -0.4089180827140808 119
-0.013365795835852623 2.127168893814087 -0.3308591842651367 44
-0.013117928989231586 2.1473705768585205 -0.2589726448059082 44
-0.012582243420183659 2.1202595233917236 -0.1821557730436325 44
-0.012184089049696922 2.1153831481933594 -0.10849654674530029 44
-0.011801046319305897 2.1129074096679688 -0.03585193306207657 44
-0.011443891562521458 2.1150565147399902 0.556098461151123 44
-0.011067697778344154 2.113712787628174 0.4787834882736206 44
-0.01070243027061224 2.1144347190856934 0.4031986594200134 44
-0.010347708128392696 2.117366075515747 0.32893165946006775 44
-0.009932528249919415 2.1076853275299072 0.254097580909729 44
-0.009644395671784878 2.125256061553955 0.1825912892818451 44
-0.009230364114046097 2.1153793334960938 0.10885878652334213 44
-0.008829892612993717 2.1079163551330566 0.036126479506492615 44
nan nan nan 0
-0.006686382461339235 2.128263235092163 -0.48252031207084656 119
-0.006346765905618668 2.138993740081787 -0.4079648554325104 119
-0.005940509494394064 2.1272027492523193 -0.3308591842651367 44
-0.005609134212136269 2.1424405574798584 -0.258363276720047 44
-0.005181080661714077 2.120290517807007 -0.1821557730436325 44
-0.004799949936568737 2.115412712097168 -0.10849654674530029 44
-0.004425551276654005 2.112935781478882 -0.03585193306207657 44
-0.0040608965791761875 2.115083694458008 0.556098461151123 44
-0.0036893959622830153 2.1137382984161377 0.4787834882736206 44
-0.003321610391139984 2.114459276199341 0.4031986594200134 44
-0.002956658136099577 2.117389440536499 0.32893165946006775 44
-0.0025752733927220106 2.1077070236206055 0.254097580909729 44
-0.0022258092649281025 2.125276803970337 0.1825912892818451 44
-0.0018462566658854485 2.115398645401001 0.10885878652334213 44
-0.0014718379825353622 2.1079342365264893 0.036126479506492615 44
nan nan nan 0
0.0007409834070131183 2.1234018802642822 -0.48139551281929016 119
0.0011171846417710185 2.134094715118408 -0.4070116877555847 119
0.0014814018504694104 2.122271776199341 -0.33007699251174927 44
0.0018694123718887568 2.142446994781494 -0.258363276720047 44
0.0022201458923518658 2.120295524597168 -0.1821557730436325 44
0.0025781479198485613 2.1104235649108887 -0.10823573917150497 44
0.0029499975498765707 2.112938404083252 -0.03585193306207657 44
0.0033221475314348936 2.1150848865509033 0.556098461151123 44
0.0036804480478167534 2.1088664531707764 0.4776596128940582 44
0.004049827344715595 2.1095497608184814 0.4022454619407654 44
0.004434427712112665 2.117386817932129 0.32893165946006775 44
0.004770753439515829 2.102740526199341 0.2534882128238678 44
0.005180634558200836 2.120290756225586 0.18215550482273102 44
0.005524802021682262 2.110399007797241 0.10859710723161697 44
0.005872274748980999 2.1029274463653564 0.03603921830654144 44
nan nan nan 0
0.008153034374117851 2.1233861446380615 -0.48139551281929016 119
0.008546855300664902 2.129169464111328 -0.40605849027633667 119
0.00888950377702713 2.122253656387329 -0.33007699251174927 44
0.009326282888650894 2.137464761734009 -0.25775396823883057 44
0.009621345438063145 2.120274782180786 -0.1821557730436325 44
0.009944885037839413 2.1104018688201904 -0.10823573917150497 44
0.010301079601049423 2.1079158782958984 -0.03576553985476494 44
0.010705151595175266 2.115060329437256 0.556098461151123 44
0.01104174368083477 2.1088409423828125 0.4776596128940582 44
0.011413505300879478 2.109522581100464 0.4022454619407654 44
0.01179787702858448 2.112419843673706 0.32815033197402954 44
0.012082076631486416 2.0977485179901123 0.252878874540329 44
0.012581798247992992 2.1202597618103027 0.18215550482273102 44
0.0128914350643754 2.1103668212890625 0.10859710723161697 44
0.013212825171649456 2.1028940677642822 0.03603921830654144 44
nan nan nan 0
0.015529274009168148 2.1184730529785156 -0.4802708029747009 119
0.015978991985321045 2.129126787185669 -0.40605849027633667 119
0.0162595734000206 2.1172714233398438 -0.3292948305606842 44
0.016748392954468727 2.1324565410614014 -0.25714460015296936 44
0.017022427171468735 2.1202282905578613 -0.1821557730436325 44
0.017311502248048782 2.110354423522949 -0.10823573917150497 44
0.017659015953540802 2.1078670024871826 -0.03576553985476494 44
0.018046719953417778 2.110180377960205 0.5548052191734314 44
0.018402904272079468 2.1087894439697266 0.4776596128940582 44
0.018777044489979744 2.1094698905944824 0.4022454619407654 44
0.01917152851819992 2.11236572265625 0.32815033197402954 44
0.019404511898756027 2.097693681716919 0.252878874540329 44
0.019935864955186844 2.1152219772338867 0.18171973526477814 44
0.02025791071355343 2.110308885574341 0.10859710723161697 44
0.020553214475512505 2.102835178375244 0.03603921830654144 44
nan nan nan 0
0.0229240320622921 2.118406057357788 -0.4802708029747009 119
0.02335696667432785 2.124150037765503 -0.405105322599411 119
0.02365013211965561 2.117201805114746 -0.3292948305606842 44
0.024191951379179955 2.132384777069092 -0.25714460015296936 44
0.024423301219940186 2.1201560497283936 -0.1821557730436325 44
0.024619517847895622 2.105287790298462 -0.10797492414712906 44
0.02501673623919487 2.107792377471924 -0.03576553985476494 44
0.025412514805793762 2.110104560852051 0.5548052191734314 44
0.025704318657517433 2.1038408279418945 0.4765356779098511 44
0.026140352711081505 2.109391689300537 0.4022454619407654 44
0.02648288384079933 2.1073477268218994 0.3273690342903137 44
0.026663480326533318 2.0926506519317627 0.25226953625679016 44
0.027319245040416718 2.1151394844055176 0.18171973526477814 44
0.027624141424894333 2.1102254390716553 0.10859710723161697 44
0.02789335325360298 2.102750539779663 0.03603921830654144 44
nan nan nan 0
0.03031850792467594 2.1183130741119385 -0.4802708029747009 119
0.030771490186452866 2.1240553855895996 -0.405105322599411 119
0.03096800111234188 2.112168312072754 -0.32851263880729675 44
0.03156160190701485 2.1273255348205566 -0.25653526186943054 44
0.03182387724518776 2.1200578212738037 -0.1821557730436325 44
0.031968191266059875 2.105189085006714 -0.10797492414712906 44
0.03229737654328346 2.102693796157837 -0.035679154098033905 44
0.0327029787003994 2.1051738262176514 0.553511917591095 44
0.033047936856746674 2.1037380695343018 0.4765356779098511 44
0.03342539444565773 2.104379892349243 0.4012922942638397 44
0.03383874148130417 2.1072423458099365 0.3273690342903137 44
0.03396803140640259 2.0925447940826416 0.25226953625679016 44
0.03470229357481003 2.1150312423706055 0.18171973526477814 44
0.03499003127217293 2.1101160049438477 0.10859710723161697 44
0.03523315489292145 2.102640390396118 0.03603921830654144 44
nan nan nan 0
0.03762589022517204 2.113323450088501 -0.47914600372314453 119
0.038185637444257736 2.1239349842071533 -0.405105322599411 119
0.03834065422415733 2.1120471954345703 -0.32851263880729675 44
0.038987159729003906 2.1272025108337402 -0.25653526186943054 44
0.039131928235292435 2.1149539947509766 -0.18172000348567963 44
0.03931647911667824 2.105064868927002 -0.10797492414712906 44
0.039636947214603424 2.1025681495666504 -0.035679154098033905 44
0.040051206946372986 2.1050467491149902 0.553511917591095 44
0.04039115458726883 2.103610038757324 0.4765356779098511 44
0.04077084735035896 2.104250431060791 0.4012922942638397 44
0.04119418188929558 2.1071114540100098 0.3273690342903137 44
0.04127216711640358 2.0924134254455566 0.25226953625679016 44
0.04208492115139961 2.1148972511291504 0.18171973526477814 44
0.04225528985261917 2.1049890518188477 0.10833542048931122 44
0.042572520673274994 2.1025047302246094 0.03603921830654144 44
nan nan nan 0
0.04537135362625122 2.113171100616455 -0.47914600372314453 119
0.04586377739906311 2.1188735961914062 -0.4041520953178406 119
0.04597370699048042 2.1069555282592773 -0.3277304768562317 44
0.04678348824381828 2.127045154571533 -0.25653526186943054 44
0.04688335582613945 2.1147964000701904 -0.18172000348567963 44
0.04703166335821152 2.1049065589904785 -0.10797492414712906 44
0.04734298214316368 2.1024088859558105 -0.035679154098033905 44
0.047656748443841934 2.100057601928711 0.5522187352180481 44
0.0479896143078804 2.0985770225524902 0.4754118025302887 44
0.04836996644735336 2.099179744720459 0.4003390669822693 44
0.04880222678184509 2.1020090579986572 0.3265877068042755 44
0.04894097149372101 2.0922482013702393 0.25226953625679016 44
0.04983612522482872 2.1147286891937256 0.18171973526477814 44
0.049970172345638275 2.1048200130462646 0.10833542048931122 44
0.050278302282094955 2.102334499359131 0.03603921830654144 44
nan nan nan 0
0.05262584239244461 2.1081297397613525 -0.4780212938785553 119
0.05325974524021149 2.1187007427215576 -0.4041520953178406 119
0.053328074514865875 2.1067821979522705 -0.3277304768562317 44
0.054207973182201385 2.126868963241577 -0.25653526186943054 44
0.054265089333057404 2.114619731903076 -0.18172000348567963 44
0.054378870874643326 2.104729413986206 -0.10797492414712906 44
0.05468146875500679 2.1022307872772217 -0.035679154098033905 44
0.05498702451586723 2.0998783111572266 0.5522187352180481 44
0.055314723402261734 2.0983967781066895 0.4754118025302887 44
0.05569717288017273 2.0989980697631836 0.4003390669822693 44
0.05613930895924568 2.1018259525299072 0.3265877068042755 44
0.05611060932278633 2.0871036052703857 0.25166019797325134 44
0.05708286911249161 2.109562635421753 0.18128393590450287 44
0.057317063212394714 2.104632616043091 0.10833542048931122 44
0.05748621001839638 2.0971484184265137 0.03595195338129997 44
nan nan nan 0
0.05998426675796509 2.1079330444335938 -0.4780212938785553 119
0.06065506860613823 2.118501901626587 -0.4041520953178406 119
0.06053959205746651 2.101646661758423 -0.32694828510284424 44
0.06163180246949196 2.126666784286499 -0.25653526186943054 44
0.061500996351242065 2.10943865776062 -0.18128421902656555 44
0.061725419014692307 2.1045267581939697 -0.10797492414712906 44
0.062019288539886475 2.10202693939209 -0.035679154098033905 44
0.06217334419488907 2.0948455333709717 0.5509254336357117 44
0.06278454512357712 2.103060722351074 0.4765356779098511 44
0.06302370131015778 2.0987908840179443 0.4003390669822693 44
0.063624806702137 2.106553554534912 0.3273690342903137 44
0.06339561939239502 2.086894989013672 0.25166019797325134 44
0.06444627046585083 2.1093506813049316 0.18128393590450287 44
0.06466324627399445 2.104419708251953 0.10833542048931122 44
0.06495402008295059 2.1019322872161865 0.03603921830654144 44
nan nan nan 0
0.06734196096658707 2.107710838317871 -0.4780212938785553 119
0.06804965436458588 2.1182773113250732 -0.4041520953178406 119
0.06787533313035965 2.1014223098754883 -0.32694828510284424 44
0.06921594589948654 2.1313984394073486 -0.25714460015296936 44
0.06902647763490677 2.114189386367798 -0.18172000348567963 44
0.0690712109208107 2.1042985916137695 -0.10797492414712906 44
0.0695212334394455 2.1067941188812256 -0.03576553985476494 44
0.06980560719966888 2.1042702198028564 0.553511917591095 44
0.07028759270906448 2.1076982021331787 0.4776596128940582 44
0.07067836821079254 2.1083693504333496 0.4022454619407654 44
0.07131031155586243 2.116190195083618 0.32893165946006775 44
0.071015864610672 2.096580982208252 0.252878874540329 44
0.07214786112308502 2.1190690994262695 0.18215550482273102 44
0.07217942178249359 2.1091716289520264 0.10859710723161697 44
0.07263445109128952 2.111685276031494 0.036213744431734085 44
nan nan nan 0
0.07452625781297684 2.1025941371917725 -0.4768964946269989 119
0.07561812549829483 2.122931957244873 -0.405105322599411 119
0.07556357234716415 2.1110432147979736 -0.32851263880729675 44
0.07701227813959122 2.1410629749298096 -0.258363276720047 44
0.07676578313112259 2.1238908767700195 -0.18259157240390778 44
0.07677862048149109 2.1140244007110596 -0.10849654674530029 44
0.07723953574895859 2.116530656814575 -0.0359383225440979 44
0.07768140733242035 2.1184935569763184 0.5573917031288147 44
0.07818253338336945 2.1220459938049316 0.48103129863739014 44
0.07840064913034439 2.117919445037842 0.4041518270969391 44
0.07906386256217957 2.1257987022399902 0.3304942846298218 44
0.07870449125766754 2.106238842010498 0.254097580909729 44
0.07991807907819748 2.1287593841552734 0.18302705883979797 44
0.07991775870323181 2.1188859939575195 0.10912046581506729 44
0.08038374036550522 2.1214101314544678 0.03638826683163643 44
nan nan nan 0
0.08224436640739441 2.1120574474334717 -0.47914600372314453 119
0.08321992307901382 2.1275596618652344 -0.40605849027633667 119
0.08331979066133499 2.120635986328125 -0.33007699251174927 44
0.08468122780323029 2.145740270614624 -0.2589726448059082 44
0.0845736563205719 2.1335644721984863 -0.18346312642097473 44
0.08435612916946411 2.1187329292297363 -0.10875736176967621 44
0.08482688665390015 2.121243476867676 -0.03602471202611923 44
0.08565735071897507 2.1326873302459717 0.5612714290618896 44
0.08598212897777557 2.1314964294433594 0.48327910900115967 44
0.08599179238080978 2.12253737449646 0.40510502457618713 44
0.08688534796237946 2.13537859916687 0.3320569097995758 44
0.08646140247583389 2.115868330001831 0.25531625747680664 44
0.08796107769012451 2.143397808074951 0.184334397315979 44
0.08751916140317917 2.1235828399658203 0.10938214510679245 44
0.08820182085037231 2.1311066150665283 0.03656278923153877 44
nan nan nan 0
0.08982288092374802 2.1166250705718994 -0.4802708029747009 119
0.09106390178203583 2.13706374168396 -0.4079648554325104 0
0.0911438912153244 2.130199909210205 -0.3316413164138794 44
0.09259675443172455 2.1553478240966797 -0.2601913511753082 44
0.09244998544454575 2.1432087421417236 -0.1843346804380417 44
0.09196741133928299 2.1234138011932373 -0.10901816189289093 44
0.09266528487205505 2.1309235095977783 -0.036197494715452194 44
0.09373332560062408 2.1468513011932373 0.5651512145996094 44
0.09384864568710327 2.140918016433716 0.4855269193649292 44
0.09383191913366318 2.1320314407348633 0.4070114195346832 44
0.09455668181180954 2.13999605178833 0.33283817768096924 44
0.09450642764568329 2.130427122116089 0.2571443021297455 44
0.09566398710012436 2.1480536460876465 0.18477016687393188 44
0.0953773707151413 2.1332406997680664 0.10990550369024277 44
0.09586439281702042 2.135779857635498 0.036650050431489944 44
nan nan nan 0
0.09743428230285645 2.1211652755737305 -0.48139551281929016 119
0.09897524118423462 2.1465392112731934 -0.40987125039100647 0
0.09926411509513855 2.1446685791015625 -0.33398786187171936 44
0.10058038681745529 2.164926290512085 -0.26141002774238586 44
0.10016264021396637 2.14784836769104 -0.18477044999599457 44
0.09984589368104935 2.1330554485321045 -0.10953977704048157 44
0.10057227313518524 2.1405744552612305 -0.03637027367949486 44
0.10099915415048599 2.1416866779327393 0.5638579726219177 44
0.1013212725520134 2.1405773162841797 0.4855269193649292 44
0.10150644183158875 2.1365933418273926 0.4079645872116089 44
0.1020260900259018 2.139652967453003 0.33283817768096924 44
0.10217966884374619 2.1350412368774414 0.2577536702156067 44
0.10340049117803574 2.152681827545166 0.18520595133304596 44
0.10306362062692642 2.1378822326660156 0.11016718298196793 44
0.10331907123327255 2.135432243347168 0.036650050431489944 44
nan nan nan 0
0.10507847368717194 2.125678062438965 -0.48252031207084656 119
0.10671066492795944 2.151082992553711 -0.4108244478702545 0
0.10674980282783508 2.1443090438842773 -0.33398786187171936 44
0.10813677310943604 2.1645619869232178 -0.26141002774238586 44
0.10765942186117172 2.1474857330322266 -0.18477044999599457 44
0.10729104280471802 2.1326940059661865 -0.10953977704048157 44
0.10804365575313568 2.1402103900909424 -0.03637027367949486 44
0.10823005437850952 2.1364972591400146 0.5625647306442261 44
0.10879266262054443 2.1402106285095215 0.4855269193649292 44
0.10871390253305435 2.131324291229248 0.4070114195346832 44
0.10949424654245377 2.1392838954925537 0.33283817768096924 44
0.1093771830201149 2.1297154426574707 0.2571443021297455 44
0.11065778136253357 2.1473333835601807 0.18477016687393188 44
0.11078342795372009 2.14249587059021 0.11042886227369308 44
0.1107724979519844 2.135058641433716 0.036650050431489944 44
nan nan nan 0
0.11275535821914673 2.1301634311676025 -0.4836450219154358 119
0.11395838111639023 2.1457958221435547 -0.40987125039100647 0
0.11423417925834656 2.143923282623291 -0.33398786187171936 44
0.11569184809923172 2.1641712188720703 -0.26141002774238586 44
0.11515488475561142 2.147096633911133 -0.18477044999599457 44
0.11473488062620163 2.1323063373565674 -0.10953977704048157 44
0.11524423956871033 2.1348280906677246 -0.03628388047218323 44
0.1154259592294693 2.1312835216522217 0.5612714290618896 44
0.11626272648572922 2.139817714691162 0.4855269193649292 44
0.11615294963121414 2.130931854248047 0.4070114195346832 44
0.11696107685565948 2.1388885974884033 0.33283817768096924 44
0.11681061238050461 2.1293206214904785 0.2571443021297455 44
0.11815270036458969 2.1469340324401855 0.18477016687393188 44
0.11853670328855515 2.1470816135406494 0.11069054901599884 44
0.11822456121444702 2.1346588134765625 0.036650050431489944 44
nan nan nan 0
0.12019032984972 2.1297569274902344 -0.4836450219154358 119
0.12144791334867477 2.1453850269317627 -0.40987125039100647 0
0.1217171773314476 2.1435115337371826 -0.33398786187171936 44
0.12324550747871399 2.1637542247772217 -0.26141002774238586 44
0.122364841401577 2.141709089279175 -0.1843346804380417 44
0.12217731773853302 2.1318929195404053 -0.10953977704048157 44
0.12269547581672668 2.1344127655029297 -0.03628388047218323 44
0.12286482006311417 2.1308674812316895 0.5612714290618896 44
0.12345008552074432 2.134535312652588 0.4844030439853668 44
0.12330631911754608 2.125613212585449 0.4060581922531128 44
0.12413961440324783 2.1335370540618896 0.3320569097995758 44
0.1242426186800003 2.1288998126983643 0.2571443021297455 44
0.12564617395401 2.1465084552764893 0.18477016687393188 44
0.12603069841861725 2.1466548442840576 0.11069054901599884 44
0.12538133561611176 2.1292426586151123 0.03656278923153877 44
nan nan nan 0
0.12762384116649628 2.129324436187744 -0.4836450219154358 119
0.12893596291542053 2.1449480056762695 -0.40987125039100647 0
0.12919868528842926 2.143073797225952 -0.33398786187171936 44
0.13049815595149994 2.1583571434020996 -0.26080068945884705 44
0.12984004616737366 2.141268730163574 -0.1843346804380417 44
0.12961827218532562 2.131453514099121 -0.10953977704048157 44
0.1298409104347229 2.128981828689575 -0.036197494715452194 44
0.13000735640525818 2.1256051063537598 0.5599782466888428 44
0.13090024888515472 2.134091377258301 0.4844030439853668 44
0.13072533905506134 2.1251697540283203 0.4060581922531128 44
0.13158628344535828 2.1330907344818115 0.3320569097995758 44
0.13136669993400574 2.123500108718872 0.25653496384620667 44
0.1328297257423401 2.141085624694824 0.184334397315979 44
0.1332131028175354 2.1412181854248047 0.11042886227369308 44
0.1328130066394806 2.1287920475006104 0.03656278923153877 44
nan nan nan 0
0.1350557804107666 2.128865957260132 -0.4836450219154358 119
0.13642244040966034 2.144484758377075 -0.40987125039100647 0
0.13636422157287598 2.137681007385254 -0.3332056701183319 44
0.13803143799304962 2.157888650894165 -0.26080068945884705 44
0.1369948536157608 2.135831832885742 -0.1838988959789276 44
0.1367371678352356 2.1260054111480713 -0.10927897691726685 44
0.13694991171360016 2.1235265731811523 -0.036111101508140564 44
0.13680292665958405 2.1154987812042236 0.5573917031288147 44
0.13803356885910034 2.1287596225738525 0.48327910900115967 44
0.13782432675361633 2.119802713394165 0.40510502457618713 44
0.13871008157730103 2.127690315246582 0.3312755823135376 44
0.13877829909324646 2.1230287551879883 0.25653496384620667 44
0.13997690379619598 2.1356382369995117 0.18389861285686493 44
0.14035910367965698 2.1357579231262207 0.11016718298196793 44
0.1399143487215042 2.1233267784118652 0.0364755280315876 44
nan nan nan 0
0.1424860954284668 2.1283814907073975 -0.4836450219154358 119
0.14390726387500763 2.143995523452759 -0.40987125039100647 0
0.14382529258728027 2.1371920108795166 -0.3332056701183319 44
0.14522896707057953 2.152442216873169 -0.2601913511753082 44
0.14444947242736816 2.135340452194214 -0.1838988959789276 44
0.14415748417377472 2.1255152225494385 -0.10927897691726685 44
0.1440224051475525 2.1180479526519775 -0.03602471202611923 44
0.14385806024074554 2.11018967628479 0.556098461151123 44
0.1454634964466095 2.1282646656036377 0.48327910900115967 44
0.1452229768037796 2.1193087100982666 0.40510502457618713 44
0.14579780399799347 2.1222662925720215 0.3304942846298218 44
0.14584720134735107 2.1175801753997803 0.25592559576034546 44
0.1470877081155777 2.1301677227020264 0.18346284329891205 44
0.14781343936920166 2.1352550983428955 0.11016718298196793 44
0.1466330587863922 2.1128509044647217 0.03630100190639496 44
nan nan nan 0
0.1499146670103073 2.12787127494812 -0.4836450219154358 119
0.15104453265666962 2.1385843753814697 -0.4089180827140808 0
0.1509358286857605 2.1317508220672607 -0.33242350816726685 44
0.15239010751247406 2.1469717025756836 -0.259581983089447 44
0.15154880285263062 2.129854917526245 -0.18346312642097473 44
0.15122075378894806 2.120018243789673 -0.10901816189289093 44
0.15105833113193512 2.1125457286834717 -0.0359383225440979 44
0.15087780356407166 2.1048572063446045 0.5548052191734314 44
0.15254244208335876 2.122884511947632 0.4821552336215973 44
0.1522672176361084 2.1138930320739746 0.4041518270969391 44
0.15284930169582367 2.116818428039551 0.32971295714378357 44
0.15323804318904877 2.117058038711548 0.25592559576034546 44
0.15452249348163605 2.12964129447937 0.18346284329891205 44
0.15454155206680298 2.1247658729553223 0.10964382439851761 44
0.1536438763141632 2.1073405742645264 0.036213744431734085 44
nan nan nan 0
0.1573413908481598 2.1273348331451416 -0.4836450219154358 119
0.15850867331027985 2.1380441188812256 -0.4089180827140808 0
0.15801012516021729 2.126286029815674 -0.3316413164138794 44
0.1595149040222168 2.1414778232574463 -0.2589726448059082 44
0.15898245573043823 2.1293129920959473 -0.18346312642097473 44
0.15862007439136505 2.1194775104522705 -0.10901816189289093 44
0.15805760025978088 2.107020378112793 -0.03585193306207657 44
0.15786206722259521 2.099501371383667 0.553511917591095 44
0.15995176136493683 2.1223390102386475 0.4821552336215973 44
0.15964514017105103 2.1133487224578857 0.4041518270969391 44
0.159864604473114 2.1113479137420654 0.32893165946006775 44
0.1602514684200287 2.1115617752075195 0.25531625747680664 44
0.16157758235931396 2.124122142791748 0.18302705883979797 44
0.16157782077789307 2.119234800338745 0.10938214510679245 44
0.16061800718307495 2.101806640625 0.036126479506492615 44
nan nan nan 0
0.16476622223854065 2.12677264213562 -0.4836450219154358 119
0.16597086191177368 2.1374776363372803 -0.4089180827140808 0
0.16543127596378326 2.1257214546203613 -0.3316413164138794 44
0.16660314798355103 2.135960102081299 -0.258363276720047 44
0.16641417145729065 2.1287450790405273 -0.18346312642097473 44
0.16562746465206146 2.1139330863952637 -0.10875736176967621 44
0.16541151702404022 2.1064558029174805 -0.03585193306207657 44
0.165189728140831 2.098937511444092 0.553511917591095 44
0.16697601974010468 2.116910696029663 0.48103129863739014 44
0.16702114045619965 2.112778425216675 0.4041518270969391 44
0.16723360121250153 2.110776901245117 0.32893165946006775 44
0.1676212102174759 2.110989809036255 0.25531625747680664 44
0.16899116337299347 2.1235454082489014 0.18302705883979797 44
0.1689743548631668 2.1186578273773193 0.10938214510679245 44
0.16835203766822815 2.1062166690826416 0.036213744431734085 44
0.16140834987163544 1.9973978996276855 -0.5266969799995422 119
0.1717957854270935 2.121328592300415 -0.48252031207084656 119
0.17343103885650635 2.136885166168213 -0.4089180827140808 0
0.17245009541511536 2.120209217071533 -0.3308591842651367 44
0.17405802011489868 2.1353657245635986 -0.258363276720047 44
0.17343831062316895 2.1231863498687744 -0.18302734196186066 44
0.17300546169281006 2.113342046737671 -0.10875736176967621 44
0.17317216098308563 2.1108479499816895 -0.0359383225440979 44
0.1725153774023056 2.0983481407165527 0.553511917591095 44
0.17436441779136658 2.1163151264190674 0.48103129863739014 44
0.1743950992822647 2.1121826171875 0.4041518270969391 44
0.17460058629512787 2.110180377960205 0.32893165946006775 44
0.1753990203142166 2.115337371826172 0.25592559576034546 44
0.17640268802642822 2.1229424476623535 0.18302705883979797 44
0.1763688176870346 2.1180551052093506 0.10938214510679245 44
0.17570306360721588 2.1056160926818848 0.036213744431734085 44
0.16513311862945557 1.9583219289779663 -0.5163442492485046 119
0.17919956147670746 2.120716094970703 -0.48252031207084656 119
0.18088911473751068 2.1362669467926025 -0.4089180827140808 0
0.17984996736049652 2.1195943355560303 -0.3308591842651367 44
0.1815107762813568 2.1347451210021973 -0.258363276720047 44
0.18084855377674103 2.122568130493164 -0.18302734196186066 44
0.18038134276866913 2.112725257873535 -0.10875736176967621 44
0.1805393397808075 2.1102306842803955 -0.0359383225440979 44
0.18025149405002594 2.1025452613830566 0.5548052191734314 44
0.18175067007541656 2.1156933307647705 0.48103129863739014 44
0.18176692724227905 2.1115610599517822 0.4041518270969391 44
0.18238981068134308 2.11447811126709 0.32971295714378357 44
0.18278184533119202 2.1147122383117676 0.25592559576034546 44
0.1842418611049652 2.1272761821746826 0.18346284329891205 44
0.1837611347436905 2.117426633834839 0.10938214510679245 44
0.18348504602909088 2.1099700927734375 0.03630100190639496 44
nan nan nan 0
0.18660114705562592 2.120077610015869 -0.48252031207084656 119
0.18834498524665833 2.135622501373291 -0.4089180827140808 0
0.1872476190328598 2.1189534664154053 -0.3308591842651367 44
0.18939904868602753 2.1390419006347656 -0.2589726448059082 44
0.18825660645961761 2.1219239234924316 -0.18302734196186066 44
0.1877550333738327 2.1120827198028564 -0.10875736176967621 44
0.18834787607192993 2.114567279815674 -0.03602471202611923 44
0.1875896453857422 2.101903200149536 0.5548052191734314 44
0.18913470208644867 2.115046262741089 0.48103129863739014 44
0.1891365498304367 2.1109137535095215 0.4041518270969391 44
0.18976961076259613 2.113828420639038 0.32971295714378357 44
0.1897178590297699 2.109118700027466 0.25531625747680664 44
0.19166631996631622 2.126620054244995 0.18346284329891205 44
0.1911512166261673 2.116772174835205 0.10938214510679245 44
0.19129960238933563 2.114295721054077 0.03638826683163643 44
nan nan nan 0
0.1940004676580429 2.119413375854492 -0.48252031207084656 119
0.19624678790569305 2.1398396492004395 -0.40987125039100647 0
0.19464300572872162 2.1182870864868164 -0.3308591842651367 44
0.1968645453453064 2.1383676528930664 -0.2589726448059082 44
0.19566236436367035 2.1212539672851562 -0.18302734196186066 44
0.19512644410133362 2.1114144325256348 -0.10875736176967621 44
0.19572794437408447 2.1138968467712402 -0.03602471202611923 44
0.19492551684379578 2.101235866546631 0.5548052191734314 44
0.19651643931865692 2.114372968673706 0.48103129863739014 44
0.19650384783744812 2.1102406978607178 0.4041518270969391 44
0.19714708626270294 2.1131532192230225 0.32971295714378357 44
0.1970788985490799 2.10844349861145 0.25531625747680664 44
0.19862401485443115 2.120978832244873 0.18302705883979797 44
0.1990053951740265 2.121063470840454 0.10964382439851761 44
0.19867871701717377 2.1136152744293213 0.03638826683163643 44
nan nan nan 0
0.20139740407466888 2.118723154067993 -0.48252031207084656 119
0.2037150114774704 2.13914155960083 -0.40987125039100647 0
0.2020360231399536 2.1175947189331055 -0.3308591842651367 44
0.20432762801647186 2.137667655944824 -0.2589726448059082 44
0.20354054868221283 2.125516653060913 -0.18346312642097473 44
0.20249545574188232 2.11072039604187 -0.10875736176967621 44
0.203105628490448 2.1132009029388428 -0.03602471202611923 44
0.20225900411605835 2.1005425453186035 0.5548052191734314 44
0.20389577746391296 2.1136741638183594 0.48103129863739014 44
0.20386876165866852 2.109541893005371 0.4041518270969391 44
0.20452217757701874 2.112452268600464 0.32971295714378357 44
0.2039584368467331 2.1028032302856445 0.2547069191932678 44
0.20650814473628998 2.125230312347412 0.18346284329891205 44
0.2064080685377121 2.1203558444976807 0.10964382439851761 44
0.2060553878545761 2.1129088401794434 0.03638826683163643 44
0.19435131549835205 1.9750511646270752 -0.5215205550193787 119
0.20879191160202026 2.1180074214935303 -0.48252031207084656 119
0.21118077635765076 2.1384172439575195 -0.40987125039100647 0
0.20942658185958862 2.1168766021728516 -0.3308591842651367 44
0.21178823709487915 2.136941432952881 -0.2589726448059082 44
0.21095874905586243 2.12479305267334 -0.18346312642097473 44
0.20986200869083405 2.1100008487701416 -0.10875736176967621 44
0.21048083901405334 2.1124789714813232 -0.03602471202611923 44
0.20959003269672394 2.0998237133026123 0.5548052191734314 44
0.21127262711524963 2.1129496097564697 0.48103129863739014 44
0.2107420265674591 2.103933811187744 0.4031986594200134 44
0.21189476549625397 2.111725330352783 0.32971295714378357 44
0.21129734814167023 2.102078437805176 0.2547069191932678 44
0.21342627704143524 2.1195404529571533 0.18302705883979797 44
0.21380823850631714 2.1196224689483643 0.10964382439851761 44
0.21342957019805908 2.1121766567230225 0.03638826683163643 44
0.20124433934688568 1.974360704421997 -0.5215205550193787 119
0.2161838710308075 2.1172657012939453 -0.48252031207084656 119
0.21864396333694458 2.137667179107666 -0.40987125039100647 0
0.21681459248065948 2.1161327362060547 -0.3308591842651367 44
0.2192462831735611 2.1361889839172363 -0.2589726448059082 44
0.21786494553089142 2.119088649749756 -0.18302734196186066 44
0.21722601354122162 2.109255313873291 -0.10875736176967621 44
0.21785348653793335 2.1117312908172607 -0.03602471202611923 44
0.21691851317882538 2.099079132080078 0.5548052191734314 44
0.21864691376686096 2.112199306488037 0.48103129863739014 44
0.21808484196662903 2.1031851768493652 0.4031986594200134 44
0.21926476061344147 2.1109728813171387 0.32971295714378357 44
0.21863368153572083 2.101328134536743 0.2547069191932678 44
0.22082355618476868 2.1187825202941895 0.18302705883979797 44
0.22120580077171326 2.118863344192505 0.10964382439851761 44
0.22132107615470886 2.1163907051086426 0.0364755280315876 44
0.20914793014526367 1.9832520484924316 -0.5241087675094604 119
0.22357319295406342 2.1164979934692383 -0.48252031207084656 119
0.2261044681072235 2.1368908882141113 -0.40987125039100647 0
0.22419995069503784 2.1153628826141357 -0.3308591842651367 44
0.22670161724090576 2.135410785675049 -0.2589726448059082 44
0.22526061534881592 2.1183152198791504 -0.18302734196186066 44
0.2245873510837555 2.1084842681884766 -0.10875736176967621 44
0.22522348165512085 2.1109580993652344 -0.03602471202611923 44
0.224757581949234 2.103111743927002 0.556098461151123 44
0.2260185331106186 2.1114230155944824 0.48103129863739014 44
0.22542500495910645 2.1024110317230225 0.4031986594200134 44
0.22663208842277527 2.110194683074951 0.32971295714378357 44
0.22596734762191772 2.1005520820617676 0.2547069191932678 44
0.22821813821792603 2.1179988384246826 0.18302705883979797 44
0.2286006659269333 2.1180782318115234 0.10964382439851761 44
0.22870732843875885 2.115605354309082 0.0364755280315876 44
0.21816258132457733 2.0017147064208984 -0.5292851328849792 119
0.23043107986450195 2.1108617782592773 -0.48139551281929016 119
0.23356224596500397 2.1360886096954346 -0.40987125039100647 0
0.23158256709575653 2.114567518234253 -0.3308591842651367 44
0.233613058924675 2.1296730041503906 -0.258363276720047 44
0.23265354335308075 2.117516040802002 -0.18302734196186066 44
0.23249214887619019 2.1126503944396973 -0.10901816189289093 44
0.2325907200574875 2.110159158706665 -0.03602471202611923 44
0.23209746181964874 2.1023144721984863 0.556098461151123 44
0.23338739573955536 2.110621213912964 0.48103129863739014 44
0.2327624261379242 2.101611375808716 0.4031986594200134 44
0.2334521859884262 2.104482412338257 0.32893165946006775 44
0.23329827189445496 2.099750518798828 0.2547069191932678 44
0.23560994863510132 2.117189407348633 0.18302705883979797 44
0.23599274456501007 2.117267370223999 0.10964382439851761 44
0.2360907644033432 2.1147940158843994 0.0364755280315876 44
0.22406849265098572 1.991342306137085 -0.5266969799995422 119
0.23779797554016113 2.110044479370117 -0.48139551281929016 119
0.241017147898674 2.1352603435516357 -0.40987125039100647 0
0.23896238207817078 2.113746166229248 -0.3308591842651367 44
0.24104559421539307 2.128844738006592 -0.258363276720047 44
0.24004362523555756 2.1166908740997314 -0.18302734196186066 44
0.2398652583360672 2.111826181411743 -0.10901816189289093 44
0.2405201941728592 2.1143014430999756 -0.036111101508140564 44
0.23943448066711426 2.1014914512634277 0.556098461151123 44
0.2407534122467041 2.1097939014434814 0.48103129863739014 44
0.24009700119495392 2.1007862091064453 0.4031986594200134 44
0.2407967895269394 2.103654623031616 0.32893165946006775 44
0.24062635004520416 2.098923444747925 0.2547069191932678 44
0.242998868227005 2.116353988647461 0.18302705883979797 44
0.24338194727897644 2.1164307594299316 0.10964382439851761 44
0.24347133934497833 2.113957166671753 0.0364755280315876 44
0.23101820051670074 1.9905481338500977 -0.5266969799995422 119
0.24516195058822632 2.109201669692993 -0.48139551281929016 119
0.24790161848068237 2.129530906677246 -0.4089180827140808 0
0.24691113829612732 2.1178042888641357 -0.3316413164138794 44
0.24847516417503357 2.127990245819092 -0.258363276720047 44
0.24743078649044037 2.115840196609497 -0.18302734196186066 44
0.24723544716835022 2.110975980758667 -0.10901816189289093 44
0.24789901077747345 2.1134488582611084 -0.036111101508140564 44
0.24620509147644043 2.095845937728882 0.5548052191734314 44
0.24811650812625885 2.108940601348877 0.48103129863739014 44
0.24742864072322845 2.099935293197632 0.4031986594200134 44
0.2481384426355362 2.1028013229370117 0.32893165946006775 44
0.24795149266719818 2.0980706214904785 0.2547069191932678 44
0.2503848373889923 2.115492820739746 0.18302705883979797 44
0.25076818466186523 2.115568161010742 0.10964382439851761 44
0.2508489489555359 2.1130943298339844 0.0364755280315876 44
0.23796512186527252 1.9897295236587524 -0.5266969799995422 119
0.2531023323535919 2.1131703853607178 -0.48252031207084656 119
0.2553335726261139 2.128652572631836 -0.4089180827140808 0
0.25430214405059814 2.116929292678833 -0.3316413164138794 44
0.2559017241001129 2.127110004425049 -0.258363276720047 44
0.2548149526119232 2.1149635314941406 -0.18302734196186066 44
0.25400450825691223 2.1051430702209473 -0.10875736176967621 44
0.25527480244636536 2.1125707626342773 -0.036111101508140564 44
0.2529391944408417 2.090178966522217 0.553511917591095 44
0.25547659397125244 2.1080617904663086 0.48103129863739014 44
0.254757285118103 2.0990588665008545 0.4031986594200134 44
0.25547707080841064 2.1019222736358643 0.32893165946006775 44
0.25527361035346985 2.0971922874450684 0.2547069191932678 44
0.25776776671409607 2.1146059036254883 0.18302705883979797 44
0.2581513822078705 2.114680051803589 0.10964382439851761 44
0.2582234740257263 2.112205982208252 0.0364755280315876 44
0.2449091225862503 1.9888867139816284 -0.5266969799995422 119
0.26047712564468384 2.112273931503296 -0.48252031207084656 119
0.2627623677253723 2.1277482509613037 -0.4089180827140808 0
0.26169005036354065 2.1160287857055664 -0.3316413164138794 44
0.26332518458366394 2.126203775405884 -0.258363276720047 44
0.26219600439071655 2.1140613555908203 -0.18302734196186066 44
0.2613512873649597 2.104243516921997 -0.10875736176967621 44
0.26264750957489014 2.111666679382324 -0.036111101508140564 44
0.25844284892082214 2.0749049186706543 0.54963219165802 44
0.2622305154800415 2.102322578430176 0.47990742325782776 44
0.2620828151702881 2.0981569290161133 0.4031986594200134 44
0.2628125846385956 2.101017713546753 0.32893165946006775 44
0.262592613697052 2.0962884426116943 0.2547069191932678 44
0.2651475667953491 2.1136934757232666 0.18302705883979797 44
0.26553142070770264 2.1137659549713135 0.10964382439851761 44
0.2655948996543884 2.1112916469573975 0.0364755280315876 44
0.2518501281738281 1.9880197048187256 -0.5266969799995422 119
0.26784875988960266 2.111351728439331 -0.48252031207084656 119
0.27018800377845764 2.1268181800842285 -0.4089180827140808 0
0.26907476782798767 2.115102529525757 -0.3316413164138794 44
0.2707453966140747 2.1252715587615967 -0.258363276720047 44
0.2695738673210144 2.113132953643799 -0.18302734196186066 44
0.26869484782218933 2.103318452835083 -0.10875736176967621 44
0.27001699805259705 2.1107370853424072 -0.036111101508140564 44
0.27059364318847656 2.1123158931732178 0.5599782466888428 44
0.2695674002170563 2.1013944149017334 0.47990742325782776 44
0.2687797546386719 2.092360734939575 0.4022454619407654 44
0.27014490962028503 2.1000876426696777 0.32893165946006775 44
0.26990842819213867 2.0953590869903564 0.2547069191932678 44
0.2725241184234619 2.1127548217773438 0.18302705883979797 44
0.27290821075439453 2.112826347351074 0.10964382439851761 44
0.2729630470275879 2.110351800918579 0.0364755280315876 44
0.2587880790233612 1.987128496170044 -0.5266969799995422 119
0.27521708607673645 2.1104040145874023 -0.48252031207084656 119
0.27761033177375793 2.1258621215820312 -0.4089180827140808 0
0.27645620703697205 2.114150285720825 -0.3316413164138794 44
0.2781623303890228 2.1243135929107666 -0.258363276720047 44
0.2769484221935272 2.1121792793273926 -0.18302734196186066 44
0.2760351896286011 2.102367639541626 -0.10875736176967621 44
0.2773832082748413 2.1097817420959473 -0.036111101508140564 44
0.2798566520214081 2.1257240772247314 0.5638579726219177 44
0.2769010066986084 2.100440740585327 0.47990742325782776 44
0.2760818302631378 2.091409921646118 0.4022454619407654 44
0.27682676911354065 2.094235897064209 0.32815033197402954 44
0.2772209644317627 2.0944042205810547 0.2547069191932678 44
0.2792428731918335 2.1068530082702637 0.1825912892818451 44
0.280281662940979 2.111860752105713 0.10964382439851761 44
