# .PCD v0.7 - Point Cloud Data file format
VERSION 0.7
FIELDS x y z intensity
SIZE 4 4 4 4
TYPE F F F F
COUNT 1 1 1 1
WIDTH 821
HEIGHT 1
VIEWPOINT 0 0 0 1 0 0 0
POINTS 821
DATA ascii
-9.976629257202148 1.001075267791748 0.17434953153133392 11
-1.9745005369186401 0.19986599683761597 -0.5215205550193787 119
-2.2676730155944824 0.22994178533554077 -0.5173877477645874 119
-2.6993844509124756 0.27419328689575195 -0.5194879770278931 119
-3.2954208850860596 0.3353174924850464 -0.5185806751251221 119
nan nan nan 0
-6.331169128417969 0.646445631980896 -0.5534397959709167 119
-9.823588371276855 1.004772424697876 -0.5137937068939209 119
-10.083950996398926 1.0331811904907227 -0.174508199095726 11
-8.686358451843262 0.8915186524391174 2.3278541564941406 32
-9.978221893310547 1.0258680582046509 2.305129051208496 32
-10.047128677368164 1.0347247123718262 1.954035997390747 11
-10.143073081970215 1.0463948249816895 1.6071553230285645 11
-9.960296630859375 1.029295802116394 1.2247868776321411 11
-10.130361557006836 1.0486571788787842 0.8876811861991882 11
-10.11014461517334 1.048348069190979 0.5306865572929382 11
-10.137166023254395 1.0529382228851318 0.17722918093204498 11
-1.9737910032272339 0.2067570686340332 -0.5215205550193787 119
-2.2668566703796387 0.23785604536533356 -0.5173877477645874 119
-2.698410987854004 0.28361421823501587 -0.5194879770278931 119
-3.2942302227020264 0.34681862592697144 -0.5185806751251221 119
nan nan nan 0
-6.328873634338379 0.6685415506362915 -0.5534397959709167 119
-10.122916221618652 1.0711063146591187 -0.5297030806541443 119
-10.159826278686523 1.0768048763275146 -0.17589043080806732 11
-8.68319320678711 0.9218342900276184 2.3278541564941406 32
-10.04240608215332 1.0679049491882324 2.320863723754883 32
-10.365581512451172 1.1041009426116943 2.01694655418396 11
-10.213019371032715 1.0896533727645874 1.6188750267028809 11
-10.134289741516113 1.0830423831939697 1.2467232942581177 11
-10.210833549499512 1.0930250883102417 0.8950894474983215 11
-10.170965194702148 1.0905529260635376 0.5340884327888489 11
-11.003293991088867 1.1817394495010376 0.1925000250339508 11
-1.9730571508407593 0.21364563703536987 -0.5215205550193787 119
-2.26601243019104 0.24576741456985474 -0.5173877477645874 119
-2.697404623031616 0.2930316925048828 -0.5194879770278931 119
-3.2979092597961426 0.35884976387023926 -0.5193628668785095 119
-4.3844523429870605 0.4778522253036499 -0.5368350148200989 119
-6.321550369262695 0.6900888681411743 -0.5530040264129639 119
-10.218388557434082 1.1172900199890137 -0.534919261932373 119
-11.065431594848633 1.21186101436615 -0.1916998326778412 11
-8.675121307373047 0.9516119956970215 2.3265607357025146 32
-10.033773422241211 1.1024208068847656 2.319739818572998 32
-10.781246185302734 1.186450719833374 2.0989208221435547 11
-11.102563858032227 1.2237722873687744 1.7610734701156616 11
-11.052873611450195 1.220247745513916 1.3606711626052856 11
-11.093149185180664 1.226654052734375 0.9730938673019409 11
-11.080252647399902 1.2271854877471924 0.5822374820709229 11
-11.068663597106934 1.2278574705123901 0.1937216967344284 11
-1.9722994565963745 0.22053158283233643 -0.5215205550193787 119
-2.2651407718658447 0.25367575883865356 -0.5173877477645874 119
-2.6914875507354736 0.3018985092639923 -0.5185348391532898 119
-3.2966365814208984 0.3703593909740448 -0.5193628668785095 119
-4.41727876663208 0.4970382750034332 -0.5411005020141602 119
-6.309203624725342 0.7110353112220764 -0.5521324872970581 119
nan nan nan 0
-11.06610107421875 1.2510408163070679 -0.19178622961044312 11
-8.671747207641602 0.981887936592102 2.3265607357025146 32
-10.025023460388184 1.1368894577026367 2.3186159133911133 32
-11.176947593688965 1.2694995403289795 2.177082061767578 11
-11.520219802856445 1.31052565574646 1.8282661437988281 11
-11.078131675720215 1.2621928453445435 1.3643271923065186 11
-11.098697662353516 1.266498327255249 0.9739654660224915 11
-11.080862045288086 1.266422152519226 0.5824992060661316 11
-11.099077224731445 1.2704665660858154 0.1943325251340866 11
-1.9715176820755005 0.22741484642028809 -0.5215205550193787 119
-2.2642414569854736 0.26158103346824646 -0.5173877477645874 119
-2.690417528152466 0.31129172444343567 -0.5185348391532898 119
-3.295323610305786 0.3818645477294922 -0.5193628668785095 119
nan nan nan 0
-6.3017354011535645 0.7324791550636292 -0.5516967177391052 119
-11.103083610534668 1.2925256490707397 -0.5818648934364319 119
-11.384432792663574 1.32729172706604 -0.19740161299705505 11
-8.663469314575195 1.011591911315918 2.3252675533294678 32
-10.016154289245605 1.171310544013977 2.3174920082092285 32
-11.645320892333984 1.3638889789581299 2.2695412635803223 11
-11.952116012573242 1.4019352197647095 1.897802710533142 11
-11.137733459472656 1.3083821535110474 1.372248649597168 11
-11.668045043945312 1.3727439641952515 1.0245157480239868 11
-11.567298889160156 1.3629381656646729 0.6084054708480835 11
-11.893906593322754 1.4035260677337646 0.20838171243667603 11
-1.9707117080688477 0.23429535329341888 -0.5215205550193787 119
-2.2633144855499268 0.26948311924934387 -0.5173877477645874 119
-2.689314365386963 0.3206811249256134 -0.5185348391532898 119
-3.2939705848693848 0.3933650553226471 -0.5193628668785095 119
nan nan nan 0
-6.294194221496582 0.7538794875144958 -0.5512608885765076 119
-11.123292922973633 1.3342483043670654 -0.5831689238548279 119
-12.139155387878418 1.458250880241394 -0.21061930060386658 11
-8.659886360168457 1.0418269634246826 2.3252675533294678 32
-10.00716781616211 1.2056834697723389 2.3163678646087646 32
-11.830533981323242 1.42746102809906 2.306715726852417 32
-12.432538032531738 1.5022999048233032 1.9751524925231934 11
-11.94601821899414 1.445626139640808 1.4727909564971924 11
-12.256556510925293 1.485376000404358 1.0768091678619385 11
-12.18206787109375 1.478506088256836 0.6411154270172119 11
-12.454684257507324 1.513798713684082 0.21832957863807678 11
-1.9698818922042847 0.24117298424243927 -0.5215205550193787 119
-2.262360095977783 0.27738192677497864 -0.5173877477645874 119
-2.688178539276123 0.33006665110588074 -0.5185348391532898 119
-3.2925772666931152 0.4048607647418976 -0.5193628668785095 119
nan nan nan 0
-6.2964677810668945 0.7764553427696228 -0.5516967177391052 119
-11.163167953491211 1.378575325012207 -0.5855162143707275 119
-12.620214462280273 1.5607469081878662 -0.21908552944660187 11
-8.656196594238281 1.0720491409301758 2.3252675533294678 32
-9.998064041137695 1.2400081157684326 2.315244197845459 32
-11.835221290588379 1.4699586629867554 2.308622121810913 32
-12.907498359680176 1.6054253578186035 2.0517210960388184 11
-12.433365821838379 1.548656702041626 1.533725619316101 11
-12.740621566772461 1.5891855955123901 1.1199512481689453 11
-12.65743350982666 1.5810526609420776 0.6664983630180359 11
-12.965224266052246 1.6217975616455078 0.22740484774112701 11
-1.9738198518753052 0.24865134060382843 -0.5228146910667419 119
-2.261378049850464 0.2852773666381836 -0.5173877477645874 119
-2.682140350341797 0.33883291482925415 -0.517581582069397 119
-3.2911441326141357 0.4163515269756317 -0.5193628668785095 119
-4.400062084197998 0.5574172139167786 -0.5398817658424377 119
-6.293719291687012 0.7984293699264526 -0.5516967177391052 119
-11.173148155212402 1.4194214344024658 -0.5862986445426941 119
-13.155250549316406 1.6735583543777466 -0.2285020649433136 11
-8.6524019241333 1.102258563041687 2.3252675533294678 32
-9.993674278259277 1.274900197982788 2.315244197845459 32
-11.834887504577637 1.5118844509124756 2.309575319290161 32
-13.489653587341309 1.725670576095581 2.1454782485961914 11
-12.939825057983398 1.6576288938522339 1.597097635269165 11
-13.283390998840332 1.703997015953064 1.1683226823806763 11
-13.206511497497559 1.6964781284332275 0.6958065032958984 11
-13.549532890319824 1.742945671081543 0.23778903484344482 11
-1.9729398488998413 0.2555397152900696 -0.5228146910667419 119
-2.2603683471679688 0.2931692898273468 -0.5173877477645874 119
-2.680941104888916 0.3481932580471039 -0.517581582069397 119
-3.294567584991455 0.428474098443985 -0.5201449990272522 119
-4.427616596221924 0.5766183137893677 -0.5435379147529602 119
-6.290894031524658 0.8203937411308289 -0.5516967177391052 119
-11.138419151306152 1.4545352458953857 -0.584733784198761 119
-13.724347114562988 1.7946606874465942 -0.23852333426475525 11
-8.643712043762207 1.1318271160125732 2.323974132537842 32
-9.984333038330078 1.3091436624526978 2.314120292663574 32
-11.814937591552734 1.5512696504592896 2.306715726852417 32
-14.134775161743164 1.858367681503296 2.249392509460449 11
-13.504712104797363 1.777928113937378 1.6677818298339844 11
-13.884765625 1.8304284811019897 1.2219234704971313 11
-13.8093843460083 1.822943091392517 0.7279931306838989 11
-14.118277549743652 1.8662264347076416 0.24791142344474792 11
-1.9719899892807007 0.2627691924571991 -0.5228146910667419 119
-2.2544493675231934 0.3008076250553131 -0.516262948513031 119
-2.6796469688415527 0.35801708698272705 -0.517581582069397 119
-3.2929751873016357 0.4405463933944702 -0.5201449990272522 119
-4.405797958374023 0.5902066826820374 -0.5411005020141602 119
-6.287844657897949 0.8434454202651978 -0.5516967177391052 119
-11.128064155578613 1.4946850538253784 -0.5844729542732239 119
-14.133868217468262 1.9009259939193726 -0.2457801103591919 119
-8.639505386352539 1.1635003089904785 2.323974132537842 32
-9.979467391967773 1.3457292318344116 2.314120292663574 32
-11.857813835144043 1.6011312007904053 2.3162474632263184 32
nan nan nan 0
-14.171853065490723 1.918627381324768 1.7512624263763428 11
-14.287638664245605 1.9368420839309692 1.2580931186676025 11
-14.188536643981934 1.9259297847747803 0.7484041452407837 11
nan nan nan 0
-1.9758456945419312 0.2703057527542114 -0.5241087675094604 119
-2.2533857822418213 0.30867528915405273 -0.516262948513031 119
-2.6881065368652344 0.36870256066322327 -0.5194879770278931 119
-3.2963099479675293 0.4527103006839752 -0.5209271907806396 119
-4.428293228149414 0.6089627146720886 -0.5441471934318542 119
-6.279927730560303 0.8647095561027527 -0.5512608885765076 119
-11.112885475158691 1.5321561098098755 -0.5839513540267944 119
-15.102746963500977 2.084932565689087 -0.2627989947795868 119
-8.635391235351562 1.193650722503662 2.323974132537842 32
-9.974709510803223 1.3805558681488037 2.314120292663574 32
-11.827844619750977 1.6391441822052002 2.3114817142486572 32
-14.355916023254395 1.99204683303833 2.286895275115967 32
-14.897480964660645 2.06984543800354 1.842055082321167 11
-15.336551666259766 2.133578062057495 1.3513498306274414 11
-15.180699348449707 2.1145970821380615 0.8012634515762329 11
nan nan nan 0
-1.9701075553894043 0.27652978897094727 -0.5228146910667419 119
-2.2474703788757324 0.31586119532585144 -0.5151382088661194 119
-2.691663980484009 0.37876754999160767 -0.5204411745071411 119
-3.2947094440460205 0.46421384811401367 -0.5209271907806396 119
-4.4163126945495605 0.6230301856994629 -0.5429285168647766 119
-6.276871204376221 0.8866252899169922 -0.5512608885765076 119
-11.10252571105957 1.570238709449768 -0.5836905241012573 119
-15.66461181640625 2.2182469367980957 -0.2727338671684265 119
-8.635954856872559 1.2244646549224854 2.3252675533294678 32
-9.969829559326172 1.4153656959533691 2.314120292663574 32
-11.80747127532959 1.6783487796783447 2.308622121810913 32
-14.329318046569824 2.039362907409668 2.2837700843811035 32
-15.582911491394043 2.220550298690796 1.9279729127883911 11
-15.718562126159668 2.2426798343658447 1.3857762813568115 11
-15.672464370727539 2.238893747329712 0.8276931047439575 11
nan nan nan 0
-1.9691301584243774 0.283405065536499 -0.5228146910667419 119
-2.246354103088379 0.32370442152023315 -0.5151382088661194 119
-2.7000410556793213 0.389562726020813 -0.5223475694656372 119
-3.2930688858032227 0.4757116734981537 -0.5209271907806396 119
nan nan nan 0
-6.268808364868164 0.9078163504600525 -0.5508251190185547 119
-11.092034339904785 1.6082676649093628 -0.5834296941757202 119
-16.656147003173828 2.4179933071136475 -0.2901846766471863 119
-8.631628036499023 1.254602313041687 2.3252675533294678 32
-9.964828491210938 1.4501582384109497 2.314120292663574 32
-11.786971092224121 1.7174313068389893 2.30576229095459 32
-14.317225456237793 2.088656425476074 2.2829887866973877 32
-16.424604415893555 2.399017095565796 2.0333898067474365 11
-17.031490325927734 2.4906961917877197 1.5025650262832642 11
-16.766279220581055 2.4549007415771484 0.8860477209091187 11
-17.30562400817871 2.536956310272217 0.3046317398548126 11
-1.9681289196014404 0.2902768552303314 -0.5228146910667419 119
-2.2500298023223877 0.3322553336620331 -0.516262948513031 119
-2.7132315635681152 0.4011388421058655 -0.5252071022987366 119
-3.291388511657715 0.4872037470340729 -0.5209271907806396 119
nan nan nan 0
-6.265601634979248 0.9296931028366089 -0.5508251190185547 119
-11.086353302001953 1.646976351737976 -0.5834296941757202 119
-17.60690689086914 2.6188032627105713 -0.3069443702697754 119
-8.631972312927246 1.2854360342025757 2.3265607357025146 32
-9.95970630645752 1.4849331378936768 2.314120292663574 32
-11.766340255737305 1.7563910484313965 2.302902936935425 32
-14.309847831726074 2.138620138168335 2.2829887866973877 32
-17.358484268188477 2.597338914871216 2.1503846645355225 11
-17.85025978088379 2.6741082668304443 1.5757758617401123 11
-17.730377197265625 2.6593129634857178 0.9375985860824585 11
-18.290369033813477 2.746568202972412 0.3221713900566101 11
-1.9671037197113037 0.29714515805244446 -0.5228146910667419 119
-2.253673791885376 0.34083592891693115 -0.5173877477645874 119
-2.6972556114196777 0.4084029197692871 -0.5223475694656372 119
-3.289667844772339 0.4986898899078369 -0.5209271907806396 119
nan nan nan 0
-6.262317657470703 0.9515584707260132 -0.5508251190185547 119
-11.080536842346191 1.6856647729873657 -0.5834296941757202 119
-18.684955596923828 2.8458499908447266 -0.3259502053260803 119
-8.632207870483398 1.3162875175476074 2.3278541564941406 32
-9.959277153015137 1.5204250812530518 2.315244197845459 32
-11.760137557983398 1.7974525690078735 2.302902936935425 32
-14.292531967163086 2.187063694000244 2.281426191329956 32
nan nan nan 0
-19.086437225341797 2.927452802658081 1.6860277652740479 11
-18.841299057006836 2.893219232559204 0.9969999194145203 11
-19.466554641723633 2.9927098751068115 0.34311428666114807 11
-1.9660545587539673 0.3040098249912262 -0.5228146910667419 119
-2.257284641265869 0.34944596886634827 -0.518512487411499 119
-2.6909632682800293 0.41706383228302 -0.5213943719863892 119
-3.2879068851470947 0.5101699233055115 -0.5209271907806396 119
nan nan nan 0
-6.258957862854004 0.973412275314331 -0.5508251190185547 119
-11.0745849609375 1.7243329286575317 -0.5834296941757202 119
-19.559097290039062 3.0488831996917725 -0.34141406416893005 119
-8.62756061553955 1.3464115858078003 2.3278541564941406 32
-9.958722114562988 1.5559321641921997 2.3163678646087646 32
-11.753791809082031 1.8384921550750732 2.302902936935425 32
-14.27993106842041 2.2361764907836914 2.2806448936462402 32
nan nan nan 0
-20.16850471496582 3.165515184402466 1.7827707529067993 11
-19.531518936157227 3.069031000137329 1.03415846824646 11
-20.95729637145996 3.2968151569366455 0.3696419596672058 11
-1.9649814367294312 0.31087079644203186 -0.5228146910667419 119
-2.2608630657196045 0.3580853343009949 -0.5196372270584106 119
-2.684643507003784 0.4256858825683594 -0.5204411745071411 119
-3.2861061096191406 0.5216437578201294 -0.5209271907806396 119
nan nan nan 0
-6.25552225112915 0.9952541589736938 -0.5508251190185547 119
-11.068498611450195 1.7629798650741577 -0.5834296941757202 119
-21.557645797729492 3.437539577484131 -0.37657487392425537 119
-8.627578735351562 1.377280592918396 2.3291473388671875 32
-9.958041191101074 1.591454029083252 2.3174920082092285 32
-11.747303009033203 1.8795093297958374 2.302902936935425 32
-14.26716136932373 2.2852277755737305 2.2798633575439453 32
-18.310359954833984 2.9361207485198975 2.27225399017334 32
-21.46552276611328 3.4459035396575928 1.8986878395080566 11
-21.206707000732422 3.4081521034240723 1.1236529350280762 11
-22.362224578857422 3.597860336303711 0.39468616247177124 11
-1.9591164588928223 0.31695660948753357 -0.5215205550193787 119
-2.264408588409424 0.3667539656162262 -0.520762026309967 119
-2.678295850753784 0.4342688024044037 -0.5194879770278931 119
-3.2842652797698975 0.5331112146377563 -0.5209271907806396 119
nan nan nan 0
-6.252009868621826 1.017084002494812 -0.5508251190185547 119
-11.05734920501709 1.8008029460906982 -0.5831689238548279 119
-22.779041290283203 3.7138819694519043 -0.39817243814468384 119
-8.62271785736084 1.4073880910873413 2.3291473388671875 32
-9.962042808532715 1.6277759075164795 2.319739818572998 32
-11.745514869689941 1.9212960004806519 2.303856134414673 32
-14.259098052978516 2.3350157737731934 2.2798633575439453 32
-18.265716552734375 2.9943981170654297 2.2679882049560547 32
-22.868947982788086 3.753129482269287 2.0241920948028564 11
-22.717153549194336 3.7322895526885986 1.2045120000839233 11
-23.212797164916992 3.8178815841674805 0.40995702147483826 11
-1.9579981565475464 0.3237932622432709 -0.5215205550193787 119
-2.258307933807373 0.37386029958724976 -0.5196372270584106 119
-2.6767637729644775 0.4436151683330536 -0.5194879770278931 119
-3.2823843955993652 0.5445721745491028 -0.5209271907806396 119
nan nan nan 0
-6.253334999084473 1.0397182703018188 -0.5512608885765076 119
-11.03622055053711 1.8369299173355103 -0.5823864936828613 119
-24.590505599975586 4.097391128540039 -0.4301367700099945 0
-8.622516632080078 1.4382730722427368 2.3304405212402344 32
-9.965910911560059 1.6641448736190796 2.3219876289367676 32
-11.748417854309082 1.963902235031128 2.30576229095459 32
-14.255731582641602 2.385590076446533 2.2806448936462402 32
-18.255151748657227 3.058138847351074 2.2679882049560547 32
nan nan nan 0
nan nan nan 0
nan nan nan 0
-1.9520940780639648 0.32982137799263 -0.5202265381813049 119
-2.2569892406463623 0.3817409574985504 -0.5196372270584106 119
-2.675198793411255 0.45295611023902893 -0.5194879770278931 119
-3.280463457107544 0.5560265183448792 -0.5209271907806396 119
-4.382515907287598 0.7436073422431946 -0.5411005020141602 119
-6.249667644500732 1.061540126800537 -0.5512608885765076 119
-11.019895553588867 1.8737680912017822 -0.5818648934364319 119
-26.80860710144043 4.563216686248779 -0.46927157044410706 119
-8.617443084716797 1.4683624505996704 2.3304405212402344 32
-9.969647407531738 1.7005606889724731 2.324235439300537 32
-11.746328353881836 2.0057260990142822 2.306715726852417 32
-14.25705337524414 2.4370017051696777 2.282207489013672 32
-18.23947525024414 3.1210055351257324 2.26737904548645 32
-24.967987060546875 4.276824951171875 2.2128841876983643 32
-26.75555419921875 4.587828159332275 1.4206594228744507 11
-29.67959976196289 5.094552516937256 0.5249683856964111 11
-1.9556901454925537 0.3374546766281128 -0.5215205550193787 119
-2.2508420944213867 0.38878777623176575 -0.518512487411499 119
-2.6736016273498535 0.46229153871536255 -0.5194879770278931 119
-3.2736363410949707 0.5666317939758301 -0.5201449990272522 119
-4.3847832679748535 0.7597478628158569 -0.541709840297699 119
-6.245924472808838 1.0833491086959839 -0.5512608885765076 119
-11.003448486328125 1.9105151891708374 -0.5813432335853577 119
-27.368785858154297 4.756929397583008 -0.47937920689582825 119
-8.617023468017578 1.499261736869812 2.3317337036132812 32
-9.973249435424805 1.7370227575302124 2.3264832496643066 32
-11.748927116394043 2.0484020709991455 2.308622121810913 32
-14.253325462341309 2.487602472305298 2.2829887866973877 32
-18.23335838317871 3.1855084896087646 2.2679882049560547 32
-24.918560028076172 4.357946872711182 2.209833860397339 32
-29.74448585510254 5.207291603088379 1.5805457830429077 11
-30.789274215698242 5.39573860168457 0.544951319694519 13
-1.959256649017334 0.34511706233024597 -0.5228146910667419 119
-2.249471426010132 0.3966423273086548 -0.518512487411499 119
-2.671971559524536 0.4716213345527649 -0.5194879770278931 119
-3.2716383934020996 0.5780555009841919 -0.5201449990272522 119
-4.352783679962158 0.7698630690574646 -0.5380537509918213 119
-6.232295513153076 1.1034080982208252 -0.5503893494606018 119
-10.986879348754883 1.9471697807312012 -0.5808216333389282 119
-27.23387908935547 4.83147668838501 -0.4773058593273163 119
-8.611737251281738 1.5293318033218384 2.3317337036132812 32
-9.971922874450684 1.7726781368255615 2.3276071548461914 32
-11.746538162231445 2.0902609825134277 2.309575319290161 32
-14.254279136657715 2.5390727519989014 2.2845513820648193 32
-18.23189926147461 3.250877618789673 2.269207000732422 32
-24.878681182861328 4.440526485443115 2.2076549530029297 32
-30.83698844909668 5.509562015533447 1.6396855115890503 13
-30.77517318725586 5.504060745239258 0.545038640499115 13
-1.9675469398498535 0.35366290807724 -0.5254029035568237 119
-2.2432782649993896 0.4036293029785156 -0.5173877477645874 119
-2.6654787063598633 0.4800753891468048 -0.5185348391532898 119
-3.2696006298065186 0.5894720554351807 -0.5201449990272522 119
-4.389140605926514 0.7921034693717957 -0.5429285168647766 119
-6.223504066467285 1.1242706775665283 -0.5499535799026489 119
-10.970189094543457 1.9837324619293213 -0.5803000330924988 119
nan nan nan 0
-8.606346130371094 1.5593829154968262 2.3317337036132812 32
-9.965673446655273 1.8074758052825928 2.3276071548461914 32
-11.743999481201172 2.1321282386779785 2.310528516769409 32
-14.255046844482422 2.5905802249908447 2.28611421585083 32
-18.230205535888672 3.3162753582000732 2.270425796508789 32
-24.83362579345703 4.521988391876221 2.205040216445923 32
-30.73897361755371 5.60284423828125 1.6354986429214478 13
nan nan nan 0
-1.9710508584976196 0.36139976978302 -0.5266969799995422 119
-2.2418556213378906 0.4114573299884796 -0.5173877477645874 119
-2.6637866497039795 0.4893767237663269 -0.5185348391532898 119
-3.2723803520202637 0.6017747521400452 -0.5209271907806396 119
nan nan nan 0
-6.214643478393555 1.145085334777832 -0.549517810344696 119
-10.953375816345215 2.020202159881592 -0.5797784328460693 119
nan nan nan 0
-8.600851058959961 1.589415192604065 2.3317337036132812 32
-9.954512596130371 1.8413652181625366 2.3264832496643066 32
-11.736486434936523 2.173109292984009 2.310528516769409 32
-14.245917320251465 2.6403236389160156 2.28611421585083 32
-18.233158111572266 3.3826065063476562 2.27225399017334 32
-24.817689895629883 4.608646392822266 2.205040216445923 32
-30.69959259033203 5.706458568572998 1.6344518661499023 13
-44.15364074707031 8.215278625488281 0.7832639217376709 18
-1.969777226448059 0.36827781796455383 -0.5266969799995422 119
-2.245194435119629 0.42017653584480286 -0.518512487411499 119
-2.6572375297546387 0.4977683126926422 -0.517581582069397 119
-3.2702598571777344 0.6131938099861145 -0.5209271907806396 119
nan nan nan 0
-6.205712795257568 1.1658519506454468 -0.5490819811820984 119
-10.941349983215332 2.0575013160705566 -0.5795176029205322 119
-44.27894973754883 8.334578514099121 -0.7779437303543091 18
-8.595250129699707 1.6194281578063965 2.3317337036132812 32
-9.94802474975586 1.8761017322540283 2.3264832496643066 32
-11.728828430175781 2.214064121246338 2.310528516769409 32
-14.231761932373047 2.6891183853149414 2.285332679748535 32
-18.23586654663086 3.448997974395752 2.2740819454193115 32
-24.806346893310547 4.696174621582031 2.2054760456085205 32
-30.689298629760742 5.8154449462890625 1.6349751949310303 13
-44.1738166809082 8.378669738769531 0.7841365933418274 18
-1.9684797525405884 0.3751513957977295 -0.5266969799995422 119
-2.2389285564422607 0.42709827423095703 -0.5173877477645874 119
-2.6554837226867676 0.5070407390594482 -0.517581582069397 119
-3.268099308013916 0.6246054172515869 -0.5209271907806396 119
-4.36110782623291 0.8342922925949097 -0.5404911637306213 119
-6.201605796813965 1.1875066757202148 -0.5490819811820984 119
-10.924294471740723 2.093801498413086 -0.578995943069458 119
-43.97955322265625 8.437286376953125 -0.773192286491394 18
-8.589545249938965 1.6494213342666626 2.3317337036132812 32
-9.936630249023438 1.9098957777023315 2.3253591060638428 32
-11.716208457946777 2.2540645599365234 2.309575319290161 32
-14.217438697814941 2.7378458976745605 2.2845513820648193 32
-18.243209838867188 3.5163893699645996 2.276519298553467 32
nan nan nan 0
-30.668811798095703 5.922535419464111 1.6349751949310303 13
-44.16883850097656 8.537557601928711 0.7845728397369385 18
-1.9624172449111938 0.381099671125412 -0.5254029035568237 119
-2.242206335067749 0.4358406066894531 -0.518512487411499 119
-2.6585159301757812 0.5172444581985474 -0.5185348391532898 119
-3.265899181365967 0.6360093951225281 -0.5209271907806396 119
nan nan nan 0
-6.197422981262207 1.2091472148895264 -0.5490819811820984 119
-10.912018775939941 2.130964756011963 -0.5787351727485657 119
-43.969459533691406 8.594588279724121 -0.7735378742218018 18
-8.578995704650879 1.678467035293579 2.3304405212402344 32
-9.92512321472168 1.9436333179473877 2.324235439300537 32
-11.703452110290527 2.294003963470459 2.308622121810913 32
-14.207795143127441 2.7874577045440674 2.2845513820648193 32
-18.21621322631836 3.577179431915283 2.274691104888916 32
nan nan nan 0
-30.64305305480957 6.028589725494385 1.6347135305404663 13
-44.202537536621094 8.704241752624512 0.7857072949409485 18
-1.961074948310852 0.3879474699497223 -0.5254029035568237 119
-2.240671396255493 0.44366469979286194 -0.518512487411499 119
-2.656694173812866 0.5265212655067444 -0.5185348391532898 119
-3.2636592388153076 0.6474056243896484 -0.5209271907806396 119
-4.325970649719238 0.858919084072113 -0.5368350148200989 119
-6.188279151916504 1.2298020124435425 -0.5486462712287903 119
-10.894719123840332 2.167093515396118 -0.5782135725021362 119
-44.0323486328125 8.76656436920166 -0.7751792073249817 18
-8.573084831237793 1.7084029912948608 2.3304405212402344 32
-9.918277740478516 1.9782664775848389 2.324235439300537 32
-11.690559387207031 2.3338816165924072 2.307668924331665 32
-14.193135261535645 2.8360671997070312 2.2837700843811035 32
-18.198749542236328 3.639770984649658 2.2740819454193115 32
nan nan nan 0
-30.621822357177734 6.13551664352417 1.6347135305404663 13
-44.186588287353516 8.861433029174805 0.785969078540802 18
-1.9597088098526 0.39479053020477295 -0.5254029035568237 119
-2.2391090393066406 0.4514833986759186 -0.518512487411499 119
-2.6548399925231934 0.5357916951179504 -0.5185348391532898 119
-3.2613794803619385 0.6587939858436584 -0.5209271907806396 119
-4.352132320404053 0.879915177822113 -0.5404911637306213 119
-6.183948516845703 1.2513957023620605 -0.5486462712287903 119
-10.882193565368652 2.2041187286376953 -0.5779527425765991 119
-44.364051818847656 8.993715286254883 -0.781572163105011 18
-8.567069053649902 1.7383183240890503 2.3304405212402344 32
-9.906537055969238 2.011906147003174 2.3231115341186523 32
-11.682341575622559 2.3746750354766846 2.307668924331665 32
-14.183149337768555 2.8855931758880615 2.2837700843811035 32
-18.18107032775879 3.7022838592529297 2.273472309112549 32
nan nan nan 0
-30.600217819213867 6.242369651794434 1.6347135305404663 13
-46.51141357421875 9.49666976928711 0.8279421329498291 18
-1.958318829536438 0.4016287922859192 -0.5254029035568237 119
-2.2375195026397705 0.4592966139316559 -0.518512487411499 119
-2.652953624725342 0.5450555086135864 -0.5185348391532898 119
-3.2590599060058594 0.6701743006706238 -0.5209271907806396 119
-4.3538947105407715 0.8961020112037659 -0.5411005020141602 119
-6.1795430183410645 1.2729741334915161 -0.5486462712287903 119
-10.864653587341309 2.240074634552002 -0.5774311423301697 119
-44.347076416015625 9.151551246643066 -0.7818313241004944 18
-8.565678596496582 1.7691892385482788 2.3317337036132812 32
-9.899453163146973 2.046473979949951 2.3231115341186523 32
-11.669174194335938 2.414445161819458 2.306715726852417 32
-14.172989845275879 2.935084104537964 2.2837700843811035 32
-18.163177490234375 3.7647178173065186 2.2728631496429443 32
nan nan nan 0
-30.573352813720703 6.348130702972412 1.6344518661499023 13
-46.06193542480469 9.572504997253418 0.8205248713493347 18
-1.9569048881530762 0.40846213698387146 -0.5254029035568237 119
-2.240671396255493 0.46810048818588257 -0.5196372270584106 119
-2.6510348320007324 0.5543127655982971 -0.5185348391532898 119
-3.2567007541656494 0.6815464496612549 -0.5209271907806396 119
-4.331311225891113 0.9072248339653015 -0.5386631488800049 119
-6.1750617027282715 1.2945369482040405 -0.5486462712287903 119
-10.85188102722168 2.276960611343384 -0.5771703124046326 119
-44.29039764404297 9.30115795135498 -0.7813993096351624 18
-8.55945110321045 1.799078345298767 2.3317337036132812 32
-9.89224910736084 2.081017017364502 2.3231115341186523 32
-11.660675048828125 2.4551634788513184 2.306715726852417 32
-14.16265869140625 2.984539270401001 2.2837700843811035 32
-18.149925231933594 3.8280961513519287 2.2728631496429443 32
nan nan nan 0
-30.551006317138672 6.454813480377197 1.6344518661499023 13
-45.87172317504883 9.700136184692383 0.8177324533462524 18
-1.9601913690567017 0.41629382967948914 -0.5266969799995422 119
-2.2390239238739014 0.4759190082550049 -0.5196372270584106 119
-2.644282817840576 0.5625418424606323 -0.517581582069397 119
-3.2543017864227295 0.6929103136062622 -0.5209271907806396 119
-4.328118324279785 0.9223384261131287 -0.5386631488800049 119
-6.165633678436279 1.31504487991333 -0.5482105016708374 119
-10.838983535766602 2.31378436088562 -0.5769094824790955 119
-37.10517501831055 7.9275665283203125 -0.655010461807251 119
-8.553118705749512 1.828945279121399 2.3317337036132812 32
-9.889689445495605 2.1165544986724854 2.324235439300537 32
-11.65683364868164 2.496879816055298 2.307668924331665 32
-14.156983375549316 3.0349931716918945 2.2845513820648193 32
-18.136451721191406 3.891427993774414 2.2728631496429443 32
nan nan nan 0
-30.523406982421875 6.560367584228516 1.6341900825500488 13
-46.53649139404297 10.010541915893555 0.8302109241485596 16
-1.9587262868881226 0.42313364148139954 -0.5266969799995422 119
-2.237348794937134 0.48373177647590637 -0.5196372270584106 119
-2.6471004486083984 0.5728067755699158 -0.5185348391532898 119
-3.2518632411956787 0.7042657732963562 -0.5209271907806396 119
-4.320022106170654 0.9363894462585449 -0.5380537509918213 119
-6.151269912719727 1.334446907043457 -0.5473389029502869 119
-10.825961112976074 2.350545883178711 -0.5766487121582031 119
-37.11146926879883 8.064470291137695 -0.6556152105331421 119
-8.546682357788086 1.8587901592254639 2.3317337036132812 32
-9.882241249084473 2.1510632038116455 2.324235439300537 32
-11.65284252166748 2.5385992527008057 2.308622121810913 32
-14.155953407287598 3.086495876312256 2.28611421585083 32
-18.127607345581055 3.955770492553711 2.273472309112549 32
nan nan nan 0
-30.500320434570312 6.666874408721924 1.6341900825500488 13
-46.496376037597656 10.171854972839355 0.8301236629486084 16
-1.9525203704833984 0.4289320409297943 -0.5254029035568237 119
-2.2356467247009277 0.4915386438369751 -0.5196372270584106 119
-2.6402909755706787 0.5809885263442993 -0.517581582069397 119
-3.249385118484497 0.7156125903129578 -0.5209271907806396 119
-4.311880111694336 0.9503951668739319 -0.5374444127082825 119
-6.136846542358398 1.3537647724151611 -0.5464673638343811 119
-10.81281566619873 2.387244701385498 -0.5763879418373108 119
-37.092857360839844 8.196121215820312 -0.6557879447937012 119
-8.544857025146484 1.8896552324295044 2.333026885986328 32
-9.87942886352539 2.186598062515259 2.3253591060638428 32
-11.648703575134277 2.5803215503692627 2.309575319290161 32
-14.154735565185547 3.138028383255005 2.2876765727996826 32
-18.12337875366211 4.021173477172852 2.274691104888916 32
nan nan nan 0
-30.476863861083984 6.773299694061279 1.6341900825500488 13
-46.450828552246094 10.331925392150879 0.829949140548706 16
-1.9510111808776855 0.4357450008392334 -0.5254029035568237 119
-2.2386717796325684 0.5004022717475891 -0.520762026309967 119
-2.6430370807647705 0.5912729501724243 -0.5185348391532898 119
-3.2468674182891846 0.7269507050514221 -0.5209271907806396 119
-4.303694248199463 0.9643555879592896 -0.5368350148200989 119
-6.132083892822266 1.3751782178878784 -0.5464673638343811 119
-10.799544334411621 2.4238805770874023 -0.5761271119117737 119
-37.059146881103516 8.324454307556152 -0.6557016372680664 119
-8.538208961486816 1.9194707870483398 2.333026885986328 32
-9.876489639282227 2.222139835357666 2.3264832496643066 32
-11.644413948059082 2.6220457553863525 2.310528516769409 32
-14.158149719238281 3.190675735473633 2.290020704269409 32
-18.114072799682617 4.085503101348877 2.2753005027770996 32
-24.675928115844727 5.570010185241699 2.209833860397339 32
-30.448165893554688 6.878542423248291 1.6339285373687744 13
-46.429107666015625 10.497312545776367 0.8302109241485596 0
-1.949478268623352 0.4425526261329651 -0.5254029035568237 119
-2.2369115352630615 0.5082136392593384 -0.520762026309967 119
-2.6361706256866455 0.599406898021698 -0.517581582069397 119
-3.2491254806518555 0.7393757700920105 -0.5217093825340271 119
-4.2954630851745605 0.9782704710960388 -0.5362257361412048 119
-6.1321024894714355 1.397681713104248 -0.546903133392334 119
-10.791017532348633 2.4615631103515625 -0.5761271119117737 119
-37.02986145019531 8.453763961791992 -0.6557016372680664 119
-8.536166191101074 1.9503388404846191 2.334320306777954 32
-9.87817096710205 2.2587738037109375 2.328731060028076 32
-11.639975547790527 2.663771152496338 2.3114817142486572 32
-14.156553268432617 3.2422826290130615 2.291583299636841 32
-18.109375 4.150926113128662 2.276519298553467 32
-24.641769409179688 5.652770042419434 2.208526611328125 32
-30.423967361450195 6.984784126281738 1.6339285373687744 13
nan nan nan 0
-1.9432154893875122 0.448269248008728 -0.5241087675094604 119
-2.235123872756958 0.516018807888031 -0.520762026309967 119
-2.6292800903320312 0.6075003147125244 -0.5166284441947937 119
-3.2465250492095947 0.7507128119468689 -0.5217093825340271 119
-4.3065266609191895 0.9966150522232056 -0.5380537509918213 119
-6.132038593292236 1.4202020168304443 -0.5473389029502869 119
-10.78235912322998 2.499215841293335 -0.5761271119117737 119
-32.24706268310547 7.480396270751953 -0.5713847875595093 119
-8.529305458068848 1.98012375831604 2.334320306777954 32
-9.874972343444824 2.294343948364258 2.329854965209961 32
-11.635387420654297 2.705497980117798 2.3124349117279053 32
-14.135529518127441 3.2894396781921387 2.290020704269409 32
-18.099609375 4.215240001678467 2.2771284580230713 32
-24.612186431884766 5.736490249633789 2.2076549530029297 32
-30.413990020751953 7.094343662261963 1.6347135305404663 13
-43.89617919921875 10.247267723083496 0.7861436009407043 30
-1.9416388273239136 0.455049604177475 -0.5241087675094604 119
-2.2380521297454834 0.5249302387237549 -0.5218867659568787 119
-2.6223652362823486 0.6155529022216797 -0.5156752467155457 119
-3.243884801864624 0.7620407342910767 -0.5217093825340271 119
-4.317514896392822 1.0150489807128906 -0.5398817658424377 119
-6.131892204284668 1.4427390098571777 -0.5477746725082397 119
-10.778429985046387 2.53798246383667 -0.5763879418373108 119
-32.211021423339844 7.590620517730713 -0.5712119340896606 119
-8.527043342590332 2.010993242263794 2.335613489151001 32
-9.8716459274292 2.3299193382263184 2.3309788703918457 32
-11.625872611999512 2.74609637260437 2.3124349117279053 32
-14.119154930114746 3.337625741958618 2.2892391681671143 32
-18.0799560546875 4.277251243591309 2.276519298553467 32
-24.61624526977539 5.828105926513672 2.209833860397339 32
-30.4133358001709 7.206221580505371 1.6360219717025757 13
-37.9159049987793 8.990891456604004 0.6795094013214111 30
-1.935340404510498 0.46070602536201477 -0.5228146910667419 119
-2.2362060546875 0.5327392816543579 -0.5218867659568787 119
-2.6249749660491943 0.6258412003517151 -0.5166284441947937 119
-3.2412049770355225 0.7733593583106995 -0.5217093825340271 119
-4.323599338531494 1.032418966293335 -0.5411005020141602 119
-6.126818656921387 1.4641344547271729 -0.5477746725082397 119
-10.769505500793457 2.5755908489227295 -0.5763879418373108 119
-30.399999618530273 7.275949001312256 -0.5395067930221558 119
-8.51997184753418 2.040745973587036 2.335613489151001 32
-9.872928619384766 2.3666350841522217 2.3332266807556152 32
-11.620986938476562 2.787806272506714 2.313387870788574 32
-14.097813606262207 3.384584426879883 2.2876765727996826 32
-18.060091018676758 4.339176177978516 2.275909900665283 32
-24.605438232421875 5.916325569152832 2.210705518722534 32
-30.378286361694336 7.310003757476807 1.6354986429214478 13
-30.41887855529785 7.325388431549072 0.5454749464988708 13
-1.933720350265503 0.4674588143825531 -0.5228146910667419 119
-2.234332799911499 0.5405418276786804 -0.5218867659568787 119
-2.6370856761932373 0.638465166091919 -0.5194879770278931 119
-3.23848557472229 0.7846685647964478 -0.5217093825340271 119
-4.339261531829834 1.0521827936172485 -0.5435379147529602 119
-6.121670722961426 1.485512137413025 -0.5477746725082397 119
-10.760449409484863 2.6131677627563477 -0.5763879418373108 119
-30.38899040222168 7.385561943054199 -0.5397659540176392 119
-8.517489433288574 2.071615219116211 2.336906909942627 32
-9.869341850280762 2.402235746383667 2.3343505859375 32
-11.606417655944824 2.827192783355713 2.3124349117279053 32
-14.076318740844727 3.4314353466033936 2.28611421585083 32
-18.03519058227539 4.399838924407959 2.274691104888916 32
-24.579797744750977 6.000997066497803 2.2102694511413574 32
-30.34288215637207 7.413628578186035 1.6349751949310303 13
-30.373699188232422 7.426775932312012 0.5451258420944214 13
-1.9273864030838013 0.4730547070503235 -0.5215205550193787 119
-2.2324323654174805 0.5483378171920776 -0.5218867659568787 119
-2.644373893737793 0.6500096917152405 -0.5213943719863892 119
-3.235726833343506 0.795968234539032 -0.5217093825340271 119
-4.287373065948486 1.0554600954055786 -0.5374444127082825 119
-6.121284484863281 1.5080631971359253 -0.5482105016708374 119
-10.751261711120605 2.650712728500366 -0.5763879418373108 119
-30.353315353393555 7.489199161529541 -0.5395931601524353 119
-8.510205268859863 2.1013340950012207 2.336906909942627 32
-9.860896110534668 2.436671733856201 2.3343505859375 32
-11.596478462219238 2.867689371109009 2.3124349117279053 32
-14.059460639953613 3.4793636798858643 2.285332679748535 32
-18.0341739654541 4.466346263885498 2.276519298553467 32
-24.573205947875977 6.090355396270752 2.2115769386291504 32
-30.307126998901367 7.517096042633057 1.6344518661499023 13
-30.337886810302734 7.530345916748047 0.544951319694519 13
-1.9256396293640137 0.48011574149131775 -0.5215205550193787 119
-2.23040771484375 0.5565164089202881 -0.5218867659568787 119
-2.6657843589782715 0.6656429171562195 -0.5261602997779846 119
-3.232787847518921 0.8078224062919617 -0.5217093825340271 119
-4.312363147735596 1.0783908367156982 -0.5411005020141602 119
-6.115715980529785 1.5304887294769287 -0.5482105016708374 119
-10.731786727905273 2.687674045562744 -0.5758662819862366 119
-30.296567916870117 7.5931077003479 -0.5390748381614685 119
-8.502447128295898 2.1325113773345947 2.336906909942627 32
-9.847173690795898 2.471611261367798 2.3332266807556152 32
-11.58112907409668 2.908977746963501 2.3114817142486572 32
-14.041823387145996 3.5296666622161865 2.2845513820648193 32
-18.02249526977539 4.53362512588501 2.2771284580230713 32
nan nan nan 0
-30.269685745239258 7.6256866455078125 1.6339285373687744 13
-25.384963989257812 6.399815559387207 0.45629313588142395 30
-1.9239519834518433 0.4868345558643341 -0.5215205550193787 119
-2.223728656768799 0.563102662563324 -0.520762026309967 119
-2.658686637878418 0.6737384796142578 -0.5252071022987366 119
-3.2299482822418213 0.8191019892692566 -0.5217093825340271 119
-4.284521102905273 1.0873334407806396 -0.5380537509918213 119
-6.1103363037109375 1.5518271923065186 -0.5482105016708374 119
-10.717501640319824 2.723888874053955 -0.5756054520606995 119
-25.303752899169922 6.435735702514648 -0.45052486658096313 119
-8.494951248168945 2.162177562713623 2.336906909942627 32
-9.83376407623291 2.5047664642333984 2.3321027755737305 32
-11.570904731750488 2.949385643005371 2.3114817142486572 32
-14.02463150024414 3.577439546585083 2.2837700843811035 32
-18.030603408813477 4.602644920349121 2.28017520904541 32
-24.49521255493164 6.257410049438477 2.208526611328125 30
-25.139244079589844 6.426604747772217 1.3578563928604126 30
-23.71575927734375 6.067121982574463 0.426624059677124 30
-1.926918864250183 0.4947485029697418 -0.5228146910667419 119
-2.2217495441436768 0.5708615183830261 -0.520762026309967 119
-2.651564836502075 0.6817925572395325 -0.5242539644241333 119
-3.22706937789917 0.8303716778755188 -0.5217093825340271 119
-4.271087646484375 1.0998075008392334 -0.5368350148200989 119
-6.10488224029541 1.5731468200683594 -0.5482105016708374 119
-10.698256492614746 2.758789539337158 -0.57508385181427 119
-22.962453842163086 5.925666809082031 -0.40914398431777954 119
-8.48735237121582 2.191817283630371 2.336906909942627 32
-9.820242881774902 2.537858247756958 2.3309788703918457 32
-11.5557861328125 2.9885284900665283 2.310528516769409 32
-14.016839981079102 3.627610445022583 2.2845513820648193 32
-18.03364372253418 4.6705322265625 2.2826128005981445 32
-22.55419921875 5.8455119132995605 2.0350866317749023 30
-22.961036682128906 5.955231189727783 1.2411471605300903 30
-22.00082015991211 5.710285663604736 0.39608234167099 30
-1.9251800775527954 0.5014716982841492 -0.5228146910667419 119
-2.215029001235962 0.5773845314979553 -0.5196372270584106 119
-2.639669895172119 0.6885663866996765 -0.5223475694656372 119
-3.224151372909546 0.8416311144828796 -0.5217093825340271 119
nan nan nan 0
-6.099353313446045 1.594447374343872 -0.5482105016708374 119
-10.683731079101562 2.7948532104492188 -0.5748230218887329 119
-21.403690338134766 5.603174686431885 -0.3816719055175781 119
-8.474977493286133 2.2202062606811523 2.335613489151001 32
-9.806612014770508 2.5708861351013184 2.329854965209961 32
-11.545284271240234 3.0288474559783936 2.310528516769409 32
-14.008869171142578 3.6777703762054443 2.285332679748535 32
-18.041229248046875 4.739758014678955 2.2856593132019043 32
-21.098108291625977 5.546792030334473 1.9052244424819946 30
-21.27899169921875 5.598318099975586 1.1511292457580566 30
-20.772132873535156 5.468843936920166 0.3742668330669403 30
-1.9234179258346558 0.508188784122467 -0.5228146910667419 119
-2.2130000591278076 0.5851129293441772 -0.5196372270584106 119
-2.632505178451538 0.6965208053588867 -0.5213943719863892 119
-3.2259676456451416 0.8541443943977356 -0.5224915146827698 119
nan nan nan 0
-6.0889363288879395 1.6144516468048096 -0.5477746725082397 119
-10.664258003234863 2.8295679092407227 -0.5743014216423035 119
-19.697690963745117 5.230106830596924 -0.35152170062065125 119
-8.467175483703613 2.2497761249542236 2.335613489151001 32
-9.797577857971191 2.605102300643921 2.329854965209961 32
-11.53464126586914 3.069129705429077 2.310528516769409 32
-14.000717163085938 3.7279186248779297 2.28611421585083 32
-18.058141708374023 4.811649322509766 2.2899248600006104 32
-19.70696449279785 5.254666328430176 1.7810275554656982 30
nan nan nan 0
-19.07206916809082 5.0925092697143555 0.343899667263031 30
-1.9216322898864746 0.5148996710777283 -0.5228146910667419 119
-2.210944175720215 0.5928341150283813 -0.5196372270584106 119
-2.6300580501556396 0.7057057619094849 -0.5213943719863892 119
-3.222966432571411 0.865399956703186 -0.5224915146827698 119
nan nan nan 0
-6.083263397216797 1.6356961727142334 -0.5477746725082397 119
-10.644672393798828 2.8641815185546875 -0.573779821395874 119
-18.96487045288086 5.106462478637695 -0.338735967874527 119
-8.454607009887695 2.278061866760254 2.334320306777954 32
-9.783720970153809 2.6380176544189453 2.328731060028076 32
-11.523857116699219 3.1093742847442627 2.310528516769409 32
-13.997154235839844 3.779341697692871 2.2876765727996826 32
-18.069982528686523 4.882421493530273 2.293581008911133 32
-18.45276641845703 4.989304065704346 1.6690324544906616 30
-18.723434448242188 5.065994739532471 1.014532446861267 30
-18.031171798706055 4.88206672668457 0.32540011405944824 30
-1.9198232889175415 0.5216042995452881 -0.5228146910667419 119
-2.2088613510131836 0.6005481481552124 -0.5196372270584106 119
-2.62284255027771 0.713593602180481 -0.5204411745071411 119
-3.219925880432129 0.8766449093818665 -0.5224915146827698 119
nan nan nan 0
-6.07271146774292 1.6556106805801392 -0.5473389029502869 119
-10.620158195495605 2.8973782062530518 -0.5729973912239075 119
-17.63513946533203 4.814503192901611 -0.315237820148468 119
-8.446603775024414 2.3075599670410156 2.334320306777954 32
-9.774452209472656 2.6721532344818115 2.328731060028076 32
-11.517667770385742 3.150876522064209 2.3114817142486572 32
-14.002931594848633 3.8333940505981445 2.290802001953125 32
nan nan nan 0
-17.402429580688477 4.770559787750244 1.5753400325775146 30
-17.554792404174805 4.815621376037598 0.951991081237793 30
-16.972707748413086 4.659129619598389 0.3065515160560608 30
-1.917990803718567 0.5283024907112122 -0.5228146910667419 119
-2.206751585006714 0.6082548499107361 -0.5196372270584106 119
-2.620335817337036 0.7227446436882019 -0.5204411745071411 119
-3.221606731414795 0.8891931772232056 -0.5232737064361572 119
nan nan nan 0
-6.066895008087158 1.6767982244491577 -0.5473389029502869 119
-10.600354194641113 2.931769609451294 -0.5724757313728333 119
-16.33660316467285 4.521329402923584 -0.29225802421569824 119
-8.433842658996582 2.335740804672241 2.333026885986328 32
-9.76506519317627 2.706256151199341 2.328731060028076 32
-11.506599426269531 3.19106125831604 2.3114817142486572 32
-13.998982429504395 3.8848917484283447 2.2923645973205566 32
-16.873485565185547 4.685773849487305 2.145509719848633 30
-16.560224533081055 4.601894378662109 1.500386118888855 30
-16.349651336669922 4.54645299911499 0.8873561024665833 30
-15.328446388244629 4.26536226272583 0.2770569324493408 30
-1.9207866191864014 0.536293089389801 -0.5241087675094604 119
-2.2093069553375244 0.6172651052474976 -0.520762026309967 119
-2.6177968978881836 0.7318869233131409 -0.5204411745071411 119
-3.2184832096099854 0.9004332423210144 -0.5232737064361572 119
-4.280570983886719 1.198378562927246 -0.5411005020141602 119
-6.061004638671875 1.697965383529663 -0.5473389029502869 119
-10.580440521240234 2.9660582542419434 -0.5719541907310486 119
-15.540945053100586 4.359582424163818 -0.27826282382011414 119
-8.425637245178223 2.365166187286377 2.333026885986328 32
-9.755559921264648 2.740326166152954 2.328731060028076 32
-11.500116348266602 3.2325358390808105 2.3124349117279053 32
-14.004351615905762 3.939082384109497 2.29548978805542 32
-16.001922607421875 4.503963947296143 2.0364365577697754 30
-15.311888694763184 4.312628746032715 1.3883908987045288 30
-15.42536449432373 4.347495079040527 0.8378986716270447 30
-15.202797889709473 4.287631511688232 0.2750498950481415 30
-1.91890287399292 0.5429946780204773 -0.5241087675094604 119
-2.207139015197754 0.6249732971191406 -0.520762026309967 119
-2.619948387145996 0.7423582673072815 -0.5213943719863892 119
-3.215320587158203 0.9116623997688293 -0.5232737064361572 119
-4.238167762756348 1.2024767398834229 -0.5362257361412048 119
-6.055041313171387 1.7191120386123657 -0.5473389029502869 119
-10.560417175292969 3.000243902206421 -0.5714325308799744 119
-15.049570083618164 4.278463363647461 -0.2697101831436157 119
-8.417330741882324 2.3945624828338623 2.333026885986328 32
-9.74593448638916 2.774362802505493 2.328731060028076 32
-11.493480682373047 3.274003505706787 2.313387870788574 32
nan nan nan 0
-15.150938034057617 4.321575164794922 1.9298009872436523 30
-14.875249862670898 4.245747089385986 1.350042462348938 30
-14.886767387390137 4.25184440612793 0.809375524520874 30
-14.61573314666748 4.177192687988281 0.26466572284698486 30
-1.9169957637786865 0.549689531326294 -0.5241087675094604 119
-2.204943895339966 0.6326738595962524 -0.520762026309967 119
-2.6173410415649414 0.7514991164207458 -0.5213943719863892 119
-3.2121188640594482 0.9228804111480713 -0.5232737064361572 119
