# .PCD v0.7 - Point Cloud Data file format
VERSION 0.7
FIELDS x y z intensity
SIZE 4 4 4 4
TYPE F F F F
COUNT 1 1 1 1
WIDTH 768
HEIGHT 1
VIEWPOINT 0 0 0 1 0 0 0
POINTS 768
DATA ascii
2.8165712356567383 -1.6690348386764526 0.3972940444946289 101
2.8265116214752197 -1.6755918264389038 0.28412771224975586 101
2.820162057876587 -1.6724929809570312 0.16983017325401306 101
2.784574270248413 -1.6520448923110962 0.05584769695997238 101
1.631197452545166 -0.969689667224884 -0.4982268810272217 119
1.8501787185668945 -1.1003034114837646 -0.48814404010772705 119
2.201040506362915 -1.3094813823699951 -0.4899391233921051 119
2.634249210357666 -1.567836046218872 -0.47947201132774353 119
2.7917490005493164 -1.6622357368469238 -0.39424777030944824 0
2.77164363861084 -1.6509201526641846 -0.27889880537986755 101
2.7909419536590576 -1.6630750894546509 -0.16770018637180328 101
2.7725281715393066 -1.6527585983276367 -0.05511694401502609 101
2.7955663204193115 -1.6671533584594727 0.8613060116767883 101
2.7984864711761475 -1.669556975364685 0.7429011464118958 101
2.7766265869140625 -1.6571727991104126 0.620525598526001 101
2.7678182125091553 -1.6525707244873047 0.5039451718330383 101
2.7809040546417236 -1.661042332649231 0.3930286169052124 101
2.790714740753174 -1.6675633192062378 0.2810772657394409 101
2.784306526184082 -1.664393424987793 0.16799841821193695 101
2.7487566471099854 -1.643794059753418 0.05523686483502388 101
1.6278024911880493 -0.9753776788711548 -0.4982268810272217 119
1.8505052328109741 -1.109259843826294 -0.48926883935928345 119
2.19645619392395 -1.3171565532684326 -0.4899391233921051 119
2.62876033782959 -1.5770217180252075 -0.47947201132774353 119
2.7603981494903564 -1.65664803981781 -0.39059168100357056 0
2.740241289138794 -1.645201325416565 -0.2762841284275055 101
2.7551565170288086 -1.6548106670379639 -0.16587452590465546 101
2.7410309314727783 -1.6469775438308716 -0.0545986033976078 101
2.7607529163360596 -1.659483551979065 0.8522531986236572 101
2.7634148597717285 -1.6617403030395508 0.7350338101387024 101
2.7455894947052 -1.651673674583435 0.6148064732551575 101
2.7366442680358887 -1.6469430923461914 0.49925729632377625 101
2.7453274726867676 -1.65282142162323 0.3887631595134735 101
2.7592759132385254 -1.6618754863739014 0.27846258878707886 101
2.7528185844421387 -1.6586410999298096 0.1664283275604248 101
2.717312812805176 -1.6378943920135498 0.05471329018473625 101
1.6243878602981567 -0.9810538291931152 -0.4982268810272217 119
1.8507919311523438 -1.1182321310043335 -0.49039360880851746 119
2.191845178604126 -1.3248156309127808 -0.4899391233921051 119
2.619013786315918 -1.5836330652236938 -0.47868984937667847 119
2.729120969772339 -1.6508619785308838 -0.38693559169769287 0
2.7046518325805664 -1.6367052793502808 -0.27323368191719055 101
2.7237348556518555 -1.6489027738571167 -0.16430966556072235 101
2.705332040786743 -1.6384073495864868 -0.05399387329816818 101
2.7301583290100098 -1.654093861579895 0.8444936871528625 101
2.7325985431671143 -1.6562244892120361 0.7282904386520386 101
2.710427761077881 -1.6434338092803955 0.6081340909004211 101
2.7013213634490967 -1.6385568380355835 0.49378812313079834 101
2.714085102081299 -1.6469472646713257 0.3851071000099182 101
2.7236533164978027 -1.6534037590026855 0.2754121422767639 101
2.717137575149536 -1.6500974893569946 0.1645965725183487 101
2.681670904159546 -1.6291996240615845 0.05410245805978775 101
1.6209535598754883 -0.9867179989814758 -0.4982268810272217 119
1.8510380983352661 -1.127219557762146 -0.4915183484554291 119
2.1872072219848633 -1.33245849609375 -0.4899391233921051 119
2.6134698390960693 -1.5927654504776 -0.47868984937667847 119
2.697917938232422 -1.6448779106140137 -0.3832795321941376 0
2.673407793045044 -1.6305744647979736 -0.2706190049648285 101
2.6881258487701416 -1.6401948928833008 -0.16248400509357452 101
2.6739938259124756 -1.63221275806427 -0.05347553268074989 101
2.6955132484436035 -1.6459940671920776 0.835440993309021 101
2.701854705810547 -1.6505138874053955 0.72154700756073 101
2.6795458793640137 -1.6375281810760498 0.6024149656295776 101
2.6703038215637207 -1.632520318031311 0.48910024762153625 101
2.682917356491089 -1.640874981880188 0.3814510107040405 101
2.6923725605010986 -1.6473034620285034 0.27279746532440186 101
2.6858086585998535 -1.6439319849014282 0.16302649676799774 101
2.6503868103027344 -1.6228866577148438 0.05357888340950012 101
1.6174993515014648 -0.9923701882362366 -0.4982268810272217 119
1.8470921516418457 -1.1336740255355835 -0.4915183484554291 119
2.186725616455078 -1.3426533937454224 -0.49089235067367554 119
2.6036860942840576 -1.59929358959198 -0.477907657623291 119
2.666790246963501 -1.6386959552764893 -0.3796234428882599 0
2.637996196746826 -1.6216368675231934 -0.26756852865219116 101
2.6568644046783447 -1.6338746547698975 -0.1609191596508026 101
2.6427319049835205 -1.625819444656372 -0.052957188338041306 101
2.6650712490081787 -1.6402039527893066 0.8276814222335815 101
2.6711840629577637 -1.644608974456787 0.7148035168647766 101
2.6487386226654053 -1.6314271688461304 0.5966958403587341 101
2.639362096786499 -1.6262873411178589 0.48441240191459656 101
2.647601366043091 -1.6320017576217651 0.3771856129169464 101
2.656928062438965 -1.6383908987045288 0.2697470188140869 101
2.6545565128326416 -1.6375679969787598 0.1614564210176468 101
2.6191797256469727 -1.6163755655288696 0.05305531248450279 101
1.6140254735946655 -0.9980102777481079 -0.4982268810272217 119
1.8472671508789062 -1.142677664756775 -0.4926431179046631 119
2.18202543258667 -1.3502782583236694 -0.49089235067367554 119
2.5980875492095947 -1.608372449874878 -0.477907657623291 119
2.6357390880584717 -1.6323174238204956 -0.3759673535823822 0
2.6069142818450928 -1.6150957345962524 -0.2649538815021515 101
2.6256797313690186 -1.6273560523986816 -0.1593542993068695 101
2.6115474700927734 -1.6192281246185303 -0.052438847720623016 101
2.6347031593322754 -1.6342220306396484 0.8199219107627869 101
2.6364481449127197 -1.6359416246414185 0.706936240196228 101
2.618006467819214 -1.6251312494277954 0.5909767150878906 101
2.60849666595459 -1.6198586225509644 0.47972455620765686 101
2.6165952682495117 -1.6255207061767578 0.37352949380874634 101
2.62580943107605 -1.6318800449371338 0.26713234186172485 101
2.6233813762664795 -1.631005883216858 0.15988633036613464 101
2.588050603866577 -1.6096664667129517 0.05253174155950546 101
1.6105319261550903 -1.0036382675170898 -0.4982268810272217 119
1.8432672023773193 -1.1491189002990723 -0.4926431179046631 119
2.1772987842559814 -1.357886791229248 -0.49089235067367554 119
2.5924575328826904 -1.6174317598342896 -0.477907657623291 119
2.6089749336242676 -1.628369688987732 -0.37292060256004333 0
2.5801355838775635 -1.6109955310821533 -0.2627749741077423 101
2.594573736190796 -1.6206399202346802 -0.1577894389629364 101
2.580441951751709 -1.6124390363693237 -0.05192050710320473 101
2.6003143787384033 -1.6254879236221313 0.8108691573143005 101
2.6059367656707764 -1.629635214805603 0.7001928091049194 101
2.587351083755493 -1.618640661239624 0.5852575898170471 101
2.5777084827423096 -1.6132344007492065 0.4750366806983948 101
2.585667133331299 -1.6188433170318604 0.36987343430519104 101
2.59476900100708 -1.6251722574234009 0.2645176649093628 101
2.59228515625 -1.624246597290039 0.1583162546157837 101
2.5570011138916016 -1.6027601957321167 0.05200817063450813 101
1.6070188283920288 -1.0092538595199585 -0.4982268810272217 119
1.843369722366333 -1.1581376791000366 -0.4937678575515747 119
2.1683900356292725 -1.3628668785095215 -0.4899391233921051 119
2.574253797531128 -1.6185853481292725 -0.4755611717700958 119
2.5780701637268066 -1.6216129064559937 -0.36926451325416565 0
2.549201488494873 -1.6040754318237305 -0.26016029715538025 101
2.563546895980835 -1.6137267351150513 -0.1562245935201645 101
2.5536463260650635 -1.608116865158081 -0.05148855969309807 101
2.5701053142547607 -1.6191083192825317 0.8031096458435059 101
2.5755019187927246 -1.6231359243392944 0.6934493780136108 101
2.5567734241485596 -1.611956238746643 0.5795384645462036 101
2.551175832748413 -1.6090494394302368 0.4711301326751709 101
2.5548176765441895 -1.6119699478149414 0.36621734499931335 101
2.5680201053619385 -1.6209266185760498 0.262338787317276 101
2.5612680912017822 -1.6172900199890137 0.15674617886543274 101
2.5302574634552 -1.5983264446258545 0.05157185718417168 101
1.6075668334960938 -1.0174400806427002 -0.4995209574699402 119
1.8393157720565796 -1.1645653247833252 -0.4937678575515747 119
2.1636195182800293 -1.3704277276992798 -0.4899391233921051 119
2.5352160930633545 -1.6064153909683228 -0.46930378675460815 119
2.5472445487976074 -1.6146602630615234 -0.36560845375061035 101
2.51834774017334 -1.5969592332839966 -0.2575456202030182 101
2.532600164413452 -1.6066168546676636 -0.15465973317623138 101
2.522691249847412 -1.600948452949524 -0.05097021907567978 101
2.5399727821350098 -1.6125376224517822 0.7953501343727112 101
2.5451440811157227 -1.6164441108703613 0.6867058873176575 101
2.5262739658355713 -1.6050782203674316 0.5738193392753601 101
2.520535945892334 -1.6020500659942627 0.4664422571659088 101
2.524048328399658 -1.6049011945724487 0.36256128549575806 101
2.5371296405792236 -1.613840937614441 0.25972411036491394 101
2.530331611633301 -1.610136866569519 0.1551761031150818 101
2.499359607696533 -1.5910414457321167 0.05104828625917435 101
1.6040055751800537 -1.023045301437378 -0.4995209574699402 119
1.8352395296096802 -1.1709786653518677 -0.4937678575515747 119
2.158822774887085 -1.3779716491699219 -0.4899391233921051 119
2.504619598388672 -1.5993084907531738 -0.464610755443573 119
2.5164995193481445 -1.6075125932693481 -0.36195236444473267 101
2.487575054168701 -1.5896472930908203 -0.25493094325065613 101
2.501734495162964 -1.5993108749389648 -0.15309488773345947 101
2.4960293769836426 -1.5962773561477661 -0.05053826421499252 101
2.5099174976348877 -1.605776309967041 0.7875905632972717 101
2.514864921569824 -1.6095603704452515 0.6799624562263489 101
2.495854139328003 -1.5980072021484375 0.5681002140045166 101
2.4941351413726807 -1.597520351409912 0.4625357389450073 101
2.4933595657348633 -1.5976372957229614 0.35890519618988037 101
2.5105137825012207 -1.6092473268508911 0.25754523277282715 101
2.5036795139312744 -1.6054831743240356 0.1538676917552948 101
2.4727511405944824 -1.5862594842910767 0.05061197280883789 101
1.6004247665405273 -1.0286381244659424 -0.4995209574699402 119
1.8352389335632324 -1.180012583732605 -0.4948926270008087 119
2.1539995670318604 -1.3854988813400269 -0.4899391233921051 119
2.4699511528015137 -1.5893354415893555 -0.4591355323791504 119
2.4900078773498535 -1.602855920791626 -0.3589056134223938 101
2.4610719680786133 -1.5848370790481567 -0.25275203585624695 101
2.475148916244507 -1.594513177871704 -0.1517908275127411 101
2.465229034423828 -1.5887314081192017 -0.050019923597574234 101
2.479940891265869 -1.598825454711914 0.779831051826477 101
2.4846649169921875 -1.602485179901123 0.6732190251350403 101
2.4696388244628906 -1.5934044122695923 0.5633342862129211 101
2.4636473655700684 -1.590147852897644 0.45784783363342285 101
2.466921806335449 -1.5928713083267212 0.3558584451675415 101
2.4797773361206055 -1.6017850637435913 0.2549305558204651 101
2.47289776802063 -1.597953200340271 0.15229761600494385 101
2.446207284927368 -1.5813113451004028 0.05017566680908203 101
1.596824288368225 -1.0342183113098145 -0.4995209574699402 119
1.8351972103118896 -1.1890605688095093 -0.49601736664772034 119
2.1491501331329346 -1.3930094242095947 -0.4899391233921051 119
2.4436702728271484 -1.584513545036316 -0.4552246630191803 119
2.4594168663024902 -1.5953336954116821 -0.3552495241165161 101
2.434633255004883 -1.5798612833023071 -0.25057315826416016 101
2.448627471923828 -1.5895496606826782 -0.1504867970943451 101
2.438704252243042 -1.5837130546569824 -0.04958797246217728 101
2.4500436782836914 -1.5916849374771118 0.7720715999603271 101
2.454545497894287 -1.5952188968658447 0.6664755940437317 101
2.4393715858459473 -1.5859630107879639 0.5576151609420776 101
2.4373819828033447 -1.585274577140808 0.45394131541252136 101
2.4363882541656494 -1.5852335691452026 0.3522023856639862 101
2.4532978534698486 -1.596845269203186 0.2527516484260559 101
2.446383237838745 -1.5929524898529053 0.15098923444747925 101
2.4197278022766113 -1.5761973857879639 0.049739353358745575 101
1.5932044982910156 -1.0397859811782837 -0.4995209574699402 119
1.8351149559020996 -1.1981228590011597 -0.49714213609695435 119
2.1442744731903076 -1.4005029201507568 -0.4899391233921051 119
2.4174532890319824 -1.579527735710144 -0.4513137936592102 119
2.433062791824341 -1.5903327465057373 -0.35220277309417725 101
2.408259391784668 -1.5747203826904297 -0.24839425086975098 101
2.422170639038086 -1.5844203233718872 -0.1491827517747879 101
2.408062219619751 -1.575791597366333 -0.04906963184475899 101
2.4242677688598633 -1.5870007276535034 0.7656053304672241 101
2.4285829067230225 -1.5904310941696167 0.6608560681343079 101
2.413292407989502 -1.5810195207595825 0.5528491735458374 101
2.407050371170044 -1.5775307416915894 0.4492534399032593 101
2.4100887775421143 -1.5801233053207397 0.3491556644439697 101
2.4268839359283447 -1.591740369796753 0.2505727708339691 101
2.4199342727661133 -1.5877865552902222 0.14968082308769226 101
2.3933143615722656 -1.570918083190918 0.049303047358989716 101
1.5895652770996094 -1.0453410148620605 -0.4995209574699402 119
1.8309216499328613 -1.2045212984085083 -0.49714213609695435 119
2.143472671508789 -1.4106776714324951 -0.49089235067367554 119
2.391301155090332 -1.574378490447998 -0.4474029242992401 119
2.4067740440368652 -1.5851675271987915 -0.34915608167648315 101
2.3819515705108643 -1.5694148540496826 -0.246215358376503 101
2.395780324935913 -1.579126000404358 -0.1478787064552307 101
2.381678819656372 -1.5704277753829956 -0.04863768070936203 101
2.3945229053497314 -1.5794967412948608 0.7578457593917847 101
2.402683973312378 -1.585481882095337 0.6552366018295288 101
2.383180856704712 -1.5732094049453735 0.5471300482749939 101
2.3809237480163574 -1.5723158121109009 0.4453468918800354 101
2.383854627609253 -1.5748488903045654 0.34610891342163086 101
2.3963799476623535 -1.5837244987487793 0.24795809388160706 101
2.3935515880584717 -1.5824553966522217 0.14837244153022766 101
2.3669674396514893 -1.5654736757278442 0.04886673390865326 101
1.5899326801300049 -1.0535510778427124 -0.5008150935173035 119
1.8267059326171875 -1.2109050750732422 -0.49714213609695435 119
2.138535737991333 -1.4181511402130127 -0.49089235067367554 119
2.3652148246765137 -1.5690659284591675 -0.4434920847415924 119
2.3805508613586426 -1.5798381567001343 -0.3461093306541443 101
2.355710029602051 -1.563944935798645 -0.2440364509820938 101
2.3694562911987305 -1.5736669301986694 -0.14657466113567352 101
2.3553626537323 -1.5648990869522095 -0.04820572957396507 101
2.368882894515991 -1.5744779109954834 0.7513795495033264 101
2.37684965133667 -1.580371379852295 0.6496170163154602 101
2.357240915298462 -1.5679268836975098 0.5423641800880432 101
2.354863166809082 -1.5669381618499756 0.4414403438568115 101
2.357686996459961 -1.5694109201431274 0.343062162399292 101
2.370107412338257 -1.5782757997512817 0.24577918648719788 101
2.3672351837158203 -1.576959490776062 0.14706403017044067 101
2.3406877517700195 -1.5598645210266113 0.0484304241836071 101
1.5862454175949097 -1.0590945482254028 -0.5008150935173035 119
1.8224679231643677 -1.2172740697860718 -0.49714213609695435 119
2.1335721015930176 -1.425607442855835 -0.49089235067367554 119
2.3391947746276855 -1.5635906457901 -0.4395812153816223 119
2.3543949127197266 -1.5743452310562134 -0.3430625796318054 101
2.329535961151123 -1.5583109855651855 -0.24185754358768463 101
2.3431999683380127 -1.5680434703826904 -0.14527061581611633 101
2.333268642425537 -1.5619871616363525 -0.047860171645879745 101
2.3433070182800293 -1.5692996978759766 0.7449132800102234 101
2.3470327854156494 -1.5723880529403687 0.6428735852241516 101
2.331367015838623 -1.5624825954437256 0.537598192691803 101
2.3329713344573975 -1.5641478300094604 0.43831509351730347 101
2.3315865993499756 -1.5638093948364258 0.3400154411792755 101
2.343902826309204 -1.5726631879806519 0.2436002939939499 101
2.340986967086792 -1.5712993144989014 0.14575563371181488 101
2.314476728439331 -1.5540913343429565 0.047994114458560944 101
1.5825388431549072 -1.0646251440048218 -0.5008150935173035 119
1.8182077407836914 -1.2236281633377075 -0.49714213609695435 119
2.1285829544067383 -1.4330463409423828 -0.49089235067367554 119
2.313242197036743 -1.557952880859375 -0.43567031621932983 119
2.328306198120117 -1.568689227104187 -0.34001585841178894 101
2.3034305572509766 -1.552513837814331 -0.23967866599559784 101
2.317012071609497 -1.5622559785842896 -0.14396657049655914 101
2.307079315185547 -1.5561444759368896 -0.04742821678519249 101
2.3177969455718994 -1.5639622211456299 0.7384470701217651 101
2.3213391304016113 -1.5669422149658203 0.6372541189193726 101
2.3055598735809326 -1.5568767786026 0.5328322649002075 101
2.3070356845855713 -1.5584596395492554 0.4344085454940796 101
2.3055543899536133 -1.5580450296401978 0.33696871995925903 101
2.3177664279937744 -1.5668871402740479 0.2414214164018631 101
2.314807653427124 -1.565475583076477 0.1444472372531891 101
2.288334608078003 -1.5481541156768799 0.047557804733514786 101
1.578999638557434 -1.0698671340942383 -0.5008150935173035 119
1.814354658126831 -1.2293342351913452 -0.49714213609695435 119
2.1200075149536133 -1.4369723796844482 -0.4899391233921051 119
2.2878994941711426 -1.551355004310608 -0.43175947666168213 119
2.3028316497802734 -1.562066674232483 -0.3369691073894501 101
2.282055377960205 -1.5485551357269287 -0.23793554306030273 101
2.2914364337921143 -1.5555051565170288 -0.14266252517700195 101
2.2815001010894775 -1.5493419170379639 -0.04699626937508583 101
2.292896032333374 -1.5576655864715576 0.7319807410240173 101
2.296257257461548 -1.5605347156524658 0.6316345930099487 101
2.280362129211426 -1.5503145456314087 0.5280663371086121 101
2.281709909439087 -1.551813006401062 0.4305019974708557 101
2.28013277053833 -1.551322340965271 0.33392199873924255 101
2.2963619232177734 -1.562950611114502 0.239678293466568 101
2.2892417907714844 -1.5586892366409302 0.1431388258934021 101
2.262800455093384 -1.5412640571594238 0.04712149500846863 101
1.575443148612976 -1.0750974416732788 -0.5008150935173035 119
1.810052514076233 -1.2356599569320679 -0.49714213609695435 119
2.114978551864624 -1.4443638324737549 -0.4899391233921051 119
2.2620818614959717 -1.5454028844833374 -0.42784860730171204 119
2.280975818634033 -1.5588946342468262 -0.3345317244529724 101
2.2560765743255615 -1.5424555540084839 -0.23575665056705475 101
2.265385866165161 -1.5494003295898438 -0.14135847985744476 101
2.2595744132995605 -1.5460046529769897 -0.046650707721710205 101
2.267516613006592 -1.552019715309143 0.7255144715309143 101
2.270695924758911 -1.55477774143219 0.6260150074958801 101
2.2546896934509277 -1.544396162033081 0.5233003497123718 101
2.2559096813201904 -1.5458104610443115 0.42659544944763184 101
2.2583305835723877 -1.548048496246338 0.3314846158027649 101
2.270352602005005 -1.556872010231018 0.23749940097332 101
2.263199806213379 -1.552547812461853 0.1418304443359375 101
2.2409186363220215 -1.5378384590148926 0.046772442758083344 101
1.5714921951293945 -1.080864429473877 -0.5008150935173035 119
1.8055113554000854 -1.242285966873169 -0.49714213609695435 119
2.1056275367736816 -1.449323058128357 -0.48898595571517944 119
2.2401325702667236 -1.54248046875 -0.424719899892807 119
2.254812240600586 -1.5531686544418335 -0.33148500323295593 101
2.234002113342285 -1.5394090414047241 -0.23401352763175964 101
2.2432472705841064 -1.546357274055481 -0.1403152495622635 101
2.2333147525787354 -1.5400855541229248 -0.04621875658631325 101
2.2419347763061523 -1.5466071367263794 0.719048261642456 101
2.2449326515197754 -1.5492535829544067 0.6203955411911011 101
2.2328572273254395 -1.5414955615997314 0.5194876194000244 101
2.2299106121063232 -1.5400360822677612 0.42268890142440796 101
2.2322258949279785 -1.5422106981277466 0.328437864780426 101
2.2482409477233887 -1.5538549423217773 0.2357562780380249 101
2.2410659790039062 -1.5494738817214966 0.14078372716903687 101
2.2147092819213867 -1.5318224430084229 0.046336136758327484 101
1.5716794729232788 -1.0890942811965942 -0.502109169960022 119
1.8051676750183105 -1.2513561248779297 -0.49826687574386597 119
2.100555658340454 -1.4566643238067627 -0.48898595571517944 119
2.214446544647217 -1.5362162590026855 -0.4208090603351593 119
2.2289910316467285 -1.5468823909759521 -0.32843825221061707 101
2.2081568241119385 -1.5329948663711548 -0.23183462023735046 101
2.217329978942871 -1.539936900138855 -0.1390112042427063 101
2.211503028869629 -1.5364621877670288 -0.04587319493293762 101
2.2166922092437744 -1.540641188621521 0.712581992149353 101
2.223510265350342 -1.5459555387496948 0.615899920463562 101
2.2113449573516846 -1.538069725036621 0.515674889087677 101
2.208305835723877 -1.5365279912948608 0.4195636510848999 101
2.210536479949951 -1.5386525392532349 0.32600048184394836 101
2.222364902496338 -1.547461748123169 0.23357738554477692 101
2.2151577472686768 -1.5430175065994263 0.13947531580924988 101
2.188840389251709 -1.525253176689148 0.04589982330799103 101
1.5678682327270508 -1.094573736190796 -0.502109169960022 119
1.8007885217666626 -1.2576497793197632 -0.49826687574386597 119
2.0954582691192627 -1.4639878273010254 -0.48898595571517944 119
2.1928794384002686 -1.5326205492019653 -0.4176803529262543 119
2.2073090076446533 -1.5432789325714111 -0.3260008692741394 101
2.1864657402038574 -1.5292741060256958 -0.23009151220321655 101
2.1955764293670654 -1.5362173318862915 -0.13796795904636383 101
2.185647964477539 -1.5298386812210083 -0.045441243797540665 101
2.1954753398895264 -1.5372884273529053 0.7074089646339417 101
2.198148012161255 -1.539731502532959 0.6102803945541382 101
2.185863971710205 -1.53169584274292 0.5109089016914368 101
2.182708978652954 -1.5300531387329102 0.41565707325935364 101
2.18483567237854 -1.532112717628479 0.3229537308216095 101
2.200639009475708 -1.5437676906585693 0.2318342626094818 101
2.1934096813201904 -1.5392675399780273 0.13842859864234924 101
2.1671366691589355 -1.5213946104049683 0.04555077850818634 101
1.5679881572723389 -1.102818489074707 -0.5034032464027405 119
1.7963876724243164 -1.2639280557632446 -0.49826687574386597 119
2.0903351306915283 -1.4712934494018555 -0.48898595571517944 119
2.1713645458221436 -1.5288931131362915 -0.41455164551734924 119
2.1856796741485596 -1.5395432710647583 -0.32356348633766174 101
2.1607558727264404 -1.5225518941879272 -0.22791261970996857 101
2.169794797897339 -1.5294877290725708 -0.13666391372680664 101
2.1598663330078125 -1.523053526878357 -0.04500929266214371 101
2.170362710952759 -1.531022310256958 0.7009427547454834 101
2.176837205886841 -1.536158800125122 0.6057847738265991 101
2.1644649505615234 -1.5279937982559204 0.5070961713790894 101
2.1612186431884766 -1.5262672901153564 0.41253185272216797 101
2.1632614135742188 -1.5282758474349976 0.32051634788513184 101
2.1789662837982178 -1.5399409532546997 0.2300911545753479 101
2.1717147827148438 -1.5353846549987793 0.1373818814754486 101
2.1414051055908203 -1.5145164728164673 0.04511446878314018 101
1.5680698156356812 -1.1110771894454956 -0.504697322845459 119
1.7919647693634033 -1.2701908349990845 -0.49826687574386597 119
2.085186719894409 -1.4785810708999634 -0.48898595571517944 119
2.149902582168579 -1.5250341892242432 -0.4114229679107666 119
2.1641032695770264 -1.5356751680374146 -0.3211260735988617 101
2.13918137550354 -1.5185519456863403 -0.22616951167583466 101
2.148158311843872 -1.5254883766174316 -0.13562068343162537 101
2.1382346153259277 -1.5190026760101318 -0.04466373473405838 101
2.145320177078247 -1.5245996713638306 0.6944764256477356 101
2.1516077518463135 -1.5296331644058228 0.6001651883125305 101
2.1391186714172363 -1.5213165283203125 0.5023302435874939 101
2.1357576847076416 -1.5194875001907349 0.4086253046989441 101
2.141740560531616 -1.5243072509765625 0.3180789649486542 101
2.1573469638824463 -1.5359820127487183 0.228348046541214 101
2.1460068225860596 -1.5284725427627563 0.13607348501682281 101
2.119819402694702 -1.5103784799575806 0.0447654202580452 101
1.5681127309799194 -1.1193500757217407 -0.5059914588928223 119
1.783555507659912 -1.2736072540283203 -0.49714213609695435 119
2.0840065479278564 -1.4887036085128784 -0.4899391233921051 119
2.1284945011138916 -1.521044373512268 -0.40829429030418396 119
2.142580509185791 -1.5316756963729858 -0.31868869066238403 101
2.117661476135254 -1.5144202709197998 -0.22442638874053955 101
2.1265764236450195 -1.521356463432312 -0.1345774382352829 101
2.1125922203063965 -1.51190984249115 -0.044231779873371124 101
2.124276638031006 -1.5208327770233154 0.689303457736969 101
2.13041090965271 -1.5257868766784668 0.5956695675849915 101
2.117835521697998 -1.5173397064208984 0.4985174834728241 101
2.114384412765503 -1.515425682067871 0.4055000841617584 101
2.120274066925049 -1.5202070474624634 0.3156415820121765 101
2.1398298740386963 -1.5347939729690552 0.22704072296619415 101
2.1244308948516846 -1.5243107080459595 0.13502676784992218 101
2.0982887744903564 -1.506108045578003 0.04441636800765991 101
1.5681170225143433 -1.1276365518569946 -0.5072855353355408 119
1.7830535173416138 -1.2826701402664185 -0.49826687574386597 119
2.0787973403930664 -1.4959690570831299 -0.4899391233921051 119
2.107140302658081 -1.5169240236282349 -0.40516558289527893 119
2.1170854568481445 -1.524644374847412 -0.31564193964004517 101
2.0921552181243896 -1.5072451829910278 -0.22224748134613037 101
2.100998640060425 -1.5141735076904297 -0.1332733929157257 101
2.0870256423950195 -1.5046566724777222 -0.04379982873797417 101
2.0993683338165283 -1.514112114906311 0.682837188243866 101
2.1092679500579834 -1.5218117237091064 0.5911740064620972 101
2.0926260948181152 -1.5103602409362793 0.49375152587890625 101
2.089061737060547 -1.5083422660827637 0.40159350633621216 101
2.094839096069336 -1.5130698680877686 0.31259486079216003 101
2.1102356910705566 -1.52475106716156 0.2244260460138321 101
2.098863363265991 -1.5170917510986328 0.1337183564901352 101
2.068711996078491 -1.4958475828170776 0.04389279708266258 101
1.5641711950302124 -1.1331034898757935 -0.5072855353355408 119
1.7864551544189453 -1.2946038246154785 -0.5005163550376892 119
2.0695888996124268 -1.5003355741500854 -0.48898595571517944 119
2.073847770690918 -1.5039750337600708 -0.3996903598308563 119
2.091665506362915 -1.5174541473388672 -0.3125952184200287 101
2.054631471633911 -1.4911340475082397 -0.21876125037670135 101
2.0714566707611084 -1.5038968324661255 -0.1317085474729538 101
2.053445816040039 -1.4913681745529175 -0.043195098638534546 101
2.074533224105835 -1.5072365999221802 0.6763709187507629 101
2.088178873062134 -1.5177075862884521 0.5866783857345581 101
2.0635221004486084 -1.5003373622894287 0.48803240060806274 101
2.0558266639709473 -1.4952906370162964 0.39612433314323425 101
2.065467357635498 -1.5028539896011353 0.30893877148628235 101
2.0767102241516113 -1.5115889310836792 0.22137558460235596 101
2.0612635612487793 -1.5008959770202637 0.13162492215633392 101
2.0351920127868652 -1.4824557304382324 0.04328196495771408 101
1.5604050159454346 -1.1382840871810913 -0.5072855353355408 119
1.7902508974075317 -1.3059520721435547 -0.5027658939361572 119
2.0648653507232666 -1.5068299770355225 -0.48898595571517944 119
2.041191816329956 -1.4901005029678345 -0.3942151665687561 119
2.054825782775879 -1.5006030797958374 -0.307720422744751 101
2.021782398223877 -1.477013349533081 -0.21571078896522522 101
2.034471273422241 -1.4868277311325073 -0.12962207198143005 101
2.0245361328125 -1.4801092147827148 -0.04267675802111626 101
2.038599967956543 -1.4909369945526123 0.666024923324585 101
2.0519440174102783 -1.5012462139129639 0.57768714427948 101
2.0310728549957275 -1.486520528793335 0.4813600778579712 101
2.023226022720337 -1.481319785118103 0.39065515995025635 101
2.024702548980713 -1.4829438924789429 0.3034546673297882 101
2.0398080348968506 -1.4945545196533203 0.21788936853408813 101
2.032374858856201 -1.4896535873413086 0.13005484640598297 101
2.002303123474121 -1.4681494235992432 0.04267112910747528 101
1.560514211654663 -1.146311640739441 -0.5085796117782593 119
1.793533205986023 -1.3179631233215332 -0.5050153732299805 119
2.031909704208374 -1.493678331375122 -0.4823136329650879 119
2.000171422958374 -1.470884919166565 -0.38717561960220337 119
2.021592378616333 -1.4871811866760254 -0.30345502495765686 101
1.9805086851119995 -1.4574909210205078 -0.21178877353668213 101
1.9971002340316772 -1.4702383279800415 -0.1275355964899063 101
1.983128309249878 -1.4604861736297607 -0.041899245232343674 101
2.0061635971069336 -1.4779906272888184 0.6569721102714539 101
2.015315294265747 -1.4852757453918457 0.5686959028244019 101
1.9903156757354736 -1.467387318611145 0.4727814197540283 101
1.9822720289230347 -1.4619909524917603 0.3836233615875244 101
1.9835727214813232 -1.4634850025177002 0.2979705333709717 101
2.0025177001953125 -1.4780024290084839 0.21440313756465912 101
1.9910106658935547 -1.4700462818145752 0.12769973278045654 101
1.9649962186813354 -1.4513686895370483 0.04197303578257561 101
1.5561012029647827 -1.1522951126098633 -0.5085796117782593 119
1.7923742532730103 -1.3277400732040405 -0.5061401724815369 119
2.006441593170166 -1.486857533454895 -0.47754764556884766 119
1.9707056283950806 -1.4609086513519287 -0.3824825882911682 119
1.983977198600769 -1.4712836742401123 -0.29858022928237915 101
1.9628969430923462 -1.4561818838119507 -0.2104814499616623 101
1.9553531408309937 -1.4511146545410156 -0.12518832087516785 101
1.9534218311309814 -1.4502100944519043 -0.041380904614925385 101
1.965576171875 -1.4597656726837158 0.6453328728675842 101
1.9704889059066772 -1.4639478921890259 0.5574568510055542 101
1.9610298871994019 -1.457451581954956 0.4670622944831848 101
1.960790991783142 -1.4578053951263428 0.38049814105033875 101
1.9500640630722046 -1.4503586292266846 0.2937051057815552 101
1.9608618021011353 -1.4589210748672485 0.21048112213611603 101
1.9653241634368896 -1.4627742767333984 0.12639133632183075 101
1.9393595457077026 -1.4439749717712402 0.04153672233223915 101
1.5520695447921753 -1.1577198505401611 -0.5085796117782593 119
1.7877287864685059 -1.3339885473251343 -0.5061401724815369 119
1.9776395559310913 -1.4762359857559204 -0.47182852029800415 119
1.9616371393203735 -1.4648239612579346 -0.38170042634010315 119
1.9748533964157104 -1.4752298593521118 -0.29797086119651794 101
1.9458318948745728 -1.4540797472000122 -0.20917409658432007 101
1.9462770223617554 -1.454941749572754 -0.12492751330137253 101
1.9443440437316895 -1.4540258646011353 -0.041294511407613754 101
1.9527338743209839 -1.4608315229415894 0.6427463293075562 101
1.9536646604537964 -1.462059736251831 0.5540851354598999 101
1.9441428184509277 -1.4554632902145386 0.4642027020454407 101
1.943831443786621 -1.4557597637176514 0.3781541883945465 101
1.9449894428253174 -1.457156777381897 0.2937051057815552 101
1.9557572603225708 -1.4657570123672485 0.21048112213611603 101
1.9522160291671753 -1.4636350870132446 0.12586797773838043 101
1.926304578781128 -1.4447420835494995 0.04136219993233681 101
1.5520834922790527 -1.16576087474823 -0.5098737478256226 119
1.7835290431976318 -1.339598298072815 -0.5061401724815369 119
1.9572956562042236 -1.4706478118896484 -0.46801578998565674 119
1.9451825618743896 -1.4620776176452637 -0.3793538808822632 119
1.958309531211853 -1.4724793434143066 -0.2961428165435791 101
1.9293125867843628 -1.4512033462524414 -0.20786677300930023 101
1.9337167739868164 -1.4550446271896362 -0.12440589815378189 101
1.931778073310852 -1.4541139602661133 -0.04112173244357109 101
1.9404182434082031 -1.4611483812332153 0.6401598453521729 101
1.937387466430664 -1.4593960046768188 0.5507134199142456 101
1.9317209720611572 -1.4556559324264526 0.46229633688926697 101
1.9274178743362427 -1.4529410600662231 0.37581026554107666 101
1.9245526790618896 -1.451308012008667 0.2912676930427551 101
1.9392136335372925 -1.4628947973251343 0.2091737687587738 101
1.935651421546936 -1.460737705230713 0.12508292496204376 101
1.9097906351089478 -1.4417450428009033 0.04110041633248329 101
1.5520612001419067 -1.1738146543502808 -0.5111678242683411 119
1.7710716724395752 -1.3399369716644287 -0.5038906931877136 119
1.9443228244781494 -1.4715468883514404 -0.46610939502716064 119
1.928255319595337 -1.4599158763885498 -0.3770073652267456 0
1.9412894248962402 -1.4703172445297241 -0.29431480169296265 101
1.9123245477676392 -1.4489047527313232 -0.206559419631958 101
1.9166877269744873 -1.4527372121810913 -0.12362346053123474 101
1.9187233448028564 -1.4548072814941406 -0.04094895347952843 101
1.9237618446350098 -1.4591563940048218 0.6362801194190979 101
1.920637607574463 -1.4573148488998413 0.5473417043685913 101
1.918808937072754 -1.4564552307128906 0.4603899419307709 101
1.9144679307937622 -1.4536869525909424 0.37424764037132263 101
1.9115710258483887 -1.452013373374939 0.2900490164756775 101
1.922197699546814 -1.4606142044067383 0.20786644518375397 101
1.9186155796051025 -1.458420753479004 0.12429789453744888 101
1.8967875242233276 -1.4423507452011108 0.04092589020729065 101
1.551589846611023 -1.1824226379394531 -0.5124619007110596 119
1.762274146080017 -1.3434654474258423 -0.5027658939361572 119
1.9272074699401855 -1.4697340726852417 -0.4632498025894165 119
1.911112904548645 -1.4579874277114868 -0.374660849571228 101
1.9240520000457764 -1.4683901071548462 -0.2924867272377014 101
1.8951241970062256 -1.4468363523483276 -0.20525209605693817 101
1.8994457721710205 -1.4506607055664062 -0.12284104526042938 101
1.901460886001587 -1.4527250528335571 -0.04068978503346443 101
1.9068883657455444 -1.4573988914489746 0.6324003338813782 101
1.9075425863265991 -1.4584263563156128 0.5450938940048218 101
1.9056602716445923 -1.4575142860412598 0.45848357677459717 101
1.8973603248596191 -1.4516911506652832 0.3719037175178528 101
1.894413709640503 -1.4499610662460327 0.28822100162506104 101
1.908921718597412 -1.4615936279296875 0.206994891166687 101
1.9013651609420776 -1.4563343524932861 0.12351284921169281 101
1.879583477973938 -1.4401713609695435 0.040664102882146835 101
1.5551152229309082 -1.1937130689620972 -0.5150501132011414 119
1.7537100315093994 -1.3466417789459229 -0.5016411542892456 119
1.9103883504867554 -1.467482328414917 -0.46039026975631714 119
1.8942641019821167 -1.4556221961975098 -0.37231430411338806 101
1.9071111679077148 -1.4660236835479736 -0.29065871238708496 101
1.8782167434692383 -1.444333791732788 -0.20394474267959595 101
1.8824975490570068 -1.4481486082077026 -0.12205860763788223 101
1.8844923973083496 -1.4502067565917969 -0.04043061286211014 101
1.8903080224990845 -1.4552075862884521 0.6285205483436584 101
1.890859842300415 -1.4561580419540405 0.5417221784591675 101
1.8888962268829346 -1.4551711082458496 0.455623984336853 101
1.8844579458236694 -1.4522761106491089 0.37034109234809875 101
1.8775497674942017 -1.4474745988845825 0.2863929271697998 101
1.8919751644134521 -1.4591223001480103 0.20568755269050598 101
1.8844101428985596 -1.4538124799728394 0.12272781878709793 101
1.8666294813156128 -1.4406147003173828 0.04048958048224449 101
1.5356556177139282 -1.1873177289962769 -0.5098737478256226 119
1.7451447248458862 -1.3497743606567383 -0.5005163550376892 119
1.89749014377594 -1.4681346416473389 -0.45848390460014343 119
1.877455711364746 -1.4531575441360474 -0.36996781826019287 101
1.8941341638565063 -1.4665952920913696 -0.28944000601768494 101
1.8652876615524292 -1.444780707359314 -0.203073188662529 101
1.86558997631073 -1.4455358982086182 -0.12127619236707687 101
1.8636138439178467 -1.4445253610610962 -0.04008505120873451 101
1.8737664222717285 -1.4529184103012085 0.6246408224105835 101
1.8742164373397827 -1.4537912607192993 0.5383504629135132 101
1.8721717596054077 -1.4527286291122437 0.45276445150375366 101
1.8637721538543701 -1.4467322826385498 0.3672158420085907 101
1.8568068742752075 -1.4418448209762573 0.28395554423332214 101
1.8750697374343872 -1.4565509557724 0.20438022911548615 101
1.8714385032653809 -1.454253911972046 0.12220446020364761 101
1.8497487306594849 -1.4379171133041382 0.040227796882390976 101
1.5200703144073486 -1.183768630027771 -0.5059914588928223 119
1.736579418182373 -1.3528640270233154 -0.4993916451931 119
1.8846107721328735 -1.468714952468872 -0.45657750964164734 119
1.860687494277954 -1.4505929946899414 -0.3676212728023529 101
1.8772631883621216 -1.4640421867370605 -0.2876119613647461 101
1.848451852798462 -1.442091703414917 -0.20176586508750916 101
1.8487237691879272 -1.4428231716156006 -0.12049376219511032 101
1.846738576889038 -1.441792368888855 -0.03982588276267052 101
1.8572638034820557 -1.4505316019058228 0.6207610368728638 101
1.8576126098632812 -1.4513258934020996 0.5349787473678589 101
1.8516204357147217 -1.4471648931503296 0.44895169138908386 101
1.8431484699249268 -1.4410618543624878 0.36409062147140503 101
1.8400354385375977 -1.4391452074050903 0.2821275293827057 101
1.854282259941101 -1.4508100748062134 0.20263710618019104 101
1.8545547723770142 -1.4515451192855835 0.12141941487789154 101
1.832909345626831 -1.4351191520690918 0.03996600955724716 101
1.5159289836883545 -1.1890674829483032 -0.5059914588928223 119
1.731846570968628 -1.3589175939559937 -0.4993916451931 119
1.8717509508132935 -1.4692232608795166 -0.45467114448547363 119
1.8400763273239136 -1.4448796510696411 -0.36449259519577026 101
1.8643357753753662 -1.4644548892974854 -0.28639328479766846 101
1.8355735540390015 -1.4423800706863403 -0.2008943110704422 101
1.8279739618301392 -1.4369244575500488 -0.11945052444934845 101
1.8259752988815308 -1.4358689785003662 -0.03948031738400459 101
1.8370047807693481 -1.4450610876083374 0.6155880689620972 101
1.841049075126648 -1.4487627744674683 0.5316070318222046 101
1.8349874019622803 -1.4445112943649292 0.4460921287536621 101
1.8187074661254883 -1.432209849357605 0.36018407344818115 101
1.823305368423462 -1.4363462924957275 0.28029948472976685 101
1.8374701738357544 -1.4480246305465698 0.20132976770401 101
1.8416343927383423 -1.4518274068832397 0.12089605629444122 101
1.8161122798919678 -1.4322214126586914 0.03970422223210335 101
1.4738725423812866 -1.1644121408462524 -0.4930504858493805 119
1.7232699394226074 -1.3619335889816284 -0.49826687574386597 119
1.858910322189331 -1.4696599245071411 -0.4527647793292999 119
1.8234013319015503 -1.4421037435531616 -0.3621461093425751 101
1.851428747177124 -1.4647953510284424 -0.28517457842826843 101
1.8188104629516602 -1.4395051002502441 -0.19958695769309998 101
1.8112027645111084 -1.4339979887008667 -0.1186680942773819 101
1.8091951608657837 -1.4329224824905396 -0.0392211489379406 101
1.8205925226211548 -1.4424664974212646 0.6117083430290222 101
1.8245261907577515 -1.446101427078247 0.5282353162765503 101
1.8145496845245361 -1.4387099742889404 0.4422793686389923 101
1.798219919204712 -1.4262737035751343 0.3570587933063507 101
1.8066173791885376 -1.433448076248169 0.2784714102745056 101
1.8167986869812012 -1.4420431852340698 0.1995866447687149 101
1.8287343978881836 -1.4520372152328491 0.1203726977109909 101
1.7993578910827637 -1.4292240142822266 0.03944243863224983 101
1.5038117170333862 -1.196614384651184 -0.504697322845459 119
1.7108820676803589 -1.3618724346160889 -0.49601736664772034 119
1.846089482307434 -1.4700247049331665 -0.45085838437080383 119
1.8029054403305054 -1.4361518621444702 -0.35901737213134766 101
1.8346608877182007 -1.4619709253311157 -0.283346563577652 101
1.8020896911621094 -1.4365304708480835 -0.19827960431575775 101
1.798378348350525 -1.434085488319397 -0.11814647167921066 101
1.792457938194275 -1.4298760890960693 -0.038961976766586304 101
1.800445795059204 -1.4367624521255493 0.6065353155136108 101
1.80804443359375 -1.443342924118042 0.524863600730896 101
1.801845669746399 -1.4389094114303589 0.4403730034828186 101
1.7816545963287354 -1.4232947826385498 0.35471490025520325 101
1.7899723052978516 -1.4304511547088623 0.27664339542388916 101
1.8000823259353638 -1.4390455484390259 0.19827930629253387 101
1.815855860710144 -1.4521749019622803 0.11984933912754059 101
1.782646894454956 -1.4261271953582764 0.03918064758181572 101
1.4958568811416626 -1.1988359689712524 -0.5034032464027405 119
1.6985156536102295 -1.3617414236068726 -0.4937678575515747 119
1.8294597864151 -1.4672471284866333 -0.4479987919330597 119
1.786325454711914 -1.433165192604065 -0.35667088627815247 101
1.8179354667663574 -1.4590473175048828 -0.28151848912239075 101
1.7854124307632446 -1.433457374572754 -0.19697228074073792 101
1.7816823720932007 -1.4309741258621216 -0.1173640564084053 101
1.7757643461227417 -1.426730990409851 -0.03870280832052231 101
1.784125566482544 -1.4339611530303955 0.6026555299758911 101
1.7916042804718018 -1.4404866695404053 0.5214918851852417 101
1.7815134525299072 -1.4328854084014893 0.4365602433681488 101
1.7689802646636963 -1.4233136177062988 0.3531522750854492 101
1.7733700275421143 -1.4273555278778076 0.2748153507709503 101
1.779529333114624 -1.432824969291687 0.19653619825839996 101
1.7952210903167725 -1.44597589969635 0.11880261451005936 101
1.7620867490768433 -1.4197947978973389 0.03883160278201103 101
nan nan nan 0
1.6861711740493774 -1.361540675163269 -0.4915183484554291 119
1.8166905641555786 -1.4674557447433472 -0.446092426776886 119
1.7659473419189453 -1.4269765615463257 -0.35354217886924744 101
1.801252841949463 -1.4560248851776123 -0.2796904444694519 101
1.7687783241271973 -1.430284857749939 -0.19566494226455688 101
1.768912434577942 -1.4309041500091553 -0.11684243381023407 101
1.7630008459091187 -1.426631212234497 -0.038530029356479645 101
1.764093041419983 -1.4280246496200562 0.5974825024604797 101
1.7752063274383545 -1.4375336170196533 0.5181202292442322 101
1.7688729763031006 -1.4329161643981934 0.4346538782119751 101
1.7601641416549683 -1.42637038230896 0.352370947599411 101
1.7568116188049316 -1.4241615533828735 0.27298733592033386 101
1.7629108428955078 -1.4296159744262695 0.19522887468338013 101
1.7785297632217407 -1.4427967071533203 0.11801756918430328 101
1.7454744577407837 -1.416486382484436 0.038569819182157516 101
1.4911985397338867 -1.2122963666915894 -0.504697322845459 119
1.6776286363601685 -1.3643444776535034 -0.49039360880851746 119
1.8039422035217285 -1.4675930738449097 -0.4441860616207123 0
1.749464511871338 -1.4237803220748901 -0.35119566321372986 101
1.7846137285232544 -1.4529038667678833 -0.27786242961883545 101
1.7521885633468628 -1.4270143508911133 -0.19435760378837585 101
1.756164789199829 -1.4307624101638794 -0.11632081866264343 101
1.7463842630386353 -1.4233014583587646 -0.03827085718512535 101
1.7478673458099365 -1.4250179529190063 0.59360271692276 101
1.7588506937026978 -1.4344836473464966 0.5147484540939331 101
1.748647689819336 -1.4266705513000488 0.4308411180973053 101
1.7475224733352661 -1.4262605905532837 0.350808322429657 101
1.7402969598770142 -1.4208694696426392 0.27115926146507263 101
1.7463364601135254 -1.426308512687683 0.1939215213060379 101
1.7580161094665527 -1.4363594055175781 0.11697085201740265 101
1.7250361442565918 -1.4099156856536865 0.03822077065706253 101
1.4794840812683105 -1.2113748788833618 -0.502109169960022 119
1.6766247749328613 -1.373279094696045 -0.4915183484554291 119
1.7950119972229004 -1.4707703590393066 -0.4432328939437866 0
1.7330260276794434 -1.4204869270324707 -0.3488491475582123 101
1.7680182456970215 -1.449684500694275 -0.2760343551635742 101
1.735642910003662 -1.42364501953125 -0.19305026531219482 101
1.7434395551681519 -1.4305492639541626 -0.1157992035150528 101
1.7336771488189697 -1.42304527759552 -0.03809807822108269 101
1.7279516458511353 -1.4188504219055176 0.5884297490119934 101
1.7425382137298584 -1.4313371181488037 0.5113767385482788 101
1.7322802543640137 -1.423417329788208 0.42798152565956116 101
1.7310878038406372 -1.4229437112808228 0.3484644293785095 101
1.7238271236419678 -1.4174796342849731 0.2693312466144562 101
1.729806900024414 -1.4229029417037964 0.19261419773101807 101
1.7375690937042236 -1.429796576499939 0.11592413485050201 101
1.7085249423980713 -1.4063969850540161 0.037958983331918716 101
1.4789727926254272 -1.2196046113967896 -0.5034032464027405 119
1.6718209981918335 -1.3791232109069824 -0.4915183484554291 119
1.786081314086914 -1.4739030599594116 -0.4422796666622162 0
1.7166316509246826 -1.4170958995819092 -0.3465026021003723 101
1.7514674663543701 -1.4463672637939453 -0.27420634031295776 101
1.7191425561904907 -1.420177936553955 -0.191742941737175 101
1.7307374477386475 -1.4302647113800049 -0.11527758091688156 101
1.7171398401260376 -1.4195324182510376 -0.03783890977501869 101
1.711822509765625 -1.4156394004821777 0.5845500230789185 101
1.7262694835662842 -1.4280943870544434 0.5080050230026245 101
1.712175726890564 -1.416938304901123 0.42416879534721375 101
1.7185022830963135 -1.4226794242858887 0.3469018042087555 101
1.7112243175506592 -1.4171576499938965 0.26811254024505615 101
1.713322401046753 -1.419399380683899 0.19130685925483704 101
1.7210341691970825 -1.4262948036193848 0.11513910442590714 101
1.6959078311920166 -1.4059709310531616 0.037784457206726074 101
1.4524142742156982 -1.20624577999115 -0.4956386983394623 119
1.6707441806793213 -1.3880640268325806 -0.4926431179046631 119
1.7658263444900513 -1.46757972240448 -0.4384669363498688 0
1.7040797472000122 -1.4167650938034058 -0.3449382781982422 101
1.7349613904953003 -1.442952036857605 -0.27237826585769653 101
1.7026877403259277 -1.416613221168518 -0.19043558835983276 101
1.7180585861206055 -1.4299089908599854 -0.11475596576929092 101
1.7006484270095825 -1.4159212112426758 -0.0375797376036644 101
1.6957367658615112 -1.4123332500457764 0.5806702375411987 101
1.7100446224212646 -1.424755334854126 0.5046333074569702 101
1.6959079504013062 -1.4134787321090698 0.421309232711792 101
1.702146053314209 -1.4191814661026 0.34455785155296326 101
1.6948336362838745 -1.4135862588882446 0.2662844955921173 101
1.6968836784362793 -1.415798306465149 0.1899995356798172 101
1.7045447826385498 -1.4226950407028198 0.11435405910015106 101
1.679477334022522 -1.402269959449768 0.03752266988158226 101
1.477831482887268 -1.2360972166061401 -0.5059914588928223 119
1.6696250438690186 -1.3970136642456055 -0.4937678575515747 119
1.73434579372406 -1.4516818523406982 -0.43179458379745483 0
1.6877648830413818 -1.413193702697754 -0.3425917625427246 101
1.714695930480957 -1.4362527132034302 -0.26994088292121887 101
1.6900966167449951 -1.4161498546600342 -0.1895640343427658 101
1.7015767097473145 -1.4262747764587402 -0.11397353559732437 101
1.688034176826477 -1.4154248237609863 -0.037406954914331436 101
1.683395504951477 -1.4120359420776367 0.5780837535858154 101
1.693864345550537 -1.421320915222168 0.5012615919113159 101
1.6834449768066406 -1.4130786657333374 0.4194028675556183 101
1.6858357191085815 -1.4155871868133545 0.3422139286994934 101
1.6822888851165771 -1.4131096601486206 0.2650658190250397 101
1.6804909706115723 -1.412099838256836 0.18869218230247498 101
1.6881015300750732 -1.4189976453781128 0.11356901377439499 101
1.6669195890426636 -1.401688814163208 0.037348147481679916 101
1.503057599067688 -1.2661404609680176 -0.5163442492485046 119
1.6684640645980835 -1.4059728384017944 -0.4948926270008087 119
1.7067511081695557 -1.4387458562850952 -0.42607545852661133 0
1.6714955568313599 -1.4095255136489868 -0.34024524688720703 101
1.6982922554016113 -1.4326297044754028 -0.2681128680706024 101
1.6737229824066162 -1.4124038219451904 -0.18825668096542358 101
1.6889567375183105 -1.4257639646530151 -0.11345191299915314 101
1.6754438877105713 -1.4148576259613037 -0.03723417595028877 101
1.667387843132019 -1.408553123474121 0.5742040276527405 101
1.6814501285552979 -1.4209355115890503 0.4990138113498688 101
1.6672569513320923 -1.4094401597976685 0.41654327511787415 101
1.6733423471450806 -1.4150854349136353 0.34065133333206177 101
