# .PCD v0.7 - Point Cloud Data file format
VERSION 0.7
FIELDS x y z intensity
SIZE 4 4 4 4
TYPE F F F F
COUNT 1 1 1 1
WIDTH 777
HEIGHT 1
VIEWPOINT 0 0 0 1 0 0 0
POINTS 777
DATA ascii
-1.426734209060669 2.3679263591766357 -0.14240172505378723 44
-1.4073938131332397 2.336750030517578 -0.04647792875766754 44
-1.4646083116531372 2.4327056407928467 0.75008624792099 44
-1.4617286920547485 2.428881883621216 0.6451213955879211 44
-1.4188988208770752 2.358645439147949 0.527113139629364 44
-1.422025203704834 2.364776611328125 0.4305019974708557 44
-1.4105714559555054 2.3466570377349854 0.3314846158027649 44
-1.4280999898910522 2.3767569065093994 0.23924250900745392 44
-1.4259846210479736 2.3741750717163086 0.1431388258934021 44
-1.4118454456329346 2.3515639305114746 0.0472087562084198 44
-1.0101311206817627 1.6858021020889282 -0.5163442492485046 119
-1.161184549331665 1.9386615753173828 -0.5128887295722961 119
-1.3710927963256836 2.2900216579437256 -0.5109092593193054 119
-1.417030692100525 2.367685079574585 -0.4309772849082947 119
-1.4311317205429077 2.3921937942504883 -0.3375784754753113 44
-1.4128931760787964 2.362643241882324 -0.23749975860118866 44
-1.4107739925384521 2.360034465789795 -0.14161927998065948 44
-1.396664023399353 2.3373568058013916 -0.04639153555035591 44
-1.451154112815857 2.4295103549957275 0.7474997639656067 44
-1.4482461214065552 2.425603151321411 0.6428735852241516 44
-1.4081416130065918 2.3593695163726807 0.526159942150116 44
-1.4087013006210327 2.361243486404419 0.4289393723011017 44
-1.3972877264022827 2.3430416584014893 0.33026590943336487 44
-1.4146939516067505 2.373170852661133 0.23837095499038696 44
-1.412576675415039 2.3705594539642334 0.14261546730995178 44
-1.3985117673873901 2.3478877544403076 0.047034233808517456 44
-1.0017725229263306 1.6851664781570435 -0.5150501132011414 119
-1.1544102430343628 1.942703127861023 -0.5128887295722961 119
-1.3630907535552979 2.2947936058044434 -0.5109092593193054 119
-1.403714656829834 2.364124298095703 -0.42941296100616455 119
-1.417706847190857 2.388639450073242 -0.33635976910591125 44
-1.3995544910430908 2.3589932918548584 -0.2366282045841217 44
-1.3974334001541138 2.3563549518585205 -0.14109766483306885 44
-1.3833980560302734 2.3336169719696045 -0.04621875658631325 44
-1.4377402067184448 2.426250696182251 0.7449132800102234 44
-1.4372875690460205 2.4264519214630127 0.6417497396469116 44
-1.3948957920074463 2.355823278427124 0.5242535471916199 44
-1.3979350328445435 2.3618967533111572 0.42815807461738586 44
-1.3865734338760376 2.3436336517333984 0.32965657114982605 44
-1.4013304710388184 2.3695199489593506 0.23749940097332 44
-1.3992114067077637 2.3668792247772217 0.14209210872650146 44
-1.3852208852767944 2.344147205352783 0.046859707683324814 44
-0.9934307932853699 1.6844929456710815 -0.5137560367584229 119
-1.147621989250183 1.9467209577560425 -0.5128887295722961 119
-1.3550721406936646 2.2995376586914062 -0.5109092593193054 119
-1.390440821647644 2.360499620437622 -0.42784860730171204 119
-1.4068421125411987 2.3892970085144043 -0.33575040102005005 44
-1.3862584829330444 2.355278730392456 -0.23575665056705475 44
-1.3841357231140137 2.352611541748047 -0.1405760496854782 44
-1.3727095127105713 2.334122657775879 -0.04613236337900162 44
-1.4243669509887695 2.422927141189575 0.7423267960548401 44
-1.4238719940185547 2.42305326461792 0.6395019292831421 44
-1.3841779232025146 2.356445789337158 0.5233003497123718 44
-1.384680986404419 2.3582444190979004 0.42659544944763184 44
-1.3733601570129395 2.3398993015289307 0.328437864780426 44
-1.3880095481872559 2.365804433822632 0.23662783205509186 44
-1.3858888149261475 2.3631348609924316 0.14156875014305115 44
-1.3719731569290161 2.3403427600860596 0.04668518528342247 44
-0.9899836182594299 1.6921190023422241 -0.5150501132011414 119
-1.1408196687698364 1.9507149457931519 -0.5128887295722961 119
-1.3470369577407837 2.304253578186035 -0.5109092593193054 119
-1.3772095441818237 2.356811285018921 -0.4262842535972595 119
-1.3934872150421143 2.385622978210449 -0.3345317244529724 44
-1.3755170106887817 2.355802297592163 -0.23532088100910187 44
-1.3708813190460205 2.348803997039795 -0.14005443453788757 44
-1.3620344400405884 2.3345820903778076 -0.046045973896980286 44
-1.411034345626831 2.4195399284362793 0.739740252494812 44
-1.410498023033142 2.419590473175049 0.6372541189193726 44
-1.373472809791565 2.357022285461426 0.5223472118377686 44
-1.371469259262085 2.3545289039611816 0.4250328242778778 44
-1.3601897954940796 2.336101531982422 0.327219158411026 44
-1.3747320175170898 2.362025499343872 0.2357562780380249 44
-1.3726097345352173 2.3593263626098633 0.14104539155960083 44
-1.3587692975997925 2.3364744186401367 0.04651065915822983 44
-0.9840709567070007 1.6955643892288208 -0.5150501132011414 119
-1.1340034008026123 1.9546853303909302 -0.5128887295722961 119
-1.336523175239563 2.3046958446502686 -0.5099561214447021 119
-1.3664976358413696 2.3573317527770996 -0.42550209164619446 119
-1.380175232887268 2.381884813308716 -0.3333130180835724 44
-1.3622924089431763 2.351969003677368 -0.23444931209087372 44
-1.3576701879501343 2.3449325561523438 -0.13953281939029694 44
-1.348868489265442 2.3306684494018555 -0.04587319493293762 44
-1.3929057121276855 2.4077279567718506 0.7345672845840454 44
-1.3996044397354126 2.4202818870544434 0.6361302137374878 44
-1.3603241443634033 2.3533034324645996 0.5204408168792725 44
-1.3607712984085083 2.35502552986145 0.4242514967918396 44
-1.3495447635650635 2.3365375995635986 0.3266098201274872 44
-1.361497402191162 2.358182191848755 0.23488472402095795 44
-1.3618700504302979 2.359778642654419 0.14078372716903687 44
-1.3481069803237915 2.3368728160858154 0.046423397958278656 44
-0.980556070804596 1.7031745910644531 -0.5163442492485046 119
-1.1271734237670898 1.9586317539215088 -0.5128887295722961 119
-1.3284701108932495 2.309346914291382 -0.5099561214447021 119
-1.353337287902832 2.353525161743164 -0.42393776774406433 119
-1.3669061660766602 2.378082513809204 -0.33209434151649475 44
-1.3515926599502563 2.352391004562378 -0.23401352763175964 44
-1.3469897508621216 2.345327377319336 -0.13927200436592102 44
-1.3357466459274292 2.3266913890838623 -0.04570041596889496 44
-1.3772807121276855 2.400008201599121 0.7306875586509705 44
-1.3862990140914917 2.4167001247406006 0.6338824033737183 44
-1.3496596813201904 2.3537795543670654 0.5194876194000244 44
-1.3476307392120361 2.351191759109497 0.42268890142440796 44
-1.3364462852478027 2.3326222896575928 0.32539111375808716 44
-1.3507822751998901 2.358598470687866 0.23444895446300507 44
-1.3486632108688354 2.355851411819458 0.14026035368442535 44
-1.3349756002426147 2.332885980606079 0.046248871833086014 44
-0.9746049046516418 1.7065869569778442 -0.5163442492485046 119
-1.1203296184539795 1.9625544548034668 -0.5128887295722961 119
-1.3204009532928467 2.3139700889587402 -0.5099561214447021 119
-1.3402202129364014 2.3496556282043457 -0.4223734140396118 119
-1.3536807298660278 2.3742170333862305 -0.3308756351470947 44
-1.3384402990341187 2.3484394550323486 -0.2331419736146927 44
-1.3338515758514404 2.3413379192352295 -0.13875038921833038 44
-1.3251428604125977 2.326995372772217 -0.04561402276158333 44
-1.3617267608642578 2.3922088146209717 0.7268077731132507 44
-1.3754452466964722 2.417290210723877 0.6327584385871887 44
-1.3365819454193115 2.3499433994293213 0.5175812244415283 44
-1.3369745016098022 2.351588726043701 0.42190760374069214 44
-1.3233916759490967 2.328643798828125 0.3241724371910095 44
-1.3376203775405884 2.3546371459960938 0.23357738554477692 44
-1.3379658460617065 2.3562028408050537 0.1399986743927002 44
-1.3243564367294312 2.3331844806671143 0.04616161435842514 44
-0.9686418771743774 1.7099785804748535 -0.5163442492485046 119
-1.1134722232818604 1.966453194618225 -0.5128887295722961 119
-1.312315583229065 2.3185651302337646 -0.5099561214447021 119
-1.3271465301513672 2.3457231521606445 -0.4208090603351593 119
-1.3429418802261353 2.374608039855957 -0.3302662968635559 44
-1.3253321647644043 2.3444252014160156 -0.23227041959762573 44
-1.3232142925262451 2.341632604598999 -0.13848958909511566 44
-1.3120946884155273 2.322901487350464 -0.045441243797540665 44
-1.3438694477081299 2.380124568939209 0.7216347455978394 44
-1.3622095584869385 2.413590669631958 0.6305106282234192 44
-1.3259594440460205 2.3503198623657227 0.516628086566925 44
-1.3239060640335083 2.34763765335083 0.4203449785709381 44
-1.3128182888031006 2.3289260864257812 0.3235630989074707 44
-1.326947808265686 2.354952573776245 0.23314161598682404 44
-1.3248323202133179 2.3521578311920166 0.13947531580924988 44
-1.3137513399124146 2.3334367275238037 0.04607434943318367 44
-0.9626669883728027 1.713349461555481 -0.5163442492485046 119
-1.1089868545532227 1.9745755195617676 -0.5140134692192078 119
-1.3042142391204834 2.323131799697876 -0.5099561214447021 119
-1.3165334463119507 2.346034526824951 -0.42002686858177185 119
-1.3297890424728394 2.3706250190734863 -0.32904762029647827 44
-1.3122683763504028 2.3403480052948 -0.23139885067939758 44
-1.3101496696472168 2.3375258445739746 -0.13796795904636383 44
-1.2990912199020386 2.318744421005249 -0.0452684611082077 44
-1.330833077430725 2.376373052597046 0.719048261642456 44
-1.3513965606689453 2.4140799045562744 0.6293867826461792 44
-1.3129534721374512 2.346367597579956 0.514721691608429 44
-1.313292384147644 2.3479347229003906 0.4195636510848999 44
-1.2998369932174683 2.324831008911133 0.3223443925380707 44
-1.313859462738037 2.3508739471435547 0.23227006196975708 44
-1.314178466796875 2.3524091243743896 0.13921363651752472 44
-1.3007233142852783 2.3292787075042725 0.04589982330799103 44
-0.9563807845115662 1.7168662548065186 -0.5163442492485046 119
-1.101742148399353 1.9786268472671509 -0.5140134692192078 119
-1.2956907749176025 2.3278965950012207 -0.5099561214447021 119
-1.3031240701675415 2.3422131538391113 -0.4184625446796417 119
-1.3186792135238647 2.371145725250244 -0.32843825221061707 44
-1.3012615442276 2.3407883644104004 -0.2309630662202835 44
-1.2991482019424438 2.337947368621826 -0.13770714402198792 44
-1.2881563901901245 2.319119930267334 -0.04518207535147667 44
-1.3174253702163696 2.3727893829345703 0.716461718082428 44
-1.3378108739852905 2.410496711730957 0.6271389722824097 44
-1.3019636869430542 2.346871852874756 0.5137684941291809 44
-1.302282691001892 2.3484129905700684 0.4187823235988617 44
-1.2889013290405273 2.3252391815185547 0.32173505425453186 44
-1.3004060983657837 2.3469600677490234 0.23139849305152893 44
-1.3007091283798218 2.3484737873077393 0.1386902779340744 44
-1.289755940437317 2.3296568393707275 0.045812565833330154 44
-0.9503819942474365 1.7201942205429077 -0.5163442492485046 119
-1.094828724861145 1.9824604988098145 -0.5140134692192078 119
-1.2875571250915527 2.3324050903320312 -0.5099561214447021 119
-1.2901684045791626 2.338099956512451 -0.4168981909751892 119
-1.3079975843429565 2.3713889122009277 -0.32782891392707825 44
-1.2882728576660156 2.336592435836792 -0.23009151220321655 44
-1.2861591577529907 2.3337221145629883 -0.13718552887439728 44
-1.2752288579940796 2.314844846725464 -0.04500929266214371 44
-1.3068050146102905 2.373142719268799 0.7151684761047363 44
-1.327039122581482 2.410883665084839 0.6260150074958801 44
-1.2890315055847168 2.342801332473755 0.5118620991706848 44
-1.2916975021362305 2.3486175537109375 0.4180010259151459 44
-1.2759952545166016 2.32102632522583 0.32051634788513184 44
-1.289806842803955 2.3471198081970215 0.23096270859241486 44
-1.2900997400283813 2.348623752593994 0.13842859864234924 44
-1.276798129081726 2.3253839015960693 0.04563803970813751 44
-0.9443715810775757 1.723501205444336 -0.5163442492485046 119
-1.0855618715286255 1.9819973707199097 -0.5128887295722961 119
-1.2794075012207031 2.3368852138519287 -0.5099561214447021 119
-1.2772574424743652 2.3339247703552246 -0.4153338372707367 119
-1.2949483394622803 2.367232084274292 -0.32661017775535583 44
-1.2777191400527954 2.336704730987549 -0.22965574264526367 44
-1.2732155323028564 2.329434394836426 -0.13666391372680664 44
-1.2647438049316406 2.314894676208496 -0.044922903180122375 44
-1.2938830852508545 2.3692121505737305 0.712581992149353 44
-1.3139466047286987 2.4069485664367676 0.6237671971321106 44
-1.2784944772720337 2.342978000640869 0.5109089016914368 44
-1.281126618385315 2.348776340484619 0.41721969842910767 44
-1.265510082244873 2.3211090564727783 0.319907009601593 44
-1.276838779449463 2.342860460281372 0.2300911545753479 44
-1.277116298675537 2.3443431854248047 0.13790524005889893 44
-1.2662882804870605 2.325432538986206 0.04555077850818634 44
-0.938349723815918 1.7267870903015137 -0.5163442492485046 119
-1.0786367654800415 1.9857746362686157 -0.5128887295722961 119
-1.2689005136489868 2.3370234966278076 -0.5090028643608093 119
-1.2667471170425415 2.334028720855713 -0.41455164551734924 119
-1.2843108177185059 2.3673758506774902 -0.3260008692741394 44
-1.2648059129714966 2.3323936462402344 -0.22878417372703552 44
-1.2603174448013306 2.325085163116455 -0.136142298579216 44
-1.2518924474716187 2.310504674911499 -0.04475012049078941 44
-1.2810049057006836 2.365220308303833 0.709995448589325 44
-1.3008978366851807 2.40295147895813 0.6215193867683411 44
-1.2656362056732178 2.3387930393218994 0.5090025067329407 44
-1.2705702781677246 2.3488900661468506 0.41643840074539185 44
-1.2526793479919434 2.3167812824249268 0.3186883330345154 44
-1.266284704208374 2.342921257019043 0.22965538501739502 44
-1.2665518522262573 2.344393730163574 0.13764356076717377 44
-1.2534122467041016 2.3210408687591553 0.0453762523829937 44
-0.9323163628578186 1.73005211353302 -0.5163442492485046 119
-1.071698546409607 1.9895278215408325 -0.5128887295722961 119
-1.260735034942627 2.3414385318756104 -0.5090028643608093 119
-1.2539111375808716 2.3297390937805176 -0.4129873216152191 119
-1.2713367938995361 2.3631038665771484 -0.3247821629047394 44
-1.2519383430480957 2.3280208110809326 -0.22791261970996857 44
-1.249829649925232 2.3250720500946045 -0.13588149845600128 44
-1.2414534091949463 2.3104567527770996 -0.04466373473405838 44
-1.2681702375411987 2.3611674308776855 0.7074089646339417 44
-1.2878929376602173 2.398892641067505 0.6192715764045715 44
-1.252822756767273 2.3345468044281006 0.5070961713790894 44
-1.2576944828033447 2.34460711479187 0.4148758053779602 44
-1.2422394752502441 2.3167665004730225 0.3180789649486542 44
-1.2533926963806152 2.3385469913482666 0.22878383100032806 44
-1.2536448240280151 2.3399980068206787 0.13712020218372345 44
-1.2405825853347778 2.3165879249572754 0.045201729983091354 44
-0.9239953756332397 1.7290363311767578 -0.5150501132011414 119
-1.0647472143173218 1.9932565689086914 -0.5128887295722961 119
-1.252554178237915 2.345824956893921 -0.5090028643608093 119
-1.243445873260498 2.329745054244995 -0.41220515966415405 119
-1.2584084272384644 2.3587703704833984 -0.32356348633766174 44
-1.2414605617523193 2.3279812335968018 -0.2274768352508545 44
-1.2370085716247559 2.320608377456665 -0.13535988330841064 44
-1.2286791801452637 2.3059520721435547 -0.04449095204472542 44
-1.2553796768188477 2.3570539951324463 0.7048224806785583 44
-1.2726428508758545 2.390472173690796 0.615899920463562 44
-1.2400543689727783 2.330239772796631 0.5051897764205933 44
-1.2471833229064941 2.344622850418091 0.4140944480895996 44
-1.229485034942627 2.3123247623443604 0.31686028838157654 44
-1.2428841590881348 2.3385093212127686 0.228348046541214 44
-1.243126392364502 2.3399503231048584 0.1368585228919983 44
-1.2277991771697998 2.3120737075805664 0.04502720385789871 44
-0.9176519513130188 1.7324113845825195 -0.5150501132011414 119
-1.0574344396591187 1.997145652770996 -0.5128887295722961 119
-1.246243953704834 2.354738235473633 -0.5099561214447021 119
-1.2302800416946411 2.325556755065918 -0.41064080595970154 119
-1.2451146841049194 2.3545923233032227 -0.3223447799682617 44
-1.2282644510269165 2.3237085342407227 -0.22660528123378754 44
-1.226162075996399 2.320711612701416 -0.13509906828403473 44
-1.2178844213485718 2.3060190677642822 -0.044404562562704086 44
-1.242222547531128 2.3530967235565186 0.7022359371185303 44
-1.2547776699066162 2.377884864807129 0.611404299736023 44
-1.2292155027389526 2.330427885055542 0.50423663854599 44
-1.2339749336242676 2.3404409885406494 0.41253185272216797 44
-1.2163742780685425 2.308034896850586 0.3156415820121765 44
-1.2319834232330322 2.338642120361328 0.2279122769832611 44
-1.229888916015625 2.3356547355651855 0.13633516430854797 44
-1.2146598100662231 2.3077104091644287 0.04485268145799637 44
-0.9115991592407227 1.735603928565979 -0.5150501132011414 119
-1.0504566431045532 2.0008246898651123 -0.5128887295722961 119
-1.2380167245864868 2.359074115753174 -0.5099561214447021 119
-1.2198606729507446 2.3254635334014893 -0.4098586142063141 119
-1.2322789430618286 2.3501341342926025 -0.3211260735988617 44
-1.217833399772644 2.3235702514648438 -0.22616951167583466 44
-1.2134194374084473 2.316131591796875 -0.1345774382352829 44
-1.2051889896392822 2.301398754119873 -0.044231779873371124 44
-1.2272815704345703 2.3445816040039062 0.6983562111854553 44
-1.239693522453308 2.36929988861084 0.6080325841903687 44
-1.2165237665176392 2.3260059356689453 0.5023302435874939 44
-1.2235097885131836 2.340357780456543 0.41175055503845215 44
-1.2060118913650513 2.307868480682373 0.3150322437286377 44
-1.2215062379837036 2.3385133743286133 0.22747647762298584 44
-1.2194174528121948 2.33550763130188 0.13607348501682281 44
-1.2042782306671143 2.3075077533721924 0.0447654202580452 44
-0.9055352210998535 1.7387754917144775 -0.5150501132011414 119
-1.0434660911560059 2.00447940826416 -0.5128887295722961 119
-1.2297744750976562 2.3633811473846436 -0.5099561214447021 119
-1.2094570398330688 2.325326442718506 -0.4090764820575714 119
-1.2194894552230835 2.3456149101257324 -0.31990739703178406 44
-1.2051215171813965 2.318967580795288 -0.2252979427576065 44
-1.2030255794525146 2.315922260284424 -0.13431663811206818 44
-1.1925408840179443 2.296718120574951 -0.04405900090932846 44
-1.2146401405334473 2.340277671813965 0.695769727230072 44
-1.2246848344802856 2.3606388568878174 0.6046608686447144 44
-1.2061372995376587 2.325880765914917 0.5013770461082458 44
-1.2107874155044556 2.3358452320098877 0.4101879298686981 44
-1.1933825016021729 2.303251266479492 0.31381356716156006 44
-1.2087546586990356 2.3339171409606934 0.22660492360591888 44
-1.2089619636535645 2.335315465927124 0.13581180572509766 44
-1.191626787185669 2.30281400680542 0.044590894132852554 44
-0.9016760587692261 1.746217131614685 -0.5163442492485046 119
-1.0364627838134766 2.0081095695495605 -0.5128887295722961 119
-1.2237677574157715 2.3720216751098633 -0.5109092593193054 119
-1.1968058347702026 2.3207554817199707 -0.4075121283531189 119
-1.2090204954147339 2.3454461097717285 -0.31929802894592285 44
-1.1947379112243652 2.318732261657715 -0.22486215829849243 44
-1.1903616189956665 2.3112294673919678 -0.13379502296447754 44
-1.1822282075881958 2.296422004699707 -0.04397260770201683 44
-1.2020435333251953 2.335913896560669 0.693183183670044 44
-1.2097516059875488 2.3519017696380615 0.6012891530990601 44
-1.193522572517395 2.3213465213775635 0.49947065114974976 44
-1.2003690004348755 2.335664987564087 0.4094066023826599 44
-1.1807998418807983 2.298574209213257 0.31259486079216003 44
-1.1983251571655273 2.333691358566284 0.226169154047966 44
-1.1962429285049438 2.330637216567993 0.13528844714164734 44
-1.1812992095947266 2.302511692047119 0.04450363293290138 44
-0.8955751657485962 1.7493540048599243 -0.5163442492485046 119
-1.0294468402862549 2.0117151737213135 -0.5128887295722961 119
-1.213245153427124 2.3719089031219482 -0.5099561214447021 119
-1.1864495277404785 2.3205220699310303 -0.40672993659973145 119
-1.1963090896606445 2.3408138751983643 -0.3180793225765228 44
-1.1843708753585815 2.318453073501587 -0.22442638874053955 44
-1.1800159215927124 2.3109233379364014 -0.13353420794010162 44
-1.1696596145629883 2.2916290760040283 -0.04379982873797417 44
-1.1894923448562622 2.331490993499756 0.6905966401100159 44
-1.1993211507797241 2.3517699241638184 0.6001651883125305 44
-1.183183193206787 2.3211257457733154 0.4985174834728241 44
-1.1899665594100952 2.3354403972625732 0.4086253046989441 44
-1.1705169677734375 2.298259735107422 0.31198549270629883 44
-1.1856521368026733 2.328982353210449 0.22529760003089905 44
-1.185835599899292 2.330348491668701 0.13502676784992218 44
-1.1687217950820923 2.2977092266082764 0.04432911053299904 44
-0.8916491270065308 1.7567760944366455 -0.5176383256912231 119
-1.0224183797836304 2.015296220779419 -0.5128887295722961 119
-1.2027382850646973 2.3717520236968994 -0.5090028643608093 119
-1.173876404762268 2.3158395290374756 -0.40516558289527893 119
-1.1858878135681152 2.340548515319824 -0.3174700140953064 44
-1.1717698574066162 2.3136861324310303 -0.2235548347234726 44
-1.1696867942810059 2.3105733394622803 -0.1332733929157257 44
-1.1593960523605347 2.2912375926971436 -0.043713439255952835 44
-1.1769869327545166 2.327009439468384 0.6880101561546326 44
-1.1867080926895142 2.347245931625366 0.597917377948761 44
-1.1706461906433105 2.3164801597595215 0.4966111183166504 44
-1.1795804500579834 2.335171699523926 0.4078439772129059 44
-1.1580137014389038 2.293471336364746 0.3107668161392212 44
-1.1752710342407227 2.328660011291504 0.22486181557178497 44
-1.1731959581375122 2.3255574703216553 0.13450339436531067 44
-1.1584432125091553 2.2973110675811768 0.04424184560775757 44
-0.8876821398735046 1.76419198513031 -0.5189324021339417 119
-1.0153775215148926 2.018852949142456 -0.5128887295722961 119
-1.1900427341461182 2.3671650886535645 -0.507096529006958 119
-1.163568139076233 2.3155105113983154 -0.40438342094421387 119
-1.1732555627822876 2.3358044624328613 -0.31625130772590637 44
-1.1614513397216797 2.313310384750366 -0.22311905026435852 44
-1.157135009765625 2.3057167530059814 -0.13275177776813507 44
-1.146907925605774 2.2863333225250244 -0.04354066029191017 44
-1.164527177810669 2.3224685192108154 0.6854236721992493 44
-1.1763246059417725 2.3470187187194824 0.596793532371521 44
-1.1581560373306274 2.3117759227752686 0.4947047531604767 44
-1.1692107915878296 2.3348593711853027 0.40706270933151245 44
-1.1477795839309692 2.2930619716644287 0.31015744805336 44
-1.1626778841018677 2.3238391876220703 0.22399026155471802 44
-1.1628377437591553 2.3251729011535645 0.1342417299747467 44
-1.1459462642669678 2.2923972606658936 0.044067323207855225 44
-0.879362940788269 1.7629581689834595 -0.5176383256912231 119
-1.006150245666504 2.0180246829986572 -0.5117639303207397 119
-1.177393913269043 2.362518787384033 -0.5051901340484619 119
-1.1532764434814453 2.3151376247406006 -0.4036012589931488 119
-1.1606708765029907 2.331000804901123 -0.31503260135650635 44
-1.1511499881744385 2.3128912448883057 -0.22268325090408325 44
-1.1468555927276611 2.305271625518799 -0.13249097764492035 44
-1.1366941928863525 2.285846710205078 -0.04345426708459854 44
-1.152113676071167 2.317869186401367 0.682837188243866 44
-1.16378915309906 2.342384099960327 0.5945457220077515 44
-1.145712971687317 2.3070123195648193 0.4927983582019806 44
-1.1566617488861084 2.3300793170928955 0.4055000841617584 44
-1.1353566646575928 2.288163185119629 0.30893877148628235 44
-1.152345895767212 2.3234212398529053 0.22355449199676514 44
-1.1502786874771118 2.320270299911499 0.1337183564901352 44
-1.135717749595642 2.2919039726257324 0.04398006200790405 44
-0.8710630536079407 1.7616875171661377 -0.5163442492485046 119
-0.9990999102592468 2.021524667739868 -0.5117639303207397 119
-1.1604442596435547 2.3490121364593506 -0.5013774037361145 119
-1.140815019607544 2.310293197631836 -0.4020369052886963 119
-1.1503305435180664 2.330587863922119 -0.31442326307296753 44
-1.1386618614196777 2.3079617023468018 -0.2218116968870163 44
-1.1343848705291748 2.3003041744232178 -0.1319693624973297 44
-1.1264978647232056 2.2853164672851562 -0.04336788132786751 44
-1.1418811082839966 2.3175442218780518 0.6815439462661743 44
-1.1513004302978516 2.337690591812134 0.5922979116439819 44
-1.1354851722717285 2.306593894958496 0.49184516072273254 44
-1.1463407278060913 2.329671621322632 0.4047187566757202 44
-1.1251723766326904 2.2876594066619873 0.30832943320274353 44
-1.1420310735702515 2.3229594230651855 0.22311870753765106 44
-1.139970302581787 2.3197903633117676 0.13345667719841003 44
-1.1255065202713013 2.291367292404175 0.04389279708266258 44
-0.8627828359603882 1.7603806257247925 -0.5150501132011414 119
-0.9920374155044556 2.0249998569488525 -0.5117639303207397 119
-1.1457618474960327 2.3398239612579346 -0.49851784110069275 119
-1.1305726766586304 2.3098256587982178 -0.4012547433376312 119
-1.1378263235092163 2.3256733417510986 -0.3132045567035675 44
-1.1284105777740479 2.307447910308838 -0.22137592732906342 44
-1.1241554021835327 2.2997639179229736 -0.1317085474729538 44
-1.1163190603256226 2.284743070602417 -0.04328148812055588 44
-1.1295453310012817 2.312836170196533 0.678957462310791 44
-1.1388587951660156 2.3329389095306396 0.5900501012802124 44
-1.123121976852417 2.3017208576202393 0.48993879556655884 44
-1.1338719129562378 2.3247811794281006 0.4031561315059662 44
-1.1150052547454834 2.28711199760437 0.3077200651168823 44
-1.1317335367202759 2.3224539756774902 0.2226829081773758 44
-1.1274927854537964 2.314777374267578 0.13293331861495972 44
-1.115312933921814 2.2907874584198 0.04380553960800171 44
-0.8566327095031738 1.7633816003799438 -0.5150501132011414 119
-0.9849627614021301 2.0284502506256104 -0.5117639303207397 119
-1.1290146112442017 2.326146364212036 -0.49470508098602295 119
-1.1181917190551758 2.3048715591430664 -0.3996903598308563 119
-1.1275358200073242 2.3251655101776123 -0.3125952184200287 44
-1.1160039901733398 2.302408218383789 -0.22050437331199646 44
-1.1139439344406128 2.299180507659912 -0.13144773244857788 44
-1.1039789915084839 2.2796268463134766 -0.043108709156513214 44
-1.1193608045578003 2.312417507171631 0.6776641607284546 44
-1.1243423223495483 2.3237428665161133 0.5866783857345581 44
-1.1129436492919922 2.301208734512329 0.4889856278896332 44
-1.1236004829406738 2.3242788314819336 0.40237483382225037 44
-1.1026966571807861 2.2820534706115723 0.3065013885498047 44
-1.119287133216858 2.31742000579834 0.22181135416030884 44
-1.1172349452972412 2.314202308654785 0.13267163932323456 44
-1.1051369905471802 2.2901642322540283 0.04371827468276024 44
-0.848376989364624 1.762009620666504 -0.5137560367584229 119
-0.9778761267662048 2.0318760871887207 -0.5117639303207397 119
-1.1145046949386597 2.3168039321899414 -0.4918454885482788 119
-1.1079994440078735 2.3043103218078613 -0.39890819787979126 0
-1.1151130199432373 2.320141315460205 -0.31137651205062866 44
-1.105803370475769 2.301800012588501 -0.2200685739517212 44
-1.1015886068344116 2.2940526008605957 -0.13092611730098724 44
-1.0938516855239868 2.2789597511291504 -0.04302231967449188 44
-1.1091928482055664 2.3119561672210693 0.6763709187507629 44
-1.1120108366012573 2.3188674449920654 0.5844305753707886 44
-1.1006609201431274 2.29622745513916 0.4870792031288147 44
-1.1133465766906738 2.323732852935791 0.40159350633621216 44
-1.0925805568695068 2.2814128398895264 0.30589205026626587 44
-1.1090402603149414 2.3168201446533203 0.22137558460235596 44
-1.10483980178833 2.309080123901367 0.13214828073978424 44
-1.0928221940994263 2.2849879264831543 0.043543748557567596 44
-0.8422212600708008 1.7649602890014648 -0.5137560367584229 119
-0.9707776308059692 2.0352771282196045 -0.5117639303207397 119
-1.10429847240448 2.3162496089935303 -0.49089235067367554 119
-1.0957001447677612 2.2992477416992188 -0.39734387397766113 119
-1.1048732995986938 2.3195390701293945 -0.31076717376708984 44
-1.0956206321716309 2.3011488914489746 -0.2196328192949295 44
-1.0914283990859985 2.293375015258789 -0.13066530227661133 44
-1.083742380142212 2.278249502182007 -0.04293592646718025 44
-1.0969679355621338 2.3070902824401855 0.6737844347953796 44
-1.0976357460021973 2.3095340728759766 0.5810588598251343 44
-1.0905327796936035 2.295621871948242 0.48612603545188904 44
-1.1009917259216309 2.3186826705932617 0.40003088116645813 44
-1.0824823379516602 2.280729055404663 0.30528268218040466 44
-1.0966764688491821 2.3116769790649414 0.220504030585289 44
-1.0946335792541504 2.308411121368408 0.13188660144805908 44
-1.0826983451843262 2.284271240234375 0.04345649108290672 44
-0.8360552787780762 1.7678894996643066 -0.5137560367584229 119
-0.9636672735214233 2.0386533737182617 -0.5117639303207397 119
-1.0941096544265747 2.315652370452881 -0.4899391233921051 119
-1.085558533668518 2.2985925674438477 -0.3965616822242737 0
-1.0946513414382935 2.318894147872925 -0.31015780568122864 44
-1.0854558944702148 2.3004543781280518 -0.21919701993465424 44
-1.0812865495681763 2.2926549911499023 -0.1304045021533966 44
-1.0715198516845703 2.272974729537964 -0.04276314750313759 44
-1.0868492126464844 2.3065359592437744 0.6724911332130432 44
-1.085415244102478 2.3045361042022705 0.5788110494613647 44
-1.080422282218933 2.294973850250244 0.4851728081703186 44
-1.09078848361969 2.3180429935455322 0.3992495536804199 44
-1.0724023580551147 2.280003309249878 0.30467334389686584 44
-1.0864813327789307 2.310983419418335 0.22006824612617493 44
-1.0844453573226929 2.3076987266540527 0.13162492215633392 44
-1.0725927352905273 2.2835116386413574 0.04336922615766525 44
-0.829879105091095 1.7707970142364502 -0.5137560367584229 119
-0.9565452337265015 2.0420048236846924 -0.5117639303207397 119
-1.0839385986328125 2.3150124549865723 -0.48898595571517944 119
-1.073341727256775 2.2934224605560303 -0.39499732851982117 0
-1.0844473838806152 2.3182058334350586 -0.3095484673976898 44
-1.0731996297836304 2.2952051162719727 -0.21832546591758728 44
-1.0690487623214722 2.2873682975769043 -0.12988288700580597 44
-1.0614632368087769 2.272171974182129 -0.04267675802111626 44
-1.0747042894363403 2.301563262939453 0.6699046492576599 44
-1.0753037929534912 2.303895950317383 0.57768714427948 44
-1.0682544708251953 2.289834976196289 0.4832664430141449 44
-1.0785161256790161 2.31288480758667 0.3976869285106659 44
-1.062340497970581 2.2792344093322754 0.30406397581100464 44
-1.0742008686065674 2.3057315349578857 0.21919669210910797 44
-1.0721678733825684 2.302417278289795 0.1311015635728836 44
-1.0625057220458984 2.2827095985412598 0.04328196495771408 44
-0.8236927390098572 1.7736830711364746 -0.5137560367584229 119
-0.9494113922119141 2.0453312397003174 -0.5117639303207397 119
-1.0717194080352783 2.3098766803741455 -0.48707953095436096 119
-1.0632520914077759 2.292675018310547 -0.3942151665687561 0
-1.0721745491027832 2.312972068786621 -0.3083297908306122 44
-1.0630873441696167 2.2944180965423584 -0.2178896963596344 44
-1.0589594841003418 2.286555051803589 -0.12962207198143005 44
-1.0493252277374268 2.266789674758911 -0.04250397905707359 44
-1.0646357536315918 2.300917387008667 0.6686114072799683 44
-1.0631648302078247 2.2987911701202393 0.5754393339157104 44
-1.0581954717636108 2.289094924926758 0.48231327533721924 44
-1.0683646202087402 2.31215238571167 0.39690566062927246 44
-1.0522972345352173 2.278423547744751 0.3034546673297882 44
-1.0640581846237183 2.3049449920654297 0.2187609225511551 44
-1.0620323419570923 2.301612138748169 0.13083988428115845 44
-1.0503435134887695 2.27732515335083 0.04310744255781174 44
-0.8174964785575867 1.7765474319458008 -0.5137560367584229 119
-0.9422661066055298 2.048632860183716 -0.5117639303207397 119
-1.0615997314453125 2.3091444969177246 -0.4861263632774353 119
-1.0511184930801392 2.287397861480713 -0.392650842666626 119
-1.0620228052139282 2.3121907711029053 -0.307720422744751 44
-1.0509154796600342 2.2890615463256836 -0.21701814234256744 44
-1.0468063354492188 2.281161308288574 -0.12910045683383942 44
-1.0393218994140625 2.2658944129943848 -0.04241758584976196 44
-1.0525717735290527 2.2958388328552246 0.666024923324585 44
-1.0531044006347656 2.2980592250823975 0.5743153691291809 44
-1.0461105108261108 2.2838497161865234 0.48040691018104553 44
-1.0561754703521729 2.306886911392212 0.39534303545951843 44
-1.0402073860168457 2.273057699203491 0.3022359609603882 44
-1.051862120628357 2.299586057662964 0.21788936853408813 44
-1.0519155263900757 2.300764322280884 0.1305782049894333 44
-1.0403097867965698 2.276430606842041 0.04302017763257027 44
-0.8112901449203491 1.7793903350830078 -0.5137560367584229 119
-0.9330890774726868 2.0474765300750732 -0.5106391906738281 119
-1.0514980554580688 2.3083689212799072 -0.48517316579818726 119
-1.041081190109253 2.2865583896636963 -0.3918686509132385 119
-1.0518895387649536 2.3113667964935303 -0.30711108446121216 44
-1.038793921470642 2.2836480140686035 -0.2161465734243393 44
-1.0367705821990967 2.2802560329437256 -0.1288396567106247 44
-1.0272692441940308 2.260406017303467 -0.0422448068857193 44
-1.0425537824630737 2.2951016426086426 0.6647316217422485 44
-1.0410478115081787 2.292848825454712 0.5720675587654114 44
-1.0361034870147705 2.283017635345459 0.4794536828994751 44
-1.0460764169692993 2.3060619831085205 0.3945617079734802 44
-1.0302172899246216 2.2721548080444336 0.301626592874527 44
-1.0417726039886475 2.2987067699432373 0.21745356917381287 44
-1.0418177843093872 2.2998740673065186 0.13031652569770813 44
-1.0302952527999878 2.27549409866333 0.04293292015790939 44
-0.8047628998756409 1.7823518514633179 -0.5137560367584229 119
-0.9255784153938293 2.0508828163146973 -0.5106391906738281 119
-1.0410122871398926 2.3077335357666016 -0.4842199981212616 119
-1.0306636095046997 2.2858569622039795 -0.39108648896217346 0
-1.0393328666687012 2.3061578273773193 -0.3058924078941345 44
-1.0283710956573486 2.2828986644744873 -0.21571078896522522 44
-1.0263561010360718 2.2794878482818604 -0.12857884168624878 44
-1.0169260501861572 2.2595973014831543 -0.04215841740369797 44
-1.0321534872055054 2.2945027351379395 0.6634384393692017 44
-1.0306391716003418 2.292205572128296 0.5709437131881714 44
-1.0237048864364624 2.277846097946167 0.4775473177433014 44
-1.0335699319839478 2.300870895385742 0.3929990828037262 44
-1.0198497772216797 2.271388292312622 0.30101728439331055 44
-1.0313010215759277 2.2979652881622314 0.21701779961585999 44
-1.0292938947677612 2.294565439224243 0.1297931671142578 44
-1.0199029445648193 2.274693250656128 0.04284565523266792 44
-0.7965643405914307 1.7807414531707764 -0.5124619007110596 119
-0.9184138774871826 2.0541012287139893 -0.5106391906738281 119
-1.0289450883865356 2.3023908138275146 -0.4823136329650879 119
-1.020664095878601 2.2849316596984863 -0.390304297208786 0
-1.0292531251907349 2.3052399158477783 -0.3052830398082733 44
-1.01633620262146 2.2773773670196533 -0.21483923494815826 44
-1.0163588523864746 2.278496265411377 -0.12831802666187286 44
-1.006996512413025 2.2585673332214355 -0.04207202419638634 44
-1.0202057361602783 2.2892682552337646 0.6608518362045288 44
-1.0186668634414673 2.286888360977173 0.5686959028244019 44
-1.0137511491775513 2.2769217491149902 0.47659415006637573 44
-1.023524284362793 2.299952745437622 0.3922177851200104 44
-1.0078810453414917 2.2658655643463135 0.2997985780239105 44
-1.023273229598999 2.301551342010498 0.21701779961585999 44
-1.0192503929138184 2.293581247329712 0.12953148782253265 44
-1.0078916549682617 2.269104480743408 0.04267112910747528 44
-0.7906547784805298 1.7833731174468994 -0.5124619007110596 119
-0.9119561910629272 2.056976318359375 -0.5106391906738281 119
-1.0197182893753052 2.3011245727539062 -0.48136040568351746 119
-1.0114808082580566 2.28361177444458 -0.38952213525772095 0
-1.0199971199035645 2.303924560546875 -0.3046737015247345 44
-1.007161021232605 2.2760040760040283 -0.21440346539020538 44
-1.0071759223937988 2.277111530303955 -0.12805721163749695 44
-0.9978746175765991 2.2571470737457275 -0.041985634714365005 44
-1.011056661605835 2.2880444526672363 0.6595586538314819 44
-1.0095088481903076 2.2856204509735107 0.5675719976425171 44
-1.0026283264160156 2.2711148262023926 0.474687784910202 44
-1.0142998695373535 2.298638343811035 0.39143645763397217 44
-0.9987548589706421 2.264479875564575 0.2991892099380493 44
-1.0140284299850464 2.300196886062622 0.2165820151567459 44
-1.0100266933441162 2.292202949523926 0.1292698085308075 44
-0.9987491369247437 2.267681837081909 0.04258387163281441 44
-0.7827937006950378 1.7815635204315186 -0.5111678242683411 119
-0.9047704935073853 2.0601470470428467 -0.5106391906738281 119
-1.009706735610962 2.300175666809082 -0.4804072380065918 119
-1.0015190839767456 2.2826058864593506 -0.3887399435043335 0
-1.0079622268676758 2.2983808517456055 -0.30345502495765686 44
-0.9972103834152222 2.2749435901641846 -0.2139676809310913 44
-0.9952135682106018 2.2714664936065674 -0.1275355964899063 44
-0.9879841804504395 2.2560372352600098 -0.041899245232343674 44
-0.9991903305053711 2.282710552215576 0.6569721102714539 44
-0.9976186752319336 2.280203342437744 0.5653241872787476 44
-0.9927279949188232 2.270103693008423 0.473734587430954 44
-1.0042921304702759 2.297639846801758 0.39065515995025635 44
-0.9888575673103333 2.2634050846099854 0.2985799014568329 44
-1.0039998292922974 2.2991578578948975 0.21614624559879303 44
-0.9980242848396301 2.286561965942383 0.12874644994735718 44
-0.9868292808532715 2.2619900703430176 0.04240934178233147 44
-0.7778730392456055 1.7889851331710815 -0.5124619007110596 119
-0.8968534469604492 2.063606023788452 -0.5106391906738281 119
-0.9989116787910461 2.2995338439941406 -0.47945404052734375 119
-0.9888135194778442 2.277374744415283 -0.38717561960220337 0
-0.9971539974212646 2.2976818084716797 -0.30284565687179565 44
-0.9864857792854309 2.274186372756958 -0.21353191137313843 44
-0.9844982624053955 2.2706902027130127 -0.1272747963666916 44
-0.9773264527320862 2.2552270889282227 -0.04181285202503204 44
-0.9865785241127014 2.2776663303375244 0.6543856263160706 44
-0.9869203567504883 2.2795462608337402 0.5642002820968628 44
-0.980105459690094 2.2648894786834717 0.4718281924724579 44
-0.9915412664413452 2.2924137115478516 0.3890925645828247 44
-0.9762207269668579 2.2580745220184326 0.29736119508743286 44
-0.9931884407997131 2.2984235286712646 0.21571046113967896 44
-0.9872574210166931 2.2857935428619385 0.12848477065563202 44
-0.976155161857605 2.2611727714538574 0.04232208430767059 44
-0.7716236710548401 1.7916896343231201 -0.5124619007110596 119
-0.8877183198928833 2.062248945236206 -0.5095144510269165 119
-0.9869989156723022 2.2939891815185547 -0.47754764556884766 119
-0.9789071083068848 2.276276111602783 -0.3863934576511383 0
-0.9871677160263062 2.2965893745422363 -0.30223631858825684 44
-0.9765751957893372 2.2730395793914795 -0.21309611201286316 44
-0.9745957851409912 2.269524574279785 -0.12701398134231567 44
-0.9655047059059143 2.249437093734741 -0.04164007306098938 44
-0.9767177700996399 2.2766575813293457 0.6530923247337341 44
-0.9770371913909912 2.2784996032714844 0.563076376914978 44
-0.9702600240707397 2.2637856006622314 0.4708750247955322 44
-0.9815884828567505 2.291321277618408 0.3883112370967865 44
-0.9663792252540588 2.256906509399414 0.29675182700157166 44
-0.9812397360801697 2.292717933654785 0.214838907122612 44
-0.9773087501525879 2.284635305404663 0.12822309136390686 44
-0.9643192887306213 2.255375385284424 0.04214755818247795 44
-0.7653647661209106 1.7943720817565918 -0.5124619007110596 119
-0.8805142641067505 2.0653350353240967 -0.5095144510269165 119
-0.97706139087677 2.292905330657959 -0.4765945076942444 119
-0.967085063457489 2.270592212677002 -0.3848291039466858 0
-0.9772012233734131 2.295454740524292 -0.30162695050239563 44
-0.9666846394538879 2.2718515396118164 -0.21266034245491028 44
-0.9627593159675598 2.2637228965759277 -0.12649236619472504 44
-0.9556910395622253 2.24819278717041 -0.04155368357896805 44
-0.9649873375892639 2.271162509918213 0.6505058407783508 44
-0.9671733379364014 2.277411699295044 0.5619524717330933 44
-0.9604341983795166 2.2626404762268066 0.4699218273162842 44
-0.9716554284095764 2.290187358856201 0.3875299394130707 44
-0.9565576910972595 2.2556967735290527 0.29614248871803284 44
-0.971286952495575 2.2915432453155518 0.21440313756465912 44
-0.967380166053772 2.283435106277466 0.1279614120721817 44
-0.9544975161552429 2.254121780395508 0.04206029698252678 44
-0.7609759569168091 1.8014819622039795 -0.5137560367584229 119
-0.8732995390892029 2.0683960914611816 -0.5095144510269165 119
-0.9671432375907898 2.2917795181274414 -0.47564128041267395 119
-0.9572339653968811 2.2694036960601807 -0.38404691219329834 0
-0.9672548174858093 2.294279098510742 -0.3010176122188568 44
-0.9568142890930176 2.2706217765808105 -0.2122245579957962 44
-0.9529134035110474 2.262468099594116 -0.12623155117034912 44
-0.9458978772163391 2.2469074726104736 -0.041467294096946716 44
-0.9551804661750793 2.2700655460357666 0.649212658405304 44
-0.9554402828216553 2.271791934967041 0.5597046613693237 44
-0.9506281614303589 2.2614545822143555 0.4689686596393585 44
-0.9598292708396912 2.284459114074707 0.38596731424331665 44
-0.9467564225196838 2.254446506500244 0.295533150434494 44
-0.9613541960716248 2.2903268337249756 0.21396735310554504 44
-0.9574717879295349 2.282193660736084 0.12769973278045654 44
-0.9446901679039001 2.2528295516967773 0.04197303578257561 44
-0.7546829581260681 1.8041272163391113 -0.5137560367584229 119
-0.8660741448402405 2.071431875228882 -0.5095144510269165 119
-0.9553524255752563 2.286083936691284 -0.47373491525650024 119
-0.947403073310852 2.268174409866333 -0.38326478004455566 0
-0.9573283195495605 2.2930617332458496 -0.300408273935318 44
-0.9450461268424988 2.264754056930542 -0.21135300397872925 44
-0.9430880546569824 2.261172294616699 -0.1259707510471344 44
-0.9361253380775452 2.2455813884735107 -0.041380904614925385 44
-0.9435353875160217 2.2644691467285156 0.6466261148452759 44
-0.9456313252449036 2.270615577697754 0.558580756187439 44
-0.9389559626579285 2.2556962966918945 0.4670622944831848 44
-0.9499520659446716 2.283235788345337 0.38518598675727844 44
-0.9369756579399109 2.25315523147583 0.2949237823486328 44
-0.9514419436454773 2.289069175720215 0.21353158354759216 44
-0.9494996666908264 2.2855217456817627 0.12769973278045654 44
-0.9349033236503601 2.2514963150024414 0.04188577085733414 44
-0.7483807802200317 1.8067505359649658 -0.5137560367584229 119
-0.8588382005691528 2.0744423866271973 -0.5095144510269165 119
-0.9454900026321411 2.28486967086792 -0.4727817475795746 119
-0.9375925064086914 2.26690411567688 -0.3824825882911682 0
-0.9455262422561646 2.2872166633605957 -0.29918956756591797 44
-0.9352326989173889 2.2634358406066895 -0.21091720461845398 44
-0.9332833886146545 2.2598352432250977 -0.12570993602275848 44
-0.9263736009597778 2.2442140579223633 -0.041294511407613754 44
-0.9337830543518066 2.263284206390381 0.6453328728675842 44
-0.9358422160148621 2.2693984508514404 0.5574568510055542 44
-0.9292059540748596 2.2544219493865967 0.4661090672016144 44
-0.9400952458381653 2.2819716930389404 0.3844046890735626 44
-0.9272153973579407 2.2518234252929688 0.294314444065094 44
-0.941550076007843 2.2877702713012695 0.2130957841873169 44
-0.9396163821220398 2.2842044830322266 0.12743805348873138 44
-0.925137460231781 2.250122547149658 0.041798509657382965 44
-0.7420694828033447 1.809351921081543 -0.5137560367584229 119
-0.8515918254852295 2.077427625656128 -0.5095144510269165 119
-0.9356476068496704 2.28361439704895 -0.47182852029800415 119
-0.9278022646903992 2.2655932903289795 -0.38170042634010315 44
-0.9356567859649658 2.2859106063842773 -0.29858022928237915 44
-0.9254401922225952 2.2620763778686523 -0.2104814499616623 44
-0.9234995245933533 2.258457660675049 -0.12544913589954376 44
-0.9166428446769714 2.2428066730499268 -0.04120812565088272 44
-0.9240505695343018 2.2620584964752197 0.6440396308898926 44
-0.9260731935501099 2.2681407928466797 0.5563329458236694 44
-0.9194764494895935 2.2531075477600098 0.4651558995246887 44
-0.9283936023712158 2.2760937213897705 0.382842093706131 44
-0.9174758791923523 2.250450611114502 0.2937051057815552 44
-0.9316788911819458 2.2864301204681396 0.212660014629364 44
-0.9297538995742798 2.282846212387085 0.12717635929584503 44
-0.9135076999664307 2.244077682495117 0.04162398725748062 44
-0.7357491254806519 1.8119311332702637 -0.5137560367584229 119
-0.8443350791931152 2.080387592315674 -0.5095144510269165 119
-0.9258256554603577 2.282318115234375 -0.4708753526210785 119
-0.9180325865745544 2.2642414569854736 -0.3809182345867157 44
-0.9239439368247986 2.279963731765747 -0.2973615527153015 44
-0.9156684875488281 2.260676383972168 -0.21004565060138702 44
-0.9118630290031433 2.252411127090454 -0.12492751330137253 44
-0.9069331288337708 2.2413582801818848 -0.04112173244357109 44
-0.9143379926681519 2.2607927322387695 0.6427463293075562 44
-0.9144984483718872 2.2623255252838135 0.5540851354598999 44
-0.909767210483551 2.2517523765563965 0.4642027020454407 44
-0.9185935854911804 2.2747414112091064 0.3820607364177704 44
-0.9077574014663696 2.249037742614746 0.29309576749801636 44
-0.92182856798172 2.2850492000579834 0.21222423017024994 44
-0.9199123382568359 2.281446695327759 0.12691469490528107 44
-0.9038000702857971 2.2426156997680664 0.04153672233223915 44
-0.727618396282196 1.8100072145462036 -0.5124619007110596 119
-0.8388844728469849 2.0878429412841797 -0.5106391906738281 119
-0.9141948819160461 2.276426315307617 -0.4689689874649048 119
-0.9082836508750916 2.2628488540649414 -0.38013604283332825 44
-0.9141319394111633 2.278569459915161 -0.2967521846294403 44
-0.9059178829193115 2.2592358589172363 -0.20960988104343414 44
-0.9021374583244324 2.2509450912475586 -0.12466669827699661 44
-0.897244930267334 2.2398695945739746 -0.04103534296154976 44
-0.902850329875946 2.255002975463867 0.6401598453521729 44
-0.9047858119010925 2.2609808444976807 0.5529612302780151 44
-0.9000788331031799 2.250356912612915 0.46324947476387024 44
-0.9069812297821045 2.2687625885009766 0.38049814105033875 44
-0.8962184190750122 2.2429757118225098 0.29187706112861633 44
-0.9138466119766235 2.28825306892395 0.21222423017024994 44
-0.9100919365882874 2.2800066471099854 0.12665300071239471 44
-0.8941138982772827 2.2411136627197266 0.04144946485757828 44
-0.723081648349762 1.817023515701294 -0.5137560367584229 119
-0.8315914273262024 2.0907585620880127 -0.5106391906738281 119
-0.9044298529624939 2.2750425338745117 -0.46801578998565674 119
-0.8985558152198792 2.26141619682312 -0.3793538808822632 44
-0.9025091528892517 2.272521495819092 -0.2955334782600403 44
-0.8961884379386902 2.2577545642852783 -0.20917409658432007 44
-0.8924334645271301 2.2494394779205322 -0.12440589815378189 44
-0.887578010559082 2.2383406162261963 -0.04094895347952843 44
-0.8931939005851746 2.2536511421203613 0.6388666033744812 44
-0.8932993412017822 2.255066156387329 0.5507134199142456 44
-0.8904112577438354 2.2489213943481445 0.46229633688926697 44
-0.8972389101982117 2.267322301864624 0.37971681356430054 44
-0.8865582346916199 2.2414755821228027 0.2912676930427551 44
-0.9040223360061646 2.286796808242798 0.21178844571113586 44
-0.8984580039978027 2.2738819122314453 0.1261296421289444 44
-0.8844491839408875 2.2395710945129395 0.04136219993233681 44
-0.7167347073554993 1.8195364475250244 -0.5137560367584229 119
-0.8242882490158081 2.093648672103882 -0.5106391906738281 119
-0.8928883075714111 2.2690508365631104 -0.46610939502716064 119
-0.8888489603996277 2.2599432468414307 -0.37857168912887573 44
-0.8927554488182068 2.2710394859313965 -0.29492413997650146 44
-0.8846590518951416 2.2515971660614014 -0.2083025425672531 44
-0.8827508091926575 2.2478930950164795 -0.12414508312940598 44
-0.8779328465461731 2.236772060394287 -0.040862563997507095 44
-0.8835577964782715 2.252258539199829 0.6375733613967896 44
-0.8836438059806824 2.2536346912384033 0.5495895147323608 44
-0.8807646632194519 2.247446060180664 0.46134310960769653 44
-0.8875179886817932 2.2658421993255615 0.3789355158805847 44
-0.8751102089881897 2.235313892364502 0.2900490164756775 44
-0.8942195177078247 2.2853000164031982 0.21135267615318298 44
-0.888696551322937 2.2723541259765625 0.12586797773838043 44
