# .PCD v0.7 - Point Cloud Data file format
VERSION 0.7
FIELDS x y z intensity
SIZE 4 4 4 4
TYPE F F F F
COUNT 1 1 1 1
WIDTH 802
HEIGHT 1
VIEWPOINT 0 0 0 1 0 0 0
POINTS 802
DATA ascii
-3.3042614459991455 2.3638741970062256 -0.21021205186843872 10
-3.2996907234191895 2.3614752292633057 -0.06945771723985672 10
-3.306351661682129 2.367115020751953 1.078572392463684 10
-3.306819200515747 2.3683226108551025 0.9294693470001221 10
-3.2988598346710205 2.3634934425354004 0.7806611657142639 10
-3.2985308170318604 2.364129066467285 0.6359865665435791 10
-3.306029796600342 2.3703773021698 0.4947895109653473 10
-3.3055107593536377 2.3708784580230713 0.35254499316215515 10
-3.309041976928711 2.374286413192749 0.21143725514411926 10
-3.3004419803619385 2.368988275527954 0.07024593651294708 10
-1.5840002298355103 1.1386387348175049 -0.5124619007110596 119
-1.8270158767700195 1.313327431678772 -0.5106391906738281 119
-2.170973300933838 1.5611516237258911 -0.5118624567985535 119
-2.688962936401367 1.9343512058258057 -0.5185806751251221 119
-3.322028398513794 2.3906376361846924 -0.4978368282318115 0
-3.3054094314575195 2.379554033279419 -0.3529812693595886 10
-3.300870895385742 2.3771612644195557 -0.21047286689281464 10
-3.300368070602417 2.377674102783203 -0.06963049620389938 10
-3.3067352771759033 2.3831379413604736 1.0811588764190674 10
-3.3033149242401123 2.381549119949341 0.9305932521820068 10
-3.2953996658325195 2.3767166137695312 0.7816144227981567 10
-3.2990975379943848 2.3802592754364014 0.6375492215156555 10
-3.3025906085968018 2.3836560249328613 0.4953988790512085 10
-3.302083969116211 2.384167194366455 0.35298073291778564 10
-3.3056142330169678 2.3875935077667236 0.21169894933700562 10
-3.297034978866577 2.382272720336914 0.07033319026231766 10
-1.580215573310852 1.1438851356506348 -0.5124619007110596 119
-1.8224202394485474 1.3196967840194702 -0.5106391906738281 119
-2.165510654449463 1.5687203407287598 -0.5118624567985535 119
-2.674196720123291 1.9379298686981201 -0.5170162916183472 119
-3.3216986656188965 2.4080443382263184 -0.49905550479888916 0
-3.305148124694824 2.3969264030456543 -0.35385286808013916 10
-3.3006365299224854 2.394533634185791 -0.21099449694156647 10
-3.2960941791534424 2.3921165466308594 -0.06971688568592072 10
-3.302305221557617 2.3975040912628174 1.0824521780014038 10
-3.302865982055664 2.398791551589966 0.9328411221504211 10
-3.2910542488098145 2.3910903930664062 0.7825676202774048 10
-3.2947635650634766 2.3946642875671387 0.6383305788040161 10
-3.2982637882232666 2.398087739944458 0.4960081875324249 10
-3.301798105239868 2.401538610458374 0.3538523316383362 10
-3.3053345680236816 2.4049930572509766 0.21222229301929474 10
-3.292741060256958 2.3967089653015137 0.07042045146226883 10
-1.576012372970581 1.1496691703796387 -0.5124619007110596 119
-1.8175710439682007 1.3263674974441528 -0.5106391906738281 119
-2.1597464084625244 1.5766468048095703 -0.5118624567985535 119
-2.68302845954895 1.959368348121643 -0.5201449990272522 119
-3.3168580532073975 2.423130512237549 -0.49966487288475037 0
-3.3003623485565186 2.4119632244110107 -0.35428863763809204 10
-3.295868396759033 2.4095613956451416 -0.21125528216362 10
-3.291339635848999 2.407132148742676 -0.06980328261852264 10
-3.297393560409546 2.4124433994293213 1.0837453603744507 10
-3.297982931137085 2.4137582778930664 0.9339649677276611 10
-3.2901885509490967 2.408935546875 0.7844739556312561 10
-3.2899487018585205 2.409641981124878 0.6391118168830872 10
-3.2934553623199463 2.4130938053131104 0.49661752581596375 10
-3.2969911098480225 2.4165689945220947 0.35428810119628906 10
-3.3005244731903076 2.420044422149658 0.2124839723110199 10
-3.287965774536133 2.4117183685302734 0.0705077201128006 10
-1.5719897747039795 1.1551635265350342 -0.5124619007110596 119
-1.8129302263259888 1.332703948020935 -0.5106391906738281 119
-2.1542296409606934 1.5841760635375977 -0.5118624567985535 119
nan nan nan 0
-3.3123767375946045 2.4376354217529297 -0.5002742409706116 0
-3.295933723449707 2.426421642303467 -0.3547244071960449 10
-3.2914578914642334 2.4240126609802246 -0.2115160971879959 10
-3.286942481994629 2.421571969985962 -0.06988967210054398 10
-3.2967281341552734 2.4296693801879883 1.086331844329834 10
-3.2934587001800537 2.4281468391418457 0.9350888729095459 10
-3.285710096359253 2.423319101333618 0.7854271531105042 10
-3.2894656658172607 2.426975727081299 0.6406744718551636 10
-3.2929983139038086 2.4304697513580322 0.49783626198768616 10
-3.2925424575805664 2.431021213531494 0.35472384095191956 10
-3.3000893592834473 2.437483310699463 0.21300731599330902 10
-3.2875688076019287 2.4291224479675293 0.07068223506212234 10
-1.567745327949524 1.1609174013137817 -0.5124619007110596 119
-1.8080333471298218 1.3393396139144897 -0.5106391906738281 119
-2.148409128189087 1.5920610427856445 -0.5118624567985535 119
nan nan nan 0
-3.307406425476074 2.4527156352996826 -0.5008835792541504 0
-3.2910187244415283 2.441453218460083 -0.3551601767539978 10
-3.2865612506866455 2.4390358924865723 -0.21177691221237183 10
-3.2860727310180664 2.4395627975463867 -0.07006245106458664 10
-3.2916784286499023 2.444615602493286 1.0876251459121704 10
-3.2884480953216553 2.4431071281433105 0.9362128376960754 10
-3.280745506286621 2.4382734298706055 0.7863803505897522 10
-3.2845115661621094 2.441962480545044 0.6414558291435242 10
-3.2880499362945557 2.4454843997955322 0.4984455704689026 10
-3.2916033267974854 2.44901967048645 0.3555954396724701 10
-3.2951390743255615 2.4525439739227295 0.21326901018619537 10
-3.282653331756592 2.444141149520874 0.07076950371265411 10
-1.5675547122955322 1.1692705154418945 -0.5137560367584229 119
-1.803347110748291 1.3456428050994873 -0.5106391906738281 119
-2.142838478088379 1.599550724029541 -0.5118624567985535 119
nan nan nan 0
-3.306776523590088 2.4701857566833496 -0.502102255821228 0
-3.286466360092163 2.4559078216552734 -0.35559597611427307 10
-3.2860255241394043 2.456472158432007 -0.21229851245880127 10
-3.281540632247925 2.454012393951416 -0.07014884054660797 10
-3.2869930267333984 2.458984375 1.0889184474945068 10
-3.2838008403778076 2.4574906826019287 0.9373367428779602 10
-3.276143789291382 2.4526522159576416 0.7873335480690002 10
-3.2838730812072754 2.4593331813812256 0.643018364906311 10
-3.2834651470184326 2.4599223136901855 0.4990549385547638 10
-3.287020444869995 2.463481903076172 0.356031209230423 10
-3.2945480346679688 2.4700214862823486 0.21379238367080688 10
-3.278097152709961 2.458589792251587 0.07085676491260529 10
-1.5634636878967285 1.174735188484192 -0.5137560367584229 119
-1.7986390590667725 1.3519294261932373 -0.5106391906738281 119
-2.137242078781128 1.6070209741592407 -0.5118624567985535 119
-2.6274352073669434 1.9763216972351074 -0.5146698355674744 119
-3.3020994663238525 2.4846975803375244 -0.5027115941047668 0
-3.281853199005127 2.470360279083252 -0.35603177547454834 10
-3.2814197540283203 2.4709315299987793 -0.21255932748317719 10
-3.2769477367401123 2.4684603214263916 -0.0702352300286293 10
-3.2822463512420654 2.4733498096466064 1.0902116298675537 10
-3.2829833030700684 2.4748034477233887 0.939584493637085 10
-3.2714810371398926 2.4670283794403076 0.7882866859436035 10
-3.2792112827301025 2.4737555980682373 0.6437997221946716 10
-3.2788197994232178 2.474358320236206 0.4996642768383026 10
-3.2863516807556152 2.480942487716675 0.35690274834632874 10
-3.2898905277252197 2.48451566696167 0.21405403316020966 10
-3.2774767875671387 2.476039171218872 0.07103128731250763 10
-1.5593535900115967 1.1801855564117432 -0.5137560367584229 119
-1.793908953666687 1.3581995964050293 -0.5106391906738281 119
-2.12770676612854 1.6115080118179321 -0.5109092593193054 119
nan nan nan 0
-3.2934060096740723 2.496208906173706 -0.5027115941047668 0
-3.2811481952667236 2.4878196716308594 -0.3569033145904541 10
-3.2767531871795654 2.4853880405426025 -0.2128201425075531 10
-3.2722935676574707 2.482905387878418 -0.07032161951065063 10
-3.2812869548797607 2.4906320571899414 1.092798113822937 10
-3.278205156326294 2.489194631576538 0.9407084584236145 10
-3.2706668376922607 2.484370708465576 0.7901930809020996 10
-3.2744884490966797 2.4881751537323 0.6445810198783875 10
-3.274113893508911 2.4887917041778564 0.5002736449241638 10
-3.2816364765167236 2.4954140186309814 0.357338547706604 10
-3.2851717472076416 2.4990074634552 0.214315727353096 10
-3.272792339324951 2.490492105484009 0.0711185485124588 10
-1.56290602684021 1.1914775371551514 -0.5163442492485046 119
-1.7891570329666138 1.3644533157348633 -0.5106391906738281 119
-2.1259708404541016 1.621902346611023 -0.5118624567985535 119
-2.6017966270446777 1.9856281280517578 -0.512323260307312 119
-3.288616895675659 2.5107009410858154 -0.5033209919929504 0
-3.276402473449707 2.502281427383423 -0.357339084148407 10
-3.2759926319122314 2.502873659133911 -0.21334175765514374 10
-3.2715508937835693 2.5003843307495117 -0.0704943984746933 10
-3.2764103412628174 2.505004405975342 1.0940914154052734 10
-3.2733659744262695 2.503582239151001 0.9418323636054993 10
-3.2658731937408447 2.4987549781799316 0.7911463379859924 10
-3.2736260890960693 2.5055930614471436 0.6461436152458191 10
-3.2693467140197754 2.5032224655151367 0.5008829832077026 10
-3.276860237121582 2.509882688522339 0.3577743470668793 10
-3.284355878829956 2.516533374786377 0.21483910083770752 10
-3.2680466175079346 2.5049424171447754 0.07120581716299057 10
-1.5434150695800781 1.1851600408554077 -0.5111678242683411 119
-1.7843834161758423 1.3706902265548706 -0.5106391906738281 119
-2.1125125885009766 1.623332142829895 -0.5099561214447021 119
-2.606595516204834 2.0037271976470947 -0.5146698355674744 119
-3.2798330783843994 2.522165298461914 -0.5033209919929504 0
-3.2755444049835205 2.519777297973633 -0.3582106828689575 10
-3.271193504333496 2.5173392295837402 -0.21360257267951965 10
-3.2667644023895264 2.514838457107544 -0.07058079540729523 10
-3.275299310684204 2.5223195552825928 1.0966778993606567 10
-3.2684662342071533 2.5179662704467773 0.9429562091827393 10
-3.264906167984009 2.51613187789917 0.7930526733398438 10
-3.2687714099884033 2.5200202465057373 0.6469249725341797 10
-3.2684485912323 2.5206806659698486 0.5021016597747803 10
-3.275966167449951 2.527390480041504 0.35864585638046265 10
-3.2795040607452393 2.5310332775115967 0.21510078012943268 10
-3.263239860534668 2.5193898677825928 0.07129307836294174 10
-1.5583702325820923 1.2053142786026 -0.5176383256912231 119
-1.7795878648757935 1.3769105672836304 -0.5106391906738281 119
-2.130122184753418 1.6487219333648682 -0.5156752467155457 119
-2.59958553314209 2.0128138065338135 -0.5146698355674744 119
-3.2710089683532715 2.5335986614227295 -0.5033209919929504 0
-3.2706656455993652 2.5342462062835693 -0.358646422624588 10
-3.2663328647613525 2.531801462173462 -0.21386338770389557 10
-3.265867233276367 2.532352924346924 -0.0707535669207573 10
-3.270291328430176 2.5366976261138916 1.0979710817337036 10
-3.26735520362854 2.5353336334228516 0.9452040791511536 10
-3.2599809169769287 2.5305230617523193 0.7940058708190918 10
-3.267756700515747 2.537473201751709 0.6484876275062561 10
-3.2635490894317627 2.53511905670166 0.5027110576629639 10
-3.271057367324829 2.5418670177459717 0.3590816557407379 10
-3.2745914459228516 2.545529842376709 0.21536244451999664 10
-3.2623183727264404 2.536902904510498 0.07146760076284409 10
-1.546533465385437 1.2048105001449585 -0.5150501132011414 119
-1.774770736694336 1.3831140995025635 -0.5106391906738281 119
-2.108870267868042 1.6440761089324951 -0.5118624567985535 119
-2.592543601989746 2.0218756198883057 -0.5146698355674744 119
-3.2660574913024902 2.548053503036499 -0.5039302706718445 0
-3.265726327896118 2.5487122535705566 -0.3590822219848633 10
-3.26141095161438 2.546260118484497 -0.21412420272827148 10
-3.2609481811523438 2.5468151569366455 -0.07083996385335922 10
-3.269028663635254 2.554044485092163 1.1005576848983765 10
-3.262324571609497 2.5497238636016846 0.9463279843330383 10
-3.2588608264923096 2.547933340072632 0.7959122061729431 10
-3.2627689838409424 2.5519063472747803 0.6492688655853271 10
-3.2624967098236084 2.5526113510131836 0.5039296746253967 10
-3.266087055206299 2.5563395023345947 0.3595174551010132 10
-3.2696175575256348 2.560023069381714 0.2156241238117218 10
-3.2573790550231934 2.5513579845428467 0.07155486196279526 10
nan nan nan 0
-1.7699319124221802 1.3893007040023804 -0.5106391906738281 119
-2.10697865486145 1.65445876121521 -0.5128157138824463 119
-2.5699357986450195 2.0187108516693115 -0.5115411281585693 119
-3.268850326538086 2.5686378479003906 -0.5057583451271057 0
-3.260725736618042 2.563174247741699 -0.35951799154281616 10
-3.2603530883789062 2.5638020038604736 -0.21464580297470093 10
-3.259896755218506 2.564364433288574 -0.07101274281740189 10
-3.2638888359069824 2.5684266090393066 1.1018508672714233 10
-3.2610604763031006 2.5671226978302 0.9485757350921631 10
-3.2538034915924072 2.5623302459716797 0.7968654036521912 10
-3.2616000175476074 2.569392204284668 0.6508315205574036 10
-3.2613625526428223 2.5701277256011963 0.5051484107971191 10
-3.2610559463500977 2.5708086490631104 0.35995322465896606 10
-3.2645819187164307 2.574512481689453 0.21588581800460815 10
-3.252378225326538 2.5658090114593506 0.07164212316274643 10
nan nan nan 0
-1.7650715112686157 1.3954704999923706 -0.5106391906738281 119
nan nan nan 0
-2.5396361351013184 2.009284496307373 -0.5068480968475342 119
-3.267646312713623 2.5861921310424805 -0.5069770216941833 0
-3.255664110183716 2.5776329040527344 -0.35995379090309143 10
-3.255297899246216 2.5782670974731445 -0.21490661799907684 10
-3.2548437118530273 2.578831911087036 -0.07109913229942322 10
-3.2586886882781982 2.5828044414520264 1.1031441688537598 10
-3.2597148418426514 2.5845441818237305 0.9508236050605774 10
-3.252530574798584 2.579772472381592 0.7987717986106873 10
-3.2564802169799805 2.583831310272217 0.6516128182411194 10
-3.256258487701416 2.5845816135406494 0.505757749080658 10
-3.2598636150360107 2.5883705615997314 0.3608247637748718 10
-3.263394594192505 2.5921030044555664 0.21640916168689728 10
-3.251230239868164 2.5833663940429688 0.07181664556264877 10
-1.4922668933868408 1.187853217124939 -0.5008150935173035 119
-1.7449451684951782 1.389484167098999 -0.5061401724815369 119
-2.1107337474823 1.6813604831695557 -0.5166284441947937 119
-2.5441935062408447 2.027369976043701 -0.5091946125030518 119
-3.2702410221099854 2.606862783432007 -0.5088050365447998 0
-3.2505404949188232 2.5920865535736084 -0.3603895306587219 10
-3.2540855407714844 2.5958423614501953 -0.21542824804782867 10
-3.2536373138427734 2.596414566040039 -0.07127191126346588 10
-3.257202625274658 2.6001904010772705 1.105730652809143 10
-3.2582876682281494 2.601987600326538 0.9530713558197021 10
-3.2511754035949707 2.5972375869750977 0.8006781339645386 10
-3.255156993865967 2.601348876953125 0.653175413608551 10
-3.2549688816070557 2.6021296977996826 0.5069764256477356 10
-3.2546989917755127 2.6028449535369873 0.3612605631351471 10
-3.258226156234741 2.606598138809204 0.21667084097862244 10
-3.246095895767212 2.59782338142395 0.07190390676259995 10
-1.4805752038955688 1.187013030052185 -0.4982268810272217 119
-1.7704885005950928 1.4199512004852295 -0.5151382088661194 119
nan nan nan 0
-2.540952682495117 2.039329767227173 -0.5099768042564392 119
-3.264991283416748 2.6213693618774414 -0.5094144344329834 0
-3.245356321334839 2.606536388397217 -0.3608253300189972 10
-3.248896598815918 2.6103129386901855 -0.2156890332698822 10
-3.248450994491577 2.6108877658843994 -0.07135830819606781 10
-3.2518701553344727 2.614570140838623 1.10702383518219 10
-3.252981424331665 2.616398572921753 0.9541952610015869 10
-3.2459139823913574 2.611647367477417 0.8016313314437866 10
-3.249904155731201 2.6157925128936768 0.6539567708969116 10
-3.2497317790985107 2.6165883541107178 0.5075858235359192 10
-3.2494723796844482 2.6173148155212402 0.36169636249542236 10
-3.2568836212158203 2.6242213249206543 0.21719421446323395 10
-3.2447926998138428 2.615413188934326 0.07207843661308289 10
nan nan nan 0
-1.7766402959823608 1.4356168508529663 -0.518512487411499 119
-2.0948312282562256 1.6933358907699585 -0.5156752467155457 119
-2.5373010635375977 2.051734209060669 -0.5107589364051819 119
-3.255361795425415 2.6333184242248535 -0.5094144344329834 0
-3.243525266647339 2.624680280685425 -0.36169689893722534 10
-3.2470695972442627 2.628486394882202 -0.21621066331863403 10
-3.2466301918029785 2.629068613052368 -0.07153107970952988 10
-3.2497715950012207 2.632551670074463 1.1096104383468628 10
-3.2509407997131348 2.634438991546631 0.9564431309700012 10
-3.243945360183716 2.6297080516815186 0.8035376667976379 10
-3.2479662895202637 2.6339073181152344 0.6555193066596985 10
-3.243973731994629 2.631608247756958 0.508195161819458 10
-3.2475929260253906 2.635484218597412 0.36256787180900574 10
-3.251120090484619 2.6392874717712402 0.2174558788537979 10
-3.239065408706665 2.6304397583007812 0.07216569036245346 10
nan nan nan 0
nan nan nan 0
-2.0660691261291504 1.6820446252822876 -0.5099561214447021 119
-2.5339529514312744 2.063697099685669 -0.5115411281585693 119
-3.246149778366089 2.6446657180786133 -0.5094144344329834 0
-3.2382049560546875 2.6391332149505615 -0.36213263869285583 10
-3.2417447566986084 2.6429600715637207 -0.21647147834300995 10
-3.241307497024536 2.643545389175415 -0.0716174766421318 10
-3.248046875 2.6499860286712646 1.112196922302246 10
-3.2492737770080566 2.6519317626953125 0.958690881729126 10
-3.238548517227173 2.64411997795105 0.8044909238815308 10
-3.2425777912139893 2.648353099822998 0.6563006639480591 10
-3.2424542903900146 2.649195671081543 0.5094138383865356 10
-3.242230176925659 2.649956464767456 0.363003671169281 10
-3.2496182918548584 2.6569411754608154 0.21797925233840942 10
-3.233729362487793 2.6449005603790283 0.07225295901298523 10
nan nan nan 0
nan nan nan 0
-2.0639808177948 1.692358374595642 -0.5109092593193054 119
-2.5305519104003906 2.0756614208221436 -0.512323260307312 119
-3.236898422241211 2.6559808254241943 -0.5094144344329834 0
-3.236672878265381 2.656741142272949 -0.36300423741340637 10
-3.2363576889038086 2.657428026199341 -0.21673227846622467 10
-3.239785671234131 2.661189556121826 -0.07179024815559387 10
-3.24250864982605 2.6643741130828857 1.113490104675293 10
-3.2437610626220703 2.666351795196533 0.9598148465156555 10
-3.2368812561035156 2.6616432666778564 0.8063973188400269 10
-3.2409415245056152 2.6659302711486816 0.6578633189201355 10
-3.2370193004608154 2.66365122795105 0.5100231766700745 10
-3.2406513690948486 2.667588710784912 0.36387521028518677 10
-3.248033285140991 2.674616575241089 0.21850259602069855 10
-3.232199192047119 2.662524461746216 0.07242748886346817 10
-1.5046223402023315 1.241638422012329 -0.5124619007110596 119
-1.7352099418640137 1.4324321746826172 -0.5106391906738281 119
nan nan nan 0
-2.5347132682800293 2.0939178466796875 -0.5146698355674744 119
-3.231433391571045 2.6704251766204834 -0.5100237727165222 0
-3.2350573539733887 2.674370288848877 -0.36387577652931213 10
-3.230909824371338 2.6718909740448 -0.21699309349060059 10
-3.2343289852142334 2.6756691932678223 -0.0718766450881958 10
-3.2406303882598877 2.6818349361419678 1.1160767078399658 10
-3.2419393062591553 2.6838717460632324 0.9620625972747803 10
-3.235131025314331 2.679187059402466 0.8083036541938782 10
-3.2392218112945557 2.683528184890747 0.6594259142875671 10
-3.2353434562683105 2.681267499923706 0.5112418532371521 10
-3.2389895915985107 2.6852428913116455 0.3647467792034149 10
-3.242520570755005 2.6891250610351562 0.2187642902135849 10
-3.2267327308654785 2.6769824028015137 0.07251474261283875 10
-1.5002789497375488 1.2468830347061157 -0.5124619007110596 119
-1.692737102508545 1.407334566116333 -0.4993916451931 119
nan nan nan 0
-2.5311851501464844 2.1059114933013916 -0.515451967716217 119
-3.2220921516418457 2.6816885471343994 -0.5100237727165222 0
-3.233358144760132 2.6920206546783447 -0.3647473454475403 10
-3.225400686264038 2.6863484382629395 -0.2172539085149765 10
-3.232651472091675 2.693343162536621 -0.07204942405223846 10
-3.2386696338653564 2.699315071105957 1.1186631917953491 10
-3.24003529548645 2.701411724090576 0.9643104672431946 10
-3.2332983016967773 2.696751356124878 0.8102100491523743 10
-3.241211175918579 2.704310894012451 0.6617698669433594 10
-3.2335846424102783 2.6989047527313232 0.5124605894088745 10
-3.237243175506592 2.7029173374176025 0.3656183183193207 10
-3.233114004135132 2.700427293777466 0.2187642902135849 10
-3.2365503311157227 2.704256534576416 0.0729510560631752 10
-1.4885104894638062 1.2459125518798828 -0.5098737478256226 119
-1.7102261781692505 1.4320006370544434 -0.5061401724815369 119
nan nan nan 0
-2.4935364723205566 2.089360237121582 -0.5091946125030518 119
-3.212711811065674 2.6929194927215576 -0.5100237727165222 0
-3.2315750122070312 2.709691286087036 -0.36561888456344604 10
-3.219829559326172 2.7007997035980225 -0.21751472353935242 10
-3.230889320373535 2.7110373973846436 -0.07222220301628113 10
-3.236626386642456 2.7168142795562744 1.1212496757507324 0
-3.230585813522339 2.712705135345459 0.9643104672431946 10
-3.23138165473938 2.7143349647521973 0.8121163845062256 10
-3.2430942058563232 2.7251391410827637 0.6641138195991516 10
-3.2317416667938232 2.716562271118164 0.5136792063713074 0
-3.2392258644104004 2.723818063735962 0.3669256865978241 0
nan nan nan 0
-3.2117903232574463 2.702662467956543 0.07260200381278992 10
-1.5173861980438232 1.279116153717041 -0.5215205550193787 119
-1.7126659154891968 1.44424307346344 -0.5083897113800049 119
-2.0363988876342773 1.7178462743759155 -0.5099561214447021 119
-2.459808588027954 2.0757570266723633 -0.5037193894386292 119
-3.20329213142395 2.7041175365448 -0.5100237727165222 0
-3.2182912826538086 2.7177414894104004 -0.36518314480781555 0
-3.2294538021087646 2.7281334400177 -0.21881873905658722 0
-3.2099509239196777 2.712618350982666 -0.07196303457021713 0
-3.2234346866607666 2.724977493286133 1.1199564933776855 44
-3.2285373210906982 2.730257511138916 0.9665582180023193 44
-3.2218868732452393 2.725598096847534 0.8121163845062256 44
-3.2109429836273193 2.717301368713379 0.6594259142875671 44
-3.226026773452759 2.7310328483581543 0.514288604259491 0
-3.2258970737457275 2.731889486312866 0.36648988723754883 0
-3.2103731632232666 2.71970534324646 0.21850259602069855 10
-3.1870813369750977 2.7009291648864746 0.07225295901298523 44
-1.5055485963821411 1.278153657913208 -0.5189324021339417 119
nan nan nan 0
-2.034130811691284 1.7281221151351929 -0.5109092593193054 119
-2.452548027038574 2.0843307971954346 -0.5037193894386292 119
-3.1976141929626465 2.718496799468994 -0.510633111000061 0
-3.2049906253814697 2.72573184967041 -0.3647473454475403 0
-3.1856837272644043 2.710270404815674 -0.21647147834300995 0
-3.185234546661377 2.710846424102783 -0.0716174766421318 44
-3.1918375492095947 2.7174267768859863 1.112196922302246 44
-3.1893138885498047 2.7162387371063232 0.9575669765472412 44
-3.1936726570129395 2.7209129333496094 0.8073505163192749 44
-3.1788861751556396 2.709272623062134 0.6547380685806274 44
-3.1787095069885254 2.710080146789551 0.508195161819458 44
-3.197392225265503 2.7269723415374756 0.36431100964546204 44
nan nan nan 0
-3.166226387023926 2.702301263809204 0.07199117541313171 44
-1.4974069595336914 1.2802627086639404 -0.5176383256912231 119
-1.717350959777832 1.4688308238983154 -0.5128887295722961 119
-2.0355451107025146 1.7415939569473267 -0.5128157138824463 119
-2.456512928009033 2.102512836456299 -0.5060659050941467 119
-3.188105583190918 2.729641914367676 -0.510633111000061 0
-3.176541566848755 2.7207019329071045 -0.3625684380531311 44
-3.179995059967041 2.7246222496032715 -0.21673227846622467 44
-3.160569190979004 2.708935022354126 -0.07127191126346588 44
-3.1859991550445557 2.7316958904266357 1.113490104675293 44
-3.1687190532684326 2.717839241027832 0.9541952610015869 44
-3.1729800701141357 2.7224555015563965 0.8044909238815308 44
-3.150672197341919 2.704270124435425 0.6508315205574036 44
-3.1541693210601807 2.7082278728485107 0.505757749080658 44
-3.1878538131713867 2.738116502761841 0.36431100964546204 44
nan nan nan 0
-3.1454005241394043 2.7035608291625977 0.0717293918132782 44
-1.4929288625717163 1.2854818105697632 -0.5176383256912231 119
-1.7232871055603027 1.4843549728393555 -0.516262948513031 119
nan nan nan 0
-2.45289945602417 2.1142990589141846 -0.5068480968475342 119
-3.1597654819488525 2.7245500087738037 -0.5075863599777222 119
-3.144394874572754 2.7122535705566406 -0.35995379090309143 44
-3.147783041000366 2.7161343097686768 -0.21516743302345276 44
-3.132171869277954 2.703617811203003 -0.07083996385335922 44
-3.154510736465454 2.7238612174987793 1.105730652809143 44
-3.1481516361236572 2.719329357147217 0.9508236050605774 44
-3.14117431640625 2.7142598628997803 0.7987717986106873 44
-3.1225321292877197 2.699103355407715 0.6469249725341797 44
-3.125926971435547 2.702991247177124 0.5027110576629639 44
-3.1556737422943115 2.7296760082244873 0.36169636249542236 44
-3.1364073753356934 2.7139675617218018 0.21536244451999664 44
-3.1208243370056152 2.7014362812042236 0.07138033211231232 44
-1.488432765007019 1.2906852960586548 -0.5176383256912231 119
-1.707054853439331 1.480784296989441 -0.5128887295722961 119
nan nan nan 0
-2.4492335319519043 2.1260857582092285 -0.5076302289962769 119
-3.1389946937561035 2.725801706314087 -0.5057583451271057 119
-3.1161067485809326 2.706880569458008 -0.35777488350868225 44
-3.1194376945495605 2.7107298374176025 -0.21386338770389557 44
-3.1038506031036377 2.6981356143951416 -0.07040800899267197 44
-3.126760482788086 2.7190093994140625 1.09926438331604 44
-3.1202609539031982 2.7143137454986572 0.9452040791511536 44
-3.1131675243377686 2.7090976238250732 0.7940058708190918 44
-3.098191976547241 2.697016716003418 0.6437997221946716 44
-3.097759485244751 2.6975903511047363 0.4996642768383026 44
-3.127346992492676 2.724315643310547 0.3595174551010132 44
-3.1193861961364746 2.7183384895324707 0.21483910083770752 44
-3.0887653827667236 2.692603349685669 0.07085676491260529 44
-1.4839181900024414 1.2958731651306152 -0.5176383256912231 119
-1.676192283630371 1.4642975330352783 -0.5050153732299805 119
nan nan nan 0
-2.4455151557922363 2.1378724575042725 -0.5084124207496643 119
-3.107046127319336 2.7171404361724854 -0.502102255821228 119
-3.0878942012786865 2.701343059539795 -0.35559597611427307 44
-3.0911688804626465 2.70516037940979 -0.21255932748317719 44
-3.07936692237854 2.695781707763672 -0.07006245106458664 44
-3.0990827083587646 2.7139968872070312 1.092798113822937 44
-3.0924437046051025 2.709136724472046 0.939584493637085 44
-3.0852348804473877 2.703773260116577 0.7892398834228516 44
-3.070190906524658 2.6915366649627686 0.639893114566803 44
-3.073399782180786 2.695298671722412 0.49722689390182495 44
-3.0990967750549316 2.7187914848327637 0.357338547706604 44
-3.0873608589172363 2.709449291229248 0.21326901018619537 44
-3.060563087463379 2.686877489089966 0.07042045146226883 44
-1.4757591485977173 1.2978554964065552 -0.5163442492485046 119
-1.6820443868637085 1.479793667793274 -0.5083897113800049 119
-2.0036611557006836 1.7633593082427979 -0.5109092593193054 119
-2.438037633895874 2.146395683288574 -0.5084124207496643 119
-3.078920602798462 2.711569309234619 -0.49905550479888916 119
-3.0597589015960693 2.6956419944763184 -0.3534170687198639 44
-3.0629770755767822 2.6994268894195557 -0.21125528216362 44
-3.0511882305145264 2.68998384475708 -0.06963049620389938 44
-3.0678558349609375 2.70563006401062 1.0850385427474976 44
-3.0647010803222656 2.703798770904541 0.9339649677276611 44
-3.057377576828003 2.698287010192871 0.7844739556312561 44
-3.0459682941436768 2.6891632080078125 0.6367679238319397 44
-3.0453739166259766 2.689584732055664 0.4941801428794861 44
-3.070923328399658 2.7131032943725586 0.3551596403121948 44
-3.055436134338379 2.7003703117370605 0.21169894933700562 44
-3.0324387550354004 2.680988073348999 0.06998414546251297 44
-1.4712196588516235 1.3029990196228027 -0.5163442492485046 119
-1.6805150508880615 1.4888865947723389 -0.5095144510269165 119
-2.0085134506225586 1.7801094055175781 -0.5137688517570496 119
-2.434225559234619 2.1581692695617676 -0.5091946125030518 119
-3.0471599102020264 2.702542781829834 -0.49539944529533386 119
-3.031700611114502 2.6897776126861572 -0.3512381613254547 44
-3.0348637104034424 2.693530559539795 -0.209951251745224 44
-3.023087739944458 2.6840224266052246 -0.06919854879379272 44
-3.040337085723877 2.7002861499786377 1.078572392463684 44
-3.0370335578918457 2.698300361633301 0.9283455014228821 44
-3.0295968055725098 2.6926395893096924 0.7797079682350159 44
-3.01810884475708 2.6833720207214355 0.632861316204071 44
-3.0211338996887207 2.6870059967041016 0.4917427599430084 44
-3.042827606201172 2.707251787185669 0.35298073291778564 44
-3.0310723781585693 2.6977410316467285 0.2106522172689438 44
-3.0043931007385254 2.6749355792999268 0.06954783201217651 44
-1.466434121131897 1.308382511138916 -0.5163442492485046 119
-1.6786816120147705 1.4982802867889404 -0.5106391906738281 119
-1.9909915924072266 1.7776520252227783 -0.5109092593193054 119
-2.4262993335723877 2.167076587677002 -0.5091946125030518 119
-3.0150296688079834 2.6938538551330566 -0.4917433559894562 119
-3.003253221511841 2.684274911880493 -0.3490593135356903 44
-3.006359338760376 2.687994956970215 -0.2086472064256668 44
-2.9945991039276123 2.6784207820892334 -0.06876660138368607 44
-3.012422561645508 2.6953086853027344 1.072106122970581 44
-3.008971929550171 2.693167209625244 0.9227259755134583 44
-3.0014238357543945 2.6873550415039062 0.7749421000480652 44
-2.9898598194122314 2.6779415607452393 0.6289548277854919 44
-2.9927845001220703 2.681502342224121 0.48869603872299194 44
-3.014338970184326 2.70176362991333 0.35080188512802124 44
-3.0025761127471924 2.6921656131744385 0.209343820810318 44
-2.979682445526123 2.672576904296875 0.06919878721237183 44
-1.4582655429840088 1.3102654218673706 -0.5150501132011414 119
-1.6734412908554077 1.5041308403015137 -0.5106391906738281 119
-1.9957239627838135 1.7944363355636597 -0.5137688517570496 119
-2.422391891479492 2.178835391998291 -0.5099768042564392 119
-2.987161874771118 2.6877646446228027 -0.4886966049671173 119
-2.9753541946411133 2.6780803203582764 -0.34688040614128113 44
-2.9784045219421387 2.681767225265503 -0.20734316110610962 44
-2.966658353805542 2.672128438949585 -0.06833464652299881 44
-2.9850549697875977 2.6896424293518066 1.065639853477478 44
-2.9814581871032715 2.6873443126678467 0.9171064496040344 44
-2.9737985134124756 2.6813812255859375 0.7701761722564697 44
-2.962157964706421 2.671823024749756 0.6250482797622681 44
-2.968668222427368 2.6786348819732666 0.4862586557865143 44
-2.9864022731781006 2.695582151412964 0.34862297773361206 44
-2.974630355834961 2.685898780822754 0.2080354243516922 44
-2.9517812728881836 2.6662118434906006 0.06876247376203537 44
-1.4536830186843872 1.3153477907180786 -0.5150501132011414 119
-1.6681808233261108 1.5099631547927856 -0.5106391906738281 119
-1.9821711778640747 1.7948027849197388 -0.5118624567985535 119
-2.414771556854248 2.1872777938842773 -0.5099768042564392 119
-2.959373950958252 2.681514024734497 -0.48564988374710083 119
-2.9475350379943848 2.6717240810394287 -0.34470149874687195 44
-2.950530529022217 2.675377130508423 -0.20603910088539124 44
-2.938798427581787 2.6656737327575684 -0.06790269166231155 44
-2.957763910293579 2.6838178634643555 1.059173583984375 44
-2.954021692276001 2.6813623905181885 0.9114868640899658 44
-2.946251630783081 2.6752476692199707 0.7654101848602295 44
-2.934535264968872 2.665543794631958 0.6211417317390442 44
-2.9409351348876953 2.6722939014434814 0.4832119345664978 44
-2.958545446395874 2.6892383098602295 0.3464440703392029 44
-2.946765184402466 2.6794700622558594 0.2067270129919052 44
-2.9239699840545654 2.659674882888794 0.06832616776227951 44
-1.4455130100250244 1.3171613216400146 -0.5137560367584229 119
-1.6592991352081299 1.5124948024749756 -0.5095144510269165 119
-1.9758940935134888 1.8017109632492065 -0.5118624567985535 119
-2.4071216583251953 2.1956937313079834 -0.5099768042564392 119
-2.9353318214416504 2.6784474849700928 -0.48321250081062317 119
-2.923475980758667 2.6685643196105957 -0.34295839071273804 44
-2.9227375984191895 2.668825626373291 -0.20473507046699524 44
-2.911019802093506 2.6590576171875 -0.0674707442522049 44
-2.9305498600006104 2.6778359413146973 1.052707314491272 44
-2.926663637161255 2.6752219200134277 0.905867338180542 44
-2.9224064350128174 2.672266960144043 0.7615974545478821 44
-2.9069929122924805 2.659104585647583 0.6172351241111755 44
-2.913282871246338 2.665792226791382 0.48016518354415894 44
-2.930769443511963 2.6827335357666016 0.3442651629447937 44
-2.922664165496826 2.6762516498565674 0.20568029582500458 44
-2.896235942840576 2.6529812812805176 0.06788985431194305 44
-1.4409064054489136 1.3221991062164307 -0.5137560367584229 119
-1.654009461402893 1.518277645111084 -0.5095144510269165 119
-1.9659775495529175 1.8052773475646973 -0.5109092593193054 119
-2.399442672729492 2.204082727432251 -0.5099768042564392 119
-2.907693386077881 2.6718881130218506 -0.4801657497882843 119
-2.8958077430725098 2.661898612976074 -0.34077948331832886 44
-2.8987019062042236 2.665492296218872 -0.20369184017181396 44
-2.887002944946289 2.6556649208068848 -0.06712518632411957 44
-2.906968355178833 2.6749672889709473 1.0475342273712158 44
-2.9029691219329834 2.6722230911254883 0.9013717174530029 44
-2.895007371902466 2.665827751159668 0.7568315267562866 44
-2.8831636905670166 2.6558518409729004 0.6141099333763123 44
-2.885712146759033 2.659130573272705 0.47711846232414246 44
-2.906737804412842 2.679443359375 0.3425220549106598 44
-2.894951105117798 2.66951322555542 0.20437189936637878 44
-2.8722593784332275 2.6495163440704346 0.06754080951213837 44
-1.4362822771072388 1.3272205591201782 -0.5137560367584229 119
-1.6451221704483032 1.5207351446151733 -0.5083897113800049 119
-1.9596641063690186 1.8121289014816284 -0.5109092593193054 119
-2.3917343616485596 2.21244478225708 -0.5099768042564392 119
-2.880136728286743 2.665168523788452 -0.4771190285682678 119
-2.871877431869507 2.658456325531006 -0.33903634548187256 44
-2.871061325073242 2.6586315631866455 -0.20238777995109558 44
-2.859377861022949 2.6487395763397217 -0.06669323146343231 44
-2.8799002170562744 2.668684244155884 1.0410680770874023 44
-2.875758409500122 2.6657793521881104 0.8957522511482239 44
-2.8712878227233887 2.662567138671875 0.7530187368392944 44
-2.8557722568511963 2.649106740951538 0.6102033853530884 44
-2.8618617057800293 2.655684471130371 0.4746810793876648 44
-2.8791146278381348 2.6726298332214355 0.340343177318573 44
-2.8673205375671387 2.6626136302948 0.203063502907753 44
-2.844679832458496 2.6425139904022217 0.06710450351238251 44
-1.431640625 1.332226037979126 -0.5137560367584229 119
-1.6398038864135742 1.5264683961868286 -0.5083897113800049 119
-1.9533265829086304 1.8189582824707031 -0.5109092593193054 119
-2.38761043548584 2.2241463661193848 -0.5107589364051819 119
-2.8526623249053955 2.6582891941070557 -0.47407227754592896 119
-2.848006248474121 2.654879093170166 -0.33729323744773865 44
-2.8435049057006836 2.651610851287842 -0.20108374953269958 44
-2.835491895675659 2.645063877105713 -0.06634767353534698 44
-2.856442451477051 2.6655399799346924 1.0358951091766357 44
-2.8521900177001953 2.662503242492676 0.8912566304206848 44
-2.8440396785736084 2.6558239459991455 0.748252809047699 44
-2.8320720195770264 2.645573854446411 0.6070781350135803 44
-2.834444046020508 2.6487162113189697 0.4716343283653259 44
-2.855212926864624 2.669057607650757 0.3386000692844391 44
-2.84342098236084 2.6589648723602295 0.20201678574085236 44
-2.8208348751068115 2.6387667655944824 0.06675545126199722 44
-1.4269815683364868 1.3372154235839844 -0.5137560367584229 119
-1.6344655752182007 1.532183051109314 -0.5083897113800049 119
-1.9469653367996216 1.8257657289505005 -0.5109092593193054 119
-2.3798322677612305 2.23246693611145 -0.5107589364051819 119
-2.8252716064453125 2.6512510776519775 -0.4710255563259125 119
-2.820563793182373 2.647759199142456 -0.33511435985565186 44
-2.819671869277954 2.647847890853882 -0.20004050433635712 44
-2.808022975921631 2.637831211090088 -0.06591571867465973 44
-2.829522132873535 2.6589572429656982 1.0294288396835327 44
-2.825129508972168 2.6557579040527344 0.8856370449066162 44
-2.820449113845825 2.652285575866699 0.7444400787353516 44
-2.80843186378479 2.6419084072113037 0.6039528846740723 44
-2.8071107864379883 2.641589403152466 0.46858760714530945 44
-2.827744722366333 2.6619372367858887 0.3364211618900299 44
-2.815946578979492 2.6517581939697266 0.20070837438106537 44
-2.793412208557129 2.631457567214966 0.06631913781166077 44
-1.4223051071166992 1.3421883583068848 -0.5137560367584229 119
-1.6291072368621826 1.5378789901733398 -0.5083897113800049 119
-1.9405803680419922 1.8325507640838623 -0.5109092593193054 119
-2.3720247745513916 2.240760564804077 -0.5107589364051819 119
-2.801571846008301 2.6474626064300537 -0.4685881733894348 119
-2.796825647354126 2.6439015865325928 -0.33337122201919556 44
-2.7922725677490234 2.6405205726623535 -0.19873645901679993 44
-2.784271240234375 2.6338746547698975 -0.0655701607465744 44
-2.8061909675598145 2.655538558959961 1.0242557525634766 44
-2.801689386367798 2.6522057056427 0.8811414241790771 44
-2.7933542728424072 2.64523983001709 0.7396740913391113 44
-2.784851551055908 2.6381099224090576 0.6008276343345642 44
-2.7798614501953125 2.634303569793701 0.46554088592529297 44
-2.80397629737854 2.6580846309661865 0.334678053855896 44
-2.7921807765960693 2.6478283405303955 0.19966165721416473 44
-2.7697019577026367 2.627429962158203 0.06597009301185608 44
-1.4176113605499268 1.3471449613571167 -0.5137560367584229 119
-1.6237291097640991 1.5435563325881958 -0.5083897113800049 119
-1.9377285242080688 1.842695713043213 -0.5118624567985535 119
-2.3641886711120605 2.2490267753601074 -0.5107589364051819 119
-2.7743380069732666 2.640119791030884 -0.46554142236709595 119
-2.7695412635803223 2.636476516723633 -0.33119234442710876 44
-2.7685747146606445 2.636477470397949 -0.19769322872161865 44
-2.7569618225097656 2.6263365745544434 -0.06513821333646774 44
-2.7829184532165527 2.6519899368286133 1.01908278465271 44
-2.774782180786133 2.645160675048828 0.8755219578742981 44
-2.769895076751709 2.6414248943328857 0.7358613610267639 44
-2.757758617401123 2.630770444869995 0.5969210863113403 44
-2.7562880516052246 2.630286693572998 0.4631035029888153 44
-2.780268907546997 2.6540987491607666 0.3329349458217621 44
-2.768476724624634 2.6437652111053467 0.1986149400472641 44
-2.742439031600952 2.6198155879974365 0.06553377956151962 44
-1.4129003286361694 1.352084994316101 -0.5137560367584229 119
-1.6148117780685425 1.5458457469940186 -0.5072649121284485 119
-1.9312845468521118 1.849448561668396 -0.5118624567985535 119
-2.356323719024658 2.25726580619812 -0.5107589364051819 119
-2.7507731914520264 2.6360535621643066 -0.4631040394306183 119
-2.745938777923584 2.6323401927948 -0.32944920659065247 44
-2.741335153579712 2.628845453262329 -0.19638918340206146 44
-2.733346700668335 2.622100830078125 -0.06479264795780182 44
-2.759704828262329 2.6483113765716553 1.0139096975326538 44
-2.7514731884002686 2.6413345336914062 0.871026337146759 44
-2.7429566383361816 2.6340787410736084 0.7310953736305237 44
-2.7343130111694336 2.6266956329345703 0.5937958359718323 44
-2.7291979789733887 2.6226983070373535 0.46005675196647644 44
-2.756624221801758 2.649979591369629 0.3311918377876282 44
-2.744835376739502 2.63956880569458 0.19756822288036346 44
-2.7188663482666016 2.615509271621704 0.06518473476171494 44
-1.4046943187713623 1.3536573648452759 -0.5124619007110596 119
-1.6094059944152832 1.5514730215072632 -0.5072649121284485 119
-1.9248170852661133 1.856178641319275 -0.5118624567985535 119
-2.3484301567077637 2.265477180480957 -0.5107589364051819 119
-2.7272706031799316 2.631854772567749 -0.46066662669181824 119
-2.7188150882720947 2.6246120929718018 -0.3272702991962433 44
-2.7177748680114746 2.6245243549346924 -0.195345938205719 44
-2.7097952365875244 2.617732524871826 -0.06444709002971649 44
-2.7330782413482666 2.641146659851074 1.0074435472488403 44
-2.728224992752075 2.637377977371216 0.86653071641922 44
-2.7196319103240967 2.6299893856048584 0.7272826433181763 44
-2.7109291553497314 2.6224892139434814 0.590670645236969 44
-2.705761671066284 2.6184043884277344 0.4576193690299988 44
-2.7294633388519287 2.642263650894165 0.329012930393219 44
-2.721257209777832 2.635239839553833 0.19652150571346283 44
-2.6917665004730225 2.6075916290283203 0.06474842131137848 44
-1.3999606370925903 1.3585524559020996 -0.5124619007110596 119
-1.603980541229248 1.5570814609527588 -0.5072649121284485 119
-1.9148048162460327 1.859466791152954 -0.5109092593193054 119
-2.340507745742798 2.273660659790039 -0.5107589364051819 119
-2.7002716064453125 2.624065637588501 -0.45761987566947937 119
-2.6953511238098145 2.6201987266540527 -0.3255271911621094 44
-2.6906988620758057 2.6165897846221924 -0.194041907787323 44
-2.686307430267334 2.613231658935547 -0.06410152465105057 44
-2.7099967002868652 2.637197256088257 1.0022704601287842 44
-2.705037832260132 2.633291244506836 0.8620350360870361 44
-2.6963694095611572 2.6257693767547607 0.7234699130058289 44
-2.687608480453491 2.618151903152466 0.5875453948974609 44
-2.6823883056640625 2.6139791011810303 0.4551819860935211 44
-2.7059566974639893 2.6378672122955322 0.3272698223590851 44
-2.6977427005767822 2.6307785511016846 0.1954747885465622 44
-2.6683337688446045 2.603008270263672 0.06439937651157379 44
-1.395209789276123 1.3634309768676758 -0.5124619007110596 119
-1.5985355377197266 1.5626709461212158 -0.5072649121284485 119
-1.9083024263381958 1.8661394119262695 -0.5109092593193054 119
-2.332556962966919 2.2818167209625244 -0.5107589364051819 119
-2.676907777786255 2.619591474533081 -0.4551824927330017 119
-2.6719510555267334 2.6156539916992188 -0.32378408312797546 44
-2.667278528213501 2.6119918823242188 -0.19299866259098053 44
-2.66288423538208 2.6085989475250244 -0.06375596672296524 44
-2.686976194381714 2.6331191062927246 0.9970974922180176 44
-2.678433895111084 2.625664710998535 0.8564155697822571 44
-2.6731696128845215 2.6214187145233154 0.7196571230888367 44
-2.664351224899292 2.6136837005615234 0.5844201445579529 44
-2.659079074859619 2.6094226837158203 0.45274460315704346 44
-2.6825144290924072 2.6333396434783936 0.3255266845226288 44
-2.6707301139831543 2.6226868629455566 0.1941663771867752 44
-2.644965887069702 2.5982930660247803 0.06405032426118851 44
-1.3904420137405396 1.3682928085327148 -0.5124619007110596 119
-1.5930709838867188 1.5682413578033447 -0.5072649121284485 119
-1.8982794284820557 1.8693453073501587 -0.5099561214447021 119
-2.324577569961548 2.289945125579834 -0.5107589364051819 119
-2.6500730514526367 2.6115026473999023 -0.45213574171066284 119
-2.648615598678589 2.6109774112701416 -0.32204097509384155 44
-2.643923759460449 2.607262372970581 -0.19195541739463806 44
-2.6395263671875 2.603834867477417 -0.06341040134429932 44
-2.6640172004699707 2.6289122104644775 0.9919244050979614 44
-2.655383348464966 2.621307134628296 0.851919949054718 44
-2.6500332355499268 2.616938829421997 0.7158443927764893 44
-2.641158103942871 2.6090855598449707 0.5812948942184448 44
-2.6358344554901123 2.6047356128692627 0.4503071904182434 44
-2.65559458732605 2.625178575515747 0.323347806930542 44
-2.647357702255249 2.6179497241973877 0.19311966001987457 44
-2.621664047241211 2.593446731567383 0.06370127946138382 44
-1.3856574296951294 1.3731379508972168 -0.5124619007110596 119
-1.5875871181488037 1.573792576789856 -0.5072649121284485 119
-1.8917427062988281 1.8759599924087524 -0.5099561214447021 119
-2.316570281982422 2.2980453968048096 -0.5107589364051819 119
-2.6268506050109863 2.6067545413970947 -0.4496983587741852 119
-2.6253457069396973 2.606170415878296 -0.32029783725738525 44
-2.6206345558166504 2.6024019718170166 -0.1909121870994568 44
-2.612687587738037 2.595416307449341 -0.06297845393419266 44
-2.6376945972442627 2.6211729049682617 0.9854581952095032 44
-2.6323959827423096 2.616820812225342 0.847424328327179 44
-2.626960515975952 2.6123290061950684 0.7120316624641418 44
-2.6180295944213867 2.6043570041656494 0.5781696438789368 44
-2.6126554012298584 2.5999181270599365 0.44786980748176575 44
-2.6322944164276123 2.6203761100769043 0.3216046690940857 44
-2.624051094055176 2.613081932067871 0.19207294285297394 44
-2.5984232425689697 2.5884740352630615 0.06335222721099854 44
-1.3840333223342896 1.3816196918487549 -0.5137560367584229 119
-1.5818082094192505 1.5796008110046387 -0.5072649121284485 119
-1.8848541975021362 1.8828810453414917 -0.5099561214447021 119
-2.3116250038146973 2.310011386871338 -0.5115411281585693 119
-2.6032397747039795 2.6023306846618652 -0.4472609758377075 119
-2.601687431335449 2.601686954498291 -0.31855472922325134 44
-2.5969583988189697 2.5978646278381348 -0.1898689568042755 44
-2.589022397994995 2.590830087661743 -0.06263289600610733 44
-2.6144163608551025 2.617155075073242 0.9802852272987366 44
-2.6090166568756104 2.612661600112915 0.8429287075996399 44
-2.6034977436065674 2.6080451011657715 0.7082188725471497 44
-2.594512939453125 2.599951982498169 0.5750443935394287 44
-2.5890891551971436 2.5954227447509766 0.4454324245452881 44
-2.6050868034362793 2.6123714447021484 0.3194257915019989 44
-2.600355386734009 2.608536958694458 0.1910262256860733 44
-2.5783369541168213 2.5873522758483887 0.06309044361114502 44
-1.3792022466659546 1.3864424228668213 -0.5137560367584229 119
-1.579720139503479 1.5885673761367798 -0.5083897113800049 119
-1.8782702684402466 1.8894490003585815 -0.5099561214447021 119
-2.3035473823547363 2.318066358566284 -0.5115411281585693 119
-2.5836474895477295 2.600839614868164 -0.44543296098709106 119
-2.5785510540008545 2.5966153144836426 -0.31681162118911743 44
-2.573803186416626 2.5927393436431885 -0.18882571160793304 44
-2.5693986415863037 2.589205741882324 -0.06237372010946274 44
-2.5916588306427 2.6125495433807373 0.9751121997833252 44
-2.586158514022827 2.607914924621582 0.8384330868721008 44
-2.5771002769470215 2.5996880531311035 0.7034529447555542 44
-2.571516513824463 2.594960927963257 0.5719191431999207 44
-2.5660431385040283 2.590341806411743 0.4429950416088104 44
-2.581932783126831 2.6072916984558105 0.317682683467865 44
-2.5771827697753906 2.6034038066864014 0.18997950851917267 44
-2.5552191734313965 2.582127571105957 0.06274139881134033 44
-1.3743542432785034 1.391248345375061 -0.5137560367584229 119
-1.5741653442382812 1.5940721035003662 -0.5083897113800049 119
-1.8716634511947632 1.8959938287734985 -0.5099561214447021 119
-2.2954418659210205 2.3260931968688965 -0.5115411281585693 119
-2.560612201690674 2.595710515975952 -0.4429955780506134 119
-2.5554816722869873 2.591414213180542 -0.3150685131549835 44
-2.550715684890747 2.587484121322632 -0.18778248131275177 44
-2.546308994293213 2.5839157104492188 -0.06202816218137741 44
-2.568965435028076 2.6078171730041504 0.9699391722679138 44
-2.5633652210235596 2.6030406951904297 0.833937406539917 44
-2.554236650466919 2.5946764945983887 0.6996402144432068 44
-2.548586845397949 2.589841365814209 0.5687938928604126 44
-2.543064594268799 2.585131883621216 0.44055765867233276 44
-2.5588462352752686 2.6020827293395996 0.3159395754337311 44
-2.5540783405303955 2.5981411933898926 0.18893279135227203 44
-2.5321788787841797 2.576763391494751 0.06239234656095505 44
-1.3694895505905151 1.396037220954895 -0.5137560367584229 119
-1.568591594696045 1.5995572805404663 -0.5083897113800049 119
-1.8615977764129639 1.8990106582641602 -0.5090028643608093 119
-2.290764808654785 2.337618589401245 -0.512323260307312 119
-2.537644624710083 2.5904524326324463 -0.44055816531181335 119
-2.532480478286743 2.58608341217041 -0.3133253753185272 44
-2.5276966094970703 2.582099437713623 -0.1867392510175705 44
-2.523287773132324 2.578495979309082 -0.061682600528001785 44
