# .PCD v0.7 - Point Cloud Data file format
VERSION 0.7
FIELDS x y z intensity
SIZE 4 4 4 4
TYPE F F F F
COUNT 1 1 1 1
WIDTH 761
HEIGHT 1
VIEWPOINT 0 0 0 1 0 0 0
POINTS 761
DATA ascii
-3.39837384223938 -0.7372384667396545 0.4222772419452667 40
-3.4059903621673584 -0.7382683157920837 0.30155888199806213 40
-3.399712324142456 -0.7362863421440125 0.1802973598241806 40
-3.3892838954925537 -0.7334085702896118 0.05986174941062927 40
-1.8975712060928345 -0.4088830351829529 -0.5098737478256226 119
-2.1710920333862305 -0.46742403507232666 -0.5038906931877136 119
-2.5518274307250977 -0.5489282011985779 -0.4994710087776184 119
-3.204683780670166 -0.6887801289558411 -0.5131054520606995 119
-3.4144670963287354 -0.7332452535629272 -0.42410579323768616 0
-3.388047933578491 -0.7269532680511475 -0.29981622099876404 40
-3.3866307735443115 -0.7260309457778931 -0.17891496419906616 40
-3.3810460567474365 -0.7242164611816406 -0.05909089371562004 40
-3.4001107215881348 -0.7276794910430908 0.9207956194877625 40
-3.405792236328125 -0.728273868560791 0.794600784778595 40
-3.3829870223999023 -0.7227798700332642 0.6643722653388977 40
-3.394090414047241 -0.7245327234268188 0.5430106520652771 40
-3.39607310295105 -0.7243362069129944 0.4216679334640503 40
-3.403674602508545 -0.725336492061615 0.30112308263778687 40
-3.3973779678344727 -0.7233747839927673 0.18003568053245544 40
-3.3869335651397705 -0.7205330729484558 0.0597744882106781 40
-1.8942620754241943 -0.4012559652328491 -0.5085796117782593 119
-2.1679439544677734 -0.45883387327194214 -0.5027658939361572 119
-2.553727865219116 -0.5400173664093018 -0.4994710087776184 119
-3.2022366523742676 -0.6765686273574829 -0.512323260307312 119
-3.407294273376465 -0.7192720174789429 -0.4228871166706085 0
-3.3856911659240723 -0.7140944600105286 -0.29938045144081116 40
-3.384258508682251 -0.713175356388092 -0.17865416407585144 40
-3.3786613941192627 -0.7113800644874573 -0.05900450423359871 40
-3.3979036808013916 -0.714812159538269 0.919502317905426 40
-3.403546094894409 -0.7153788208961487 0.7934768795967102 40
-3.380685806274414 -0.7099578380584717 0.6634190678596497 40
-3.391765594482422 -0.7116666436195374 0.542229413986206 40
-3.388866424560547 -0.7104407548904419 0.4204491972923279 40
-3.401310682296753 -0.7124298810958862 0.300687313079834 40
-3.3901078701019287 -0.7094658017158508 0.17951232194900513 40
-3.37964129447937 -0.706659734249115 0.05959996581077576 40
-1.89565110206604 -0.39464130997657776 -0.5085796117782593 119
-2.169532299041748 -0.45126354694366455 -0.5027658939361572 119
-2.5555973052978516 -0.5310998558998108 -0.4994710087776184 119
-3.1997435092926025 -0.6643826961517334 -0.5115411281585693 119
-3.4049248695373535 -0.7063658833503723 -0.4222777485847473 0
-3.3832857608795166 -0.7012608647346497 -0.2989446520805359 40
-3.381837844848633 -0.7003452181816101 -0.17839334905147552 40
-3.3762283325195312 -0.6985689997673035 -0.05891811475157738 40
-3.39564847946167 -0.7019692063331604 0.9182090759277344 40
-3.4012510776519775 -0.7025083303451538 0.7923529744148254 40
-3.3783364295959473 -0.6971607208251953 0.6624658703804016 40
-3.389392375946045 -0.6988255381584167 0.5414480566978455 40
-3.386465072631836 -0.6976058483123779 0.41983985900878906 40
-3.394019365310669 -0.6985445618629456 0.29981574416160583 40
-3.3876729011535645 -0.6966220140457153 0.17925064265727997 40
-3.377190351486206 -0.6938521265983582 0.059512700885534286 40
-1.897017002105713 -0.388021856546402 -0.5085796117782593 119
-2.1663215160369873 -0.44271230697631836 -0.5016411542892456 119
-2.5574357509613037 -0.5221759676933289 -0.4994710087776184 119
-3.19720458984375 -0.6522223353385925 -0.5107589364051819 119
-3.4025070667266846 -0.6934850215911865 -0.4216684103012085 0
-3.3808321952819824 -0.6884528398513794 -0.298508882522583 40
-3.379369020462036 -0.6875406503677368 -0.1781325489282608 40
-3.3786463737487793 -0.6867794990539551 -0.05891811475157738 40
-3.3933446407318115 -0.6891505718231201 0.9169158339500427 40
-3.3989078998565674 -0.6896626949310303 0.7912290692329407 40
-3.375938653945923 -0.6843886375427246 0.6615126729011536 40
-3.3869707584381104 -0.6860097050666809 0.5406667590141296 40
-3.3840153217315674 -0.6847963333129883 0.41923052072525024 40
-3.391554832458496 -0.6857059001922607 0.29937997460365295 40
-3.3851892948150635 -0.683803915977478 0.1789889633655548 40
-3.3746914863586426 -0.6810703277587891 0.059425439685583115 40
-1.898360013961792 -0.38139766454696655 -0.5085796117782593 119
-2.167853593826294 -0.4351477324962616 -0.5016411542892456 119
-2.5592429637908936 -0.5132456421852112 -0.4994710087776184 119
-3.1946194171905518 -0.6400878429412842 -0.5099768042564392 119
-3.400040864944458 -0.6806297302246094 -0.4210590422153473 0
-3.378330707550049 -0.6756705045700073 -0.29807308316230774 40
-3.376852035522461 -0.6747618317604065 -0.1778717339038849 40
-3.3761205673217773 -0.6740029454231262 -0.058831725269556046 40
-3.390993118286133 -0.6763566732406616 0.9156225919723511 40
-3.3917384147644043 -0.675889790058136 0.7889812588691711 40
-3.3734934329986572 -0.6716418862342834 0.6605594754219055 40
-3.3845009803771973 -0.6732193231582642 0.5398854613304138 40
-3.3815176486968994 -0.6720123887062073 0.4186211824417114 40
-3.3890421390533447 -0.6728928685188293 0.2989441752433777 40
-3.3826582431793213 -0.671011745929718 0.17872728407382965 40
-3.3721442222595215 -0.6683143973350525 0.05933817848563194 40
-1.8996797800064087 -0.37476882338523865 -0.5085796117782593 119
-2.1693594455718994 -0.4275778532028198 -0.5016411542892456 119
-2.561018943786621 -0.5043091177940369 -0.4994710087776184 119
-3.1968343257904053 -0.6289326548576355 -0.5099768042564392 119
-3.397526264190674 -0.6678000688552856 -0.42044970393180847 0
-3.3757810592651367 -0.6629140377044678 -0.29763731360435486 40
-3.3742871284484863 -0.662009060382843 -0.17761093378067017 40
-3.373546838760376 -0.6612523794174194 -0.058745332062244415 40
-3.3885934352874756 -0.6635875701904297 0.9143292903900146 40
-3.3892955780029297 -0.6631107926368713 0.7878573536872864 40
-3.371000289916992 -0.6589205265045166 0.6596063375473022 40
-3.3819830417633057 -0.660454511642456 0.5391041040420532 40
-3.378971815109253 -0.659254252910614 0.4180118143558502 40
-3.386481523513794 -0.6601058840751648 0.2985084056854248 40
-3.3800785541534424 -0.6582455039024353 0.1784656047821045 40
-3.369549512863159 -0.6555846333503723 0.05925091728568077 40
-1.9057822227478027 -0.36872103810310364 -0.5098737478256226 119
-2.1709117889404297 -0.41962388157844543 -0.5016411542892456 119
-2.562849998474121 -0.494919091463089 -0.4994710087776184 119
-3.199118137359619 -0.6172114610671997 -0.5099768042564392 119
-3.39507794380188 -0.6544037461280823 -0.41984036564826965 0
-3.3732967376708984 -0.6495948433876038 -0.297201544046402 40
-3.3717875480651855 -0.648693859577179 -0.17735011875629425 40
-3.3710386753082275 -0.6479396820068359 -0.05865894630551338 40
-3.3862597942352295 -0.6502524614334106 0.9130361080169678 40
-3.386918544769287 -0.6497660875320435 0.7867334485054016 40
-3.3685717582702637 -0.645636796951294 0.6586531400680542 40
-3.379530668258667 -0.6471257209777832 0.5383228063583374 40
-3.3764913082122803 -0.6459328532218933 0.4174024760723114 40
-3.3839855194091797 -0.646754264831543 0.2980726361274719 40
-3.377563953399658 -0.6449160575866699 0.17820392549037933 40
-3.367018938064575 -0.6422935128211975 0.0591636523604393 40
-1.907057762145996 -0.362066388130188 -0.5098737478256226 119
-2.172363519668579 -0.41204342246055603 -0.5016411542892456 119
-2.5645620822906494 -0.48597005009651184 -0.4994710087776184 119
-3.2012531757354736 -0.6060406565666199 -0.5099768042564392 119
-3.392465353012085 -0.6416264772415161 -0.41923099756240845 0
-3.365755081176758 -0.6359662413597107 -0.29632997512817383 40
-3.3691248893737793 -0.635994017124176 -0.17708931863307953 40
-3.3683669567108154 -0.6352421045303345 -0.05857255309820175 40
-3.3837625980377197 -0.637533962726593 0.9117428064346313 40
-3.384377956390381 -0.6370382905006409 0.7856095433235168 40
-3.365981340408325 -0.6329672336578369 0.6576998829841614 40
-3.376915454864502 -0.6344131827354431 0.5375415086746216 40
-3.373847723007202 -0.6332272291183472 0.4167931377887726 40
-3.381326913833618 -0.6340200901031494 0.29763686656951904 40
-3.374886989593506 -0.6322028040885925 0.17794224619865417 40
-3.369241714477539 -0.6305299401283264 0.0591636523604393 40
-1.9083099365234375 -0.3554072976112366 -0.5098737478256226 119
-2.173788547515869 -0.4044579565525055 -0.5016411542892456 119
-2.571068525314331 -0.47791212797164917 -0.5004242062568665 119
-3.2033491134643555 -0.5948625206947327 -0.5099768042564392 119
-3.3898050785064697 -0.6288754343986511 -0.41862165927886963 0
-3.3630571365356445 -0.6233059763908386 -0.29589420557022095 40
-3.3664145469665527 -0.6233205795288086 -0.1768285036087036 40
-3.365648031234741 -0.6225711703300476 -0.05848616361618042 40
-3.3812177181243896 -0.6248409152030945 0.9104495644569397 40
-3.3817899227142334 -0.6243362426757812 0.7844856381416321 40
-3.3633434772491455 -0.620323657989502 0.6567467451095581 40
-3.3742525577545166 -0.6217267513275146 0.5367602109909058 40
-3.371156930923462 -0.6205480694770813 0.41618379950523376 40
-3.3786208629608154 -0.6213123202323914 0.2972010672092438 40
-3.372162342071533 -0.6195161938667297 0.17768056690692902 40
-3.366503953933716 -0.6178693175315857 0.05907639488577843 40
-1.909538984298706 -0.34874385595321655 -0.5098737478256226 119
-2.175187110900879 -0.396867573261261 -0.5016411542892456 119
-2.572721004486084 -0.4689345061779022 -0.5004242062568665 119
-3.2054059505462646 -0.5836771130561829 -0.5099768042564392 119
-3.387096881866455 -0.6161507368087769 -0.4180122911930084 0
-3.360311508178711 -0.6106723546981812 -0.2954584062099457 40
-3.363657236099243 -0.6106739044189453 -0.1765677034854889 40
-3.362881660461426 -0.6099268198013306 -0.05839977413415909 40
-3.3786258697509766 -0.612173318862915 0.909156322479248 40
-3.3791544437408447 -0.6116600036621094 0.7833617329597473 40
-3.3606581687927246 -0.6077062487602234 0.6557935476303101 40
-3.366682529449463 -0.6081888675689697 0.5351975560188293 40
-3.3684186935424805 -0.6078953742980957 0.41557443141937256 40
-3.3758668899536133 -0.6086311936378479 0.2967652976512909 40
-3.369389772415161 -0.6068562865257263 0.17741888761520386 40
-3.363719940185547 -0.6052289605140686 0.05898912996053696 40
-1.9107446670532227 -0.34207621216773987 -0.5098737478256226 119
-2.181354522705078 -0.3901299834251404 -0.5027658939361572 119
-2.5743422508239746 -0.45995116233825684 -0.5004242062568665 119
-3.202562093734741 -0.5716168880462646 -0.5091946125030518 119
-3.3843417167663574 -0.6034526824951172 -0.417402982711792 0
-3.3575189113616943 -0.5980654358863831 -0.2950226366519928 40
-3.3608522415161133 -0.5980539917945862 -0.17630688846111298 40
-3.3600680828094482 -0.5973095297813416 -0.058313384652137756 40
-3.3759870529174805 -0.5995315313339233 0.9078630805015564 40
-3.376471757888794 -0.5990098118782043 0.7822378277778625 40
-3.357926368713379 -0.5951151847839355 0.654840350151062 40
-3.363921880722046 -0.5955722332000732 0.5344162583351135 40
-3.365633249282837 -0.5952693819999695 0.41496509313583374 40
-3.373065710067749 -0.5959768295288086 0.296329528093338 40
-3.3665707111358643 -0.5942233800888062 0.1771572083234787 40
-3.3559653759002686 -0.5917474627494812 0.058814603835344315 40
-1.9166841506958008 -0.33623889088630676 -0.5111678242683411 119
-2.187502145767212 -0.3833542466163635 -0.5038906931877136 119
-2.5710971355438232 -0.450115829706192 -0.4994710087776184 119
-3.1996734142303467 -0.5595836043357849 -0.5084124207496643 119
-3.3815383911132812 -0.5907813310623169 -0.4167936146259308 0
-3.3546793460845947 -0.5854855179786682 -0.2945868670940399 40
-3.362919330596924 -0.5863187909126282 -0.17630688846111298 40
-3.3572075366973877 -0.5847192406654358 -0.058226991444826126 40
-3.373300552368164 -0.5869155526161194 0.90656977891922 40
-3.37374210357666 -0.5863857269287109 0.7811139225959778 40
-3.355147123336792 -0.5825504660606384 0.653887152671814 40
-3.361114501953125 -0.5829823017120361 0.5336349606513977 40
-3.3676905632019043 -0.5835174918174744 0.41496509313583374 40
-3.370217800140381 -0.5833495259284973 0.29589375853538513 40
-3.363704204559326 -0.5816174745559692 0.17689552903175354 40
-3.3530845642089844 -0.579178512096405 0.05872734636068344 40
-1.9178462028503418 -0.32954636216163635 -0.5111678242683411 119
-2.1936283111572266 -0.37654030323028564 -0.5050153732299805 119
-2.572652578353882 -0.44113826751708984 -0.4994710087776184 119
-3.196739435195923 -0.547577440738678 -0.5076302289962769 119
-3.378688335418701 -0.5781369805335999 -0.41618427634239197 0
-3.351792812347412 -0.5729326605796814 -0.29415109753608704 40
-3.3600237369537354 -0.5737360715866089 -0.17604607343673706 40
-3.3543004989624023 -0.5721562504768372 -0.05814060568809509 40
-3.370567798614502 -0.574325680732727 0.9052765965461731 40
-3.3709654808044434 -0.573788046836853 0.7799900770187378 40
-3.3523213863372803 -0.5700125694274902 0.6529340147972107 40
-3.353391408920288 -0.569592297077179 0.5320723652839661 40
-3.364814043045044 -0.5709282755851746 0.4143557548522949 40
-3.3673226833343506 -0.5707492828369141 0.29545795917510986 40
-3.3657140731811523 -0.5698723793029785 0.17689552903175354 40
-3.3452272415161133 -0.5658031105995178 0.0585528202354908 40
-1.9189848899841309 -0.322849839925766 -0.5111678242683411 119
-2.1997339725494385 -0.3696882724761963 -0.5061401724815369 119
-2.569336414337158 -0.431342750787735 -0.49851784110069275 119
-3.1937613487243652 -0.535598635673523 -0.5068480968475342 119
-3.380686044692993 -0.5663396716117859 -0.41618427634239197 0
-3.3488595485687256 -0.5604071617126465 -0.29371529817581177 40
-3.3570806980133057 -0.5611805319786072 -0.17578525841236115 40
-3.351346015930176 -0.5596206784248352 -0.05805421248078346 40
-3.3677878379821777 -0.5617620348930359 0.9039832949638367 40
-3.3681421279907227 -0.5612169504165649 0.7788661122322083 40
-3.3494486808776855 -0.5575013160705566 0.6519807577133179 40
-3.350487470626831 -0.5570732951164246 0.5312910079956055 40
-3.361891031265259 -0.5583663582801819 0.4137464165687561 40
-3.3692944049835205 -0.5589916706085205 0.29545795917510986 40
-3.3627569675445557 -0.5573040246963501 0.17663384974002838 40
-3.342249631881714 -0.5533060431480408 0.05846555903553963 40
-1.9153345823287964 -0.3153647184371948 -0.5098737478256226 119
-2.1962034702301025 -0.36121684312820435 -0.5050153732299805 119
-2.570826530456543 -0.4223714768886566 -0.49851784110069275 119
-3.1907379627227783 -0.5236473083496094 -0.5060659050941467 119
-3.3777449131011963 -0.5537325739860535 -0.41557490825653076 0
-3.3458800315856934 -0.5479090809822083 -0.2932795286178589 40
-3.3540916442871094 -0.548652708530426 -0.17552445828914642 40
-3.3532791137695312 -0.5479188561439514 -0.05805421248078346 40
-3.3649613857269287 -0.549224853515625 0.902690052986145 40
-3.365272045135498 -0.5486725568771362 0.7777422666549683 40
-3.346529960632324 -0.5450172424316406 0.6510276198387146 40
-3.347537040710449 -0.5445815324783325 0.5305097103118896 40
-3.3589208126068115 -0.5458317399024963 0.4131370484828949 40
-3.3663084506988525 -0.5464292168617249 0.295022189617157 40
-3.359752893447876 -0.5447632074356079 0.17637217044830322 40
-3.3392257690429688 -0.540836751461029 0.058378297835588455 40
-1.9164237976074219 -0.3086770176887512 -0.5098737478256226 119
-2.197451114654541 -0.35354843735694885 -0.5050153732299805 119
-2.581977367401123 -0.41495266556739807 -0.5004242062568665 119
-3.1925463676452637 -0.512506365776062 -0.5060659050941467 119
-3.3747570514678955 -0.5411528944969177 -0.41496556997299194 0
-3.3428540229797363 -0.5354386568069458 -0.2928437292575836 40
-3.35105562210083 -0.5361525416374207 -0.1752636432647705 40
-3.3502347469329834 -0.5354214310646057 -0.05796782299876213 40
-3.362088680267334 -0.5367141366004944 0.9013968110084534 40
-3.3623554706573486 -0.5361549854278564 0.7766183018684387 40
-3.343564987182617 -0.5325602889060974 0.6500744223594666 40
-3.3445403575897217 -0.5321171283721924 0.5297284126281738 40
-3.3559045791625977 -0.533324658870697 0.4125277101993561 40
-3.3632760047912598 -0.5338943600654602 0.2945864200592041 40
-3.361633777618408 -0.5330321788787842 0.17637217044830322 40
-3.336155652999878 -0.528395414352417 0.058291032910346985 40
-1.9174895286560059 -0.30198556184768677 -0.5098737478256226 119
-2.193859338760376 -0.3451187014579773 -0.5038906931877136 119
-2.588258981704712 -0.4066992402076721 -0.5013774037361145 119
-3.1894373893737793 -0.5005934238433838 -0.505283772945404 119
-3.37172269821167 -0.528600811958313 -0.4143562316894531 0
-3.3447024822235107 -0.5237666964530945 -0.2928437292575836 40
-3.3479738235473633 -0.5236803293228149 -0.1750028431415558 40
-3.3471436500549316 -0.5229520201683044 -0.0578814335167408 40
-3.3591697216033936 -0.5242303013801575 0.9001035690307617 40
-3.3593924045562744 -0.5236644744873047 0.775494396686554 40
-3.3454036712646484 -0.5208858251571655 0.6500744223594666 40
-3.3414976596832275 -0.519680380821228 0.528947114944458 40
-3.352841854095459 -0.520845353603363 0.4119183421134949 40
-3.360197067260742 -0.5213872790336609 0.2941506505012512 40
-3.3585400581359863 -0.5205299258232117 0.17611049115657806 40
-3.3330395221710205 -0.5159820318222046 0.05820377543568611 40
-1.9233053922653198 -0.2960251569747925 -0.5111678242683411 119
-2.1950507164001465 -0.33745861053466797 -0.5038906931877136 119
-2.5945141315460205 -0.39840707182884216 -0.5023306012153625 119
-3.1911652088165283 -0.48945721983909607 -0.505283772945404 119
-3.3686418533325195 -0.5160766243934631 -0.4137468934059143 0
-3.3415868282318115 -0.5113348960876465 -0.29240795969963074 40
-3.3448455333709717 -0.5112360715866089 -0.17474202811717987 40
-3.3440067768096924 -0.5105106234550476 -0.05779504403471947 40
-3.3562042713165283 -0.5117733478546143 0.8988102674484253 40
-3.3563835620880127 -0.5112012624740601 0.7743704915046692 40
-3.342349052429199 -0.5084668397903442 0.6491212248802185 40
-3.3432915210723877 -0.5080131888389587 0.528947114944458 40
-3.3546395301818848 -0.5091385841369629 0.4119183421134949 40
-3.3619964122772217 -0.5096548795700073 0.2941506505012512 40
-3.3553996086120605 -0.5080557465553284 0.1758487969636917 40
-3.33482027053833 -0.5043443441390991 0.05820377543568611 40
-1.92432701587677 -0.2893097698688507 -0.5111678242683411 119
-2.191397190093994 -0.32907089591026306 -0.5027658939361572 119
-2.600743055343628 -0.3900761306285858 -0.5032837390899658 119
-3.192854404449463 -0.47831499576568604 -0.505283772945404 119
-3.3704230785369873 -0.5043147206306458 -0.4137468934059143 0
-3.3384249210357666 -0.4989311695098877 -0.29197219014167786 40
-3.3416712284088135 -0.49882009625434875 -0.17448122799396515 40
-3.3408236503601074 -0.4980975091457367 -0.05770865082740784 40
-3.3531932830810547 -0.49934354424476624 0.8975170850753784 40
-3.3533284664154053 -0.49876537919044495 0.7732465863227844 40
-3.3392484188079834 -0.49607548117637634 0.6481680274009705 40
-3.3401589393615723 -0.4956149458885193 0.5281657576560974 40
-3.351487398147583 -0.4966980218887329 0.41130903363227844 40
-3.358827590942383 -0.4971868395805359 0.29371485114097595 40
-3.352213144302368 -0.495609849691391 0.17558713257312775 40
-3.3316147327423096 -0.4919703006744385 0.05811651051044464 40
-1.9253251552581787 -0.2825908660888672 -0.5111678242683411 119
-2.192532539367676 -0.32141947746276855 -0.5027658939361572 119
-2.6118016242980957 -0.38241758942604065 -0.5051901340484619 119
-3.1993908882141113 -0.46788153052330017 -0.5060659050941467 119
-3.3672518730163574 -0.49182939529418945 -0.4131375253200531 0
-3.3352174758911133 -0.4865558445453644 -0.291536420583725 40
-3.3384511470794678 -0.4864325225353241 -0.17422041296958923 40
-3.337594985961914 -0.4857128858566284 -0.057622265070676804 40
-3.3501360416412354 -0.4869408905506134 0.896223783493042 40
-3.355048894882202 -0.487057089805603 0.7732465863227844 40
-3.3361024856567383 -0.4837120473384857 0.6472148895263672 40
-3.3369812965393066 -0.4832448661327362 0.5273844599723816 40
-3.3482887744903564 -0.48428574204444885 0.41069966554641724 40
-3.3556129932403564 -0.48474714159965515 0.29327908158302307 40
-3.348980665206909 -0.4831923842430115 0.1753254383802414 40
-3.3283634185791016 -0.4796247184276581 0.05802924558520317 40
-1.9215189218521118 -0.2751837968826294 -0.5098737478256226 119
-2.193641185760498 -0.31376415491104126 -0.5027658939361572 119
-2.6179800033569336 -0.37399253249168396 -0.50614333152771 119
-3.2010045051574707 -0.45671066641807556 -0.5060659050941467 119
-3.364035129547119 -0.47937238216400146 -0.4125281870365143 0
-3.3319642543792725 -0.4742089509963989 -0.2911006212234497 40
-3.3351852893829346 -0.47407349944114685 -0.1739596128463745 40
-3.334320306777954 -0.47335687279701233 -0.05753587186336517 40
-3.3518152236938477 -0.4752437472343445 0.896223783493042 40
-3.35190486907959 -0.47465968132019043 0.7721226811408997 40
-3.3329102993011475 -0.47137653827667236 0.6462616324424744 40
-3.3337574005126953 -0.4709028899669647 0.5266031622886658 40
-3.3450448513031006 -0.4719018042087555 0.4100903272628784 40
-3.3572847843170166 -0.4730309545993805 0.29327908158302307 40
-3.345702648162842 -0.47080355882644653 0.17506377398967743 40
-3.3250668048858643 -0.4673078954219818 0.057941984385252 40
-1.922467827796936 -0.2684747874736786 -0.5098737478256226 119
-2.194723129272461 -0.30610501766204834 -0.5027658939361572 119
-2.619269371032715 -0.36485180258750916 -0.50614333152771 119
-3.2074708938598633 -0.44621479511260986 -0.5068480968475342 119
-3.3607723712921143 -0.4669438302516937 -0.41191884875297546 0
-3.3286657333374023 -0.4618907868862152 -0.2906648516654968 40
-3.331873655319214 -0.46174320578575134 -0.1736987978219986 40
-3.3359522819519043 -0.46171504259109497 -0.05753587186336517 40
-3.3486695289611816 -0.4628795385360718 0.8949306011199951 40
-3.353541135787964 -0.4629564583301544 0.7721226811408997 40
-3.3296732902526855 -0.4590693414211273 0.6453084945678711 40
-3.335381031036377 -0.45926299691200256 0.5266031622886658 40
-3.3417553901672363 -0.4595464766025543 0.4094809591770172 40
-3.353980779647827 -0.46063119173049927 0.2928432822227478 40
-3.342378854751587 -0.4584434926509857 0.17480207979679108 40
-3.3217248916625977 -0.45501992106437683 0.05785472318530083 40
-1.9186078310012817 -0.26111117005348206 -0.5085796117782593 119
-2.1957781314849854 -0.29844212532043457 -0.5027658939361572 119
-2.6205270290374756 -0.3557066321372986 -0.50614333152771 119
-3.2090086936950684 -0.4350159466266632 -0.5068480968475342 119
-3.357464075088501 -0.45454391837120056 -0.41130951046943665 0
-3.3302576541900635 -0.4502687454223633 -0.2906648516654968 40
-3.328516721725464 -0.4494418203830719 -0.17343798279762268 40
-3.3325893878936768 -0.449399471282959 -0.05744947865605354 40
-3.3454782962799072 -0.450543075799942 0.8936372995376587 40
-3.3503081798553467 -0.45059821009635925 0.7709987759590149 40
-3.326390504837036 -0.44679033756256104 0.644355297088623 40
-3.332069158554077 -0.44696104526519775 0.52582186460495 40
-3.3384203910827637 -0.4472198486328125 0.4088716506958008 40
-3.3506314754486084 -0.4482603967189789 0.2924075126647949 40
-3.3390097618103027 -0.44611239433288574 0.1745404154062271 40
-3.3183376789093018 -0.44276103377342224 0.057767461985349655 40
-1.9195075035095215 -0.2544124126434326 -0.5085796117782593 119
-2.1919772624969482 -0.2901363670825958 -0.5016411542892456 119
-2.612020969390869 -0.34527069330215454 -0.5042369961738586 119
-3.210507869720459 -0.42381173372268677 -0.5068480968475342 119
-3.3541100025177 -0.44217273592948914 -0.41070014238357544 0
-3.3268706798553467 -0.43799108266830444 -0.29022908210754395 40
-3.3251149654388428 -0.43716952204704285 -0.17317718267440796 40
-3.32918119430542 -0.43711304664611816 -0.05736309289932251 40
-3.3422415256500244 -0.43823444843292236 0.8923439979553223 40
-3.351860523223877 -0.4389006793498993 0.7709987759590149 40
-3.323063373565674 -0.4345399737358093 0.643402099609375 40
-3.333609104156494 -0.4353272020816803 0.52582186460495 40
-3.3350398540496826 -0.43492206931114197 0.4082622826099396 40
-3.352175712585449 -0.4365617334842682 0.2924075126647949 50
-3.335594892501831 -0.43381038308143616 0.17427872121334076 40
-3.3198630809783936 -0.431175172328949 0.057767461985349655 40
-1.9251737594604492 -0.24832840263843536 -0.5098737478256226 119
-2.1881444454193115 -0.28186073899269104 -0.5005163550376892 119
-2.608341932296753 -0.33552470803260803 -0.5032837390899658 119
-3.2168655395507812 -0.41323158144950867 -0.5076302289962769 119
-3.350710868835449 -0.4298306107521057 -0.4100908041000366 0
-3.3234386444091797 -0.4257425367832184 -0.2897932827472687 40
-3.3216676712036133 -0.42492640018463135 -0.17291636765003204 40
-3.330686569213867 -0.4254893958568573 -0.05736309289932251 40
-3.3389599323272705 -0.42595404386520386 0.8910508155822754 40
-3.348539352416992 -0.4265821576118469 0.7698748707771301 40
-3.3245599269866943 -0.42293766140937805 0.643402099609375 40
-3.3400073051452637 -0.42431047558784485 0.5266031622886658 40
-3.3365375995635986 -0.42327794432640076 0.4082622826099396 40
-3.3487372398376465 -0.42423179745674133 0.29197174310684204 50
-3.3370888233184814 -0.42216435074806213 0.17427872121334076 40
-3.321347713470459 -0.4195840358734131 0.057767461985349655 40
-1.9260289669036865 -0.24160675704479218 -0.5098737478256226 119
-2.18428111076355 -0.27361544966697693 -0.4993916451931 119
-2.5997564792633057 -0.3251993954181671 -0.5013774037361145 119
-3.213388204574585 -0.401388019323349 -0.5068480968475342 119
-3.3521907329559326 -0.41813182830810547 -0.4100908041000366 0
-3.3298473358154297 -0.41475462913513184 -0.29022908210754395 50
-3.3231306076049805 -0.41332903504371643 -0.17291636765003204 40
-3.327190399169922 -0.4132443368434906 -0.05727669969201088 50
-3.345219612121582 -0.41489073634147644 0.8923439979553223 40
-3.350008249282837 -0.41489097476005554 0.7698748707771301 50
-3.3260159492492676 -0.4113301932811737 0.643402099609375 40
-3.336566925048828 -0.41204383969306946 0.52582186460495 40
-3.328144073486328 -0.4104139506816864 0.40704357624053955 40
-3.3551416397094727 -0.4131487011909485 0.2924075126647949 50
-3.3385419845581055 -0.41051313281059265 0.17427872121334076 50
-3.312868356704712 -0.4067693054676056 0.05759293958544731 40
-1.9316548109054565 -0.2354665994644165 -0.5111678242683411 119
-2.185222864151001 -0.2659892141819 -0.4993916451931 119
-2.5911309719085693 -0.31493812799453735 -0.4994710087776184 119
-3.2049648761749268 -0.3889787495136261 -0.505283772945404 119
-3.363483190536499 -0.4076220989227295 -0.41130951046943665 0
-3.3411645889282227 -0.40432557463645935 -0.2911006212234497 50
-3.3295106887817383 -0.40232568979263306 -0.17317718267440796 50
-3.3385391235351562 -0.4028254747390747 -0.05744947865605354 50
-3.337057113647461 -0.4020557403564453 0.889757513999939 40
-3.3465983867645264 -0.4026127755641937 0.7687509655952454 50
-3.3420512676239014 -0.4014739692211151 0.6462616324424744 50
-3.362501859664917 -0.4033353626728058 0.5297284126281738 50
-3.334484100341797 -0.3993842601776123 0.40765294432640076 50
-3.3714003562927246 -0.40320903062820435 0.29371485114097595 50
-3.3399548530578613 -0.3988569378852844 0.17427872121334076 50
-3.3490166664123535 -0.3993462920188904 0.05820377543568611 50
-1.9324649572372437 -0.22872242331504822 -0.5111678242683411 119
-2.1909759044647217 -0.2589314877986908 -0.5005163550376892 119
-2.592214345932007 -0.3058914840221405 -0.4994710087776184 119
-3.2013983726501465 -0.3772110641002655 -0.5045015811920166 119
-3.369814395904541 -0.3964587152004242 -0.41191884875297546 0
-3.3969719409942627 -0.3990527391433716 -0.29589420557022095 50
-3.360649824142456 -0.3941912353038788 -0.17474202811717987 50
-3.3746821880340576 -0.39524006843566895 -0.05805421248078346 50
-3.3672232627868652 -0.3937707841396332 0.8975170850753784 50
-3.3721795082092285 -0.3937537670135498 0.7743704915046692 50
-3.3726837635040283 -0.39321598410606384 0.6519807577133179 50
-3.4227545261383057 -0.3984481692314148 0.5391041040420532 50
-3.3555757999420166 -0.3900342285633087 0.4100903272628784 50
-3.392578363418579 -0.3937350809574127 0.29545795917510986 50
-3.366126775741577 -0.39006975293159485 0.17558713257312775 50
-3.4000511169433594 -0.39339956641197205 0.05907639488577843 50
-1.9332516193389893 -0.22197547554969788 -0.5111678242683411 119
-2.196706771850586 -0.251836895942688 -0.5016411542892456 119
-2.593266487121582 -0.2968411147594452 -0.4994710087776184 119
-3.197789192199707 -0.36547306180000305 -0.5037193894386292 119
-3.3909006118774414 -0.386944055557251 -0.4143562316894531 119
-3.4329872131347656 -0.3911396861076355 -0.2989446520805359 50
-3.391772508621216 -0.38584423065185547 -0.17630688846111298 50
-3.4008777141571045 -0.38627883791923523 -0.05848616361618042 50
-3.426166534423828 -0.3885454833507538 0.9130361080169678 50
-3.407421112060547 -0.3858173191547394 0.7822378277778625 50
-3.417931079864502 -0.3864031434059143 0.6605594754219055 50
-3.4584765434265137 -0.3903755843639374 0.5445733070373535 50
-3.396368980407715 -0.38276487588882446 0.41496509313583374 50
-3.4285802841186523 -0.38578903675079346 0.2985084056854248 50
-3.422048568725586 -0.3844492733478546 0.1784656047821045 50
-3.4361801147460938 -0.38542959094047546 0.05968722328543663 50
-1.9340146780014038 -0.21522581577301025 -0.5111678242683411 119
-2.207256555557251 -0.2452434003353119 -0.5038906931877136 119
-2.5942866802215576 -0.2877871096134186 -0.4994710087776184 119
-3.1941370964050293 -0.3537648320198059 -0.5029371976852417 119
-3.4415571689605713 -0.38055968284606934 -0.42044970393180847 0
-3.4739387035369873 -0.38352665305137634 -0.3024308979511261 50
-3.422877550125122 -0.3772847354412079 -0.1778717339038849 50
-3.4419596195220947 -0.3787800371646881 -0.05917728692293167 50
-3.4563074111938477 -0.37974846363067627 0.9207956194877625 50
-3.45717716217041 -0.37923336029052734 0.7934768795967102 50
-3.458292007446289 -0.37874481081962585 0.6681849956512451 50
-3.4990925788879395 -0.3825951814651489 0.5508237481117249 50
-3.432218313217163 -0.3746768832206726 0.41923052072525024 50
-3.474471092224121 -0.37867575883865356 0.3024304211139679 50
-3.463080883026123 -0.3768227696418762 0.18055903911590576 50
-3.4822347164154053 -0.3782919943332672 0.06047258526086807 50
-1.9299522638320923 -0.20795613527297974 -0.5098737478256226 119
-2.2129428386688232 -0.2380582094192505 -0.5050153732299805 119
-2.595275640487671 -0.2787296175956726 -0.4994710087776184 119
-3.1855318546295166 -0.3415600657463074 -0.5013728737831116 119
-3.4823412895202637 -0.37276989221572876 -0.4253244996070862 0
-3.514878511428833 -0.3756323754787445 -0.3059171438217163 50
-3.4589285850524902 -0.3690424859523773 -0.1796974092721939 50
-3.483029842376709 -0.3709990978240967 -0.059868406504392624 50
-3.5008373260498047 -0.3722779452800751 0.9324348568916321 50
-3.4972383975982666 -0.37127798795700073 0.8024681210517883 50
-3.498640775680542 -0.3708093464374542 0.6758104562759399 50
-3.539696216583252 -0.3745359778404236 0.557074248790741 50
-3.472987651824951 -0.3668645918369293 0.42410531640052795 50
-3.520353078842163 -0.37124672532081604 0.306352436542511 50
-3.504100799560547 -0.3689144253730774 0.18265248835086823 50
-3.5183370113372803 -0.3697923421859741 0.06108342111110687 50
-1.930666446685791 -0.20121806859970093 -0.5098737478256226 119
-2.2186062335968018 -0.23083634674549103 -0.5061401724815369 119
-2.5962326526641846 -0.26966869831085205 -0.4994710087776184 119
-3.186704635620117 -0.33043840527534485 -0.5013728737831116 119
-3.5231120586395264 -0.36469992995262146 -0.4301992654800415 0
-3.5508501529693604 -0.36694490909576416 -0.30896756052970886 50
-3.4999306201934814 -0.36106550693511963 -0.18178386986255646 50
-3.5191142559051514 -0.362423837184906 -0.06047314032912254 50
-3.5357468128204346 -0.36351314187049866 0.9414876103401184 50
-3.542132616043091 -0.36354491114616394 0.8125832676887512 50
-3.538975954055786 -0.3625967800617218 0.6834360361099243 50
-3.5802857875823975 -0.3661978840827942 0.5633247494697571 50
-3.5137436389923096 -0.3587721884250641 0.4289800822734833 50
-3.561269998550415 -0.3629968464374542 0.3098386526107788 50
-3.550074338912964 -0.36122965812683105 0.18500758707523346 50
-3.5593955516815186 -0.3615504801273346 0.061781514436006546 50
-1.9313570261001587 -0.19447755813598633 -0.5098737478256226 119
-2.2145509719848633 -0.22260327637195587 -0.5050153732299805 119
-2.597158193588257 -0.26060450077056885 -0.4994710087776184 119
-3.1927525997161865 -0.31980493664741516 -0.502155065536499 119
-3.563868284225464 -0.3563498258590698 -0.4350740313529968 0
-3.5917603969573975 -0.35850560665130615 -0.31245383620262146 50
-3.5409181118011475 -0.3528066873550415 -0.1838703453540802 50
-3.5601556301116943 -0.3540959358215332 -0.061164259910583496 50
-3.575443983078003 -0.35498636960983276 0.9518336057662964 50
-3.5821661949157715 -0.3550224304199219 0.8215745091438293 50
-3.5792958736419678 -0.3541070818901062 0.6910615563392639 50
-3.6208596229553223 -0.35758092999458313 0.5695752501487732 50
-3.5544848442077637 -0.3503996431827545 0.4338548481464386 50
-3.6021716594696045 -0.3544658124446869 0.313324898481369 50
-3.5910675525665283 -0.3527403175830841 0.18710103631019592 50
-3.6004388332366943 -0.3530263602733612 0.06247961148619652 50
-1.9320241212844849 -0.1877346783876419 -0.5098737478256226 119
-2.2153143882751465 -0.21487168967723846 -0.5050153732299805 119
-2.5980520248413086 -0.25153714418411255 -0.4994710087776184 119
-3.1987650394439697 -0.30913323163986206 -0.5029371976852417 119
-3.6046090126037598 -0.34771957993507385 -0.43994882702827454 0
-3.6276960372924805 -0.349307656288147 -0.3155042827129364 50
-3.5868606567382812 -0.3447438180446625 -0.18621762096881866 50
-3.6011810302734375 -0.3454858958721161 -0.06185537949204445 50
-3.615124464035034 -0.3461868166923523 0.9621796607971191 50
-3.622183084487915 -0.3462247848510742 0.8305657505989075 50
-3.619598865509033 -0.3453402817249298 0.6986870169639587 50
-3.6712491512298584 -0.34962156414985657 0.577388346195221 50
-3.605090856552124 -0.342686265707016 0.43994832038879395 50
-3.648015260696411 -0.3461240530014038 0.3172468841075897 50
-3.6320443153381348 -0.34396910667419434 0.1891944855451584 50
-3.6464428901672363 -0.34469059109687805 0.06326497346162796 50
-1.93266761302948 -0.18098951876163483 -0.5098737478256226 119
-2.216050863265991 -0.20713751018047333 -0.5050153732299805 119
-2.59891414642334 -0.2424667328596115 -0.4994710087776184 119
-3.2047417163848877 -0.2984234392642975 -0.5037193894386292 119
-3.6403908729553223 -0.33834996819496155 -0.44421425461769104 119
-3.678489923477173 -0.3412434458732605 -0.3198620676994324 50
-3.6278176307678223 -0.3359040915966034 -0.1883040964603424 50
-3.647167682647705 -0.33705374598503113 -0.06263289600610733 50
-3.66440486907959 -0.33800172805786133 0.9751121997833252 50
-3.662181854248047 -0.33715206384658813 0.8395569920539856 50
-3.664771318435669 -0.33674541115760803 0.7072656750679016 50
-3.6970369815826416 -0.3390595316886902 0.5812948942184448 50
-3.640859842300415 -0.3332666754722595 0.44421374797821045 50
-3.6938443183898926 -0.3374665379524231 0.3211688995361328 50
-3.682948112487793 -0.3358229398727417 0.19181127846240997 50
-3.6974105834960938 -0.3364909589290619 0.06413759291172028 50
-1.9332876205444336 -0.17424213886260986 -0.5098737478256226 119
-2.2167606353759766 -0.19940076768398285 -0.5050153732299805 119
-2.5997447967529297 -0.2333933413028717 -0.4994710087776184 119
-3.2156014442443848 -0.2881164252758026 -0.505283772945404 119
-3.690979480743408 -0.330060750246048 -0.4503077268600464 0
-3.70446515083313 -0.33061498403549194 -0.32204097509384155 50
-3.6787028312683105 -0.32766857743263245 -0.1909121870994568 50
-3.7030975818634033 -0.32919004559516907 -0.06358318030834198 50
-3.713672161102295 -0.32947680354118347 0.9880447387695312 50
-3.7070140838623047 -0.3282340168952942 0.8496721386909485 50
-3.7001492977142334 -0.32697534561157227 0.7139379978179932 50
-3.7080368995666504 -0.3270201086997986 0.5828575491905212 50
-3.691437005996704 -0.3249068558216095 0.4503071904182434 50
-3.7148470878601074 -0.32631394267082214 0.3229120373725891 50
-3.713942289352417 -0.32558128237724304 0.19338135421276093 50
-3.713502883911133 -0.3248896598815918 0.06439937651157379 50
-1.9386956691741943 -0.1679093837738037 -0.5111678242683411 119
-2.2174432277679443 -0.19166162610054016 -0.5050153732299805 119
-2.600543737411499 -0.22431711852550507 -0.4994710087776184 119
-3.226428270339966 -0.27773723006248474 -0.5068480968475342 119
-3.716832160949707 -0.319298654794693 -0.45335447788238525 0
-3.6956710815429688 -0.3168310225009918 -0.3211694061756134 50
-3.704699754714966 -0.31695374846458435 -0.19221623241901398 50
-3.714186191558838 -0.31711235642433167 -0.06375596672296524 50
-3.709987163543701 -0.31610164046287537 0.9867514371871948 50
-3.6984283924102783 -0.31446659564971924 0.847424328327179 50
-3.686596155166626 -0.312812477350235 0.7110784649848938 50
-3.6993138790130615 -0.31324127316474915 0.5812948942184448 50
-3.707383632659912 -0.3132728934288025 0.45213523507118225 50
-3.701073408126831 -0.31208914518356323 0.3216046690940857 50
-3.7051053047180176 -0.31177785992622375 0.1928579956293106 50
-3.694687604904175 -0.3102518320083618 0.06405032426118851 50
-1.93927001953125 -0.1611410528421402 -0.5111678242683411 119
-2.2180986404418945 -0.18392013013362885 -0.5050153732299805 119
-2.6013107299804688 -0.21523815393447876 -0.4994710087776184 119
-3.2372212409973145 -0.26728591322898865 -0.5084124207496643 119
-3.722869873046875 -0.3067300319671631 -0.4539638161659241 119
-3.6917901039123535 -0.30352064967155457 -0.32073360681533813 50
-3.7057833671569824 -0.3040199875831604 -0.19221623241901398 50
-3.7003228664398193 -0.3029218316078186 -0.06349679827690125 50
-3.691812515258789 -0.30157649517059326 0.9815784096717834 50
-3.689791202545166 -0.3007631003856659 0.8451765179634094 50
-3.6925575733184814 -0.30033981800079346 0.7120316624641418 50
-3.690539598464966 -0.2995273470878601 0.5797322392463684 50
-3.698561668395996 -0.2995286285877228 0.4509165287017822 50
-3.6971757411956787 -0.2987669110298157 0.3211688995361328 50
-3.696216583251953 -0.29804009199142456 0.1923346370458603 50
-3.685781478881836 -0.2965512275695801 0.06387580186128616 50
-1.944635033607483 -0.1547538787126541 -0.5124619007110596 119
-2.223583936691284 -0.17656205594539642 -0.5061401724815369 119
-2.597153425216675 -0.20576894283294678 -0.49851784110069275 119
-3.247980833053589 -0.25676265358924866 -0.5099768042564392 119
-3.709075450897217 -0.29256221652030945 -0.45213574171066284 119
-3.687861680984497 -0.2902412712574005 -0.32029783725738525 50
-3.6918883323669434 -0.28990980982780457 -0.19143380224704742 50
-3.691390037536621 -0.28922247886657715 -0.06332401186227798 50
-3.697658061981201 -0.28906428813934326 0.9828717112541199 50
-3.700533390045166 -0.28863921761512756 0.847424328327179 50
-3.688690185546875 -0.2870677709579468 0.7110784649848938 50
-3.7014105319976807 -0.287407785654068 0.5812948942184448 50
-3.694636821746826 -0.286233127117157 0.4503071904182434 50
-3.6981959342956543 -0.28585952520370483 0.3211688995361328 50
-3.7022128105163574 -0.2855199873447418 0.19259630143642426 50
-3.6867942810058594 -0.2836836278438568 0.06387580186128616 50
-1.949979305267334 -0.14833122491836548 -0.5137560367584229 119
-2.2193286418914795 -0.16843052208423615 -0.5050153732299805 119
-2.592961311340332 -0.19633133709430695 -0.4975646436214447 119
-3.248857259750366 -0.24542354047298431 -0.5099768042564392 119
-3.705125570297241 -0.2792403995990753 -0.4515264332294464 119
-3.683885335922241 -0.2769930064678192 -0.3198620676994324 50
-3.69785737991333 -0.27739450335502625 -0.19169461727142334 50
-3.697362184524536 -0.2767084240913391 -0.06341040134429932 50
-3.708277463912964 -0.27687448263168335 0.9854581952095032 50
-3.7209525108337402 -0.27716782689094543 0.851919949054718 50
-3.714143753051758 -0.2760087847709656 0.7158443927764893 50
-3.7220911979675293 -0.2759461998939514 0.5844201445579529 50
-3.705512046813965 -0.2740668058395386 0.45152589678764343 50
-3.728976011276245 -0.27514785528182983 0.3237835764884949 50
-3.7031869888305664 -0.2725951373577118 0.19259630143642426 50
-3.722662925720215 -0.273375540971756 0.06448663771152496 50
-1.9504852294921875 -0.14152361452579498 -0.5137560367584229 119
-2.219902992248535 -0.16068260371685028 -0.5050153732299805 119
-2.5985267162323 -0.1876325160264969 -0.49851784110069275 119
-3.239842653274536 -0.2333717942237854 -0.5084124207496643 119
-3.7258777618408203 -0.26772812008857727 -0.4539638161659241 119
-3.74444842338562 -0.2684056758880615 -0.3250914216041565 50
-3.7037830352783203 -0.2648409903049469 -0.19195541739463806 50
-3.743184804916382 -0.26700177788734436 -0.0641879141330719 50
-3.7766685485839844 -0.26872768998146057 1.0035637617111206 50
-3.7899351119995117 -0.2690068483352661 0.8676546216011047 50
-3.7934210300445557 -0.2685888707637787 0.7310953736305237 50
-3.826484203338623 -0.27025869488716125 0.6008276343345642 50
-3.755950689315796 -0.2646182179450989 0.4576193690299988 50
-3.799475908279419 -0.26701828837394714 0.32988446950912476 50
-3.7937726974487305 -0.26595208048820496 0.1973065435886383 50
-3.813361406326294 -0.2666564881801605 0.06605735421180725 50
-1.9413307905197144 -0.13404889404773712 -0.5111678242683411 119
-2.2204504013061523 -0.15293270349502563 -0.5050153732299805 119
-2.60406231880188 -0.1788972020149231 -0.4994710087776184 119
-3.2307839393615723 -0.22138600051403046 -0.5068480968475342 119
-3.7564966678619385 -0.2567512094974518 -0.45761987566947937 119
-3.8049960136413574 -0.259398877620697 -0.3303207755088806 50
-3.764465570449829 -0.25597572326660156 -0.19508513808250427 50
-3.8438498973846436 -0.26069968938827515 -0.06591571867465973 50
-3.8354098796844482 -0.25945478677749634 1.01908278465271 50
-3.8443217277526855 -0.2593836486339569 0.8800175786018372 50
-3.8628969192504883 -0.25995969772338867 0.7444400787353516 50
-3.8865342140197754 -0.26086899638175964 0.6102033853530884 50
-3.811319589614868 -0.25515231490135193 0.46432217955589294 50
-3.8649935722351074 -0.2580679655075073 0.33554959297180176 50
-3.859445095062256 -0.25702089071273804 0.20070837438106537 50
-3.8691399097442627 -0.2569882571697235 0.06701723486185074 50
-1.9369677305221558 -0.12695570290088654 -0.5098737478256226 119
-2.220970630645752 -0.14518095552921295 -0.5050153732299805 119
-2.6095690727233887 -0.1701255738735199 -0.5004242062568665 119
-3.2216808795928955 -0.20946629345417023 -0.505283772945404 119
-3.891083002090454 -0.252307265996933 -0.47407227754592896 119
-3.865525245666504 -0.24997256696224213 -0.33555012941360474 50
-3.8201475143432617 -0.24636858701705933 -0.19795402884483337 50
-3.8896372318267822 -0.25016841292381287 -0.06669323146343231 50
-3.894131660461426 -0.24977505207061768 1.0346018075942993 50
-3.9035491943359375 -0.24969501793384552 0.8935044407844543 50
-3.922560691833496 -0.25022369623184204 0.7558783292770386 50
-3.951493263244629 -0.2513768672943115 0.6203604340553284 50
-3.901336669921875 -0.24750244617462158 0.4752904176712036 50
-3.9106101989746094 -0.2474054992198944 0.33947160840034485 50
-3.905168294906616 -0.2463769018650055 0.203063502907753 50
-3.924896478652954 -0.24693383276462555 0.06797712296247482 50
-1.932578682899475 -0.1198946014046669 -0.5085796117782593 119
-2.221463918685913 -0.1374274492263794 -0.5050153732299805 119
-2.6150457859039307 -0.1613176316022873 -0.5013774037361145 119
-3.212533950805664 -0.19761283695697784 -0.5037193894386292 119
-3.936520576477051 -0.24145781993865967 -0.4795564115047455 119
-3.9359776973724365 -0.2407349944114685 -0.3416510224342346 50
-3.885775089263916 -0.23698373138904572 -0.2013445496559143 50
-3.9453771114349365 -0.23992754518985748 -0.06764352321624756 50
-3.957653045654297 -0.2399807870388031 1.051414132118225 50
-3.9578917026519775 -0.23930194973945618 0.905867338180542 50
-3.977303981781006 -0.23977896571159363 0.7663633823394775 50
-4.046010494232178 -0.24321231245994568 0.6352053284645081 50
-3.941807746887207 -0.23625808954238892 0.48016518354415894 50
-3.9810595512390137 -0.2379133701324463 0.3455725312232971 50
-3.9757845401763916 -0.23690176010131836 0.2067270129919052 50
-3.9806292057037354 -0.23649322986602783 0.06893699616193771 50
-1.9329853057861328 -0.11314790695905685 -0.5085796117782593 119
-2.2267937660217285 -0.12995611131191254 -0.5061401724815369 119
-2.6106929779052734 -0.15190333127975464 -0.5004242062568665 119
-3.198413848876953 -0.18553979694843292 -0.5013728737831116 119
-4.0215654373168945 -0.23258650302886963 -0.48991531133651733 119
-4.001439094543457 -0.23072181642055511 -0.347316175699234 50
-3.9463984966278076 -0.22685711085796356 -0.20447425544261932 50
-4.011074542999268 -0.22987262904644012 -0.06876660138368607 50
-4.011508464813232 -0.22919505834579468 1.065639853477478 50
-4.026801109313965 -0.22936370968818665 0.9216020703315735 50
-4.081025123596191 -0.23173768818378448 0.7863803505897522 50
-4.130656719207764 -0.2338327169418335 0.6484876275062561 50
-3.9971117973327637 -0.22557300329208374 0.4868679940700531 50
-4.056462287902832 -0.2282121628522873 0.3521091938018799 50
-4.036411285400391 -0.22637738287448883 0.20986716449260712 50
-4.111207962036133 -0.22985251247882843 0.07120581716299057 50
-1.9333685636520386 -0.10639984160661697 -0.5085796117782593 119
-2.22723388671875 -0.12218235433101654 -0.5061401724815369 119
-2.6112072467803955 -0.14278939366340637 -0.5004242062568665 119
-3.1891798973083496 -0.17383654415607452 -0.49980852007865906 119
-4.081817626953125 -0.22177812457084656 -0.4972274899482727 119
-4.176299571990967 -0.22618058323860168 -0.3625684380531311 50
-4.016969203948975 -0.21684841811656952 -0.20812559127807617 50
-4.141645431518555 -0.2228538691997528 -0.07101274281740189 50
-4.132856845855713 -0.22165758907794952 1.0979710817337036 50
-4.139474868774414 -0.22128796577453613 0.9474518299102783 50
-4.189639568328857 -0.2232363373041153 0.8073505163192749 50
-4.235012054443359 -0.22491270303726196 0.6648951172828674 50
-4.171327590942383 -0.2208004742860794 0.508195161819458 50
-4.216403961181641 -0.22244851291179657 0.36605411767959595 50
-4.196737289428711 -0.220676451921463 0.21824093163013458 50
-4.241787433624268 -0.22230295836925507 0.07347463071346283 50
-1.938551425933838 -0.09989903122186661 -0.5098737478256226 119
-2.227646827697754 -0.11440710723400116 -0.5061401724815369 119
-2.611689805984497 -0.13367369771003723 -0.5004242062568665 119
-3.179903268814087 -0.16220003366470337 -0.49824416637420654 119
-4.137086391448975 -0.21029995381832123 -0.5039302706718445 119
-4.251682281494141 -0.21538123488426208 -0.36910516023635864 50
-4.2072014808654785 -0.21239174902439117 -0.21803632378578186 50
-4.267221450805664 -0.21467506885528564 -0.07317250221967697 50
-4.244553089141846 -0.21279199421405792 1.1277159452438354 50
-4.252139568328857 -0.21242833137512207 0.9733016490936279 50
-4.239415168762207 -0.2110508680343628 0.8168823719024658 50
-4.299893379211426 -0.21330934762954712 0.6750521063804626 50
-4.246423244476318 -0.20991383492946625 0.5173353552818298 50
-4.281828880310059 -0.21091490983963013 0.37171924114227295 50
-4.272288799285889 -0.20969751477241516 0.22216612100601196 50
-4.302456855773926 -0.21042555570602417 0.07452177256345749 50
-1.9388883113861084 -0.09313161671161652 -0.5098737478256226 119
-2.2280325889587402 -0.10663047432899475 -0.5061401724815369 119
-2.6072378158569336 -0.12432261556386948 -0.4994710087776184 119
-3.1755168437957764 -0.15086475014686584 -0.4974619746208191 119
-4.2022385597229 -0.19890791177749634 -0.5118517875671387 119
