# .PCD v0.7 - Point Cloud Data file format
VERSION 0.7
FIELDS x y z intensity
SIZE 4 4 4 4
TYPE F F F F
COUNT 1 1 1 1
WIDTH 772
HEIGHT 1
VIEWPOINT 0 0 0 1 0 0 0
POINTS 772
DATA ascii
-0.07761596888303757 -1.481001853942871 -0.02496676705777645 108
-0.0760645866394043 -1.4465690851211548 0.3776296377182007 108
-0.0761960968375206 -1.4442628622055054 0.3248085081577301 108
-0.07700201123952866 -1.4547127485275269 0.27547141909599304 108
-0.07667230069637299 -1.4437100887298584 0.2226734459400177 108
-0.07729052007198334 -1.4505704641342163 0.17366380989551544 108
-0.07888481020927429 -1.4756443500518799 0.12594003975391388 108
-0.08013301342725754 -1.494101643562317 0.07641048729419708 108
-0.07995213568210602 -1.48587965965271 0.025305986404418945 108
-0.08278238773345947 -1.513854742050171 -0.39599332213401794 0
-0.08215314149856567 -1.4975534677505493 -0.3374267816543579 108
-0.08436397463083267 -1.532962441444397 -0.29072263836860657 108
-0.08377711474895477 -1.5174715518951416 -0.23465189337730408 108
-0.08362161368131638 -1.5098671913146973 -0.18097618222236633 108
-0.08418568968772888 -1.515262246131897 -0.1294264793395996 108
-0.08242924511432648 -1.4789875745773315 -0.07537379860877991 108
-0.08445954322814941 -1.5106706619262695 -0.02548510953783989 108
-0.0827363133430481 -1.4752286672592163 0.38538917899131775 108
-0.08233169466257095 -1.4634454250335693 0.32930412888526917 108
-0.083738774061203 -1.4838383197784424 0.28119054436683655 108
-0.08422340452671051 -1.4878097772598267 0.22970522940158844 108
-0.0834788978099823 -1.4701108932495117 0.1761011928319931 108
-0.08488504588603973 -1.4902786016464233 0.1272473782300949 108
-0.08734163641929626 -1.5287081003189087 0.07824224978685379 108
-0.08714057505130768 -1.5205289125442505 0.025916822254657745 108
-0.09002997726202011 -1.547306776046753 -0.40505197644233704 119
-0.08823158591985703 -1.5118482112884521 -0.34080106019973755 108
-0.09114858508110046 -1.5571582317352295 -0.295488566160202 108
-0.09052076190710068 -1.54181969165802 -0.23856274783611298 108
-0.09035015106201172 -1.534336805343628 -0.184022918343544 108
-0.0918237715959549 -1.5547376871109009 -0.13291271030902863 108
-0.08936292678117752 -1.5085976123809814 -0.07693865895271301 108
-0.09180767089128494 -1.545299768447876 -0.02608983963727951 108
-0.08960901200771332 -1.5038585662841797 0.3931486904621124 108
-0.09063662588596344 -1.516646385192871 0.341667115688324 108
-0.09067977219820023 -1.5129339694976807 0.28690966963768005 108
-0.09267595410346985 -1.5417333841323853 0.2382996529340744 108
-0.09129782766103745 -1.5143942832946777 0.18158531188964844 108
-0.09339328855276108 -1.5446642637252808 0.13204094767570496 108
-0.09449057281017303 -1.5582977533340454 0.07981233298778534 108
-0.09275113791227341 -1.5252056121826172 0.026004085317254066 108
-0.09751210361719131 -1.5807263851165771 -0.41411063075065613 119
-0.09441082924604416 -1.5261187553405762 -0.3441753089427948 108
-0.09871096163988113 -1.5911227464675903 -0.3021608889102936 108
-0.09835533052682877 -1.5809255838394165 -0.24482013285160065 108
-0.09910465031862259 -1.5884960889816284 -0.19072572886943817 108
-0.09911638498306274 -1.5842350721359253 -0.13552738726139069 108
-0.09587899595499039 -1.5282100439071655 -0.07798189669847488 108
-0.09939855337142944 -1.5798957347869873 -0.02669457159936428 108
-0.09729079157114029 -1.5420987606048584 0.4034946858882904 108
-0.09685301035642624 -1.5309076309204102 0.3450388014316559 108
-0.09875717014074326 -1.5566941499710083 0.2954883575439453 108
-0.10025180876255035 -1.5759007930755615 0.2437688261270523 108
-0.09911097586154938 -1.553687572479248 0.18646009266376495 108
-0.10228218883275986 -1.5990077257156372 0.136834517121315 108
-0.10184712707996368 -1.5878559350967407 0.08138240873813629 108
nan nan nan 0
-0.10522860288619995 -1.6141122579574585 -0.4231693148612976 119
-0.10037297010421753 -1.5355027914047241 -0.34642481803894043 108
-0.10651155561208725 -1.6250531673431396 -0.3088332414627075 108
-0.10549244284629822 -1.605211615562439 -0.24873098731040955 108
-0.10660676658153534 -1.6178524494171143 -0.19438181817531586 108
-0.10957139730453491 -1.6584316492080688 -0.14206407964229584 109
-0.10583353042602539 -1.5976178646087646 -0.08163321763277054 108
-0.11087656766176224 -1.6693278551101685 -0.028249595314264297 109
-0.1052405908703804 -1.5803030729293823 0.41384071111679077 108
-0.1051175519824028 -1.5743111371994019 0.3551539480686188 108
-0.10746901482343674 -1.6053133010864258 0.3050202429294586 108
nan nan nan 0
-0.10686629265546799 -1.587992787361145 0.19072550535202026 108
-0.10819845646619797 -1.6036105155944824 0.13727028667926788 108
-0.11210718750953674 -1.6572353839874268 0.08504592627286911 109
-0.11794290691614151 -1.7389953136444092 0.029756350442767143 109
-0.11218631267547607 -1.6330081224441528 -0.4283457100391388 119
-0.1087450385093689 -1.5788860321044922 -0.35654762387275696 108
-0.11455017328262329 -1.6589479446411133 -0.3155055344104767 109
-0.11586972326040268 -1.67380690574646 -0.25968143343925476 109
-0.11740732938051224 -1.6917327642440796 -0.20352202653884888 109
nan nan nan 0
-0.11905325949192047 -1.7068227529525757 -0.08737101405858994 109
nan nan nan 0
-0.11514705419540405 -1.642560601234436 0.43065300583839417 109
nan nan nan 0
-0.119625985622406 -1.6979557275772095 0.3231308162212372 109
nan nan nan 0
nan nan nan 0
nan nan nan 0
nan nan nan 0
-0.16633976995944977 -2.331974744796753 0.040140531957149506 109
-0.12240765988826752 -1.6952286958694458 -0.44516894221305847 119
-0.11847632378339767 -1.6368064880371094 -0.3700447082519531 108
nan nan nan 0
nan nan nan 0
nan nan nan 0
-0.17669536173343658 -2.4176878929138184 -0.2087383270263672 109
-0.16696511209011078 -2.2790791988372803 -0.1173640564084053 109
-0.17708216607570648 -2.4114012718200684 -0.04112173244357109 109
nan nan nan 0
nan nan nan 0
nan nan nan 0
-0.18064668774604797 -2.436650276184082 0.38049814105033875 109
-0.17127801477909088 -2.3048253059387207 0.2790807783603668 109
-0.18155090510845184 -2.437307834625244 0.21048112213611603 109
-0.18018347024917603 -2.413264036178589 0.1248212531208992 109
-0.18231388926506042 -2.4360711574554443 0.04197303578257561 109
-0.13342933356761932 -1.762212872505188 -0.46328628063201904 119
-0.13340604305267334 -1.757830023765564 -0.3981636166572571 119
-0.18085543811321259 -2.377549409866333 -0.4556243121623993 119
-0.17936214804649353 -2.352489709854126 -0.3676212728023529 109
-0.19236506521701813 -2.5172383785247803 -0.3052830398082733 109
-0.190459206700325 -2.486586332321167 -0.21483923494815826 109
-0.18600347638130188 -2.4228603839874268 -0.12492751330137253 109
-0.19278566539287567 -2.50547456741333 -0.04276314750313759 109
-0.18231870234012604 -2.3640501499176025 0.6246408224105835 109
-0.18768109381198883 -2.4280543327331543 0.5529612302780151 109
-0.1872079223394394 -2.4164440631866455 0.46324947476387024 109
-0.19488590955734253 -2.509861469268799 0.3922177851200104 109
-0.19010381400585175 -2.442750930786133 0.29614248871803284 109
-0.19509296119213104 -2.501215934753418 0.21614624559879303 109
-0.19444352388381958 -2.4872896671295166 0.12874644994735718 109
-0.19628319144248962 -2.505195379257202 0.04319470375776291 109
-0.14606443047523499 -1.8435837030410767 -0.4852859377861023 119
-0.16152219474315643 -2.034177780151367 -0.4622747302055359 119
nan nan nan 0
-0.1934620887041092 -2.4256913661956787 -0.3793538808822632 109
-0.20431402325630188 -2.5561273097991943 -0.31015780568122864 109
-0.20470614731311798 -2.55541729927063 -0.22094014286994934 109
-0.2016521394252777 -2.5117855072021484 -0.12962207198143005 109
-0.20473769307136536 -2.544651508331299 -0.04345426708459854 109
-0.1979452669620514 -2.4548697471618652 0.649212658405304 109
-0.20125699043273926 -2.4905149936676025 0.5675719976425171 109
-0.20079238712787628 -2.4793756008148193 0.4756409525871277 109
-0.20804032683372498 -2.56331205368042 0.40081220865249634 109
-0.20225034654140472 -2.4865899085998535 0.301626592874527 109
-0.20948798954486847 -2.5700228214263916 0.2222471386194229 109
-0.20718984305858612 -2.5363616943359375 0.13136324286460876 109
-0.2107372134923935 -2.5742506980895996 0.04441636800765991 109
-0.15568487346172333 -1.8815680742263794 -0.4956386983394623 119
-0.1823095679283142 -2.1986777782440186 -0.5005163550376892 119
-0.21330079436302185 -2.56699538230896 -0.49279871582984924 119
-0.20725558698177338 -2.4889798164367676 -0.38952213525772095 109
-0.21818752586841583 -2.6147451400756836 -0.3174700140953064 109
-0.21860575675964355 -2.614251136779785 -0.22616951167583466 109
-0.21458818018436432 -2.560823678970337 -0.13223016262054443 109
-0.2203121781349182 -2.623629093170166 -0.044836513698101044 109
-0.21258802711963654 -2.5263564586639404 0.6686114072799683 109
-0.2156805843114853 -2.557765007019043 0.5833066701889038 109
-0.21605822443962097 -2.5569136142730713 0.4908919930458069 109
-0.2228202521800995 -2.6314637660980225 0.41175055503845215 109
-0.21764229238033295 -2.564988136291504 0.31137615442276 109
-0.22436566650867462 -2.638758659362793 0.228348046541214 109
-0.22240054607391357 -2.6102499961853027 0.13528844714164734 109
-0.22567568719387054 -2.643235445022583 0.04563803970813751 109
-0.1659872680902481 -1.9243189096450806 -0.5072855353355408 119
-0.19208094477653503 -2.222297191619873 -0.5061401724815369 119
-0.22734220325946808 -2.62491512298584 -0.5042369961738586 119
-0.22277414798736572 -2.566960334777832 -0.4020369052886963 109
-0.23290257155895233 -2.6782405376434326 -0.3253915011882782 109
-0.23464806377887726 -2.692866802215576 -0.2331419736146927 109
-0.23047488927841187 -2.6396474838256836 -0.13640311360359192 109
-0.23600471019744873 -2.697547197341919 -0.04613236337900162 109
-0.2273104041814804 -2.592958450317383 0.6867169141769409 109
-0.23057600855827332 -2.624943256378174 0.5990413427352905 109
-0.23143739998340607 -2.6294846534729004 0.5051897764205933 109
-0.23807844519615173 -2.69954252243042 0.42268890142440796 109
-0.23314712941646576 -2.638364791870117 0.32051634788513184 109
-0.2392864227294922 -2.7024598121643066 0.234013170003891 109
-0.23857079446315765 -2.689035415649414 0.13947531580924988 109
-0.24109824001789093 -2.7121458053588867 0.046859707683324814 109
-0.17399892210960388 -1.938158631324768 -0.5111678242683411 119
-0.19809114933013916 -2.2022039890289307 -0.5016411542892456 119
-0.2369440346956253 -2.6289939880371094 -0.5051901340484619 119
-0.23706293106079102 -2.625187873840332 -0.4114229679107666 109
-0.24806353449821472 -2.741664409637451 -0.3333130180835724 109
-0.2498926818370819 -2.7565195560455322 -0.23880711197853088 109
-0.24691444635391235 -2.718390464782715 -0.1405760496854782 109
-0.2531220614910126 -2.781344413757324 -0.04760099574923515 109
-0.2433774322271347 -2.669107675552368 0.7074089646339417 109
-0.24682949483394623 -2.701751708984375 0.6170238256454468 109
-0.24732576310634613 -2.701978921890259 0.5194876194000244 109
-0.25606971979141235 -2.7921359539031982 0.43753379583358765 109
-0.24962088465690613 -2.7166056632995605 0.33026590943336487 109
-0.25602442026138306 -2.780967950820923 0.24098561704158783 109
-0.2548350691795349 -2.7627670764923096 0.14340052008628845 109
-0.2579246461391449 -2.79093599319458 0.04825589805841446 109
-0.18076330423355103 -1.9375395774841309 -0.5111678242683411 119
-0.20532365143299103 -2.196648120880127 -0.5005163550376892 119
-0.24703480303287506 -2.6379246711730957 -0.507096529006958 119
-0.25406748056411743 -2.7079310417175293 -0.424719899892807 119
-0.2594899833202362 -2.760545253753662 -0.33575040102005005 109
-0.26745253801345825 -2.8399338722229004 -0.246215358376503 109
-0.2639063894748688 -2.7970495223999023 -0.1447489857673645 109
-0.2708272337913513 -2.865054130554199 -0.04906963184475899 109
-0.26134487986564636 -2.7596001625061035 0.7319807410240173 109
-0.2645423710346222 -2.7881786823272705 0.6372541189193726 109
-0.2655808627605438 -2.793938159942627 0.537598192691803 109
-0.27424201369285583 -2.8797190189361572 0.4515973627567291 109
-0.26617223024368286 -2.7898221015930176 0.3394061028957367 109
-0.2742612659931183 -2.8693082332611084 0.248829647898674 109
-0.27209287881851196 -2.8413870334625244 0.147587388753891 109
-0.27625876665115356 -2.879593849182129 0.049826618283987045 109
-0.18706005811691284 -1.9320895671844482 -0.5098737478256226 119
-0.21346049010753632 -2.2007672786712646 -0.5016411542892456 119
-0.2562413811683655 -2.6370463371276855 -0.507096529006958 119
-0.26926007866859436 -2.766010046005249 -0.4341059923171997 119
-0.2749048173427582 -2.818894386291504 -0.3430625796318054 109
-0.280754417181015 -2.8736846446990967 -0.24926580488681793 109
-0.28096407651901245 -2.8706533908843994 -0.14866113662719727 109
-0.2896076440811157 -2.953648328781128 -0.050624653697013855 109
-0.2813633978366852 -2.8644189834594727 0.7604323029518127 109
-0.2852471172809601 -2.898756980895996 0.6631039381027222 109
-0.28399932384490967 -2.8809173107147217 0.5547555685043335 109
-0.29399949312210083 -2.9770379066467285 0.467223584651947 109
-0.2856806814670563 -2.887648582458496 0.3515930473804474 109
-0.29311779141426086 -2.9575536251068115 0.256673663854599 109
-0.29187583923339844 -2.9397940635681152 0.15282097458839417 109
-0.2957097291946411 -2.9731314182281494 0.051484595984220505 109
-0.19332097470760345 -1.926619291305542 -0.5085796117782593 119
-0.22162853181362152 -2.2048561573028564 -0.5027658939361572 119
-0.26593658328056335 -2.641019821166992 -0.508049726486206 119
nan nan nan 0
-0.2957193851470947 -2.926544666290283 -0.35646823048591614 109
-0.2973049283027649 -2.937110424041748 -0.25493094325065613 109
-0.2985386848449707 -2.9441707134246826 -0.15257327258586884 109
-0.3079993724822998 -3.032198429107666 -0.05200690031051636 109
-0.30113887786865234 -2.9595203399658203 0.7862973809242249 109
-0.30573880672454834 -2.9995288848876953 0.6867058873176575 109
-0.30552101135253906 -2.992215633392334 0.5766789317131042 109
-0.3149420917034149 -3.079165458679199 0.48363110423088074 109
-0.3063810169696808 -2.9903082847595215 0.3643893301486969 109
-0.3141193091869354 -3.0605661869049072 0.2658250033855438 109
-0.3113276958465576 -3.028162956237793 0.1575312316417694 109
-0.3188897967338562 -3.0964043140411377 0.05366614833474159 109
-0.20004495978355408 -1.925932765007019 -0.5085796117782593 119
-0.2293235808610916 -2.204069137573242 -0.5027658939361572 119
-0.2756626307964325 -2.6449570655822754 -0.5090028643608093 119
-0.3218943774700165 -3.083326578140259 -0.48494723439216614 119
-0.3188371956348419 -3.0488901138305664 -0.3717019259929657 0
-0.3241611123085022 -3.094578742980957 -0.2688758969306946 109
-0.31662991642951965 -3.0175998210906982 -0.1564854085445404 109
-0.3274654150009155 -3.115626573562622 -0.05347553268074989 109
-0.32360440492630005 -3.07373046875 0.8173353672027588 109
-0.32591545581817627 -3.0905017852783203 0.708060085773468 109
-0.3283386826515198 -3.108278512954712 0.5995554327964783 109
-0.33816006779670715 -3.1959149837493896 0.5023825168609619 109
-0.3278014063835144 -3.092857599258423 0.3771856129169464 109
-0.3368951082229614 -3.1733734607696533 0.2758479416370392 109
-0.33298391103744507 -3.1313259601593018 0.16302649676799774 109
-0.3413453996181488 -3.204636812210083 0.05558590963482857 109
-0.20591558516025543 -1.9204566478729248 -0.5072855353355408 119
-0.236246719956398 -2.2033376693725586 -0.5027658939361572 119
-0.2844947874546051 -2.648958206176758 -0.5099561214447021 119
-0.33105114102363586 -3.07738995552063 -0.4841650724411011 119
-0.33054062724113464 -3.0676095485687256 -0.37413930892944336 116
-0.348846971988678 -3.2322070598602295 -0.28107771277427673 109
-0.33630502223968506 -3.1109113693237305 -0.16144077479839325 109
-0.3442481458187103 -3.179194688796997 -0.0545986033976078 109
-0.3447164297103882 -3.1783361434936523 0.845786988735199 109
-0.34825122356414795 -3.2057080268859863 0.7350338101387024 109
-0.3497827649116516 -3.214580774307251 0.620525598526001 109
-0.3599703311920166 -3.3028459548950195 0.5195713639259338 109
-0.350441575050354 -3.210214614868164 0.3918099105358124 109
-0.35931503772735596 -3.2861831188201904 0.28587085008621216 109
-0.3574964702129364 -3.2642781734466553 0.17009185254573822 109
-0.3612234890460968 -3.2929983139038086 0.057156626135110855 109
-0.2122829258441925 -1.919763207435608 -0.5072855353355408 119
-0.24393635988235474 -2.2024996280670166 -0.5027658939361572 119
-0.2942807972431183 -2.652827262878418 -0.5109092593193054 119
-0.3401551842689514 -3.061491012573242 -0.4818185567855835 119
-0.34234434366226196 -3.0763020515441895 -0.375357985496521 116
-0.37447330355644226 -3.359678030014038 -0.29240795969963074 0
-0.35547181963920593 -3.1841535568237305 -0.16535289585590363 109
-0.36256536841392517 -3.2425615787506104 -0.05572167783975601 109
-0.3687097430229187 -3.2923097610473633 0.8768249750137329 109
-0.3724730312824249 -3.3206729888916016 0.7620075345039368 109
-0.3752489686012268 -3.340158224105835 0.6453084945678711 109
-0.38640692830085754 -3.434074878692627 0.5406667590141296 109
-0.37553948163986206 -3.3322596549987793 0.40704357624053955 109
-0.38642677664756775 -3.4234957695007324 0.2980726361274719 109
-0.3817896842956543 -3.3771259784698486 0.17611049115657806 109
-0.38227784633636475 -3.3761649131774902 0.05864008143544197 109
-0.21931777894496918 -1.918972373008728 -0.5072855353355408 119
-0.2525613605976105 -2.2064311504364014 -0.5038906931877136 119
-0.30456095933914185 -2.6566073894500732 -0.5118624567985535 119
-0.3496837913990021 -3.0455048084259033 -0.47947201132774353 119
-0.35418421030044556 -3.0799567699432373 -0.3759673535823822 116
-0.3862147033214569 -3.353334426879883 -0.29197219014167786 116
-0.3860216438770294 -3.346519708633423 -0.1739596128463745 0
-0.39452818036079407 -3.4150288105010986 -0.058745332062244415 109
-0.39631780982017517 -3.425276041030884 0.9130361080169678 109
-0.40034446120262146 -3.454796075820923 0.7934768795967102 109
-0.40163496136665344 -3.4606499671936035 0.6691381931304932 109
-0.41495630145072937 -3.569990873336792 0.5625434517860413 109
-0.40381792187690735 -3.4688851833343506 0.42410531640052795 109
-0.41396915912628174 -3.5506906509399414 0.3094028830528259 109
-0.4074840247631073 -3.4897711277008057 0.1821291297674179 109
-0.40277883410453796 -3.444256544113159 0.05986174941062927 109
-0.2260148972272873 -1.9181950092315674 -0.5072855353355408 119
-0.2602616846561432 -2.205536127090454 -0.5038906931877136 119
-0.31440845131874084 -2.660402297973633 -0.5128157138824463 119
-0.3608929216861725 -3.0491700172424316 -0.480254203081131 119
-0.3649331033229828 -3.0787017345428467 -0.3759673535823822 116
-0.3967433273792267 -3.342073440551758 -0.2911006212234497 116
-0.3959323763847351 -3.3302767276763916 -0.17317718267440796 116
-0.4253605008125305 -3.5724847316741943 -0.06150982156395912 0
-0.4225687086582184 -3.5437686443328857 0.9453673958778381 109
-0.4279997944831848 -3.5839948654174805 0.8238223195075989 109
-0.4311982989311218 -3.605433702468872 0.6977338194847107 109
-0.44386014342308044 -3.7058193683624268 0.5844201445579529 109
-0.43070030212402344 -3.590639591217041 0.4393389821052551 109
-0.44240111112594604 -3.6827504634857178 0.3211688995361328 109
-0.43278393149375916 -3.5973904132843018 0.1878860741853714 109
-0.43572887778282166 -3.616546630859375 0.06291592121124268 109
-0.23270927369594574 -1.9173943996429443 -0.5072855353355408 119
-0.2685466706752777 -2.2094502449035645 -0.5050153732299805 119
-0.32428616285324097 -2.664160966873169 -0.5137688517570496 119
-0.3715343177318573 -3.047891616821289 -0.480254203081131 119
-0.37507620453834534 -3.0724830627441406 -0.375357985496521 116
-0.4090113639831543 -3.3456125259399414 -0.291536420583725 116
-0.40634122490882874 -3.3189620971679688 -0.17265556752681732 116
-0.4426953196525574 -3.6106748580932617 -0.062200941145420074 116
-0.45436033606529236 -3.7004692554473877 0.9880447387695312 109
-0.46012938022613525 -3.7420547008514404 0.8609111905097961 109
-0.4611772894859314 -3.745180606842041 0.7253762483596802 109
-0.4767393171787262 -3.865995407104492 0.6102033853530884 109
-0.46391162276268005 -3.756574869155884 0.46005675196647644 109
-0.47665053606033325 -3.8541996479034424 0.3364211618900299 109
-0.4539302885532379 -3.665231704711914 0.19154958426952362 109
-0.4735782742500305 -3.8184139728546143 0.06649366766214371 116
-0.23940081894397736 -1.9165704250335693 -0.5072855353355408 119
-0.27686217427253723 -2.21333384513855 -0.5061401724815369 119
-0.3341938853263855 -2.6678831577301025 -0.5147220492362976 119
-0.3821711838245392 -3.0465760231018066 -0.480254203081131 119
-0.3857988715171814 -3.071155071258545 -0.375357985496521 115
-0.4200655221939087 -3.3392221927642822 -0.2911006212234497 116
-0.4191722571849823 -3.3274316787719727 -0.17317718267440796 116
-0.45467057824134827 -3.6041479110717773 -0.06211455538868904 116
-0.4872508645057678 -3.8569891452789307 1.0307220220565796 109
-0.493978887796402 -3.9047653675079346 0.8991239666938782 109
-0.4958381652832031 -3.9139764308929443 0.7587379217147827 109
-0.5126063823699951 -4.040682792663574 0.6383305788040161 109
-0.49766096472740173 -3.9173972606658936 0.48016518354415894 109
-0.49198710918426514 -3.867335796356201 0.33772850036621094 109
-0.49259239435195923 -3.8667030334472656 0.20227846503257751 109
-0.4970262050628662 -3.8960821628570557 0.06788985431194305 116
-0.24608942866325378 -1.9157230854034424 -0.5072855353355408 119
-0.2839648723602295 -2.207521677017212 -0.5050153732299805 119
-0.34475865960121155 -2.676436424255371 -0.5166284441947937 119
-0.3928034007549286 -3.0452237129211426 -0.480254203081131 119
-0.39588111639022827 -3.0648677349090576 -0.37474867701530457 115
-0.431719034910202 -3.337735652923584 -0.2911006212234497 116
-0.4307846128940582 -3.3259482383728027 -0.17317718267440796 116
-0.4672485888004303 -3.602538824081421 -0.06211455538868904 116
-0.5218614935874939 -4.0181121826171875 1.0746926069259644 109
-0.5308547019958496 -4.081778049468994 0.9407084584236145 109
-0.5323165655136108 -4.087440490722656 0.7930526733398438 109
-0.5496986508369446 -4.215165138244629 0.6664577126502991 109
-0.5325384140014648 -4.078027725219727 0.5002736449241638 109
-0.5203378796577454 -3.9791901111602783 0.3477514088153839 109
-0.536555826663971 -4.09765100479126 0.21457740664482117 109
-0.5080232620239258 -3.8744964599609375 0.06754080951213837 116
-0.2534071207046509 -1.9196405410766602 -0.5085796117782593 119
-0.2916688024997711 -2.206516981124878 -0.5050153732299805 119
-0.3553871810436249 -2.684948682785034 -0.5185348391532898 119
-0.4027819335460663 -3.038938045501709 -0.47947201132774353 119
-0.40657708048820496 -3.063467025756836 -0.37474867701530457 115
-0.44271111488342285 -3.331270933151245 -0.2906648516654968 116
-0.44239169359207153 -3.3244242668151855 -0.17317718267440796 116
-0.4791606664657593 -3.595930337905884 -0.06202816218137741 116
-0.561435341835022 -4.207763195037842 1.1264227628707886 109
-0.5696171522140503 -4.263407230377197 0.9834168553352356 109
-0.572615385055542 -4.28015661239624 0.831180214881897 109
-0.5932607054710388 -4.42859411239624 0.7008354067802429 109
-0.5560071468353271 -4.145004749298096 0.508804440498352 109
-0.5759983062744141 -4.288358211517334 0.37520545721054077 109
-0.5641672611236572 -4.194725513458252 0.21981100738048553 116
-0.5215447545051575 -3.872699499130249 0.06754080951213837 116
-0.2601063847541809 -1.9187443256378174 -0.5085796117782593 119
-0.29871395230293274 -2.200658082962036 -0.5038906931877136 119
-0.36674031615257263 -2.698282241821289 -0.5213943719863892 119
-0.41338732838630676 -3.037513494491577 -0.47947201132774353 119
-0.41659802198410034 -3.0571117401123047 -0.37413930892944336 115
-0.4543367326259613 -3.329705238342285 -0.2906648516654968 116
-0.45399340987205505 -3.322859525680542 -0.17317718267440796 116
-0.4917098581790924 -3.594235897064209 -0.06202816218137741 116
-0.6010282039642334 -4.387614727020264 1.17556631565094 109
-0.6136261820793152 -4.473773956298828 1.0328686237335205 109
-0.6189403533935547 -4.506676197052002 0.875980019569397 109
-0.6228445768356323 -4.529239177703857 0.7172428369522095 109
-0.5894271731376648 -4.280696868896484 0.5258662104606628 109
-0.6168155074119568 -4.473824501037598 0.3917650580406189 109
-0.5760747194290161 -4.172945022583008 0.2187642902135849 116
-0.5350598096847534 -3.8708553314208984 0.06754080951213837 116
-0.26680245995521545 -1.917824625968933 -0.5085796117782593 119
-0.3063938617706299 -2.1996021270751953 -0.5038906931877136 119
-0.376834899187088 -2.7018468379974365 -0.5223475694656372 119
-0.4239877164363861 -3.0360522270202637 -0.47947201132774353 119
-0.42726677656173706 -3.0556390285491943 -0.37413930892944336 115
-0.4652661681175232 -3.3231661319732666 -0.29022908210754395 116
-0.46489638090133667 -3.3163094520568848 -0.17291636765003204 116
-0.504253089427948 -3.5924975872039795 -0.06202816218137741 116
-0.6486050486564636 -4.615066051483154 1.2376424074172974 109
-0.6604681611061096 -4.693532466888428 1.0845682621002197 109
-0.6620599031448364 -4.69890022277832 0.914107620716095 109
-0.6696953773498535 -4.747095108032227 0.7524018883705139 109
-0.6480949521064758 -4.588191986083984 0.5642550587654114 109
-0.6282430291175842 -4.442052364349365 0.38915038108825684 109
-0.5899374485015869 -4.1659650802612305 0.21850259602069855 116
-0.5485683083534241 -3.8689639568328857 0.06754080951213837 116
-0.27349528670310974 -1.9168816804885864 -0.5085796117782593 119
-0.31338104605674744 -2.1936960220336914 -0.5027658939361572 119
-0.38348388671875 -2.681079626083374 -0.5185348391532898 119
-0.4338828921318054 -3.029665470123291 -0.47868984937667847 119
-0.4386347830295563 -3.0590415000915527 -0.37474867701530457 115
-0.4768633246421814 -3.321521759033203 -0.29022908210754395 116
-0.47646963596343994 -3.314666509628296 -0.17291636765003204 116
-0.5167901515960693 -3.5907154083251953 -0.06202816218137741 116
-0.6998434066772461 -4.856578350067139 1.3035982847213745 109
-0.709547221660614 -4.917837619781494 1.1373918056488037 109
-0.7086338400840759 -4.905448913574219 0.9550946354866028 109
-0.7187811136245728 -4.969563007354736 0.7883421778678894 0
-0.6840220093727112 -4.723423957824707 0.5813167691230774 116
-0.6408859491348267 -4.420114994049072 0.38740724325180054 116
-0.6044758558273315 -4.163880825042725 0.21850259602069855 116
-0.5613511204719543 -3.8620786666870117 0.0674535483121872 116
-0.27948594093322754 -1.911136507987976 -0.5072855353355408 119
-0.32103657722473145 -2.1925888061523438 -0.5027658939361572 119
-0.390704482793808 -2.6651556491851807 -0.5156752467155457 119
-0.4444557726383209 -3.028132438659668 -0.47868984937667847 119
-0.44931015372276306 -3.0574920177459717 -0.37474867701530457 115
-0.4884546995162964 -3.3198370933532715 -0.29022908210754395 116
-0.48730942606925964 -3.3080434799194336 -0.17265556752681732 116
-0.528591513633728 -3.583944082260132 -0.06194177269935608 116
-0.7555975914001465 -5.116898059844971 1.3747271299362183 109
-0.7651877999305725 -5.17559289932251 1.198082685470581 109
-0.748032808303833 -5.053462982177734 0.9846435189247131 109
-0.7382956743240356 -4.981679439544678 0.7906860709190369 116
-0.6983203887939453 -4.70628023147583 0.5794887542724609 116
-0.6570430994033813 -4.422778129577637 0.3878430426120758 116
-0.6190067529678345 -4.161745071411133 0.21850259602069855 116
-0.5748288631439209 -3.860095500946045 0.0674535483121872 116
-0.2861553430557251 -1.9101492166519165 -0.5072855353355408 119
-0.3286881744861603 -2.1914546489715576 -0.5027658939361572 119
-0.3985474407672882 -2.6540677547454834 -0.5137688517570496 119
-0.45502322912216187 -3.026562452316284 -0.47868984937667847 119
-0.4599800407886505 -3.0559048652648926 -0.37474867701530457 115
-0.5000401139259338 -3.3181116580963135 -0.29022908210754395 116
-0.4988536834716797 -3.3063223361968994 -0.17265556752681732 116
-0.5410985946655273 -3.5820770263671875 -0.06194177269935608 116
-0.8182327747344971 -5.410313606262207 1.454908847808838 109
-0.822636067867279 -5.433015823364258 1.2587735652923584 109
-0.8215782046318054 -5.419638633728027 1.0570858716964722 109
-0.7564215660095215 -4.983954906463623 0.7914673686027527 116
-0.7132530808448792 -4.694001197814941 0.5782700181007385 116
-0.6724774837493896 -4.420457363128662 0.3878430426120758 116
-0.6335302591323853 -4.15955924987793 0.21850259602069855 116
-0.5882996320724487 -3.858065366744995 0.0674535483121872 116
-0.2935534715652466 -1.9139125347137451 -0.5085796117782593 119
-0.33633577823638916 -2.190294027328491 -0.5027658939361572 119
-0.4063178300857544 -2.6429576873779297 -0.5118624567985535 119
-0.46633630990982056 -3.029836416244507 -0.47947201132774353 119
-0.46988850831985474 -3.049375534057617 -0.37413930892944336 115
-0.5116194486618042 -3.3163459300994873 -0.29022908210754395 116
-0.5096296668052673 -3.299626111984253 -0.1723947525024414 116
-0.5535991191864014 -3.5801665782928467 -0.06194177269935608 116
-0.88809734582901 -5.736761093139648 1.5441431999206543 109
-0.8878599405288696 -5.72861385345459 1.3284555673599243 109
-0.8623164892196655 -5.557394981384277 1.0847283601760864 109
-0.7722980380058289 -4.971523761749268 0.7899047136306763 116
-0.72887122631073 -4.686578750610352 0.5776606202125549 116
-0.687903642654419 -4.418083190917969 0.3878430426120758 116
-0.6480458974838257 -4.157322406768799 0.21850259602069855 116
-0.6017631888389587 -3.8559885025024414 0.0674535483121872 116
-0.300232470035553 -1.9128761291503906 -0.5085796117782593 119
-0.34397926926612854 -2.1891067028045654 -0.5027658939361572 119
-0.4155409634113312 -2.6415233612060547 -0.5118624567985535 119
-0.47998276352882385 -3.047703742980957 -0.48260071873664856 115
-0.48052993416786194 -3.0477168560028076 -0.37413930892944336 115
-0.5231925249099731 -3.314539909362793 -0.29022908210754395 116
-0.5211443901062012 -3.2978270053863525 -0.1723947525024414 116
-0.5653116106987 -3.5732743740081787 -0.06185537949204445 116
-0.970828115940094 -6.129569053649902 1.6514830589294434 109
-0.9803356528282166 -6.182612895965576 1.435226559638977 109
-0.8794015645980835 -5.53980827331543 1.0818686485290527 116
-0.7896472215652466 -4.96879768371582 0.7899047136306763 116
-0.7452259659767151 -4.684006214141846 0.5776606202125549 116
-0.7033214569091797 -4.415655136108398 0.3878430426120758 116
-0.6625537872314453 -4.155035018920898 0.21850259602069855 116
-0.6152194142341614 -3.8538644313812256 0.0674535483121872 116
-0.3069078326225281 -1.9118165969848633 -0.5085796117782593 119
-0.35161858797073364 -2.1878926753997803 -0.5027658939361572 119
-0.42475906014442444 -2.640056610107422 -0.5118624567985535 119
-0.4984714090824127 -3.0947656631469727 -0.49042245745658875 115
-0.4903755486011505 -3.041121482849121 -0.37352994084358215 115
-0.5347592830657959 -3.3126935958862305 -0.29022908210754395 116
-0.5326527953147888 -3.295987844467163 -0.1723947525024414 116
-0.5777812004089355 -3.5712790489196777 -0.06185537949204445 116
-1.066349744796753 -6.58384370803833 1.7756352424621582 109
-1.0759907960891724 -6.636031150817871 1.5419975519180298 109
-0.8955879807472229 -5.517324924468994 1.07805597782135 116
-0.8061946034431458 -4.961136341094971 0.7891234159469604 116
-0.7615717053413391 -4.6813764572143555 0.5776606202125549 116
-0.717930018901825 -4.408256530761719 0.38740724325180054 116
-0.6770535111427307 -4.15269660949707 0.21850259602069855 116
-0.6286681890487671 -3.8516933917999268 0.0674535483121872 116
-0.3135794401168823 -1.9107335805892944 -0.5085796117782593 119
-0.3588719666004181 -2.1867144107818604 -0.5027658939361572 119
-0.4351029694080353 -2.648320436477661 -0.5137688517570496 119
-0.5031209588050842 -3.0589847564697266 -0.48494723439216614 115
-0.5004575252532959 -3.0394785404205322 -0.37352994084358215 115
-0.545741617679596 -3.3109018802642822 -0.29022908210754395 116
-0.5435796976089478 -3.294203281402588 -0.1723947525024414 116
-0.5896208882331848 -3.5693435668945312 -0.06185537949204445 116
-1.1866779327392578 -7.175914287567139 1.9372918605804443 109
-1.2062103748321533 -7.28612756729126 1.694848656654358 109
-0.9130767583847046 -5.509483337402344 1.077102780342102 116
-0.8226418495178223 -4.958435535430908 0.7891234159469604 116
-0.7770915031433105 -4.6788249015808105 0.5776606202125549 116
-0.7325443625450134 -4.4058518409729 0.38740724325180054 116
-0.6908206343650818 -4.150428771972656 0.21850259602069855 116
-0.6414374113082886 -3.8495874404907227 0.0674535483121872 116
-0.31991395354270935 -1.9096832275390625 -0.5085796117782593 119
-0.3665028512477875 -2.185448408126831 -0.5027658939361572 119
-0.4451572895050049 -2.6516261100769043 -0.5147220492362976 119
-0.5129772424697876 -3.052339792251587 -0.4841650724411011 115
-0.5110642910003662 -3.037713050842285 -0.37352994084358215 115
-0.5572955012321472 -3.308976650238037 -0.29022908210754395 116
-0.5550753474235535 -3.292285680770874 -0.1723947525024414 116
-0.6020765900611877 -3.567263603210449 -0.06185537949204445 116
-1.2809181213378906 -7.5812907218933105 2.048511505126953 118
-1.28201162815094 -7.579710006713867 1.7645307779312134 118
-0.9323028922080994 -5.506262302398682 1.077102780342102 116
-0.8399450182914734 -4.955533981323242 0.7891234159469604 116
-0.7934188842773438 -4.676084041595459 0.5776606202125549 116
-0.7479192614555359 -4.403267860412598 0.38740724325180054 116
-0.7053041458129883 -4.147992134094238 0.21850259602069855 116
-0.6540321707725525 -3.8423964977264404 0.06736628711223602 116
-0.32576343417167664 -1.9037944078445435 -0.5072855353355408 119
-0.3737480342388153 -2.1842212677001953 -0.5027658939361572 119
-0.4547766447067261 -2.654973030090332 -0.5156752467155457 119
-0.5222616791725159 -3.0457544326782227 -0.4833828806877136 115
-0.5211349129676819 -3.036001682281494 -0.37352994084358215 115
-0.5682653784751892 -3.307110548019409 -0.29022908210754395 116
-0.5651435256004333 -3.285506248474121 -0.1721339374780655 116
-0.613902747631073 -3.5652475357055664 -0.06185537949204445 116
-1.3068718910217285 -7.581760883331299 2.0498046875 118
-1.3079683780670166 -7.5802178382873535 1.7656546831130981 118
-0.9497217535972595 -5.498303413391113 1.076149582862854 116
-0.8563735485076904 -4.95272159576416 0.7891234159469604 116
-0.8089209794998169 -4.673427104949951 0.5776606202125549 116
-0.7625168561935425 -4.400763511657715 0.38740724325180054 116
-0.7190554738044739 -4.145630836486816 0.21850259602069855 116
-0.6667703986167908 -3.8402066230773926 0.06736628711223602 116
-0.3320748805999756 -1.9027036428451538 -0.5072855353355408 119
-0.38220861554145813 -2.1877026557922363 -0.5038906931877136 119
-0.4648870527744293 -2.6582043170928955 -0.5166284441947937 119
-0.5311869978904724 -3.034183979034424 -0.4818185567855835 115
-0.5317292809486389 -3.0341639518737793 -0.37352994084358215 115
-0.5789452195167542 -3.3002007007598877 -0.2897932827472687 116
-0.5766085386276245 -3.2835135459899902 -0.1721339374780655 116
-0.6263440251350403 -3.5630829334259033 -0.06185537949204445 116
-1.333329200744629 -7.577152729034424 2.0498046875 118
-1.333574891090393 -7.570807933807373 1.7645307779312134 118
-0.9689085483551025 -5.494955062866211 1.076149582862854 116
-0.8736565709114075 -4.94970178604126 0.7891234159469604 116
-0.8252293467521667 -4.670575141906738 0.5776606202125549 116
-0.7778737545013428 -4.398075103759766 0.38740724325180054 116
-0.7326515913009644 -4.138178825378418 0.21824093163013458 116
-0.6801711916923523 -3.837855577468872 0.06736628711223602 116
-0.3390463888645172 -1.9014737606048584 -0.5072855353355408 119
-0.391080379486084 -2.1910829544067383 -0.5050153732299805 119
-0.4754899740219116 -2.6613142490386963 -0.517581582069397 119
-0.542304277420044 -3.032216787338257 -0.4818185567855835 115
-0.5428465008735657 -3.0321948528289795 -0.37352994084358215 115
-0.5910371541976929 -3.2980566024780273 -0.2897932827472687 116
-0.5877577662467957 -3.276463508605957 -0.17187312245368958 116
-0.6402827501296997 -3.5656838417053223 -0.06194177269935608 116
-1.3610918521881104 -7.572215557098389 2.0498046875 118
-1.3613144159317017 -7.565868854522705 1.7645307779312134 118
-0.9890421032905579 -5.491366863250732 1.076149582862854 116
-0.8917922973632812 -4.946466445922852 0.7891234159469604 116
-0.8423423171043396 -4.6675190925598145 0.5776606202125549 116
-0.7931029200553894 -4.390293121337891 0.38697150349617004 116
-0.747813880443573 -4.135465621948242 0.21824093163013458 116
-0.6942330002784729 -3.835336923599243 0.06736628711223602 116
-0.34568172693252563 -1.9002786874771118 -0.5072855353355408 119
-0.3995991051197052 -2.194497585296631 -0.5061401724815369 119
-0.4856569766998291 -2.6644673347473145 -0.5185348391532898 119
-0.5528854131698608 -3.0303053855895996 -0.4818185567855835 115
-0.553427517414093 -3.0302815437316895 -0.37352994084358215 115
-0.6025459170341492 -3.295973062515259 -0.2897932827472687 116
-0.5991911888122559 -3.2743918895721436 -0.17187312245368958 116
-0.6527254581451416 -3.563427209854126 -0.06194177269935608 116
-1.3918708562850952 -7.5911712646484375 2.0562710762023926 118
nan nan nan 0
-1.008204460144043 -5.487880706787109 1.076149582862854 116
-0.9090532064437866 -4.943323612213135 0.7891234159469604 116
-0.8586298823356628 -4.664550304412842 0.5776606202125549 116
-0.8084229826927185 -4.387497901916504 0.38697150349617004 116
-0.7613390684127808 -4.127919673919678 0.21797925233840942 116
-0.7076166272163391 -3.832890272140503 0.06736628711223602 116
-0.352312833070755 -1.8990604877471924 -0.5072855353355408 119
-0.4072569012641907 -2.193089485168457 -0.5061401724815369 119
-0.4958517253398895 -2.66758131980896 -0.5194879770278931 119
-0.5634597539901733 -3.0283570289611816 -0.4818185567855835 115
-0.5640018582344055 -3.0283312797546387 -0.37352994084358215 115
-0.6140473484992981 -3.2938499450683594 -0.2897932827472687 116
-0.6106172204017639 -3.272280216217041 -0.17187312245368958 116
-0.6651601195335388 -3.561127185821533 -0.06194177269935608 116
-1.4210234880447388 -7.6005096435546875 2.0601508617401123 118
-1.5162696838378906 -8.102116584777832 1.8926559686660767 118
-1.0273545980453491 -5.484328269958496 1.076149582862854 116
-0.9263030290603638 -4.940119743347168 0.7891234159469604 116
-0.8749069571495056 -4.661524772644043 0.5776606202125549 116
-0.8237333297729492 -4.384649276733398 0.38697150349617004 116
-0.7748208045959473 -4.120329856872559 0.21771757304668427 116
-0.7209916114807129 -3.830396890640259 0.06736628711223602 116
-0.35893964767456055 -1.8978190422058105 -0.5072855353355408 119
-0.4158158600330353 -2.196441173553467 -0.5072649121284485 119
-0.5051603317260742 -2.6658341884613037 -0.5194879770278931 119
-0.5740272402763367 -3.026371717453003 -0.4818185567855835 115
-0.5745692849159241 -3.026344060897827 -0.37352994084358215 115
-0.6255413293838501 -3.2916862964630127 -0.2897932827472687 116
-0.6220359206199646 -3.2701287269592285 -0.17187312245368958 116
-0.6775867342948914 -3.558783531188965 -0.06194177269935608 116
-1.4529707431793213 -7.623970031738281 2.0679104328155518 118
-1.542716145515442 -8.087203025817871 1.8904081583023071 118
-1.046492338180542 -5.480708599090576 1.076149582862854 116
-0.9435416460037231 -4.936856746673584 0.7891234159469604 116
-0.8911734223365784 -4.658442497253418 0.5776606202125549 116
-0.8380967974662781 -4.376855373382568 0.38653573393821716 116
-0.7882587909698486 -4.112696170806885 0.2174558788537979 116
-0.733415961265564 -3.8229472637176514 0.06727902591228485 116
-0.3655620813369751 -1.8965545892715454 -0.5072855353355408 119
-0.423480361700058 -2.1949760913848877 -0.5072649121284485 119
-0.5144627094268799 -2.6640546321868896 -0.5194879770278931 119
-0.583650529384613 -3.019500970840454 -0.48103639483451843 115
-0.5851296782493591 -3.024319887161255 -0.37352994084358215 115
-0.6370276212692261 -3.289482831954956 -0.2897932827472687 116
-0.6334470510482788 -3.267937421798706 -0.17187312245368958 116
-0.6900051236152649 -3.556396722793579 -0.06194177269935608 116
-1.4777328968048096 -7.609368324279785 2.065323829650879 118
-1.5774437189102173 -8.115245819091797 1.898275375366211 118
-1.0656172037124634 -5.477022171020508 1.076149582862854 116
-0.9607688188552856 -4.93353271484375 0.7891234159469604 116
-0.9074289798736572 -4.655303478240967 0.5776606202125549 116
-0.8533697724342346 -4.373903274536133 0.38653573393821716 116
-0.8026099801063538 -4.109919548034668 0.2174558788537979 116
-0.7467560172080994 -3.820363998413086 0.06727902591228485 116
-0.37311068177223206 -1.9000060558319092 -0.5085796117782593 119
-0.43113967776298523 -2.1934845447540283 -0.5072649121284485 119
-0.5237588882446289 -2.6622426509857178 -0.5194879770278931 119
-0.5941870212554932 -3.0174450874328613 -0.48103639483451843 115
-0.5956829190254211 -3.022258996963501 -0.37352994084358215 115
-0.6485061645507812 -3.2872393131256104 -0.2897932827472687 116
-0.6448503732681274 -3.2657065391540527 -0.17187312245368958 116
-0.7024150490760803 -3.5539662837982178 -0.06194177269935608 116
-1.5052229166030884 -7.608902454376221 2.066617012023926 118
nan nan nan 0
-1.0847290754318237 -5.473269462585449 1.076149582862854 116
-0.9779841899871826 -4.930149078369141 0.7891234159469604 116
-0.9227069616317749 -4.647239685058594 0.5770512819290161 116
-0.8686323165893555 -4.3708977699279785 0.38653573393821716 116
-0.8159772753715515 -4.102195739746094 0.21719421446323395 116
-0.7591108679771423 -3.812830924987793 0.06719175726175308 116
-0.3797406852245331 -1.8986921310424805 -0.5085796117782593 119
-0.43879374861717224 -2.1919662952423096 -0.5072649121284485 119
-0.5330486297607422 -2.660398006439209 -0.5194879770278931 119
-0.6047162413597107 -3.015352725982666 -0.48103639483451843 115
-0.6062289476394653 -3.0201613903045654 -0.37352994084358215 115
-0.6599768400192261 -3.2849552631378174 -0.2897932827472687 116
-0.6562458872795105 -3.2634356021881104 -0.17187312245368958 116
-0.7148163914680481 -3.551492929458618 -0.06194177269935608 116
-1.5308197736740112 -7.5988664627075195 2.065323829650879 118
nan nan nan 0
-1.1038275957107544 -5.469449520111084 1.076149582862854 116
-0.9951875805854797 -4.926705360412598 0.7891234159469604 116
-0.9399067163467407 -4.648854732513428 0.5776606202125549 116
-0.8838843107223511 -4.3678388595581055 0.38653573393821716 116
-0.8302916288375854 -4.099322319030762 0.21719421446323395 116
-0.7724154591560364 -3.8101580142974854 0.06719175726175308 116
-0.3854023218154907 -1.8926225900650024 -0.5072855353355408 119
-0.44644245505332947 -2.1904213428497314 -0.5072649121284485 119
-0.5413509011268616 -2.653712034225464 -0.5185348391532898 119
-0.6152381300926208 -3.01322340965271 -0.48103639483451843 115
-0.6167675852775574 -3.01802659034729 -0.37352994084358215 115
-0.6724376082420349 -3.2875115871429443 -0.29022908210754395 116
-0.6676334142684937 -3.261125087738037 -0.17187312245368958 116
-0.7262055277824402 -3.5440783500671387 -0.06185537949204445 116
-1.557335615158081 -7.59347677230835 2.065323829650879 118
nan nan nan 0
-1.1219251155853271 -5.460754871368408 1.075196385383606 116
-1.0123789310455322 -4.923201560974121 0.7891234159469604 116
-0.9551280736923218 -4.640684604644775 0.5770512819290161 116
-0.900130569934845 -4.369605541229248 0.38697150349617004 116
-0.8445958495140076 -4.096398830413818 0.21719421446323395 116
-0.7857107520103455 -3.807438373565674 0.06719175726175308 116
-0.39265576004981995 -1.8960634469985962 -0.5085796117782593 119
-0.453321635723114 -2.1890079975128174 -0.5072649121284485 119
-0.5496850609779358 -2.651998281478882 -0.5185348391532898 119
-0.6247013807296753 -3.0112757682800293 -0.48103639483451843 115
-0.6262459754943848 -3.0160741806030273 -0.37352994084358215 115
-0.6827622652053833 -3.2853829860687256 -0.29022908210754395 116
-0.6778752207756042 -3.259011745452881 -0.17187312245368958 116
-0.7373359799385071 -3.5417795181274414 -0.06185537949204445 116
-1.5811834335327148 -7.5885467529296875 2.065323829650879 118
nan nan nan 0
-1.1390750408172607 -5.457203388214111 1.075196385383606 116
-1.0278406143188477 -4.919996738433838 0.7891234159469604 116
-0.9697024822235107 -4.637660980224609 0.5770512819290161 116
-0.913853645324707 -4.366755962371826 0.38697150349617004 116
-0.8574609160423279 -4.093725681304932 0.21719421446323395 116
-0.7976682782173157 -3.8049514293670654 0.06719175726175308 116
-0.39894118905067444 -1.8947508335113525 -0.5085796117782593 119
-0.46095994114875793 -2.1874122619628906 -0.5072649121284485 119
-0.5589389204978943 -2.6500635147094727 -0.5185348391532898 119
-0.6352089047431946 -3.0090768337249756 -0.48103639483451843 115
-0.6367701888084412 -3.0138697624206543 -0.37352994084358215 115
-0.6942262649536133 -3.282979726791382 -0.29022908210754395 116
-0.689247190952301 -3.2566254138946533 -0.17187312245368958 116
-0.7496945858001709 -3.539184093475342 -0.06185537949204445 116
-1.6066612005233765 -7.578257083892822 2.064030647277832 118
nan nan nan 0
-1.1581171751022339 -5.4531941413879395 1.075196385383606 116
-1.0450084209442139 -4.916378974914551 0.7891234159469604 116
-0.9858850240707397 -4.63424825668335 0.5770512819290161 116
-0.9290908575057983 -4.363539218902588 0.38697150349617004 116
-0.8717454671859741 -4.090707302093506 0.21719421446323395 116
-0.8109451532363892 -3.8021438121795654 0.06719175726175308 116
-0.4058831036090851 -1.8932759761810303 -0.5085796117782593 119
-0.46897411346435547 -2.1857080459594727 -0.5072649121284485 119
-0.568648099899292 -2.6479969024658203 -0.5185348391532898 119
-0.6462334394454956 -3.006728410720825 -0.48103639483451843 115
-0.6478123068809509 -3.0115158557891846 -0.37352994084358215 115
-0.7062543034553528 -3.2804129123687744 -0.29022908210754395 116
-0.7011786699295044 -3.254077434539795 -0.17187312245368958 116
-0.7616074085235596 -3.5315256118774414 -0.06176899001002312 116
-1.6344259977340698 -7.572317123413086 2.064030647277832 118
nan nan nan 0
-1.1780964136123657 -5.448912620544434 1.075196385383606 116
-1.0630208253860474 -4.912515640258789 0.7891234159469604 116
-1.0028637647628784 -4.630603313446045 0.5770512819290161 116
-0.9450777769088745 -4.360105037689209 0.38697150349617004 116
-0.886732816696167 -4.087484836578369 0.21719421446323395 116
-0.8248752951622009 -3.7991456985473633 0.06719175726175308 116
-0.4124894142150879 -1.8918476104736328 -0.5085796117782593 119
-0.4766007959842682 -2.1840577125549316 -0.5072649121284485 119
-0.5768405199050903 -2.641200304031372 -0.517581582069397 119
-0.6567249298095703 -3.0044543743133545 -0.48103639483451843 115
-0.659381091594696 -3.0140841007232666 -0.37413930892944336 115
-0.7177007794380188 -3.277927875518799 -0.29022908210754395 116
-0.7125332951545715 -3.251610040664673 -0.17187312245368958 116
-0.7739300727844238 -3.5288455486297607 -0.06176899001002312 116
-1.6608483791351318 -7.56656551361084 2.064030647277832 118
nan nan nan 0
-1.1971094608306885 -5.444766998291016 1.075196385383606 116
-1.0801622867584229 -4.908775329589844 0.7891234159469604 116
-1.0190215110778809 -4.627074241638184 0.5770512819290161 116
-0.9602916836738586 -4.356779098510742 0.38697150349617004 116
-0.9009954333305359 -4.084364891052246 0.21719421446323395 116
-0.8381317257881165 -3.79624342918396 0.06719175726175308 116
-0.4190906882286072 -1.890396237373352 -0.5085796117782593 119
-0.4831664562225342 -2.1776247024536133 -0.5061401724815369 119
-0.5871205925941467 -2.6439626216888428 -0.5185348391532898 119
-0.6672084331512451 -3.002143621444702 -0.48103639483451843 115
-0.6698982119560242 -3.0117640495300293 -0.37413930892944336 115
-0.7291385531425476 -3.275402545928955 -0.29022908210754395 116
-0.7238791584968567 -3.24910306930542 -0.17187312245368958 116
-0.7862433195114136 -3.526122570037842 -0.06176899001002312 116
-1.6872504949569702 -7.560722351074219 2.064030647277832 118
-1.710681676864624 -7.659430503845215 1.801619529724121 118
-1.216107964515686 -5.440555095672607 1.075196385383606 116
