# .PCD v0.7 - Point Cloud Data file format
VERSION 0.7
FIELDS x y z intensity
SIZE 4 4 4 4
TYPE F F F F
COUNT 1 1 1 1
WIDTH 783
HEIGHT 1
VIEWPOINT 0 0 0 1 0 0 0
POINTS 783
DATA ascii
-2.16951847076416 2.430739641189575 -0.5099768042564392 119
-2.2457163333892822 2.516996145248413 -0.4094814360141754 119
-2.2368597984313965 2.507950782775879 -0.2906648516654968 44
-2.231877326965332 2.503243923187256 -0.17317718267440796 44
-2.2174863815307617 2.4879772663116455 -0.056931138038635254 44
-2.2456047534942627 2.520411252975464 0.8936372995376587 44
-2.241872549057007 2.517106771469116 0.7687509655952454 44
-2.2220213413238525 2.495695114135742 0.6414957642555237 44
-2.23184871673584 2.5076138973236084 0.5250405669212341 44
-2.222407102584839 2.4978835582733154 0.4058248996734619 44
-2.23335599899292 2.5110716819763184 0.290664404630661 44
-2.2383129596710205 2.5175299644470215 0.1745404154062271 44
-2.214003562927246 2.491063356399536 0.05750567466020584 44
-1.2850511074066162 1.4484056234359741 -0.5085796117782593 119
-1.476836085319519 1.6651556491851807 -0.5050153732299805 119
-1.754410743713379 1.97882080078125 -0.50614333152771 119
-2.157744884490967 2.4346020221710205 -0.5091946125030518 119
-2.227043628692627 2.513676404953003 -0.40765342116355896 0
-2.214881658554077 2.5008280277252197 -0.2889217138290405 44
-2.21319580078125 2.4998037815093994 -0.1723947525024414 44
-2.195535182952881 2.4807279109954834 -0.05658557638525963 44
-2.2271921634674072 2.5173823833465576 0.889757513999939 44
-2.2233898639678955 2.5139684677124023 0.7653792500495911 44
-2.203542947769165 2.4924044609069824 0.6386361718177795 44
-2.213270664215088 2.5042879581451416 0.5226966142654419 44
-2.2038168907165527 2.4944682121276855 0.40399685502052307 44
-2.2146852016448975 2.5076518058776855 0.28935706615448 44
-2.219597339630127 2.5140984058380127 0.17375536262989044 44
-2.195370674133301 2.487531900405884 0.057243891060352325 44
-1.2767947912216187 1.44925856590271 -0.5072855353355408 119
-1.4710146188735962 1.6703004837036133 -0.5050153732299805 119
-1.747492790222168 1.9849328994750977 -0.50614333152771 119
-2.1459708213806152 2.4384119510650635 -0.5084124207496643 119
-2.2084217071533203 2.51025652885437 -0.4058253765106201 0
-2.196270704269409 2.497323513031006 -0.2876144051551819 44
-2.194566249847412 2.4962639808654785 -0.17161232233047485 44
-2.176961898803711 2.477111339569092 -0.05632640793919563 44
-2.2088284492492676 2.514256000518799 0.885877788066864 44
-2.2017412185668945 2.5070712566375732 0.760883629322052 44
-2.185114860534668 2.489015579223633 0.6357766389846802 44
-2.1947429180145264 2.5008625984191895 0.5203526616096497 44
-2.1852779388427734 2.4909541606903076 0.40216881036758423 44
-2.196065902709961 2.5041327476501465 0.28804972767829895 44
-2.2009334564208984 2.5105667114257812 0.17297032475471497 44
-2.1767895221710205 2.483900547027588 0.05698210373520851 44
-1.2717280387878418 1.4537065029144287 -0.5072855353355408 119
-1.4651751518249512 1.6754251718521118 -0.5050153732299805 119
-1.740553379058838 1.9910205602645874 -0.50614333152771 119
-2.1374459266662598 2.445887804031372 -0.5084124207496643 119
-2.1898508071899414 2.50673770904541 -0.4039973020553589 0
-2.177711009979248 2.4937193393707275 -0.28630703687667847 44
-2.175987958908081 2.492624521255493 -0.1708298921585083 44
-2.1584408283233643 2.4733951091766357 -0.05606723576784134 44
-2.1905133724212646 2.5110321044921875 0.8819980025291443 44
-2.1833701133728027 2.503725528717041 0.7575119137763977 44
-2.1667375564575195 2.4855282306671143 0.632917046546936 44
-2.1762659549713135 2.4973387718200684 0.5180087089538574 44
-2.1635303497314453 2.4835989475250244 0.39973142743110657 44
-2.1774983406066895 2.500514268875122 0.2867423892021179 44
-2.182321071624756 2.5069360733032227 0.1721852868795395 44
-2.1582603454589844 2.480170249938965 0.056720320135354996 44
-1.266391396522522 1.4583579301834106 -0.5072855353355408 119
-1.4590246677398682 1.6807841062545776 -0.5050153732299805 119
-1.7364609241485596 2.001093626022339 -0.507096529006958 119
-2.1252310276031494 2.44997501373291 -0.5076302289962769 119
-2.1708946228027344 2.5034990310668945 -0.40216928720474243 0
-2.158768653869629 2.4903931617736816 -0.2849997282028198 44
-2.1602976322174072 2.4930360317230225 -0.17030827701091766 44
-2.1395411491394043 2.4699535369873047 -0.055808067321777344 44
-2.1686484813690186 2.504438877105713 0.8768249750137329 44
-2.1646127700805664 2.5006604194641113 0.7541402578353882 44
-2.1511895656585693 2.486029624938965 0.6310106515884399 44
-2.1541748046875 2.4903581142425537 0.5148835182189941 44
-2.144674777984619 2.480250120162964 0.3979033827781677 44
-2.1585466861724854 2.497173309326172 0.2854350507259369 44
-2.1633243560791016 2.5035834312438965 0.171400249004364 44
-2.1393518447875977 2.4767143726348877 0.05645852908492088 44
-1.2644468545913696 1.466427206993103 -0.5085796117782593 119
-1.4531488418579102 1.6858667135238647 -0.5050153732299805 119
-1.7294652462005615 2.0071427822113037 -0.507096529006958 119
-2.116665840148926 2.457378625869751 -0.5076302289962769 119
-2.152428150177002 2.499779224395752 -0.4003412425518036 0
-2.1403141021728516 2.4865882396698 -0.2836923599243164 44
-2.1418120861053467 2.4892067909240723 -0.1695258617401123 44
-2.121126413345337 2.466036558151245 -0.05554889515042305 44
-2.1504464149475098 2.501007080078125 0.872945249080658 44
-2.146343231201172 2.4971165657043457 0.7507684826850891 44
-2.1329023838043213 2.4823551177978516 0.6281510591506958 44
-2.135815382003784 2.4866232872009277 0.5125395655632019 44
-2.126305341720581 2.4764256477355957 0.39607536792755127 44
-2.1400845050811768 2.493354082107544 0.28412771224975586 44
-2.14481782913208 2.499751329421997 0.17061521112918854 44
-2.120929479598999 2.472783088684082 0.05619674548506737 44
-1.262461543083191 1.4745006561279297 -0.5098737478256226 119
-1.4472551345825195 1.6909289360046387 -0.5050153732299805 119
-1.722448468208313 2.0131676197052 -0.507096529006958 119
-2.1112852096557617 2.4685051441192627 -0.5084124207496643 119
-2.134014368057251 2.4959616661071777 -0.39851319789886475 0
-2.121912717819214 2.482684850692749 -0.28238505125045776 44
-2.123379707336426 2.485279083251953 -0.16874341666698456 44
-2.1027650833129883 2.4620211124420166 -0.055289722979068756 44
-2.1322948932647705 2.497478723526001 0.8690654635429382 44
-2.128124952316284 2.493475914001465 0.7473967671394348 44
-2.1146669387817383 2.478583335876465 0.6252915263175964 44
-2.1175081729888916 2.482790946960449 0.5101956129074097 44
-2.1079888343811035 2.472503185272217 0.39424729347229004 44
-2.1216752529144287 2.489436149597168 0.28282037377357483 44
-2.1263644695281982 2.4958207607269287 0.16983017325401306 44
-2.102560520172119 2.4687533378601074 0.05593495815992355 44
-1.2604351043701172 1.4825780391693115 -0.5111678242683411 119
-1.4413437843322754 1.6959705352783203 -0.5050153732299805 119
-1.715410828590393 2.019167900085449 -0.507096529006958 119
-2.1026556491851807 2.475860118865967 -0.5084124207496643 119
-2.1156530380249023 2.4920456409454346 -0.3966851532459259 119
-2.103564739227295 2.4786834716796875 -0.28107771277427673 44
-2.1050009727478027 2.4812533855438232 -0.1679610013961792 44
-2.0844578742980957 2.4579079151153564 -0.05503055453300476 44
-2.114194393157959 2.493854284286499 0.8651857972145081 44
-2.1099586486816406 2.489738702774048 0.7440250515937805 44
-2.0933115482330322 2.4709694385528564 0.621478796005249 44
-2.0992538928985596 2.478861093521118 0.5078517198562622 44
-2.089725971221924 2.4684834480285645 0.3924192786216736 44
-2.1033196449279785 2.4854207038879395 0.2815130650997162 44
-2.1079649925231934 2.4917917251586914 0.16904513537883759 44
-2.0842456817626953 2.464625597000122 0.05567317083477974 44
-1.258367657661438 1.490659236907959 -0.5124619007110596 119
-1.4354150295257568 1.7009913921356201 -0.5050153732299805 119
-1.711517095565796 2.028895378112793 -0.508049726486206 119
-2.0940005779266357 2.483184576034546 -0.5084124207496643 119
-2.0973455905914307 2.488032341003418 -0.39485710859298706 0
-2.085270643234253 2.4745845794677734 -0.2797703742980957 44
-2.0866758823394775 2.4771292209625244 -0.16717857122421265 44
-2.0662050247192383 2.4536969661712646 -0.05477138236165047 44
-2.0992555618286133 2.4938290119171143 0.86259925365448 44
-2.091844320297241 2.485905170440674 0.7406533360481262 44
-2.0751945972442627 2.4669930934906006 0.6186192035675049 44
-2.0810530185699463 2.4748342037200928 0.50550776720047 44
-2.071516513824463 2.4643661975860596 0.39059123396873474 44
-2.0850179195404053 2.481307029724121 0.28020569682121277 44
-2.0896196365356445 2.4876646995544434 0.1682600975036621 44
-2.065985679626465 2.4604005813598633 0.055411387234926224 44
-1.2531566619873047 1.4950428009033203 -0.5124619007110596 119
-1.4325978755950928 1.7097259759902954 -0.5061401724815369 119
-1.704424500465393 2.0348572731018066 -0.508049726486206 119
-2.085319757461548 2.490478754043579 -0.5084124207496643 119
-2.079091787338257 2.483921527862549 -0.3930290639400482 0
-2.067030668258667 2.4703876972198486 -0.2784630358219147 44
-2.068405866622925 2.4729080200195312 -0.1663961410522461 44
-2.0480072498321533 2.4493885040283203 -0.05451221391558647 44
-2.0812454223632812 2.4900240898132324 0.8587194681167603 44
-2.0737826824188232 2.481975793838501 0.7372816205024719 44
-2.05713152885437 2.462920665740967 0.6157596707344055 44
-2.06290602684021 2.470710515975952 0.5031638741493225 44
-2.053361654281616 2.4601519107818604 0.3887631595134735 44
-2.0699617862701416 2.4809210300445557 0.279334157705307 44
-2.071328639984131 2.483440399169922 0.16747504472732544 44
-2.0477805137634277 2.456078052520752 0.05514959990978241 44
-1.2448407411575317 1.4956958293914795 -0.5111678242683411 119
-1.4266210794448853 1.7147161960601807 -0.5061401724815369 119
-1.6973110437393188 2.040794610977173 -0.508049726486206 119
-2.0734565258026123 2.4939451217651367 -0.5076302289962769 119
-2.0608925819396973 2.4797139167785645 -0.39120104908943176 0
-2.0488460063934326 2.4660942554473877 -0.27715566754341125 44
-2.0501909255981445 2.4685895442962646 -0.16561371088027954 44
-2.033057928085327 2.4488298892974854 -0.05433943495154381 44
-2.0632872581481934 2.48612380027771 0.8548396825790405 44
-2.0557737350463867 2.4779505729675293 0.7339099049568176 44
-2.039121627807617 2.458751916885376 0.6129000782966614 44
-2.0479650497436523 2.470292568206787 0.5016012787818909 44
-2.035261392593384 2.455841541290283 0.38693514466285706 44
-2.051755905151367 2.476624011993408 0.278026819229126 44
-2.0530929565429688 2.479118585586548 0.16669002175331116 44
-2.029630661010742 2.4516587257385254 0.054887816309928894 44
-1.2396122217178345 1.5000320672988892 -0.5111678242683411 119
-1.4237295389175415 1.723441481590271 -0.5072649121284485 119
-1.690177083015442 2.0467069149017334 -0.508049726486206 119
-2.0647382736206055 2.5011677742004395 -0.5076302289962769 119
-2.0459067821502686 2.4792370796203613 -0.38998231291770935 0
-2.0338857173919678 2.465546131134033 -0.2762841284275055 44
-2.0320310592651367 2.4641740322113037 -0.164831280708313 44
-2.014957904815674 2.444338798522949 -0.054080262780189514 44
-2.045382022857666 2.482128858566284 0.8509599566459656 44
-2.037818431854248 2.473830223083496 0.7305382490158081 44
-2.0242865085601807 2.4582767486572266 0.6109936833381653 44
-2.0299136638641357 2.46598744392395 0.49925729632377625 44
-2.017216682434082 2.451434373855591 0.3851071000099182 44
-2.0336055755615234 2.472230911254883 0.27671948075294495 44
-2.0349128246307373 2.4746999740600586 0.1659049689769745 44
-2.0115368366241455 2.4471426010131836 0.05462602898478508 44
-1.2313051223754883 1.5006163120269775 -0.5098737478256226 119
-1.4177049398422241 1.7284005880355835 -0.5072649121284485 119
-1.6830224990844727 2.0525941848754883 -0.508049726486206 119
-2.049733877182007 2.5007212162017822 -0.5060659050941467 119
-2.027804374694824 2.4748475551605225 -0.3881542980670929 0
-2.015798568725586 2.461071014404297 -0.27497678995132446 44
-2.013927459716797 2.4596619606018066 -0.16404886543750763 44
-2.0000803470611572 2.443620204925537 -0.05390748381614685 44
-2.027529716491699 2.478039026260376 0.8470801711082458 44
-2.0230019092559814 2.473385810852051 0.7282904386520386 44
-2.0063726902008057 2.453928232192993 0.6081340909004211 44
-2.0119175910949707 2.4615864753723145 0.496913343667984 44
-1.9992274045944214 2.446931838989258 0.38327908515930176 44
-2.0155110359191895 2.467741012573242 0.2754121422767639 44
-2.0167884826660156 2.470184803009033 0.165119931101799 44
-1.9966604709625244 2.4464030265808105 0.05445150285959244 44
-1.2260594367980957 1.5049052238464355 -0.5098737478256226 119
-1.4116630554199219 1.7333388328552246 -0.5072649121284485 119
-1.6758472919464111 2.0584564208984375 -0.508049726486206 119
-2.037874937057495 2.504030466079712 -0.505283772945404 119
-2.0097575187683105 2.4703614711761475 -0.38632622361183167 0
-1.9977673292160034 2.4564990997314453 -0.27366945147514343 44
-1.9990297555923462 2.458928108215332 -0.163527250289917 44
-1.9820796251296997 2.438947916030884 -0.053648315370082855 44
-2.0097312927246094 2.473855495452881 0.8432004451751709 44
-2.0051417350769043 2.4690864086151123 0.7249186635017395 44
-1.9885139465332031 2.4494848251342773 0.6052745580673218 44
-1.9939768314361572 2.457090377807617 0.49456945061683655 44
-1.984420657157898 2.4461872577667236 0.38206037878990173 44
-1.997472882270813 2.4631550312042236 0.2741048038005829 44
-1.9987207651138306 2.465573310852051 0.16433489322662354 44
-1.9786664247512817 2.4417059421539307 0.05418971925973892 44
-1.2207988500595093 1.5091757774353027 -0.5098737478256226 119
-1.4056038856506348 1.7382559776306152 -0.5072649121284485 119
-1.6686517000198364 2.06429386138916 -0.508049726486206 119
-2.001187562942505 2.4765584468841553 -0.49824416637420654 119
-1.9917668104171753 2.465780258178711 -0.3844982087612152 0
-1.9829219579696655 2.45570707321167 -0.2727978825569153 44
-1.9810256958007812 2.4542348384857178 -0.16274482011795044 44
-1.9672755002975464 2.438070774078369 -0.05347553268074989 44
-1.991986632347107 2.4695775508880615 0.8393206596374512 44
-1.9903944730758667 2.468485116958618 0.72267085313797 44
-1.9707107543945312 2.444946527481079 0.6024149656295776 44
-1.9760921001434326 2.4524986743927 0.4922254979610443 44
-1.966530680656433 2.4415042400360107 0.3802323341369629 44
-1.9826151132583618 2.462353467941284 0.2732332646846771 44
-1.9807099103927612 2.4608662128448486 0.16354985535144806 44
-1.9607293605804443 2.436912775039673 0.05392793193459511 44
-1.215523362159729 1.513427972793579 -0.5098737478256226 119
-1.3995277881622314 1.7431517839431763 -0.5072649121284485 119
-1.661435842514038 2.070105791091919 -0.508049726486206 119
-1.9801689386367798 2.46812105178833 -0.4951154887676239 119
-1.9738327264785767 2.4611034393310547 -0.38267016410827637 0
-1.9649908542633057 2.4509551525115967 -0.27149057388305664 44
-1.9630787372589111 2.449446201324463 -0.1619623899459839 44
-1.9493756294250488 2.433218240737915 -0.0532163605093956 44
-1.9742966890335083 2.4652061462402344 0.835440993309021 44
-1.9726309776306152 2.464007616043091 0.7192991375923157 44
-1.9529638290405273 2.440314292907715 0.5995554327964783 44
-1.9613490104675293 2.4516689777374268 0.4906628727912903 44
-1.9486976861953735 2.4367268085479736 0.37840431928634644 44
-1.964677095413208 2.4575870037078857 0.2719259262084961 44
-1.9627562761306763 2.4560632705688477 0.16276481747627258 44
-1.9459705352783203 2.4359302520751953 0.053753409534692764 44
-1.2102330923080444 1.5176618099212646 -0.5098737478256226 119
-1.3903979063034058 1.744217038154602 -0.5061401724815369 119
-1.6572585105895996 2.0797312259674072 -0.5090028643608093 119
-1.9530798196792603 2.4518418312072754 -0.49042245745658875 119
-1.9590468406677246 2.4602138996124268 -0.38145145773887634 0
-1.9502192735671997 2.450005531311035 -0.2706190049648285 44
-1.948298692703247 2.448469400405884 -0.16144077479839325 44
-1.931533932685852 2.4282703399658203 -0.052957188338041306 44
-1.9566612243652344 2.4607412815093994 0.8315612077713013 44
-1.9549232721328735 2.4594366550445557 0.7159274220466614 44
-1.9352730512619019 2.4355878829956055 0.5966958403587341 44
-1.9435644149780273 2.446899175643921 0.4883189797401428 44
-1.934008240699768 2.4357409477233887 0.3771856129169464 44
-1.9498932361602783 2.456627368927002 0.27105435729026794 44
-1.944860577583313 2.451165199279785 0.1619797796010971 44
-1.9281357526779175 2.430957555770874 0.05349162220954895 44
-1.201930284500122 1.5180904865264893 -0.5085796117782593 119
-1.384300947189331 1.7490599155426025 -0.5061401724815369 119
-1.6499887704849243 2.085503339767456 -0.5090028643608093 119
-1.932255506515503 2.443150758743286 -0.4872937798500061 119
-1.9412137269973755 2.4553580284118652 -0.3796234428882599 44
-1.932389736175537 2.4450740814208984 -0.26931166648864746 44
-1.930453896522522 2.4435012340545654 -0.1606583446264267 44
-1.916849136352539 2.4271514415740967 -0.05278440937399864 44
-1.9390814304351807 2.456183671951294 0.8276814222335815 44
-1.9372714757919312 2.4547719955444336 0.7125557065010071 44
-1.9176396131515503 2.4307680130004883 0.5938363075256348 44
-1.9288948774337769 2.445913076400757 0.4867563545703888 44
-1.9162768125534058 2.4307851791381836 0.37535756826400757 44
-1.9320571422576904 2.4516823291778564 0.2697470188140869 44
-1.9270226955413818 2.4461722373962402 0.16119474172592163 44
-1.9134525060653687 2.4298181533813477 0.05331709608435631 44
-1.1966238021850586 1.522276759147644 -0.5085796117782593 119
-1.3781870603561401 1.7538813352584839 -0.5061401724815369 119
-1.642698884010315 2.09125018119812 -0.5090028643608093 119
-1.9145656824111938 2.4382283687591553 -0.48494723439216614 119
-1.9265028238296509 2.4543120861053467 -0.37840473651885986 44
-1.9176934957504272 2.443967580795288 -0.2684400975704193 44
-1.9126676321029663 2.4384384155273438 -0.15987591445446014 44
-1.8991109132766724 2.422025442123413 -0.05252524092793465 44
-1.924536943435669 2.4553346633911133 0.8250948786735535 44
-1.9226810932159424 2.4538493156433105 0.7103078961372375 44
-1.9030897617340088 2.4297187328338623 0.5919299721717834 44
-1.911211609840393 2.4409656524658203 0.48441240191459656 44
-1.9016624689102173 2.429643154144287 0.37413886189460754 44
-1.917348861694336 2.450565814971924 0.26887547969818115 44
-1.9092439413070679 2.441084861755371 0.16040968894958496 44
-1.8957215547561646 2.4246673583984375 0.05305531248450279 44
-1.19130277633667 1.526444435119629 -0.5085796117782593 119
-1.372056484222412 1.7586814165115356 -0.5061401724815369 119
-1.6353890895843506 2.0969715118408203 -0.5090028643608093 119
-1.8999701738357544 2.4371068477630615 -0.4833828806877136 119
-1.9087721109390259 2.4492783546447754 -0.376576691865921 44
-1.8999674320220947 2.4388582706451416 -0.2671327590942383 44
-1.8980083465576172 2.437221050262451 -0.1593542993068695 44
-1.8814319372177124 2.4168052673339844 -0.05226606875658035 44
-1.9070558547973633 2.4506030082702637 0.8212151527404785 44
-1.9051295518875122 2.4490091800689697 0.706936240196228 44
-1.8855576515197754 2.4247231483459473 0.5890703797340393 44
-1.8966174125671387 2.439824104309082 0.48284977674484253 44
-1.884034514427185 2.4245104789733887 0.3723108172416687 44
-1.9026718139648438 2.449376344680786 0.268003910779953 44
-1.894586443901062 2.4398467540740967 0.15988633036613464 44
-1.8811155557632446 2.4233717918395996 0.05288079008460045 44
-1.185967206954956 1.5305936336517334 -0.5085796117782593 119
-1.3659093379974365 1.7634600400924683 -0.5061401724815369 119
-1.6310642957687378 2.106548309326172 -0.5099561214447021 119
-1.8823835849761963 2.4320085048675537 -0.48103639483451843 119
-1.8941371440887451 2.4480762481689453 -0.375357985496521 44
-1.8823007345199585 2.4336557388305664 -0.26582542061805725 44
-1.8803269863128662 2.431981086730957 -0.15857186913490295 44
-1.8668698072433472 2.4154469966888428 -0.05209328606724739 44
-1.8925840854644775 2.4496009349823 0.8186286687850952 44
-1.8876349925994873 2.4440767765045166 0.703564465045929 44
-1.8710832595825195 2.4235198497772217 0.5871639847755432 44
-1.8790373802185059 2.4347009658813477 0.48050588369369507 44
-1.8694970607757568 2.423213481903076 0.3710921108722687 44
-1.8849847316741943 2.4441702365875244 0.266696572303772 44
-1.8769124746322632 2.434581995010376 0.15910130739212036 44
-1.8634898662567139 2.418044090270996 0.052619002759456635 44
-1.1806172132492065 1.5347241163253784 -0.5085796117782593 119
-1.3627150058746338 1.7720789909362793 -0.5072649121284485 119
-1.620709776878357 2.108337640762329 -0.5090028643608093 119
-1.8678644895553589 2.430732488632202 -0.47947201132774353 119
-1.8765106201171875 2.442866325378418 -0.37352994084358215 44
-1.864693284034729 2.4283595085144043 -0.2645180821418762 44
-1.862705111503601 2.426647186279297 -0.1577894389629364 44
-1.849297046661377 2.410050392150879 -0.051834121346473694 44
-1.8781427145004272 2.4485275745391846 0.8160421848297119 44
-1.870198369026184 2.439052104949951 0.7001928091049194 44
-1.8536542654037476 2.418349504470825 0.5843043923377991 44
-1.8645195960998535 2.4334044456481934 0.47894322872161865 44
-1.8519741296768188 2.417905330657959 0.3692640960216522 44
-1.8703851699829102 2.4428253173828125 0.2658250033855438 44
-1.8592984676361084 2.4292237758636475 0.1583162546157837 44
-1.8489625453948975 2.416593313217163 0.05244447663426399 44
-1.1749842166900635 1.5390409231185913 -0.5085796117782593 119
-1.3562108278274536 1.7770617008209229 -0.5072649121284485 119
-1.612971305847168 2.1142635345458984 -0.5090028643608093 119
-1.8499590158462524 2.425781726837158 -0.47712549567222595 119
-1.8615268468856812 2.4418342113494873 -0.37231123447418213 44
-1.8497422933578491 2.4272541999816895 -0.26364651322364807 44
-1.847746729850769 2.425513982772827 -0.15726782381534576 44
-1.8343937397003174 2.408857583999634 -0.05166133865714073 44
-1.8603792190551758 2.4438657760620117 0.8121623992919922 44
-1.8553457260131836 2.438136100769043 0.6979449987411499 44
-1.8388347625732422 2.417314291000366 0.5823980569839478 44
-1.8496097326278687 2.4323599338531494 0.4773806035518646 44
-1.8370931148529053 2.4167749881744385 0.3680454194545746 44
-1.852378487586975 2.4377665519714355 0.2645176649093628 44
-1.84434175491333 2.428069829940796 0.15779289603233337 44
-1.8310229778289795 2.411409378051758 0.05218269303441048 44
-1.169604778289795 1.543133020401001 -0.5085796117782593 119
-1.3499994277954102 1.7817848920822144 -0.5072649121284485 119
-1.6085448265075684 2.123793601989746 -0.5099561214447021 119
-1.832537293434143 2.42041277885437 -0.4747789800167084 119
-1.844007134437561 2.436445951461792 -0.3704832196235657 44
-1.8322423696517944 2.4217796325683594 -0.26233920454978943 44
-1.8302333354949951 2.420001745223999 -0.1564854085445404 44
-1.8169293403625488 2.403282642364502 -0.05140216648578644 44
-1.846013069152832 2.4426381587982178 0.8095758557319641 44
-1.8380131721496582 2.4329354763031006 0.6945732235908508 44
-1.8244695663452148 2.415884494781494 0.5804916620254517 44
-1.8321815729141235 2.4269769191741943 0.4750366806983948 44
-1.8196775913238525 2.4112887382507324 0.36621734499931335 44
-1.8348586559295654 2.432288646697998 0.26321035623550415 44
-1.8268359899520874 2.4225330352783203 0.1570078730583191 44
-1.8165706396102905 2.4098060131073 0.05200817063450813 44
-1.1642111539840698 1.5472062826156616 -0.5085796117782593 119
-1.3467003107070923 1.7903801202774048 -0.5083897113800049 119
-1.6011216640472412 2.1293957233428955 -0.5099561214447021 119
-1.8151757717132568 2.414952039718628 -0.4724324643611908 119
-1.829529047012329 2.4349327087402344 -0.36926451325416565 44
-1.817794919013977 2.4201953411102295 -0.2614676356315613 44
-1.8157787322998047 2.4183897972106934 -0.15596379339694977 44
-1.8025273084640503 2.401613473892212 -0.051229387521743774 44
-1.828779697418213 2.4374771118164062 0.8056961894035339 44
-1.8236629962921143 2.4315412044525146 0.6923254132270813 44
-1.8101367950439453 2.414384126663208 0.5785852670669556 44
-1.817775011062622 2.4254539012908936 0.47347405552864075 44
-1.8023228645324707 2.4057109355926514 0.3643893301486969 44
-1.8203856945037842 2.4307048320770264 0.262338787317276 44
-1.8123838901519775 2.420900821685791 0.15648449957370758 44
-1.7991669178009033 2.404120683670044 0.05174638330936432 44
-1.1588032245635986 1.5512607097625732 -0.5085796117782593 119
-1.3404425382614136 1.795069932937622 -0.5083897113800049 119
-1.5936789512634277 2.1349716186523438 -0.5099561214447021 119
-1.7978745698928833 2.4093995094299316 -0.4700859487056732 119
-1.8121165037155151 2.429370403289795 -0.3674364686012268 44
-1.8033809661865234 2.418539524078369 -0.26059606671333313 44
-1.8013577461242676 2.4167063236236572 -0.15544216334819794 44
-1.7851723432540894 2.395864486694336 -0.05097021907567978 44
-1.8144900798797607 2.436099052429199 0.8031096458435059 44
-1.8064353466033936 2.426168441772461 0.688953697681427 44
-1.792906403541565 2.4088759422302246 0.5757257342338562 44
-1.800453543663025 2.4198977947235107 0.4711301326751709 44
-1.7879910469055176 2.4040234088897705 0.3631706237792969 44
-1.8029742240905762 2.4250526428222656 0.26103144884109497 44
-1.7949870824813843 2.4151899814605713 0.1556994616985321 44
-1.7848011255264282 2.402360200881958 0.05157185718417168 44
-1.15338134765625 1.5552961826324463 -0.5085796117782593 119
-1.33126699924469 1.7958240509033203 -0.5072649121284485 119
-1.5862168073654175 2.14052152633667 -0.5099561214447021 119
-1.7806345224380493 2.4037556648254395 -0.46773943305015564 119
-1.7977187633514404 2.427704095840454 -0.36621779203414917 44
-1.7890006303787231 2.4168128967285156 -0.25972452759742737 44
-1.786970853805542 2.414952039718628 -0.1549205482006073 44
-1.7708523273468018 2.39404296875 -0.05079743266105652 44
-1.7973606586456299 2.430767297744751 0.7992298603057861 44
-1.792163610458374 2.424623727798462 0.6867058873176575 44
-1.7786532640457153 2.407224416732788 0.5738193392753601 44
-1.7861274480819702 2.418222665786743 0.46956750750541687 44
-1.7707451581954956 2.398272752761841 0.36134257912635803 44
-1.7885823249816895 2.42331600189209 0.2601598799228668 44
-1.7806165218353271 2.413404941558838 0.1551761031150818 44
-1.7704700231552124 2.400529146194458 0.05139733478426933 44
-1.150808572769165 1.563202142715454 -0.5098737478256226 119
-1.3249902725219727 1.8004601001739502 -0.5072649121284485 119
-1.5787352323532104 2.146045684814453 -0.5099561214447021 119
-1.7663817405700684 2.4019999504089355 -0.4661751091480255 119
-1.783354640007019 2.4259674549102783 -0.36499908566474915 44
-1.7746546268463135 2.415015459060669 -0.2588529586791992 44
-1.772618055343628 2.4131267070770264 -0.15439893305301666 44
-1.7565668821334839 2.392150402069092 -0.050624653697013855 44
-1.780290961265564 2.4253458976745605 0.7953501343727112 44
-1.7750424146652222 2.4190807342529297 0.683334231376648 44
-1.7644336223602295 2.405503034591675 0.5719130039215088 44
-1.7689146995544434 2.412494659423828 0.467223584651947 44
-1.7564952373504639 2.3964340686798096 0.3601239025592804 44
-1.7712807655334473 2.4174911975860596 0.2588525712490082 44
-1.763330340385437 2.4075212478637695 0.1543910652399063 44
-1.7561731338500977 2.398627281188965 0.05122280865907669 44
-1.148194670677185 1.5711090564727783 -0.5111678242683411 119
-1.318697452545166 1.8050742149353027 -0.5072649121284485 119
-1.5712345838546753 2.151543378829956 -0.5099561214447021 119
-1.7492507696151733 2.3961846828460693 -0.46382856369018555 119
-1.7690248489379883 2.4241604804992676 -0.3637803792953491 44
-1.7603428363800049 2.413147211074829 -0.25798138976097107 44
-1.7553579807281494 2.407196283340454 -0.1536165028810501 44
-1.7423163652420044 2.3901877403259277 -0.05045187473297119 44
-1.7632808685302734 2.419835090637207 0.7914703488349915 44
-1.760850429534912 2.4173858165740967 0.6810864210128784 44
-1.750247836112976 2.4037115573883057 0.5700066089630127 44
-1.7546700239181519 2.4106688499450684 0.465660959482193 44
-1.7422797679901123 2.394524574279785 0.35890519618988037 44
-1.756971836090088 2.4156031608581543 0.25798100233078003 44
-1.7490431070327759 2.4055843353271484 0.1538676917552948 44
-1.7389720678329468 2.392611026763916 0.05096102133393288 44
-1.1427035331726074 1.5751073360443115 -0.5111678242683411 119
-1.31238853931427 1.809666395187378 -0.5072649121284485 119
-1.563714623451233 2.1570146083831787 -0.5099561214447021 119
-1.7350802421569824 2.3942787647247314 -0.46226420998573303 119
-1.7547292709350586 2.4222824573516846 -0.3625617027282715 44
-1.7460658550262451 2.4112086296081543 -0.2571098506450653 44
-1.7410888671875 2.405219554901123 -0.15309488773345947 44
-1.7281008958816528 2.3881547451019287 -0.05027909204363823 44
-1.749161958694458 2.4181487560272217 0.7888838648796082 44
-1.7466918230056763 2.415621519088745 0.6788386106491089 44
-1.7332206964492798 2.3978724479675293 0.5671470165252686 44
-1.7404597997665405 2.408773422241211 0.46409836411476135 44
-1.7251932621002197 2.3885223865509033 0.35707715153694153 44
-1.7426975965499878 2.413644790649414 0.25710946321487427 44
-1.7347910404205322 2.4035775661468506 0.15334433317184448 44
-1.724759578704834 2.3905582427978516 0.05078649893403053 44
-1.1371983289718628 1.5790865421295166 -0.5111678242683411 119
-1.3060636520385742 1.8142364025115967 -0.5072649121284485 119
-1.5561758279800415 2.1624600887298584 -0.5099561214447021 119
-1.7209444046020508 2.3923027515411377 -0.4606998860836029 119
-1.7375712394714355 2.4163055419921875 -0.36073365807533264 44
-1.7289165258407593 2.4051554203033447 -0.2558025121688843 44
-1.726854920387268 2.403172492980957 -0.15257327258586884 44
-1.711004614830017 2.3819916248321533 -0.050019923597574234 44
-1.7350763082504272 2.4163930416107178 0.7862973809242249 44
-1.7297260761260986 2.409829616546631 0.6754668354988098 44
-1.7191170454025269 2.3959319591522217 0.5652406811714172 44
-1.726284384727478 2.4068076610565186 0.4625357389450073 44
-1.7110618352890015 2.3864638805389404 0.3558584451675415 44
-1.7255566120147705 2.4075675010681152 0.25580209493637085 44
-1.720574140548706 2.401500701904297 0.15282097458839417 44
-1.7105828523635864 2.3884353637695312 0.05061197280883789 44
-1.1316794157028198 1.583046555519104 -0.5111678242683411 119
-1.3025555610656738 1.8227484226226807 -0.5083897113800049 119
-1.5486178398132324 2.1678788661956787 -0.5099561214447021 119
-1.706843376159668 2.3902575969696045 -0.4591355323791504 119
-1.7233597040176392 2.4142775535583496 -0.359514981508255 44
-1.7147241830825806 2.403066635131836 -0.25493094325065613 44
-1.7097570896148682 2.3969905376434326 -0.1517908275127411 44
-1.696874737739563 2.3798086643218994 -0.04984714463353157 44
-1.7210242748260498 2.4145689010620117 0.7837108373641968 44
-1.7156494855880737 2.4079172611236572 0.6732190251350403 44
-1.7022008895874023 2.3899245262145996 0.5623810887336731 44
-1.7092794179916382 2.400749683380127 0.4601917862892151 44
-1.6969658136367798 2.3843352794647217 0.35463976860046387 44
-1.7113672494888306 2.405458927154541 0.2549305558204651 44
-1.7063933610916138 2.3993539810180664 0.15229761600494385 44
-1.6964417695999146 2.3862428665161133 0.05043745040893555 44
-1.126146674156189 1.5869872570037842 -0.5111678242683411 119
-1.29618501663208 1.8272839784622192 -0.5083897113800049 119
-1.5438802242279053 2.1772751808166504 -0.5109092593193054 119
-1.6927777528762817 2.3881430625915527 -0.4575711786746979 119
-1.7091833353042603 2.412179946899414 -0.3582962453365326 44
-1.7005672454833984 2.4009082317352295 -0.254059374332428 44
-1.6956088542938232 2.39479398727417 -0.15126921236515045 44
-1.6827809810638428 2.377556324005127 -0.04967436566948891 44
-1.7070060968399048 2.4126760959625244 0.7811243534088135 44
-1.701607346534729 2.405935764312744 0.6709712147712708 44
-1.6881810426712036 2.38783597946167 0.560474693775177 44
-1.6951884031295776 2.3986356258392334 0.45862916111946106 44
-1.6829055547714233 2.3821377754211426 0.35342106223106384 44
-1.6972135305404663 2.40328049659729 0.25405898690223694 44
-1.6922483444213867 2.397137403488159 0.15177425742149353 44
-1.6823369264602661 2.3839807510375977 0.0502629280090332 44
-1.1206001043319702 1.5909085273742676 -0.5111678242683411 119
-1.2926032543182373 1.8357807397842407 -0.5095144510269165 119
-1.5362707376480103 2.1826510429382324 -0.5109092593193054 119
-1.6787477731704712 2.3859596252441406 -0.45600685477256775 119
-1.6921879053115845 2.4059536457061768 -0.35646823048591614 44
-1.683581829071045 2.3946056365966797 -0.25275203585624695 44
-1.6814970970153809 2.3925278186798096 -0.15074759721755981 44
-1.6658499240875244 2.3711438179016113 -0.04941519349813461 44
-1.6930224895477295 2.410714864730835 0.7785378694534302 44
-1.687599778175354 2.403885841369629 0.6687234044075012 44
-1.6713770627975464 2.3816614151000977 0.5576151609420776 44
-1.6811327934265137 2.3964524269104004 0.45706653594970703 44
-1.6688814163208008 2.379871368408203 0.3522023856639862 44
-1.6802369356155396 2.396954298019409 0.2527516484260559 44
-1.67527437210083 2.3907625675201416 0.15098923444747925 44
-1.6654008626937866 2.3775548934936523 0.05000114440917969 44
-1.1122726202011108 1.5908523797988892 -0.5098737478256226 119
-1.2861874103546143 1.8402814865112305 -0.5095144510269165 119
-1.5314536094665527 2.1920242309570312 -0.5118624567985535 119
-1.664753794670105 2.383707284927368 -0.45444250106811523 119
-1.6780976057052612 2.403707504272461 -0.3552495241165161 44
-1.6695117950439453 2.392298460006714 -0.2518804669380188 44
-1.664564847946167 2.3860971927642822 -0.14996518194675446 44
-1.6518436670303345 2.3687429428100586 -0.04924241080880165 44
-1.6790729761123657 2.4086856842041016 0.7759513854980469 44
-1.6736276149749756 2.4017674922943115 0.6664755940437317 44
-1.657442569732666 2.3794260025024414 0.5557087659835815 44
-1.6671133041381836 2.394200325012207 0.4555039405822754 44
-1.6548936367034912 2.377535820007324 0.3509836792945862 44
-1.6661698818206787 2.394627332687378 0.25188007950782776 44
-1.6612166166305542 2.388397693634033 0.15046587586402893 44
-1.6513835191726685 2.3751444816589355 0.049826618283987045 44
-1.1122199296951294 1.6026607751846313 -0.5124619007110596 119
-1.282532811164856 1.848763108253479 -0.5106391906738281 119
-1.5237927436828613 2.1973564624786377 -0.5118624567985535 119
-1.6507960557937622 2.3813867568969727 -0.4528781473636627 119
-1.664043664932251 2.4013924598693848 -0.3540308475494385 44
-1.6526421308517456 2.3858280181884766 -0.25057315826416016 44
-1.6505407094955444 2.3836829662323 -0.14944356679916382 44
-1.6378746032714844 2.3662731647491455 -0.04906963184475899 44
-1.6651585102081299 2.406588315963745 0.7733648419380188 44
-1.6596907377243042 2.399580955505371 0.6642277836799622 44
-1.6435439586639404 2.377122402191162 0.5538024306297302 44
-1.6531299352645874 2.3918795585632324 0.45394131541252136 44
-1.6409425735473633 2.3751320838928223 0.34976500272750854 44
-1.6521399021148682 2.3922319412231445 0.251008540391922 44
-1.647195816040039 2.3859634399414062 0.1499425172805786 44
-1.6345642805099487 2.3685507774353027 0.04956483095884323 44
-1.0981212854385376 1.5947928428649902 -0.5085796117782593 119
-1.2785102128982544 1.85746431350708 -0.5117639303207397 119
-1.5157287120819092 2.2029266357421875 -0.5118624567985535 119
-1.636459469795227 2.3792831897735596 -0.4513137936592102 119
-1.649607539176941 2.399296283721924 -0.35281214118003845 44
-1.6382439136505127 2.3836591243743896 -0.249701589345932 44
-1.6361380815505981 2.3814854621887207 -0.14892195165157318 44
-1.6235305070877075 2.364018440246582 -0.048896852880716324 44
-1.6508597135543823 2.404711961746216 0.7707783579826355 44
-1.6453711986541748 2.397613525390625 0.6619800329208374 44
-1.6292672157287598 2.375035524368286 0.5518960356712341 44
-1.6387664079666138 2.3897769451141357 0.45237869024276733 44
-1.623808741569519 2.3688507080078125 0.3479369580745697 44
-1.6377296447753906 2.3900532722473145 0.25013697147369385 44
-1.6299747228622437 2.379626512527466 0.14915746450424194 44
-1.6202232837677002 2.3662760257720947 0.04939030855894089 44
-1.0952728986740112 1.602603793144226 -0.5098737478256226 119
-1.2747670412063599 1.8659387826919556 -0.5128887295722961 119
-1.505261778831482 2.204150676727295 -0.5109092593193054 119
-1.6225756406784058 2.376823902130127 -0.4497494697570801 119
-1.6356277465820312 2.396841526031494 -0.3515934646129608 44
-1.6242997646331787 2.381133794784546 -0.24883003532886505 44
-1.622188925743103 2.3789315223693848 -0.14840032160282135 44
-1.6096371412277222 2.3614096641540527 -0.04872407019138336 44
-1.6370162963867188 2.4024770259857178 0.7681918740272522 44
-1.6315065622329712 2.395289182662964 0.6597322225570679 44
-1.615441918373108 2.372593879699707 0.549989640712738 44
-1.6248570680618286 2.387317180633545 0.4508160650730133 44
-1.6099467277526855 2.366298198699951 0.34671828150749207 44
-1.6237746477127075 2.3875181674957275 0.2492654174566269 44
-1.6160438060760498 2.3770432472229004 0.14863410592079163 44
-1.6063282489776611 2.3636515140533447 0.049215782433748245 44
-1.0869609117507935 1.6024203300476074 -0.5085796117782593 119
-1.2682459354400635 1.8703770637512207 -0.5128887295722961 119
-1.4920508861541748 2.201265811920166 -0.5090028643608093 119
-1.6059587001800537 2.3702077865600586 -0.4474029242992401 119
-1.621685266494751 2.3943183422088623 -0.3503747582435608 44
-1.6131855249404907 2.382664442062378 -0.24839425086975098 44
-1.608277678489685 2.3763091564178467 -0.1478787064552307 44
-1.5957818031311035 2.3587327003479004 -0.0485512912273407 44
-1.6232086420059204 2.400174856185913 0.7656053304672241 44
-1.6176782846450806 2.392896890640259 0.6574844121932983 44
-1.6016539335250854 2.370084762573242 0.5480833053588867 44
-1.6082203388214111 2.38069748878479 0.44847211241722107 44
-1.5933451652526855 2.359564781188965 0.3448902368545532 44
-1.612644076347351 2.3890433311462402 0.248829647898674 44
-1.602150797843933 2.374391794204712 0.1481107473373413 44
-1.5924819707870483 2.3609514236450195 0.0490412600338459 44
nan nan nan 0
-1.261709451675415 1.8747926950454712 -0.5128887295722961 119
-1.478878378868103 2.1983156204223633 -0.507096529006958 119
-1.5921636819839478 2.367603302001953 -0.4458385705947876 119
-1.6077803373336792 2.3917272090911865 -0.34915608167648315 44
-1.5993022918701172 2.3800125122070312 -0.24752268195152283 44
-1.594404697418213 2.3736186027526855 -0.14735709130764008 44
-1.5819648504257202 2.355987548828125 -0.048378512263298035 44
-1.6094372272491455 2.397805690765381 0.7630188465118408 44
-1.603886365890503 2.390437602996826 0.6552366018295288 44
-1.5851688385009766 2.3634321689605713 0.5452237129211426 44
-1.5944000482559204 2.3780927658081055 0.44690951704978943 44
-1.579573154449463 2.3568670749664307 0.3436715304851532 44
-1.598750114440918 2.3863816261291504 0.24795809388160706 44
-1.5910745859146118 2.375821113586426 0.14784908294677734 44
-1.5786690711975098 2.358187198638916 0.04886673390865326 44
nan nan nan 0
-1.255157470703125 1.879185438156128 -0.5128887295722961 119
-1.4575685262680054 2.183054208755493 -0.5023306012153625 119
-1.5784064531326294 2.364931344985962 -0.44427424669265747 119
-1.5939133167266846 2.389068365097046 -0.34793737530708313 44
-1.585457444190979 2.3772928714752197 -0.24665112793445587 44
-1.580569863319397 2.3708603382110596 -0.14683546125888824 44
-1.5681865215301514 2.353175163269043 -0.04820572957396507 44
-1.5957019329071045 2.3953697681427 0.7604323029518127 44
-1.5874313116073608 2.3838560581207275 0.6518648266792297 44
-1.5741894245147705 2.3648650646209717 0.5442705154418945 44
-1.5778816938400269 2.371309280395508 0.4445655941963196 44
-1.565839409828186 2.354102373123169 0.34245285391807556 44
-1.5848946571350098 2.3836522102355957 0.2470865398645401 44
-1.5772439241409302 2.3730437755584717 0.14732570946216583 44
-1.5648947954177856 2.3553555011749268 0.048692211508750916 44
nan nan nan 0
-1.2485902309417725 1.8835554122924805 -0.5128887295722961 119
-1.466206669807434 2.2126781940460205 -0.508049726486206 119
-1.5646874904632568 2.3621926307678223 -0.44270989298820496 119
-1.5800846815109253 2.3863418102264404 -0.3467186689376831 44
-1.5716512203216553 2.3745055198669434 -0.24577957391738892 44
-1.5667738914489746 2.368034601211548 -0.1463138461112976 44
-1.5544472932815552 2.350295305252075 -0.04803295060992241 44
-1.5793399810791016 2.388838529586792 0.7565525770187378 44
-1.5737279653549194 2.381253480911255 0.6496170163154602 44
-1.560513973236084 2.362154960632324 0.5423641800880432 44
-1.5641518831253052 2.368560552597046 0.44300296902656555 44
-1.5521445274353027 2.3512704372406006 0.34123414754867554 44
-1.571077823638916 2.3808553218841553 0.24621498584747314 44
-1.5634520053863525 2.3701987266540527 0.14680235087871552 44
-1.5511595010757446 2.3524563312530518 0.04851768910884857 44
-1.0458959341049194 1.5892001390457153 -0.4995209574699402 119
-1.242007851600647 1.8879022598266602 -0.5128887295722961 119
-1.4638679027557373 2.225984573364258 -0.5099561214447021 119
-1.55100679397583 2.359386682510376 -0.44114553928375244 119
-1.5662943124771118 2.3835480213165283 -0.34549999237060547 44
-1.5578837394714355 2.3716506958007812 -0.24490801990032196 44
-1.553017258644104 2.3651418685913086 -0.14579223096370697 44
-1.538003921508789 2.3431687355041504 -0.047773778438568115 44
-1.5656925439834595 2.386260509490967 0.7539660334587097 44
-1.5600621700286865 2.378584384918213 0.6473692059516907 44
-1.5468766689300537 2.3593785762786865 0.5404577851295471 44
-1.5504602193832397 2.3657448291778564 0.4414403438568115 44
-1.5384883880615234 2.348371744155884 0.3400154411792755 44
-1.5572997331619263 2.37799072265625 0.2453434020280838 44
-1.5524343252182007 2.371464252471924 0.14654067158699036 44
-1.5374637842178345 2.3494904041290283 0.04834316298365593 44
-1.0641112327575684 1.629233479499817 -0.5111678242683411 119
-1.2327468395233154 1.8881466388702393 -0.5117639303207397 119
-1.4641367197036743 2.2434120178222656 -0.5128157138824463 119
-1.5373648405075073 2.3565139770507812 -0.4395812153816223 119
-1.5525429248809814 2.3806872367858887 -0.34428128600120544 44
-1.544155478477478 2.3687291145324707 -0.2440364509820938 44
-1.5392998456954956 2.3621816635131836 -0.14527061581611633 44
-1.5243580341339111 2.3401451110839844 -0.04760099574923515 44
-1.5520825386047363 2.3836162090301514 0.7513795495033264 44
-1.5464344024658203 2.3758490085601807 0.6451213955879211 44
-1.5332777500152588 2.3565354347229004 0.538551390171051 44
-1.5395002365112305 2.367002487182617 0.4406590163707733 44
-1.5275764465332031 2.34956693649292 0.3394061028957367 44
-1.5435608625411987 2.3750593662261963 0.24447184801101685 44
-1.5387064218521118 2.3684945106506348 0.14601731300354004 44
-1.523807406425476 2.3464572429656982 0.048168640583753586 44
-1.0450018644332886 1.6128567457199097 -0.504697322845459 119
-1.2231698036193848 1.8885632753372192 -0.5106391906738281 119
-1.4639067649841309 2.2611238956451416 -0.5156752467155457 119
-1.5233513116836548 2.3538410663604736 -0.4380168616771698 119
-1.5384154319763184 2.3780276775360107 -0.3430625796318054 44
-1.530053734779358 2.3660075664520264 -0.24316489696502686 44
-1.5279209613800049 2.363614320755005 -0.14500980079174042 44
-1.5076310634613037 2.333120346069336 -0.047341831028461456 44
-1.538094401359558 2.3811748027801514 0.7487930655479431 44
-1.5324304103851318 2.3733150959014893 0.6428735852241516 44
-1.5193066596984863 2.353891372680664 0.5366449952125549 44
-1.5254595279693604 2.3643295764923096 0.4390964210033417 44
-1.5135750770568848 2.346808910369873 0.33818739652633667 44
-1.5294474363327026 2.372328042984009 0.2436002939939499 44
-1.5246055126190186 2.3657243251800537 0.14549395442008972 44
-1.509782075881958 2.343621253967285 0.047994114458560944 44
-1.0184696912765503 1.5839955806732178 -0.4943445920944214 119
-1.2139358520507812 1.8887228965759277 -0.5095144510269165 119
-1.4453924894332886 2.249702215194702 -0.5118624567985535 119
-1.509788155555725 2.3508336544036865 -0.4364525079727173 119
-1.5247430801391602 2.375030755996704 -0.3418438732624054 44
-1.5137147903442383 2.358757972717285 -0.24185754358768463 44
-1.5142688751220703 2.360527753829956 -0.14448818564414978 44
-1.4967790842056274 2.334160089492798 -0.047255437821149826 44
-1.5245603322982788 2.378396987915039 0.746206521987915 44
-1.5188796520233154 2.370445489883423 0.6406258344650269 44
-1.5057860612869263 2.3509140014648438 0.5347386002540588 44
-1.5145341157913208 2.365480899810791 0.43831509351730347 44
-1.5026987791061401 2.347898006439209 0.33757805824279785 44
-1.5157885551452637 2.369260787963867 0.24272873997688293 44
-1.5109578371047974 2.3626184463500977 0.1449705958366394 44
-1.4962012767791748 2.340456485748291 0.0478195920586586 44
-1.0363144874572754 1.624184250831604 -0.5059914588928223 119
-1.2047158479690552 1.8888415098190308 -0.5083897113800049 119
-1.4322535991668701 2.2464563846588135 -0.5099561214447021 119
-1.4962646961212158 2.3477604389190674 -0.43488818407058716 119
-1.5111104249954224 2.3719677925109863 -0.34062519669532776 44
-1.5001208782196045 2.3556249141693115 -0.24098598957061768 44
-1.5033384561538696 2.3615870475769043 -0.14422737061977386 44
-1.4859384298324585 2.335153102874756 -0.047169048339128494 44
-1.5110642910003662 2.375553607940674 0.7436200380325317 44
-1.5079818964004517 2.371621608734131 0.6395019292831421 44
-1.492304801940918 2.3478710651397705 0.5328322649002075 44
-1.5009709596633911 2.3624162673950195 0.43675246834754944 44
-1.4891726970672607 2.3447506427764893 0.3363593816757202 44
-1.5021697282791138 2.3661274909973145 0.24185717105865479 44
-1.4973506927490234 2.3594467639923096 0.1444472372531891 44
-1.482672095298767 2.3372185230255127 0.047645069658756256 44
nan nan nan 0
-1.1929043531417847 1.8848021030426025 -0.5061401724815369 119
-1.4191548824310303 2.2431466579437256 -0.508049726486206 119
-1.482781171798706 2.344621419906616 -0.43332383036613464 119
-1.5001696348190308 2.373033285140991 -0.34001585841178894 44
-1.4865672588348389 2.3524253368377686 -0.24011443555355072 44
-1.4870859384536743 2.354156017303467 -0.1434449553489685 44
-1.4751089811325073 2.3360984325408936 -0.047082655131816864 44
-1.4976069927215576 2.372645139694214 0.7410335540771484 44
-1.4944945573806763 2.3686301708221436 0.6372541189193726 44
-1.4788635969161987 2.3447630405426025 0.5309258699417114 44
-1.4874478578567505 2.359286069869995 0.4351898431777954 44
-1.475687026977539 2.3415377140045166 0.3351406753063202 44
-1.491246223449707 2.3671419620513916 0.2414214164018631 44
-1.4837841987609863 2.3562088012695312 0.14392387866973877 44
-1.4691781997680664 2.333918333053589 0.047470543533563614 44
-1.032658338546753 1.6436479091644287 -0.5098737478256226 119
-1.1889088153839111 1.8930801153182983 -0.5072649121284485 119
-1.4113162755966187 2.24808669090271 -0.508049726486206 119
-1.469337821006775 2.341416835784912 -0.43175947666168213 119
-1.486602783203125 2.369847536087036 -0.3387971520423889 44
-1.4730544090270996 2.3491601943969727 -0.23924288153648376 44
-1.473555564880371 2.3508710861206055 -0.14292334020137787 44
-1.4642910957336426 2.3369970321655273 -0.04699626937508583 44
-1.484188437461853 2.3696718215942383 0.7384470701217651 44
-1.4810467958450317 2.3655736446380615 0.635006308555603 44
-1.4654618501663208 2.3415896892547607 0.5290194749832153 44
-1.4739649295806885 2.3560903072357178 0.4336272180080414 44
-1.462241768836975 2.338258981704712 0.33392199873924255 44
-1.477693796157837 2.3638858795166016 0.24054984748363495 44
-1.4702584743499756 2.352905035018921 0.14340052008628845 44
-1.4557254314422607 2.330552339553833 0.04729602113366127 44
-0.9783691763877869 1.569372296333313 -0.4852859377861023 119
-1.1874467134475708 1.9054880142211914 -0.5095144510269165 119
