# .PCD v0.7 - Point Cloud Data file format
VERSION 0.7
FIELDS x y z intensity
SIZE 4 4 4 4
TYPE F F F F
COUNT 1 1 1 1
WIDTH 787
HEIGHT 1
VIEWPOINT 0 0 0 1 0 0 0
POINTS 787
DATA ascii
-2.0165042877197266 -4.41868257522583 0.5916756391525269 116
-1.9170581102371216 -4.198829650878906 0.40048062801361084 116
-1.8124860525131226 -3.9679582118988037 0.22661468386650085 116
-1.684462547302246 -3.6859822273254395 0.07007140666246414 116
-0.8103717565536499 -1.769189715385437 -0.5111678242683411 119
-0.9251973628997803 -2.018944263458252 -0.5038906931877136 119
-1.136912226676941 -2.4798007011413574 -0.5223475694656372 119
-1.3295331001281738 -2.898604154586792 -0.4990263283252716 115
-1.336502194404602 -2.912456512451172 -0.3887636363506317 115
-1.4478559494018555 -3.15366268157959 -0.3002519905567169 115
-1.441499948501587 -3.138373613357544 -0.17839334905147552 115
-1.554412841796875 -3.382646083831787 -0.06366957724094391 115
nan nan nan 0
nan nan nan 0
-2.406331777572632 -5.229336738586426 1.110464334487915 116
-2.2898192405700684 -4.973850727081299 0.8602226972579956 116
-2.0319161415100098 -4.411616802215576 0.5916756391525269 116
-1.9337875843048096 -4.196636199951172 0.4009164273738861 116
-1.8284162282943726 -3.966142177581787 0.226876363158226 116
-1.6973187923431396 -3.680079936981201 0.07007140666246414 116
-0.8165424466133118 -1.766350269317627 -0.5111678242683411 119
-0.9322391748428345 -2.015702486038208 -0.5038906931877136 119
-1.1414393186569214 -2.4669079780578613 -0.5204411745071411 119
-1.3396430015563965 -2.8939459323883057 -0.4990263283252716 115
-1.3466603755950928 -2.907773494720459 -0.3887636363506317 115
-1.460949420928955 -3.153108596801758 -0.3006877601146698 115
-1.4524462223052979 -3.1333227157592773 -0.17839334905147552 115
-1.5662109851837158 -3.377199649810791 -0.06366957724094391 115
-3.3518855571746826 -7.224321365356445 2.1222269535064697 118
-3.3925538063049316 -7.308632850646973 1.849947452545166 118
-2.42663836479187 -5.2253570556640625 1.111417531967163 116
-2.3092479705810547 -4.970305919647217 0.8610039949417114 116
-2.0493948459625244 -4.408997058868408 0.5922849774360657 116
-1.9484248161315918 -4.1898603439331055 0.4009164273738861 116
-1.844355583190918 -3.9642622470855713 0.22713802754878998 116
-1.712263822555542 -3.6786649227142334 0.07015866786241531 116
-0.8227031826972961 -1.7634891271591187 -0.5111678242683411 119
-0.9392696022987366 -2.0124361515045166 -0.5038906931877136 119
-1.1479666233062744 -2.458461046218872 -0.5194879770278931 119
-1.3497366905212402 -2.889251947402954 -0.4990263283252716 115
-1.356802225112915 -2.903055191040039 -0.3887636363506317 115
-1.4740569591522217 -3.1525020599365234 -0.30112355947494507 115
-1.4633746147155762 -3.1282336711883545 -0.17839334905147552 115
-1.5801092386245728 -3.376239776611328 -0.06375596672296524 115
-3.3791310787200928 -7.216952323913574 2.1235201358795166 118
-3.610250234603882 -7.70706033706665 1.9544706344604492 118
-2.446946382522583 -5.221299171447754 1.1123707294464111 117
-2.3307766914367676 -4.971157550811768 0.8625666499137878 116
-2.066880226135254 -4.406309604644775 0.5928943157196045 116
-1.9651542901992798 -4.187542915344238 0.401352196931839 116
-1.8581821918487549 -3.9577999114990234 0.22713802754878998 116
-1.7272199392318726 -3.6771910190582275 0.07024593651294708 116
-0.8288539052009583 -1.7606066465377808 -0.5111678242683411 119
-0.9462885856628418 -2.0091450214385986 -0.5038906931877136 119
-1.150264859199524 -2.4411189556121826 -0.5166284441947937 119
-1.3619195222854614 -2.8889896869659424 -0.49980852007865906 115
-1.3690444231033325 -2.902789831161499 -0.38937297463417053 115
-1.4850521087646484 -3.1473374366760254 -0.30112355947494507 115
-1.476416826248169 -3.12762188911438 -0.17865416407585144 115
-1.5940197706222534 -3.3752241134643555 -0.06384235620498657 115
-2.5480268001556396 -5.392828941345215 1.5868204832077026 117
-2.5648458003997803 -5.425973892211914 1.3756595849990845 117
-2.4672553539276123 -5.217162609100342 1.1133239269256592 117
-2.3502273559570312 -4.967456340789795 0.8633479475975037 116
-2.08437180519104 -4.4035539627075195 0.5935036540031433 116
-1.9818915128707886 -4.185159683227539 0.40178799629211426 116
-1.8741241693496704 -3.9558022022247314 0.22739972174167633 116
-1.742186188697815 -3.67565655708313 0.07033319026231766 116
-0.8349944949150085 -1.7577027082443237 -0.5111678242683411 119
-0.9532960057258606 -2.0058298110961914 -0.5038906931877136 119
-1.154563546180725 -2.4282233715057373 -0.5147220492362976 119
-1.3719956874847412 -2.884218215942383 -0.49980852007865906 115
-1.3791687488555908 -2.897993326187134 -0.38937297463417053 115
-1.4981706142425537 -3.146631956100464 -0.30155932903289795 115
-1.4873253107070923 -3.1224491596221924 -0.17865416407585144 115
-1.6057918071746826 -3.3696396350860596 -0.06384235620498657 115
-2.5751500129699707 -5.401340961456299 1.5919934511184692 117
-2.579575300216675 -5.4081926345825195 1.373411774635315 117
-2.4896795749664307 -5.217378616333008 1.1152303218841553 117
-2.369680166244507 -4.963678359985352 0.8641291856765747 116
-2.1018693447113037 -4.400729656219482 0.5941130518913269 116
-1.9986356496810913 -4.182709693908691 0.40222373604774475 116
-1.8900747299194336 -3.9537413120269775 0.2276614010334015 116
-1.755005955696106 -3.669552803039551 0.07033319026231766 116
-0.841124951839447 -1.7547773122787476 -0.5111678242683411 119
-0.9602919220924377 -2.0024898052215576 -0.5038906931877136 119
-1.1545400619506836 -2.4064769744873047 -0.5109092593193054 119
-1.3820551633834839 -2.879411458969116 -0.49980852007865906 115
-1.3914244174957275 -2.8976352214813232 -0.38998231291770935 115
-1.5091452598571777 -3.141383171081543 -0.30155932903289795 115
-1.5003786087036133 -3.121738910675049 -0.17891496419906616 115
-1.6197106838226318 -3.3685190677642822 -0.0639287456870079 115
-3.6659889221191406 -7.620766639709473 2.254138708114624 118
-3.6780824661254883 -7.642491340637207 1.9477273225784302 118
-2.505747079849243 -5.204233646392822 1.1142771244049072 117
-2.3912785053253174 -4.964275360107422 0.8656918406486511 117
-2.1193723678588867 -4.397836685180664 0.5947223901748657 116
-2.0153870582580566 -4.18019437789917 0.40265953540802 116
-1.9060333967208862 -3.9516167640686035 0.22792308032512665 116
-1.76997709274292 -3.6679065227508545 0.07042045146226883 116
-0.8472450971603394 -1.7518305778503418 -0.5111678242683411 119
-0.9672759771347046 -1.999125599861145 -0.5038906931877136 119
-1.17148756980896 -2.4201037883758545 -0.5147220492362976 119
-1.3920977115631104 -2.8745694160461426 -0.49980852007865906 115
-1.4015305042266846 -2.8927605152130127 -0.38998231291770935 115
-1.5222740173339844 -3.140578269958496 -0.30199509859085083 115
-1.5112663507461548 -3.1164824962615967 -0.17891496419906616 115
-1.63145911693573 -3.362844705581665 -0.0639287456870079 115
-2.4841506481170654 -5.118180274963379 1.5131051540374756 117
-2.4768126010894775 -5.100794792175293 1.2992340326309204 117
nan nan nan 0
-2.408592700958252 -4.955897808074951 0.8656918406486511 117
-2.13688063621521 -4.394874572753906 0.5953316688537598 116
-2.0321452617645264 -4.177613258361816 0.4030953049659729 116
-1.9220006465911865 -3.949429512023926 0.228184774518013 116
-1.7849582433700562 -3.666201114654541 0.0705077201128006 116
-0.8533549904823303 -1.748862385749817 -0.5111678242683411 119
-0.9763854742050171 -2.000114917755127 -0.5050153732299805 119
-1.1842360496520996 -2.4248206615448 -0.5166284441947937 119
-1.4021234512329102 -2.869692802429199 -0.49980852007865906 115
-1.4137991666793823 -2.8923091888427734 -0.39059168100357056 115
-1.5354156494140625 -3.1397199630737305 -0.3024308979511261 115
-1.5243301391601562 -3.115673542022705 -0.17917577922344208 115
-1.645385503768921 -3.361619710922241 -0.06401513516902924 115
-2.4616434574127197 -5.027060508728027 1.4885332584381104 117
-2.5310404300689697 -5.166496753692627 1.3183404207229614 117
-2.542018175125122 -5.1866135597229 1.1142771244049072 117
-2.425877332687378 -4.947460174560547 0.8656918406486511 117
-2.1543943881988525 -4.391844272613525 0.5959410667419434 116
-2.046715497970581 -4.170494079589844 0.4030953049659729 116
-1.9357750415802002 -3.9426963329315186 0.228184774518013 116
-1.7977447509765625 -3.6599478721618652 0.0705077201128006 116
-0.8594544529914856 -1.7458730936050415 -0.5111678242683411 119
-0.981208860874176 -1.9923239946365356 -0.5038906931877136 119
-1.1970317363739014 -2.4294779300689697 -0.5185348391532898 119
-1.412131905555725 -2.864780902862549 -0.49980852007865906 115
-1.4260814189910889 -2.8918075561523438 -0.39120104908943176 115
-1.5463660955429077 -3.134341239929199 -0.3024308979511261 115
-1.53740656375885 -3.1148109436035156 -0.179436594247818 115
-1.6593232154846191 -3.3603384494781494 -0.06410152465105057 115
-2.42783522605896 -4.914511203765869 1.4574952125549316 117
-3.6089630126953125 -7.302182674407959 1.8701777458190918 118
-2.5644583702087402 -5.1865081787109375 1.1161835193634033 117
-2.445322036743164 -4.94338846206665 0.8664731979370117 117
-2.1697115898132324 -4.3842973709106445 0.5959410667419434 116
-2.0634708404541016 -4.167788505554199 0.40353110432624817 116
-1.9517416954040527 -3.9403889179229736 0.22844643890857697 116
-1.8127291202545166 -3.6581296920776367 0.07059498131275177 116
-0.8655434846878052 -1.742862343788147 -0.5111678242683411 119
-0.9903250336647034 -1.9932496547698975 -0.5050153732299805 119
-1.2055048942565918 -2.4252848625183105 -0.5185348391532898 119
-1.4243221282958984 -2.864255905151367 -0.5005906820297241 115
-1.4383776187896729 -2.8912551403045654 -0.3918103873729706 115
-1.5595167875289917 -3.133383274078369 -0.302866667509079 115
-1.5482699871063232 -3.1094255447387695 -0.179436594247818 115
-1.6710429191589355 -3.3545258045196533 -0.06410152465105057 115
-2.410506248474121 -4.836842060089111 1.4368032217025757 117
-3.61486554145813 -7.250299453735352 1.860062599182129 118
-2.4050889015197754 -4.8217549324035645 1.0389752388000488 117
-2.416254997253418 -4.842024803161621 0.8500656485557556 117
-2.1872191429138184 -4.381137371063232 0.5965504050254822 116
-2.0780065059661865 -4.160560607910156 0.40353110432624817 116
-1.9654842615127563 -3.9335520267486572 0.22844643890857697 116
-1.8277226686477661 -3.6562514305114746 0.07068223506212234 116
-0.8716219067573547 -1.739830493927002 -0.5111678242683411 119
-0.9972767233848572 -1.9897806644439697 -0.5050153732299805 119
-1.2117632627487183 -2.4166743755340576 -0.517581582069397 119
-1.4343116283416748 -2.859266757965088 -0.5005906820297241 115
-1.4506871700286865 -2.8906524181365967 -0.3924197256565094 115
-1.572679877281189 -3.1323721408843994 -0.30330246686935425 115
-1.5613555908203125 -3.108464002609253 -0.1796974092721939 115
-1.6849868297576904 -3.3531391620635986 -0.0641879141330719 115
-2.397003412246704 -4.767984867095947 1.4186975955963135 117
-2.416443109512329 -4.804563045501709 1.231799840927124 117
-2.41969895362854 -4.808945178985596 1.0380220413208008 117
-2.4819939136505127 -4.93060827255249 0.8672544360160828 117
-2.204730987548828 -4.377908229827881 0.5971598029136658 117
-2.0947580337524414 -4.157729625701904 0.40396684408187866 116
-1.9814505577087402 -3.931126356124878 0.22870811820030212 116
-1.842725157737732 -3.654313087463379 0.07076950371265411 116
-0.8773865699768066 -1.7369303703308105 -0.5111678242683411 119
-1.0035228729248047 -1.9866377115249634 -0.5050153732299805 119
-1.2171356678009033 -2.408474922180176 -0.5166284441947937 119
-1.4432871341705322 -2.8547465801239014 -0.5005906820297241 115
-1.462001085281372 -2.8905088901519775 -0.3930290639400482 115
-1.5825127363204956 -3.1274161338806152 -0.30330246686935425 115
-1.5733685493469238 -3.1079983711242676 -0.17995820939540863 115
-1.6955126523971558 -3.3478291034698486 -0.0641879141330719 115
-2.368312120437622 -4.674263000488281 1.392832636833191 117
-2.4535529613494873 -4.840404510498047 1.2430387735366821 117
-3.66685152053833 -7.2308878898620605 1.5670416355133057 118
-2.6337690353393555 -5.191442966461182 0.9149144291877747 117
-2.220719814300537 -4.375385284423828 0.5977690815925598 117
-2.110064744949341 -4.155569553375244 0.40440264344215393 116
-1.9960522651672363 -3.9293339252471924 0.22896979749202728 116
-1.8564611673355103 -3.6529624462127686 0.07085676491260529 116
-0.8831416368484497 -1.7340112924575806 -0.5111678242683411 119
-1.00823974609375 -1.978782057762146 -0.5038906931877136 119
-1.22330641746521 -2.39983868598938 -0.5156752467155457 119
-1.4532432556152344 -2.849691390991211 -0.5005906820297241 115
-1.4720818996429443 -2.885387897491455 -0.3930290639400482 115
-1.5956841707229614 -3.126309394836426 -0.30373823642730713 115
-1.5842078924179077 -3.102487564086914 -0.17995820939540863 116
-1.7094627618789673 -3.3463423252105713 -0.06427431106567383 115
-2.3626344203948975 -4.622960567474365 1.3799002170562744 117
-3.6947269439697266 -7.226349353790283 1.8634344339370728 118
-3.696540117263794 -7.226783752441406 1.5689479112625122 118
-2.795858144760132 -5.463586330413818 0.9649182558059692 117
-2.240502119064331 -4.376441955566406 0.5989878177642822 117
-2.126828193664551 -4.152612209320068 0.4048384428024292 116
-2.0120327472686768 -3.926786184310913 0.22923149168491364 116
-1.8692011833190918 -3.6464600563049316 0.07085676491260529 116
-0.8897932171821594 -1.730607509613037 -0.5111678242683411 119
-1.0158302783966064 -1.9748961925506592 -0.5038906931877136 119
-1.234757900238037 -2.3994882106781006 -0.5166284441947937 119
-1.464174509048462 -2.844090223312378 -0.5005906820297241 115
-1.4854226112365723 -2.8841264247894287 -0.3936384320259094 115
-1.6099580526351929 -3.124587059020996 -0.30417400598526 116
-1.5983967781066895 -3.1008200645446777 -0.18021902441978455 116
-1.7222992181777954 -3.3397538661956787 -0.06427431106567383 115
-2.356008768081665 -4.566638946533203 1.365674376487732 117
-3.7313852310180664 -7.229427337646484 1.8679299354553223 118
-3.7377736568450928 -7.238704204559326 1.5746670961380005 118
nan nan nan 0
-2.259568452835083 -4.372215747833252 0.599597156047821 117
-2.145045042037964 -4.148839950561523 0.4052742123603821 115
-2.0293896198272705 -3.923466444015503 0.2294931560754776 116
-1.8854864835739136 -3.6436963081359863 0.07094403356313705 116
-0.8958287835121155 -1.727491021156311 -0.5111678242683411 119
-1.0227177143096924 -1.9713382720947266 -0.5038906931877136 119
-1.2453871965408325 -2.399519681930542 -0.517581582069397 119
-1.4786449670791626 -2.8477280139923096 -0.502155065536499 115
-1.4977686405181885 -2.8833274841308594 -0.39424777030944824 115
-1.6231518983840942 -3.1233677864074707 -0.3046097755432129 116
-1.6115142107009888 -3.09965181350708 -0.18047983944416046 116
-1.7362533807754517 -3.3381567001342773 -0.06436069309711456 115
-2.345181703567505 -4.5069732666015625 1.3501553535461426 117
-2.34381103515625 -4.502419471740723 1.1621177196502686 117
-2.352843999862671 -4.517846584320068 0.9817839860916138 117
-2.8381147384643555 -5.447325229644775 0.9656995534896851 117
-2.2771103382110596 -4.368701934814453 0.6002064943313599 117
-2.1618170738220215 -4.145743370056152 0.40570998191833496 115
-2.045382261276245 -3.920785903930664 0.22975483536720276 116
-1.900512456893921 -3.6415209770202637 0.07103128731250763 116
-0.9018533825874329 -1.7243534326553345 -0.5111678242683411 119
-1.0273340940475464 -1.9634394645690918 -0.5027658939361572 119
-1.2537554502487183 -2.395157814025879 -0.517581582069397 119
-1.497740387916565 -2.860048532485962 -0.505283772945404 115
-1.507824182510376 -2.878082036972046 -0.39424777030944824 115
-1.6363568305969238 -3.1220948696136475 -0.30504557490348816 116
-1.6246429681777954 -3.0984299182891846 -0.18074063956737518 116
-1.7502175569534302 -3.33650279045105 -0.06444709002971649 115
-2.3339672088623047 -4.447438716888428 1.3346363306045532 117
-2.3957488536834717 -4.563229560852051 1.1801002025604248 117
-2.3868587017059326 -4.544369220733643 0.9894095063209534 117
-2.8663010597229004 -5.454872131347656 0.9688248038291931 117
-2.2946553230285645 -4.365119934082031 0.6008158326148987 117
-2.178593635559082 -4.142580032348633 0.40614575147628784 115
-2.0613808631896973 -3.9180407524108887 0.2300165295600891 115
-1.9155349731445312 -3.639292001724243 0.0711185485124588 116
-0.9078670144081116 -1.7211949825286865 -0.5111678242683411 119
-1.0341814756393433 -1.9598413705825806 -0.5027658939361572 119
-1.262108564376831 -2.3907668590545654 -0.517581582069397 119
-1.5169397592544556 -2.872270345687866 -0.5084124207496643 115
-1.5201797485351562 -2.8771889209747314 -0.39485710859298706 115
-1.649572730064392 -3.120767593383789 -0.30548134446144104 116
-1.6377826929092407 -3.097153902053833 -0.1810014545917511 116
-1.7641912698745728 -3.334792137145996 -0.06453347951173782 116
-2.322366237640381 -4.388038635253906 1.3191173076629639 117
-2.3181920051574707 -4.378303050994873 1.1340200901031494 117
-3.8156678676605225 -7.203503131866455 1.575620174407959 118
-2.885324478149414 -5.444833755493164 0.9688248038291931 117
-2.3122031688690186 -4.361468315124512 0.6014251708984375 117
-2.1953744888305664 -4.139350891113281 0.4065815508365631 115
-2.077385187149048 -3.9152324199676514 0.23027820885181427 115
-1.9282268285751343 -3.6325833797454834 0.0711185485124588 115
-0.9138695597648621 -1.718015432357788 -0.5111678242683411 119
-1.0387277603149414 -1.9519189596176147 -0.5016411542892456 119
-1.2704461812973022 -2.3863468170166016 -0.517581582069397 119
-1.5385640859603882 -2.888751268386841 -0.512323260307312 115
-1.5302138328552246 -2.8718650341033936 -0.39485710859298706 115
-1.6604561805725098 -3.114990472793579 -0.30548134446144104 116
-1.6485837697982788 -3.0914180278778076 -0.1810014545917511 116
-1.7781742811203003 -3.333024501800537 -0.06461986899375916 116
-2.3103787899017334 -4.328773498535156 1.3035982847213745 117
-2.30362868309021 -4.314313888549805 1.1194093227386475 117
-3.852353096008301 -7.211787223815918 1.5803861618041992 118
nan nan nan 0
-2.332092761993408 -4.362123489379883 0.6026438474655151 117
-2.2121593952178955 -4.136054515838623 0.407017320394516 115
-2.0933945178985596 -3.9123592376708984 0.23053987324237823 115
-1.9432544708251953 -3.6302378177642822 0.07120581716299057 115
-0.9175779819488525 -1.7105590105056763 -0.5098737478256226 119
-1.0455348491668701 -1.948281168937683 -0.5016411542892456 119
-1.2764467000961304 -2.377573251724243 -0.5166284441947937 119
-1.5463016033172607 -2.8790125846862793 -0.5115411281585693 115
-1.5425779819488525 -2.870877742767334 -0.3954664468765259 115
-1.6736778020858765 -3.113562822341919 -0.3059171438217163 116
-1.6617296934127808 -3.0900423526763916 -0.18126225471496582 116
-1.7921663522720337 -3.3311996459960938 -0.06470625847578049 116
-2.298006772994995 -4.269647121429443 1.2880792617797852 117
-2.293266773223877 -4.259058952331543 1.107046365737915 117
-2.2923243045806885 -4.255529403686523 0.9312649369239807 117
nan nan nan 0
nan nan nan 0
-2.228947639465332 -4.132691383361816 0.40745308995246887 117
-2.1094095706939697 -3.9094223976135254 0.2308015525341034 115
-1.9582891464233398 -3.6278316974639893 0.07129307836294174 115
-0.923543393611908 -1.707345724105835 -0.5098737478256226 119
-1.0500104427337646 -1.9403347969055176 -0.5005163550376892 119
-1.2847381830215454 -2.373103141784668 -0.5166284441947937 119
-1.5563418865203857 -2.8735976219177246 -0.5115411281585693 115
-1.554954171180725 -2.8698391914367676 -0.3960758149623871 115
-1.686909556388855 -3.1120803356170654 -0.3063529133796692 116
-1.6748861074447632 -3.0886120796203613 -0.18152306973934174 116
-1.8061673641204834 -3.329317569732666 -0.06479264795780182 115
-2.2875537872314453 -4.21490478515625 1.2738534212112427 117
-2.2732486724853516 -4.186803817749023 1.0901877880096436 117
-2.3235645294189453 -4.277693271636963 0.937937319278717 117
-2.906813383102417 -5.349231719970703 0.9571051597595215 114
-2.343526840209961 -4.310855388641357 0.5977690815925598 117
-2.245739698410034 -4.129261016845703 0.40788885951042175 117
-2.12542986869812 -3.906421661376953 0.23106324672698975 115
-1.9733307361602783 -3.6253647804260254 0.07138033211231232 115
-0.9294975399971008 -1.7041113376617432 -0.5098737478256226 119
-1.0567771196365356 -1.9366577863693237 -0.5005163550376892 119
-1.2906622886657715 -2.3642959594726562 -0.5156752467155457 119
-1.5663630962371826 -2.868147373199463 -0.5115411281585693 115
-1.564962387084961 -2.864393711090088 -0.3960758149623871 115
-1.6977624893188477 -3.106173038482666 -0.3063529133796692 116
-1.6880526542663574 -3.087128162384033 -0.18178386986255646 116
-1.8201770782470703 -3.327378511428833 -0.06487903743982315 115
-2.2790660858154297 -4.164525032043457 1.2609210014343262 117
-2.2667925357818604 -4.140381813049316 1.0800726413726807 117
-2.899646520614624 -5.294119834899902 1.1647961139678955 114
-2.918348550796509 -5.326058864593506 0.9547612071037292 114
-2.928694486618042 -5.342727184295654 0.7434029579162598 114
-2.264930248260498 -4.13013219833374 0.4087604582309723 117
-2.1414544582366943 -3.9033563137054443 0.2313249260187149 115
-1.988378882408142 -3.6228370666503906 0.07146760076284409 115
-0.9354403018951416 -1.7008565664291382 -0.5098737478256226 119
-1.0635308027267456 -1.9329571723937988 -0.5005163550376892 119
-1.2989072799682617 -2.359776258468628 -0.5156752467155457 119
-1.5763652324676514 -2.8626623153686523 -0.5115411281585693 115
-1.577345848083496 -2.863260269165039 -0.3966851532459259 115
-1.7109988927841187 -3.10459041595459 -0.30678868293762207 116
-1.698818564414978 -3.081216812133789 -0.18178386986255646 116
-1.8341952562332153 -3.3253822326660156 -0.06496542692184448 115
-2.260920763015747 -4.097341537475586 1.242815375328064 117
-2.257685661315918 -4.0897908210754395 1.068833589553833 117
-2.889634609222412 -5.232405662536621 1.1533578634262085 114
-2.944087028503418 -5.328807830810547 0.9571051597595215 114
-2.9881374835968018 -5.406310081481934 0.753761887550354 114
-2.2769229412078857 -4.117842197418213 0.408324658870697 117
-2.1574833393096924 -3.900226593017578 0.23158659040927887 115
-2.0034337043762207 -3.620248556137085 0.07155486196279526 115
-0.9413716793060303 -1.6975808143615723 -0.5098737478256226 119
-1.0726351737976074 -1.9334933757781982 -0.5016411542892456 119
-1.3071365356445312 -2.3552277088165283 -0.5156752467155457 119
-1.5863481760025024 -2.857142210006714 -0.5115411281585693 115
-1.5897407531738281 -2.8620753288269043 -0.3972945213317871 115
-1.7242448329925537 -3.102952480316162 -0.30722445249557495 115
-1.7119896411895752 -3.07963228225708 -0.18204468488693237 116
-1.8482215404510498 -3.3233284950256348 -0.06505181640386581 115
-2.2493793964385986 -4.042998313903809 1.228589653968811 117
-2.2506227493286133 -4.043571472167969 1.0587184429168701 117
-2.867288589477539 -5.149385929107666 1.1371536254882812 114
-2.9674766063690186 -5.327127456665039 0.9586677551269531 114
-3.006990909576416 -5.395846366882324 0.753761887550354 114
-2.2985594272613525 -4.122920513153076 0.40963196754455566 117
-2.1735167503356934 -3.8970327377319336 0.23184826970100403 115
-2.0184943675994873 -3.61759877204895 0.07164212316274643 115
-0.9472916126251221 -1.6942845582962036 -0.5098737478256226 119
-1.0817559957504272 -1.9339890480041504 -0.5027658939361572 119
-1.3129531145095825 -2.346367359161377 -0.5147220492362976 119
-1.5963118076324463 -2.8515875339508057 -0.5115411281585693 115
-1.5997215509414673 -2.856508731842041 -0.3972945213317871 115
-1.7375003099441528 -3.1012606620788574 -0.3076602518558502 115
-1.722729206085205 -3.0736374855041504 -0.18204468488693237 115
-1.8622560501098633 -3.3212175369262695 -0.06513821333646774 115
-2.2563893795013428 -4.022483825683594 1.2247097492218018 117
-2.2408807277679443 -3.9932029247283936 1.0474793910980225 117
-2.246105194091797 -4.000876426696777 0.8836055397987366 117
nan nan nan 0
-3.0258076190948486 -5.385317325592041 0.753761887550354 114
nan nan nan 0
-2.18955397605896 -3.8937737941741943 0.23210996389389038 117
-2.0335609912872314 -3.6148879528045654 0.0717293918132782 115
-0.9531999826431274 -1.6909675598144531 -0.5098737478256226 119
-1.0932865142822266 -1.9386883974075317 -0.5050153732299805 119
-1.321135401725769 -2.3417699337005615 -0.5147220492362976 119
-1.6086832284927368 -2.8502986431121826 -0.512323260307312 115
-1.612122893333435 -2.8552286624908447 -0.39790382981300354 115
-1.7507648468017578 -3.099513530731201 -0.3080960214138031 115
-1.7359042167663574 -3.0719525814056396 -0.1823054850101471 115
-1.876297950744629 -3.3190486431121826 -0.06522459536790848 115
-2.2823047637939453 -4.035604000091553 1.2311761379241943 117
-2.2308151721954346 -3.942952871322632 1.0362404584884644 117
-2.2213737964630127 -3.9246671199798584 0.8683544993400574 117
-3.0191948413848877 -5.332065582275391 0.9633556604385376 114
nan nan nan 0
-2.315007448196411 -4.0851054191589355 0.40745308995246887 117
-2.2055952548980713 -3.890451192855835 0.23237164318561554 117
-2.048633098602295 -3.6121158599853516 0.07181664556264877 115
-0.9590967893600464 -1.6876299381256104 -0.5098737478256226 119
-1.1000471115112305 -1.934860348701477 -0.5050153732299805 119
-1.3268749713897705 -2.3328778743743896 -0.5137688517570496 119
-1.618622899055481 -2.844666004180908 -0.512323260307312 115
-1.622079610824585 -2.849583864212036 -0.39790382981300354 115
-1.7640384435653687 -3.0977118015289307 -0.30853182077407837 115
-1.7490884065628052 -3.0702128410339355 -0.182566300034523 115
-1.8903477191925049 -3.3168225288391113 -0.0653109923005104 115
-2.282024383544922 -4.002438068389893 1.2234166860580444 117
-2.222839832305908 -3.8970534801483154 1.026125192642212 117
-2.215599298477173 -3.882784605026245 0.8607290387153625 117
-3.0402371883392334 -5.3257832527160645 0.9641369581222534 114
-3.065791606903076 -5.368371963500977 0.7543712258338928 114
-2.3267822265625 -4.072674751281738 0.407017320394516 117
-2.221639633178711 -3.8870632648468018 0.2326333075761795 117
-2.0612292289733887 -3.604942798614502 0.07181664556264877 115
-0.9625809192657471 -1.6800811290740967 -0.5085796117782593 119
-1.1043716669082642 -1.9267820119857788 -0.5038906931877136 119
-1.3350101709365845 -2.3282318115234375 -0.5137688517570496 119
-1.6285426616668701 -2.838998556137085 -0.512323260307312 115
-1.6344869136810303 -2.8482089042663574 -0.39851319789886475 115
-1.7773205041885376 -3.0958547592163086 -0.30896756052970886 115
-1.7622815370559692 -3.068418264389038 -0.18282711505889893 115
-1.901914119720459 -3.310203790664673 -0.0653109923005104 115
-2.82549786567688 -4.915677547454834 1.5079320669174194 114
-2.2121429443359375 -3.8470346927642822 1.0148861408233643 117
-2.2022171020507812 -3.8282270431518555 0.8502439856529236 117
-3.061272144317627 -5.319418430328369 0.9649182558059692 114
-3.0944161415100098 -5.37484073638916 0.7568086385726929 114
-4.115965366363525 -7.146333694458008 0.7181633114814758 111
-2.237687110900879 -3.8836112022399902 0.23289498686790466 117
-2.076296806335449 -3.6020569801330566 0.07190390676259995 115
-0.9681469798088074 -1.6768800020217896 -0.5085796117782593 119
-1.110419511795044 -1.9233031272888184 -0.5038906931877136 119
-1.3398630619049072 -2.3197758197784424 -0.5128157138824463 119
-1.6374537944793701 -2.8338685035705566 -0.512323260307312 115
-1.6459102630615234 -2.8473563194274902 -0.39912253618240356 115
-1.7895312309265137 -3.0945680141448975 -0.30940335988998413 115
-1.7744131088256836 -3.0671892166137695 -0.18308793008327484 115
-1.9148081541061401 -3.3085391521453857 -0.06539738178253174 115
-2.826406717300415 -4.881697177886963 1.50017249584198 114
-2.202240467071533 -3.8021228313446045 1.0047709941864014 117
-2.1847031116485596 -3.770327568054199 0.8388057351112366 117
-3.0779683589935303 -5.309774875640869 0.9649182558059692 114
-3.1262238025665283 -5.3908514976501465 0.7604646682739258 114
-4.140895366668701 -7.13767671585083 0.7185990810394287 111
-2.2498767375946045 -3.8765618801116943 0.23289498686790466 117
-2.085092544555664 -3.591193199157715 0.07181664556264877 115
-0.9737024307250977 -1.673660159111023 -0.5085796117782593 119
-1.1171263456344604 -1.9194152355194092 -0.5038906931877136 119
-1.345482587814331 -2.310842990875244 -0.5118624567985535 119
-1.6473357677459717 -2.8281352519989014 -0.512323260307312 115
-1.6583380699157715 -2.845881700515747 -0.39973190426826477 115
-1.8028309345245361 -3.0926055908203125 -0.309839129447937 115
-1.7876238822937012 -3.0652897357940674 -0.18334873020648956 115
-1.9288644790649414 -3.3061530590057373 -0.06548377126455307 115
-2.8166494369506836 -4.825916767120361 1.485946774482727 114
-2.1933891773223877 -3.7565460205078125 0.9946558475494385 117
-2.180521011352539 -3.7330105304718018 0.8321333527565002 117
-3.0964841842651367 -5.2989983558654785 0.9649182558059692 114
-3.1425178050994873 -5.375621318817139 0.7598552703857422 114
-4.1733293533325195 -7.136078357696533 0.7199064493179321 111
-2.2558305263519287 -3.855755567550659 0.23210996389389038 117
-2.0976154804229736 -3.583892822265625 0.07181664556264877 115
-0.9798300862312317 -1.6700801849365234 -0.5085796117782593 119
-1.1241538524627686 -1.9153079986572266 -0.5038906931877136 119
-1.356428623199463 -2.310128688812256 -0.5128157138824463 119
-1.657690405845642 -2.8220784664154053 -0.512323260307312 115
-1.6712716817855835 -2.8440630435943604 -0.4003412425518036 115
-1.8166781663894653 -3.090271234512329 -0.3102749288082123 115
-1.8013781309127808 -3.063021421432495 -0.18360954523086548 115
-1.9435043334960938 -3.3033697605133057 -0.0655701607465744 115
-2.804919719696045 -4.7656121253967285 1.4704277515411377 114
-2.1824231147766113 -3.706498861312866 0.9834168553352356 117
-2.1742591857910156 -3.691160202026367 0.8245078325271606 117
-2.2057502269744873 -3.7431271076202393 0.6813026666641235 117
-2.1641733646392822 -3.6711068153381348 0.5185540318489075 117
nan nan nan 0
nan nan nan 0
-2.1107370853424072 -3.576180934906006 0.07181664556264877 115
-0.9881122708320618 -1.6708067655563354 -0.5098737478256226 119
-1.130832552909851 -1.9113723039627075 -0.5038906931877136 119
-1.3619840145111084 -2.3011560440063477 -0.5118624567985535 119
-1.6675310134887695 -2.816274881362915 -0.512323260307312 115
-1.6811892986297607 -2.838212013244629 -0.4003412425518036 115
-1.8299932479858398 -3.088196039199829 -0.31071069836616516 115
-1.8120591640472412 -3.0567147731781006 -0.18360954523086548 115
-1.957573652267456 -3.300865888595581 -0.06565655022859573 115
-2.794429063796997 -4.710100173950195 1.4562019109725952 114
-2.1729679107666016 -3.6611509323120117 0.9733016490936279 117
-2.167083501815796 -3.649785280227661 0.8168823719024658 117
-2.203669786453247 -3.709928274154663 0.6766147613525391 117
-2.204861640930176 -3.7104597091674805 0.525256872177124 117
-2.2339065074920654 -3.7578446865081787 0.37912747263908386 117
-2.2833635807037354 -3.8395144939422607 0.23210996389389038 117
-2.1232073307037354 -3.568790912628174 0.07181664556264877 115
-0.9939385056495667 -1.6673475503921509 -0.5098737478256226 119
-1.1350021362304688 -1.903228759765625 -0.5027658939361572 119
-1.3700083494186401 -2.2963879108428955 -0.5118624567985535 119
-1.677351474761963 -2.810436964035034 -0.512323260307312 115
-1.693630337715149 -2.8365871906280518 -0.4009505808353424 115
-1.8433161973953247 -3.0860655307769775 -0.31114646792411804 115
-1.8252789974212646 -3.054656982421875 -0.1838703453540802 115
-1.9716488122940063 -3.2983033657073975 -0.06574293971061707 115
-2.786064624786377 -4.658864974975586 1.4432694911956787 114
-2.16072154045105 -3.6117336750030518 0.9620625972747803 117
-2.1596455574035645 -3.6085050106048584 0.8092568516731262 117
-3.1704819202423096 -5.2953925132751465 0.9703874588012695 114
-3.209770441055298 -5.358890533447266 0.7622926831245422 114
-4.26698637008667 -7.121151447296143 0.7229568958282471 111
-2.276214838027954 -3.797259569168091 0.2300165295600891 117
-2.1382226943969727 -3.565645217895508 0.07190390676259995 115
-1.0022399425506592 -1.6680076122283936 -0.5111678242683411 119
-1.1416387557983398 -1.8992552757263184 -0.5027658939361572 119
-1.3780159950256348 -2.2915914058685303 -0.5118624567985535 119
-1.6871516704559326 -2.8045647144317627 -0.512323260307312 115
-1.703521490097046 -2.830657958984375 -0.4009505808353424 115
-1.8566464185714722 -3.0838794708251953 -0.3115822374820709 115
-1.8359307050704956 -3.048267126083374 -0.1838703453540802 115
-1.9857300519943237 -3.2956831455230713 -0.0658293291926384 115
-2.7624166011810303 -4.582927227020264 1.4225775003433228 114
-2.1607367992401123 -3.583308696746826 0.9564431309700012 117
-2.1519463062286377 -3.567322254180908 0.8016313314437866 117
nan nan nan 0
-3.241281747817993 -5.368896007537842 0.7653394341468811 114
-4.291818141937256 -7.1062140464782715 0.7229568958282471 111
-4.298338413238525 -7.114203929901123 0.4336033761501312 111
-2.153242588043213 -3.562438488006592 0.07199117541313171 117
-1.0083467960357666 -1.664323091506958 -0.5111678242683411 119
-1.148592233657837 -1.895058274269104 -0.5027658939361572 119
-1.3864057064056396 -2.2865254878997803 -0.5118624567985535 119
-1.69741952419281 -2.7983622550964355 -0.512323260307312 115
-1.7164593935012817 -2.8286380767822266 -0.4015599191188812 115
-1.8679369688034058 -3.0770537853240967 -0.3115822374820709 115
-1.8496826887130737 -3.045785665512085 -0.18413116037845612 115
-2.000391721725464 -3.2926552295684814 -0.06591571867465973 115
-2.784212350845337 -4.581026077270508 1.425163984298706 114
-2.173856019973755 -3.5753653049468994 0.9564431309700012 117
-2.1446011066436768 -3.525862693786621 0.7940058708190918 117
nan nan nan 0
-3.2583577632904053 -5.352741718292236 0.7647300958633423 114
-4.323016166687012 -7.098943710327148 0.7238283753395081 111
-4.3243842124938965 -7.0984015464782715 0.4336033761501312 111
-2.171488046646118 -3.5630598068237305 0.07216569036245346 117
-1.0141502618789673 -1.6607931852340698 -0.5111678242683411 119
-1.152660608291626 -1.8868799209594727 -0.5016411542892456 119
-1.3943787813186646 -2.281672239303589 -0.5118624567985535 119
-1.7071772813796997 -2.7924201488494873 -0.512323260307312 115
-1.7289122343063354 -2.8268630504608154 -0.40216928720474243 115
-1.8812661170959473 -3.0747640132904053 -0.3120180368423462 115
-1.8629097938537598 -3.0435690879821777 -0.18439196050167084 115
-2.01448392868042 -3.2899162769317627 -0.06600210815668106 115
-2.7900948524475098 -4.554805278778076 1.41999089717865 114
nan nan nan 0
-2.1363728046417236 -3.4848785400390625 0.7863803505897522 117
nan nan nan 0
-3.277022123336792 -5.341335296630859 0.7647300958633423 114
-4.347769260406494 -7.083810329437256 0.7238283753395081 111
-4.351748943328857 -7.087518692016602 0.4338650703430176 111
-2.123737335205078 -3.457479476928711 0.07015866786241531 117
-1.0196521282196045 -1.6574209928512573 -0.5111678242683411 119
-1.1585826873779297 -1.8832495212554932 -0.5016411542892456 119
-1.401539921760559 -2.277280330657959 -0.5118624567985535 119
-1.7159415483474731 -2.7870430946350098 -0.512323260307312 115
-1.740386962890625 -2.8256428241729736 -0.40277862548828125 115
-1.8935294151306152 -3.0730791091918945 -0.31245383620262146 115
-1.8750826120376587 -3.041952133178711 -0.18465277552604675 115
-2.030057191848755 -3.292081594467163 -0.06617489457130432 115
-2.8069262504577637 -4.55012845993042 1.4212841987609863 114
-2.187285900115967 -3.5442845821380615 0.9519475102424622 117
-2.126682996749878 -3.4447383880615234 0.7787548899650574 117
-2.0987603664398193 -3.3981831073760986 0.6258296370506287 117
nan nan nan 0
nan nan nan 0
nan nan nan 0
-2.147732734680176 -3.4720518589019775 0.07059498131275177 117
-1.0251426696777344 -1.654030680656433 -0.5111678242683411 119
-1.165149450302124 -1.879193902015686 -0.5016411542892456 119
-1.4068933725357056 -2.268203020095825 -0.5109092593193054 119
-1.7230558395385742 -2.7768402099609375 -0.5115411281585693 115
-1.7528570890426636 -2.8237671852111816 -0.40338799357414246 115
-1.9068726301193237 -3.0706820487976074 -0.31288960576057434 115
-1.88832426071167 -3.0396294593811035 -0.18491357564926147 115
-2.044175148010254 -3.2892215251922607 -0.06626127660274506 117
-2.830441951751709 -4.552607536315918 1.425163984298706 114
nan nan nan 0
-2.1205430030822754 -3.408121109008789 0.772082507610321 117
-2.0949509143829346 -3.365679979324341 0.6211417317390442 117
-2.103064775466919 -3.377401351928711 0.4838212728500366 117
-2.1718862056732178 -3.486567974090576 0.356031209230423 117
-2.161909818649292 -3.4692037105560303 0.21222229301929474 117
nan nan nan 0
-1.0311980247497559 -1.6502622365951538 -0.5111678242683411 119
-1.1720291376113892 -1.874910831451416 -0.5016411542892456 119
-1.4151973724365234 -2.263031244277954 -0.5109092593193054 119
-1.7332220077514648 -2.7705061435699463 -0.5115411281585693 115
-1.7684605121612549 -2.8257369995117188 -0.4046066701412201 115
-1.920757532119751 -3.067894458770752 -0.3133253753185272 115
-1.9021029472351074 -3.0369200706481934 -0.1851743906736374 115
-2.0588715076446533 -3.2859435081481934 -0.06634767353534698 117
-2.8522396087646484 -4.550387859344482 1.4277504682540894 114
-2.9916634559631348 -4.770970821380615 1.2902427911758423 114
-2.114762544631958 -3.371220588684082 0.7654101848602295 117
-2.091522216796875 -3.3328804969787598 0.6164538264274597 117
-2.1312615871429443 -3.3948891162872314 0.4874773621559143 117
nan nan nan 0
-4.4457502365112305 -7.076154708862305 0.43595850467681885 111
nan nan nan 0
-1.0343787670135498 -1.6425657272338867 -0.5098737478256226 119
-1.1811633110046387 -1.8749300241470337 -0.5027658939361572 119
-1.42047119140625 -2.25392484664917 -0.5099561214447021 119
-1.742882251739502 -2.764439344406128 -0.5115411281585693 115
-1.7809609174728394 -2.823744297027588 -0.4052160084247589 115
-1.934112548828125 -3.0653834342956543 -0.3137611448764801 115
-1.9153573513031006 -3.0344841480255127 -0.1854351907968521 115
-2.072998285293579 -3.282963991165161 -0.06643406301736832 117
-2.870685577392578 -4.544487476348877 1.4290437698364258 114
-3.0056962966918945 -4.7563796043396 1.2891188859939575 114
-2.1081581115722656 -3.3347766399383545 0.7587379217147827 117
-2.082026243209839 -3.292167901992798 0.6102033853530884 117
-3.371581792831421 -5.329196453094482 0.7696049213409424 114
-4.476991176605225 -7.073698043823242 0.729057788848877 111
-4.475765705108643 -7.069031238555908 0.43648186326026917 111
-4.479761123657227 -7.0726094245910645 0.14546580612659454 111
-1.0401060581207275 -1.6389449834823608 -0.5098737478256226 119
-1.187700867652893 -1.8707956075668335 -0.5027658939361572 119
-1.4283301830291748 -2.248953104019165 -0.5099561214447021 119
-1.7498730421066284 -2.7541701793670654 -0.5107589364051819 115
-1.7934688329696655 -2.8216989040374756 -0.4058253765106201 115
-1.9474736452102661 -3.062816619873047 -0.31419694423675537 115
-1.9286177158355713 -3.0319929122924805 -0.18569600582122803 115
-2.081761360168457 -3.2714900970458984 -0.06634767353534698 117
-2.889124870300293 -4.538513660430908 1.4303369522094727 114
-3.024898052215576 -4.749968528747559 1.2902427911758423 114
-2.0986878871917725 -3.294280529022217 0.7511123418807983 117
-2.074925661087036 -3.2557270526885986 0.6047341823577881 117
-3.392831563949585 -5.3215789794921875 0.7702142000198364 114
-4.501655578613281 -7.058027267456055 0.729057788848877 111
-4.5057854652404785 -7.0617828369140625 0.4370051920413971 111
-4.504421234130859 -7.056929111480713 0.14546580612659454 111
-1.045820713043213 -1.63530433177948 -0.5098737478256226 119
-1.1942239999771118 -1.8666383028030396 -0.5027658939361572 119
-1.4361717700958252 -2.2439534664154053 -0.5099561214447021 119
-1.7594760656356812 -2.7480452060699463 -0.5107589364051819 115
-1.8033074140548706 -2.8154213428497314 -0.4058253765106201 115
-1.9581531286239624 -3.056000232696533 -0.31419694423675537 115
-1.9418842792510986 -3.0294461250305176 -0.18595680594444275 115
-2.0985655784606934 -3.2726199626922607 -0.06652045249938965 117
-2.907557487487793 -4.532466411590576 1.431630253791809 114
-3.0414602756500244 -4.739380836486816 1.2902427911758423 114
-2.088961124420166 -3.2538914680480957 0.7434868812561035 117
-2.067596435546875 -3.219376564025879 0.5992649793624878 117
-3.4194343090057373 -5.322229385375977 0.7720422744750977 114
-4.5343451499938965 -7.054841041564941 0.7303651571273804 111
-4.538509368896484 -7.0586113929748535 0.43779024481773376 111
-4.534436225891113 -7.049571990966797 0.1456403285264969 111
-1.0541388988494873 -1.635703444480896 -0.5111678242683411 119
-1.2033724784851074 -1.8665531873703003 -0.5038906931877136 119
-1.4439959526062012 -2.238926649093628 -0.5099561214447021 119
-1.7663806676864624 -2.7377371788024902 -0.5099768042564392 119
-1.8158154487609863 -2.813279151916504 -0.40643471479415894 115
-1.9715105295181274 -3.053330659866333 -0.31463271379470825 115
-1.9551564455032349 -3.026843547821045 -0.18621762096881866 115
-2.11268949508667 -3.2694737911224365 -0.06660684198141098 117
-2.925983190536499 -4.526345252990723 1.432923436164856 114
-3.0606307983398438 -4.732826232910156 1.2913668155670166 114
-2.0709798336029053 -3.2012476921081543 0.7330018281936646 117
-2.0627222061157227 -3.1872634887695312 0.5945771336555481 117
nan nan nan 0
-4.561651229858398 -7.043151378631592 0.7308009266853333 111
-4.565835952758789 -7.046916961669922 0.4380519390106201 111
-4.564454555511475 -7.04209041595459 0.14581483602523804 111
-1.0572116374969482 -1.6279634237289429 -0.5098737478256226 119
-1.2098805904388428 -1.862341284751892 -0.5038906931877136 119
-1.4518024921417236 -2.233872413635254 -0.5099561214447021 119
-1.7759263515472412 -2.7315547466278076 -0.5099768042564392 119
-1.8256245851516724 -2.8069233894348145 -0.40643471479415894 115
-1.9848730564117432 -3.050605297088623 -0.3150685131549835 115
-1.9684340953826904 -3.0241849422454834 -0.18647843599319458 115
-2.0804429054260254 -3.1950488090515137 -0.06522459536790848 117
-2.944401502609253 -4.520151615142822 1.4342167377471924 114
-3.0797929763793945 -4.726195812225342 1.2924907207489014 114
-2.068739414215088 -3.1734402179718018 0.7282358407974243 117
-2.0549516677856445 -3.1510872840881348 0.5891079902648926 117
nan nan nan 0
nan nan nan 0
-4.590406894683838 -7.030936241149902 0.4380519390106201 111
nan nan nan 0
-1.0655324459075928 -1.628304362297058 -0.5111678242683411 119
-1.2163740396499634 -1.8581066131591797 -0.5038906931877136 119
-1.4622803926467896 -2.2328972816467285 -0.5109092593193054 119
-1.78274405002594 -2.721208095550537 -0.5091946125030518 119
-1.8381316661834717 -2.8046844005584717 -0.40704405307769775 115
-1.9955096244812012 -3.0436582565307617 -0.3150685131549835 115
-1.9844555854797363 -3.025646209716797 -0.1870000660419464 115
-2.064157724380493 -3.1459686756134033 -0.06436069309711456 117
-2.9628119468688965 -4.513883590698242 1.4355099201202393 114
-3.098945379257202 -4.719489097595215 1.2936145067214966 114
-2.0744147300720215 -3.1579949855804443 0.726329505443573 117
-2.0469534397125244 -3.115004062652588 0.5836387872695923 117
nan nan nan 0
nan nan nan 0
-2.0654995441436768 -3.139643907546997 0.19495142996311188 117
-2.0850319862365723 -3.1681299209594727 0.06553377956151962 117
-1.0712097883224487 -1.6245750188827515 -0.5111678242683411 119
-1.2255350351333618 -1.857915997505188 -0.5050153732299805 119
-1.4700655937194824 -2.2277793884277344 -0.5109092593193054 119
-1.7922320365905762 -2.71496844291687 -0.5091946125030518 119
-1.850645661354065 -2.8023924827575684 -0.40765342116355896 115
-2.0088672637939453 -3.040830135345459 -0.3155042827129364 115
-1.9977577924728394 -3.0228662490844727 -0.18726086616516113 117
-2.127511501312256 -3.2179791927337646 -0.06600210815668106 117
-2.9812145233154297 -4.507542133331299 1.4368032217025757 114
-3.118088960647583 -4.712706089019775 1.2947384119033813 114
-2.088134288787842 -3.154827356338501 0.7272826433181763 117
-2.0414555072784424 -3.0831336975097656 0.5789509415626526 117
-2.0436549186706543 -3.0852859020233154 0.4496978521347046 117
-2.1094086170196533 -3.183346748352051 0.3307560384273529 117
-2.0681698322296143 -3.119929552078247 0.1941663771867752 117
-2.090552568435669 -3.1524999141693115 0.06535925716161728 117
-1.0768741369247437 -1.620826005935669 -0.5111678242683411 119
-1.2320129871368408 -1.8536267280578613 -0.5050153732299805 119
-1.480550765991211 -2.2267215251922607 -0.5118624567985535 119
-1.8016979694366455 -2.708695888519287 -0.5091946125030518 119
-1.8631653785705566 -2.800046920776367 -0.4082627594470978 115
-2.0222296714782715 -3.0379457473754883 -0.3159400522708893 117
-2.0110650062561035 -3.0200304985046387 -0.18752168118953705 117
nan nan nan 0
-2.9969305992126465 -4.497108459472656 1.4368032217025757 114
-3.139925718307495 -4.709901332855225 1.2969863414764404 114
nan nan nan 0
-2.035759925842285 -3.051339626312256 0.5742630958557129 117
-2.0378823280334473 -3.0533664226531982 0.4460417628288269 117
-4.689967632293701 -7.0243401527404785 0.7355944514274597 111
nan nan nan 0
-4.6928839683532715 -7.023398399353027 0.14677472412586212 111
-1.079838514328003 -1.6130436658859253 -0.5098737478256226 119
-1.2384757995605469 -1.8493149280548096 -0.5050153732299805 119
-1.4855825901031494 -2.2174623012542725 -0.5109092593193054 119
-1.8083930015563965 -2.6982879638671875 -0.5084124207496643 119
-1.8729281425476074 -2.7935261726379395 -0.4082627594470978 115
-2.0355961322784424 -3.0350046157836914 -0.31637582182884216 117
-2.021594762802124 -3.0129921436309814 -0.18752168118953705 117
-4.713170051574707 -7.021876811981201 -0.14548109471797943 111
-3.015302896499634 -4.49062967300415 1.438096523284912 114
-3.1590638160705566 -4.702956199645996 1.2981102466583252 114
-2.123795986175537 -3.1605424880981445 0.7320486307144165 117
-2.029867649078369 -3.019623279571533 0.5695752501487732 117
-2.0374507904052734 -3.029761791229248 0.44360437989234924 117
-4.720019340515137 -7.0161919593811035 0.7364660501480103 111
-4.724367618560791 -7.020009517669678 0.441453754901886 111
-4.725748062133789 -7.019415855407715 0.14703652262687683 111
-1.0854624509811401 -1.609264612197876 -0.5098737478256226 119
-1.2421987056732178 -1.8409422636032104 -0.5038906931877136 119
-1.4933139085769653 -2.2122628688812256 -0.5109092593193054 119
-1.8178006410598755 -2.6919591426849365 -0.5084124207496643 119
-1.8882238864898682 -2.795196294784546 -0.4094814360141754 115
-2.051755905151367 -3.036134958267212 -0.3172473907470703 117
-2.032099723815918 -3.0059173107147217 -0.18752168118953705 117
-4.73765230178833 -7.005382537841797 -0.14548109471797943 111
-3.0309598445892334 -4.480076789855957 1.438096523284912 114
-3.178191661834717 -4.695935249328613 1.2992340326309204 114
-3.3400979042053223 -4.933304309844971 1.1495450735092163 114
-2.0237789154052734 -2.987985849380493 0.5648874044418335 117
-2.0257444381713867 -2.9897634983062744 0.4387296140193939 117
-4.747276782989502 -7.0037970542907715 0.7369018197059631 111
-4.748842716217041 -7.003475666046143 0.441453754901886 111
-4.7502217292785645 -7.002877235412598 0.14703652262687683 111
-1.0910733938217163 -1.6054657697677612 -0.5098737478256226 119
-1.248617172241211 -1.836595058441162 -0.5038906931877136 119
-1.4982668161392212 -2.2029781341552734 -0.5099561214447021 119
-1.8244082927703857 -2.681514263153076 -0.5076302289962769 119
-1.9007619619369507 -2.7926907539367676 -0.4100908041000366 115
-2.0679478645324707 -3.0371885299682617 -0.3181189298629761 115
-2.0425798892974854 -2.998805522918701 -0.18752168118953705 117
-4.770521640777588 -7.001195907592773 -0.14574025571346283 111
-3.049299955368042 -4.473460674285889 1.4393898248672485 114
-3.1973090171813965 -4.688838005065918 1.3003580570220947 114
-3.354532241821289 -4.917560577392578 1.1485919952392578 114
-2.0174942016601562 -2.956427812576294 0.560199499130249 117
-2.0221776962280273 -2.9621803760528564 0.43568286299705505 117
nan nan nan 0
-4.781711101531982 -6.999225616455078 0.44223880767822266 111
