# .PCD v0.7 - Point Cloud Data file format
VERSION 0.7
FIELDS x y z intensity
SIZE 4 4 4 4
TYPE F F F F
COUNT 1 1 1 1
WIDTH 763
HEIGHT 1
VIEWPOINT 0 0 0 1 0 0 0
POINTS 763
DATA ascii
-1.968345284461975 -1.0072532892227173 -0.5016411542892456 119
-2.3282108306884766 -1.1908931732177734 -0.5004242062568665 119
-2.865756034851074 -1.4652196168899536 -0.5037193894386292 119
nan nan nan 0
-4.083865642547607 -2.0862233638763428 -0.3978665769100189 110
-4.089718341827393 -2.088313579559326 -0.23785781860351562 110
-4.086100101470947 -2.085566997528076 -0.07861507683992386 110
-4.108333587646484 -2.096011161804199 1.2247097492218018 110
-4.109571933746338 -2.0957391262054443 1.0553467273712158 110
-4.100913047790527 -2.090421438217163 0.8864651322364807 110
-4.091162204742432 -2.0845515727996826 0.7203681468963623 110
-4.098103046417236 -2.0871870517730713 0.5599895715713501 110
-4.104529857635498 -2.0895583629608154 0.3996090888977051 110
-4.097043991088867 -2.0848469734191895 0.2389136403799057 110
-4.07117223739624 -2.070787191390991 0.07905939221382141 110
-1.7352426052093506 -0.8807198405265808 -0.5111678242683411 119
-1.9718493223190308 -1.0003763437271118 -0.5016411542892456 119
-2.3323538303375244 -1.1827589273452759 -0.5004242062568665 119
nan nan nan 0
-3.7925806045532227 -1.9215898513793945 -0.5173359513282776 119
-4.082235336303711 -2.0674540996551514 -0.39699500799179077 110
-4.088073253631592 -2.069514513015747 -0.2373361885547638 110
-4.0799736976623535 -2.0645196437835693 -0.07835590839385986 110
-4.102695941925049 -2.075118064880371 1.2208300828933716 110
-4.103818893432617 -2.07478666305542 1.0519750118255615 110
-4.095041751861572 -2.0694520473480225 0.8836055397987366 110
-4.085189342498779 -2.063577890396118 0.7180241942405701 110
-4.096503734588623 -2.0683958530426025 0.5587709546089172 110
-4.098458290100098 -2.0684852600097656 0.39830172061920166 110
-4.09537935256958 -2.0660347938537598 0.2383902668952942 110
-4.064984321594238 -2.0498108863830566 0.0787976086139679 110
-1.7426207065582275 -0.876828134059906 -0.5124619007110596 119
-1.979681372642517 -0.9956762194633484 -0.5027658939361572 119
-2.33646821975708 -1.1746102571487427 -0.5004242062568665 119
-2.8626773357391357 -1.4385251998901367 -0.5013728737831116 119
-3.7815256118774414 -1.899429440498352 -0.5148985385894775 119
-4.076072692871094 -2.0464870929718018 -0.39568769931793213 110
-4.081884384155273 -2.0485129356384277 -0.23655375838279724 110
-4.073749542236328 -2.0435404777526855 -0.07809673994779587 110
-4.1012797355651855 -2.05645489692688 1.2182435989379883 110
-4.0979695320129395 -2.0539000034332275 1.0486032962799072 110
-4.089075565338135 -2.0485496520996094 0.8807460069656372 110
-4.083536148071289 -2.0448830127716064 0.7164615988731384 110
-4.090384483337402 -2.047419548034668 0.5569428205490112 110
-4.096745014190674 -2.0497090816497803 0.3974301815032959 110
-4.089169502258301 -2.0450263023376465 0.2376052290201187 110
-4.063171863555908 -2.0311384201049805 0.07862309366464615 110
-1.7456707954406738 -0.8707399368286133 -0.5124619007110596 119
-1.983144998550415 -0.9887597560882568 -0.5027658939361572 119
-2.344947099685669 -1.168636679649353 -0.5013774037361145 119
-2.8588407039642334 -1.4241197109222412 -0.49980852007865906 119
-3.774805784225464 -1.8795819282531738 -0.5130705237388611 119
-4.069814205169678 -2.0255885124206543 -0.3943803608417511 110
-4.080069065093994 -2.029803991317749 -0.2360321581363678 110
-4.071905136108398 -2.024855852127075 -0.07792395353317261 110
-4.095457553863525 -2.0356764793395996 1.2143638134002686 110
-4.0963873863220215 -2.035247325897217 1.0463554859161377 110
-4.083013534545898 -2.027714252471924 0.8778864145278931 110
-4.077378273010254 -2.0240285396575928 0.7141175866127014 110
-4.088615894317627 -2.028717517852783 0.5557242035865784 110
-4.090487957000732 -2.028756856918335 0.39612287282943726 110
-4.087335586547852 -2.0263044834136963 0.2370818704366684 110
-4.056798458099365 -2.0102837085723877 0.07836129516363144 110
-1.7486995458602905 -0.8646410703659058 -0.5124619007110596 119
-1.9909520149230957 -0.983989953994751 -0.5038906931877136 119
-2.3490121364593506 -1.1604441404342651 -0.5013774037361145 119
-2.8815064430236816 -1.4228781461715698 -0.5029371976852417 119
-3.7724430561065674 -1.8620007038116455 -0.5118517875671387 119
-4.063459396362305 -2.004758358001709 -0.3930729925632477 110
-4.073694229125977 -2.0089242458343506 -0.23524971306324005 110
-4.06549596786499 -2.0039992332458496 -0.07766478508710861 110
-4.089540958404541 -2.0149643421173096 1.2104840278625488 110
-4.090354919433594 -2.0144782066345215 1.0429837703704834 110
-4.076855659484863 -2.006945848464966 0.8750268220901489 110
-4.07555627822876 -2.005422830581665 0.7125550508499146 110
-4.08231258392334 -2.0078623294830322 0.5538961887359619 110
-4.088604927062988 -2.01007080078125 0.3952512741088867 110
-4.080939769744873 -2.005418300628662 0.23629683256149292 110
-4.054816722869873 -1.9917025566101074 0.07818678021430969 110
-1.7517070770263672 -0.8585317134857178 -0.5124619007110596 119
-1.9987494945526123 -0.9791774153709412 -0.5050153732299805 119
-2.353048324584961 -1.1522375345230103 -0.5013774037361145 119
-2.8642776012420654 -1.4019557237625122 -0.4990263283252716 119
-3.7922933101654053 -1.8553639650344849 -0.5136798024177551 119
-4.0525336265563965 -1.9818092584609985 -0.39132988452911377 110
-4.071710586547852 -1.9903063774108887 -0.2347281128168106 110
-4.063483238220215 -1.985406517982483 -0.07749201357364655 110
-4.087869644165039 -1.9964380264282227 1.207897663116455 110
-4.084227085113525 -1.9937760829925537 1.039612054824829 110
-4.075014591217041 -1.9883980751037598 0.8731204867362976 110
-4.069215774536133 -1.9846895933151245 0.7102110981941223 110
-4.080374717712402 -1.9892504215240479 0.5526774525642395 110
-4.082163333892822 -1.9892406463623047 0.3939439654350281 110
-4.078937530517578 -1.986788034439087 0.2357734888792038 110
-4.048259735107422 -1.9709711074829102 0.07792498916387558 110
-1.7546931505203247 -0.8524119257926941 -0.5124619007110596 119
-2.006538152694702 -0.9743226766586304 -0.5061401724815369 119
-2.357056140899658 -1.1440167427062988 -0.5013774037361145 119
-2.8558242321014404 -1.3854823112487793 -0.4966798424720764 119
-3.812142848968506 -1.8486113548278809 -0.5155079364776611 119
-4.041498184204102 -1.958961009979248 -0.38958674669265747 110
-4.065152168273926 -1.9695502519607544 -0.23394568264484406 110
-4.056890487670898 -1.9646731615066528 -0.07723283767700195 110
-4.0817718505859375 -1.9758433103561401 1.2040177583694458 110
-4.082389831542969 -1.9752631187438965 1.0373642444610596 110
-4.068674564361572 -1.9677506685256958 0.8702609539031982 110
-4.062779426574707 -1.9640246629714966 0.7078671455383301 110
-4.073888301849365 -1.968517780303955 0.550849437713623 110
-4.075626850128174 -1.9684803485870361 0.39263662695884705 110
-4.072357654571533 -1.9660251140594482 0.23498842120170593 110
-4.046110153198242 -1.9524827003479004 0.07775046676397324 110
-1.7576580047607422 -0.8462817072868347 -0.5124619007110596 119
-2.0099267959594727 -0.9673125743865967 -0.5061401724815369 119
-2.361035108566284 -1.135782241821289 -0.5013774037361145 119
-2.878445625305176 -1.3840652704238892 -0.49980852007865906 119
-3.83199143409729 -1.8417426347732544 -0.5173359513282776 119
-4.021373271942139 -1.9319000244140625 -0.3869720995426178 110
-4.063000202178955 -1.9510252475738525 -0.23342405259609222 110
-4.0547099113464355 -1.9461735486984253 -0.07706005871295929 110
-4.07558012008667 -1.9553155899047852 1.2001380920410156 110
-4.0760817527771 -1.954681158065796 1.0339925289154053 110
-4.0666656494140625 -1.9492928981781006 0.8683544993400574 110
-4.060703754425049 -1.9455634355545044 0.7063045501708984 110
-4.071783065795898 -1.9499980211257935 0.5496307015419006 110
-4.068994522094727 -1.9477897882461548 0.39132925868034363 110
-4.070188045501709 -1.9474878311157227 0.2344650775194168 110
-4.043880939483643 -1.9340332746505737 0.0775759369134903 110
-1.7606014013290405 -0.8401411771774292 -0.5124619007110596 119
-2.013291120529175 -0.9602907299995422 -0.5061401724815369 119
-2.364985466003418 -1.1275336742401123 -0.5013774037361145 119
-2.865427017211914 -1.3655112981796265 -0.4966798424720764 119
-3.847357749938965 -1.8326236009597778 -0.5185546875 119
-4.046082019805908 -1.926416039466858 -0.3887152075767517 110
-4.060768127441406 -1.9325392246246338 -0.2329024225473404 110
-4.0524492263793945 -1.9277129173278809 -0.07688727229833603 110
-4.073657035827637 -1.9369293451309204 1.1975516080856323 110
-4.074078559875488 -1.93625807762146 1.0317447185516357 110
-4.060144901275635 -1.928767442703247 0.865494966506958 110
-4.054086208343506 -1.9250221252441406 0.703960657119751 110
-4.065114974975586 -1.929389476776123 0.5478026866912842 110
-4.066768169403076 -1.9293044805526733 0.39045774936676025 110
-4.067937850952148 -1.9289896488189697 0.2339417040348053 110
-4.037055015563965 -1.9134821891784668 0.07731415331363678 110
-1.7635233402252197 -0.8339903950691223 -0.5124619007110596 119
-2.0166308879852295 -0.9532572031021118 -0.5061401724815369 119
-2.3689067363739014 -1.1192715167999268 -0.5013774037361145 119
-2.883572816848755 -1.3618274927139282 -0.4990263283252716 119
-3.8627068996429443 -1.8234195709228516 -0.5197733044624329 119
-4.048276424407959 -1.910155177116394 -0.38827943801879883 110
-4.053941249847412 -1.9119631052017212 -0.23212000727653503 110
-4.04558801651001 -1.9071605205535889 -0.07662810385227203 110
-4.067285537719727 -1.916521430015564 1.1936718225479126 110
-4.07199764251709 -1.9178733825683594 1.0294969081878662 110
-4.057971000671387 -1.9104018211364746 0.8635885715484619 110
-4.051844120025635 -1.9066534042358398 0.7023980021476746 110
-4.0628437995910645 -1.9109634160995483 0.5465840101242065 110
-4.05995512008667 -1.9087393283843994 0.38915038108825684 110
-4.061089515686035 -1.9084073305130005 0.23315668106079102 110
-4.0346598625183105 -1.8951278924942017 0.07713963836431503 110
-1.7664238214492798 -0.8278294801712036 -0.5124619007110596 119
-2.0199460983276367 -0.9462120532989502 -0.5061401724815369 119
-2.3727993965148926 -1.1109956502914429 -0.5013774037361145 119
-3.9930975437164307 -1.8688044548034668 -0.6922230124473572 119
-3.8780388832092285 -1.8141310214996338 -0.5209920406341553 119
-4.054919242858887 -1.8960124254226685 -0.38827943801879883 110
-4.051543712615967 -1.8935723304748535 -0.2315984070301056 110
-4.043161392211914 -1.8887951374053955 -0.07645532488822937 110
-4.0651984214782715 -1.8982255458831787 1.1910853385925293 110
-4.065423011779785 -1.8974661827087402 1.026125192642212 110
-4.051270961761475 -1.8899999856948853 0.8607290387153625 110
-4.045047283172607 -1.8862367868423462 0.7000540494918823 110
-4.055994987487793 -1.8904800415039062 0.5447559356689453 110
-4.057563304901123 -1.89034903049469 0.3882788419723511 110
-4.05867338180542 -1.8900041580200195 0.2326333075761795 110
-4.032186031341553 -1.876813530921936 0.07696510851383209 110
-1.7693027257919312 -0.8216584324836731 -0.5124619007110596 119
-2.01881742477417 -0.9371039867401123 -0.5050153732299805 119
-2.372210741043091 -1.1006404161453247 -0.5004242062568665 119
-4.004076957702637 -1.8569324016571045 -0.6930052042007446 119
-3.884347677230835 -1.8005831241607666 -0.5209920406341553 119
-4.04795503616333 -1.8755645751953125 -0.3869720995426178 110
-4.049066543579102 -1.8752213716506958 -0.23107677698135376 110
-4.040657043457031 -1.8704701662063599 -0.0762825459241867 110
-4.05864953994751 -1.877938985824585 1.18720543384552 110
-4.063177585601807 -1.8791733980178833 1.0238773822784424 110
-4.048933029174805 -1.8717275857925415 0.8588227033615112 110
-4.042640209197998 -1.86796236038208 0.6984913945198059 110
-4.053558349609375 -1.872148871421814 0.5435372591018677 110
-4.050570011138916 -1.8699109554290771 0.38697150349617004 110
-4.056178092956543 -1.8716410398483276 0.23210996389389038 110
-4.02963399887085 -1.8585397005081177 0.07679058611392975 110
-1.7721600532531738 -0.8154773712158203 -0.5124619007110596 119
-2.0176503658294678 -0.9280156493186951 -0.5038906931877136 119
-2.376038074493408 -1.0923532247543335 -0.5004242062568665 119
-2.884213447570801 -1.3253705501556396 -0.4966798424720764 119
-3.8906092643737793 -1.7870131731033325 -0.5209920406341553 119
-4.04542350769043 -1.8572667837142944 -0.38610053062438965 110
-4.046512126922607 -1.8569111824035645 -0.23055516183376312 110
-4.0380730628967285 -1.852185606956482 -0.07610975950956345 110
-4.056399345397949 -1.8597346544265747 1.1846190690994263 110
-4.056425094604492 -1.8588896989822388 1.020505666732788 110
-4.0465168952941895 -1.8534947633743286 0.8569162487983704 110
-4.040155410766602 -1.8497278690338135 0.696928858757019 110
-4.046530246734619 -1.8517922163009644 0.5417091846466064 110
-4.048012733459473 -1.851616382598877 0.3860999345779419 110
-4.049063682556152 -1.8512425422668457 0.2313249260187149 110
-4.02245569229126 -1.8382285833358765 0.07652879506349564 110
-1.7749958038330078 -0.8092864751815796 -0.5124619007110596 119
-2.0208773612976074 -0.9209670424461365 -0.5038906931877136 119
-2.3798365592956543 -1.0840526819229126 -0.5004242062568665 119
-2.9247782230377197 -1.3316656351089478 -0.5029371976852417 119
-3.9013402462005615 -1.7754770517349243 -0.5216013789176941 119
-4.038280487060547 -1.8369470834732056 -0.3847931921482086 110
-4.039332389831543 -1.8365747928619385 -0.22977271676063538 110
-4.03085994720459 -1.8318737745285034 -0.07585059106349945 110
-4.049674034118652 -1.8395711183547974 1.1807392835617065 110
-4.0495805740356445 -1.8386763334274292 1.0171339511871338 110
-4.039553642272949 -1.8332732915878296 0.854056715965271 110
-4.03759241104126 -1.831533432006836 0.6953662037849426 110
-4.043930530548096 -1.8335576057434082 0.5404905080795288 110
-4.0453782081604 -1.8333629369735718 0.38522839546203613 110
-4.0464043617248535 -1.8329768180847168 0.2308015525341034 110
-4.019739627838135 -1.8200523853302002 0.07635427266359329 110
-1.7778098583221436 -0.8030856847763062 -0.5124619007110596 119
-2.0240797996520996 -0.9139072299003601 -0.5038906931877136 119
-2.383606195449829 -1.0757389068603516 -0.5004242062568665 119
-2.8933956623077393 -1.305202841758728 -0.4966798424720764 119
-3.9075140953063965 -1.761847972869873 -0.5216013789176941 119
-4.035585403442383 -1.8187463283538818 -0.38392162322998047 110
-4.036613464355469 -1.8183621168136597 -0.22925111651420593 110
-4.02811336517334 -1.8136873245239258 -0.07567781955003738 110
-4.042857646942139 -1.8194774389266968 1.1768594980239868 110
-4.0470871925354 -1.8205317258834839 1.0148861408233643 110
-4.036974906921387 -1.8151357173919678 0.8521503210067749 110
-4.034952640533447 -1.8133797645568848 0.693803608417511 110
-4.036725044250488 -1.813329815864563 0.5386624932289124 110
-4.042665481567383 -1.8151501417160034 0.384356826543808 110
-4.043667793273926 -1.814752221107483 0.23027820885181427 110
-4.012384414672852 -1.7998714447021484 0.07609248906373978 110
-1.7806023359298706 -0.796875 -0.5124619007110596 119
-2.022810459136963 -0.9048469662666321 -0.5027658939361572 119
-2.3873467445373535 -1.0674118995666504 -0.5004242062568665 119
-2.915968894958496 -1.303154706954956 -0.49980852007865906 119
-3.913640260696411 -1.7481975555419922 -0.5216013789176941 0
-4.032813549041748 -1.8005871772766113 -0.3830500841140747 110
-4.033816814422607 -1.800190806388855 -0.2287294864654541 110
-4.025288105010986 -1.7955423593521118 -0.07550503313541412 110
-4.040361404418945 -1.8014204502105713 1.1742730140686035 110
-4.040067195892334 -1.8004441261291504 1.01151442527771 110
-4.0298357009887695 -1.795041561126709 0.8492907881736755 110
-4.032234191894531 -1.7952666282653809 0.6922409534454346 110
-4.033961772918701 -1.7951923608779907 0.5374437570571899 110
-4.039875030517578 -1.7969790697097778 0.3834852874279022 110
-4.0408525466918945 -1.7965692281723022 0.22975483536720276 110
-4.009505271911621 -1.7817940711975098 0.07591796666383743 110
-1.7833731174468994 -0.790654718875885 -0.5124619007110596 119
-2.025956630706787 -0.8977805376052856 -0.5027658939361572 119
-2.3910582065582275 -1.0590720176696777 -0.5004242062568665 119
-2.920499801635742 -1.2929681539535522 -0.49980852007865906 119
-3.9242568016052246 -1.736533761024475 -0.5222107172012329 119
-4.02996301651001 -1.782469391822815 -0.38217851519584656 110
-4.026375770568848 -1.7800424098968506 -0.22794707119464874 110
-4.017813205718994 -1.775418758392334 -0.07524586468935013 110
-4.0333709716796875 -1.7814520597457886 1.1703933477401733 110
-4.037413120269775 -1.782395362854004 1.0092666149139404 110
-4.027095794677734 -1.7770007848739624 0.8473843336105347 110
-4.029439449310303 -1.7771947383880615 0.6906783580780029 110
-4.031122207641602 -1.7770967483520508 0.5362250804901123 110
-4.037006855010986 -1.7788493633270264 0.3826137185096741 110
-4.037959575653076 -1.7784278392791748 0.22923149168491364 110
-4.00654935836792 -1.763758897781372 0.07574343681335449 110
-1.7861220836639404 -0.7844247221946716 -0.5124619007110596 119
-2.033539295196533 -0.892661452293396 -0.5038906931877136 119
-2.394740343093872 -1.0507192611694336 -0.5004242062568665 119
-2.929517984390259 -1.2847492694854736 -0.5005906820297241 119
-3.934839963912964 -1.7248175144195557 -0.5228200554847717 119
-4.027036190032959 -1.7643935680389404 -0.3813069760799408 110
-4.023416996002197 -1.7619708776474 -0.2274254560470581 110
-4.01482629776001 -1.7573736906051636 -0.07507307827472687 110
-4.030714988708496 -1.7634902000427246 1.1678067445755005 110
-4.0346832275390625 -1.7643873691558838 1.007018804550171 110
-4.024279594421387 -1.75900137424469 0.8454779982566833 110
-4.026566982269287 -1.7591640949249268 0.6891157031059265 110
-4.023656368255615 -1.7570563554763794 0.5343970060348511 110
-4.034061431884766 -1.7607617378234863 0.3817421793937683 110
-4.034989833831787 -1.7603286504745483 0.22870811820030212 110
-4.003516674041748 -1.745766282081604 0.07556891441345215 110
-1.7888494729995728 -0.778185248374939 -0.5124619007110596 119
-2.0366427898406982 -0.8855575919151306 -0.5038906931877136 119
-2.3983936309814453 -1.042353630065918 -0.5004242062568665 119
-2.9339847564697266 -1.2745155096054077 -0.5005906820297241 119
-3.9453887939453125 -1.7130484580993652 -0.5234294533729553 119
-4.024032115936279 -1.7463598251342773 -0.38043537735939026 110
-4.020381450653076 -1.7439416646957397 -0.22690382599830627 110
-4.011763095855713 -1.739371418952942 -0.0749003067612648 110
-4.027982711791992 -1.7455686330795288 1.1652202606201172 110
-4.031875133514404 -1.7464196681976318 1.0047709941864014 110
-4.016881942749023 -1.7390928268432617 0.842618465423584 110
-4.019085884094238 -1.7392141819000244 0.686771810054779 110
-4.020655632019043 -1.7390602827072144 0.5331783890724182 110
-4.031038761138916 -1.7427161931991577 0.3808705806732178 110
-4.031943321228027 -1.742272138595581 0.228184774518013 110
-4.0004072189331055 -1.7278162240982056 0.07539438456296921 110
-1.7871193885803223 -0.7700251340866089 -0.5111678242683411 119
-2.0397214889526367 -0.8784430623054504 -0.5038906931877136 119
-2.40201735496521 -1.03397536277771 -0.5004242062568665 119
-2.9429521560668945 -1.2662180662155151 -0.5013728737831116 119
-3.9559032917022705 -1.7012264728546143 -0.5240387320518494 119
-4.020951271057129 -1.7283686399459839 -0.3795638382434845 110
-4.017268657684326 -1.7259551286697388 -0.22638219594955444 110
-4.008622646331787 -1.7214118242263794 -0.07472752034664154 110
-4.025174617767334 -1.7276875972747803 1.1626337766647339 110
-4.028992652893066 -1.7284936904907227 1.0025231838226318 110
-4.013906002044678 -1.7211918830871582 0.8407120704650879 110
-4.016054153442383 -1.7212833166122437 0.6852091550827026 110
-4.017577648162842 -1.7211064100265503 0.5319596529006958 110
-4.027939796447754 -1.7247135639190674 0.3799990713596344 110
-4.028819561004639 -1.7242581844329834 0.2276614010334015 110
-3.9972212314605713 -1.7099093198776245 0.07521986961364746 110
-1.7897963523864746 -0.763782262802124 -0.5111678242683411 119
-2.0427756309509277 -0.8713177442550659 -0.5038906931877136 119
-2.405611991882324 -1.0255844593048096 -0.5004242062568665 119
-2.947354316711426 -1.2559375762939453 -0.5013728737831116 119
-3.966383695602417 -1.6893521547317505 -0.5246480703353882 119
-4.017793655395508 -1.7104203701019287 -0.37869226932525635 110
-4.014080047607422 -1.7080118656158447 -0.225860595703125 110
-4.005406379699707 -1.7034955024719238 -0.07455474138259888 110
-4.02229118347168 -1.7098476886749268 1.1600472927093506 110
-4.026033401489258 -1.7106088399887085 1.0002753734588623 110
-4.010854244232178 -1.7033332586288452 0.8388057351112366 110
-4.008399963378906 -1.701465129852295 0.6828652024269104 110
-4.014423847198486 -1.703195333480835 0.5307409763336182 110
-4.024764060974121 -1.7067536115646362 0.37912747263908386 110
-4.021022319793701 -1.704338788986206 0.226876363158226 110
-3.993959426879883 -1.69204580783844 0.07504533976316452 110
-1.7924516201019287 -0.7575300335884094 -0.5111678242683411 119
-2.045804500579834 -0.8641818165779114 -0.5038906931877136 119
-2.4046554565429688 -1.0152719020843506 -0.4994710087776184 119
-2.956270456314087 -1.2475618124008179 -0.502155065536499 119
-3.9768290519714355 -1.677425503730774 -0.5252574682235718 119
-4.009970664978027 -1.6905802488327026 -0.3773849606513977 110
-4.010814666748047 -1.690111517906189 -0.22533896565437317 110
-4.0021138191223145 -1.6856226921081543 -0.07438195496797562 110
-4.019332408905029 -1.6920489072799683 1.1574606895446777 110
-4.022998332977295 -1.6927658319473267 0.9980276226997375 110
-4.007726192474365 -1.6855164766311646 0.8368993401527405 110
-4.005209922790527 -1.6836354732513428 0.6813026666641235 110
-4.011194229125977 -1.685327410697937 0.5295222401618958 110
-4.01692008972168 -1.6869083642959595 0.3778201639652252 110
-4.017738342285156 -1.6864269971847534 0.2263529896736145 110
-3.990621566772461 -1.6742258071899414 0.07487081736326218 110
-1.7950849533081055 -0.7512685656547546 -0.5111678242683411 119
-2.0488085746765137 -0.8570353388786316 -0.5038906931877136 119
-2.403656482696533 -1.0049786567687988 -0.49851784110069275 119
-2.9606070518493652 -1.2372349500656128 -0.502155065536499 119
-3.987239122390747 -1.665446162223816 -0.5258668065071106 119
-4.006654739379883 -1.6727344989776611 -0.37651336193084717 110
-4.007473945617676 -1.672255277633667 -0.22481736540794373 110
-3.9987456798553467 -1.6677937507629395 -0.07420918345451355 110
-4.016297817230225 -1.6742914915084839 1.1548742055892944 110
-4.019887924194336 -1.6749649047851562 0.9957797527313232 110
-4.004523754119873 -1.6677428483963013 0.8349930047988892 110
-4.001943111419678 -1.6658484935760498 0.6797400116920471 110
-4.0078887939453125 -1.667502760887146 0.5283036231994629 110
-4.013585090637207 -1.6690510511398315 0.3769485652446747 110
-4.014379501342773 -1.6685595512390137 0.22582964599132538 110
-3.9918243885040283 -1.65836763381958 0.074783556163311 110
-1.8021581172943115 -0.7468469738960266 -0.5124619007110596 119
-2.0472865104675293 -0.8480139374732971 -0.5027658939361572 119
-2.4071497917175293 -0.9965821504592896 -0.49851784110069275 119
-2.9649078845977783 -1.2268929481506348 -0.502155065536499 119
-3.9930286407470703 -1.6515179872512817 -0.5258668065071106 119
-4.003262996673584 -1.6549327373504639 -0.3756418228149414 110
-4.00405740737915 -1.6544427871704102 -0.2242957353591919 110
-3.9953012466430664 -1.6500086784362793 -0.07403639703989029 110
-4.01318883895874 -1.6565762758255005 1.1522877216339111 110
-4.016703128814697 -1.657206416130066 0.9935320019721985 110
-4.001245498657227 -1.6500117778778076 0.8330865502357483 110
-3.9986019134521484 -1.6481050252914429 0.6781773567199707 110
-4.004507541656494 -1.649721622467041 0.5270848870277405 110
-4.010175704956055 -1.651237964630127 0.3760770559310913 110
-4.010944366455078 -1.6507359743118286 0.22530627250671387 110
-3.988342761993408 -1.6406201124191284 0.07460903376340866 110
-1.8047542572021484 -0.740551769733429 -0.5124619007110596 119
-2.050234079360962 -0.8408624529838562 -0.5027658939361572 119
-2.410614013671875 -0.9881735444068909 -0.49851784110069275 119
-2.969172477722168 -1.2165359258651733 -0.502155065536499 119
-3.9987690448760986 -1.637569546699524 -0.5258668065071106 0
-3.999795436859131 -1.6371747255325317 -0.37477025389671326 110
-4.000565052032471 -1.6366746425628662 -0.22377412021160126 110
-3.9917819499969482 -1.6322681903839111 -0.07386362552642822 110
-4.010004997253418 -1.6389029026031494 1.1497012376785278 110
-4.008932590484619 -1.6376479864120483 0.9901602268218994 110
-3.9978926181793213 -1.6323240995407104 0.831180214881897 110
-3.995185375213623 -1.630405306816101 0.6766147613525391 110
-4.001051902770996 -1.6319845914840698 0.5258662104606628 110
-4.00669002532959 -1.6334689855575562 0.37520545721054077 110
-4.007434368133545 -1.6329567432403564 0.22478292882442474 110
-3.9847850799560547 -1.6229166984558105 0.07443451136350632 110
-1.811802864074707 -0.7360653281211853 -0.5137560367584229 119
-2.048643112182617 -0.8318678140640259 -0.5016411542892456 119
-2.414048671722412 -0.9797529578208923 -0.49851784110069275 119
-2.968824625015259 -1.2043077945709229 -0.5013728737831116 119
-3.9998619556427 -1.6217366456985474 -0.5252574682235718 0
-3.996253252029419 -1.6194615364074707 -0.3738987147808075 110
-3.996997833251953 -1.6189510822296143 -0.22325249016284943 110
-3.988187313079834 -1.614572286605835 -0.07369083911180496 110
-4.002269744873047 -1.6194603443145752 1.145821452140808 110
-4.00559139251709 -1.6199907064437866 0.9879124760627747 110
-3.994464874267578 -1.6146798133850098 0.8292738199234009 110
-3.991694211959839 -1.612749457359314 0.6750521063804626 110
-3.997520685195923 -1.6142919063568115 0.5246474742889404 110
-4.003129959106445 -1.6157445907592773 0.374333918094635 110
-4.003848552703857 -1.6152219772338867 0.22425955533981323 110
-3.9811527729034424 -1.6052583456039429 0.07425998896360397 110
-1.8143609762191772 -0.7297365069389343 -0.5137560367584229 119
-2.051534414291382 -0.8247116804122925 -0.5016411542892456 119
-2.4174540042877197 -0.9713203310966492 -0.49851784110069275 119
-2.973010301589966 -1.1939374208450317 -0.5013728737831116 119
-4.000892639160156 -1.6059160232543945 -0.5246480703353882 110
-3.9926364421844482 -1.601792812347412 -0.37302714586257935 110
-3.9933557510375977 -1.601272463798523 -0.22273088991641998 110
-3.9798777103424072 -1.5950617790222168 -0.07343167066574097 110
-3.998931646347046 -1.6018881797790527 1.1432349681854248 110
-4.002175331115723 -1.602376937866211 0.9856646060943604 110
-3.990962266921997 -1.5970793962478638 0.8273674249649048 110
-3.988129138946533 -1.5951381921768188 0.673489511013031 110
-3.99391508102417 -1.5966438055038452 0.5234287977218628 110
-3.999494791030884 -1.59806489944458 0.37346234917640686 110
-4.00018835067749 -1.5975325107574463 0.2237362116575241 110
-3.9774458408355713 -1.5876450538635254 0.07408545911312103 110
-1.8168973922729492 -0.7233986854553223 -0.5137560367584229 119
-2.058927059173584 -0.8193467259407043 -0.5027658939361572 119
-2.4208297729492188 -0.9628759622573853 -0.49851784110069275 119
-2.9771597385406494 -1.1835523843765259 -0.5013728737831116 119
-4.001862049102783 -1.5901079177856445 -0.5240387320518494 110
-3.9889450073242188 -1.5841693878173828 -0.3721556067466736 110
-3.9896390438079834 -1.5836389064788818 -0.22220925986766815 110
-3.9761273860931396 -1.577472448348999 -0.0732588842511177 110
-3.9955196380615234 -1.5843589305877686 1.1406484842300415 110
-3.9941565990448 -1.5830118656158447 0.982292890548706 110
-3.987386703491211 -1.5795234441757202 0.8254610896110535 110
-3.9798974990844727 -1.575753092765808 0.6711456179618835 110
-3.990234613418579 -1.5790404081344604 0.5222101211547852 110
-3.9957847595214844 -1.580430269241333 0.3725908100605011 110
-3.991809844970703 -1.578052282333374 0.22295115888118744 110
-3.9736645221710205 -1.5700773000717163 0.07391094416379929 110
-1.8240299224853516 -0.7185046076774597 -0.5150501132011414 119
-2.0619163513183594 -0.8117948770523071 -0.5027658939361572 119
-2.4197750091552734 -0.9521993398666382 -0.4975646436214447 119
-2.976881980895996 -1.1708248853683472 -0.5005906820297241 119
-4.003044605255127 -1.5736141204833984 -0.5234294533729553 110
-3.98545241355896 -1.565895438194275 -0.37128400802612305 110
-3.981473684310913 -1.5635302066802979 -0.2214268445968628 110
-3.9725751876831055 -1.5592354536056519 -0.07308610528707504 110
-3.99230694770813 -1.566176176071167 1.1380620002746582 110
-3.9908604621887207 -1.564805030822754 0.9800451397895813 110
-3.9794394969940186 -1.5595256090164185 0.8226014971733093 110
-3.9764492511749268 -1.5575531721115112 0.6695829629898071 110
-3.986753225326538 -1.5607866048812866 0.5209914445877075 110
-3.9922733306884766 -1.5621442794799805 0.37171924114227295 110
-3.988266944885254 -1.5597739219665527 0.22242781519889832 110
-3.9700803756713867 -1.5518625974655151 0.07373641431331635 110
-1.8265268802642822 -0.7121332287788391 -0.5150501132011414 119
-2.069277048110962 -0.8063614964485168 -0.5038906931877136 119
-2.423084020614624 -0.9437468647956848 -0.4975646436214447 119
-2.9809505939483643 -1.1604266166687012 -0.5005906820297241 119
-4.0085129737854 -1.5596312284469604 -0.5234294533729553 110
-3.981609344482422 -1.548363447189331 -0.3704124689102173 110
-3.9775991439819336 -1.5460047721862793 -0.22090522944927216 110
-3.9686737060546875 -1.5417383909225464 -0.07291332632303238 110
-3.9932472705841064 -1.5504826307296753 1.1367686986923218 110
-3.9872138500213623 -1.5473393201828003 0.977797269821167 110
-3.9757063388824463 -1.5420751571655273 0.8206951022148132 110
-3.9726526737213135 -1.5400930643081665 0.6680203676223755 110
-3.982921838760376 -1.5432746410369873 0.5197727084159851 110
-3.988412857055664 -1.544601559638977 0.3708477020263672 110
-3.9843740463256836 -1.5422379970550537 0.2219044417142868 110
-3.9661502838134766 -1.5343809127807617 0.0735618844628334 110
-1.8288782835006714 -0.7060723304748535 -0.5150501132011414 119
-2.0763447284698486 -0.8016112446784973 -0.5050153732299805 119
-2.4214580059051514 -0.9343630075454712 -0.49661147594451904 119
-2.9891891479492188 -1.1528329849243164 -0.5013728737831116 119
-4.013393402099609 -1.5470304489135742 -0.5234294533729553 110
-3.9771580696105957 -1.5322659015655518 -0.36954089999198914 110
-3.973116874694824 -1.5299127101898193 -0.22038359940052032 110
-3.9641664028167725 -1.5256716012954712 -0.07274054735898972 110
-3.9890828132629395 -1.5344618558883667 1.1341822147369385 110
-3.9875080585479736 -1.5330570936203003 0.9766733646392822 110
-3.9713683128356934 -1.5260565280914307 0.8187887668609619 110
-3.9682507514953613 -1.5240637063980103 0.6664577126502991 110
-3.9784843921661377 -1.5271973609924316 0.5185540318489075 110
-3.9839444160461426 -1.5284955501556396 0.36997613310813904 110
-3.979875326156616 -1.5261374711990356 0.22138109803199768 110
-3.9616127014160156 -1.5183414220809937 0.07338736206293106 110
-1.8312097787857056 -0.7000036239624023 -0.5150501132011414 119
-2.079130172729492 -0.7943586111068726 -0.5050153732299805 119
-2.4247047901153564 -0.9259048700332642 -0.49661147594451904 119
-2.9978091716766357 -1.1441527605056763 -0.502155065536499 119
-4.014132022857666 -1.531242847442627 -0.5228200554847717 110
-3.973174571990967 -1.5148247480392456 -0.3686693608760834 110
-3.9691009521484375 -1.5124783515930176 -0.2198619842529297 110
-3.9601237773895264 -1.5082659721374512 -0.07256776094436646 110
-3.985387086868286 -1.5170913934707642 1.1315957307815552 110
-3.9837276935577393 -1.5156638622283936 0.9744256138801575 110
-3.9674954414367676 -1.508695363998413 0.8168823719024658 110
-3.9643142223358154 -1.506693720817566 0.6648951172828674 110
-3.979152202606201 -1.5115382671356201 0.5179446935653687 110
-3.979942798614502 -1.511043906211853 0.3691045939922333 110
-3.975841522216797 -1.5086928606033325 0.22085772454738617 110
-3.9575395584106445 -1.5009578466415405 0.07321283966302872 110
-1.8337631225585938 -0.6932872533798218 -0.5150501132011414 119
-2.0820276737213135 -0.7867329120635986 -0.5050153732299805 119
-2.42808198928833 -0.9170116782188416 -0.49661147594451904 119
-3.0019824504852295 -1.13315749168396 -0.502155065536499 119
-4.019717216491699 -1.5165200233459473 -0.5228200554847717 110
-3.9693784713745117 -1.4967374801635742 -0.3677977919578552 110
-3.965273380279541 -1.4943991899490356 -0.21934036910533905 110
-3.9562692642211914 -1.4902170896530151 -0.07239498943090439 110
-3.986400604248047 -1.5007723569869995 1.1303024291992188 110
-3.9801361560821533 -1.4976210594177246 0.9721777439117432 110
-3.9638102054595947 -1.4906880855560303 0.8149760365486145 110
-3.965186595916748 -1.4904159307479858 0.6641138195991516 110
-3.9753737449645996 -1.4934532642364502 0.5167259573936462 110
-3.9761273860931396 -1.4929444789886475 0.3682330250740051 110
-3.9719951152801514 -1.490601897239685 0.22033436596393585 110
-3.953652858734131 -1.48293137550354 0.07303831726312637 110
-1.8406955003738403 -0.6885741353034973 -0.5163442492485046 119
-2.084761142730713 -0.7794604301452637 -0.5050153732299805 119
-2.4312682151794434 -0.9085304737091064 -0.49661147594451904 119
-3.0059196949005127 -1.1226717233657837 -0.502155065536499 119
-4.020337104797363 -1.5007438659667969 -0.5222107172012329 110
-3.969911813735962 -1.4811314344406128 -0.36736199259757996 110
-3.961108446121216 -1.4770593643188477 -0.21881873905658722 110
-3.9567618370056152 -1.4746520519256592 -0.07230859249830246 110
-3.9825632572174072 -1.4834764003753662 1.1277159452438354 110
-3.976208448410034 -1.4803189039230347 0.9699299931526184 110
-3.9643895626068115 -1.4751311540603638 0.8140228390693665 110
-3.9611072540283203 -1.4731228351593018 0.6625511646270752 110
-3.9712588787078857 -1.4761093854904175 0.5155073404312134 110
-3.9719760417938232 -1.4755868911743164 0.3673614263534546 110
-3.9724929332733154 -1.474989891052246 0.2200726866722107 110
-3.954118251800537 -1.4673821926116943 0.0729510560631752 110
-1.8430877923965454 -0.6821447014808655 -0.5163442492485046 119
-2.0874693393707275 -0.7721785306930542 -0.5050153732299805 119
-2.434424877166748 -0.9000382423400879 -0.49661147594451904 119
-3.0098202228546143 -1.1121723651885986 -0.502155065536499 119
-4.020895481109619 -1.4849817752838135 -0.5216013789176941 110
-3.965712785720825 -1.4638152122497559 -0.3664904534816742 110
-3.9615559577941895 -1.4614955186843872 -0.2185579538345337 110
-3.9525041580200195 -1.4573723077774048 -0.0721358135342598 110
-3.9786531925201416 -1.4662253856658936 1.1251294612884521 110
-3.9722073078155518 -1.4630624055862427 0.9676821231842041 110
-3.960301637649536 -1.4578924179077148 0.8121163845062256 110
-3.956956148147583 -1.4558765888214111 0.6609885692596436 110
-3.9717295169830322 -1.4605252742767334 0.5148979425430298 110
-3.967752695083618 -1.4582767486572266 0.36648988723754883 110
-3.968243360519409 -1.457671046257019 0.21954931318759918 110
-3.9498305320739746 -1.4501248598098755 0.07277653366327286 110
-1.845457673072815 -0.6757069826126099 -0.5163442492485046 119
-2.0901520252227783 -0.7648872137069702 -0.5050153732299805 119
-2.4421610832214355 -0.8932209610939026 -0.4975646436214447 119
-3.013684034347534 -1.1016592979431152 -0.502155065536499 119
-4.026054859161377 -1.4709372520446777 -0.5216013789176941 110
-3.966118812561035 -1.4482547044754028 -0.3660546839237213 110
-3.957251787185669 -1.4442342519760132 -0.21803632378578186 110
-3.948174238204956 -1.4401403665542603 -0.07196303457021713 110
-3.9746711254119873 -1.4490196704864502 1.1225428581237793 110
-3.968135118484497 -1.4458521604537964 0.9654343724250793 110
-3.9561431407928467 -1.440700650215149 0.8102100491523743 110
-3.9527318477630615 -1.4386770725250244 0.6594259142875671 110
-3.9674761295318604 -1.443259358406067 0.5136792063713074 110
-3.963456392288208 -1.4410138130187988 0.3656183183193207 110
-3.9686145782470703 -1.4421051740646362 0.21928764879703522 110
-3.945470094680786 -1.432915449142456 0.07260200381278992 110
-1.847805142402649 -0.6692610383033752 -0.5163442492485046 119
-2.0928092002868652 -0.7575864791870117 -0.5050153732299805 119
-2.4452641010284424 -0.8846908211708069 -0.4975646436214447 119
-3.0175113677978516 -1.0911327600479126 -0.502155065536499 119
-4.026497840881348 -1.4551880359649658 -0.5209920406341553 119
-3.9617810249328613 -1.4310173988342285 -0.36518314480781555 110
-3.952876567840576 -1.4270212650299072 -0.21751472353935242 110
-3.948474645614624 -1.4246532917022705 -0.0718766450881958 110
-3.970618486404419 -1.4318597316741943 1.1199564933776855 110
-3.963991165161133 -1.4286880493164062 0.963186502456665 110
-3.9565298557281494 -1.4252187013626099 0.8092568516731262 110
-3.948436975479126 -1.421525001525879 0.6578633189201355 110
-3.9631505012512207 -1.4260410070419312 0.5124605894088745 110
-3.9590883255004883 -1.42379891872406 0.3647467792034149 110
-3.964226722717285 -1.424865484237671 0.2187642902135849 110
-3.9410386085510254 -1.4157543182373047 0.07242748886346817 110
-1.8501299619674683 -0.6628068685531616 -0.5163442492485046 119
-2.0954408645629883 -0.7502766251564026 -0.5050153732299805 119
-2.4483373165130615 -0.8761498332023621 -0.4975646436214447 119
-3.021301746368408 -1.0805931091308594 -0.502155065536499 119
-4.017532825469971 -1.4361125230789185 -0.519163966178894 119
-3.9620611667633057 -1.415503740310669 -0.3647473454475403 110
-3.9484283924102783 -1.4098562002182007 -0.21699309349060059 110
-3.94400691986084 -1.4075013399124146 -0.07170386612415314 110
-3.966494083404541 -1.414745807647705 1.1173698902130127 110
-3.959775686264038 -1.4115705490112305 0.9609387516975403 110
-3.9522340297698975 -1.4081047773361206 0.8073505163192749 110
-3.9440698623657227 -1.4044204950332642 0.6563006639480591 110
-3.9587531089782715 -1.4088703393936157 0.5112418532371521 110
-3.9546477794647217 -1.4066317081451416 0.36387521028518677 110
-3.9644718170166016 -1.409346580505371 0.21850259602069855 110
-3.936534881591797 -1.3986413478851318 0.07225295901298523 110
-1.852432370185852 -0.6563447117805481 -0.5163442492485046 119
-2.10263991355896 -0.7445839643478394 -0.5061401724815369 119
-2.456008195877075 -0.8692358732223511 -0.49851784110069275 119
-3.025055170059204 -1.070040225982666 -0.502155065536499 119
-4.003806114196777 -1.4154634475708008 -0.516726553440094 119
-3.957585096359253 -1.3983460664749146 -0.36387577652931213 110
-3.9439096450805664 -1.3927397727966309 -0.21647147834300995 110
-3.939467430114746 -1.3903977870941162 -0.07153107970952988 110
-3.962298631668091 -1.397678256034851 1.1147834062576294 110
-3.955488920211792 -1.3944998979568481 0.958690881729126 110
-3.9478659629821777 -1.3910378217697144 0.8054441213607788 110
-3.939631938934326 -1.3873636722564697 0.6547380685806274 110
-3.95428466796875 -1.391748070716858 0.5100231766700745 110
-3.950136423110962 -1.389513373374939 0.363003671169281 110
-3.9599459171295166 -1.392187237739563 0.21797925233840942 110
-3.931960105895996 -1.3815773725509644 0.07207843661308289 110
-1.8547121286392212 -0.6498745083808899 -0.5163442492485046 119
-2.1052260398864746 -0.7372398376464844 -0.5061401724815369 119
-2.4590275287628174 -0.8606575131416321 -0.49851784110069275 119
-3.0287718772888184 -1.0594743490219116 -0.502155065536499 119
-3.989983320236206 -1.3949276208877563 -0.5142892003059387 119
-3.953037977218628 -1.3812370300292969 -0.36300423741340637 110
-3.9393186569213867 -1.3756718635559082 -0.21594984829425812 110
-3.9395766258239746 -1.3749905824661255 -0.07144469022750854 110
-3.9580326080322266 -1.3806571960449219 1.112196922302246 110
-3.951131820678711 -1.3774765729904175 0.9564431309700012 110
-3.9480626583099365 -1.3756338357925415 0.8044909238815308 110
-3.939786672592163 -1.3719792366027832 0.6539567708969116 110
-3.949744701385498 -1.3746739625930786 0.508804440498352 110
-3.950258255004883 -1.3740798234939575 0.36256787180900574 110
-3.9553487300872803 -1.3750766515731812 0.2174558788537979 110
-3.927313804626465 -1.3645620346069336 0.07190390676259995 110
-1.8569692373275757 -0.6433964371681213 -0.5163442492485046 119
-2.1123900413513184 -0.7314808368682861 -0.5072649121284485 119
-2.4666547775268555 -0.8536739349365234 -0.4994710087776184 119
-3.032451629638672 -1.0488954782485962 -0.502155065536499 119
-3.976066827774048 -1.3745057582855225 -0.5118517875671387 119
-3.9484193325042725 -1.3641767501831055 -0.36213263869285583 110
-3.9393770694732666 -1.3602831363677979 -0.2156890332698822 110
-3.934900999069214 -1.357968807220459 -0.07127191126346588 110
-3.9536960124969482 -1.3636829853057861 1.1096104383468628 110
-3.9467034339904785 -1.360500454902649 0.9541952610015869 110
-3.943559169769287 -1.3586466312408447 0.8025845885276794 110
-3.9352128505706787 -1.3550026416778564 0.6523941159248352 110
-3.945133686065674 -1.3576486110687256 0.5075858235359192 110
-3.945610761642456 -1.3570425510406494 0.36169636249542236 110
-3.95068097114563 -1.3580154180526733 0.2169325351715088 110
-3.9273250102996826 -1.3492207527160645 0.07181664556264877 110
-1.859203815460205 -0.6369104385375977 -0.5163442492485046 119
-2.1149306297302246 -0.7241027355194092 -0.5072649121284485 119
-2.4696195125579834 -0.8450584411621094 -0.4994710087776184 119
-3.0360946655273438 -1.0383038520812988 -0.502155065536499 119
-3.9714486598968506 -1.3574082851409912 -0.510633111000061 119
-3.948443651199341 -1.3487757444381714 -0.36169689893722534 110
-3.934650421142578 -1.3432973623275757 -0.21516743302345276 110
-3.9301540851593018 -1.340996265411377 -0.07109913229942322 110
-3.949289321899414 -1.3467559814453125 1.10702383518219 110
-3.9422059059143066 -1.3435723781585693 0.9519475102424622 110
-3.9389853477478027 -1.341707468032837 0.8006781339645386 110
-3.935243606567383 -1.3396663665771484 0.6516128182411194 110
-3.9404523372650146 -1.340672254562378 0.5063670873641968 110
-3.940891742706299 -1.3400543928146362 0.3608247637748718 110
-3.945941686630249 -1.341003179550171 0.21640916168689728 110
-3.922544002532959 -1.3322880268096924 0.07164212316274643 110
-1.8615257740020752 -0.6300918459892273 -0.5163442492485046 119
-2.1220600605010986 -0.7182779312133789 -0.5083897113800049 119
-2.4772040843963623 -0.838005542755127 -0.5004242062568665 119
-3.039700508117676 -1.027699589729309 -0.502155065536499 119
-3.966759443283081 -1.3403598070144653 -0.5094144344329834 119
-3.9436891078948975 -1.331797480583191 -0.3608253300189972 110
-3.934584379196167 -1.3279578685760498 -0.21490661799907684 110
-3.925337076187134 -1.3240737915039062 -0.07092635333538055 110
-3.9448130130767822 -1.3298763036727905 1.1044374704360962 110
-3.9376375675201416 -1.3266921043395996 0.9496996402740479 110
-3.9343414306640625 -1.3248169422149658 0.7987717986106873 110
-3.930534601211548 -1.3227711915969849 0.650050163269043 110
-3.9357008934020996 -1.3237452507019043 0.5051484107971191 110
-3.940824031829834 -1.3247028589248657 0.36038899421691895 110
-3.9458658695220947 -1.3256312608718872 0.2161474972963333 110
-3.917691707611084 -1.315405011177063 0.07146760076284409 110
-1.859025239944458 -0.6223820447921753 -0.5150501132011414 119
-2.124554395675659 -0.7108661532402039 -0.5083897113800049 119
-2.480113983154297 -0.8293534517288208 -0.5004242062568665 119
-3.043269395828247 -1.017082691192627 -0.502155065536499 119
-3.9667069911956787 -1.3249328136444092 -0.5088050365447998 119
-3.9388649463653564 -1.3148690462112427 -0.35995379090309143 110
-3.9297232627868652 -1.3110551834106445 -0.2143850177526474 110
-3.9251925945281982 -1.3087823390960693 -0.07083996385335922 110
-3.9402663707733154 -1.3130443096160889 1.1018508672714233 110
-3.937621831893921 -1.3113994598388672 0.9485757350921631 110
-3.9296276569366455 -1.307975172996521 0.7968654036521912 110
-3.9257559776306152 -1.3059254884719849 0.6484876275062561 110
-3.9355881214141846 -1.3084332942962646 0.5045390725135803 110
-3.9359703063964844 -1.3077975511550903 0.3595174551010132 110
-3.9409916400909424 -1.3087023496627808 0.2156241238117218 110
-3.9127700328826904 -1.2985724210739136 0.07129307836294174 110
-1.8611863851547241 -0.6158890724182129 -0.5150501132011414 119
-2.1269001960754395 -0.7038170099258423 -0.5083897113800049 119
-2.4828505516052246 -0.8211245536804199 -0.5004242062568665 119
-3.0466253757476807 -1.0069853067398071 -0.502155065536499 119
-3.9616541862487793 -1.308658242225647 -0.5075863599777222 119
-3.933743715286255 -1.2986770868301392 -0.3590822219848633 110
-3.9245657920837402 -1.2948874235153198 -0.21386338770389557 110
-3.920015335083008 -1.2926275730133057 -0.07066717743873596 110
-3.935425043106079 -1.2969473600387573 1.09926438331604 110
-3.93269419670105 -1.2952864170074463 0.9463279843330383 110
-3.924619436264038 -1.291867733001709 0.7949590682983398 110
-3.9253735542297363 -1.2913565635681152 0.6477062702178955 110
-3.930476427078247 -1.2922751903533936 0.5033203959465027 110
-3.930821180343628 -1.2916282415390015 0.35864585638046265 110
-3.935822010040283 -1.2925103902816772 0.21510078012943268 110
-3.907555103302002 -1.2824721336364746 0.0711185485124588 110
-1.8632185459136963 -0.6097137928009033 -0.5150501132011414 119
-2.1293439865112305 -0.6963884234428406 -0.5083897113800049 119
-2.485701560974121 -0.8124527335166931 -0.5004242062568665 119
-3.050121784210205 -0.9963444471359253 -0.502155065536499 119
-3.9614803791046143 -1.2932811975479126 -0.5069770216941833 119
-3.9335176944732666 -1.2833927869796753 -0.358646422624588 110
-3.924314260482788 -1.2796322107315063 -0.21360257267951965 110
-3.9149973392486572 -1.2758382558822632 -0.0704943984746933 110
-3.930743455886841 -1.2802107334136963 1.0966778993606567 110
-3.93255877494812 -1.2800428867340088 0.9452040791511536 110
-3.9244372844696045 -1.2766419649124146 0.7940058708190918 110
-3.920464038848877 -1.2745927572250366 0.6461436152458191 110
-3.930243730545044 -1.277013897895813 0.5027110576629639 110
-3.9305686950683594 -1.276361107826233 0.35821011662483215 110
-3.935560464859009 -1.2772228717803955 0.21483910083770752 110
-3.907252073287964 -1.2672820091247559 0.07103128731250763 110
-1.8654407262802124 -0.602880597114563 -0.5150501132011414 119
-2.1318821907043457 -0.6885793209075928 -0.5083897113800049 119
-2.4933338165283203 -0.8048445582389832 -0.5013774037361145 119
-3.05845308303833 -0.9866747260093689 -0.5029371976852417 119
-3.9567477703094482 -1.275707483291626 -0.5057583451271057 119
-3.928713798522949 -1.2659120559692383 -0.35777488350868225 110
-3.9194722175598145 -1.2621791362762451 -0.21308095753192902 110
-3.9101293087005615 -1.2584172487258911 -0.07032161951065063 110
-3.9308114051818848 -1.264316439628601 1.0953847169876099 110
-3.9325857162475586 -1.264129877090454 0.944080114364624 110
-3.919743776321411 -1.2592469453811646 0.7920994162559509 110
-3.92040753364563 -1.2587053775787354 0.645362377166748 110
-3.9254467487335205 -1.2595676183700562 0.5014923214912415 110
-3.925734043121338 -1.258904218673706 0.357338547706604 110
-3.9307048320770264 -1.2597416639328003 0.214315727353096 110
-3.9023489952087402 -1.2499029636383057 0.07085676491260529 110
-1.867533802986145 -0.5963653922080994 -0.5150501132011414 119
-2.134272575378418 -0.6811334490776062 -0.5083897113800049 119
-2.4961280822753906 -0.796136200428009 -0.5013774037361145 119
-3.0665836334228516 -0.9774925708770752 -0.5037193894386292 119
-3.9564480781555176 -1.2603816986083984 -0.5051490068435669 119
-3.9236154556274414 -1.2491681575775146 -0.3569033145904541 110
-3.9143378734588623 -1.2454620599746704 -0.21255932748317719 110
-3.9049699306488037 -1.241730809211731 -0.07014884054660797 110
-3.925994396209717 -1.2476619482040405 1.092798113822937 110
-3.927687406539917 -1.2474453449249268 0.9418323636054993 110
-3.9147589206695557 -1.2425869703292847 0.7901930809020996 110
-3.9153623580932617 -1.242026448249817 0.6437997221946716 110
