# .PCD v0.7 - Point Cloud Data file format
VERSION 0.7
FIELDS x y z intensity
SIZE 4 4 4 4
TYPE F F F F
COUNT 1 1 1 1
WIDTH 770
HEIGHT 1
VIEWPOINT 0 0 0 1 0 0 0
POINTS 770
DATA ascii
3.329461097717285 -1.8447909355163574 0.5961397886276245 101
3.340916872024536 -1.851900339126587 0.46432217955589294 101
3.3571064472198486 -1.861640453338623 0.3324991464614868 101
3.3605377674102783 -1.8643101453781128 0.19939999282360077 101
3.320559024810791 -1.8428893089294434 0.06562104821205139 101
1.6753253936767578 -0.9317083358764648 -0.5034032464027405 119
1.902380108833313 -1.0584163665771484 -0.4937678575515747 119
2.2335445880889893 -1.2431749105453491 -0.48898595571517944 119
2.7128186225891113 -1.510555624961853 -0.4857294261455536 119
3.324024200439453 -1.851648211479187 -0.4624946713447571 119
3.2922863960266113 -1.834721565246582 -0.3263987600803375 101
3.326127767562866 -1.8543415069580078 -0.1969107985496521 101
3.2992374897003174 -1.8401049375534058 -0.06461986899375916 101
3.2768375873565674 -1.8283615112304688 0.9945110082626343 101
3.2750697135925293 -1.8281248807907104 0.8564155697822571 101
3.251732110977173 -1.8158421516418457 0.7158443927764893 101
3.288510322570801 -1.8371330499649048 0.5898892879486084 101
3.295443296432495 -1.8417608737945557 0.4588380455970764 101
3.3158071041107178 -1.8539013862609863 0.329012930393219 101
3.3147895336151123 -1.8540921211242676 0.19704486429691315 101
3.274841785430908 -1.8324981927871704 0.06483568251132965 101
1.676275610923767 -0.939912736415863 -0.504697322845459 119
1.8986738920211792 -1.0650503635406494 -0.4937678575515747 119
2.229191541671753 -1.2509639263153076 -0.48898595571517944 119
2.7118353843688965 -1.5224334001541138 -0.48651158809661865 119
3.278597831726074 -1.8413684368133545 -0.45701056718826294 119
3.251122236251831 -1.826683521270752 -0.3229125142097473 101
3.2804603576660156 -1.8439209461212158 -0.19456352293491364 101
3.2535762786865234 -1.8295570611953735 -0.06384235620498657 101
3.2325499057769775 -1.8184762001037598 0.9828717112541199 101
3.2304558753967285 -1.8180404901504517 0.8463004231452942 101
3.2068803310394287 -1.8055096864700317 0.7072656750679016 101
3.2433507442474365 -1.8267884254455566 0.5828575491905212 101
3.250082015991211 -1.8313270807266235 0.4533539414405823 101
3.270264148712158 -1.8434510231018066 0.3250909149646759 101
3.273503541946411 -1.8460302352905273 0.19495142996311188 101
3.2335925102233887 -1.8242669105529785 0.06413759291172028 101
1.6729844808578491 -0.9457582235336304 -0.504697322845459 119
1.894944667816162 -1.071671485900879 -0.4937678575515747 119
2.2290830612182617 -1.2611544132232666 -0.4899391233921051 119
2.7065045833587646 -1.5318901538848877 -0.48651158809661865 119
3.2376022338867188 -1.8332393169403076 -0.45213574171066284 119
3.214388370513916 -1.8208359479904175 -0.3198620676994324 101
3.239250421524048 -1.8356661796569824 -0.1924770325422287 101
3.21237850189209 -1.821178674697876 -0.06315123289823532 101
3.188371419906616 -1.808303952217102 0.9712324142456055 101
3.185952663421631 -1.8076672554016113 0.8361852765083313 101
3.1621413230895996 -1.7948864698410034 0.6986870169639587 101
3.2025980949401855 -1.818589687347412 0.5766069889068604 101
3.20914888381958 -1.8230502605438232 0.44847914576530457 101
3.2291650772094727 -1.835166573524475 0.3216046690940857 101
3.2323145866394043 -1.837702989578247 0.1928579956293106 101
3.1924405097961426 -1.8157702684402466 0.0634394958615303 101
1.6696728467941284 -0.9515923261642456 -0.504697322845459 119
1.8911921977996826 -1.0782796144485474 -0.4937678575515747 119
2.228930711746216 -1.2713595628738403 -0.49089235067367554 119
2.701140880584717 -1.5413284301757812 -0.48651158809661865 119
3.1967039108276367 -1.824846863746643 -0.4472609758377075 119
3.1777358055114746 -1.8147543668746948 -0.31681162118911743 101
3.193803548812866 -1.8246697187423706 -0.19012977182865143 101
3.171278953552246 -1.8125351667404175 -0.06246011331677437 101
3.1484971046447754 -1.8002434968948364 0.9608864188194275 101
3.14156174659729 -1.7970056533813477 0.8260701298713684 101
3.1217758655548096 -1.786411166191101 0.6910615563392639 101
3.161942958831787 -1.810128927230835 0.570356547832489 101
3.1640076637268066 -1.8120441436767578 0.4429950416088104 101
3.188164472579956 -1.826617956161499 0.31811845302581787 101
3.1912240982055664 -1.829110860824585 0.19076456129550934 101
3.151388168334961 -1.8070088624954224 0.06274139881134033 101
1.6663411855697632 -0.9574147462844849 -0.504697322845459 119
1.887416958808899 -1.0848745107650757 -0.4937678575515747 119
2.228734254837036 -1.2815790176391602 -0.4918454885482788 119
2.695744037628174 -1.5507476329803467 -0.48651158809661865 119
3.160205364227295 -1.8186668157577515 -0.4429955780506134 119
3.136848211288452 -1.805953860282898 -0.3133253753185272 101
3.1528000831604004 -1.8158704042434692 -0.18804329633712769 101
3.130279064178467 -1.8036271333694458 -0.06176899001002312 101
3.1045336723327637 -1.7895147800445557 0.9492471218109131 101
3.1015052795410156 -1.7884901762008667 0.8170788884162903 101
3.0815086364746094 -1.777675747871399 0.6834360361099243 101
3.1213862895965576 -1.8014068603515625 0.5641060471534729 101
3.1232802867889404 -1.8032267093658447 0.4381202757358551 101
3.147263288497925 -1.8178058862686157 0.31463223695755005 101
3.150233268737793 -1.8202544450759888 0.18867111206054688 101
3.110435724258423 -1.797982931137085 0.06204329803586006 101
1.6629889011383057 -0.9632256031036377 -0.504697322845459 119
1.8836184740066528 -1.0914561748504639 -0.4937678575515747 119
2.2242469787597656 -1.289350986480713 -0.4918454885482788 119
2.690314769744873 -1.5601481199264526 -0.48651158809661865 119
3.1194968223571777 -1.8097641468048096 -0.4381207823753357 119
3.1003692150115967 -1.7993906736373901 -0.3102749288082123 101
3.1118972301483154 -1.8068073987960815 -0.18595680594444275 101
3.0937039852142334 -1.7969661951065063 -0.061164259910583496 101
3.0648601055145264 -1.7809277772903442 0.9389011263847351 101
3.0573346614837646 -1.7772687673568726 0.8069637417793274 101
3.0413403511047363 -1.7686814069747925 0.6758104562759399 101
3.0809295177459717 -1.7924238443374634 0.5578556060791016 101
3.082653284072876 -1.79414701461792 0.4332454800605774 101
3.1064629554748535 -1.8087304830551147 0.31114599108695984 101
3.1093432903289795 -1.8111342191696167 0.1865776777267456 101
3.0695855617523193 -1.7886936664581299 0.06134520471096039 101
1.6554458141326904 -0.9665893316268921 -0.5034032464027405 119
1.879797101020813 -1.098024606704712 -0.4937678575515747 119
2.223970651626587 -1.2995835542678833 -0.49279871582984924 119
2.684852123260498 -1.56952965259552 -0.48651158809661865 119
3.0831727981567383 -1.8031048774719238 -0.4338553547859192 119
3.059675455093384 -1.7900795936584473 -0.30678868293762207 101
3.071096658706665 -1.7974811792373657 -0.1838703453540802 101
3.0528995990753174 -1.7875460386276245 -0.06047314032912254 101
3.025284767150879 -1.7720860242843628 0.9285550713539124 101
3.017484426498413 -1.7682244777679443 0.7979725003242493 101
3.0012733936309814 -1.75942862033844 0.6681849956512451 101
3.0448336601257324 -1.7856789827346802 0.5523864030838013 101
3.0464091300964355 -1.7873176336288452 0.4289800822734833 101
3.0700602531433105 -1.8019139766693115 0.3080955445766449 101
3.072862148284912 -1.8042795658111572 0.1847459226846695 101
3.0288383960723877 -1.7791413068771362 0.060647107660770416 101
1.6520615816116333 -0.9723620414733887 -0.5034032464027405 119
1.8759528398513794 -1.1045795679092407 -0.4937678575515747 119
2.219420909881592 -1.3073387145996094 -0.49279871582984924 119
2.6793572902679443 -1.5788918733596802 -0.48651158809661865 119
3.046933889389038 -1.7962141036987305 -0.4295898973941803 119
3.0233750343322754 -1.7830369472503662 -0.30373823642730713 101
3.0346999168395996 -1.790429949760437 -0.18204468488693237 101
3.0165040493011475 -1.7804042100906372 -0.059868406504392624 101
2.985809087753296 -1.762990117073059 0.9182090759277344 101
2.9777348041534424 -1.7589234113693237 0.7889812588691711 101
2.961308240890503 -1.7499178647994995 0.6605594754219055 101
3.0045716762542725 -1.776190996170044 0.5461359024047852 101
3.005978584289551 -1.7777307033538818 0.42410531640052795 101
3.029456377029419 -1.7923293113708496 0.3046093285083771 101
3.0364668369293213 -1.7971923351287842 0.1829141527414322 101
2.992497444152832 -1.7718737125396729 0.060036271810531616 101
1.6486573219299316 -0.9781229496002197 -0.5034032464027405 119
1.872085690498352 -1.1111212968826294 -0.4937678575515747 119
2.219064235687256 -1.3175839185714722 -0.4937518835067749 119
2.6738295555114746 -1.5882349014282227 -0.48651158809661865 119
3.0107815265655518 -1.789093017578125 -0.4253244996070862 119
2.9828803539276123 -1.7732176780700684 -0.3002519905567169 101
2.9940989017486572 -1.7805941104888916 -0.17995820939540863 101
2.980196237564087 -1.7730302810668945 -0.059263672679662704 101
2.9464337825775146 -1.7536402940750122 0.9078630805015564 101
2.9422733783721924 -1.7518595457077026 0.7811139225959778 101
2.9298806190490723 -1.7451735734939575 0.654840350151062 101
2.968656063079834 -1.7689719200134277 0.5406667590141296 101
2.9699151515960693 -1.770424723625183 0.41983985900878906 101
2.9932358264923096 -1.7850347757339478 0.30155888199806213 101
3.0001587867736816 -1.7898731231689453 0.18108241260051727 101
2.956244945526123 -1.7643741369247437 0.059425439685583115 101
1.6410880088806152 -0.9813930988311768 -0.502109169960022 119
1.8681957721710205 -1.1176493167877197 -0.4937678575515747 119
2.214451313018799 -1.3253217935562134 -0.4937518835067749 119
2.664032220840454 -1.5950219631195068 -0.4857294261455536 119
2.9747157096862793 -1.7817411422729492 -0.4210590422153473 119
2.946763753890991 -1.765697956085205 -0.297201544046402 101
2.957886219024658 -1.7730640172958374 -0.1781325489282608 101
2.943977117538452 -1.7654250860214233 -0.05865894630551338 101
2.907160758972168 -1.74403715133667 0.8975170850753784 101
2.9027202129364014 -1.7420624494552612 0.7721226811408997 101
2.8943140506744385 -1.7377043962478638 0.6481680274009705 101
2.9328277111053467 -1.7615240812301636 0.5351975560188293 101
2.9339399337768555 -1.7628889083862305 0.41557443141937256 101
2.9571030139923096 -1.7775092124938965 0.2985084056854248 101
2.9639391899108887 -1.782322645187378 0.17925064265727997 101
2.92008113861084 -1.7566431760787964 0.058814603835344315 101
1.6376523971557617 -0.9871155619621277 -0.502109169960022 119
1.8642829656600952 -1.1241637468338013 -0.4937678575515747 119
2.2098116874694824 -1.3330435752868652 -0.4937518835067749 119
2.6584484577178955 -1.6043113470077515 -0.4857294261455536 119
2.9387383460998535 -1.774159550666809 -0.4167936146259308 119
2.910736322402954 -1.7579478025436401 -0.29415109753608704 101
2.9217629432678223 -1.7653032541275024 -0.17630688846111298 101
2.9078476428985596 -1.757588505744934 -0.05805421248078346 101
2.867990732192993 -1.7341814041137695 0.8871710300445557 101
2.8632724285125732 -1.7320109605789185 0.7631314396858215 101
2.8798320293426514 -1.7427146434783936 0.6462616324424744 101
2.897087812423706 -1.753847599029541 0.5297284126281738 101
2.8980538845062256 -1.7551238536834717 0.41130903363227844 101
2.9210596084594727 -1.7697532176971436 0.29545795917510986 101
2.927809000015259 -1.7745413780212402 0.17741888761520386 101
2.8840079307556152 -1.748681902885437 0.05820377543568611 101
1.6341967582702637 -0.9928260445594788 -0.502109169960022 119
1.8603475093841553 -1.130664348602295 -0.4937678575515747 119
2.200951099395752 -1.3381991386413574 -0.49279871582984924 119
2.65283203125 -1.6135814189910889 -0.4857294261455536 119
2.90285062789917 -1.7663490772247314 -0.4125281870365143 119
2.8747994899749756 -1.7499678134918213 -0.2911006212234497 101
2.885730743408203 -1.757312297821045 -0.17448122799396515 101
2.8718090057373047 -1.7495216131210327 -0.05744947865605354 101
2.824801445007324 -1.7215603590011597 0.875531792640686 101
2.823930025100708 -1.721705436706543 0.7541402578353882 101
2.8695411682128906 -1.750200867652893 0.6453084945678711 101
2.8614377975463867 -1.7459434270858765 0.5242592692375183 101
2.862257957458496 -1.7471296787261963 0.40704357624053955 101
2.8851068019866943 -1.7617679834365845 0.2924075126647949 101
2.891770362854004 -1.76652991771698 0.17558713257312775 101
2.8480260372161865 -1.7404899597167969 0.05759293958544731 101
1.630721092224121 -0.9985243082046509 -0.502109169960022 119
1.8605440855026245 -1.1396962404251099 -0.4948926270008087 119
2.1962664127349854 -1.3458738327026367 -0.49279871582984924 119
2.647183418273926 -1.6228317022323608 -0.4857294261455536 119
2.867053508758545 -1.7583094835281372 -0.4082627594470978 119
2.8431997299194336 -1.74436354637146 -0.28848594427108765 101
2.84978985786438 -1.749091386795044 -0.17265556752681732 101
2.835862398147583 -1.7412245273590088 -0.05684474855661392 101
2.761157989501953 -1.6960195302963257 0.8574262261390686 101
2.7805440425872803 -1.7085957527160645 0.7440250515937805 101
2.8634142875671387 -1.760206699371338 0.6453084945678711 101
2.830085039138794 -1.74039888381958 0.5195713639259338 101
2.8265535831451416 -1.7389074563980103 0.40277814865112305 101
2.853487253189087 -1.7561635971069336 0.28979283571243286 101
2.855823040008545 -1.7582885026931763 0.17375536262989044 101
2.8163936138153076 -1.7346901893615723 0.05706936493515968 101
1.627225637435913 -1.0042105913162231 -0.502109169960022 119
1.856554388999939 -1.1461838483810425 -0.4948926270008087 119
2.1915552616119385 -1.3535319566726685 -0.49279871582984924 119
2.641502618789673 -1.6320620775222778 -0.4857294261455536 119
2.8355698585510254 -1.7526510953903198 -0.4046066701412201 119
2.8074381351470947 -1.7359404563903809 -0.2854354977607727 101
2.818188428878784 -1.7432676553726196 -0.17109070718288422 101
2.800009250640869 -1.7326980829238892 -0.0562400184571743 101
2.7716474533081055 -1.7158164978027344 0.86259925365448 101
2.7662792205810547 -1.7131609916687012 0.741777241230011 101
2.8447353839874268 -1.762436032295227 0.642448902130127 101
2.7946085929870605 -1.732055425643921 0.5141022205352783 101
2.7909421920776367 -1.7304574251174927 0.39851275086402893 101
2.8177101612091064 -1.7477353811264038 0.2867423892021179 101
2.824211597442627 -1.7524505853652954 0.1721852868795395 101
2.7805891036987305 -1.7260545492172241 0.05645852908492088 101
1.6238867044448853 -1.00960111618042 -0.502109169960022 119
1.85274338722229 -1.1523339748382568 -0.4948926270008087 119
2.1870546340942383 -1.3607920408248901 -0.49279871582984924 119
2.631883144378662 -1.6382030248641968 -0.48494723439216614 119
2.8044657707214355 -1.7463053464889526 -0.4009505808353424 119
2.776299238204956 -1.7294389009475708 -0.28282082080841064 101
2.7827279567718506 -1.7341179847717285 -0.1692650467157364 101
2.768793821334839 -1.7261054515838623 -0.05572167783975601 101
2.7454514503479004 -1.7122188806533813 0.856132984161377 101
2.739915132522583 -1.7094303369522095 0.7361577153205872 101
2.8014004230499268 -1.748470425605774 0.6338701844215393 101
2.7637152671813965 -1.7256197929382324 0.5094143748283386 101
2.7599337100982666 -1.7239282131195068 0.39485666155815125 101
2.7865543365478516 -1.7412325143814087 0.28412771224975586 101
2.7887468338012695 -1.7432793378829956 0.17035353183746338 101
2.749418020248413 -1.7193619012832642 0.05593495815992355 101
1.6203526258468628 -1.0152634382247925 -0.502109169960022 119
1.8528374433517456 -1.1613816022872925 -0.49601736664772034 119
2.182291269302368 -1.3684179782867432 -0.49279871582984924 119
2.6261489391326904 -1.6473801136016846 -0.48494723439216614 119
2.7731313705444336 -1.7402565479278564 -0.3972945213317871 119
2.740715742111206 -1.7205810546875 -0.2797703742980957 101
2.7512872219085693 -1.7278872728347778 -0.16770018637180328 101
2.7373530864715576 -1.7198023796081543 -0.05520333722233772 101
2.7271902561187744 -1.7140814065933228 0.8522531986236572 101
2.721557855606079 -1.7112040519714355 0.7327860593795776 101
2.762042284011841 -1.7373318672180176 0.6262446641921997 101
2.732595443725586 -1.7194753885269165 0.5047264695167542 101
2.7245001792907715 -1.7150452136993408 0.39059123396873474 101
2.7551703453063965 -1.7350232601165771 0.2815130650997162 101
2.7530720233917236 -1.7343730926513672 0.16852177679538727 101
2.7180233001708984 -1.7129558324813843 0.055411387234926224 101
1.6167988777160645 -1.0209132432937622 -0.502109169960022 119
1.8487721681594849 -1.167842149734497 -0.49601736664772034 119
2.1775012016296387 -1.376027226448059 -0.49279871582984924 119
2.616208076477051 -1.6538981199264526 -0.4841650724411011 119
2.7418739795684814 -1.7340106964111328 -0.3936384320259094 119
2.709437131881714 -1.7141590118408203 -0.27715566754341125 101
2.719924211502075 -1.7214586734771729 -0.16613534092903137 101
2.7059903144836426 -1.7133013010025024 -0.054684996604919434 101
2.7130300998687744 -1.7184219360351562 0.8496667146682739 101
2.699106454849243 -1.7102628946304321 0.7282904386520386 101
2.7227962017059326 -1.7259397506713867 0.6186192035675049 101
2.701552391052246 -1.7131346464157104 0.5000385642051697 101
2.6933531761169434 -1.7085944414138794 0.38693514466285706 101
2.723863363265991 -1.7286162376403809 0.27889835834503174 101
2.7217087745666504 -1.7279151678085327 0.16695168614387512 101
2.686707019805908 -1.70635187625885 0.054887816309928894 101
1.6132253408432007 -1.0265506505966187 -0.502109169960022 119
1.844684362411499 -1.1742885112762451 -0.49601736664772034 119
2.1685447692871094 -1.3809833526611328 -0.4918454885482788 119
2.6104190349578857 -1.6630202531814575 -0.4841650724411011 119
2.710693836212158 -1.7275676727294922 -0.38998231291770935 119
2.678237199783325 -1.7075399160385132 -0.2745409905910492 101
2.6886398792266846 -1.7148321866989136 -0.16457048058509827 101
2.67470645904541 -1.7066022157669067 -0.054166655987501144 101
2.6948013305664062 -1.7200857400894165 0.845786988735199 101
2.676694631576538 -1.7091858386993408 0.7237948179244995 101
2.683664083480835 -1.714295506477356 0.6109936833381653 101
2.6705870628356934 -1.7065984010696411 0.49535074830055237 101
2.6664657592773438 -1.704620361328125 0.3838883936405182 101
2.6926355361938477 -1.7220122814178467 0.2762836813926697 101
2.686218500137329 -1.7185689210891724 0.165119931101799 101
2.6596808433532715 -1.7022452354431152 0.05445150285959244 101
1.609632134437561 -1.0321756601333618 -0.502109169960022 119
1.840574026107788 -1.180720567703247 -0.49601736664772034 119
2.1637110710144043 -1.3885444402694702 -0.4918454885482788 119
2.6004421710968018 -1.6694540977478027 -0.4833828806877136 119
2.6837685108184814 -1.723610281944275 -0.38693559169769287 0
2.6513078212738037 -1.7034164667129517 -0.2723621129989624 101
2.657435178756714 -1.7080084085464478 -0.16300563514232635 101
2.643502712249756 -1.699705958366394 -0.053648315370082855 101
2.6562840938568115 -1.7085793018341064 0.835440993309021 101
2.6543235778808594 -1.7079732418060303 0.7192991375923157 101
2.652900457382202 -1.7077124118804932 0.6052745580673218 101
2.6397011280059814 -1.6998673677444458 0.4906628727912903 101
2.635467529296875 -1.6977919340133667 0.3802323341369629 101
2.661487102508545 -1.715211272239685 0.27366903424263 101
2.6550235748291016 -1.7117019891738892 0.16354985535144806 101
2.6285152435302734 -1.6952613592147827 0.05392793193459511 101
1.606019377708435 -1.0377880334854126 -0.502109169960022 119
1.8364413976669312 -1.1871380805969238 -0.49601736664772034 119
2.158850908279419 -1.396088719367981 -0.4918454885482788 119
2.5945990085601807 -1.6785212755203247 -0.4833828806877136 119
2.652737617492676 -1.716789722442627 -0.3832795321941376 0
2.620258331298828 -1.6964186429977417 -0.26974743604660034 101
2.6263110637664795 -1.7009880542755127 -0.16144077479839325 101
2.612380027770996 -1.6926127672195435 -0.053129974752664566 101
2.625985860824585 -1.702078938484192 0.8276814222335815 101
2.627906084060669 -1.703974962234497 0.7136796116828918 101
2.6222164630889893 -1.7009358406066895 0.5995554327964783 101
2.6088945865631104 -1.692941427230835 0.4859750270843506 101
2.6087124347686768 -1.6934703588485718 0.3771856129169464 101
2.634596824645996 -1.7109272480010986 0.2714901566505432 101
2.6239097118377686 -1.7046380043029785 0.1619797796010971 101
2.597431182861328 -1.6880807876586914 0.05340436100959778 101
1.6023869514465332 -1.043387770652771 -0.502109169960022 119
1.8322863578796387 -1.1935412883758545 -0.49601736664772034 119
2.1539645195007324 -1.4036160707473755 -0.4918454885482788 119
2.58872389793396 -1.6875678300857544 -0.4833828806877136 119
2.6217873096466064 -1.7097736597061157 -0.3796234428882599 0
2.5892903804779053 -1.6892253160476685 -0.2671327590942383 101
2.59945011138916 -1.6965001821517944 -0.16013672947883606 101
2.5855257511138916 -1.688056230545044 -0.05269801989197731 101
2.5917224884033203 -1.6927472352981567 0.8186286687850952 101
2.6015491485595703 -1.6998131275177002 0.708060085773468 101
2.5916121006011963 -1.693966031074524 0.5938363075256348 101
2.5823025703430176 -1.6885242462158203 0.4820684790611267 101
2.577866315841675 -1.6862659454345703 0.37352949380874634 101
2.6036012172698975 -1.7037488222122192 0.26887547969818115 101
2.5928776264190674 -1.6973779201507568 0.16040968894958496 101
2.5706114768981934 -1.6834428310394287 0.05296804755926132 101
1.5987352132797241 -1.048974871635437 -0.502109169960022 119
1.8281089067459106 -1.1999298334121704 -0.49601736664772034 119
2.1531546115875244 -1.4138203859329224 -0.49279871582984924 119
2.57869029045105 -1.693882703781128 -0.48260071873664856 119
2.590918779373169 -1.702562689781189 -0.3759673535823822 0
2.5625672340393066 -1.684572696685791 -0.2649538815021515 101
2.568480968475342 -1.6891024112701416 -0.15857186913490295 101
2.554558515548706 -1.6805853843688965 -0.05217967927455902 101
2.5615909099578857 -1.6858525276184082 0.8108691573143005 101
2.5752532482147217 -1.695488452911377 0.702440619468689 101
2.565187692642212 -1.6895031929016113 0.5890703797340393 101
2.551649332046509 -1.6812249422073364 0.4773806035518646 101
2.547102928161621 -1.6788671016693115 0.36987343430519104 101
2.572687864303589 -1.6963750123977661 0.2662607729434967 101
2.566096782684326 -1.692671775817871 0.15910130739212036 101
2.5396838188171387 -1.6758852005004883 0.05244447663426399 101
1.5950638055801392 -1.054548978805542 -0.502109169960022 119
1.8198459148406982 -1.2036163806915283 -0.4948926270008087 119
2.1482064723968506 -1.4213275909423828 -0.49279871582984924 119
2.556288957595825 -1.691970705986023 -0.47947201132774353 119
2.564270496368408 -1.69789719581604 -0.37292060256004333 0
2.5317556858062744 -1.6770038604736328 -0.26233920454978943 101
2.541757345199585 -1.6842671632766724 -0.15726782381534576 101
2.5278422832489014 -1.675681233406067 -0.051747728139162064 101
2.5315394401550293 -1.6787680387496948 0.8031096458435059 101
2.544959783554077 -1.688307285308838 0.6956971883773804 101
2.5347366333007812 -1.6821625232696533 0.5833512544631958 101
2.525193214416504 -1.6764640808105469 0.47347405552864075 101
2.520556926727295 -1.6740198135375977 0.36682671308517456 101
2.5460071563720703 -1.6915628910064697 0.2640818953514099 101
2.535222291946411 -1.6850354671478271 0.1575312316417694 101
2.5130035877227783 -1.6709003448486328 0.05200817063450813 101
1.5873535871505737 -1.0574328899383545 -0.5008150935173035 119
1.8196873664855957 -1.2126630544662476 -0.49601736664772034 119
2.1473159790039062 -1.4315401315689087 -0.4937518835067749 119
2.5216076374053955 -1.6817033290863037 -0.4739968180656433 119
2.5335583686828613 -1.690312385559082 -0.36926451325416565 0
2.505171537399292 -1.6720054149627686 -0.26016029715538025 101
2.5109469890594482 -1.6764936447143555 -0.15570297837257385 101
2.4970343112945557 -1.6678346395492554 -0.051229387521743774 101
2.505584239959717 -1.6741780042648315 0.7966433763504028 101
2.518798589706421 -1.6836433410644531 0.6900776028633118 101
2.504368543624878 -1.6746301651000977 0.5776321291923523 101
2.4988014698028564 -1.6715388298034668 0.46956750750541687 101
2.4899516105651855 -1.6662479639053345 0.3631706237792969 101
2.515252113342285 -1.683814525604248 0.26146721839904785 101
2.5085809230804443 -1.6799827814102173 0.15622282028198242 101
2.4822356700897217 -1.6629669666290283 0.051484595984220505 101
1.5836527347564697 -1.062967300415039 -0.5008150935173035 119
1.8154432773590088 -1.2190076112747192 -0.49601736664772034 119
2.142305850982666 -1.439026951789856 -0.4937518835067749 119
2.491128444671631 -1.6739686727523804 -0.46930378675460815 119
2.507049322128296 -1.6853023767471313 -0.36621779203414917 0
2.4786534309387207 -1.6668422222137451 -0.25798138976097107 101
2.4843649864196777 -1.671312689781189 -0.15439893305301666 101
2.4704596996307373 -1.6625845432281494 -0.05079743266105652 101
2.4756860733032227 -1.6667299270629883 0.7888838648796082 101
2.4886603355407715 -1.676095724105835 0.683334231376648 101
2.4781546592712402 -1.6696491241455078 0.5728661417961121 101
2.472475528717041 -1.6664502620697021 0.465660959482193 101
2.4594314098358154 -1.6582828760147095 0.3595145642757416 101
2.4887123107910156 -1.6786575317382812 0.25928834080696106 101
2.482006549835205 -1.6747647523880005 0.15491442382335663 101
2.455697774887085 -1.6576366424560547 0.05104828625917435 101
1.579932689666748 -1.0684888362884521 -0.5008150935173035 119
1.8152124881744385 -1.2280672788619995 -0.49714213609695435 119
2.1372697353363037 -1.4464962482452393 -0.4937518835067749 119
2.4607338905334473 -1.6660419702529907 -0.464610755443573 119
2.4806065559387207 -1.6801284551620483 -0.3631710708141327 101
2.452202081680298 -1.6615142822265625 -0.2558025121688843 101
2.4578497409820557 -1.6659668684005737 -0.15309488773345947 101
2.4439525604248047 -1.6571696996688843 -0.05036548525094986 101
2.4498679637908936 -1.6618049144744873 0.7824175953865051 101
2.4586055278778076 -1.6683584451675415 0.6765908002853394 101
2.4479453563690186 -1.6617488861083984 0.5671470165252686 101
2.4421300888061523 -1.6584240198135376 0.4609731137752533 101
2.433102607727051 -1.652914047241211 0.3564678132534027 101
2.4622392654418945 -1.6733360290527344 0.25710946321487427 101
2.4554991722106934 -1.669382095336914 0.15360602736473083 101
2.429227590560913 -1.6521412134170532 0.05061197280883789 101
1.5801845788955688 -1.0767167806625366 -0.502109169960022 119
1.8109146356582642 -1.23439621925354 -0.49714213609695435 119
2.1322073936462402 -1.4539480209350586 -0.4937518835067749 119
2.4304254055023193 -1.657923698425293 -0.45991769433021545 119
2.454230546951294 -1.674790382385254 -0.3601243197917938 101
2.42581844329834 -1.656022071838379 -0.2536236047744751 101
2.4314024448394775 -1.6604565382003784 -0.1517908275127411 101
2.417513608932495 -1.6515902280807495 -0.0499335341155529 101
2.424114465713501 -1.6567202806472778 0.7759513854980469 101
2.43265700340271 -1.6631817817687988 0.6709712147712708 101
2.4218733310699463 -1.6564292907714844 0.5623810887336731 101
2.4159467220306396 -1.652994990348816 0.45706653594970703 101
2.406841516494751 -1.6473816633224487 0.35342106223106384 101
2.4358339309692383 -1.667850136756897 0.2549305558204651 101
2.4290597438812256 -1.6638346910476685 0.15229761600494385 101
2.4028260707855225 -1.6464816331863403 0.05017566680908203 101
1.5803982019424438 -1.084959626197815 -0.5034032464027405 119
1.806594729423523 -1.240709900856018 -0.49714213609695435 119
2.127119302749634 -1.4613819122314453 -0.4937518835067749 119
2.404273748397827 -1.652411699295044 -0.45600685477256775 119
2.427922248840332 -1.6692887544631958 -0.35707756876945496 101
2.399503231048584 -1.6503663063049316 -0.2514446973800659 101
2.4050240516662598 -1.6547819375991821 -0.1504867970943451 101
2.391143798828125 -1.6458464860916138 -0.049501582980155945 101
2.3984262943267822 -1.651476263999939 0.7694850564002991 101
2.4027628898620605 -1.6550806760787964 0.6642277836799622 101
2.3958680629730225 -1.6509478092193604 0.5576151609420776 101
2.38983154296875 -1.647403359413147 0.45315998792648315 101
2.3806488513946533 -1.6416865587234497 0.35037434101104736 101
2.409496784210205 -1.6622004508972168 0.2527516484260559 101
2.4026894569396973 -1.6581233739852905 0.15098923444747925 101
2.380607843399048 -1.6434980630874634 0.049826618283987045 101
1.580573320388794 -1.0932170152664185 -0.504697322845459 119
1.8022527694702148 -1.2470084428787231 -0.49714213609695435 119
2.1260409355163574 -1.471591591835022 -0.49470508098602295 119
2.3822507858276367 -1.6495485305786133 -0.4528781473636627 119
2.4016828536987305 -1.6636242866516113 -0.3540308475494385 101
2.3732573986053467 -1.6445472240447998 -0.24926580488681793 101
2.3787147998809814 -1.6489434242248535 -0.1491827517747879 101
2.3648431301116943 -1.6399388313293457 -0.04906963184475899 101
2.372804880142212 -1.646073341369629 0.7630188465118408 101
2.376957893371582 -1.649568796157837 0.6586082577705383 101
2.3699309825897217 -1.6453052759170532 0.5528491735458374 101
2.3637850284576416 -1.6416499614715576 0.4492534399032593 101
2.3586013317108154 -1.638660192489624 0.3479369580745697 101
2.3832294940948486 -1.6563876867294312 0.2505727708339691 101
2.3763885498046875 -1.6522483825683594 0.14968082308769226 101
2.3543357849121094 -1.6375250816345215 0.04939030855894089 101
1.5767476558685303 -1.0987275838851929 -0.504697322845459 119
1.797888994216919 -1.2532919645309448 -0.49714213609695435 119
2.1208910942077637 -1.47900390625 -0.49470508098602295 119
2.356226921081543 -1.6437267065048218 -0.4489672780036926 119
2.3755125999450684 -1.657796859741211 -0.3509840965270996 101
2.351165771484375 -1.6414161920547485 -0.24752268195152283 101
2.352476119995117 -1.6429418325424194 -0.1478787064552307 101
2.338613748550415 -1.633867859840393 -0.04863768070936203 101
2.3472506999969482 -1.6405118703842163 0.7565525770187378 101
2.3512210845947266 -1.6438976526260376 0.6529887914657593 101
2.3440628051757812 -1.639501929283142 0.5480833053588867 101
2.3418545722961426 -1.638566255569458 0.4461282193660736 101
2.332538366317749 -1.6326543092727661 0.3448902368545532 101
2.361112356185913 -1.6532686948776245 0.248829647898674 101
2.35015869140625 -1.6462101936340332 0.14837244153022766 101
2.328134536743164 -1.631388783454895 0.04895399510860443 101
1.5730955600738525 -1.1039501428604126 -0.504697322845459 119
1.7939428091049194 -1.2589340209960938 -0.49714213609695435 119
2.116234302520752 -1.4856595993041992 -0.49470508098602295 119
2.334885835647583 -1.6397678852081299 -0.4458385705947876 119
2.3499889373779297 -1.650987148284912 -0.34793737530708313 101
2.3256213665008545 -1.6344740390777588 -0.24534378945827484 101
2.3309640884399414 -1.6388368606567383 -0.14683546125888824 101
2.317112445831299 -1.6297025680541992 -0.048292119055986404 101
2.3223347663879395 -1.633981466293335 0.75008624792099 101
2.330108642578125 -1.640059232711792 0.6484931707382202 101
2.322847604751587 -1.6355547904968262 0.5442705154418945 101
2.316507577896118 -1.6316955089569092 0.44222164154052734 101
2.3071136474609375 -1.6256811618804932 0.34184348583221436 101
2.3355510234832764 -1.6463291645050049 0.24665075540542603 101
2.3286526203155518 -1.6420750617980957 0.14732570946216583 101
2.302572727203369 -1.62428617477417 0.04851768910884857 101
1.5733702182769775 -1.111948013305664 -0.5059914588928223 119
1.7895374298095703 -1.265188217163086 -0.49714213609695435 119
2.1110353469848633 -1.493037462234497 -0.49470508098602295 119
2.308990716934204 -1.633646845817566 -0.4419277310371399 119
2.323957920074463 -1.644844889640808 -0.34489062428474426 101
2.3036413192749023 -1.6310689449310303 -0.24360066652297974 101
2.304856300354004 -1.632533311843872 -0.14553143084049225 101
2.2910144329071045 -1.623329520225525 -0.047860171645879745 101
2.3008553981781006 -1.6309057474136353 0.7449132800102234 101
2.3044979572296143 -1.634092092514038 0.6428735852241516 101
2.297107219696045 -1.6294538974761963 0.5395045876502991 101
2.2906599044799805 -1.6254814863204956 0.43831509351730347 101
2.281191349029541 -1.619361162185669 0.3387967646121979 101
2.3094842433929443 -1.6400519609451294 0.24447184801101685 101
2.30255389213562 -1.635735034942627 0.14601731300354004 101
2.2805886268615723 -1.6207300424575806 0.048168640583753586 101
1.5692840814590454 -1.1177072525024414 -0.5059914588928223 119
1.7848881483078003 -1.271738886833191 -0.49714213609695435 119
2.1055490970611572 -1.5007647275924683 -0.49470508098602295 119
2.2869036197662354 -1.630630373954773 -0.43879902362823486 0
2.3017525672912598 -1.6418241262435913 -0.3424532413482666 101
2.2773749828338623 -1.6250354051589966 -0.24142178893089294 101
2.2826011180877686 -1.6293660402297974 -0.14448818564414978 101
2.268775463104248 -1.6200947761535645 -0.04751460999250412 101
2.275212049484253 -1.6252907514572144 0.7384470701217651 101
2.282637596130371 -1.6311967372894287 0.6383780241012573 101
2.2751479148864746 -1.626444697380066 0.5356917977333069 101
2.264601707458496 -1.6195026636123657 0.4344085454940796 101
2.2590959072113037 -1.6161612272262573 0.3363593816757202 101
2.2872555255889893 -1.636910319328308 0.24272873997688293 101
2.2762434482574463 -1.629630208015442 0.14470891654491425 101
2.2543110847473145 -1.6145234107971191 0.04773232713341713 101
1.5653729438781738 -1.1231783628463745 -0.5059914588928223 119
1.7843958139419556 -1.2808022499084473 -0.49826687574386597 119
2.0963103771209717 -1.5052425861358643 -0.4937518835067749 119
2.261143207550049 -1.6241978406906128 -0.43488818407058716 0
2.2758564949035645 -1.635368824005127 -0.33940649032592773 101
2.2555108070373535 -1.6213459968566895 -0.23967866599559784 101
2.2566304206848145 -1.6227481365203857 -0.1431841403245926 101
2.2428150177001953 -1.6134073734283447 -0.047082655131816864 101
2.2538437843322754 -1.6219381093978882 0.7332740426063538 101
2.257159471511841 -1.624922275543213 0.6327584385871887 101
2.249541997909546 -1.6200345754623413 0.5309258699417114 101
2.2429065704345703 -1.615850567817688 0.4312833249568939 101
2.2333102226257324 -1.6095292568206787 0.33331263065338135 101
2.2613258361816406 -1.630319595336914 0.24054984748363495 101
2.2543420791625977 -1.6258827447891235 0.14366218447685242 101
2.232445001602173 -1.610682487487793 0.047383278608322144 101
1.5614428520202637 -1.1286356449127197 -0.5059914588928223 119
1.779914140701294 -1.2870230674743652 -0.49826687574386597 119
2.091043472290039 -1.512550950050354 -0.4937518835067749 119
2.2394564151763916 -1.6205003261566162 -0.43175947666168213 0
2.2500343322753906 -1.6287530660629272 -0.33635976910591125 101
2.2337002754211426 -1.6175235509872437 -0.23793554306030273 101
2.230733871459961 -1.6159690618515015 -0.1418800950050354 101
2.220977306365967 -1.609492301940918 -0.04673709720373154 101
2.2325265407562256 -1.618456244468689 0.7281009554862976 101
2.2356975078582764 -1.6213501691818237 0.6282628178596497 101
2.2279815673828125 -1.6163480281829834 0.527113139629364 101
2.2172679901123047 -1.6091662645339966 0.42737674713134766 101
2.2116143703460693 -1.6056525707244873 0.3308752477169037 101
2.2395002841949463 -1.6264950037002563 0.23880673944950104 101
2.2284553050994873 -1.6190675497055054 0.14235380291938782 101
2.2106332778930664 -1.6067086458206177 0.047034233808517456 101
1.561397910118103 -1.136922001838684 -0.5072855353355408 119
1.7754106521606445 -1.293228268623352 -0.49826687574386597 119
2.0857510566711426 -1.5198408365249634 -0.4937518835067749 119
2.213832378387451 -1.6137624979019165 -0.42784860730171204 0
2.2282958030700684 -1.6249011754989624 -0.3339223861694336 101
2.2079200744628906 -1.6106332540512085 -0.23575665056705475 101
2.2089459896087646 -1.611972451210022 -0.14083686470985413 101
2.1951563358306885 -1.6024967432022095 -0.04630514234304428 101
2.211261749267578 -1.6148455142974854 0.722927987575531 101
2.2103538513183594 -1.614774227142334 0.6226433515548706 101
2.206474542617798 -1.6125308275222778 0.5233003497123718 101
2.195690393447876 -1.605237603187561 0.4242514967918396 101
2.1859676837921143 -1.598714828491211 0.3278285264968872 101
2.2137091159820557 -1.6195969581604004 0.23662783205509186 101
2.2066731452941895 -1.61504065990448 0.14130708575248718 101
2.1888766288757324 -1.6026021242141724 0.04668518528342247 101
1.557419776916504 -1.1423654556274414 -0.5072855353355408 119
1.770885705947876 -1.2994178533554077 -0.49826687574386597 119
2.080432891845703 -1.5271121263504028 -0.4937518835067749 119
2.1922638416290283 -1.6097888946533203 -0.424719899892807 0
2.2026121616363525 -1.6179795265197754 -0.3308756351470947 101
2.1862292289733887 -1.6065326929092407 -0.23401352763175964 101
2.183189868927002 -1.6048860549926758 -0.13953281939029694 101
2.1734395027160645 -1.5983026027679443 -0.045959584414958954 101
2.190049409866333 -1.611106276512146 0.7177549600601196 101
2.1890079975128174 -1.610929250717163 0.6181477308273315 101
2.1810688972473145 -1.6056736707687378 0.5185344219207764 101
2.1741673946380615 -1.6011779308319092 0.42112627625465393 101
2.16439151763916 -1.594560980796814 0.32539111375808716 101
2.1920034885406494 -1.615493893623352 0.23488472402095795 101
2.184946060180664 -1.6108813285827637 0.14026035368442535 101
2.1631522178649902 -1.5953961610794067 0.046248871833086014 101
1.5534226894378662 -1.1477948427200317 -0.5072855353355408 119
1.7663390636444092 -1.305591344833374 -0.49826687574386597 119
2.07114315032959 -1.5314466953277588 -0.49279871582984924 119
2.170750141143799 -1.6056841611862183 -0.42159122228622437 0
2.1809935569763184 -1.6138503551483154 -0.32843825221061707 101
2.1645944118499756 -1.6023002862930298 -0.23227041959762573 101
2.1615233421325684 -1.6006110906600952 -0.13848958909511566 101
2.15177845954895 -1.593976378440857 -0.04561402276158333 101
2.1650097370147705 -1.6043630838394165 0.7112887501716614 101
2.163801670074463 -1.604053258895874 0.6125282049179077 101
2.1596808433532715 -1.601582407951355 0.514721691608429 101
2.1526997089385986 -1.5969878435134888 0.4180010259151459 101
2.142871379852295 -1.5902763605117798 0.3229537308216095 101
2.170353889465332 -1.6112592220306396 0.23314161598682404 101
2.1632754802703857 -1.6065901517868042 0.13921363651752472 101
2.1415183544158936 -1.591011881828308 0.04589982330799103 101
1.54940664768219 -1.1532104015350342 -0.5072855353355408 119
1.7617708444595337 -1.3117491006851196 -0.49826687574386597 119
2.0657846927642822 -1.53866708278656 -0.49279871582984924 119
2.1532516479492188 -1.6043996810913086 -0.4192446768283844 0
2.159430980682373 -1.6095901727676392 -0.3260008692741394 101
2.1430156230926514 -1.5979366302490234 -0.23052729666233063 101
2.139913558959961 -1.5962046384811401 -0.1374463438987732 101
2.1301746368408203 -1.5895189046859741 -0.0452684611082077 101
2.1439144611358643 -1.6003541946411133 0.70611572265625 101
2.1425745487213135 -1.5999362468719482 0.6080325841903687 101
2.138347625732422 -1.5973613262176514 0.5109089016914368 101
2.1312880516052246 -1.5926673412322998 0.4148758053779602 101
2.1214077472686768 -1.585861086845398 0.32051634788513184 101
2.1487605571746826 -1.6068933010101318 0.23139849305152893 101
2.1416616439819336 -1.6021676063537598 0.13816691935062408 101
2.1199417114257812 -1.586496114730835 0.04555077850818634 101
1.5453717708587646 -1.15861177444458 -0.5072855353355408 119
1.761078953742981 -1.3208141326904297 -0.4993916451931 119
2.0564751625061035 -1.5429229736328125 -0.4918454885482788 119
2.1318392753601074 -1.6000484228134155 -0.41611599922180176 0
2.137924909591675 -1.6051994562149048 -0.32356348633766174 101
2.1214940547943115 -1.5934418439865112 -0.22878417372703552 101
2.118360996246338 -1.5916669368743896 -0.13640311360359192 101
2.108628034591675 -1.5849298238754272 -0.044922903180122375 101
2.119013547897339 -1.59331476688385 0.699649453163147 101
2.1214025020599365 -1.5956908464431763 0.6035369634628296 101
2.1131489276885986 -1.5900601148605347 0.5061429738998413 101
2.1099328994750977 -1.58821702003479 0.41175055503845215 101
2.103965997695923 -1.5843008756637573 0.3186883330345154 101
2.1272242069244385 -1.6023963689804077 0.22965538501739502 101
2.120105266571045 -1.5976136922836304 0.13712020218372345 101
2.0984227657318115 -1.581849217414856 0.045201729983091354 101
1.5413180589675903 -1.1639989614486694 -0.5072855353355408 119
1.7603448629379272 -1.3298900127410889 -0.5005163550376892 119
2.051076889038086 -1.5500919818878174 -0.4918454885482788 119
2.1104838848114014 -1.5955673456192017 -0.4129873216152191 0
2.116476058959961 -1.6006782054901123 -0.3211260735988617 101
2.100029945373535 -1.588816523551941 -0.2270410656929016 101
2.0968666076660156 -1.5869985818862915 -0.13535988330841064 101
2.087139844894409 -1.5802100896835327 -0.04457734152674675 101
2.0980379581451416 -1.589037299156189 0.6944764256477356 101
2.1002862453460693 -1.591317057609558 0.5990413427352905 101
2.0919392108917236 -1.5855674743652344 0.5023302435874939 101
2.088634967803955 -1.5836371183395386 0.4086253046989441 101
2.0826070308685303 -1.5796390771865845 0.3162509500980377 101
2.1097137928009033 -1.600779414176941 0.228348046541214 101
2.098606824874878 -1.5929292440414429 0.13607348501682281 101
2.0769619941711426 -1.5770714282989502 0.04485268145799637 101
1.5334017276763916 -1.1664481163024902 -0.5059914588928223 119
1.7556918859481812 -1.336026668548584 -0.5005163550376892 119
2.041748046875 -1.5542690753936768 -0.49089235067367554 119
2.0891857147216797 -1.5909569263458252 -0.4098586142063141 0
2.099032402038574 -1.5990341901779175 -0.31929802894592285 101
2.0786244869232178 -1.584060788154602 -0.2252979427576065 101
2.075430393218994 -1.5821994543075562 -0.13431663811206818 101
2.0657103061676025 -1.575359582901001 -0.044231779873371124 101
2.0771186351776123 -1.584633231163025 0.689303457736969 101
2.0792267322540283 -1.5868157148361206 0.5945457220077515 101
2.070786476135254 -1.5809460878372192 0.4985174834728241 101
2.071319818496704 -1.581925630569458 0.40628135204315186 101
2.0613062381744385 -1.57484769821167 0.31381356716156006 101
2.0882833003997803 -1.5960355997085571 0.22660492360591888 101
2.077167272567749 -1.5881141424179077 0.13502676784992218 101
2.05556058883667 -1.5721632242202759 0.04450363293290138 101
1.5295251607894897 -1.1715267896652222 -0.5059914588928223 119
1.7514859437942505 -1.3415356874465942 -0.5005163550376892 119
2.0368549823760986 -1.5606757402420044 -0.49089235067367554 119
2.0684993267059326 -1.5854952335357666 -0.40672993659973145 0
2.0782456398010254 -1.5935415029525757 -0.3168606460094452 101
2.0578291416168213 -1.578457236289978 -0.2235548347234726 101
2.0546040534973145 -1.5765529870986938 -0.1332733929157257 101
2.044888496398926 -1.5696653127670288 -0.0438862219452858 101
2.056807041168213 -1.5793843269348145 0.6841304302215576 101
2.058776617050171 -1.5814683437347412 0.5900501012802124 101
2.054133653640747 -1.5784717798233032 0.49565789103507996 101
2.050678253173828 -1.576385736465454 0.4031561315059662 101
2.044546365737915 -1.5722399950027466 0.31198549270629883 101
2.067466974258423 -1.590440034866333 0.22486181557178497 101
2.0563392639160156 -1.5824511051177979 0.13398003578186035 101
2.0347659587860107 -1.5664150714874268 0.044154584407806396 101
1.5371050834655762 -1.1854405403137207 -0.5098737478256226 119
1.7467925548553467 -1.3476413488388062 -0.5005163550376892 119
2.0313949584960938 -1.567776083946228 -0.49089235067367554 119
2.047316074371338 -1.5806341171264648 -0.4036012589931488 0
2.056959867477417 -1.588652491569519 -0.31442326307296753 101
2.0365400314331055 -1.5734492540359497 -0.2218116968870163 101
2.037236213684082 -1.5745550394058228 -0.13249097764492035 101
2.027531862258911 -1.567620038986206 -0.0436270497739315 101
2.0359995365142822 -1.5747348070144653 0.678957462310791 101
2.037830352783203 -1.5767194032669067 0.5855544805526733 101
2.033085346221924 -1.5736154317855835 0.49184516072273254 101
2.029543399810791 -1.57144033908844 0.40003088116645813 101
2.0233519077301025 -1.5672112703323364 0.30954810976982117 101
2.0461533069610596 -1.5854438543319702 0.22311870753765106 101
2.035017251968384 -1.5773837566375732 0.13293331861495972 101
2.0134830474853516 -1.5612547397613525 0.04380553960800171 101
1.5365633964538574 -1.1940298080444336 -0.5111678242683411 119
1.741841435432434 -1.3540345430374146 -0.5005163550376892 119
2.0295097827911377 -1.5782241821289062 -0.4918454885482788 119
2.029815673828125 -1.5790307521820068 -0.4012547433376312 0
2.035457134246826 -1.5839896202087402 -0.31198588013648987 101
2.015037775039673 -1.5686639547348022 -0.2200685739517212 101
2.015693426132202 -1.569739580154419 -0.13144773244857788 101
2.005997657775879 -1.5627514123916626 -0.04328148812055588 101
2.0149757862091064 -1.5703110694885254 0.6737844347953796 101
2.0166683197021484 -1.5721957683563232 0.5810588598251343 101
2.015692949295044 -1.5720009803771973 0.4889856278896332 101
2.0120887756347656 -1.5697550773620605 0.3976869285106659 101
2.005857229232788 -1.565456748008728 0.3077200651168823 101
2.0246241092681885 -1.5806719064712524 0.22137558460235596 101
2.0174167156219482 -1.5756117105484009 0.13214828073978424 101
1.9959287643432617 -1.5593903064727783 0.043543748557567596 101
1.536189317703247 -1.2023630142211914 -0.5124619007110596 119
1.7332686185836792 -1.3571032285690308 -0.4993916451931 119
2.0278525352478027 -1.5883255004882812 -0.49279871582984924 119
2.008742094039917 -1.5739229917526245 -0.3981260061264038 0
2.018197774887085 -1.5819004774093628 -0.31015780568122864 101
1.9977909326553345 -1.5664681196212769 -0.21876125037670135 101
1.9944865703582764 -1.5644394159317017 -0.1304045021533966 101
1.9887315034866333 -1.56048583984375 -0.04302231967449188 101
1.998084306716919 -1.5683882236480713 0.6699046492576599 101
1.9958406686782837 -1.5671902894973755 0.5765632390975952 101
1.9947537183761597 -1.5668995380401611 0.4851728081703186 101
1.9910646677017212 -1.5645637512207031 0.3945617079734802 101
1.9847742319107056 -1.5601811408996582 0.30528268218040466 101
2.00734806060791 -1.5784927606582642 0.22006824612617493 101
1.9962067604064941 -1.5702956914901733 0.1311015635728836 101
1.974758505821228 -1.5539816617965698 0.04319470375776291 101
nan nan nan 0
1.7246953248977661 -1.3601281642913818 -0.49826687574386597 119
2.0068817138671875 -1.583234190940857 -0.48898595571517944 119
1.9877294301986694 -1.5686876773834229 -0.39499732851982117 0
1.9970828294754028 -1.5766350030899048 -0.307720422744751 101
1.976675033569336 -1.5610836744308472 -0.21701814234256744 101
1.9772595167160034 -1.5621057748794556 -0.12962207198143005 101
1.967583417892456 -1.5550192594528198 -0.04267675802111626 101
1.9774423837661743 -1.5633716583251953 0.6647316217422485 101
1.9750721454620361 -1.5620582103729248 0.5720675587654114 101
1.977724552154541 -1.5647168159484863 0.48231327533721924 101
1.9739738702774048 -1.5623098611831665 0.3922177851200104 101
1.9676434993743896 -1.5578581094741821 0.3034546673297882 101
1.986207127571106 -1.573119878768921 0.21832512319087982 101
1.978972315788269 -1.5679517984390259 0.13031652569770813 101
1.9575687646865845 -1.5515497922897339 0.04293292015790939 101
nan nan nan 0
1.7199369668960571 -1.3661402463912964 -0.49826687574386597 119
1.978285551071167 -1.5719088315963745 -0.48326680064201355 119
1.9706436395645142 -1.566397786140442 -0.392650842666626 0
1.9799140691757202 -1.5743306875228882 -0.3058924078941345 101
1.9556210041046143 -1.55557119846344 -0.21527501940727234 101
1.9561659097671509 -1.5565621852874756 -0.12857884168624878 101
1.950409173965454 -1.5525373220443726 -0.04241758584976196 101
1.9568599462509155 -1.5582302808761597 0.6595586538314819 101
1.9581754207611084 -1.5598361492156982 0.5686959028244019 101
1.9568959474563599 -1.5593754053115845 0.4785005450248718 101
1.9530612230300903 -1.5568771362304688 0.3890925645828247 101
1.9466733932495117 -1.5523407459259033 0.30101728439331055 101
