# .PCD v0.7 - Point Cloud Data file format
VERSION 0.7
FIELDS x y z intensity
SIZE 4 4 4 4
TYPE F F F F
COUNT 1 1 1 1
WIDTH 784
HEIGHT 1
VIEWPOINT 0 0 0 1 0 0 0
POINTS 784
DATA ascii
-5.631875991821289 2.2059736251831055 0.9508547186851501 30
-5.728166580200195 2.2448434829711914 0.7507151365280151 30
-5.688414573669434 2.230410099029541 0.5312142372131348 30
-5.697192192077637 2.234999179840088 0.31872594356536865 30
-5.610635757446289 2.2021732330322266 0.1045399084687233 30
-1.8151676654815674 0.7146474123001099 -0.5124619007110596 119
-2.075373411178589 0.8175111413002014 -0.5061401724815369 119
-2.4649407863616943 0.9714627861976624 -0.507096529006958 119
-3.030989646911621 1.1951606273651123 -0.5099768042564392 119
-3.9318721294403076 1.5511839389801025 -0.5142892003059387 119
-5.4980149269104 2.1701602935791016 -0.5137839317321777 119
-5.6132073402404785 2.2167611122131348 -0.31323158740997314 30
-5.559146881103516 2.196533203125 -0.10263155400753021 30
-5.627633094787598 2.224729299545288 1.6100990772247314 30
-5.621725082397461 2.2235283851623535 1.385774850845337 30
-5.580752849578857 2.208449363708496 1.1581237316131592 30
-5.518141269683838 2.184786319732666 0.9328845143318176 30
-5.604552745819092 2.220130443572998 0.7354814410209656 30
-5.569068431854248 2.2071986198425293 0.5207555890083313 30
-5.577564716339111 2.2116923332214355 0.31244564056396484 30
-5.486354351043701 2.1766326427459717 0.10235835611820221 30
-1.8126620054244995 0.7209791541099548 -0.5124619007110596 119
-2.07250714302063 0.8247506022453308 -0.5061401724815369 119
-2.4615347385406494 0.9800611138343811 -0.507096529006958 119
-3.026799201965332 1.2057334184646606 -0.5099768042564392 119
-3.926433563232422 1.564899206161499 -0.5142892003059387 119
-5.37936544418335 2.1450603008270264 -0.5033252239227295 119
-5.503405570983887 2.1956357955932617 -0.30749380588531494 30
-5.426084041595459 2.1658852100372314 -0.10029901564121246 30
-5.5076985359191895 2.1995773315429688 1.5777677297592163 30
-5.509871482849121 2.2015600204467773 1.3599249124526978 30
-5.481857776641846 2.191476583480835 1.1390600204467773 30
-5.368334770202637 2.1471803188323975 0.9086639285087585 30
-5.4861884117126465 2.1954290866851807 0.7208571434020996 30
-5.454975128173828 2.1840431690216064 0.5107326507568359 30
-5.4353928565979 2.1773035526275635 0.30485692620277405 30
-5.334867477416992 2.138122797012329 0.09965323656797409 30
-1.8101342916488647 0.7273021936416626 -0.5124619007110596 119
-2.0741357803344727 0.833797037601471 -0.5072649121284485 119
-2.4580986499786377 0.9886474609375 -0.507096529006958 119
-3.0225718021392822 1.2162915468215942 -0.5099768042564392 119
-3.9209470748901367 1.578595519065857 -0.5142892003059387 119
-5.274819850921631 2.1247425079345703 -0.4941738247871399 119
-5.333613872528076 2.1495072841644287 -0.2983655035495758 30
-5.3350324630737305 2.1511611938476562 -0.0987439900636673 30
-5.383530139923096 2.1718087196350098 1.5441431999206543 30
-5.366615295410156 2.16607403755188 1.3262078762054443 30
-5.337637901306152 2.1554617881774902 1.110464334487915 30
-5.3104376792907715 2.1455557346343994 0.9000694751739502 30
-5.331258296966553 2.155050277709961 0.7013580203056335 30
-5.345730781555176 2.1619858741760254 0.5011455416679382 30
-5.339816570281982 2.1606783866882324 0.2998850345611572 30
-5.285669326782227 2.1398422718048096 0.09886787831783295 30
-1.807584524154663 0.733616292476654 -0.5124619007110596 119
-2.0712125301361084 0.8410320281982422 -0.5072649121284485 119
-2.4546327590942383 0.997221827507019 -0.507096529006958 119
-3.018307685852051 1.2268348932266235 -0.5099768042564392 119
-3.915412664413452 1.5922726392745972 -0.5142892003059387 119
-5.179710388183594 2.1074752807617188 -0.48589399456977844 119
-5.28908109664917 2.1530513763427734 -0.29627901315689087 30
-5.244151592254639 2.135828733444214 -0.09718897193670273 30
-5.2596235275268555 2.143200397491455 1.5105185508728027 30
-5.313906192779541 2.166400909423828 1.3149688243865967 30
-5.275544166564941 2.1518352031707764 1.099026083946228 30
-5.225183486938477 2.132357597351074 0.8867871761322021 30
-5.277758598327637 2.1548874378204346 0.6952645778656006 30
-5.259763240814209 2.148611068725586 0.49373728036880493 30
-5.258289813995361 2.149080276489258 0.2956981658935547 30
-5.190248012542725 2.122328519821167 0.09720989316701889 30
-1.8050127029418945 0.739921510219574 -0.5124619007110596 119
-2.0727717876434326 0.8501054644584656 -0.5083897113800049 119
-2.451136589050293 1.005784034729004 -0.507096529006958 119
-3.014007091522217 1.2373632192611694 -0.5099768042564392 119
-3.905240535736084 1.604044795036316 -0.5136798024177551 119
-5.0801801681518555 2.0876777172088623 -0.4771784245967865 119
-5.193789482116699 2.1354246139526367 -0.2913236618041992 30
-5.148820400238037 2.1179862022399902 -0.09554755687713623 30
-5.1449174880981445 2.1174306869506836 1.479480504989624 30
-5.247745990753174 2.1608216762542725 1.3003580570220947 30
-5.186311721801758 2.1365840435028076 1.0818686485290527 30
-5.176615238189697 2.1336464881896973 0.8797553777694702 30
-5.173857688903809 2.133566379547119 0.6824682950973511 30
-5.150932312011719 2.12516450881958 0.48415014147758484 30
-5.158447742462158 2.1293187141418457 0.2904645502567291 30
-5.113497734069824 2.1118087768554688 0.09590096771717072 30
-1.802418828010559 0.746217668056488 -0.5124619007110596 119
-2.0742926597595215 0.8591999411582947 -0.5095144510269165 119
-2.447610855102539 1.014333963394165 -0.507096529006958 119
-3.009669542312622 1.2478766441345215 -0.5099768042564392 119
-3.8996176719665527 1.6176668405532837 -0.5136798024177551 119
-4.976251602172852 2.0653016567230225 -0.4680270552635193 119
-5.112520694732666 2.122904062271118 -0.28715071082115173 30
-5.049061298370361 2.0975863933563232 -0.0938197523355484 30
-5.025996208190918 2.0890328884124756 1.4471492767333984 30
-5.172692775726318 2.1510655879974365 1.2834994792938232 30
-5.10178279876709 2.122622013092041 1.065664529800415 30
-5.04603385925293 2.1004605293273926 0.8586600422859192 30
-5.08849573135376 2.119178056716919 0.6721094250679016 30
-5.028537273406982 2.0952372550964355 0.4732556641101837 30
-5.063418388366699 2.1108083724975586 0.2854926288127899 30
-5.018428802490234 2.093081474304199 0.09424299001693726 30
-1.7953472137451172 0.7506417036056519 -0.5111678242683411 119
-2.0622918605804443 0.8626751899719238 -0.5072649121284485 119
-2.4440553188323975 1.022871494293213 -0.507096529006958 119
-3.0052950382232666 1.2583746910095215 -0.5099768042564392 119
-3.893947124481201 1.6312692165374756 -0.5136798024177551 119
-4.936855792999268 2.0691819190979004 -0.46497660875320435 119
-5.022193908691406 2.105980396270752 -0.2824561595916748 30
-4.944899559020996 2.074582815170288 -0.09200555831193924 30
-4.991952896118164 2.095348358154297 1.4393898248672485 30
-5.039375305175781 2.116288423538208 1.2520300149917603 30
-5.008365154266357 2.1042938232421875 1.0475538969039917 30
-4.952170372009277 2.081700086593628 0.8438152074813843 30
-4.989575386047363 2.0984487533569336 0.6599224805831909 30
-4.970690727233887 2.0915277004241943 0.46846213936805725 30
-4.963979244232178 2.0897233486175537 0.28025904297828674 30
-4.895910739898682 2.0620739459991455 0.09206144511699677 30
-1.7927160263061523 0.7569040656089783 -0.5111678242683411 119
-2.0502922534942627 0.866077184677124 -0.5050153732299805 119
-2.440469980239868 1.0313966274261475 -0.507096529006958 119
-3.0008842945098877 1.268857479095459 -0.5099768042564392 119
-3.8882293701171875 1.6448516845703125 -0.5136798024177551 119
-4.847035884857178 2.0514566898345947 -0.45713257789611816 119
-4.91825532913208 2.082611560821533 -0.2769791781902313 30
-4.845563888549805 2.052828073501587 -0.09027775377035141 30
-4.957927227020264 2.1014516353607178 1.431630253791809 30
-4.9243083000183105 2.0882158279418945 1.2250564098358154 30
-4.910620212554932 2.083422899246216 1.0284901857376099 30
-4.872137069702148 2.0680992603302 0.8313141465187073 30
-4.890862941741943 2.077054977416992 0.6477355360984802 30
-4.894594669342041 2.07964825630188 0.4619254171848297 30
-4.8693461418151855 2.0699238777160645 0.27528712153434753 30
-4.801274299621582 2.0419766902923584 0.09040345996618271 30
-1.7900630235671997 0.7631571888923645 -0.5111678242683411 119
-2.029331684112549 0.8655831217765808 -0.5005163550376892 119
-2.436854839324951 1.0399091243743896 -0.507096529006958 119
-2.996436834335327 1.2793247699737549 -0.5099768042564392 119
-3.8870275020599365 1.6603634357452393 -0.5142892003059387 119
-4.766561508178711 2.0370447635650635 -0.45016011595726013 119
-4.814541816711426 2.0585434436798096 -0.27150216698646545 30
-4.741844654083252 2.0284392833709717 -0.08846355974674225 30
-4.852874755859375 2.076937198638916 1.4031785726547241 30
-4.822935104370117 2.065119743347168 1.2014544010162354 30
-4.8175950050354 2.063828229904175 1.0103795528411865 30
-4.737790584564209 2.0306193828582764 0.8094375133514404 30
-4.787799835205078 2.053042411804199 0.6349392533302307 30
-4.795755863189697 2.0574448108673096 0.45320984721183777 30
-4.774912357330322 2.049489736557007 0.2703152000904083 30
-4.693057537078857 2.0153260231018066 0.08848369121551514 30
-1.7873882055282593 0.7694010138511658 -0.5111678242683411 119
-2.05761981010437 0.8861508965492249 -0.5083897113800049 119
-2.4332101345062256 1.048409104347229 -0.507096529006958 119
-2.991952896118164 1.2897765636444092 -0.5099768042564392 119
-3.8812081813812256 1.6739215850830078 -0.5142892003059387 119
-4.658807277679443 2.010255813598633 -0.44057294726371765 119
-4.701888561248779 2.0298187732696533 -0.26550355553627014 30
-4.642946243286133 2.0053343772888184 -0.08673576265573502 30
-4.756923198699951 2.0555477142333984 1.3773136138916016 30
-4.717312812805176 2.0394084453582764 1.176728367805481 30
-4.747292518615723 2.0533528327941895 0.9970349669456482 30
-4.635493278503418 2.0059564113616943 0.7930299639701843 30
-4.671302318572998 2.022420644760132 0.62031489610672 30
-4.710843563079834 2.0405163764953613 0.44580161571502686 30
-4.671518802642822 2.0244510173797607 0.2648199200630188 30
-4.598847389221191 1.9939113855361938 0.08682571351528168 30
-1.7846916913986206 0.7756354808807373 -0.5111678242683411 119
-2.0902562141418457 0.9088690876960754 -0.5173877477645874 119
-2.4295356273651123 1.0568960905075073 -0.507096529006958 119
-2.9874324798583984 1.3002126216888428 -0.5099768042564392 119
-3.8753414154052734 1.6874593496322632 -0.5142892003059387 119
-4.496501922607422 1.958868145942688 -0.42575645446777344 30
-4.603228569030762 2.0063185691833496 -0.2602873742580414 30
-4.539684772491455 1.979565978050232 -0.08492156863212585 30
-4.634619235992432 2.021925687789917 1.34368896484375 30
-4.616395473480225 2.014934539794922 1.1531264781951904 30
-4.591657638549805 2.0050911903381348 0.9655797481536865 30
-4.492696762084961 1.9628105163574219 0.7695906758308411 30
-4.586910247802734 2.004924774169922 0.6099560856819153 30
-4.571345329284668 1.9990718364715576 0.4331640303134918 30
-4.559210300445557 1.9947130680084229 0.25880128145217896 30
-4.436148643493652 1.941794514656067 0.08385881036520004 30
-1.7819732427597046 0.7818604707717896 -0.5111678242683411 119
-2.0647659301757812 0.9063686728477478 -0.5117639303207397 119
-2.4258315563201904 1.0653704404830933 -0.507096529006958 119
-2.9828758239746094 1.3106327056884766 -0.5099768042564392 119
-3.8739707469940186 1.70297372341156 -0.5148985385894775 119
-4.412125587463379 1.9404621124267578 -0.41834819316864014 30
-4.468227863311768 1.966066837310791 -0.2529847323894501 30
-4.409207820892334 1.9410160779953003 -0.08258902281522751 30
-4.521450042724609 1.991369366645813 1.3126510381698608 30
-4.480039596557617 1.9740647077560425 1.1205331087112427 30
-4.427436828613281 1.9518089294433594 0.9322181344032288 30
-4.395445823669434 1.938622236251831 0.7539644837379456 30
-4.416430950164795 1.948798656463623 0.5880195498466492 30
-4.413969039916992 1.9486327171325684 0.4187833368778229 30
-4.415195941925049 1.950095295906067 0.2509509027004242 30
-4.401907444000244 1.9451442956924438 0.08333523571491241 30
-1.7792332172393799 0.7880759835243225 -0.5111678242683411 119
-2.0526812076568604 0.9096229076385498 -0.5095144510269165 119
-2.4176111221313477 1.0718423128128052 -0.50614333152771 119
-2.9782826900482178 1.3210369348526 -0.5099768042564392 119
-3.8680028915405273 1.7164859771728516 -0.5148985385894775 119
-4.3279337882995605 1.9214917421340942 -0.41093993186950684 30
-4.39288854598999 1.9512479305267334 -0.2490726113319397 30
-4.3658576011657715 1.9401535987854004 -0.08189790695905685 30
-4.408551216125488 1.960047960281372 1.2816129922866821 30
-4.410799980163574 1.9619698524475098 1.1047985553741455 30
-4.393691062927246 1.9552780389785767 0.9264989495277405 30
-4.366093635559082 1.9439098834991455 0.7500578761100769 30
-4.396001815795898 1.958145022392273 0.5861915349960327 30
-4.398041248321533 1.9599735736846924 0.4179117977619171 30
-4.380999565124512 1.9532954692840576 0.24938082695007324 30
-4.326606273651123 1.9299492835998535 0.08202630281448364 30
-1.776471495628357 0.7942818403244019 -0.5111678242683411 119
-2.0494935512542725 0.916782557964325 -0.5095144510269165 119
-2.4138548374176025 1.0802749395370483 -0.50614333152771 119
-2.9781603813171387 1.33344304561615 -0.5107589364051819 119
-3.861987590789795 1.7299773693084717 -0.5148985385894775 119
-4.262109756469727 1.9101054668426514 -0.4052748382091522 30
-4.331376552581787 1.9420558214187622 -0.2459428757429123 30
-4.295199871063232 1.9267358779907227 -0.08068844676017761 30
-4.36643123626709 1.959604263305664 1.2712669372558594 30
-4.350589752197266 1.9534070491790771 1.0913116931915283 30
-4.310725212097168 1.93641197681427 0.9102948307991028 30
-4.269190311431885 1.918649673461914 0.7344316840171814 30
-4.3167195320129395 1.9409160614013672 0.5764420032501221 30
-4.304864406585693 1.9364888668060303 0.40963196754455566 30
-4.3058552742004395 1.937838077545166 0.24545563757419586 30
-4.251466751098633 1.9142531156539917 0.08071737736463547 30
-1.769286036491394 0.798491358757019 -0.5098737478256226 119
-2.0418407917022705 0.9219263195991516 -0.5083897113800049 119
-2.410069465637207 1.0886942148208618 -0.50614333152771 119
-2.973487615585327 1.3438305854797363 -0.5107589364051819 119
-3.8559250831604004 1.7434477806091309 -0.5148985385894775 119
-4.19188117980957 1.8962308168411255 -0.39917391538619995 30
-4.247237682342529 1.922164797782898 -0.24150915443897247 30
-4.220135688781738 1.910786747932434 -0.07939258962869644 30
-4.2803730964660645 1.938961148262024 1.2479883432388306 30
-4.272743225097656 1.9364038705825806 1.073329210281372 30
-4.232414722442627 1.9190175533294678 0.8950437903404236 30
-4.208497047424316 1.9090585708618164 0.725055992603302 30
-4.246650218963623 1.9272594451904297 0.5679110884666443 30
-4.220977306365967 1.9164966344833374 0.40222373604774475 30
-4.235419273376465 1.923945665359497 0.24179211258888245 30
-4.181040287017822 1.9001243114471436 0.07949570566415787 30
-1.7708830833435059 0.8066645264625549 -0.5111678242683411 119
-2.0386102199554443 0.9290480613708496 -0.5083897113800049 119
-2.4107203483581543 1.099136471748352 -0.507096529006958 119
-2.9687788486480713 1.3542019128799438 -0.5107589364051819 119
-3.8543307781219482 1.7589572668075562 -0.5155079364776611 119
-4.126332759857178 1.883958101272583 -0.39350879192352295 30
-4.172375202178955 1.9058595895767212 -0.2375970035791397 30
-4.149783134460449 1.8964152336120605 -0.0781831294298172 30
-4.203298568725586 1.9217582941055298 1.2272963523864746 30
-4.199499607086182 1.920907735824585 1.0564706325531006 30
-4.17213249206543 1.909270167350769 0.8836055397987366 30
-4.138943195343018 1.8949557542800903 0.7141175866127014 30
-4.176730155944824 1.9131379127502441 0.5593802332878113 30
-4.159923553466797 1.906318187713623 0.396994411945343 30
-4.160594940185547 1.9075044393539429 0.23786692321300507 30
-4.106222152709961 1.8834434747695923 0.07818678021430969 30
-1.7680565118789673 0.8128411173820496 -0.5111678242683411 119
-2.0353548526763916 0.9361584782600403 -0.5083897113800049 119
-2.4068689346313477 1.1075446605682373 -0.507096529006958 119
-2.959547758102417 1.362491488456726 -0.5099768042564392 119
-3.848167657852173 1.7724007368087769 -0.5155079364776611 119
-4.056397914886475 1.869166374206543 -0.3874078392982483 30
-4.1022138595581055 1.8911460638046265 -0.23394568264484406 30
-4.075042724609375 1.8794822692871094 -0.07688727229833603 30
-4.135167121887207 1.9080883264541626 1.209190845489502 30
-4.121993541717529 1.9028822183609009 1.0384881496429443 30
-4.103058815002441 1.8950098752975464 0.8702609539031982 30
-4.0740227699279785 1.8824623823165894 0.703960657119751 30
-4.106961250305176 1.8985520601272583 0.550849437713623 30
-4.089951992034912 1.891555666923523 0.39089351892471313 30
-4.0814056396484375 1.8884676694869995 0.23368002474308014 30
-4.045181751251221 1.8725640773773193 0.07713963836431503 30
-1.7652084827423096 0.8190078735351562 -0.5111678242683411 119
-2.027655601501465 0.941206157207489 -0.5072649121284485 119
-2.407440185546875 1.118006944656372 -0.508049726486206 119
-2.9547736644744873 1.3728138208389282 -0.5099768042564392 119
-3.8419570922851562 1.7858225107192993 -0.5155079364776611 119
-3.9821016788482666 1.8518097400665283 -0.3808711767196655 30
-4.041261196136475 1.8801788091659546 -0.23081596195697784 30
-4.009536266326904 1.8662703037261963 -0.07576420158147812 30
-4.0671844482421875 1.893966794013977 1.1910853385925293 30
-4.049081802368164 1.8863970041275024 1.0216295719146729 30
-4.0385847091674805 1.8823643922805786 0.8578695058822632 30
-4.000288486480713 1.8653647899627686 0.6922409534454346 30
-4.041842937469482 1.8856008052825928 0.5429279208183289 30
-4.0246477127075195 1.878434419631958 0.38522839546203613 30
-4.029546737670898 1.8815773725509644 0.23106324672698975 30
-3.9842684268951416 1.8612818717956543 0.07609248906373978 30
-1.7665683031082153 0.8275209069252014 -0.5124619007110596 119
-2.0197811126708984 0.946564257144928 -0.5061401724815369 119
-2.4077701568603516 1.1289067268371582 -0.5090028643608093 119
-2.945250988006592 1.3815370798110962 -0.5091946125030518 119
-3.839879035949707 1.8020004034042358 -0.5161172747612 119
-3.916673183441162 1.838873028755188 -0.3752060532569885 30
-3.9755897521972656 1.8673810958862305 -0.2274254560470581 30
-3.9483745098114014 1.8554390668869019 -0.07472752034664154 30
-3.9946515560150146 1.8780370950698853 1.1716865301132202 30
-3.9848275184631348 1.8742676973342896 1.007018804550171 30
-3.9739229679107666 1.8699859380722046 0.8454779982566833 30
-3.9487428665161133 1.8589789867401123 0.6844278573989868 30
-3.97653865814209 1.8729124069213867 0.5350064039230347 30
-3.9636664390563965 1.8676949739456177 0.3799990713596344 30
-3.963909864425659 1.8686550855636597 0.2276614010334015 30
-3.9231603145599365 1.850282073020935 0.07504533976316452 30
-1.7680355310440063 0.8357463479042053 -0.5137560367584229 119
-2.0120601654052734 0.9515259265899658 -0.5050153732299805 119
-2.4038147926330566 1.1373045444488525 -0.5090028643608093 119
-2.940410852432251 1.3918095827102661 -0.5091946125030518 119
-3.838050365447998 1.8175169229507446 -0.516726553440094 119
-3.8922252655029297 1.844003438949585 -0.3734629154205322 30
-3.923926830291748 1.859861135482788 -0.22481736540794373 30
-3.8921854496002197 1.8456484079360962 -0.0737772285938263 30
-3.9313435554504395 1.865057349205017 1.1548742055892944 30
-3.9298441410064697 1.865186333656311 0.9946558475494385 30
-3.909731388092041 1.8564765453338623 0.8330865502357483 30
-3.8797786235809326 1.8430837392807007 0.673489511013031 30
-3.9117071628570557 1.85908842086792 0.5270848870277405 30
-3.8941457271575928 1.851575255393982 0.37389814853668213 30
-3.89874529838562 1.854596734046936 0.22425955533981323 30
-3.8850760459899902 1.848933219909668 0.07443451136350632 30
-1.7651073932647705 0.8419128656387329 -0.5137560367584229 119
-2.0087265968322754 0.958543598651886 -0.5050153732299805 119
-2.3998303413391113 1.145688533782959 -0.5090028643608093 119
-2.939990997314453 1.4041935205459595 -0.5099768042564392 119
-3.8316826820373535 1.830903172492981 -0.516726553440094 119
-3.872283458709717 1.8511338233947754 -0.3721556067466736 30
-3.8813745975494385 1.8563120365142822 -0.22273088991641998 30
-3.872190475463867 1.8527501821517944 -0.0735180601477623 30
-3.8768885135650635 1.8558297157287598 1.1406484842300415 30
-3.870579957962036 1.8536401987075806 0.9811689853668213 30
-3.8678154945373535 1.8531461954116821 0.8254610896110535 30
-3.873321294784546 1.8566155433654785 0.673489511013031 30
-3.8693954944610596 1.8555642366409302 0.5222101211547852 30
-3.874185800552368 1.8586933612823486 0.3725908100605011 30
-3.8787436485290527 1.8617128133773804 0.22347453236579895 30
-3.878601312637329 1.862477421760559 0.07443451136350632 30
-1.7621577978134155 0.8480691313743591 -0.5137560367584229 119
-2.000978946685791 0.9634361267089844 -0.5038906931877136 119
-2.39139461517334 1.1519285440444946 -0.508049726486206 119
-2.9395201206207275 1.4165914058685303 -0.5107589364051819 119
-3.8297386169433594 1.8464223146438599 -0.5173359513282776 119
-3.87028431892395 1.8668031692504883 -0.37259137630462646 30
-3.865877151489258 1.8655091524124146 -0.22220925986766815 30
-3.870201587677002 1.8684288263320923 -0.07360444217920303 30
-3.866037607192993 1.867250680923462 1.139355182647705 10
-3.8640856742858887 1.8671396970748901 0.9811689853668213 10
-3.861323118209839 1.8666361570358276 0.8254610896110535 30
-3.857924461364746 1.8658239841461182 0.6719268560409546 30
-3.8628947734832764 1.869059681892395 0.5222101211547852 30
-3.8676743507385254 1.8722054958343506 0.3725908100605011 30
-3.8632335662841797 1.870888113975525 0.22295115888118744 30
-3.8630785942077637 1.871645450592041 0.07425998896360397 30
-1.7548421621322632 0.8521053791046143 -0.5124619007110596 119
-1.9976037740707397 0.970414936542511 -0.5038906931877136 119
-2.387359142303467 1.160269021987915 -0.508049726486206 119
-2.9434399604797363 1.4311623573303223 -0.512323260307312 119
-3.823270082473755 1.8597793579101562 -0.5173359513282776 119
-3.868222951889038 1.8824812173843384 -0.37302714586257935 30
-3.8683204650878906 1.8833637237548828 -0.22273088991641998 30
-3.868150234222412 1.8841160535812378 -0.07369083911180496 30
-3.855154514312744 1.8786184787750244 1.1380620002746582 10
-3.8575448989868164 1.8806166648864746 0.9811689853668213 10
-3.854783773422241 1.8801032304763794 0.8254610896110535 0
-3.8602654933929443 1.8836109638214111 0.673489511013031 30
-3.856346845626831 1.8825323581695557 0.5222101211547852 30
-3.865591049194336 1.887880563735962 0.3730265498161316 30
-3.865651845932007 1.888745903968811 0.22347453236579895 30
-3.8610126972198486 1.887313961982727 0.07434724271297455 30
-1.747519850730896 0.8561010360717773 -0.5111678242683411 119
-1.9942042827606201 0.9773819446563721 -0.5038906931877136 119
-2.3832943439483643 1.1685954332351685 -0.508049726486206 119
-2.9384262561798096 1.4414281845092773 -0.512323260307312 119
-3.8167550563812256 1.8731138706207275 -0.5173359513282776 119
-3.8660993576049805 1.898167610168457 -0.3734629154205322 30
-3.8662049770355225 1.8990566730499268 -0.2229917049407959 30
-3.8615498542785645 1.8976070880889893 -0.07369083911180496 30
-3.85290789604187 1.8941949605941772 1.139355182647705 10
-3.8553287982940674 1.8962208032608032 0.982292890548706 10
-3.8526017665863037 1.8957147598266602 0.8264142870903015 10
-3.8536667823791504 1.8970743417739868 0.673489511013031 10
-3.8542046546936035 1.89817476272583 0.522819459438324 10
-3.858977794647217 1.9013625383377075 0.3730265498161316 10
-3.8590354919433594 1.9022281169891357 0.22347453236579895 10
-3.8588850498199463 1.9029911756515503 0.07443451136350632 30
-1.7401912212371826 0.8600558638572693 -0.5098737478256226 119
-1.9907803535461426 0.9843371510505676 -0.5038906931877136 119
-2.3792006969451904 1.1769075393676758 -0.508049726486206 119
-2.9333767890930176 1.451676368713379 -0.512323260307312 119
-3.8101933002471924 1.8864253759384155 -0.5173359513282776 119
-3.8639135360717773 1.9138621091842651 -0.3738987147808075 30
-3.8595521450042725 1.9125406742095947 -0.2229917049407959 30
-3.859381675720215 1.9132952690124512 -0.0737772285938263 30
-3.8505990505218506 1.9097785949707031 1.1406484842300415 10
-3.853050947189331 1.911832571029663 0.9834168553352356 10
-3.845961093902588 1.9091511964797974 0.8264142870903015 10
-3.8514444828033447 1.912711262702942 0.6742708683013916 10
-3.851999521255493 1.9138251543045044 0.5234287977218628 10
-3.8567776679992676 1.9170383214950562 0.37346234917640686 10
-3.8568432331085205 1.9179103374481201 0.2237362116575241 10
-3.8522191047668457 1.9164496660232544 0.07443451136350632 10
-1.7415006160736084 0.8682800531387329 -0.5111678242683411 119
-1.9916917085647583 0.9934547543525696 -0.5050153732299805 119
-2.375077962875366 1.185205340385437 -0.508049726486206 119
-2.9238734245300293 1.4597011804580688 -0.5115411281585693 119
-3.8035852909088135 1.8997138738632202 -0.5173359513282776 119
-3.8572094440460205 1.927337884902954 -0.3738987147808075 10
-3.857318639755249 1.9282339811325073 -0.22325249016284943 10
-3.8571512699127197 1.928991675376892 -0.07386362552642822 10
-3.843909502029419 1.9232081174850464 1.1406484842300415 10
-3.846353769302368 1.9252705574035645 0.9834168553352356 10
-3.8436615467071533 1.9247618913650513 0.8273674249649048 10
-3.8491594791412354 1.9283554553985596 0.6750521063804626 10
-3.8497321605682373 1.9294829368591309 0.5240381360054016 10
-3.8545150756835938 1.9327219724655151 0.37389814853668213 10
-3.8545877933502197 1.9336004257202148 0.22399787604808807 10
-3.8499739170074463 1.9321269989013672 0.07452177256345749 10
-1.7384591102600098 0.8743536472320557 -0.5111678242683411 119
-1.9882116317749023 1.0004009008407593 -0.5050153732299805 119
-2.3709263801574707 1.193488597869873 -0.508049726486206 119
-2.918760061264038 1.4698984622955322 -0.5115411281585693 119
-3.7969307899475098 1.9129793643951416 -0.5173359513282776 119
-3.8549063205718994 1.9430323839187622 -0.37433451414108276 10
-3.855022668838501 1.9439347982406616 -0.22351330518722534 10
-3.8503940105438232 1.9424437284469604 -0.07386362552642822 10
-3.841484546661377 1.9387903213500977 1.141941785812378 10
-3.843958854675293 1.9408810138702393 0.9845407605171204 10
-3.8413009643554688 1.9403802156448364 0.8283206224441528 10
-3.8468124866485596 1.944007158279419 0.6758334040641785 10
-3.847402572631836 1.9451484680175781 0.5246474742889404 10
-3.847745180130005 1.9461649656295776 0.37389814853668213 10
-3.8522698879241943 1.9492979049682617 0.22425955533981323 10
-3.8476667404174805 1.9478123188018799 0.07460903376340866 10
-1.7353965044021606 0.8804166913032532 -0.5111678242683411 119
-1.9890520572662354 1.00954008102417 -0.5061401724815369 119
-2.366745948791504 1.2017574310302734 -0.508049726486206 119
-2.9092087745666504 1.4778412580490112 -0.5107589364051819 119
-3.7902302742004395 1.9262213706970215 -0.5173359513282776 119
-3.8525402545928955 1.9587339162826538 -0.37477025389671326 10
-3.8526642322540283 1.9596433639526367 -0.22377412021160126 10
-3.8480453491210938 1.958139419555664 -0.07395000755786896 10
-3.8389976024627686 1.9543789625167847 1.1432349681854248 10
-3.8415017127990723 1.956498146057129 0.9856646060943604 10
-3.8388779163360596 1.956005573272705 0.8292738199234009 10
-3.8444032669067383 1.959666132926941 0.6766147613525391 10
-3.84501051902771 1.960821270942688 0.525256872177124 10
-3.845365285873413 1.9618479013442993 0.374333918094635 10
-3.8498895168304443 1.9650030136108398 0.22452124953269958 10
-3.8452961444854736 1.963504433631897 0.07469629496335983 10
-1.7321579456329346 0.8867713212966919 -0.5111678242683411 119
-1.985338568687439 1.0168235301971436 -0.5061401724815369 119
-2.3623251914978027 1.2104239463806152 -0.508049726486206 119
-2.9037725925445557 1.4884941577911377 -0.5107589364051819 119
-3.78314471244812 1.9401003122329712 -0.5173359513282776 119
-3.849766731262207 1.9751147031784058 -0.3752060532569885 10
-3.845456123352051 1.9737510681152344 -0.22377412021160126 10
-3.845289945602417 1.9745137691497803 -0.07403639703989029 10
-3.836104393005371 1.9706432819366455 1.1445281505584717 10
-3.8386385440826416 1.9727919101715088 0.9867885112762451 10
-3.836047887802124 1.9723068475723267 0.8302270174026489 10
-3.8415868282318115 1.97600257396698 0.6773960590362549 10
-3.842210531234741 1.9771714210510254 0.5258662104606628 10
-3.8425772190093994 1.9782084226608276 0.3747696876525879 10
-3.8471009731292725 1.9813867807388306 0.22478292882442474 10
-3.842517375946045 1.979874849319458 0.074783556163311 10
-1.7290520668029785 0.8928123116493225 -0.5111678242683411 119
-1.9861053228378296 1.0259833335876465 -0.5072649121284485 119
-2.3537251949310303 1.2164090871810913 -0.507096529006958 119
-2.898559093475342 1.4986211061477661 -0.5107589364051819 119
-3.7763495445251465 1.9532941579818726 -0.5173359513282776 119
-3.847273349761963 1.9908303022384644 -0.3756418228149414 10
-3.842977523803711 1.9894578456878662 -0.22403493523597717 10
-3.838374376296997 1.987924337387085 -0.07403639703989029 10
-3.8334906101226807 1.986243724822998 1.145821452140808 10
-3.8360540866851807 1.9884212017059326 0.9879124760627747 10
-3.8334972858428955 1.9879448413848877 0.831180214881897 10
-3.8390493392944336 1.9916743040084839 0.6781773567199707 10
-3.8396899700164795 1.9928572177886963 0.5264754891395569 10
-3.835648536682129 1.9916094541549683 0.3747696876525879 10
-3.8445916175842285 1.9971050024032593 0.2250445932149887 10
-3.8400163650512695 1.9955871105194092 0.07487081736326218 10
-1.7259249687194824 0.8988423347473145 -0.5111678242683411 119
-1.9825118780136108 1.032909870147705 -0.5072649121284485 119
-2.3494648933410645 1.2246177196502686 -0.507096529006958 119
-2.8889315128326416 1.5064465999603271 -0.5099768042564392 119
-3.7695083618164062 1.9664641618728638 -0.5173359513282776 119
-3.8447163105010986 2.006552219390869 -0.3760776221752167 10
-3.8360095024108887 2.0028600692749023 -0.22403493523597717 10
-3.8358428478240967 2.0036251544952393 -0.07412278652191162 10
-3.830815315246582 2.001850128173828 1.1471147537231445 10
-3.829089641571045 2.0017993450164795 0.9879124760627747 10
-3.8308839797973633 2.003588914871216 0.8321333527565002 10
-3.83207368850708 2.0050628185272217 0.6781773567199707 10
-3.8371071815490723 2.008549690246582 0.5270848870277405 10
-3.833085536956787 2.0072970390319824 0.37520545721054077 10
-3.842020273208618 2.0128302574157715 0.22530627250671387 10
-3.8374581336975098 2.011293888092041 0.07495808601379395 10
-1.7227768898010254 0.9048615097999573 -0.5111678242683411 119
-1.9832072257995605 1.0420900583267212 -0.5083897113800049 119
-2.3408312797546387 1.230527639389038 -0.50614333152771 119
-2.883655548095703 1.5165215730667114 -0.5099768042564392 119
-3.7582287788391113 1.977299451828003 -0.516726553440094 119
-3.83768892288208 2.019960641860962 -0.3760776221752167 10
-3.8334128856658936 2.018564462661743 -0.2242957353591919 10
-3.8332488536834717 2.0193328857421875 -0.07420918345451355 10
-3.8280768394470215 2.0174617767333984 1.148408055305481 10
-3.8263890743255615 2.017425537109375 0.9890363812446594 10
-3.823866844177246 2.016948938369751 0.8321333527565002 10
-3.8294191360473633 2.0207319259643555 0.6789586544036865 10
-3.8344616889953613 2.0242483615875244 0.5276942253112793 10
-3.8304600715637207 2.0229909420013428 0.37564125657081604 10
-3.834970712661743 2.0262291431427 0.22530627250671387 10
-3.830414056777954 2.02467679977417 0.07495808601379395 10
-1.7196078300476074 0.9108695983886719 -0.5111678242683411 119
-1.9795575141906738 1.049006462097168 -0.5083897113800049 119
-2.336521625518799 1.2386912107467651 -0.50614333152771 119
-2.8783440589904785 1.5265781879425049 -0.5099768042564392 119
-3.7513039112091064 1.9904061555862427 -0.516726553440094 119
-3.8350136280059814 2.035679578781128 -0.37651336193084717 10
-3.826343297958374 2.031933307647705 -0.2242957353591919 10
-3.8305912017822266 2.035046339035034 -0.07429556548595428 10
-3.8252758979797363 2.03307843208313 1.1497012376785278 10
-3.823625087738037 2.0330569744110107 0.9901602268218994 10
-3.821136474609375 2.0325894355773926 0.8330865502357483 10
-3.826702117919922 2.0364067554473877 0.6797400116920471 10
-3.8317530155181885 2.0399529933929443 0.5283036231994629 10
-3.8277716636657715 2.0386910438537598 0.3760770559310913 10
-3.8322813510894775 2.0419514179229736 0.22556796669960022 10
-3.8277347087860107 2.04038667678833 0.07504533976316452 10
-1.7206777334213257 0.9191421866416931 -0.5124619007110596 119
-1.980180263519287 1.0582060813903809 -0.5095144510269165 119
-2.332183599472046 1.2468396425247192 -0.50614333152771 119
-2.872997760772705 1.5366162061691284 -0.5099768042564392 119
-3.744333267211914 2.003488540649414 -0.516726553440094 119
-3.8278844356536865 2.04905366897583 -0.37651336193084717 10
-3.8236286640167236 2.0476343631744385 -0.2245565503835678 10
-3.827871322631836 2.0507662296295166 -0.07438195496797562 10
-3.8224129676818848 2.0487005710601807 1.1509944200515747 10
-3.820798635482788 2.048693895339966 0.9912841320037842 10
-3.8183434009552 2.0482354164123535 0.8340397477149963 10
-3.8239219188690186 2.0520875453948975 0.6805213093757629 10
-3.8289811611175537 2.0556633472442627 0.5289129018783569 10
-3.8250198364257812 2.054396629333496 0.3765127956867218 10
-3.829528570175171 2.0576794147491455 0.22582964599132538 10
-3.820589065551758 2.0537354946136475 0.07504533976316452 10
-1.717458963394165 0.9251428246498108 -0.5124619007110596 119
-1.9721858501434326 1.062800645828247 -0.5083897113800049 119
-2.32781720161438 1.2549728155136108 -0.50614333152771 119
-2.867616653442383 1.5466355085372925 -0.5099768042564392 119
-3.7373170852661133 2.0165464878082275 -0.516726553440094 119
-3.82509183883667 2.0647692680358887 -0.37694916129112244 10
-3.8208515644073486 2.0633416175842285 -0.22481736540794373 10
-3.8206894397735596 2.064115524291992 -0.07438195496797562 10
-3.8194870948791504 2.0643272399902344 1.1522877216339111 10
-3.8179101943969727 2.064335823059082 0.9924080967903137 10
-3.815487861633301 2.063886880874634 0.8349930047988892 10
-3.8210792541503906 2.0677735805511475 0.6813026666641235 10
-3.8261466026306152 2.0713791847229004 0.5295222401618958 10
-3.822205066680908 2.070107936859131 0.3769485652446747 10
-3.8223226070404053 2.0710344314575195 0.22582964599132538 10
-3.817791700363159 2.069441795349121 0.07513260096311569 10
-1.714219093322754 0.9311322569847107 -0.5124619007110596 119
-1.9641832113265991 1.0673521757125854 -0.5072649121284485 119
-2.3277344703674316 1.265434980392456 -0.507096529006958 119
-2.8622002601623535 1.5566359758377075 -0.5099768042564392 119
-3.7258963584899902 2.027208089828491 -0.5161172747612 119
-3.8222360610961914 2.0804898738861084 -0.3773849606513977 10
-3.8180112838745117 2.079054355621338 -0.22507818043231964 10
-3.8178510665893555 2.0798308849334717 -0.07446835190057755 10
-3.8164994716644287 2.07995867729187 1.1535810232162476 10
-3.8149588108062744 2.0799825191497803 0.9935320019721985 10
-3.808260440826416 2.077193021774292 0.8349930047988892 10
-3.813838005065918 2.081099033355713 0.6813026666641235 10
-3.8188929557800293 2.0847222805023193 0.5295222401618958 10
-3.8193275928497314 2.085824966430664 0.37738436460494995 10
-3.8194518089294434 2.0867581367492676 0.22609131038188934 10
-3.814931631088257 2.085153341293335 0.07521986961364746 10
-1.7151944637298584 0.9394304752349854 -0.5137560367584229 119
-1.9604454040527344 1.0742019414901733 -0.5072649121284485 119
-2.323302984237671 1.2735525369644165 -0.507096529006958 119
-2.8567492961883545 1.5666173696517944 -0.5099768042564392 119
-3.718797206878662 2.0402016639709473 -0.5161172747612 119
-3.819317102432251 2.0962159633636475 -0.3778207302093506 10
-3.8107306957244873 2.0923688411712646 -0.22507818043231964 10
-3.8149495124816895 2.0955519676208496 -0.07455474138259888 10
-3.813448429107666 2.0955939292907715 1.1548742055892944 10
-3.811943769454956 2.0956335067749023 0.9946558475494385 10
-3.8052868843078613 2.092838764190674 0.8359460830688477 10
-3.8108770847320557 2.0967795848846436 0.6820839047431946 10
-3.8159399032592773 2.100432872772217 0.5301316380500793 10
-3.8163869380950928 2.1015470027923584 0.3778201639652252 10
-3.8165173530578613 2.102487087249756 0.2263529896736145 10
-3.8076298236846924 2.098457098007202 0.07521986961364746 10
-1.711904764175415 0.9454118609428406 -0.5137560367584229 119
-1.9524197578430176 1.078682780265808 -0.5061401724815369 119
-2.3231394290924072 1.2840291261672974 -0.508049726486206 119
-2.8555850982666016 1.5789694786071777 -0.5107589364051819 119
-3.711652994155884 2.0531702041625977 -0.5161172747612 119
-3.8163342475891113 2.1119468212127686 -0.3782564699649811 10
-3.807771682739258 2.108076333999634 -0.22533896565437317 10
-3.8119847774505615 2.1112780570983887 -0.07464112341403961 10
-3.8103346824645996 2.1112334728240967 1.1561675071716309 10
-3.8088667392730713 2.1112890243530273 0.9957797527313232 10
-3.802250862121582 2.1084892749786377 0.8368993401527405 10
-3.8078532218933105 2.1124649047851562 0.6828652024269104 10
-3.8129241466522217 2.1161484718322754 0.5307409763336182 10
-3.813382148742676 2.1172733306884766 0.3782559037208557 10
-3.8135204315185547 2.1182210445404053 0.22661468386650085 10
-3.804651975631714 2.114164113998413 0.07530713081359863 10
-1.7128137350082397 0.9537312984466553 -0.5150501132011414 119
-1.9486424922943115 1.085491418838501 -0.5061401724815369 119
-2.318643093109131 1.2921305894851685 -0.508049726486206 119
-2.8500559329986572 1.5889276266098022 -0.5107589364051819 119
-3.704463481903076 2.0661137104034424 -0.5161172747612 119
-3.813288688659668 2.1276824474334717 -0.37869226932525635 10
-3.8047502040863037 2.123788833618164 -0.22559978067874908 10
-3.8089563846588135 2.1270089149475098 -0.07472752034664154 10
-3.8071584701538086 2.1268765926361084 1.1574606895446777 10
-3.805727005004883 2.126948595046997 0.996903657913208 10
-3.79915189743042 2.1241440773010254 0.8378525376319885 10
-3.8047664165496826 2.128154993057251 0.683646559715271 10
-3.805514097213745 2.1294453144073486 0.5307409763336182 10
-3.8059682846069336 2.1305718421936035 0.3782559037208557 10
-3.810460090637207 2.1339597702026367 0.226876363158226 10
-3.801609992980957 2.1298749446868896 0.07539438456296921 10
-1.7094740867614746 0.9597043395042419 -0.5150501132011414 119
-1.9490890502929688 1.094672441482544 -0.5072649121284485 119
-2.3183975219726562 1.3026204109191895 -0.5090028643608093 119
-2.844492197036743 1.5988664627075195 -0.5107589364051819 119
-3.701554298400879 2.0814645290374756 -0.516726553440094 119
-3.8101797103881836 2.1434223651885986 -0.3791280686855316 10
-3.8016650676727295 2.1395061016082764 -0.225860595703125 10
-3.8058650493621826 2.142744541168213 -0.07481390982866287 10
-3.799710988998413 2.140153169631958 1.1574606895446777 10
-3.8025238513946533 2.1426117420196533 0.9980276226997375 10
-3.795989990234375 2.139802932739258 0.8388057351112366 10
-3.8016161918640137 2.1438488960266113 0.6844278573989868 10
-3.802380323410034 2.1451544761657715 0.531350314617157 10
-3.8028459548950195 2.1462924480438232 0.378691703081131 10
-3.807335138320923 2.149702310562134 0.22713802754878998 10
-3.7985050678253174 2.1455910205841064 0.07548165321350098 10
-1.7061136960983276 0.9656656384468079 -0.5150501132011414 119
-1.9452561140060425 1.1014693975448608 -0.5072649121284485 119
-2.3223776817321777 1.3155436515808105 -0.5109092593193054 119
-2.8388938903808594 1.60878586769104 -0.5107589364051819 119
-3.694265842437744 2.0943727493286133 -0.516726553440094 119
-3.8070075511932373 2.1591665744781494 -0.3795638382434845 10
-3.7985167503356934 2.1552274227142334 -0.22612141072750092 10
-3.8027100563049316 2.1584839820861816 -0.0749003067612648 10
-3.796417474746704 2.1557884216308594 1.1587539911270142 10
-3.799257516860962 2.158278226852417 0.9991514682769775 10
-3.792764186859131 2.1554653644561768 0.8397588729858398 10
-3.798402786254883 2.1595468521118164 0.6852091550827026 10
-3.799182653427124 2.160867691040039 0.5319596529006958 10
-3.7996602058410645 2.1620171070098877 0.37912747263908386 10
-3.804147958755493 2.165449380874634 0.22739972174167633 10
-3.7953367233276367 2.161311149597168 0.07556891441345215 10
-1.7027324438095093 0.9716152548789978 -0.5150501132011414 119
-1.9413994550704956 1.1082528829574585 -0.5072649121284485 119
-2.3220338821411133 1.3260763883590698 -0.5118624567985535 119
-2.8332607746124268 1.6186857223510742 -0.5107589364051819 119
-3.691241502761841 2.109718084335327 -0.5173359513282776 119
-3.803771734237671 2.174915075302124 -0.37999963760375977 10
-3.799638509750366 2.173431873321533 -0.22664301097393036 10
-3.7994914054870605 2.1742279529571533 -0.07498668879270554 10
-3.793060779571533 2.171426773071289 1.1600472927093506 10
-3.795928716659546 2.1739485263824463 1.0002753734588623 10
-3.7894763946533203 2.1711316108703613 0.8407120704650879 10
-3.79512619972229 2.175248384475708 0.6859904527664185 10
-3.795922040939331 2.1765849590301514 0.5325689911842346 10
-3.7964107990264893 2.1777455806732178 0.37956327199935913 10
-3.800896644592285 2.1812007427215576 0.2276614010334015 10
-3.792105197906494 2.177035331726074 0.07565618306398392 10
-1.6993305683135986 0.9775529503822327 -0.5150501132011414 119
-1.9417418241500854 1.1174529790878296 -0.5083897113800049 119
-2.3216445446014404 1.3366225957870483 -0.5128157138824463 119
-2.8275933265686035 1.628565788269043 -0.5107589364051819 119
-3.683854818344116 2.1225898265838623 -0.5173359513282776 119
-3.800471782684326 2.190666913986206 -0.38043537735939026 10
-3.796354293823242 2.189176321029663 -0.22690382599830627 10
-3.7962088584899902 2.1899752616882324 -0.07507307827472687 10
-3.7896411418914795 2.187068223953247 1.1613404750823975 10
-3.7925362586975098 2.1896214485168457 1.001399278640747 10
-3.7861251831054688 2.1868011951446533 0.8416652679443359 10
-3.7917861938476562 2.190953493118286 0.686771810054779 10
-3.792598009109497 2.192305564880371 0.5331783890724182 10
-3.793097734451294 2.1934778690338135 0.3799990713596344 10
-3.797581672668457 2.1969552040100098 0.22792308032512665 10
-3.788809061050415 2.192762851715088 0.07574343681335449 10
-1.6959079504013062 0.9834787249565125 -0.5150501132011414 119
-1.9378293752670288 1.124224066734314 -0.5083897113800049 119
-2.3127195835113525 1.3422547578811646 -0.5118624567985535 119
-2.8218913078308105 1.6384259462356567 -0.5107589364051819 119
-3.6807146072387695 2.1379287242889404 -0.5179452896118164 119
-3.7971086502075195 2.2064220905303955 -0.3808711767196655 10
-3.793006420135498 2.2049241065979004 -0.2271646410226822 10
-3.792862892150879 2.205726385116577 -0.0751594752073288 10
-3.786158561706543 2.202711820602417 1.1626337766647339 10
-3.78908109664917 2.2052972316741943 1.0025231838226318 10
-3.782710313796997 2.2024734020233154 0.842618465423584 10
-3.7883825302124023 2.2066617012023926 0.6875531077384949 10
-3.7892098426818848 2.208029270172119 0.533787727355957 10
-3.7897207736968994 2.2092132568359375 0.3804348111152649 10
-3.794203281402588 2.2127134799957275 0.228184774518013 10
-3.7811317443847656 2.20597505569458 0.07574343681335449 10
-1.6924645900726318 0.9893925786018372 -0.5150501132011414 119
-1.9338933229446411 1.1309815645217896 -0.5083897113800049 119
-2.3080201148986816 1.3503193855285645 -0.5118624567985535 119
-2.816154718399048 1.6482661962509155 -0.5107589364051819 119
-3.673229455947876 2.150763750076294 -0.5179452896118164 119
-3.7936813831329346 2.2221806049346924 -0.3813069760799408 10
-3.7895946502685547 2.220675230026245 -0.2274254560470581 10
-3.7894532680511475 2.2214810848236084 -0.07524586468935013 10
-3.7826128005981445 2.218358039855957 1.1639270782470703 10
-3.785562038421631 2.220975637435913 1.0036470890045166 10
-3.7792320251464844 2.2181484699249268 0.8435716032981873 10
-3.784914970397949 2.22237229347229 0.6883344054222107 10
-3.7814793586730957 2.221242666244507 0.533787727355957 10
-3.7905750274658203 2.22747540473938 0.38130638003349304 10
-3.7907602787017822 2.2284743785858154 0.22844643890857697 10
-3.7777175903320312 2.221694231033325 0.07583069801330566 10
-1.6848398447036743 0.992842435836792 -0.5137560367584229 119
-1.934130311012268 1.1401991844177246 -0.5095144510269165 119
-2.29483699798584 1.3533809185028076 -0.5099561214447021 119
-2.8103842735290527 1.6580862998962402 -0.5107589364051819 119
-3.669973134994507 2.166095018386841 -0.5185546875 119
-3.7859015464782715 2.2354094982147217 -0.3813069760799408 10
-3.786118984222412 2.236429214477539 -0.22768625617027283 10
-3.785979986190796 2.2372384071350098 -0.07533225417137146 10
-3.7790040969848633 2.23400616645813 1.1652202606201172 10
-3.78197979927063 2.2366561889648438 1.0047709941864014 10
-3.775690793991089 2.2338263988494873 0.8445248007774353 10
-3.7813847064971924 2.238086223602295 0.6891157031059265 10
-3.77797269821167 2.236957311630249 0.5343970060348511 10
-3.787062644958496 2.243232250213623 0.3817421793937683 10
-3.7872538566589355 2.2442386150360107 0.22870811820030212 10
-3.774240255355835 2.237416982650757 0.07591796666383743 10
-1.6772115230560303 0.9962510466575623 -0.5124619007110596 119
-1.925950527191162 1.144455075263977 -0.5083897113800049 119
-2.2900986671447754 1.3613831996917725 -0.5099561214447021 119
-2.804579496383667 1.6678863763809204 -0.5107589364051819 119
-3.6623897552490234 2.1788923740386963 -0.5185546875 119
-3.782355785369873 2.2511587142944336 -0.3817427456378937 10
-3.7825798988342285 2.2521862983703613 -0.22794707119464874 10
-3.782442331314087 2.2529985904693604 -0.0754186362028122 10
-3.775331735610962 2.2496559619903564 1.166513442993164 10
-3.778334140777588 2.2523391246795654 1.0058948993682861 10
-3.7720859050750732 2.249506711959839 0.8454779982566833 10
-3.7777907848358154 2.2538022994995117 0.6898970603942871 10
-3.7744028568267822 2.2526748180389404 0.5350064039230347 10
-3.7834856510162354 2.258991003036499 0.3821779191493988 10
-3.783684015274048 2.260005474090576 0.22896979749202728 10
-3.7749903202056885 2.255706787109375 0.07609248906373978 10
-1.6695799827575684 0.999618649482727 -0.5111678242683411 119
-1.9177641868591309 1.148667335510254 -0.5072649121284485 119
-2.2811224460601807 1.3668460845947266 -0.5090028643608093 119
-2.7987403869628906 1.6776659488677979 -0.5107589364051819 119
-3.654761552810669 2.1916632652282715 -0.5185546875 119
-3.7787458896636963 2.2669100761413574 -0.38217851519584656 10
-3.7789764404296875 2.2679455280303955 -0.22820788621902466 10
-3.7788407802581787 2.268761157989502 -0.07550503313541412 10
-3.771596908569336 2.265307664871216 1.1678067445755005 10
-3.77044939994812 2.2655141353607178 1.0058948993682861 10
-3.7684173583984375 2.265188455581665 0.8464312553405762 10
-3.7741329669952393 2.2695207595825195 0.6906783580780029 10
-3.7707693576812744 2.2683942317962646 0.5356157422065735 10
-3.7798449993133545 2.274752616882324 0.3826137185096741 10
-3.7800498008728027 2.2757744789123535 0.22923149168491364 10
-3.7713756561279297 2.271449327468872 0.07617975026369095 10
-1.6660804748535156 1.0054404735565186 -0.5111678242683411 119
-1.9137428998947144 1.155354619026184 -0.5072649121284485 119
-2.276337146759033 1.3748003244400024 -0.5090028643608093 119
-2.7928669452667236 1.687425136566162 -0.5107589364051819 119
-3.6470890045166016 2.2044074535369873 -0.5185546875 119
-3.7750720977783203 2.2826638221740723 -0.38261428475379944 10
-3.7753090858459473 2.2837073802948 -0.22846870124340057 10
-3.7751760482788086 2.2845265865325928 -0.07559142261743546 10
-3.7677979469299316 2.2809605598449707 1.169100046157837 10
-3.766685724258423 2.2811856269836426 1.007018804550171 10
-3.7646853923797607 2.280872106552124 0.8473843336105347 10
