# .PCD v0.7 - Point Cloud Data file format
VERSION 0.7
FIELDS x y z intensity
SIZE 4 4 4 4
TYPE F F F F
COUNT 1 1 1 1
WIDTH 779
HEIGHT 1
VIEWPOINT 0 0 0 1 0 0 0
POINTS 779
DATA ascii
-0.8116647005081177 2.2048518657684326 0.36565321683883667 44
-0.7963330149650574 2.1643691062927246 0.2784714102745056 44
-0.805709183216095 2.191032648086548 0.20089399814605713 44
-0.798650324344635 2.1730077266693115 0.11932597309350967 44
-0.7906098961830139 2.1522910594940186 0.03935517370700836 44
-0.7042718529701233 1.9224330186843872 -0.5383438467979431 119
-0.7903779149055481 2.1586410999298096 -0.5218867659568787 119
-0.8008741140365601 2.188490867614746 -0.4451392590999603 0
-0.7968451380729675 2.178659200668335 -0.3613639175891876 44
-0.7986137866973877 2.1846766471862793 -0.28090915083885193 44
-0.790862500667572 2.1646440029144287 -0.19827960431575775 44
-0.787253737449646 2.1559340953826904 -0.11788567155599594 44
-0.7895305752754211 2.1633410453796387 -0.039134759455919266 44
-0.8042337894439697 2.2048230171203613 0.6181745529174805 44
-0.8040816783905029 2.205601692199707 0.5327309370040894 44
-0.7910962700843811 2.1711602210998535 0.44132620096206665 44
-0.7988937497138977 2.1937506198883057 0.3633093237876892 44
-0.7870758771896362 2.1624724864959717 0.2778621017932892 44
-0.796353280544281 2.189150810241699 0.20045821368694305 44
-0.789354145526886 2.1710896492004395 0.11906429380178452 44
-0.7813848257064819 2.150339126586914 0.03926791250705719 44
-0.6992024779319763 1.9294203519821167 -0.5396379828453064 119
-0.7828380465507507 2.1613869667053223 -0.5218867659568787 119
-0.7898886203765869 2.182042360305786 -0.4432328939437866 0
-0.7875552773475647 2.176783800125122 -0.36058175563812256 44
-0.7876077890396118 2.178117036819458 -0.2796904444694519 44
-0.7816087603569031 2.1627070903778076 -0.19784384965896606 44
-0.7780270576477051 2.153972625732422 -0.11762485653162003 44
-0.7802768349647522 2.161381721496582 -0.039048369973897934 44
-0.801450252532959 2.2212464809417725 0.6220543384552002 44
-0.7930722236633301 2.1992287635803223 0.5304831266403198 44
-0.7801842093467712 2.164673328399658 0.43941983580589294 44
-0.7845364809036255 2.1779403686523438 0.36018407344818115 44
-0.7778415083885193 2.1605372428894043 0.277252733707428 44
-0.7870204448699951 2.1872305870056152 0.20002241432666779 44
-0.780081033706665 2.169133186340332 0.11880261451005936 44
-0.7721830010414124 2.148348808288574 0.03918064758181572 44
-0.6957225203514099 1.9409420490264893 -0.5422261357307434 119
-0.7736455798149109 2.159519910812378 -0.520762026309967 119
-0.7806124687194824 2.1801652908325195 -0.4422796666622162 0
-0.7782880663871765 2.1748695373535156 -0.3597995638847351 44
-0.7783286571502686 2.176180124282837 -0.2790811061859131 44
-0.772378146648407 2.1607320308685303 -0.1974080502986908 44
-0.7688236832618713 2.151973247528076 -0.1173640564084053 44
-0.7710462808609009 2.159383773803711 -0.038961976766586304 44
-0.7855749726295471 2.2012858390808105 0.6155880689620972 44
-0.7804805040359497 2.1882169246673584 0.5271114110946655 44
-0.7709751725196838 2.162760019302368 0.4384666085243225 44
-0.773614227771759 2.171361207962036 0.35862141847610474 44
-0.76863032579422 2.1585640907287598 0.27664339542388916 44
-0.7760406732559204 2.1805789470672607 0.19915086030960083 44
-0.7725045680999756 2.1718428134918213 0.11880261451005936 44
-0.7646790742874146 2.151031017303467 0.03918064758181572 44
-0.6889431476593018 1.9433587789535522 -0.5422261357307434 119
-0.7661027312278748 2.1622073650360107 -0.520762026309967 119
-0.7713590860366821 2.1782500743865967 -0.4413264989852905 0
-0.7690439820289612 2.1729178428649902 -0.35901737213134766 44
-0.7674177289009094 2.1695265769958496 -0.27786242961883545 44
-0.7631708979606628 2.158719062805176 -0.19697228074073792 44
-0.7596437335014343 2.149935722351074 -0.11710324138402939 44
-0.7618393301963806 2.1573486328125 -0.03887559100985527 44
-0.7714564204216003 2.1857967376708984 0.6104150414466858 44
-0.7695960998535156 2.181739091873169 0.524863600730896 44
-0.7617890238761902 2.160808801651001 0.43751341104507446 44
-0.7627476453781128 2.1647326946258545 0.3570587933063507 44
-0.7594424486160278 2.156553030014038 0.27603402733802795 44
-0.7667706608772278 2.1785762310028076 0.19871509075164795 44
-0.7632618546485901 2.169816017150879 0.1185409352183342 44
-0.7571659684181213 2.1536872386932373 0.03918064758181572 44
-0.6821553707122803 1.945751667022705 -0.5422261357307434 119
-0.7569395303726196 2.1602706909179688 -0.5196372270584106 119
-0.7621285915374756 2.1762969493865967 -0.4403733015060425 0
-0.7598229646682739 2.1709277629852295 -0.3582352101802826 44
-0.7582013607025146 2.1675076484680176 -0.27725306153297424 44
-0.7556309103965759 2.161369800567627 -0.19697228074073792 44
-0.7504874467849731 2.1478607654571533 -0.11684243381023407 44
-0.7526558637619019 2.1552748680114746 -0.03878919780254364 44
-0.757455587387085 2.1702358722686768 0.6052420139312744 44
-0.7571616768836975 2.1706113815307617 0.5214918851852417 44
-0.7526260018348694 2.158820152282715 0.4365602433681488 44
-0.7535617351531982 2.1627185344696045 0.3562775254249573 44
-0.7486459016799927 2.14981746673584 0.2748153507709503 44
-0.7575240731239319 2.1765353679656982 0.19827930629253387 44
-0.7556831240653992 2.172466993331909 0.1185409352183342 44
-0.7496435642242432 2.1563172340393066 0.03918064758181572 44
-0.6737772226333618 1.943557620048523 -0.5409319996833801 119
-0.7493941783905029 2.1628997325897217 -0.5196372270584106 119
-0.7529211640357971 2.1743059158325195 -0.4394201338291168 0
-0.7506252527236938 2.1688997745513916 -0.35745301842689514 44
-0.7490084171295166 2.1654510498046875 -0.2766437232494354 44
-0.7464542388916016 2.1592864990234375 -0.19653649628162384 44
-0.741354763507843 2.1457479000091553 -0.11658161878585815 44
-0.7451280355453491 2.157888889312744 -0.03878919780254364 44
-0.7467242479324341 2.1637356281280518 0.6026555299758911 44
-0.7464030385017395 2.164029598236084 0.5192440748214722 44
-0.7434861063957214 2.1567935943603516 0.43560701608657837 44
-0.7443991899490356 2.1606664657592773 0.35549619793891907 44
-0.7395214438438416 2.1477253437042236 0.2742060124874115 44
-0.7483011484146118 2.1744565963745117 0.197843536734581 44
-0.7464712858200073 2.170370101928711 0.11827925592660904 44
-0.7421120405197144 2.1589207649230957 0.03918064758181572 44
-0.6669889092445374 1.9458976984024048 -0.5409319996833801 119
-0.7418397068977356 2.1655023097991943 -0.5196372270584106 119
-0.7437369227409363 2.1722772121429443 -0.4384669363498688 0
-0.7414509654045105 2.1668343544006348 -0.35667088627815247 44
-0.7414450645446777 2.1680524349212646 -0.2766437232494354 44
-0.7373014688491821 2.15716552734375 -0.19610072672367096 44
-0.7338602542877197 2.148322582244873 -0.11658161878585815 44
-0.7359758615493774 2.1557457447052 -0.03870280832052231 44
-0.7376071214675903 2.1617579460144043 0.6013622879981995 44
-0.7372721433639526 2.162010669708252 0.5181202292442322 44
-0.7359529733657837 2.1593756675720215 0.43560701608657837 44
-0.7352601289749146 2.1585769653320312 0.35471490025520325 44
-0.7304205298423767 2.1455957889556885 0.2735966444015503 44
-0.7391018271446228 2.17233943939209 0.19740775227546692 44
-0.7372832298278809 2.1682353019714355 0.11801756918430328 44
-0.7345714569091797 2.1614980697631836 0.03918064758181572 44
-0.6601923704147339 1.948214054107666 -0.5409319996833801 119
-0.7342761754989624 2.168078660964966 -0.5196372270584106 119
-0.7345760464668274 2.170210838317871 -0.43751370906829834 0
-0.7323002815246582 2.16473126411438 -0.355888694524765 44
-0.7322831749916077 2.165925979614258 -0.2760343551635742 44
-0.7281725406646729 2.1550071239471436 -0.19566494226455688 44
-0.7247591614723206 2.1461405754089355 -0.11632081866264343 44
-0.7284464240074158 2.158301591873169 -0.03870280832052231 44
-0.7285130023956299 2.159742832183838 0.6000690460205078 44
-0.7281644344329834 2.159954309463501 0.5169962644577026 44
-0.7268437147140503 2.157280445098877 0.4346538782119751 44
-0.7261447906494141 2.156449794769287 0.35393357276916504 44
-0.7213436961174011 2.1434288024902344 0.27298733592033386 44
-0.7299266457557678 2.1701853275299072 0.19697198271751404 44
-0.7297102212905884 2.1707956790924072 0.11801756918430328 44
-0.7270219922065735 2.1640491485595703 0.03918064758181572 44
-0.6533877849578857 1.9505066871643066 -0.5409319996833801 119
-0.7267036437988281 2.170628547668457 -0.5196372270584106 119
-0.7254387140274048 2.168107032775879 -0.4365605413913727 0
-0.7231733202934265 2.162590742111206 -0.35510653257369995 44
-0.7247182130813599 2.168468952178955 -0.2760343551635742 44
-0.7190677523612976 2.1528115272521973 -0.195229172706604 44
-0.7156822085380554 2.1439208984375 -0.11606000363826752 44
-0.7193259000778198 2.1560888290405273 -0.03861641883850098 44
-0.7194418907165527 2.15769100189209 0.5987758040428162 44
-0.7190799713134766 2.157860517501831 0.5158723592758179 44
-0.7193089723587036 2.159804344177246 0.4346538782119751 44
-0.7170533537864685 2.1542859077453613 0.3531522750854492 44
-0.7122908234596252 2.1412246227264404 0.27237796783447266 44
-0.7207753658294678 2.1679933071136475 0.19653619825839996 44
-0.7205538153648376 2.168591022491455 0.11775589734315872 44
-0.7178881168365479 2.1618292331695557 0.039093390107154846 44
-0.6480934023857117 1.9573606252670288 -0.5422261357307434 119
-0.7191223502159119 2.173151969909668 -0.5196372270584106 119
-0.716325044631958 2.165966033935547 -0.43560734391212463 0
-0.7140702605247498 2.1604130268096924 -0.3543243408203125 44
-0.715587854385376 2.166273355484009 -0.2754250168800354 44
-0.7099871635437012 2.150578737258911 -0.19479337334632874 44
-0.7081941366195679 2.1464061737060547 -0.11606000363826752 44
-0.7117953896522522 2.1585865020751953 -0.03861641883850098 44
-0.710394024848938 2.155601739883423 0.5974825024604797 44
-0.7115432620048523 2.1603574752807617 0.5158723592758179 44
-0.7102307677268982 2.157639980316162 0.43370065093040466 44
-0.7079856991767883 2.1520841121673584 0.352370947599411 44
-0.7048122882843018 2.14369797706604 0.27237796783447266 44
-0.7116484045982361 2.165764093399048 0.19610042870044708 44
-0.7114217877388 2.166349172592163 0.11749421060085297 44
-0.7087785005569458 2.159571647644043 0.039006125181913376 44
-0.6412570476531982 1.9596110582351685 -0.5422261357307434 119
-0.7115322351455688 2.1756489276885986 -0.5196372270584106 119
-0.7072350978851318 2.163787841796875 -0.434654176235199 0
-0.7049912810325623 2.158198356628418 -0.35354217886924744 44
-0.7080217599868774 2.168757915496826 -0.2754250168800354 44
-0.7009309530258179 2.148308753967285 -0.19435760378837585 44
-0.6991496682167053 2.144118070602417 -0.1157992035150528 44
-0.7027071714401245 2.1563050746917725 -0.038530029356479645 44
-0.6998738050460815 2.148883819580078 0.5948960185050964 44
-0.702489972114563 2.1581952571868896 0.5147484540939331 44
-0.7011765241622925 2.155438184738159 0.432747483253479 44
-0.6989423632621765 2.149846076965332 0.3515896499156952 44
-0.6957915425300598 2.141425371170044 0.27176862955093384 44
-0.7010073661804199 2.1587600708007812 0.19522887468338013 44
-0.7023141980171204 2.1640701293945312 0.1172325387597084 44
-0.6996936202049255 2.1572775840759277 0.038918863981962204 44
-0.6344127655029297 1.9618374109268188 -0.5422261357307434 119
-0.7039334774017334 2.178119421005249 -0.5196372270584106 119
-0.6981691718101501 2.1615724563598633 -0.43370094895362854 0
-0.695936381816864 2.1559462547302246 -0.35275998711586 44
-0.6989232897758484 2.1664929389953613 -0.2748156785964966 44
-0.6918991208076477 2.1460013389587402 -0.19392181932926178 44
-0.6901295781135559 2.1417925357818604 -0.11553838849067688 44
-0.6936435699462891 2.1539859771728516 -0.038443636149168015 44
-0.6908888220787048 2.1467158794403076 0.59360271692276 44
-0.6934603452682495 2.155996322631836 0.5136245489120483 44
-0.6921463012695312 2.1531999111175537 0.43179428577423096 44
-0.6899232268333435 2.147570848464966 0.350808322429657 44
-0.6867951154708862 2.139115810394287 0.27115926146507263 44
-0.6919457316398621 2.1564509868621826 0.19479307532310486 44
-0.6917064189910889 2.156999111175537 0.11670918017625809 44
-0.6891075372695923 2.1501853466033936 0.03874434158205986 44
-0.6275607943534851 1.964039921760559 -0.5422261357307434 119
-0.694844126701355 2.175922393798828 -0.518512487411499 119
-0.6891273856163025 2.159320831298828 -0.4327477812767029 0
-0.6869058609008789 2.1536574363708496 -0.3519778251647949 44
-0.6898494958877563 2.164191246032715 -0.27420634031295776 44
-0.6828921437263489 2.143657684326172 -0.1934860497713089 44
-0.6826491355895996 2.144188642501831 -0.11553838849067688 44
-0.6846047043800354 2.151630163192749 -0.03835725039243698 44
-0.680463969707489 2.139909029006958 0.5910162329673767 44
-0.6829790472984314 2.1491172313690186 0.5113767385482788 44
-0.683140218257904 2.1509246826171875 0.4308411180973053 44
-0.6809285283088684 2.145258903503418 0.35002702474594116 44
-0.6778234839439392 2.1367697715759277 0.2705499529838562 44
-0.6829089522361755 2.1541051864624023 0.19435730576515198 44
-0.6826647520065308 2.1546404361724854 0.11644749343395233 44
-0.6800822615623474 2.147813558578491 0.03865707665681839 44
-0.6203580498695374 1.9663269519805908 -0.5422261357307434 119
-0.6868642568588257 2.1784543991088867 -0.518512487411499 119
-0.6797332167625427 2.1571505069732666 -0.43179458379745483 0
-0.6775242686271667 2.1514501571655273 -0.35119566321372986 44
-0.6804227828979492 2.161971092224121 -0.27359697222709656 44
-0.6735361218452454 2.14139461517334 -0.19305026531219482 44
-0.6732884049415588 2.1419131755828857 -0.11527758091688156 44
-0.6752156615257263 2.149355411529541 -0.03827085718512535 44
-0.6711695194244385 2.1377804279327393 0.5897230505943298 44
-0.6736390590667725 2.1469576358795166 0.510252833366394 44
-0.6737834811210632 2.148730754852295 0.42988792061805725 44
-0.6715843081474304 2.1430275440216064 0.34924569725990295 44
-0.6685041189193726 2.1345038414001465 0.269940584897995 44
-0.6720334887504578 2.1470868587493896 0.19348575174808502 44
-0.6717817187309265 2.147597312927246 0.11592413485050201 44
-0.6692286729812622 2.140746831893921 0.038482554256916046 44
-0.6134904623031616 1.9684804677963257 -0.5422261357307434 119
-0.6792559027671814 2.1808388233184814 -0.518512487411499 0
-0.67074054479599 2.1548235416412354 -0.4308414161205292 0
-0.6685433983802795 2.1490867137908936 -0.3504135012626648 44
-0.6713986992835999 2.1595942974090576 -0.27298763394355774 44
-0.6645793318748474 2.1389760971069336 -0.19261449575424194 44
-0.6658076047897339 2.1442501544952393 -0.11527758091688156 44
-0.6677088737487793 2.1516993045806885 -0.03827085718512535 44
-0.662272572517395 2.1354970932006836 0.5884297490119934 44
-0.6646983027458191 2.1446421146392822 0.5091289281845093 44
-0.6648267507553101 2.146381139755249 0.4289347529411316 44
-0.662639319896698 2.1406409740448 0.3484644293785095 44
-0.6595824956893921 2.1320834159851074 0.2693312466144562 44
-0.6630632877349854 2.144660472869873 0.19304996728897095 44
-0.662807047367096 2.145158529281616 0.11566246300935745 44
-0.6602706909179688 2.1382951736450195 0.038395293056964874 44
-0.6066155433654785 1.9706099033355713 -0.5422261357307434 119
-0.6716392040252686 2.183196544647217 -0.518512487411499 0
-0.6617722511291504 2.1524600982666016 -0.42988821864128113 0
-0.6595870852470398 2.146686553955078 -0.34963130950927734 44
-0.6623994708061218 2.1571805477142334 -0.27237826585769653 44
-0.6556475162506104 2.136521100997925 -0.19217871129512787 44
-0.6583187580108643 2.14656138420105 -0.11527758091688156 44
-0.6587291359901428 2.1492373943328857 -0.03818446770310402 44
-0.6533997058868408 2.1331777572631836 0.5871365070343018 44
-0.6557820439338684 2.1422908306121826 0.5080050230026245 44
-0.6558944582939148 2.1439950466156006 0.42798152565956116 44
-0.6537191271781921 2.1382181644439697 0.3476831018924713 44
-0.6521361470222473 2.1343727111816406 0.2693312466144562 44
-0.6541184186935425 2.142198324203491 0.19261419773101807 44
-0.6538576483726501 2.142683267593384 0.1154007762670517 44
-0.6513506174087524 2.13580322265625 0.038308028131723404 44
-0.598328173160553 1.9680943489074707 -0.5409319996833801 119
-0.6640143394470215 2.185527801513672 -0.518512487411499 0
-0.6528287529945374 2.1500606536865234 -0.42893505096435547 0
-0.6506558060646057 2.1442501544952393 -0.3488491475582123 44
-0.6534253358840942 2.1547305583953857 -0.2717689573764801 44
-0.6467410326004028 2.1340298652648926 -0.191742941737175 44
-0.6493744254112244 2.1440672874450684 -0.11501676589250565 44
-0.651222825050354 2.1515238285064697 -0.03818446770310402 44
-0.6459495425224304 2.1354455947875977 0.5871365070343018 44
-0.6468902230262756 2.1399033069610596 0.5068811178207397 44
-0.6469871401786804 2.141573190689087 0.4270283579826355 44
-0.6448240280151367 2.1357593536376953 0.3469018042087555 44
-0.6432482004165649 2.131884813308716 0.26872187852859497 44
-0.6451987624168396 2.139699697494507 0.192178413271904 44
-0.6449336409568787 2.140172004699707 0.11513910442590714 44
-0.6424497961997986 2.13327693939209 0.03822077065706253 44
-0.5983979105949402 1.9932994842529297 -0.547402560710907 119
-0.656381368637085 2.1878321170806885 -0.518512487411499 0
-0.6439099907875061 2.1476247310638428 -0.42798182368278503 0
-0.6417494416236877 2.141777515411377 -0.34806695580482483 44
-0.6444762349128723 2.1522440910339355 -0.2711595892906189 44
-0.6378598809242249 2.131502389907837 -0.19130714237689972 44
-0.641886293888092 2.1463208198547363 -0.11501676589250565 44
-0.6422770619392395 2.148993730545044 -0.03809807822108269 44
-0.6371092796325684 2.1330597400665283 0.5858432650566101 44
-0.6394166350364685 2.14214825630188 0.5068811178207397 44
-0.6381045579910278 2.1391148567199707 0.42607516050338745 44
-0.6359539031982422 2.1332643032073975 0.3461204767227173 44
-0.6343857645988464 2.129361391067505 0.26811254024505615 44
-0.6377258896827698 2.1419386863708496 0.192178413271904 44
-0.6360352039337158 2.1376242637634277 0.11487741768360138 44
-0.6335744261741638 2.1307144165039062 0.03813350573182106 44
-0.5873188972473145 1.9814844131469727 -0.5435202121734619 119
-0.6487404108047485 2.190109968185425 -0.518512487411499 0
-0.6364094018936157 2.1498594284057617 -0.42798182368278503 0
-0.6342693567276001 2.1440045833587646 -0.34806695580482483 44
-0.6355525851249695 2.149721384048462 -0.2705502510070801 44
-0.6290044188499451 2.128939151763916 -0.19087137281894684 44
-0.6343902945518494 2.1485483646392822 -0.11501676589250565 44
-0.6333569288253784 2.146427869796753 -0.038011688739061356 44
-0.6296595335006714 2.135270595550537 0.5858432650566101 44
-0.6305580139160156 2.1396937370300293 0.505757212638855 44
-0.6292471885681152 2.1366207599639893 0.4251219928264618 44
-0.6285035610198975 2.1354711055755615 0.3461204767227173 44
-0.6269490122795105 2.1315627098083496 0.26811254024505615 44
-0.6288406252861023 2.1393730640411377 0.1917426437139511 44
-0.6271623373031616 2.135040760040283 0.11461574584245682 44
-0.6247249245643616 2.1281163692474365 0.03804624453186989 44
-0.5776859521865845 1.9742519855499268 -0.5409319996833801 119
-0.641091525554657 2.192361354827881 -0.518512487411499 0
-0.6275243759155273 2.1473565101623535 -0.4270286560058594 0
-0.6253971457481384 2.141465187072754 -0.34728479385375977 44
-0.6266543865203857 2.147162914276123 -0.26994088292121887 44
-0.6201745271682739 2.12634015083313 -0.19043558835983276 44
-0.6254894137382507 2.14595627784729 -0.11475596576929092 44
-0.6244624853134155 2.1438257694244385 -0.037925295531749725 44
-0.6208523511886597 2.1328182220458984 0.5845500230789185 44
-0.6230852603912354 2.1418817043304443 0.505757212638855 44
-0.6204149723052979 2.1340911388397217 0.42416879534721375 44
-0.6196677684783936 2.1329097747802734 0.34533917903900146 44
-0.6181208491325378 2.128972053527832 0.26750320196151733 44
-0.621368944644928 2.141555070877075 0.1917426437139511 44
-0.619705855846405 2.1372170448303223 0.11461574584245682 44
-0.6159011721611023 2.1254823207855225 0.037958983331918716 44
nan nan nan 0
-0.6320838332176208 2.1899049282073975 -0.5173877477645874 0
-0.6200248599052429 2.149533748626709 -0.4270286560058594 0
-0.6165503859519958 2.138890027999878 -0.3465026021003723 44
-0.6177818775177002 2.14456844329834 -0.26933157444000244 44
-0.6127484440803528 2.1284918785095215 -0.19043558835983276 44
-0.6166143417358398 2.1433279514312744 -0.11449515074491501 44
-0.6155940890312195 2.141187906265259 -0.03783890977501869 44
-0.6120699048042297 2.1303300857543945 0.583256721496582 44
-0.6142603754997253 2.1393609046936035 0.5046333074569702 44
-0.6116080284118652 2.131525754928589 0.4232156276702881 44
-0.6122187376022339 2.1350598335266113 0.34533917903900146 44
-0.6093184947967529 2.1263461112976074 0.2668938636779785 44
-0.6125184893608093 2.1389224529266357 0.19130685925483704 44
-0.6108679175376892 2.13456654548645 0.11435405910015106 44
-0.6084780693054199 2.1276192665100098 0.037958983331918716 44
nan nan nan 0
-0.6244357824325562 2.1920981407165527 -0.5173877477645874 0
-0.6111739873886108 2.1469643115997314 -0.42607545852661133 44
-0.6077292561531067 2.136279344558716 -0.34572046995162964 44
-0.6089349985122681 2.1419382095336914 -0.26872220635414124 44
-0.6039536595344543 2.125826597213745 -0.18999981880187988 44
-0.6077651977539062 2.1406638622283936 -0.11423435062170029 44
-0.606751561164856 2.138514280319214 -0.03775251656770706 44
-0.6046299338340759 2.132453680038452 0.583256721496582 44
-0.6054607033729553 2.1368045806884766 0.5035094022750854 44
-0.6028266549110413 2.128925085067749 0.42226240038871765 44
-0.6034175157546997 2.1324315071105957 0.34455785155296326 44
-0.6005420684814453 2.1236846446990967 0.2662844955921173 44
-0.6050485372543335 2.141047477722168 0.19130685925483704 44
-0.6034132242202759 2.136685848236084 0.11435405910015106 44
-0.5996897220611572 2.1249189376831055 0.037871718406677246 44
nan nan nan 0
-0.6154617071151733 2.1895740032196045 -0.516262948513031 0
-0.6023485660552979 2.1443591117858887 -0.42512229084968567 44
-0.5989338159561157 2.1336328983306885 -0.3449382781982422 44
-0.6014545559883118 2.1440505981445312 -0.26872220635414124 44
-0.5951849222183228 2.1231255531311035 -0.1895640343427658 44
-0.5989422798156738 2.1379642486572266 -0.11397353559732437 44
-0.5979353189468384 2.1358048915863037 -0.03766612708568573 44
-0.5958814024925232 2.1299002170562744 0.5819635391235352 44
-0.5966863036155701 2.1342127323150635 0.5023854970932007 44
-0.5953916907310486 2.131016492843628 0.42226240038871765 44
-0.5959702730178833 2.1345248222351074 0.34455785155296326 44
-0.5917916297912598 2.120987892150879 0.2656751573085785 44
-0.5962333679199219 2.1383488178253174 0.19087108969688416 44
-0.5946109294891357 2.133969306945801 0.1140923872590065 44
-0.5909276604652405 2.122183322906494 0.037784457206726074 44
nan nan nan 0
-0.6078149676322937 2.191709041595459 -0.516262948513031 0
-0.5935488343238831 2.141718626022339 -0.4241690933704376 44
-0.591482400894165 2.1357104778289795 -0.3449382781982422 44
-0.592643141746521 2.1413543224334717 -0.2681128680706024 44
-0.5877702236175537 2.125190258026123 -0.1895640343427658 44
-0.5901455283164978 2.1352291107177734 -0.11371272802352905 44
-0.5891453623771667 2.1330602169036865 -0.0375797376036644 44
-0.5871579647064209 2.1273114681243896 0.5806702375411987 44
-0.5879374742507935 2.1315860748291016 0.5012615919113159 44
-0.5866451263427734 2.128350019454956 0.421309232711792 44
-0.5872043967247009 2.131831169128418 0.34377655386924744 44
-0.5843844413757324 2.1230406761169434 0.2656751573085785 44
-0.5874443650245667 2.1356141567230225 0.1904352903366089 44
-0.5858348608016968 2.1312174797058105 0.11383070051670074 44
-0.5808678269386292 2.114591598510742 0.03760993480682373 44
-0.5354912281036377 1.956084132194519 -0.5331674814224243 119
-0.6001607775688171 2.193817377090454 -0.516262948513031 0
-0.5847749710083008 2.139043092727661 -0.42321592569351196 44
-0.5827223062515259 2.132998466491699 -0.3441561162471771 44
-0.5851647853851318 2.1434099674224854 -0.2681128680706024 44
-0.5790372490882874 2.1224234104156494 -0.18912823498249054 44
-0.5813751816749573 2.1324586868286133 -0.11345191299915314 44
-0.5816959738731384 2.135103702545166 -0.0375797376036644 44
-0.5784598588943481 2.124687671661377 0.5793769955635071 44
-0.5792142152786255 2.1289241313934326 0.5001376867294312 44
-0.5779245495796204 2.125648260116577 0.42035603523254395 44
-0.5784644484519958 2.1291022300720215 0.34299522638320923 44
-0.5756697058677673 2.1202781200408936 0.2650658190250397 44
-0.5799861550331116 2.1376516819000244 0.1904352903366089 44
-0.5770853161811829 2.128429889678955 0.11356901377439499 44
-0.5721756219863892 2.111781358718872 0.03752266988158226 44
-0.537472665309906 1.9905799627304077 -0.5422261357307434 119
-0.5924992561340332 2.19589900970459 -0.516262948513031 0
-0.5760268568992615 2.1363320350646973 -0.42226269841194153 44
-0.5739883780479431 2.130250930786133 -0.3433739244937897 44
-0.576388955116272 2.1406474113464355 -0.2675034999847412 44
-0.5716251134872437 2.124431848526001 -0.18912823498249054 44
-0.5726314187049866 2.129652976989746 -0.11319109797477722 44
-0.5729422569274902 2.132293224334717 -0.03749334439635277 44
-0.5697872638702393 2.1220293045043945 0.5780837535858154 44
-0.5705167055130005 2.126227378845215 0.4990138113498688 44
-0.5692299604415894 2.1229121685028076 0.4194028675556183 44
-0.5710289478302002 2.131108283996582 0.34299522638320923 44
-0.5669813752174377 2.117480754852295 0.26445645093917847 44
-0.571233332157135 2.1348516941070557 0.1899995356798172 44
-0.5683624744415283 2.12560772895813 0.11330734193325043 44
-0.5648006796836853 2.1137654781341553 0.03752266988158226 44
-0.5243075489997864 1.9691089391708374 -0.5357556343078613 119
-0.5823251008987427 2.188537836074829 -0.5140134692192078 0
-0.5673049092292786 2.1335864067077637 -0.42130953073501587 44
-0.5652808547019958 2.127469062805176 -0.3425917625427246 44
-0.5676396489143372 2.137849807739258 -0.2668941617012024 44
-0.5642059445381165 2.1264142990112305 -0.18912823498249054 44
-0.56391441822052 2.126812696456909 -0.1129302978515625 44
-0.564215362071991 2.1294476985931396 -0.037406954914331436 44
-0.5623766183853149 2.1240053176879883 0.5780837535858154 44
-0.5618451237678528 2.1234958171844482 0.4978898763656616 44
-0.5605614185333252 2.120140552520752 0.41844967007637024 44
-0.5623250603675842 2.1283137798309326 0.3422139286994934 44
-0.5583196878433228 2.1146488189697266 0.26384711265563965 44
-0.5637778639793396 2.1368324756622314 0.1899995356798172 44
-0.5596662163734436 2.1227505207061768 0.11304565519094467 44
-0.5561451315879822 2.1108899116516113 0.03743540868163109 44
-0.5272418260574341 2.0082974433898926 -0.5461084246635437 119
-0.5709733963012695 2.176420211791992 -0.5106391906738281 0
-0.5598538517951965 2.1355535984039307 -0.42130953073501587 44
-0.5565996170043945 2.1246519088745117 -0.34180957078933716 44
-0.5601736903190613 2.1398181915283203 -0.2668941617012024 44
-0.5555194020271301 2.123552083969116 -0.18869248032569885 44
-0.556486964225769 2.1287682056427 -0.1129302978515625 44
-0.5555151104927063 2.1265671253204346 -0.037320561707019806 44
-0.5537391304969788 2.1212825775146484 0.5767905116081238 44
-0.554429292678833 2.125444173812866 0.4978898763656616 44
-0.5506812334060669 2.1125855445861816 0.41654327511787415 44
-0.5536474585533142 2.1254844665527344 0.3414326012134552 44
-0.5509347915649414 2.1165847778320312 0.26384711265563965 44
-0.5563154816627502 2.1387875080108643 0.1899995356798172 44
-0.552253007888794 2.1246912479400635 0.11304565519094467 44
-0.5487734079360962 2.112818479537964 0.03743540868163109 44
-0.5153881907463074 1.9914233684539795 -0.5409319996833801 119
-0.5597133040428162 2.164249897003174 -0.5072649121284485 0
-0.5511678457260132 2.1327428817749023 -0.4203563332557678 44
-0.547944962978363 2.121800422668457 -0.3410274386405945 44
-0.551460862159729 2.1369552612304688 -0.2662848234176636 44
-0.5481034517288208 2.1254782676696777 -0.18869248032569885 44
-0.5478067994117737 2.1258621215820312 -0.11266948282718658 44
-0.5468420386314392 2.123652219772339 -0.03723417595028877 44
-0.5463311076164246 2.1232025623321533 0.5767905116081238 44
-0.5457935333251953 2.122648239135742 0.49676600098609924 44
-0.5420821309089661 2.109740972518921 0.4155901074409485 44
-0.5449966788291931 2.1226210594177246 0.34065133333206177 44
-0.5423098206520081 2.113687753677368 0.26323774456977844 44
-0.5488463640213013 2.140716314315796 0.1899995356798172 44
-0.5435939431190491 2.121769428253174 0.11278398334980011 44
-0.5401549935340881 2.1098780632019043 0.037348147481679916 44
-0.5072399377822876 1.9885306358337402 -0.5396379828453064 119
-0.5497485399246216 2.1567485332489014 -0.5050153732299805 0
-0.5425083637237549 2.129897117614746 -0.41940316557884216 44
-0.5405351519584656 2.1237001419067383 -0.3410274386405945 44
-0.543998122215271 2.138867139816284 -0.2662848234176636 44
-0.5394538640975952 2.1225509643554688 -0.18825668096542358 44
-0.5403828024864197 2.1277613639831543 -0.11266948282718658 44
-0.5381960272789001 2.1207022666931152 -0.03714778274297714 44
-0.5377290844917297 2.1204144954681396 0.5754972100257874 44
-0.5383807420730591 2.124540328979492 0.49676600098609924 44
-0.5335095524787903 2.1068620681762695 0.41463690996170044 44
-0.5375840067863464 2.1245105266571045 0.34065133333206177 44
-0.5349283218383789 2.115567922592163 0.26323774456977844 44
-0.5401502847671509 2.1377899646759033 0.18956373631954193 44
-0.5349619388580322 2.118812322616577 0.11252229660749435 44
-0.531563937664032 2.106903314590454 0.037260886281728745 44
-0.5132468938827515 2.0418121814727783 -0.5538730025291443 119
-0.5398430228233337 2.1492042541503906 -0.5027658939361572 0
-0.5338754057884216 2.1270172595977783 -0.41844993829727173 44
-0.5319173336029053 2.120783805847168 -0.34024524688720703 44
-0.5353223085403442 2.135939359664917 -0.26567548513412476 44
-0.5308314561843872 2.119589328765869 -0.1878209114074707 44
-0.531740128993988 2.124791145324707 -0.11240868270397186 44
-0.5295773148536682 2.11771821975708 -0.03706139326095581 44
-0.5291533470153809 2.1175930500030518 0.5742040276527405 44
-0.5297811031341553 2.1216795444488525 0.4956420660018921 44
-0.5249636769294739 2.1039490699768066 0.4136837124824524 44
-0.5289700031280518 2.12158203125 0.33987000584602356 44
-0.5263407230377197 2.112607002258301 0.262628436088562 44
-0.5302781462669373 2.129995584487915 0.18869218230247498 44
-0.5263572335243225 2.115821599960327 0.11226062476634979 44
-0.523000180721283 2.1038942337036133 0.037173621356487274 44
-0.49102309346199036 1.98264741897583 -0.5370497703552246 119
-0.529996931552887 2.1416172981262207 -0.5005163550376892 119
-0.5252692103385925 2.12410306930542 -0.41749680042266846 44
-0.5233264565467834 2.117833137512207 -0.3394630551338196 44
-0.5266735553741455 2.132976770401001 -0.26506611704826355 44
-0.5222362279891968 2.1165931224823 -0.18738512694835663 44
-0.5243199467658997 2.126634359359741 -0.11240868270397186 44
-0.5209859013557434 2.114699602127075 -0.03697500377893448 44
-0.5206037759780884 2.1147372722625732 0.572910726070404 44
-0.5212080478668213 2.1187851428985596 0.4945181906223297 44
-0.516444742679596 2.1010024547576904 0.41273054480552673 44
-0.5203830599784851 2.118619441986084 0.33908867835998535 44
-0.5177801251411438 2.1096115112304688 0.2620190680027008 44
-0.5204669237136841 2.1221582889556885 0.18782062828540802 44
-0.5177799463272095 2.1127963066101074 0.11199893802404404 44
-0.5144640207290649 2.100851535797119 0.0370863638818264 44
-0.47379744052886963 1.9421210289001465 -0.5254029035568237 119
-0.5213642716407776 2.138721227645874 -0.4993916451931 119
-0.5166898369789124 2.12115478515625 -0.416543573141098 44
-0.514762818813324 2.1148488521575928 -0.3386808931827545 44
-0.5180520415306091 2.1299800872802734 -0.26445674896240234 44
-0.5136684775352478 2.113563299179077 -0.18694935739040375 44
-0.5157150626182556 2.1235995292663574 -0.11214786767959595 44
-0.5124222040176392 2.111647129058838 -0.03688861429691315 44
-0.5120806097984314 2.1118478775024414 0.5716174840927124 44
-0.5126616358757019 2.115856409072876 0.49339425563812256 44
-0.5079527497291565 2.0980217456817627 0.4117773175239563 44
-0.512984573841095 2.1204230785369873 0.33908867835998535 44
-0.5104130506515503 2.1114063262939453 0.2620190680027008 44
-0.5118864178657532 2.1191203594207764 0.18738484382629395 44
-0.5092301964759827 2.1097371578216553 0.11173726618289948 44
-0.5047832131385803 2.0929148197174072 0.03691183775663376 44
-0.4704000651836395 1.9578509330749512 -0.5292851328849792 119
-0.5116209387779236 2.1310536861419678 -0.49714213609695435 119
-0.5081375241279602 2.1181728839874268 -0.41559040546417236 44
-0.5062262415885925 2.111830472946167 -0.33789870142936707 44
-0.5094578266143799 2.1269493103027344 -0.2638474106788635 44
-0.5051282048225403 2.110499382019043 -0.18651357293128967 44
-0.5071377754211426 2.120530366897583 -0.11188706010580063 44
-0.5027241706848145 2.103698492050171 -0.03671583533287048 44
-0.5035840272903442 2.1089248657226562 0.5703242421150208 44
-0.5052728056907654 2.117633104324341 0.49339425563812256 44
-0.5006262063980103 2.0997822284698486 0.4117773175239563 44
-0.5044352412223816 2.117396593093872 0.33830738067626953 44
-0.5018905401229858 2.108347177505493 0.261409729719162 44
-0.5021809339523315 2.1112027168273926 0.1865132749080658 44
-0.5007081031799316 2.1066439151763916 0.11147557944059372 44
-0.4963192939758301 2.0897998809814453 0.03682457283139229 44
-0.46912240982055664 1.982980728149414 -0.5357556343078613 119
-0.5030582547187805 2.128085136413574 -0.49601736664772034 119
-0.4996122419834137 2.115156412124634 -0.4146372079849243 44
-0.4988515079021454 2.113584518432617 -0.33789870142936707 44
-0.5008910894393921 2.1238842010498047 -0.2632380723953247 44
-0.4966156780719757 2.1074016094207764 -0.1860778033733368 44
-0.4985882043838501 2.1174275875091553 -0.11162624508142471 44
-0.49423280358314514 2.100574016571045 -0.03662944212555885 44
-0.4951140880584717 2.1059679985046387 0.5690310001373291 44
-0.4967636466026306 2.114640951156616 0.4922703802585602 44
-0.49217188358306885 2.096738576889038 0.41082414984703064 44
-0.4959133267402649 2.1143362522125244 0.3375260531902313 44
-0.49339559674263 2.105254650115967 0.2608003616333008 44
-0.49594417214393616 2.1177926063537598 0.18694907426834106 44
-0.4922138750553131 2.1035172939300537 0.11121390759944916 44
-0.4878833293914795 2.0866518020629883 0.036737315356731415 44
-0.4611022472381592 1.9799025058746338 -0.5344615578651428 119
-0.4934183359146118 2.120337963104248 -0.4937678575515747 119
-0.4922259449958801 2.1168875694274902 -0.4146372079849243 44
-0.4903530776500702 2.1105027198791504 -0.337116539478302 44
-0.49235212802886963 2.12078595161438 -0.2626287341117859 44
-0.4881308674812317 2.1042702198028564 -0.18564200401306152 44
-0.4889390468597412 2.109426498413086 -0.11110462993383408 44
-0.484641432762146 2.092545747756958 -0.03645666316151619 44
-0.48667091131210327 2.102977991104126 0.5677376985549927 44
-0.4882814586162567 2.1116154193878174 0.491146445274353 44
-0.48374494910240173 2.093661308288574 0.4098709523677826 44
-0.48852989077568054 2.1160545349121094 0.3375260531902313 44
-0.48604387044906616 2.106963872909546 0.2608003616333008 44
-0.4874298572540283 2.114657163619995 0.1865132749080658 44
-0.48486825823783875 2.105222463607788 0.11121390759944916 44
-0.4805966317653656 2.0883421897888184 0.036737315356731415 44
-0.4552672803401947 1.9862074851989746 -0.5357556343078613 119
-0.48492637276649475 2.1172988414764404 -0.4926431179046631 119
-0.4837386906147003 2.1138081550598145 -0.4136839807033539 44
-0.4829830527305603 2.112201452255249 -0.337116539478302 44
-0.4838407635688782 2.1176533699035645 -0.2620193660259247 44
-0.4807826280593872 2.105961322784424 -0.18564200401306152 44
-0.48046228289604187 2.1062521934509277 -0.11084382981061935 44
-0.4762231409549713 2.089350461959839 -0.03637027367949486 44
-0.47825467586517334 2.0999550819396973 0.5664445161819458 44
-0.4809075891971588 2.113306999206543 0.491146445274353 44
-0.47643375396728516 2.095337152481079 0.4098709523677826 44
-0.48004645109176636 2.112931251525879 0.3367447555065155 44
-0.47758761048316956 2.1038081645965576 0.26019105315208435 44
-0.480045348405838 2.1163456439971924 0.1865132749080658 44
-0.4764130115509033 2.102032423019409 0.1109522208571434 44
-0.47219333052635193 2.0851328372955322 0.036650050431489944 44
-0.4479844272136688 1.9878627061843872 -0.5357556343078613 119
-0.47609254717826843 2.1143088340759277 -0.4915183484554291 119
-0.47598791122436523 2.1155669689178467 -0.4136839807033539 44
-0.4741549789905548 2.1091392040252686 -0.33633434772491455 44
-0.47498825192451477 2.114570379257202 -0.26141002774238586 44
-0.4719698429107666 2.102849245071411 -0.18520623445510864 44
-0.47164663672447205 2.1031270027160645 -0.11058301478624344 44
-0.46856212615966797 2.0910818576812744 -0.03637027367949486 44
-0.46949946880340576 2.096980333328247 0.5651512145996094 44
-0.4720951020717621 2.1103010177612305 0.49002256989479065 44
-0.46768003702163696 2.0922791957855225 0.40891778469085693 44
-0.4712224006652832 2.109856367111206 0.3359634280204773 44
-0.4687926173210144 2.100700616836548 0.25958168506622314 44
-0.47228536009788513 2.118091106414795 0.1865132749080658 44
-0.4687054753303528 2.103764533996582 0.1109522208571434 44
-0.4645542800426483 2.086848020553589 0.036650050431489944 44
-0.4410427510738373 1.9894144535064697 -0.5357556343078613 119
-0.4676557779312134 2.111201524734497 -0.49039360880851746 119
-0.46753963828086853 2.1124231815338135 -0.4127308130264282 44
-0.4657234847545624 2.10595965385437 -0.3355522155761719 44
-0.4665333926677704 2.1113698482513428 -0.26080068945884705 44
-0.46462664008140564 2.1044838428497314 -0.18520623445510864 44
-0.4643024802207947 2.1047604084014893 -0.11058301478624344 44
-0.46018391847610474 2.087822437286377 -0.03628388047218323 44
-0.4621767997741699 2.0986063480377197 0.5651512145996094 44
-0.46367883682250977 2.107177495956421 0.4888986349105835 44
-0.46037375926971436 2.0938990116119385 0.40891778469085693 44
-0.4627951681613922 2.1066651344299316 0.3351821303367615 44
-0.4603930115699768 2.0974771976470947 0.2589723467826843 44
-0.4638218879699707 2.114861249923706 0.1860775202512741 44
-0.4602902829647064 2.100510358810425 0.11069054901599884 44
-0.4561912417411804 2.0835747718811035 0.03656278923153877 44
-0.43409571051597595 1.9909417629241943 -0.5357556343078613 119
-0.4592463970184326 2.108060598373413 -0.48926883935928345 119
-0.45911911129951477 2.1092464923858643 -0.4117776155471802 44
-0.45836949348449707 2.107572555541992 -0.3355522155761719 44
-0.4591605067253113 2.112985372543335 -0.26080068945884705 44
-0.4572778046131134 2.106092929840088 -0.18520623445510864 44
-0.4558940827846527 2.1014885902404785 -0.11032220721244812 44
-0.4528932571411133 2.089416265487671 -0.03628388047218323 44
-0.4538261890411377 2.095486640930176 0.5638579726219177 44
-0.45529016852378845 2.1040213108062744 0.48777472972869873 44
-0.4520246684551239 2.090695858001709 0.4079645872116089 44
-0.4543958902359009 2.103440523147583 0.33440080285072327 44
-0.45306864380836487 2.099071502685547 0.2589723467826843 44
-0.455386757850647 2.111598253250122 0.18564172089099884 44
-0.45295530557632446 2.1021041870117188 0.11069054901599884 44
-0.44892194867134094 2.085153102874756 0.03656278923153877 44
-0.427143394947052 1.9924448728561401 -0.5357556343078613 119
-0.45086470246315 2.1048872470855713 -0.48814404010772705 119
-0.4517536461353302 2.1108362674713135 -0.4117776155471802 44
-0.44997724890708923 2.104330539703369 -0.3347700238227844 44
-0.4507451355457306 2.109722137451172 -0.2601913511753082 44
-0.45096322894096375 2.1125473976135254 -0.18564200401306152 44
-0.4475141763687134 2.0981838703155518 -0.1100613996386528 44
-0.4455970525741577 2.090984344482422 -0.03628388047218323 44
-0.44550299644470215 2.092334032058716 0.5625647306442261 44
-0.4469292461872101 2.10083270072937 0.48665082454681396 44
-0.4437035620212555 2.0874600410461426 0.4070114195346832 44
-0.4470507502555847 2.105013847351074 0.33440080285072327 44
-0.44470861554145813 2.09578537940979 0.2583629786968231 44
-0.4469801187515259 2.108302593231201 0.18520595133304596 44
-0.4445801377296448 2.098787784576416 0.11042886227369308 44
-0.4416406750679016 2.086707592010498 0.03656278923153877 44
-0.4201858341693878 1.9939237833023071 -0.5357556343078613 119
-0.4425107538700104 2.1016807556152344 -0.4870193302631378 119
-0.44337230920791626 2.1075973510742188 -0.4108244478702545 44
-0.44161322712898254 2.10105562210083 -0.33398786187171936 44
-0.4433780908584595 2.1112825870513916 -0.2601913511753082 44
-0.4435863196849823 2.1141088008880615 -0.18564200401306152 44
-0.439162939786911 2.094846248626709 -0.10980059206485748 44
-0.4372706413269043 2.087634325027466 -0.036197494715452194 44
-0.43819665908813477 2.093876361846924 0.5625647306442261 44
-0.43959322571754456 2.10237979888916 0.48665082454681396 44
-0.4364142417907715 2.088996171951294 0.4070114195346832 44
-0.43869107961654663 2.101727247238159 0.33361950516700745 44
-0.4373902380466461 2.097325086593628 0.2583629786968231 44
-0.4396180510520935 2.1098499298095703 0.18520595133304596 44
-0.4372512698173523 2.1003267765045166 0.11042886227369308 44
-0.43333593010902405 2.0833418369293213 0.0364755280315876 44
-0.4132232069969177 1.9953783750534058 -0.5357556343078613 119
-0.4341847002506256 2.0984418392181396 -0.4858945310115814 119
-0.43501901626586914 2.104325294494629 -0.40987125039100647 44
-0.4342765212059021 2.1025843620300293 -0.33398786187171936 44
-0.4350025951862335 2.107956886291504 -0.259581983089447 44
-0.43519818782806396 2.1107659339904785 -0.18520623445510864 44
-0.4308404326438904 2.0914759635925293 -0.10953977704048157 44
-0.4299807846546173 2.0891478061676025 -0.036197494715452194 44
-0.42991212010383606 2.0906622409820557 0.5612714290618896 44
-0.43127134442329407 2.0991289615631104 0.4855269193649292 44
-0.4281326234340668 2.085698366165161 0.4060581922531128 44
-0.430359810590744 2.098407745361328 0.33283817768096924 44
-0.4290703535079956 2.093977451324463 0.2577536702156067 44
-0.431251585483551 2.106491804122925 0.18477016687393188 44
-0.4289165437221527 2.0969486236572266 0.11016718298196793 44
-0.42606106400489807 2.084841728210449 0.0364755280315876 44
-0.40529265999794006 1.99207603931427 -0.5344615578651428 119
-0.4258866608142853 2.095170497894287 -0.4847698211669922 119
-0.4266940653324127 2.1010210514068604 -0.4089180827140808 44
-0.42595240473747253 2.099247455596924 -0.3332056701183319 44
-0.4276418387889862 2.1094624996185303 -0.259581983089447 44
-0.4278275668621063 2.112272262573242 -0.18520623445510864 44
-0.4225468635559082 2.088073253631592 -0.10927897691726685 44
-0.42169493436813354 2.08573579788208 -0.036111101508140564 44
-0.42165544629096985 2.087415933609009 0.5599782466888428 44
-0.42297759652137756 2.095845937728882 0.4844030439853668 44
-0.4208495616912842 2.0871803760528564 0.4060581922531128 44
-0.42303237318992615 2.0998971462249756 0.33283817768096924 44
-0.42175838351249695 2.0954623222351074 0.2577536702156067 44
-0.4229140281677246 2.1031012535095215 0.184334397315979 44
-0.42159420251846313 2.098433017730713 0.11016718298196793 44
-0.41779717803001404 2.0814149379730225 0.03638826683163643 44
-0.3973901867866516 1.9887425899505615 -0.5331674814224243 119
-0.4176167845726013 2.0918667316436768 -0.4836450219154358 119
-0.419357568025589 2.1024975776672363 -0.4089180827140808 44
-0.41765695810317993 2.0958783626556396 -0.33242350816726685 44
-0.41930684447288513 2.1060755252838135 -0.2589726448059082 44
-0.41948002576828003 2.1088674068450928 -0.18477044999599457 44
-0.4152555763721466 2.0895354747772217 -0.10927897691726685 44
-0.4144117832183838 2.0871951580047607 -0.036111101508140564 44
-0.4134266674518585 2.0841376781463623 0.5586849451065063 44
-0.41471198201179504 2.0925304889678955 0.48327910900115967 44
-0.4126080572605133 2.083822011947632 0.40510502457618713 44
-0.4147413671016693 2.0965163707733154 0.3320569097995758 44
-0.4134790301322937 2.092052936553955 0.2571443021297455 44
-0.4146052598953247 2.099677801132202 0.18389861285686493 44
-0.4133003354072571 2.0949931144714355 0.10990550369024277 44
-0.41052913665771484 2.0828607082366943 0.03638826683163643 44
-0.3895159661769867 1.985378384590149 -0.5318734049797058 119
-0.4103122353553772 2.0933117866516113 -0.4836450219154358 119
-0.41107258200645447 2.0991315841674805 -0.4079648554325104 44
-0.410338431596756 2.0973236560821533 -0.33242350816726685 44
-0.4119527041912079 2.1075265407562256 -0.2589726448059082 44
-0.41116148233413696 2.1054303646087646 -0.1843346804380417 44
-0.4070029556751251 2.086071252822876 -0.10901816189289093 44
-0.4061671197414398 2.0837221145629883 -0.03602471202611923 44
-0.40614914894104004 2.0855681896209717 0.5586849451065063 44
-0.40740516781806946 2.093965530395508 0.48327910900115967 44
-0.40533167123794556 2.085249662399292 0.40510502457618713 44
-0.4064791798591614 2.0931031703948975 0.3312755823135376 44
-0.40522870421409607 2.0886118412017822 0.25653496384620667 44
-0.40632563829421997 2.096222400665283 0.18346284329891205 44
-0.40598490834236145 2.0964231491088867 0.10990550369024277 44
-0.4023064374923706 2.0793724060058594 0.03630100190639496 44
-0.3825833201408386 1.986725926399231 -0.5318734049797058 119
-0.40208229422569275 2.08994722366333 -0.48252031207084656 119
-0.4028162956237793 2.095733880996704 -0.4070116877555847 44
-0.4020835757255554 2.093893051147461 -0.3316413164138794 44
-0.4036584794521332 2.1040775775909424 -0.258363276720047 44
-0.40380966663360596 2.1068525314331055 -0.1843346804380417 44
-0.3997187614440918 2.08747935295105 -0.10901816189289093 44
-0.39795175194740295 2.080216884613037 -0.0359383225440979 44
-0.39796000719070435 2.0822291374206543 0.5573917031288147 44
-0.399179607629776 2.0905890464782715 0.4821552336215973 44
-0.39713054895401 2.0818300247192383 0.4041518270969391 44
-0.3982458710670471 2.089658260345459 0.3304942846298218 44
-0.39700737595558167 2.0851383209228516 0.25592559576034546 44
-0.3990059792995453 2.097628116607666 0.18346284329891205 44
-0.39773234724998474 2.0929219722747803 0.10964382439851761 44
-0.3950456380844116 2.080764055252075 0.03630100190639496 44
-0.3747492730617523 1.9833035469055176 -0.5305792689323425 119
-0.3938808739185333 2.086550712585449 -0.48139551281929016 119
-0.3954983651638031 2.0971271991729736 -0.4070116877555847 44
-0.3947720527648926 2.0952839851379395 -0.3316413164138794 44
-0.3963114321231842 2.105473756790161 -0.258363276720047 44
-0.39553236961364746 2.1033542156219482 -0.1838988959789276 44
-0.3915077745914459 2.0839548110961914 -0.10875736176967621 44
-0.39068803191185 2.0815932750701904 -0.0359383225440979 44
-0.3906892240047455 2.0836055278778076 0.5573917031288147 44
-0.3918796479701996 2.0919697284698486 0.4821552336215973 44
-0.38986119627952576 2.0832035541534424 0.4041518270969391 44
-0.39094918966293335 2.091035842895508 0.3304942846298218 44
-0.3897264301776886 2.0865116119384766 0.25592559576034546 44
-0.39076778292655945 2.094111442565918 0.18302705883979797 44
-0.39042428135871887 2.0942976474761963 0.10964382439851761 44
-0.38686472177505493 2.0772159099578857 0.036213744431734085 44
-0.367823988199234 1.9845995903015137 -0.5305792689323425 119
-0.38659507036209106 2.0879127979278564 -0.48139551281929016 119
-0.3872828483581543 2.0936684608459473 -0.40605849027633667 44
-0.3865583837032318 2.0917930603027344 -0.3308591842651367 44
-0.38895952701568604 2.106844186782837 -0.258363276720047 44
-0.38728445768356323 2.0998237133026123 -0.18346312642097473 44
