# .PCD v0.7 - Point Cloud Data file format
VERSION 0.7
FIELDS x y z intensity
SIZE 4 4 4 4
TYPE F F F F
COUNT 1 1 1 1
WIDTH 789
HEIGHT 1
VIEWPOINT 0 0 0 1 0 0 0
POINTS 789
DATA ascii
0.7786021828651428 1.8333827257156372 -0.45102712512016296 0
0.7788800597190857 1.833147644996643 -0.37936922907829285 44
0.7819608449935913 1.8395063877105713 -0.3105226755142212 44
0.7879981398582458 1.852810263633728 -0.242520272731781 44
0.7755624651908875 1.8226871490478516 -0.16995395720005035 44
0.7797030806541443 1.8315309286117554 -0.10197632014751434 44
0.773115336894989 1.8151772022247314 -0.03343300521373749 44
0.7837068438529968 1.8391542434692383 0.5250604152679443 44
0.7811922430992126 1.8323662281036377 0.45068585872650146 44
0.781438946723938 1.8320585489273071 0.37936896085739136 44
0.7826113700866699 1.8339202404022217 0.309398889541626 44
0.7730463743209839 1.8106309175491333 0.2370358556509018 44
0.7878897190093994 1.8445054292678833 0.17213258147239685 44
0.7842148542404175 1.8350155353546143 0.10257846862077713 44
0.7736813426017761 1.809493899345398 0.03368314355611801 44
0.7742027640342712 1.8063510656356812 -0.5163442492485046 119
0.7869172096252441 1.8351314067840576 -0.452151894569397 0
0.7852742075920105 1.8304177522659302 -0.37936922907829285 44
0.7883771657943726 1.8367656469345093 -0.3105226755142212 44
0.7964190244674683 1.8546085357666016 -0.24312961101531982 44
0.7838862538337708 1.8245452642440796 -0.17038974165916443 44
0.7860915660858154 1.8287980556488037 -0.10197632014751434 44
0.7794467806816101 1.8124674558639526 -0.03343300521373749 44
0.7901219129562378 1.8364074230194092 0.5250604152679443 44
0.7875836491584778 1.8296282291412354 0.45068585872650146 44
0.7878292202949524 1.8293195962905884 0.37936896085739136 44
0.7890082001686096 1.8311773538589478 0.309398889541626 44
0.7793620228767395 1.8079215288162231 0.2370358556509018 44
0.7943235039710999 1.8417439460754395 0.17213258147239685 44
0.790615439414978 1.8322668075561523 0.10257846862077713 44
0.779992938041687 1.8067821264266968 0.03368314355611801 44
0.7827370762825012 1.8079333305358887 -0.5176383256912231 119
0.7936380505561829 1.8322348594665527 -0.452151894569397 0
0.7919778227806091 1.8275272846221924 -0.37936922907829285 44
0.7951039671897888 1.8338637351989746 -0.3105226755142212 44
0.8032112121582031 1.8516770601272583 -0.24312961101531982 44
0.7905682921409607 1.8216599225997925 -0.17038974165916443 44
0.7927891612052917 1.8259046077728271 -0.10197632014751434 44
0.7860845923423767 1.809598445892334 -0.03343300521373749 44
0.796847403049469 1.8334991931915283 0.5250604152679443 44
0.7942842841148376 1.826729416847229 0.45068585872650146 44
0.7945287227630615 1.8264198303222656 0.37936896085739136 44
0.7957144379615784 1.8282731771469116 0.309398889541626 44
0.7879643440246582 1.8096028566360474 0.2376452088356018 44
0.8010684847831726 1.8388203382492065 0.17213258147239685 44
0.7973257303237915 1.8293569087982178 0.10257846862077713 44
0.7866098880767822 1.8039112091064453 0.03368314355611801 44
0.789043128490448 1.805190086364746 -0.5176383256912231 119
0.8000288605690002 1.829453468322754 -0.452151894569397 0
0.7983522415161133 1.824751615524292 -0.37936922907829285 44
0.8034807443618774 1.8356012105941772 -0.31130483746528625 44
0.8096698522567749 1.8488620519638062 -0.24312961101531982 44
0.7969222664833069 1.8188892602920532 -0.17038974165916443 44
0.8011625409126282 1.8276993036270142 -0.10223712772130966 44
0.7923964262008667 1.8068435192108154 -0.03343300521373749 44
0.8032426238059998 1.8307064771652222 0.5250604152679443 44
0.8006559014320374 1.8239456415176392 0.45068585872650146 44
0.8008993268013 1.8236353397369385 0.37936896085739136 44
0.8020914793014526 1.8254843950271606 0.309398889541626 44
0.794276237487793 1.8068413734436035 0.2376452088356018 44
0.8074822425842285 1.836012840270996 0.17213258147239685 44
0.8037065267562866 1.826562523841858 0.10257846862077713 44
0.7929080128669739 1.8011517524719238 0.03368314355611801 44
0.7953396439552307 1.8024247884750366 -0.5176383256912231 119
0.806410014629364 1.8266496658325195 -0.452151894569397 119
0.8066999912261963 1.8264436721801758 -0.3803223967552185 44
0.8098832964897156 1.8327852487564087 -0.31130483746528625 44
0.8161186575889587 1.846024513244629 -0.24312961101531982 44
0.8032664656639099 1.816096305847168 -0.17038974165916443 44
0.8075374960899353 1.8248915672302246 -0.10223712772130966 44
0.7986986637115479 1.80406653881073 -0.03343300521373749 44
0.8115840554237366 1.8323074579238892 0.526353657245636 44
0.8089916706085205 1.8255940675735474 0.4518097937107086 44
0.8092494606971741 1.8253155946731567 0.380322128534317 44
0.8084587454795837 1.8226734399795532 0.309398889541626 44
0.8005784749984741 1.8040578365325928 0.2376452088356018 44
0.8159074187278748 1.8377354145050049 0.17256836593151093 44
0.8100774884223938 1.823745846748352 0.10257846862077713 44
0.7991843223571777 1.7983757257461548 0.03368314355611801 44
0.8016263842582703 1.7996375560760498 -0.5176383256912231 119
0.8127812743186951 1.8238235712051392 -0.452151894569397 119
0.8130705952644348 1.823616623878479 -0.3803223967552185 44
0.816275954246521 1.8299472332000732 -0.31130483746528625 44
0.8225575089454651 1.8431644439697266 -0.24312961101531982 44
0.8096009492874146 1.8132814168930054 -0.17038974165916443 44
0.8139026761054993 1.8220616579055786 -0.10223712772130966 44
0.8049912452697754 1.8012675046920776 -0.03343300521373749 44
0.8179750442504883 1.829463243484497 0.526353657245636 44
0.8153592348098755 1.8227590322494507 0.4518097937107086 44
0.8156160712242126 1.8224797248840332 0.380322128534317 44
0.8168343305587769 1.8243478536605835 0.3101802170276642 44
0.8088997602462769 1.805781364440918 0.23825454711914062 44
0.8223173022270203 1.834876298904419 0.17256836593151093 44
0.8184813857078552 1.8254631757736206 0.10284014791250229 44
0.8054569363594055 1.7955751419067383 0.03368314355611801 44
0.8098839521408081 1.801233172416687 -0.5189324021339417 119
0.8191426992416382 1.8209753036499023 -0.452151894569397 119
0.8194311857223511 1.8207674026489258 -0.3803223967552185 44
0.8246861696243286 1.831589698791504 -0.3120870292186737 44
0.8310245871543884 1.8448067903518677 -0.24373896420001984 44
0.8159255981445312 1.8104443550109863 -0.17038974165916443 44
0.8202579021453857 1.8192094564437866 -0.10223712772130966 44
0.8112738728523254 1.798446536064148 -0.03343300521373749 44
0.8243560791015625 1.8265968561172485 0.526353657245636 44
0.8237217664718628 1.8243420124053955 0.452933669090271 44
0.8219727277755737 1.8196215629577637 0.380322128534317 44
0.8231974840164185 1.8214855194091797 0.3101802170276642 44
0.8151982426643372 1.8029468059539795 0.23825454711914062 44
0.8307702541351318 1.8365330696105957 0.173004150390625 44
0.824848473072052 1.8225951194763184 0.10284014791250229 44
0.81378173828125 1.797306776046753 0.03377040475606918 44
0.8161664605140686 1.7983951568603516 -0.5189324021339417 119
0.8194516897201538 1.8047969341278076 -0.44877761602401733 119
0.8257818818092346 1.8178958892822266 -0.3803223967552185 44
0.8310746550559998 1.8286998271942139 -0.3120870292186737 44
0.8374590873718262 1.8418947458267212 -0.24373896420001984 44
0.8222402334213257 1.8075851202011108 -0.17038974165916443 44
0.828671395778656 1.8208798170089722 -0.10249793529510498 44
0.819618284702301 1.8001536130905151 -0.03351939469575882 44
0.8307271003723145 1.8237082958221436 0.526353657245636 44
0.8300849199295044 1.821455717086792 0.452933669090271 44
0.8303556442260742 1.8212072849273682 0.38127532601356506 44
0.8295506834983826 1.8186008930206299 0.3101802170276642 44
0.8235470652580261 1.8046050071716309 0.23886390030384064 44
0.8371758460998535 1.8336219787597656 0.173004150390625 44
0.8312055468559265 1.8197046518325806 0.10284014791250229 44
0.8200505971908569 1.7944551706314087 0.03377040475606918 44
0.8204278945922852 1.7911444902420044 -0.5176383256912231 119
0.8298057913780212 1.8107832670211792 -0.45102712512016296 119
0.8341680765151978 1.8194639682769775 -0.38127559423446655 44
0.8374529480934143 1.8257876634597778 -0.3120870292186737 44
0.8459532260894775 1.843470573425293 -0.24434830248355865 44
0.8285448551177979 1.804703950881958 -0.17038974165916443 44
0.8350223898887634 1.8179761171340942 -0.10249793529510498 44
0.8258969783782959 1.7972816228866577 -0.03351939469575882 44
0.839105486869812 1.825185775756836 0.5276468992233276 44
0.8384738564491272 1.8229734897613525 0.45405760407447815 44
0.8367077708244324 1.8182977437973022 0.38127532601356506 44
0.8379589319229126 1.820180058479309 0.31096151471138 44
0.8298413157463074 1.801719307899475 0.23886390030384064 44
0.8435713052749634 1.8306884765625 0.173004150390625 44
0.8375523686408997 1.8167921304702759 0.10284014791250229 44
0.8263093829154968 1.7915817499160767 0.03377040475606918 44
0.8266751766204834 1.7882697582244873 -0.5176383256912231 119
0.8545270562171936 1.8476723432540894 -0.4611499309539795 0
0.8405141234397888 1.8165411949157715 -0.38127559423446655 44
0.8438210487365723 1.8228533267974854 -0.3120870292186737 44
0.8523829579353333 1.8405064344406128 -0.24434830248355865 44
0.8369334936141968 1.806320309638977 -0.1708255112171173 44
0.8413631916046143 1.8150503635406494 -0.10249793529510498 44
0.8342689275741577 1.798923134803772 -0.03360578790307045 44
0.8454715013504028 1.822245717048645 0.5276468992233276 44
0.8448321223258972 1.820035457611084 0.45405760407447815 44
0.8430497050285339 1.8153659105300903 0.38127532601356506 44
0.8443074226379395 1.8172439336776733 0.31096151471138 44
0.8382171988487244 1.803311824798584 0.23947323858737946 44
0.8499564528465271 1.8277326822280884 0.173004150390625 44
0.8459953665733337 1.8183846473693848 0.10310182720422745 44
0.8346678018569946 1.7932188510894775 0.033857665956020355 44
0.8329123854637146 1.7853732109069824 -0.5176383256912231 119
0.8795157074928284 1.8844103813171387 -0.4712727665901184 0
0.8489264845848083 1.8180434703826904 -0.3822287619113922 44
0.8522689938545227 1.824371099472046 -0.31286919116973877 44
0.8609036803245544 1.8420159816741943 -0.24495765566825867 44
0.843233585357666 1.8033878803253174 -0.1708255112171173 44
0.8476938009262085 1.8121023178100586 -0.10249793529510498 44
0.840543270111084 1.7960000038146973 -0.03360578790307045 44
0.8518271446228027 1.8192832469940186 0.5276468992233276 44
0.8511800765991211 1.8170753717422485 0.45405760407447815 44
0.8514642119407654 1.8168565034866333 0.3822284936904907 44
0.8506456613540649 1.8142856359481812 0.31096151471138 44
0.8445068001747131 1.8003751039505005 0.23947323858737946 44
0.8563312292098999 1.8247545957565308 0.173004150390625 44
0.8523375391960144 1.8154206275939941 0.10310182720422745 44
0.8409221768379211 1.7902944087982178 0.033857665956020355 44
0.8391394019126892 1.7824549674987793 -0.5176383256912231 119
0.8840122818946838 1.87692129611969 -0.470147967338562 0
0.8552675247192383 1.8150689601898193 -0.3822287619113922 44
0.8586320877075195 1.8213849067687988 -0.31286919116973877 44
0.8673282265663147 1.838999629020691 -0.24495765566825867 44
0.8495234847068787 1.8004335165023804 -0.1708255112171173 44
0.8540140390396118 1.8091323375701904 -0.10249793529510498 44
0.8468073606491089 1.7930550575256348 -0.03360578790307045 44
0.8602356910705566 1.8206655979156494 0.5289401412010193 44
0.857517659664154 1.8140931129455566 0.45405760407447815 44
0.8578010201454163 1.8138731718063354 0.3822284936904907 44
0.8569734692573547 1.811305284500122 0.31096151471138 44
0.8507862091064453 1.7974162101745605 0.23947323858737946 44
0.8626956343650818 1.8217543363571167 0.173004150390625 44
0.8586694002151489 1.812434196472168 0.10310182720422745 44
0.8471664190292358 1.7873480319976807 0.033857665956020355 44
0.8453561663627625 1.7795149087905884 -0.5176383256912231 119
0.8905585408210754 1.873824119567871 -0.470147967338562 0
0.8637058138847351 1.8165054321289062 -0.38318195939064026 44
0.8649846911430359 1.8183765411376953 -0.31286919116973877 44
0.8737422823905945 1.8359607458114624 -0.24495765566825867 44
0.8579441905021667 1.8019542694091797 -0.17126129567623138 44
0.8603238463401794 1.8061403036117554 -0.10249793529510498 44
0.8530611395835876 1.790088176727295 -0.03360578790307045 44
0.8665857911109924 1.8176517486572266 0.5289401412010193 44
0.8638448119163513 1.8110888004302979 0.45405760407447815 44
0.8641273975372314 1.8108679056167603 0.3822284936904907 44
0.8632909655570984 1.808302879333496 0.31096151471138 44
0.857055127620697 1.7944353818893433 0.23947323858737946 44
0.8711969256401062 1.8232260942459106 0.17343993484973907 44
0.8649907112121582 1.8094258308410645 0.10310182720422745 44
0.8555571436882019 1.78889000415802 0.03394492715597153 44
0.8515627384185791 1.7765531539916992 -0.5176383256912231 119
0.8970939517021179 1.870704174041748 -0.470147967338562 0
0.8700413107872009 1.8134794235229492 -0.38318195939064026 44
0.8734636306762695 1.819798231124878 -0.31365135312080383 44
0.8822938203811646 1.8373732566833496 -0.24556699395179749 44
0.8642289042472839 1.7989485263824463 -0.17126129567623138 44
0.8687862753868103 1.807626485824585 -0.1027587428689003 44
0.8614709377288818 1.791604995727539 -0.03369217738509178 44
0.8750190734863281 1.8189681768417358 0.5302334427833557 44
0.8701614141464233 1.8080624341964722 0.45405760407447815 44
0.8704432845115662 1.8078405857086182 0.3822284936904907 44
0.8717410564422607 1.809727668762207 0.3117428421974182 44
0.8633136749267578 1.7914327383041382 0.23947323858737946 44
0.8775558471679688 1.820173978805542 0.17343993484973907 44
0.8734707236289978 1.8108928203582764 0.1033635064959526 44
0.8617963194847107 1.7858926057815552 0.03394492715597153 44
0.8577588200569153 1.773569941520691 -0.5176383256912231 119
0.9036185145378113 1.8675613403320312 -0.470147967338562 0
0.8763662576675415 1.8104313611984253 -0.38318195939064026 44
0.8798105716705322 1.816738247871399 -0.31365135312080383 44
0.8887020349502563 1.8342822790145874 -0.24556699395179749 44
0.8705031275749207 1.7959208488464355 -0.17126129567623138 44
0.8750907182693481 1.8045828342437744 -0.1027587428689003 44
0.8677195310592651 1.788586974143982 -0.03369217738509178 44
0.8813630938529968 1.815902829170227 0.5302334427833557 44
0.8785954117774963 1.809396505355835 0.4551814794540405 44
0.878893256187439 1.8092061281204224 0.38318169116973877 44
0.8780528903007507 1.8066737651824951 0.3117428421974182 44
0.8695616722106934 1.7884083986282349 0.23947323858737946 44
0.8839040994644165 1.8170995712280273 0.17343993484973907 44
0.8797865509986877 1.8078327178955078 0.1033635064959526 44
0.868025004863739 1.782873511314392 0.03394492715597153 44
0.8660624623298645 1.7749053239822388 -0.5189324021339417 119
0.9101319909095764 1.8643957376480103 -0.470147967338562 0
0.8826804757118225 1.807361364364624 -0.38318195939064026 44
0.8861467838287354 1.8136560916900635 -0.31365135312080383 44
0.8950994610786438 1.8311690092086792 -0.24556699395179749 44
0.8767668008804321 1.792871356010437 -0.17126129567623138 44
0.8835789561271667 1.8060023784637451 -0.10301955044269562 44
0.8739575743675232 1.7855472564697266 -0.03369217738509178 44
0.8898205757141113 1.817152976989746 0.5315266847610474 44
0.8849060535430908 1.8063185214996338 0.4551814794540405 44
0.8852031826972961 1.8061271905899048 0.38318169116973877 44
0.8865281939506531 1.8080320358276367 0.31252413988113403 44
0.8757991194725037 1.7853621244430542 0.23947323858737946 44
0.8924360871315002 1.8184747695922852 0.17387570440769196 44
0.8882923722267151 1.8092328310012817 0.10362518578767776 44
0.8764471411705017 1.7843198776245117 0.0340321883559227 44
0.8725619316101074 1.7717190980911255 -0.5189324021339417 119
0.916959285736084 1.861047387123108 -0.470147967338562 0
0.8892989158630371 1.8041138648986816 -0.38318195939064026 44
0.8949724435806274 1.8148252964019775 -0.3144335448741913 44
0.90180504322052 1.8278759717941284 -0.24556699395179749 44
0.8855367302894592 1.794112205505371 -0.17169708013534546 44
0.8901923298835754 1.8027517795562744 -0.10301955044269562 44
0.8827102780342102 1.7868140935897827 -0.03377856686711311 44
0.8964748382568359 1.813879370689392 0.5315266847610474 44
0.8936801552772522 1.807430624961853 0.4563054144382477 44
0.8918170928955078 1.8028706312179565 0.38318169116973877 44
0.8931490182876587 1.804770588874817 0.31252413988113403 44
0.8823369145393372 1.7821401357650757 0.23947323858737946 44
0.8990951180458069 1.815191626548767 0.17387570440769196 44
0.8949175477027893 1.8059649467468262 0.10362518578767776 44
0.8829811811447144 1.7810955047607422 0.0340321883559227 44
0.8787410855293274 1.7686625719070435 -0.5189324021339417 119
0.9234499335289001 1.857835292816162 -0.470147967338562 0
0.8977763652801514 1.8053934574127197 -0.3841351270675659 44
0.9013019800186157 1.811690092086792 -0.3144335448741913 44
0.9081800580024719 1.8247169256210327 -0.24556699395179749 44
0.8917939066886902 1.7910103797912598 -0.17169708013534546 44
0.8987060785293579 1.8041027784347534 -0.10328036546707153 44
0.8911718726158142 1.788196325302124 -0.033864956349134445 44
0.902800977230072 1.8107391595840454 0.5315266847610474 44
0.899983823299408 1.80430006980896 0.4563054144382477 44
0.8981048464775085 1.7997466325759888 0.38318169116973877 44
0.9016492962837219 1.8060603141784668 0.31330543756484985 44
0.8885523080825806 1.7790493965148926 0.23947323858737946 44
0.9054258465766907 1.8120421171188354 0.17387570440769196 44
0.903448760509491 1.8072962760925293 0.10388687252998352 44
0.8914350271224976 1.782470703125 0.03411945328116417 44
0.884601354598999 1.7657387256622314 -0.5189324021339417 119
0.9292819499969482 1.8549249172210693 -0.470147967338562 0
0.9034436941146851 1.802564024925232 -0.3841351270675659 44
0.9069890975952148 1.808849573135376 -0.3144335448741913 44
0.9161333441734314 1.8262908458709717 -0.2461763471364975 44
0.8996502757072449 1.7926515340805054 -0.17213284969329834 44
0.9043693542480469 1.8012704849243164 -0.10328036546707153 44
0.896785318851471 1.7853878736495972 -0.033864956349134445 44
0.9106537103652954 1.8122094869613647 0.532819926738739 44
0.9078360199928284 1.805816650390625 0.45742928981781006 44
0.903754472732544 1.7969162464141846 0.38318169116973877 44
0.9073187112808228 1.8032188415527344 0.31330543756484985 44
0.8941369652748108 1.7762490510940552 0.23947323858737946 44
0.9133543968200684 1.813637375831604 0.17431148886680603 44
0.9091220498085022 1.8044490814208984 0.10388687252998352 44
0.8970244526863098 1.779664397239685 0.03411945328116417 44
0.8904519081115723 1.7627956867218018 -0.5189324021339417 119
0.93794846534729 1.8560179471969604 -0.4712727665901184 0
0.9119449853897095 1.80377995967865 -0.38508835434913635 44
0.9155265092849731 1.8100793361663818 -0.31521567702293396 44
0.9225026965141296 1.8230817317962646 -0.2461763471364975 44
0.9059023261070251 1.7895002365112305 -0.17213284969329834 44
0.910651445388794 1.798102617263794 -0.10328036546707153 44
0.9030119776725769 1.7822465896606445 -0.033864956349134445 44
0.9169739484786987 1.8090195655822754 0.532819926738739 44
0.9141339659690857 1.8026366233825684 0.45742928981781006 44
0.9122419357299805 1.7981276512145996 0.38413485884666443 44
0.9136075973510742 1.8000407218933105 0.31330543756484985 44
0.9025787115097046 1.777542233467102 0.24008259177207947 44
0.9196796417236328 1.8104380369186401 0.17431148886680603 44
0.9176774024963379 1.8057160377502441 0.10414855182170868 44
0.9054968953132629 1.7809786796569824 0.03420671448111534 44
0.8972139358520508 1.7593635320663452 -0.5189324021339417 119
0.9450681805610657 1.852402925491333 -0.4712727665901184 0
0.9188642501831055 1.8002650737762451 -0.38508835434913635 44
0.922469973564148 1.8065506219863892 -0.31521567702293396 44
0.9294959902763367 1.8195260763168335 -0.2461763471364975 44
0.9150335788726807 1.7904438972473145 -0.17256863415241241 44
0.9198220372200012 1.7990386486053467 -0.10354118049144745 44
0.912125289440155 1.783216953277588 -0.03395134583115578 44
0.923913300037384 1.8054853677749634 0.532819926738739 44
0.9210488200187683 1.799113392829895 0.45742928981781006 44
0.9191395044326782 1.7946116924285889 0.38413485884666443 44
0.9227645993232727 1.8009148836135864 0.31408676505088806 44
0.909397304058075 1.7740634679794312 0.24008259177207947 44
0.9288972616195679 1.8113253116607666 0.1747472584247589 44
0.9246041178703308 1.802179217338562 0.10414855182170868 44
0.9123287200927734 1.7774887084960938 0.03420671448111534 44
0.9033498167991638 1.756221055984497 -0.5189324021339417 119
0.9537577033042908 1.8534245491027832 -0.47239747643470764 0
0.9273893237113953 1.801410436630249 -0.386041522026062 44
0.9287704229354858 1.8033196926116943 -0.31521567702293396 44
0.9381147027015686 1.8206820487976074 -0.24678568542003632 44
0.9212778210639954 1.7872389554977417 -0.17256863415241241 44
0.9260962605476379 1.7958168983459473 -0.10354118049144745 44
0.9183443188667297 1.7800222635269165 -0.03395134583115578 44
0.9324252009391785 1.8065412044525146 0.5341131687164307 44
0.9295586347579956 1.8002164363861084 0.4585532248020172 44
0.927651047706604 1.7957532405853271 0.38508808612823486 44
0.9290453791618347 1.797682762145996 0.31408676505088806 44
0.9178636074066162 1.7752865552902222 0.2406919300556183 44
0.9352142810821533 1.8080718517303467 0.1747472584247589 44
0.9308892488479614 1.798940658569336 0.10414855182170868 44
0.9185336828231812 1.7742902040481567 0.03420671448111534 44
0.9094746708869934 1.7530570030212402 -0.5189324021339417 119
0.9624658226966858 1.8544082641601562 -0.47352227568626404 0
0.9336718320846558 1.7981623411178589 -0.386041522026062 44
0.9350594878196716 1.8000667095184326 -0.31521567702293396 44
0.944464385509491 1.8173962831497192 -0.24678568542003632 44
0.9275107979774475 1.7840121984481812 -0.17256863415241241 44
0.9346632957458496 1.797003149986267 -0.10380198806524277 44
0.9268597960472107 1.7812405824661255 -0.03403773531317711 44
0.9387255311012268 1.803275465965271 0.5341131687164307 44
0.9358368515968323 1.796960711479187 0.4585532248020172 44
0.9339137673377991 1.7925041913986206 0.38508808612823486 44
0.9375973343849182 1.7988080978393555 0.3148680627346039 44
0.9240549206733704 1.7720718383789062 0.2406919300556183 44
0.9438237547874451 1.809212565422058 0.17518304288387299 44
0.9371630549430847 1.7956804037094116 0.10414855182170868 44
0.9247155785560608 1.7710763216018677 0.03420671448111534 44
0.9155884385108948 1.7498717308044434 -0.5189324021339417 119
0.9711924195289612 1.855353593826294 -0.47464698553085327 0
0.9399428963661194 1.7948923110961914 -0.386041522026062 44
0.9436290264129639 1.8011661767959595 -0.3159978687763214 44
0.9508025050163269 1.8140884637832642 -0.24678568542003632 44
0.9337325096130371 1.7807637453079224 -0.17256863415241241 44
0.9409302473068237 1.793729543685913 -0.10380198806524277 44
0.9330718517303467 1.7779943943023682 -0.03403773531317711 44
0.9472594857215881 1.804263949394226 0.5354064106941223 44
0.9443691968917847 1.7979962825775146 0.4596771001815796 44
0.9424481391906738 1.7935782670974731 0.3860412538051605 44
0.9438706636428833 1.7955243587493896 0.3148680627346039 44
0.9325449466705322 1.7732279300689697 0.2413012832403183 44
0.9501333832740784 1.8059070110321045 0.17518304288387299 44
0.9457510709762573 1.7968164682388306 0.10441023111343384 44
0.9332213997840881 1.7722610235214233 0.03429397568106651 44
0.9239450693130493 1.750936508178711 -0.5202265381813049 119
0.9799373149871826 1.8562605381011963 -0.47577178478240967 0
0.9484947323799133 1.795940637588501 -0.38699471950531006 44
0.9499104619026184 1.7978613376617432 -0.3159978687763214 44
0.9594482779502869 1.8151462078094482 -0.24739503860473633 44
0.9399428963661194 1.7774934768676758 -0.17256863415241241 44
0.9495207071304321 1.794847846031189 -0.10406279563903809 44
0.9392725229263306 1.7747265100479126 -0.03403773531317711 44
0.9535518288612366 1.8009464740753174 0.5354064106941223 44
0.9506396055221558 1.7946888208389282 0.4596771001815796 44
0.9487031698226929 1.7902776002883911 0.3860412538051605 44
0.9524456858634949 1.7965819835662842 0.3156493902206421 44
0.9387289881706238 1.7699618339538574 0.2413012832403183 44
0.9564313888549805 1.802579402923584 0.17518304288387299 44
0.9520173668861389 1.793504238128662 0.10441023111343384 44
0.9394020438194275 1.7689926624298096 0.03429397568106651 44
0.9300513863563538 1.7477006912231445 -0.5202265381813049 119
0.9887003898620605 1.8571289777755737 -0.4768964946269989 0
0.9547579884529114 1.7926188707351685 -0.38699471950531006 44
0.9561803936958313 1.7945345640182495 -0.3159978687763214 44
0.9657784700393677 1.8117859363555908 -0.24739503860473633 44
0.9461417198181152 1.7742016315460205 -0.17256863415241241 44
0.9557802081108093 1.79152250289917 -0.10406279563903809 44
0.9478155970573425 1.775847315788269 -0.03412412852048874 44
0.9621074199676514 1.8018674850463867 0.5366997122764587 44
0.9591941237449646 1.7956570386886597 0.46080103516578674 44
0.9572600722312927 1.7912840843200684 0.38699445128440857 44
0.9587111473083496 1.7932463884353638 0.3156493902206421 44
0.9472422003746033 1.7710505723953247 0.2419106364250183 44
0.9650676846504211 1.803621768951416 0.17561881244182587 44
0.9606285095214844 1.794572353363037 0.104671910405159 44
0.9455713033676147 1.765702724456787 0.03429397568106651 44
0.9361463189125061 1.7444435358047485 -0.5202265381813049 119
0.9951769709587097 1.8536664247512817 -0.4768964946269989 0
0.963331937789917 1.7935991287231445 -0.3879478871822357 44
0.9647760987281799 1.7955361604690552 -0.3167800307273865 44
0.9720969200134277 1.808403730392456 -0.24739503860473633 44
0.954688310623169 1.7752752304077148 -0.1730044186115265 44
0.962027907371521 1.7881752252578735 -0.10406279563903809 44
0.9540087580680847 1.772528052330017 -0.03412412852048874 44
0.9683911800384521 1.7984981536865234 0.5366997122764587 44
0.9654562473297119 1.7922978401184082 0.46080103516578674 44
0.9635069966316223 1.7879316806793213 0.38699445128440857 44
0.9649648666381836 1.7898889780044556 0.3156493902206421 44
0.9534185528755188 1.7677332162857056 0.2419106364250183 44
0.9713576436042786 1.8002420663833618 0.17561881244182587 44
0.9668869376182556 1.7912081480026245 0.104671910405159 44
0.9517289996147156 1.7623913288116455 0.03429397568106651 44
0.9399312138557434 1.736917495727539 -0.5189324021339417 119
1.0039607286453247 1.8544656038284302 -0.4780212938785553 0
0.9695869088172913 1.790225625038147 -0.3879478871822357 44
0.9710378050804138 1.792157530784607 -0.3167800307273865 44
0.9784035086631775 1.8049994707107544 -0.24739503860473633 44
0.960879385471344 1.7719320058822632 -0.1730044186115265 44
0.9706449508666992 1.78919517993927 -0.1043236032128334 44
0.9601901769638062 1.769187092781067 -0.03412412852048874 44
0.974663257598877 1.7951068878173828 0.5366997122764587 44
0.9740322232246399 1.7931982278823853 0.4619249403476715 44
0.9697421193122864 1.784557580947876 0.38699445128440857 44
0.9712069034576416 1.7865097522735596 0.3156493902206421 44
0.9595832824707031 1.7643945217132568 0.2419106364250183 44
0.9776357412338257 1.7968404293060303 0.17561881244182587 44
0.9755205512046814 1.7922077178955078 0.10493358224630356 44
0.9602658152580261 1.76344895362854 0.034381236881017685 44
0.9459884762763977 1.7336260080337524 -0.5189324021339417 119
1.0104279518127441 1.8509498834609985 -0.4780212938785553 0
0.9781826734542847 1.7911381721496582 -0.38890108466148376 44
0.9796555638313293 1.7930909395217896 -0.3175622224807739 44
0.9846981763839722 1.8015732765197754 -0.24739503860473633 44
0.9694483280181885 1.772937297821045 -0.17344020307064056 44
0.9768845438957214 1.7857961654663086 -0.1043236032128334 44
0.9663599729537964 1.7658246755599976 -0.03412412852048874 44
0.9809234142303467 1.7916938066482544 0.5366997122764587 44
0.9802857041358948 1.7897872924804688 0.4619249403476715 44
0.9783240556716919 1.785465955734253 0.38794761896133423 44
0.9798109531402588 1.787439227104187 0.3164306581020355 44
0.9657363295555115 1.7610341310501099 0.2419106364250183 44
0.9839019179344177 1.7934168577194214 0.17561881244182587 44
0.9817706346511841 1.788791537284851 0.10493358224630356 44
0.966415524482727 1.760086178779602 0.034381236881017685 44
0.9520341753959656 1.7303131818771362 -0.5189324021339417 119
1.0168827772140503 1.8474115133285522 -0.4780212938785553 0
0.9844289422035217 1.7877126932144165 -0.38890108466148376 44
0.9859086275100708 1.7896604537963867 -0.3175622224807739 44
0.9933760166168213 1.8024710416793823 -0.24800437688827515 44
0.9756311774253845 1.7695425748825073 -0.17344020307064056 44
0.9831121563911438 1.7823753356933594 -0.1043236032128334 44
0.9749332070350647 1.7668176889419556 -0.03421051800251007 44
0.9871715903282166 1.788258671760559 0.5366997122764587 44
0.9865272641181946 1.7863545417785645 0.4619249403476715 44
0.9845505356788635 1.7820401191711426 0.38794761896133423 44
0.9860442280769348 1.7840081453323364 0.3164306581020355 44
0.9742790460586548 1.7619953155517578 0.24251998960971832 44
0.9925671219825745 1.79433012008667 0.17605459690093994 44
0.9880086779594421 1.785353660583496 0.10493358224630356 44
0.9749749898910522 1.7610758543014526 0.03446849808096886 44
0.958068311214447 1.7269794940948486 -0.5189324021339417 119
1.0233253240585327 1.8438507318496704 -0.4780212938785553 0
0.9906632304191589 1.7842655181884766 -0.38890108466148376 44
0.9945476055145264 1.790525197982788 -0.318344384431839 44
0.9996618032455444 1.79899263381958 -0.24800437688827515 44
0.9842222332954407 1.770479679107666 -0.17387597262859344 44
0.9893278479576111 1.778932809829712 -0.1043236032128334 44
0.9810946583747864 1.7634038925170898 -0.03421051800251007 44
0.9957567453384399 1.7890222072601318 0.5379928946495056 44
0.9951269030570984 1.787156581878662 0.4630488157272339 44
0.9931535720825195 1.782880425453186 0.3889008164405823 44
0.9946696758270264 1.7848693132400513 0.31721198558807373 44
0.980423629283905 1.758583664894104 0.24251998960971832 44
0.9988244771957397 1.7908544540405273 0.17605459690093994 44
0.9942346811294556 1.7818939685821533 0.10493358224630356 44
0.9835529923439026 1.7620271444320679 0.03455576300621033 44
0.9640907645225525 1.7236247062683105 -0.5189324021339417 119
1.0321342945098877 1.8445188999176025 -0.47914600372314453 0
0.9992828965187073 1.7850792407989502 -0.3898542523384094 44
1.0007916688919067 1.7870426177978516 -0.318344384431839 44
1.0083611011505127 1.7998218536376953 -0.24861374497413635 44
0.9903963804244995 1.767033338546753 -0.17387597262859344 44
0.9955313801765442 1.7754685878753662 -0.1043236032128334 44
0.9872440695762634 1.7599684000015259 -0.03421051800251007 44
1.00199556350708 1.7855355739593506 0.5379928946495056 44
1.001359224319458 1.7836719751358032 0.4630488157272339 44
0.9993709325790405 1.7794029712677002 0.3889008164405823 44
1.0008939504623413 1.7813864946365356 0.31721198558807373 44
0.988987922668457 1.759476900100708 0.24312932789325714 44
1.0075109004974365 1.7916984558105469 0.17649036645889282 44
1.002896785736084 1.7827645540237427 0.10519526898860931 44
0.9896976351737976 1.7585831880569458 0.03455576300621033 44
0.9701014161109924 1.720248818397522 -0.5189324021339417 119
1.040960431098938 1.845147967338562 -0.4802708029747009 0
1.0055079460144043 1.7815802097320557 -0.3898542523384094 44
1.007023572921753 1.7835382223129272 -0.318344384431839 44
1.0146374702453613 1.7962911128997803 -0.24861374497413635 44
0.9990088939666748 1.76790189743042 -0.17431175708770752 44
1.0041800737380981 1.7763291597366333 -0.10458440333604813 44
0.9933815002441406 1.7565115690231323 -0.03421051800251007 44
1.0106004476547241 1.7862306833267212 0.539286196231842 44
1.0075792074203491 1.780165672302246 0.4630488157272339 44
1.0055761337280273 1.775903582572937 0.3889008164405823 44
1.0095402002334595 1.7821788787841797 0.31799328327178955 44
0.9951236248016357 1.7560139894485474 0.24312932789325714 44
1.0137590169906616 1.7881706953048706 0.17649036645889282 44
1.0091136693954468 1.7792528867721558 0.10519526898860931 44
0.9982972741127014 1.7594658136367798 0.0346430242061615 44
0.9784873723983765 1.72105073928833 -0.5202265381813049 119
1.047394871711731 1.8415031433105469 -0.4802708029747009 0
1.0141481161117554 1.7823255062103271 -0.39080747961997986 44
1.0132430791854858 1.7800122499465942 -0.318344384431839 44
1.0233573913574219 1.7970508337020874 -0.24922306835651398 44
1.005173921585083 1.7644039392471313 -0.17431175708770752 44
1.0103744268417358 1.772813081741333 -0.10458440333604813 44
0.9995068907737732 1.7530333995819092 -0.03421051800251007 44
1.0168293714523315 1.7826921939849854 0.539286196231842 44
1.013787031173706 1.7766379117965698 0.4630488157272339 44
1.0117690563201904 1.7723826169967651 0.3889008164405823 44
1.0157550573349 1.7786439657211304 0.31799328327178955 44
1.003709077835083 1.7568386793136597 0.24373868107795715 44
1.0224664211273193 1.7889456748962402 0.1769261658191681 44
1.0177966356277466 1.780053973197937 0.10545694082975388 44
1.0069150924682617 1.7603099346160889 0.03473028913140297 44
0.9844890236854553 1.7176246643066406 -0.5202265381813049 119
1.0562398433685303 1.84206223487854 -0.48139551281929016 0
1.0203633308410645 1.778774619102478 -0.39080747961997986 44
1.0219082832336426 1.7807477712631226 -0.31912657618522644 44
1.0296239852905273 1.7934677600860596 -0.24922306835651398 44
1.011326789855957 1.7608845233917236 -0.17431175708770752 44
1.019044280052185 1.7736049890518188 -0.10484521836042404 44
1.0081113576889038 1.7538681030273438 -0.0342969074845314 44
1.0230460166931152 1.7791318893432617 0.539286196231842 44
1.0224119424819946 1.7773113250732422 0.46417275071144104 44
1.0203979015350342 1.7730942964553833 0.38985398411750793 44
1.021957516670227 1.775087594985962 0.31799328327178955 44
1.0098353624343872 1.7533243894577026 0.24373868107795715 44
1.031191349029541 1.789681315422058 0.17736192047595978 44
1.026497721672058 1.7808165550231934 0.10571862757205963 44
1.0155508518218994 1.7611151933670044 0.03481755033135414 44
0.9904787540435791 1.7141777276992798 -0.5202265381813049 119
1.0651016235351562 1.842581868171692 -0.48252031207084656 0
1.02902352809906 1.7794512510299683 -0.3917606770992279 44
1.0281180143356323 1.7771697044372559 -0.31912657618522644 44
1.0383639335632324 1.7941579818725586 -0.24983243644237518 44
1.0199629068374634 1.7616541385650635 -0.1747475266456604 44
1.0277315378189087 1.7743576765060425 -0.10510602593421936 44
1.019240140914917 1.7589895725250244 -0.034469690173864365 44
1.0316721200942993 1.7797282934188843 0.5405794382095337 44
1.0286096334457397 1.7737317085266113 0.46417275071144104 44
1.0265809297561646 1.7695215940475464 0.38985398411750793 44
1.0306264162063599 1.7757807970046997 0.31877461075782776 44
1.0159494876861572 1.749788761138916 0.24373868107795715 44
1.037432312965393 1.7860709428787231 0.17736192047595978 44
1.032707691192627 1.7772225141525269 0.10571862757205963 44
1.021692156791687 1.7575594186782837 0.03481755033135414 44
0.9964562654495239 1.710709810256958 -0.5202265381813049 119
1.0715268850326538 1.8388526439666748 -0.48252031207084656 0
1.0352287292480469 1.7758485078811646 -0.3917606770992279 44
1.0343152284622192 1.77357017993927 -0.31912657618522644 44
1.0446202754974365 1.7905223369598389 -0.24983243644237518 44
1.0261059999465942 1.7580829858779907 -0.1747475266456604 44
1.0364367961883545 1.775071620941162 -0.10536684095859528 44
1.0304169654846191 1.764054536819458 -0.03464246913790703 44
1.0378782749176025 1.7761163711547852 0.5405794382095337 44
1.0372536182403564 1.7743364572525024 0.4652966260910034 44
1.0352293252944946 1.7701643705368042 0.39080721139907837 44
1.0368188619613647 1.772172451019287 0.31877461075782776 44
1.0245579481124878 1.7505146265029907 0.24434801936149597 44
1.0461775064468384 1.786737322807312 0.17779771983623505 44
1.041428565979004 1.7779152393341064 0.1059802994132042 44
1.0303484201431274 1.7582955360412598 0.03490481153130531 44
1.0024217367172241 1.7072211503982544 -0.5202265381813049 119
1.0804067850112915 1.8393019437789917 -0.4836450219154358 0
1.0439077615737915 1.7764556407928467 -0.39271384477615356 44
1.0430026054382324 1.7742061614990234 -0.3199087083339691 44
1.053380012512207 1.7911431789398193 -0.2504417896270752 44
1.0347625017166138 1.7587836980819702 -0.17518331110477448 44
1.0426267385482788 1.7714430093765259 -0.10536684095859528 44
1.0416415929794312 1.7690627574920654 -0.03481524810194969 44
1.0465232133865356 1.7766444683074951 0.5418726801872253 44
1.0434409379959106 1.770704984664917 0.4652966260910034 44
1.0414021015167236 1.7665399312973022 0.39080721139907837 44
1.0429985523223877 1.7685424089431763 0.31877461075782776 44
1.030662178993225 1.7469276189804077 0.24434801936149597 44
1.05240797996521 1.7830746173858643 0.17779771983623505 44
1.0501669645309448 1.7785687446594238 0.10624198615550995 44
1.0364798307418823 1.7546883821487427 0.03490481153130531 44
1.0059148073196411 1.6995553970336914 -0.5189324021339417 119
1.0868204832077026 1.8355193138122559 -0.4836450219154358 0
1.0501024723052979 1.7728009223937988 -0.39271384477615356 44
1.0491893291473389 1.7705546617507935 -0.3199087083339691 44
1.0596258640289307 1.7874552011489868 -0.2504417896270752 44
1.0434361696243286 1.759445071220398 -0.17561908066272736 44
1.0513514280319214 1.7720867395401 -0.10562764108181 44
1.0503618717193604 1.7697150707244873 -0.03490164130926132 44
1.0527185201644897 1.7729804515838623 0.5418726801872253 44
1.0521036386489868 1.7712407112121582 0.46642056107521057 44
1.0475620031356812 1.7628939151763916 0.39080721139907837 44
1.0516889095306396 1.76913583278656 0.3195559084415436 44
1.03675377368927 1.7433192729949951 0.24434801936149597 44
1.0586256980895996 1.7793902158737183 0.17779771983623505 44
1.0563689470291138 1.7748922109603882 0.10624198615550995 44
1.0425984859466553 1.751059651374817 0.03490481153130531 44
1.0118412971496582 1.6960337162017822 -0.5189324021339417 119
1.0957177877426147 1.8358979225158691 -0.4847698211669922 0
1.0562843084335327 1.7691246271133423 -0.39271384477615356 44
1.0578958988189697 1.7711212635040283 -0.32069090008735657 44
1.0684043169021606 1.7880055904388428 -0.251051127910614 44
1.0521271228790283 1.7600675821304321 -0.17605488002300262 44
1.0575307607650757 1.7684061527252197 -0.10562764108181 44
1.0590994358062744 1.7703279256820679 -0.034988027065992355 44
1.061381220817566 1.7734391689300537 0.543165922164917 44
1.0607826709747314 1.7717373371124268 0.46754443645477295 44
1.0562313795089722 1.7634373903274536 0.3917604088783264 44
1.0578579902648926 1.7654540538787842 0.3195559084415436 44
1.045384407043457 1.7439464330673218 0.24495737254619598 44
1.0648304224014282 1.7756839990615845 0.17779771983623505 44
1.065126657485962 1.7754755020141602 0.10650365799665451 44
1.0487043857574463 1.7474095821380615 0.03490481153130531 44
1.0149718523025513 1.6885297298431396 -0.5176383256912231 119
1.1014800071716309 1.832446575164795 -0.4847698211669922 0
1.0643665790557861 1.7700040340423584 -0.393667072057724 44
1.0634547472000122 1.7677891254425049 -0.32069090008735657 44
1.0740162134170532 1.7846403121948242 -0.251051127910614 44
1.057651400566101 1.7567534446716309 -0.17605488002300262 44
1.065657377243042 1.7693525552749634 -0.10588845610618591 44
1.0646559000015259 1.7669918537139893 -0.034988027065992355 44
1.066947340965271 1.7700960636138916 0.543165922164917 44
1.0663434267044067 1.768396019935608 0.46754443645477295 44
1.061766266822815 1.7601104974746704 0.3917604088783264 44
1.0659509897232056 1.766350507736206 0.3203372359275818 44
1.0534229278564453 1.7449020147323608 0.2455667108297348 44
1.0729786157608032 1.776593565940857 0.17823348939418793 44
1.0706993341445923 1.772120475769043 0.10650365799665451 44
1.0567748546600342 1.748384714126587 0.034992072731256485 44
1.0180637836456299 1.6810234785079956 -0.5163442492485046 119
1.1078697443008423 1.8285905122756958 -0.4847698211669922 0
1.0705385208129883 1.76627779006958 -0.393667072057724 44
1.0721795558929443 1.7682890892028809 -0.321473091840744 44
1.082813024520874 1.7851234674453735 -0.2516604959964752 44
1.0663609504699707 1.7573089599609375 -0.1764906346797943 44
1.0718271732330322 1.7656220197677612 -0.10588845610618591 44
1.0708173513412476 1.763264775276184 -0.034988027065992355 44
1.0756275653839111 1.7704888582229614 0.5444592237472534 44
1.0750404596328735 1.7688266038894653 0.4686683714389801 44
1.067903757095337 1.7563934326171875 0.3917604088783264 44
1.0721101760864258 1.762618899345398 0.3203372359275818 44
1.0595072507858276 1.7412142753601074 0.2455667108297348 44
1.0791734457015991 1.7728374004364014 0.17823348939418793 44
1.0768786668777466 1.7683722972869873 0.10650365799665451 44
1.0628713369369507 1.744685173034668 0.034992072731256485 44
1.0270286798477173 1.6812235116958618 -0.5176383256912231 119
1.1174232959747314 1.8284801244735718 -0.4858945310115814 0
1.079872727394104 1.7663418054580688 -0.39462023973464966 44
1.0789613723754883 1.7641593217849731 -0.321473091840744 44
1.0896594524383545 1.7809526920318604 -0.2516604959964752 44
1.0731006860733032 1.7532014846801758 -0.1764906346797943 44
1.0785987377166748 1.761493444442749 -0.10588845610618591 44
1.0775799751281738 1.759140133857727 -0.034988027065992355 44
1.0824178457260132 1.766345739364624 0.5444592237472534 44
1.0818241834640503 1.7646857500076294 0.4686683714389801 44
1.0772058963775635 1.7564641237258911 0.3927135765552521 44
1.078870177268982 1.7584892511367798 0.3203372359275818 44
1.0687812566757202 1.7413629293441772 0.24617606401443481 44
1.0885790586471558 1.7729253768920898 0.178669273853302 44
1.0836607217788696 1.7642244100570679 0.10650365799665451 44
1.0695626735687256 1.740591287612915 0.034992072731256485 44
1.0354230403900146 1.6817407608032227 -0.5189324021339417 119
1.1237990856170654 1.824568510055542 -0.4858945310115814 0
1.0860317945480347 1.762561559677124 -0.39462023973464966 44
1.0877041816711426 1.764586091041565 -0.3222552537918091 44
1.0984742641448975 1.7813622951507568 -0.25226983428001404 44
1.079214096069336 1.7494450807571411 -0.1764906346797943 44
1.0873631238937378 1.7619667053222656 -0.10614925622940063 44
1.0837138891220093 1.7553679943084717 -0.034988027065992355 44
1.0885769128799438 1.7625566720962524 0.5444592237472534 44
1.0905382633209229 1.7650433778762817 0.4697922468185425 44
1.0833306312561035 1.7526934146881104 0.3927135765552521 44
1.0875991582870483 1.7589130401611328 0.32111856341362 44
1.0748531818389893 1.7376216650009155 0.24617606401443481 44
1.0947611331939697 1.7691147327423096 0.178669273853302 44
1.0924407243728638 1.7646766901016235 0.10676534473896027 44
1.0756375789642334 1.7368435859680176 0.034992072731256485 44
1.0412870645523071 1.6781162023544312 -0.5189324021339417 119
1.132730484008789 1.8247737884521484 -0.4870193302631378 0
1.0947670936584473 1.7629296779632568 -0.3955734372138977 44
1.0938570499420166 1.760778546333313 -0.3222552537918091 44
1.1046855449676514 1.7775170803070068 -0.25226983428001404 44
1.0879441499710083 1.7498975992202759 -0.17692643404006958 44
1.0935068130493164 1.7581603527069092 -0.10614925622940063 44
1.0924757719039917 1.755819320678711 -0.035074420273303986 44
1.097274899482727 1.7628462314605713 0.5457524061203003 44
1.0966928005218506 1.761225938796997 0.4697922468185425 44
1.0920372009277344 1.7530672550201416 0.3936667740345001 44
1.0937323570251465 1.7551058530807495 0.32111856341362 44
1.0835374593734741 1.7380704879760742 0.24678540229797363 44
1.100929856300354 1.765282392501831 0.178669273853302 44
1.0985939502716064 1.7608524560928345 0.10676534473896027 44
1.0816880464553833 1.7330818176269531 0.034992072731256485 44
1.0496991872787476 1.678566336631775 -0.5202265381813049 119
1.1416771411895752 1.8249388933181763 -0.48814404010772705 0
1.1009141206741333 1.7590974569320679 -0.3955734372138977 44
1.1026172637939453 1.761135220527649 -0.32303744554519653 44
1.1108835935592651 1.7736501693725586 -0.25226983428001404 44
1.094045877456665 1.7460893392562866 -0.17692643404006958 44
1.0996372699737549 1.7543326616287231 -0.10614925622940063 44
1.0985980033874512 1.7519950866699219 -0.035074420273303986 44
1.103421688079834 1.7590054273605347 0.5457524061203003 44
1.102833867073059 1.7573869228363037 0.4697922468185425 44
1.1007596254348755 1.753401756286621 0.3946199417114258 44
1.1024786233901978 1.7554595470428467 0.3218998610973358 44
1.0895979404449463 1.734277606010437 0.24678540229797363 44
1.1097356081008911 1.765645980834961 0.17910505831241608 44
1.1047337055206299 1.757007122039795 0.10676534473896027 44
1.0903929471969604 1.733527421951294 0.03507933393120766 44
1.0555521249771118 1.6748919486999512 -0.5202265381813049 119
1.1506386995315552 1.8250638246536255 -0.48926883935928345 0
1.1096662282943726 1.7593953609466553 -0.39652660489082336 44
1.1087579727172852 1.7572755813598633 -0.32303744554519653 44
1.1197171211242676 1.7739585638046265 -0.25287917256355286 44
1.102793574333191 1.7464711666107178 -0.17736220359802246 44
1.1057543754577637 1.750483512878418 -0.10614925622940063 44
1.1073776483535767 1.7523757219314575 -0.03516080975532532 44
1.112135887145996 1.7592254877090454 0.5470457077026367 44
1.1115658283233643 1.7576444149017334 0.47091618180274963 44
1.1094976663589478 1.7536965608596802 0.3955731689929962 44
1.1112408638000488 1.7557735443115234 0.322681188583374 44
1.0956449508666992 1.7304635047912598 0.24678540229797363 44
1.1158921718597412 1.7617615461349487 0.17910505831241608 44
1.1135326623916626 1.7573577165603638 0.10702701658010483 44
1.0964374542236328 1.7297106981277466 0.03507933393120766 44
1.058802843093872 1.667120099067688 -0.5189324021339417 119
1.157002329826355 1.8210361003875732 -0.48926883935928345 0
1.1158008575439453 1.7555112838745117 -0.39652660489082336 44
1.1175349950790405 1.7575619220733643 -0.3238196074962616 44
1.125902533531189 1.7700390815734863 -0.25287917256355286 44
1.1088831424713135 1.7426111698150635 -0.17736220359802246 44
1.114539384841919 1.75082528591156 -0.10641007125377655 44
1.113487720489502 1.7484995126724243 -0.03516080975532532 44
1.118269920349121 1.7553327083587646 0.5470457077026367 44
1.1176942586898804 1.753753662109375 0.47091618180274963 44
1.115612506866455 1.7498129606246948 0.3955731689929962 44
1.1173627376556396 1.7518839836120605 0.322681188583374 44
1.1043483018875122 1.7308123111724854 0.24739475548267365 44
1.1247148513793945 1.7620540857315063 0.17954082787036896 44
1.1196601390838623 1.7534600496292114 0.10702701658010483 44
1.1051597595214844 1.730085849761963 0.03516659513115883 44
1.0646157264709473 1.6634141206741333 -0.5189324021339417 119
1.1659789085388184 1.821089506149292 -0.49039360880851746 0
1.124569296836853 1.7557388544082642 -0.3974798023700714 44
1.1263277530670166 1.7578084468841553 -0.32460179924964905 44
1.1347521543502808 1.7702759504318237 -0.2534885108470917 44
1.1176478862762451 1.7429227828979492 -0.17779798805713654 44
1.120644211769104 1.7469241619110107 -0.10641007125377655 44
1.1222845315933228 1.748809576034546 -0.03524719923734665 44
1.1269997358322144 1.7554829120635986 0.5483389496803284 44
1.1264420747756958 1.7539409399032593 0.472040057182312 44
1.1243666410446167 1.750037431716919 0.3965263366699219 44
1.1261413097381592 1.7521272897720337 0.32346248626708984 44
1.1130670309066772 1.7311209440231323 0.24800409376621246 44
1.1308587789535522 1.7581173181533813 0.17954082787036896 44
1.1284759044647217 1.7537399530410767 0.10728870332241058 44
1.1138982772827148 1.7304211854934692 0.0352538600564003 44
1.0677980184555054 1.65562903881073 -0.5176383256912231 119
1.1723287105560303 1.817008376121521 -0.49039360880851746 0
1.1306911706924438 1.7518025636672974 -0.3974798023700714 44
1.1324567794799805 1.753866195678711 -0.32460179924964905 44
1.1436176300048828 1.7704731225967407 -0.2540978789329529 44
1.1237250566482544 1.7390109300613403 -0.17779798805713654 44
