# .PCD v0.7 - Point Cloud Data file format
VERSION 0.7
FIELDS x y z intensity
SIZE 4 4 4 4
TYPE F F F F
COUNT 1 1 1 1
WIDTH 800
HEIGHT 1
VIEWPOINT 0 0 0 1 0 0 0
POINTS 800
DATA ascii
-10.591206550598145 1.4771877527236938 -0.5565664172172546 119
-16.644229888916016 2.324383020401001 -0.289752721786499 119
-8.729172706604004 1.2205907106399536 2.349839448928833 32
-10.088327407836914 1.4124349355697632 2.3410940170288086 32
-11.917609214782715 1.6706678867340088 2.329592227935791 32
-14.489707946777344 2.033815622329712 2.308772087097168 32
-16.56511878967285 2.3280746936798096 2.0492329597473145 11
-16.812894821166992 2.365889310836792 1.4820833206176758 11
-16.640872955322266 2.3446450233459473 0.8787206411361694 11
nan nan nan 0
-1.926635503768921 0.2735145688056946 -0.5111678242683411 119
-2.2083845138549805 0.3139062821865082 -0.5061401724815369 119
-2.652190685272217 0.3774624466896057 -0.5128157138824463 119
-3.2304186820983887 0.46033164858818054 -0.5107589364051819 119
-4.243374347686768 0.6054325699806213 -0.5216013789176941 119
-6.083164691925049 0.8690119981765747 -0.5342655181884766 119
-10.581043243408203 1.5134419202804565 -0.5563055872917175 119
-17.883102416992188 2.5610647201538086 -0.31152305006980896 119
-8.729640007019043 1.2517393827438354 2.35113263130188 32
-10.083334922790527 1.4476412534713745 2.3410940170288086 32
-11.90684700012207 1.711559534072876 2.328639030456543 32
-14.472743034362793 2.082974910736084 2.3072092533111572 32
-17.278953552246094 2.489933967590332 2.1388068199157715 11
-17.810237884521484 2.5696663856506348 1.5709822177886963 11
-17.87299346923828 2.5819051265716553 0.9444023370742798 11
-18.339595794677734 2.6525771617889404 0.3227822184562683 11
-1.9208897352218628 0.27954259514808655 -0.5098737478256226 119
-2.207275390625 0.321613073348999 -0.5061401724815369 119
-2.6508569717407227 0.3867180347442627 -0.5128157138824463 119
-3.2336785793304443 0.4723188877105713 -0.5115411281585693 119
-4.241235256195068 0.6202409863471985 -0.5216013789176941 119
-6.07023811340332 0.8887977600097656 -0.5333939790725708 119
-10.575695037841797 1.5503675937652588 -0.5563055872917175 119
-18.79900360107422 2.759233236312866 -0.32767802476882935 119
-8.725217819213867 1.2822039127349854 2.35113263130188 32
-10.078221321105957 1.4828299283981323 2.3410940170288086 32
-11.900799751281738 1.7531119585037231 2.328639030456543 32
-14.460498809814453 2.132760763168335 2.3064279556274414 32
nan nan nan 0
-18.816207885742188 2.7818901538848877 1.660752773284912 11
-18.743072509765625 2.7744204998016357 0.9909812808036804 11
-19.343996047973633 2.866821527481079 0.34067097306251526 11
-1.9199023246765137 0.28624606132507324 -0.5098737478256226 119
-2.206139326095581 0.3293159306049347 -0.5061401724815369 119
-2.6494908332824707 0.39596888422966003 -0.5128157138824463 119
-3.227126359939575 0.4828728437423706 -0.5107589364051819 119
-4.243951797485352 0.6357771158218384 -0.5222107172012329 119
-6.067098140716553 0.9099814295768738 -0.5333939790725708 119
-10.570219993591309 1.587274193763733 -0.5563055872917175 119
-19.847209930419922 2.9838926792144775 -0.3461655378341675 119
-8.725464820861816 1.3133716583251953 2.3524258136749268 32
-10.072983741760254 1.5180003643035889 2.3410940170288086 32
-11.894607543945312 1.7946428060531616 2.328639030456543 32
-14.44808292388916 2.1824867725372314 2.3056468963623047 32
nan nan nan 0
-19.948944091796875 3.020554304122925 1.7618533372879028 11
-19.84897804260254 3.0089616775512695 1.0501208305358887 11
-20.490447998046875 3.1098623275756836 0.3610902428627014 11
-1.9236656427383423 0.29367488622665405 -0.5111678242683411 119
-2.209791898727417 0.3377508223056793 -0.5072649121284485 119
-2.652944564819336 0.40595734119415283 -0.5137688517570496 119
-3.2254209518432617 0.49413469433784485 -0.5107589364051819 119
-4.241706848144531 0.6505873799324036 -0.5222107172012329 119
-6.073731422424316 0.9326658844947815 -0.5342655181884766 119
-10.564614295959473 1.6241613626480103 -0.5563055872917175 119
-20.558067321777344 3.1641879081726074 -0.3587784767150879 119
-8.720827102661133 1.3438211679458618 2.3524258136749268 32
-10.067623138427734 1.5531524419784546 2.3410940170288086 32
-11.88827133178711 1.8361518383026123 2.328639030456543 32
-14.43549633026123 2.232151985168457 2.304865598678589 32
-18.541765213012695 2.870415687561035 2.299065113067627 32
-20.957176208496094 3.2480859756469727 1.8520596027374268 11
-20.524192810058594 3.184648036956787 1.0864944458007812 11
-21.87254524230957 3.397775173187256 0.3856981694698334 11
-1.9226288795471191 0.3003879487514496 -0.5111678242683411 119
-2.2134130001068115 0.34621530771255493 -0.5083897113800049 119
-2.6515111923217773 0.4152153730392456 -0.5137688517570496 119
-3.22855544090271 0.5061553716659546 -0.5115411281585693 119
-4.239409923553467 0.6653897762298584 -0.5222107172012329 119
-6.070438385009766 0.9538615345954895 -0.5342655181884766 119
-10.553947448730469 1.6602529287338257 -0.5560448169708252 119
-22.512374877929688 3.5454723834991455 -0.3931617736816406 119
-8.720852851867676 1.3750064373016357 2.3537189960479736 32
-10.066953659057617 1.5890450477600098 2.3422179222106934 32
-11.886636734008789 1.8784043788909912 2.329592227935791 32
-14.427617073059082 2.2825276851654053 2.304865598678589 32
-18.507125854492188 2.931239366531372 2.296018362045288 32
-22.25922203063965 3.5294952392578125 1.9684123992919922 11
-22.1600399017334 3.5177338123321533 1.1738954782485962 11
-23.20842742919922 3.688309669494629 0.4095207154750824 11
-1.926337718963623 0.30785953998565674 -0.5124619007110596 119
-2.217001438140869 0.35470908880233765 -0.5095144510269165 119
-2.65004563331604 0.42446833848953247 -0.5137688517570496 119
-3.221892833709717 0.5166401267051697 -0.5107589364051819 119
-4.24196195602417 0.6809706091880798 -0.5228200554847717 119
-6.067071914672852 0.9750455021858215 -0.5342655181884766 119
-10.548088073730469 1.6970828771591187 -0.5560448169708252 119
-23.847291946411133 3.8410632610321045 -0.4167462885379791 119
-8.71123218536377 1.4046707153320312 2.3524258136749268 32
-10.061345100402832 1.6241756677627563 2.3422179222106934 32
-11.88000774383545 1.9198850393295288 2.329592227935791 32
-14.424436569213867 2.3336644172668457 2.3056468963623047 32
-18.491880416870117 2.9950296878814697 2.2954089641571045 32
-23.662792205810547 3.8367726802825928 2.093916654586792 11
-23.636072158813477 3.8366739749908447 1.2529226541519165 11
-24.636289596557617 4.003445625305176 0.4350011944770813 11
-1.9252513647079468 0.31458184123039246 -0.5124619007110596 119
-2.215749979019165 0.3624457120895386 -0.5095144510269165 119
-2.648547887802124 0.43371614813804626 -0.5137688517570496 119
-3.224942922592163 0.5286824107170105 -0.5115411281585693 119
-4.239558696746826 0.695773720741272 -0.5228200554847717 119
-6.063631534576416 0.9962176084518433 -0.5342655181884766 119
-10.537172317504883 1.7330818176269531 -0.5557839870452881 119
-25.575029373168945 4.210989952087402 -0.44724205136299133 119
-8.73963451385498 1.4405686855316162 2.361478567123413 32
-10.06042194366455 1.6600797176361084 2.343341827392578 32
-11.873233795166016 1.961342215538025 2.329592227935791 32
-14.416202545166016 2.384000778198242 2.3056468963623047 32
-18.471519470214844 3.057939052581787 2.2941901683807373 32
nan nan nan 0
nan nan nan 0
-26.723060607910156 4.43834924697876 0.47217485308647156 11
-1.924141526222229 0.32130029797554016 -0.5124619007110596 119
-2.2192766666412354 0.3709811866283417 -0.5106391906738281 119
-2.64701771736145 0.44295865297317505 -0.5137688517570496 119
-3.2230780124664307 0.5399363040924072 -0.5115411281585693 119
-4.237104415893555 0.7105683088302612 -0.5228200554847717 119
-6.060117244720459 1.017377495765686 -0.5342655181884766 119
-10.550755500793457 1.773163080215454 -0.5568272471427917 119
nan nan nan 0
-8.777419090270996 1.4782862663269043 2.3731179237365723 32
-10.0545654296875 1.6951870918273926 2.343341827392578 32
-11.87115478515625 2.0035924911499023 2.330545425415039 32
-14.412662506103516 2.4351308345794678 2.3064279556274414 32
-18.470521926879883 3.1240532398223877 2.2954089641571045 32
-25.42797088623047 4.30538272857666 2.2529759407043457 32
-27.241838455200195 4.617391586303711 1.4460424184799194 11
-29.122512817382812 4.941388130187988 0.5149332284927368 11
-1.9230082035064697 0.3280148506164551 -0.5124619007110596 119
-2.217967987060547 0.37872567772865295 -0.5106391906738281 119
-2.6454553604125977 0.45219579339027405 -0.5137688517570496 119
-3.226041316986084 0.5520166158676147 -0.512323260307312 119
-4.234598159790039 0.7253542542457581 -0.5228200554847717 119
-6.0565290451049805 1.038525104522705 -0.5342655181884766 119
-10.55926513671875 1.8125154972076416 -0.5576096177101135 119
nan nan nan 0
-8.757925033569336 1.5064597129821777 2.3692381381988525 32
-10.04858684539795 1.7302736043930054 2.343341827392578 32
-11.864089012145996 2.045018434524536 2.330545425415039 32
-14.408941268920898 2.486265182495117 2.3072092533111572 32
-18.459503173828125 3.1885085105895996 2.2954089641571045 32
-25.407880783081055 4.39326810836792 2.252540111541748 32
-30.649866104125977 5.305167198181152 1.628171443939209 11
-31.710859298706055 5.494514465332031 0.5610948204994202 11
-1.9218515157699585 0.33472537994384766 -0.5124619007110596 119
-2.216632604598999 0.38646548986434937 -0.5106391906738281 119
-2.6438608169555664 0.46142739057540894 -0.5137688517570496 119
-3.228959560394287 0.5641241669654846 -0.5131054520606995 119
-4.2320404052734375 0.7401313185691833 -0.5228200554847717 119
-6.0528669357299805 1.0596599578857422 -0.5342655181884766 119
-10.567628860473633 1.8519489765167236 -0.5583921074867249 119
-28.21314239501953 4.9493536949157715 -0.4943246841430664 119
-8.762126922607422 1.5386922359466553 2.3718247413635254 32
-10.042486190795898 1.7653392553329468 2.343341827392578 32
-11.856878280639648 2.0864193439483643 2.330545425415039 32
-14.41963005065918 2.539973735809326 2.3103346824645996 32
-18.45315170288086 3.25378680229187 2.296018362045288 32
-25.318811416625977 4.468944072723389 2.2460033893585205 32
-31.81615447998047 5.621496200561523 1.6912363767623901 13
-31.77025032043457 5.61910343170166 0.5624910593032837 13
-1.9206714630126953 0.3414318859577179 -0.5124619007110596 119
-2.2152700424194336 0.3942006230354309 -0.5106391906738281 119
-2.6422340869903564 0.47065338492393494 -0.5137688517570496 119
-3.226970672607422 0.5753918886184692 -0.5131054520606995 119
-4.22943115234375 0.7548993825912476 -0.5228200554847717 119
-6.049130916595459 1.0807820558547974 -0.5342655181884766 119
-10.580760955810547 1.8923418521881104 -0.5594353079795837 119
nan nan nan 0
-8.747194290161133 1.5675644874572754 2.3692381381988525 32
-10.036262512207031 1.80038321018219 2.343341827392578 32
-11.84469223022461 2.126927375793457 2.329592227935791 32
-14.420397758483887 2.5920395851135254 2.3118972778320312 32
-18.446563720703125 3.319059133529663 2.2966275215148926 32
-25.26384162902832 4.550232887268066 2.2425172328948975 32
-31.7471981048584 5.723661422729492 1.688619613647461 13
-37.81651306152344 6.824705600738525 0.6700851321220398 11
-1.924220085144043 0.348996102809906 -0.5137560367584229 119
-2.2138805389404297 0.40193095803260803 -0.5106391906738281 119
-2.6357457637786865 0.47899600863456726 -0.5128157138824463 119
-3.220083713531494 0.5857686996459961 -0.512323260307312 119
-4.231652736663818 0.7705473303794861 -0.5234294533729553 119
-6.050221920013428 1.1027840375900269 -0.5347012877464294 119
-10.5642671585083 1.92747163772583 -0.5589137077331543 119
nan nan nan 0
-8.741669654846191 1.598088264465332 2.3692381381988525 32
-10.029916763305664 1.8354053497314453 2.343341827392578 32
-11.837194442749023 2.168260097503662 2.329592227935791 32
-14.440406799316406 2.6477041244506836 2.316585063934326 32
-18.439746856689453 3.3843257427215576 2.2972371578216553 32
-25.247804641723633 4.638392448425293 2.2425172328948975 32
-31.687742233276367 5.827220916748047 1.6865260601043701 13
nan nan nan 0
-1.9229902029037476 0.3557107448577881 -0.5137560367584229 119
-2.2124640941619873 0.4096564054489136 -0.5106391906738281 119
-2.6340577602386475 0.488193541765213 -0.5128157138824463 119
-3.208308219909668 0.5952038168907166 -0.5107589364051819 119
-4.228937149047852 0.7853139042854309 -0.5234294533729553 119
-6.046335697174072 1.1238964796066284 -0.5347012877464294 119
-10.557474136352539 1.9643361568450928 -0.5589137077331543 119
nan nan nan 0
-8.736037254333496 1.6285927295684814 2.3692381381988525 32
-10.018659591674805 1.8695114850997925 2.3422179222106934 32
-11.824729919433594 2.208665370941162 2.328639030456543 32
-14.421366691589355 2.696279287338257 2.3150224685668945 32
-18.437576293945312 3.4504971504211426 2.2984557151794434 32
-25.24125099182129 4.728329658508301 2.2433888912200928 32
-31.657392501831055 5.93595552444458 1.6860028505325317 13
-45.167598724365234 8.477362632751465 0.8015017509460449 18
-1.9217368364334106 0.36242109537124634 -0.5137560367584229 119
-2.2110207080841064 0.417376846075058 -0.5106391906738281 119
-2.6323375701904297 0.497385174036026 -0.5128157138824463 119
-3.2062110900878906 0.6063992381095886 -0.5107589364051819 119
-4.226170063018799 0.8000708222389221 -0.5234294533729553 119
-6.047269344329834 1.1459226608276367 -0.5351370573043823 119
-10.550553321838379 2.001176595687866 -0.5589137077331543 119
nan nan nan 0
-8.73029899597168 1.6590771675109863 2.3692381381988525 32
-10.012072563171387 1.904471755027771 2.3422179222106934 32
-11.816948890686035 2.2499277591705322 2.328639030456543 32
-14.397313117980957 2.7438292503356934 2.312678575515747 32
-18.430295944213867 3.5157651901245117 2.299065113067627 32
-25.23927116394043 4.819211959838867 2.2446961402893066 32
-31.62666893005371 6.044549942016602 1.6854792833328247 13
-45.11808395385742 8.631217956542969 0.8011526465415955 18
-1.9203956127166748 0.36946216225624084 -0.5137560367584229 119
-2.2094759941101074 0.4254778325557709 -0.5106391906738281 119
-2.6304969787597656 0.5070298314094543 -0.5128157138824463 119
-3.213665008544922 0.6200175285339355 -0.512323260307312 119
-4.223209381103516 0.8155551552772522 -0.5234294533729553 119
-6.043028831481934 1.1680793762207031 -0.5351370573043823 119
-10.548048973083496 2.040781259536743 -0.5591744780540466 119
-44.912017822265625 8.697473526000977 -0.7898656129837036 18
-8.724160194396973 1.6910642385482788 2.3692381381988525 32
-10.005024909973145 1.941154956817627 2.3422179222106934 32
-11.808622360229492 2.2932238578796387 2.328639030456543 32
-14.38231372833252 2.795637369155884 2.3118972778320312 32
-18.42702865600586 3.5851876735687256 2.300283908843994 32
-25.245882034301758 4.916446208953857 2.246875047683716 32
-31.60430335998535 6.160426616668701 1.6854792833328247 13
-45.10578155517578 8.800355911254883 0.8015017509460449 18
-1.919094204902649 0.3761633336544037 -0.5137560367584229 119
-2.207977294921875 0.4331877827644348 -0.5106391906738281 119
-2.623894691467285 0.5152630805969238 -0.5118624567985535 119
-3.2114810943603516 0.6312315464019775 -0.512323260307312 119
-4.2203369140625 0.8302919268608093 -0.5234294533729553 119
-6.038914680480957 1.1891663074493408 -0.5351370573043823 119
-10.540861129760742 2.0775883197784424 -0.5591744780540466 119
-44.89119338989258 8.856127738952637 -0.7900383472442627 18
-8.718204498291016 1.721506953239441 2.3692381381988525 32
-9.998188018798828 1.976067304611206 2.3422179222106934 32
-11.795730590820312 2.333477258682251 2.327685832977295 32
-14.367622375488281 2.844864845275879 2.3111159801483154 32
-18.419269561767578 3.6504530906677246 2.3008930683135986 32
-25.204137802124023 4.999695301055908 2.2446961402893066 32
-31.582605361938477 6.2707085609436035 1.6854792833328247 13
-45.08949279785156 8.96068000793457 0.8017634749412537 18
-1.9177695512771606 0.3828599154949188 -0.5137560367584229 119
-2.201674222946167 0.4399377405643463 -0.5095144510269165 119
-2.622080087661743 0.5244190692901611 -0.5118624567985535 119
-3.2141008377075195 0.6434072852134705 -0.5131054520606995 119
-4.217412948608398 0.8450185656547546 -0.5234294533729553 119
-6.034727096557617 1.2102388143539429 -0.5351370573043823 119
-10.538440704345703 2.1153526306152344 -0.5594353079795837 119
-45.35013961791992 9.111245155334473 -0.798677384853363 18
-8.712141990661621 1.751928687095642 2.3692381381988525 32
-9.991230010986328 2.010955333709717 2.3422179222106934 32
-11.787513732910156 2.3746378421783447 2.327685832977295 32
-14.357604026794434 2.8949997425079346 2.3111159801483154 32
-18.406414031982422 3.714725971221924 2.3008930683135986 32
-25.15235710144043 5.080739974975586 2.241645574569702 32
-31.56052589416504 6.380914688110352 1.6854792833328247 13
nan nan nan 0
-1.9211540222167969 0.39051389694213867 -0.5150501132011414 119
-2.200125217437744 0.44762033224105835 -0.5095144510269165 119
-2.6202337741851807 0.5335686206817627 -0.5118624567985535 119
-3.2166740894317627 0.6556088924407959 -0.5138876438140869 119
-4.219299793243408 0.8607268929481506 -0.5240387320518494 119
-6.030465602874756 1.2312966585159302 -0.5351370573043823 119
-10.53099250793457 2.152125835418701 -0.5594353079795837 119
-45.298465728759766 9.265483856201172 -0.7983317971229553 18
-8.710704803466797 1.7832976579666138 2.3705313205718994 32
-9.984148979187012 2.045819044113159 2.3422179222106934 32
-11.779151916503906 2.415769338607788 2.327685832977295 32
-14.347411155700684 2.9450995922088623 2.3111159801483154 32
-18.393335342407227 3.778953790664673 2.3008930683135986 32
-25.090559005737305 5.159478187561035 2.2377235889434814 32
-31.53805923461914 6.491042613983154 1.6854792833328247 13
-46.42621612548828 9.563712120056152 0.8267204165458679 18
-1.9197791814804077 0.39721760153770447 -0.5150501132011414 119
-2.1937787532806396 0.4543095827102661 -0.5083897113800049 119
-2.6231613159179688 0.5437078475952148 -0.5128157138824463 119
-3.2143659591674805 0.6668331623077393 -0.5138876438140869 119
-4.216269493103027 0.8754497170448303 -0.5240387320518494 119
-6.0261311531066895 1.2523393630981445 -0.5351370573043823 119
-10.528305053710938 2.189889669418335 -0.5596960783004761 119
-45.29521560668945 9.429662704467773 -0.7988501787185669 18
-8.704426765441895 1.8136926889419556 2.3705313205718994 32
-9.976946830749512 2.080657720565796 2.3422179222106934 32
-11.770648002624512 2.456871509552002 2.327685832977295 32
-14.337043762207031 2.9951634407043457 2.3111159801483154 32
-18.380033493041992 3.8431355953216553 2.3008930683135986 32
-25.067522048950195 5.24600887298584 2.237287998199463 32
-31.515209197998047 6.601090908050537 1.6854792833328247 13
-46.8280143737793 9.817002296447754 0.8344867825508118 18
-1.9183809757232666 0.40391647815704346 -0.5150501132011414 119
-2.1874122619628906 0.46095988154411316 -0.5072649121284485 119
-2.6212475299835205 0.5528610944747925 -0.5128157138824463 119
-3.216850757598877 0.6790693998336792 -0.5146698355674744 119
-4.213188171386719 0.89016193151474 -0.5240387320518494 119
-6.021722793579102 1.2733668088912964 -0.5351370573043823 119
-10.520596504211426 2.2266268730163574 -0.5596960783004761 119
-38.01884841918945 8.053415298461914 -0.6709062457084656 119
-8.698042869567871 1.84406578540802 2.3705313205718994 32
-9.969623565673828 2.115471124649048 2.3422179222106934 32
-11.76200008392334 2.497943878173828 2.327685832977295 32
-14.326501846313477 3.0451905727386475 2.3111159801483154 32
-18.366506576538086 3.9072704315185547 2.3008930683135986 32
-25.049057006835938 5.333478927612305 2.237287998199463 32
-31.491973876953125 6.7110595703125 1.6854792833328247 13
-47.482852935791016 10.127439498901367 0.8467907309532166 16
-1.916959285736084 0.4106104075908661 -0.5150501132011414 119
-2.1857898235321045 0.4685925841331482 -0.5072649121284485 119
-2.624100685119629 0.5630372762680054 -0.5137688517570496 119
-3.214460849761963 0.6902941465377808 -0.5146698355674744 119
-4.210055351257324 0.9048632383346558 -0.5240387320518494 119
-6.022111415863037 1.295426368713379 -0.53557288646698 119
-10.5176420211792 2.264388084411621 -0.5599569082260132 119
-37.9758415222168 8.182917594909668 -0.6706470847129822 119
-8.691553115844727 1.874416470527649 2.3705313205718994 32
-9.962178230285645 2.150258779525757 2.3422179222106934 32
-11.753209114074707 2.5389857292175293 2.327685832977295 32
-14.320611953735352 3.096224784851074 2.3118972778320312 32
-18.357606887817383 3.972407341003418 2.3015024662017822 32
-25.040023803710938 5.422992706298828 2.238159656524658 32
-31.46347999572754 6.819889068603516 1.6852177381515503 13
-47.46675109863281 10.297362327575684 0.8471397161483765 16
-1.915514349937439 0.4172993302345276 -0.5150501132011414 119
-2.184140920639038 0.4762195348739624 -0.5072649121284485 119
-2.6269149780273438 0.5732401609420776 -0.5147220492362976 119
-3.212031602859497 0.701510488986969 -0.5146698355674744 119
-4.202023029327393 0.9184938669204712 -0.5234294533729553 119
-6.017552852630615 1.3164396286010742 -0.53557288646698 119
-10.509673118591309 2.3010878562927246 -0.5599569082260132 119
-37.956817626953125 8.3175687789917 -0.6708199381828308 119
-8.689675331115723 1.9057790040969849 2.3718247413635254 32
-9.954611778259277 2.1850199699401855 2.3422179222106934 32
-11.744275093078613 2.5799965858459473 2.327685832977295 32
-14.30971622467041 3.1461942195892334 2.3118972778320312 32
-18.3436279296875 4.036463260650635 2.3015024662017822 32
-25.098770141601562 5.527505874633789 2.2451319694519043 32
-31.439481735229492 6.929675579071045 1.6852177381515503 13
-47.43051528930664 10.462989807128906 0.8471397161483765 16
-1.9140461683273315 0.4239831566810608 -0.5150501132011414 119
-2.182465076446533 0.4838407337665558 -0.5072649121284485 119
-2.6248977184295654 0.5824063420295715 -0.5147220492362976 119
-3.204742193222046 0.7116477489471436 -0.5138876438140869 119
-4.19879150390625 0.9331560730934143 -0.5234294533729553 119
-6.01292085647583 1.3374367952346802 -0.53557288646698 119
-10.511324882507324 2.3399293422698975 -0.5604785680770874 119
-37.94218826293945 8.453272819519043 -0.6710790991783142 119
-8.687684059143066 1.9371511936187744 2.3731179237365723 32
-9.946924209594727 2.219754934310913 2.3422179222106934 32
-11.735197067260742 2.620975971221924 2.327685832977295 32
-14.293827056884766 3.195047616958618 2.3111159801483154 32
-18.329425811767578 4.100470066070557 2.3015024662017822 32
-25.084182739257812 5.616171836853027 2.245567798614502 32
-31.415102005004883 7.039377689361572 1.6852177381515503 13
-47.37419509887695 10.624114990234375 0.8467907309532166 16
-1.9125545024871826 0.4306618869304657 -0.5150501132011414 119
-2.185515880584717 0.4925270974636078 -0.5083897113800049 119
-2.6228489875793457 0.5915653705596924 -0.5147220492362976 119
-3.2022385597229004 0.722830057144165 -0.5138876438140869 119
-4.1955084800720215 0.9478069543838501 -0.5234294533729553 119
-6.008215427398682 1.3584176301956177 -0.53557288646698 119
-10.507963180541992 2.3777084350585938 -0.5607393383979797 119
-37.912452697753906 8.585664749145508 -0.6710790991783142 119
-8.685578346252441 1.9685323238372803 2.37441086769104 32
-9.943866729736328 2.255540370941162 2.343341827392578 32
-11.725976943969727 2.66192364692688 2.327685832977295 32
-14.277771949768066 3.2438290119171143 2.3103346824645996 32
-18.315000534057617 4.164426326751709 2.3015024662017822 32
-25.06928253173828 5.7048020362854 2.2460033893585205 32
-31.40007209777832 7.151210784912109 1.6857410669326782 13
nan nan nan 0
-1.9110394716262817 0.4373352825641632 -0.5150501132011414 119
-2.1837832927703857 0.5001530051231384 -0.5083897113800049 119
-2.620767831802368 0.6007172465324402 -0.5147220492362976 119
-3.1804423332214355 0.7295867800712585 -0.5107589364051819 119
-4.1970109939575195 0.9635565876960754 -0.5240387320518494 119
-6.008292198181152 1.3804973363876343 -0.5360086560249329 119
-10.50446605682373 2.415492534637451 -0.5610001683235168 119
-33.253936767578125 7.652824878692627 -0.5890083909034729 119
-8.678653717041016 1.9988386631011963 2.37441086769104 32
-9.935933113098145 2.2902371883392334 2.343341827392578 32
-11.71661376953125 2.702838659286499 2.327685832977295 32
-14.26154899597168 3.292536973953247 2.309553384780884 32
-18.300352096557617 4.228332042694092 2.3015024662017822 32
-25.05406951904297 5.793398380279541 2.246439218521118 32
-31.379783630371094 7.261899471282959 1.6860028505325317 13
-44.863712310791016 10.390595436096191 0.8031597137451172 30
-1.9047971963882446 0.4429096281528473 -0.5137560367584229 119
-2.1820240020751953 0.5077727437019348 -0.5083897113800049 119
-2.618655204772949 0.6098617315292358 -0.5147220492362976 119
-3.192304849624634 0.7440471053123474 -0.5131054520606995 119
-4.19362211227417 0.9782010316848755 -0.5240387320518494 119
-6.00343656539917 1.4014618396759033 -0.5360086560249329 119
-10.500832557678223 2.4532814025878906 -0.561260998249054 119
-33.15400314331055 7.75178337097168 -0.5877125263214111 119
-8.657516479492188 2.0258195400238037 2.3705313205718994 32
-9.927877426147461 2.32490611076355 2.343341827392578 32
-11.707107543945312 2.743720769882202 2.327685832977295 32
-14.245161056518555 3.3411712646484375 2.308772087097168 32
-18.280651092529297 4.29105281829834 2.3008930683135986 32
-24.999752044677734 5.872844219207764 2.2433888912200928 32
-31.38827133178711 7.379390716552734 1.6878345012664795 13
-38.89994430541992 9.152552604675293 0.6968745589256287 30
-1.9032396078109741 0.449555903673172 -0.5137560367584229 119
-2.184979200363159 0.516507089138031 -0.5095144510269165 119
-2.6165103912353516 0.6189988255500793 -0.5147220492362976 119
-3.2041049003601074 0.7585991024971008 -0.515451967716217 119
-4.195011138916016 0.9939777851104736 -0.5246480703353882 119
-5.998507976531982 1.422409176826477 -0.5360086560249329 119
-10.497062683105469 2.4910738468170166 -0.5615217685699463 119
-31.395174026489258 7.45622444152832 -0.5569576025009155 119
-8.631595611572266 2.051560163497925 2.365358352661133 32
-9.919702529907227 2.359546661376953 2.343341827392578 32
-11.692684173583984 2.783432960510254 2.326732635498047 32
-14.228607177734375 3.3897314071655273 2.307990789413452 32
-18.265560150146484 4.354837894439697 2.3008930683135986 32
-24.940338134765625 5.9508256912231445 2.2399024963378906 32
-31.318607330322266 7.478473663330078 1.6854792833328247 13
-31.360322952270508 7.49422025680542 0.5621419548988342 13
-1.896962285041809 0.45507004857063293 -0.5124619007110596 119
-2.1831629276275635 0.5241308808326721 -0.5095144510269165 119
-2.6143336296081543 0.6281284093856812 -0.5147220492362976 119
-3.2158420085906982 0.7732424736022949 -0.5177984833717346 119
-4.196341037750244 1.0097761154174805 -0.5252574682235718 119
-5.993505954742432 1.443339228630066 -0.5360086560249329 119
-10.488302230834961 2.527700424194336 -0.5615217685699463 119
-31.349515914916992 7.561080455780029 -0.5566120743751526 119
-8.610297203063965 2.078277826309204 2.361478567123413 32
-9.911405563354492 2.3941586017608643 2.343341827392578 32
-11.682896614074707 2.824230909347534 2.326732635498047 32
-14.207088470458984 3.4370551109313965 2.3064279556274414 32
-18.250247955322266 4.418570041656494 2.3008930683135986 32
-24.938779830932617 6.042539119720459 2.241645574569702 32
-31.297164916992188 7.588927268981934 1.6857410669326782 13
-31.319400787353516 7.600106239318848 0.5618801712989807 13
-1.895362138748169 0.46168890595436096 -0.5124619007110596 119
-2.1813201904296875 0.531748354434967 -0.5095144510269165 119
-2.616893768310547 0.6384136080741882 -0.5156752467155457 119
-3.2227187156677246 0.7868057489395142 -0.5193628668785095 119
-4.192790508270264 1.0244179964065552 -0.5252574682235718 119
-5.993269443511963 1.4654346704483032 -0.5364444255828857 119
-10.48426628112793 2.5654826164245605 -0.5617825984954834 119
-31.30836296081543 7.666896820068359 -0.5563529133796692 119
-8.58422565460205 2.103722095489502 2.3563055992126465 32
-9.902987480163574 2.428741216659546 2.343341827392578 32
-11.668200492858887 2.8638246059417725 2.325779438018799 32
-14.190208435058594 3.485448122024536 2.3056468963623047 32
-18.234712600708008 4.482248306274414 2.3008930683135986 32
-24.878841400146484 6.120036602020264 2.238159656524658 32
-31.265636444091797 7.696934700012207 1.6854792833328247 13
-31.28296661376953 7.7069926261901855 0.5617056488990784 13
-1.893739104270935 0.4683021306991577 -0.5124619007110596 119
-2.179450750350952 0.5393593907356262 -0.5095144510269165 119
-2.6146492958068848 0.6475443840026855 -0.5156752467155457 119
-3.2103657722473145 0.7956742644309998 -0.5177984833717346 119
-4.194005966186523 1.0402419567108154 -0.5258668065071106 119
-5.988117694854736 1.4863461256027222 -0.5364444255828857 119
-10.480093002319336 2.6032679080963135 -0.5620433688163757 119
-26.32792854309082 6.544768333435059 -0.46814846992492676 119
-8.567456245422363 2.1313419342041016 2.3537189960479736 32
-9.889720916748047 2.4621171951293945 2.3422179222106934 32
-11.658132553100586 2.9045369625091553 2.325779438018799 32
-14.177955627441406 3.5349602699279785 2.3056468963623047 32
-18.214139938354492 4.544670581817627 2.300283908843994 32
-24.920148849487305 6.222529411315918 2.2438244819641113 32
nan nan nan 0
-24.786117553710938 6.198254108428955 0.44529813528060913 30
-1.8920928239822388 0.4749096632003784 -0.5124619007110596 119
-2.1775548458099365 0.5469638109207153 -0.5095144510269165 119
-2.612372875213623 0.6566672325134277 -0.5156752467155457 119
-3.2027792930603027 0.8056708574295044 -0.5170162916183472 119
-4.190349102020264 1.054875373840332 -0.5258668065071106 119
-5.9828925132751465 1.5072394609451294 -0.5364444255828857 119
-10.470942497253418 2.639834403991699 -0.5620433688163757 119
nan nan nan 0
-8.555281639099121 2.160052537918091 2.3524258136749268 32
-9.88106632232666 2.4966237545013428 2.3422179222106934 32
-11.64792251586914 2.945213556289673 2.325779438018799 32
-14.170316696166992 3.5856401920318604 2.3064279556274414 32
-18.207788467407227 4.610658645629883 2.3015024662017822 32
nan nan nan 0
-24.125465393066406 6.118122100830078 1.3023802042007446 30
-22.77762222290039 5.780545234680176 0.4095207154750824 30
-1.895103931427002 0.4827035367488861 -0.5137560367584229 119
-2.1803534030914307 0.55576491355896 -0.5106391906738281 119
-2.605308771133423 0.6645689606666565 -0.5147220492362976 119
-3.195162534713745 0.8156243562698364 -0.5162341594696045 119
-4.186641693115234 1.0694960355758667 -0.5258668065071106 119
-5.982420921325684 1.5293481349945068 -0.5368801951408386 119
-10.466501235961914 2.6776063442230225 -0.5623041987419128 119
-22.213422775268555 5.686908721923828 -0.3955807089805603 119
-8.547689437866211 2.1899030208587646 2.3524258136749268 32
-9.872291564941406 2.531099796295166 2.3422179222106934 32
-11.637571334838867 2.9858546257019043 2.325779438018799 32
-14.167281150817871 3.637538433074951 2.307990789413452 32
-18.20600128173828 4.677892208099365 2.303330421447754 32
-21.764585494995117 5.596292495727539 1.9627472162246704 30
-22.15036964416504 5.699610710144043 1.1966615915298462 30
-20.196252822875977 5.200546741485596 0.36335909366607666 30
-1.8934073448181152 0.4893157184123993 -0.5137560367584229 119
-2.1784000396728516 0.5633723735809326 -0.5106391906738281 119
-2.602973222732544 0.6736591458320618 -0.5147220492362976 119
-3.1875152587890625 0.8255344033241272 -0.515451967716217 119
-4.182882785797119 1.0841037034988403 -0.5258668065071106 119
-5.977046012878418 1.5502214431762695 -0.5368801951408386 119
-10.457090377807617 2.7141246795654297 -0.5623041987419128 119
-20.0595703125 5.210173606872559 -0.3574826121330261 119
-8.539993286132812 2.219726800918579 2.3524258136749268 32
-9.858680725097656 2.564318895339966 2.3410940170288086 32
-11.627077102661133 3.026458978652954 2.325779438018799 32
-14.164055824279785 3.6894590854644775 2.309553384780884 32
-18.22797966003418 4.751429080963135 2.3082051277160645 32
-20.086944580078125 5.239743709564209 1.812839388847351 30
-20.067394256591797 5.238384246826172 1.084924340248108 30
-19.360536575317383 5.05747652053833 0.3486118018627167 30
-1.8916877508163452 0.4959219694137573 -0.5137560367584229 119
-2.1811323165893555 0.5722091794013977 -0.5117639303207397 119
-2.595858335494995 0.6814947724342346 -0.5137688517570496 119
-3.1893904209136963 0.8379107117652893 -0.5162341594696045 119
-4.179072856903076 1.0986980199813843 -0.5258668065071106 119
-5.971598148345947 1.5710757970809937 -0.5368801951408386 119
-10.452381134033203 2.7518813610076904 -0.56256502866745 119
-18.726335525512695 4.933726787567139 -0.33398449420928955 119
-8.527523040771484 2.2482919692993164 2.35113263130188 32
-9.849669456481934 2.5987162590026855 2.3410940170288086 32
-11.616442680358887 3.0670268535614014 2.325779438018799 32
-14.160640716552734 3.741401433944702 2.3111159801483154 32
-18.2304744720459 4.820101737976074 2.3106424808502197 32
-18.672101974487305 4.940353870391846 1.686463713645935 30
-18.7360897064209 4.960783004760742 1.0137474536895752 30
-17.951007843017578 4.7562689781188965 0.3234803378582001 30
-1.889945149421692 0.5025222301483154 -0.5137560367584229 119
-2.179121971130371 0.5798192620277405 -0.5117639303207397 119
-2.5887205600738525 0.6892889142036438 -0.5128157138824463 119
-3.186446189880371 0.8490386605262756 -0.5162341594696045 119
-4.180007457733154 1.1145575046539307 -0.5264761447906494 119
-5.96607780456543 1.5919109582901 -0.5368801951408386 119
-10.44753646850586 2.7896382808685303 -0.5628258585929871 119
-17.22624969482422 4.602870941162109 -0.3074627220630646 119
-8.519623756408691 2.2780449390411377 2.35113263130188 32
-9.840538024902344 2.633082151412964 2.3410940170288086 32
-11.610406875610352 3.1088266372680664 2.326732635498047 32
-14.161805152893066 3.7946431636810303 2.313459873199463 32
nan nan nan 0
-17.519393920898438 4.70086145401001 1.5836198329925537 30
-17.27195930480957 4.63770055770874 0.9352434873580933 30
-16.29277801513672 4.377829074859619 0.29381123185157776 30
-1.8881795406341553 0.5091162919998169 -0.5137560367584229 119
-2.1723811626434326 0.5861532092094421 -0.5106391906738281 119
-2.5910372734069824 0.6996004581451416 -0.5137688517570496 119
-3.1834630966186523 0.860156238079071 -0.5162341594696045 119
-4.176091194152832 1.1291416883468628 -0.5264761447906494 119
-5.960484981536865 1.6127268075942993 -0.5368801951408386 119
-10.442554473876953 2.82739520072937 -0.5630866289138794 119
-16.2160701751709 4.39365291595459 -0.2896663248538971 119
-8.511619567871094 2.307770252227783 2.35113263130188 32
-9.831287384033203 2.6674160957336426 2.3410940170288086 32
-11.59948444366455 3.1493353843688965 2.326732635498047 32
-14.162771224975586 3.8479387760162354 2.3158037662506104 32
-16.94647979736328 4.607431411743164 2.1516029834747314 30
-16.248441696166992 4.420693397521973 1.4698816537857056 30
-16.23911476135254 4.421200275421143 0.8800291419029236 30
-15.510472297668457 4.2257304191589355 0.2799365818500519 30
-1.88164222240448 0.5147589445114136 -0.5124619007110596 119
-2.1702182292938232 0.594111442565918 -0.5106391906738281 119
-2.5931897163391113 0.710389256477356 -0.5147220492362976 119
-3.185051679611206 0.8731240630149841 -0.5170162916183472 119
-4.171924591064453 1.1444402933120728 -0.5264761447906494 119
-5.954533576965332 1.6345621347427368 -0.5368801951408386 119
-10.436936378479004 2.8669729232788086 -0.5633474588394165 119
-15.524995803833008 4.267550468444824 -0.2775717079639435 119
-8.503104209899902 2.338951349258423 2.35113263130188 32
-9.82144546508789 2.7034316062927246 2.3410940170288086 32
-11.592596054077148 3.193131923675537 2.327685832977295 32
-14.139049530029297 3.8971970081329346 2.3142411708831787 32
-15.843491554260254 4.369974136352539 2.0132815837860107 30
-14.940542221069336 4.123727321624756 1.3526570796966553 30
-15.640433311462402 4.319841384887695 0.8483657836914062 30
-15.384052276611328 4.251919746398926 0.27792954444885254 30
-1.8844881057739258 0.522614598274231 -0.5137560367584229 119
-2.1634364128112793 0.600380539894104 -0.5095144510269165 119
-2.5906941890716553 0.7194368839263916 -0.5147220492362976 119
-3.1819846630096436 0.8842366337776184 -0.5170162916183472 119
-4.1726861000061035 1.1603256464004517 -0.5270854830741882 119
-5.943993091583252 1.654002070426941 -0.5364444255828857 119
-10.4220552444458 2.902047634124756 -0.5630866289138794 119
-14.527580261230469 4.0479736328125 -0.25994810461997986 119
-8.494888305664062 2.3686184883117676 2.35113263130188 32
-9.8119478225708 2.737698554992676 2.3410940170288086 32
-11.581379890441895 3.2335782051086426 2.327685832977295 32
nan nan nan 0
-14.920045852661133 4.171364784240723 1.8975056409835815 30
-14.455971717834473 4.044339179992676 1.309950828552246 30
-14.476081848144531 4.052689552307129 0.7858243584632874 30
-13.963455200195312 3.911811351776123 0.25244906544685364 30
-1.8873016834259033 0.5304964184761047 -0.5150501132011414 119
-2.161327600479126 0.6079286932945251 -0.5095144510269165 119
-2.5928919315338135 0.7298055291175842 -0.5156752467155457 119
-3.1788785457611084 0.8953384160995483 -0.5170162916183472 119
-4.168610095977783 1.1748839616775513 -0.5270854830741882 119
-5.933389663696289 1.6733886003494263 -0.5360086560249329 119
-10.407055854797363 2.9370534420013428 -0.5628258585929871 119
-13.695477485656738 3.8676843643188477 -0.2452617734670639 30
-8.486567497253418 2.398256778717041 2.35113263130188 32
-9.807021141052246 2.7732574939727783 2.3422179222106934 32
-11.57474422454834 3.2753217220306396 2.328639030456543 32
-13.355968475341797 3.7818751335144043 2.1900129318237305 30
-14.002964973449707 3.9677183628082275 1.782339096069336 30
-13.655866622924805 3.871943712234497 1.238483190536499 30
-13.726903915405273 3.894674062728882 0.7457873821258545 30
-13.290862083435059 3.7734642028808594 0.24049414694309235 30
-1.894728183746338 0.5397273898124695 -0.5176383256912231 119
-2.1591923236846924 0.6154693961143494 -0.5095144510269165 119
-2.5903286933898926 0.7388519644737244 -0.5156752467155457 119
-3.175733804702759 0.9064293503761292 -0.5170162916183472 119
-4.164483547210693 1.1894278526306152 -0.5270854830741882 119
-5.922723293304443 1.6927207708358765 -0.53557288646698 119
-10.391939163208008 2.971989870071411 -0.56256502866745 119
-12.984978675842285 3.71602463722229 -0.23273518681526184 30
-8.4827880859375 2.4291954040527344 2.3524258136749268 32
-9.797280311584473 2.807473659515381 2.3422179222106934 32
-11.567957878112793 3.3170576095581055 2.329592227935791 32
-12.768296241760254 3.663660764694214 2.0954742431640625 30
-13.273529052734375 3.8111369609832764 1.6909370422363281 30
-13.000770568847656 3.7352781295776367 1.180088758468628 30
-13.022204399108887 3.743896484375 0.7081054449081421 30
-12.600192070007324 3.624948740005493 0.22819019854068756 30
-1.892832636833191 0.546337902545929 -0.5176383256912231 119
-2.1570308208465576 0.6230026483535767 -0.5095144510269165 119
-2.587733745574951 0.7478893995285034 -0.5156752467155457 119
-3.1725504398345947 0.9175091981887817 -0.5170162916183472 119
-4.165073871612549 1.2053371667861938 -0.527694821357727 119
-5.9072089195251465 1.7106136083602905 -0.5347012877464294 119
-10.381502151489258 3.008246421813965 -0.56256502866745 119
-12.33813190460205 3.5775532722473145 -0.22133168578147888 30
-8.47425651550293 2.4587907791137695 2.3524258136749268 32
-9.792099952697754 2.8430140018463135 2.343341827392578 32
-11.575162887573242 3.3628950119018555 2.333405017852783 32
-12.21007251739502 3.549663782119751 2.0056235790252686 30
-12.659729957580566 3.682783365249634 1.614159345626831 30
-12.375495910644531 3.60244083404541 1.1243090629577637 30
-12.385848045349121 3.6077992916107178 0.6740871071815491 30
-11.968323707580566 3.4884471893310547 0.21693339943885803 30
-1.8770076036453247 0.5488752722740173 -0.5137560367584229 119
-2.1548430919647217 0.6305282711982727 -0.5095144510269165 119
-2.5803966522216797 0.7555384635925293 -0.5147220492362976 119
-3.174067735671997 0.9299664497375488 -0.5177984833717346 119
-4.16084098815918 1.219868540763855 -0.527694821357727 119
-5.896422386169434 1.7298210859298706 -0.5342655181884766 119
-10.361355781555176 3.0416533946990967 -0.5620433688163757 119
-11.764368057250977 3.4557483196258545 -0.2112240344285965 30
-8.470255851745605 2.4897186756134033 2.3537189960479736 32
-9.782116889953613 2.8771777153015137 2.343341827392578 32
-11.563353538513184 3.4032793045043945 2.333405017852783 30
-11.624381065368652 3.423445224761963 1.9110850095748901 30
-12.056517601013184 3.5529985427856445 1.5386004447937012 30
-11.803869247436523 3.480783700942993 1.0733230113983154 30
-11.788918495178223 3.478611469268799 0.6421621441841125 30
-11.639630317687988 3.4367687702178955 0.2111741006374359 30
-1.8658185005187988 0.552680492401123 -0.5111678242683411 119
-2.1526288986206055 0.6380462646484375 -0.5095144510269165 119
-2.5777437686920166 0.7645411491394043 -0.5147220492362976 119
-3.170802354812622 0.9410403370857239 -0.5177984833717346 119
-4.156557559967041 1.2343852519989014 -0.527694821357727 119
-5.890347957611084 1.7503927946090698 -0.5342655181884766 119
-10.369819641113281 3.0834953784942627 -0.5630866289138794 119
-11.282651901245117 3.357071876525879 -0.2027577906847 30
-8.461512565612793 2.5192699432373047 2.3537189960479736 32
-9.772012710571289 2.9113059043884277 2.343341827392578 32
-11.438514709472656 3.409968137741089 2.310528516769409 30
-11.04446029663086 3.2945947647094727 1.817327857017517 30
-11.468636512756348 3.4233076572418213 1.4648693799972534 30
-11.185521125793457 3.340926170349121 1.0179790258407593 30
-11.2935152053833 3.37532901763916 0.6157324910163879 30
-10.813325881958008 3.2338690757751465 0.19633956253528595 30
-1.8592519760131836 0.5578022003173828 -0.5098737478256226 119
-2.155055046081543 0.6469573378562927 -0.5106391906738281 119
-2.575059175491333 0.7735344767570496 -0.5147220492362976 119
-3.172227621078491 0.9535243511199951 -0.5185806751251221 119
-4.156976222991943 1.2503162622451782 -0.5283042192459106 119
-5.884202003479004 1.7709434032440186 -0.5342655181884766 119
-10.344650268554688 3.115354537963867 -0.5623041987419128 119
-10.763481140136719 3.243537187576294 -0.19360043108463287 30
-8.457291603088379 2.550185203552246 2.3550121784210205 32
-9.775784492492676 2.9496209621429443 2.3467135429382324 32
-10.881479263305664 3.285311222076416 2.199958562850952 30
-10.564864158630371 3.1917319297790527 1.7399780750274658 30
-10.805810928344727 3.2665820121765137 1.3813890218734741 30
-10.735170364379883 3.247272253036499 0.9778873920440674 30
-10.794203758239746 3.267185926437378 0.5890411734580994 30
-10.514894485473633 3.184648036956787 0.19110384583473206 30
-1.8665357828140259 0.5670967698097229 -0.5124619007110596 119
-2.157444477081299 0.6558929085731506 -0.5117639303207397 119
-2.572343349456787 0.7825183868408203 -0.5147220492362976 119
-3.168879747390747 0.9645916223526001 -0.5185806751251221 119
-4.152586460113525 1.2648191452026367 -0.5283042192459106 119
-5.877984523773193 1.791472315788269 -0.5342655181884766 119
-10.324159622192383 3.1485321521759033 -0.5617825984954834 119
-10.312188148498535 3.146848201751709 -0.18565253913402557 30
-8.44833755493164 2.579691171646118 2.3550121784210205 32
-9.770088195800781 2.985150098800659 2.347837448120117 32
-10.438112258911133 3.1912503242492676 2.1122653484344482 30
-10.156966209411621 3.107234001159668 1.6743481159210205 30
-10.452675819396973 3.199692726135254 1.337515950202942 30
-10.237988471984863 3.1359291076660156 0.9334380030632019 30
-10.305337905883789 3.1585257053375244 0.5628731846809387 30
-10.054438591003418 3.0835464000701904 0.18290120363235474 30
-1.8691611289978027 0.5750288963317871 -0.5137560367584229 119
-2.1597983837127686 0.6648532152175903 -0.5128887295722961 119
-2.574287176132202 0.7929376363754272 -0.5156752467155457 119
-3.1607742309570312 0.97419273853302 -0.5177984833717346 119
-4.14814567565918 1.2793066501617432 -0.5283042192459106 119
-5.866936206817627 1.8105106353759766 -0.5338297486305237 119
-10.026850700378418 3.096158981323242 -0.5461340546607971 119
-9.895142555236816 3.0573809146881104 -0.178309366106987 30
-8.443897247314453 2.6105923652648926 2.3563055992126465 32
-9.768917083740234 3.022116184234619 2.3500852584838867 30
-9.981473922729492 3.0897812843322754 2.021712303161621 30
-9.730920791625977 3.0140833854675293 1.6055927276611328 30
-10.03377914428711 3.1098110675811768 1.2851122617721558 30
-9.846384048461914 3.053614616394043 0.8985756635665894 30
-9.893670082092285 3.0701723098754883 0.5408921241760254 30
-9.652115821838379 2.997061014175415 0.17574572563171387 30
-1.8717535734176636 0.5829861760139465 -0.5150501132011414 119
-2.1621153354644775 0.6738377809524536 -0.5140134692192078 119
-2.5715036392211914 0.8019188046455383 -0.5156752467155457 119
-3.1573543548583984 0.9852198958396912 -0.5177984833717346 119
-4.148392200469971 1.2952576875686646 -0.5289134979248047 119
-5.855826377868652 1.829493761062622 -0.5333939790725708 119
-9.634722709655762 3.011953353881836 -0.5252693295478821 119
-9.497937202453613 2.9710116386413574 -0.17131176590919495 30
-8.439342498779297 2.641494035720825 2.3575987815856934 32
-9.632776260375977 3.0168819427490234 2.319739818572998 30
-9.624032974243164 3.015988349914551 1.951176404953003 30
-9.376340866088867 2.9401636123657227 1.5485570430755615 30
-9.568291664123535 3.0021884441375732 1.2266148328781128 30
-9.469740867614746 2.9730823040008545 0.865020751953125 30
-9.516093254089355 2.98945951461792 0.5207427740097046 30
-9.274368286132812 2.9153006076812744 0.16902653872966766 30
-1.8789193630218506 0.5924208760261536 -0.5176383256912231 119
-2.164396286010742 0.68284672498703 -0.5151382088661194 119
-2.5686886310577393 0.8108901381492615 -0.5156752467155457 119
-3.1538960933685303 0.9962351322174072 -0.5177984833717346 119
-4.143845558166504 1.3097304105758667 -0.5289134979248047 119
-5.849404335021973 1.8499232530593872 -0.5333939790725708 119
-9.24807071685791 2.9265553951263428 -0.5046654343605042 119
-9.110991477966309 2.8849263191223145 -0.16448692977428436 30
-8.434674263000488 2.6723952293395996 2.3588922023773193 32
-9.352819442749023 2.9650917053222656 2.2545533180236816 30
-9.243842124938965 2.932318687438965 1.875874638557434 30
-9.06005573272705 2.8757588863372803 1.497771978378296 30
-9.25503921508789 2.939426898956299 1.1876167058944702 30
-9.122265815734863 2.899010419845581 0.8340804576873779 30
-9.148723602294922 2.9091765880584717 0.5011167526245117 30
-8.93542766571045 2.8430685997009277 0.16300547122955322 30
-1.8768399953842163 0.5989758968353271 -0.5176383256912231 119
-2.161999464035034 0.6903976798057556 -0.5151382088661194 119
-2.565842390060425 0.8198515772819519 -0.5156752467155457 119
-3.1503994464874268 1.0072382688522339 -0.5177984833717346 119
-4.143975257873535 1.3256992101669312 -0.5295228958129883 119
-5.838167190551758 1.8688116073608398 -0.5329581499099731 119
-8.885910987854004 2.846111297607422 -0.48536553978919983 119
-8.800939559936523 2.820589542388916 -0.15904435515403748 30
-8.425293922424316 2.7018215656280518 2.3588922023773193 32
-9.00376033782959 2.889057159423828 2.1725082397460938 30
-8.934456825256348 2.868539333343506 1.8148704767227173 30
-8.720829963684082 2.8016304969787598 1.443080186843872 30
-8.932897567749023 2.87147855758667 1.1473997831344604 30
-8.818102836608887 2.8362762928009033 0.8070622086524963 30
-8.829564094543457 2.841663122177124 0.4841075837612152 30
-8.625657081604004 2.777700424194336 0.15750795602798462 30
-1.870141863822937 0.604039192199707 -0.5163442492485046 119
-2.1642119884490967 0.6994383931159973 -0.516262948513031 119
-2.562964916229248 0.8288030028343201 -0.5156752467155457 119
-3.146864175796509 1.0182290077209473 -0.5177984833717346 119
-4.139322280883789 1.3401563167572021 -0.5295228958129883 119
-5.826869964599609 1.8876441717147827 -0.5325223803520203 119
