# .PCD v0.7 - Point Cloud Data file format
VERSION 0.7
FIELDS x y z intensity
SIZE 4 4 4 4
TYPE F F F F
COUNT 1 1 1 1
WIDTH 927
HEIGHT 1
VIEWPOINT 0 0 0 1 0 0 0
POINTS 927
DATA ascii
2.0356435775756836 0.6041449308395386 -0.48139551281929016 119
2.3895161151885986 0.7087146639823914 -0.4765945076942444 119
2.9201841354370117 0.8655528426170349 -0.4763433039188385 119
3.4912469387054443 1.034155011177063 -0.4423862099647522 119
3.48502254486084 1.0316497087478638 -0.31463271379470825 49
3.460146188735962 1.023628830909729 -0.18647843599319458 49
3.4692745208740234 1.0256708860397339 -0.06185537949204445 49
3.473564386367798 1.0262799263000488 0.9595931172370911 49
3.5084407329559326 1.0359185934066772 0.8350613713264465 49
3.5062124729156494 1.0345953702926636 0.7024998068809509 49
3.4946367740631104 1.0305166244506836 0.570356547832489 49
3.4308032989501953 1.0110422372817993 0.4344641864299774 49
3.4769034385681152 1.02396821975708 0.3137606680393219 49
3.504650592803955 1.031475305557251 0.18945614993572235 49
3.4754891395568848 1.0222333669662476 0.06256687641143799 49
1.7885671854019165 0.5243695974349976 -0.4891682267189026 119
2.042415142059326 0.5984053611755371 -0.48252031207084656 119
2.3966856002807617 0.7017485499382019 -0.47754764556884766 119
2.9374072551727295 0.8595149517059326 -0.47868984937667847 119
3.5138885974884033 1.0275334119796753 -0.44482359290122986 119
3.512507677078247 1.0264641046524048 -0.31681162118911743 49
3.4876632690429688 1.0185432434082031 -0.18778248131275177 49
3.4920296669006348 1.0191569328308105 -0.062200941145420074 49
3.5003092288970947 1.020910382270813 0.9660593867301941 49
3.5354228019714355 1.030482292175293 0.8406808972358704 49
3.533364772796631 1.029213309288025 0.7072656750679016 49
3.517179489135742 1.0238330364227295 0.5734817981719971 49
3.4581375122070312 1.0059914588928223 0.4375109076499939 49
3.513937473297119 1.0215587615966797 0.31681114435195923 49
3.527409315109253 1.0248075723648071 0.19050286710262299 49
3.517444133758545 1.0212466716766357 0.06326497346162796 49
1.8135830163955688 0.5248359441757202 -0.4956386983394623 119
2.053851842880249 0.5939793586730957 -0.4847698211669922 119
nan nan nan 0
2.9071779251098633 0.8396639227867126 -0.47321462631225586 119
3.541294574737549 1.0221426486968994 -0.4478703439235687 119
3.535212516784668 1.0197187662124634 -0.31855472922325134 49
3.5103888511657715 1.0118948221206665 -0.18882571160793304 49
3.5195858478546143 1.013880729675293 -0.06263289600610733 49
3.5270583629608154 1.015366554260254 0.9725257158279419 49
3.562408924102783 1.0248700380325317 0.8463004231452942 49
3.5605220794677734 1.0236544609069824 0.7120316624641418 49
3.5444648265838623 1.018368124961853 0.577388346195221 49
3.485478162765503 1.0007622241973877 0.44055765867233276 49
3.546208620071411 1.0175293684005737 0.3194257915019989 49
3.5549638271331787 1.0193699598312378 0.19181127846240997 49
3.545016288757324 1.0158480405807495 0.06370127946138382 49
nan nan nan 0
2.0605974197387695 0.5881435871124268 -0.4858945310115814 119
nan nan nan 0
2.891094207763672 0.8240957260131836 -0.4700859487056732 119
3.568704843521118 1.0165728330612183 -0.4509170651435852 119
3.5627033710479736 1.0141910314559937 -0.32073360681533813 49
3.537912607192993 1.0064663887023926 -0.19012977182865143 49
3.5471465587615967 1.008424162864685 -0.06306484341621399 49
3.5538110733032227 1.0096484422683716 0.9789919257164001 49
3.5893986225128174 1.019081950187683 0.851919949054718 49
3.582961320877075 1.0165785551071167 0.7158443927764893 49
3.5717544555664062 1.0127253532409668 0.5812948942184448 49
3.5128238201141357 0.9953539967536926 0.44360437989234924 49
3.5832865238189697 1.014643907546997 0.32247623801231384 49
3.5825231075286865 1.0137522220611572 0.19311966001987457 49
3.572593927383423 1.0102691650390625 0.06413759291172028 49
nan nan nan 0
2.0438802242279053 0.5756640434265137 -0.48139551281929016 119
nan nan nan 0
2.8749372959136963 0.8086502552032471 -0.4669572412967682 119
3.5961198806762695 1.0108243227005005 -0.4539638161659241 119
3.5901989936828613 1.00848388671875 -0.3229125142097473 49
3.560634136199951 0.9995085597038269 -0.1911730021238327 49
3.5747125148773193 1.0027875900268555 -0.06349679827690125 49
3.58056640625 1.0037556886672974 0.9854581952095032 49
3.6116998195648193 1.0118036270141602 0.8564155697822571 49
3.610121011734009 1.0106817483901978 0.7206103801727295 49
3.5942914485931396 1.0055737495422363 0.5844201445579529 49
3.5401742458343506 0.9897671341896057 0.4466511309146881 49
3.6155900955200195 1.01017165184021 0.3250909149646759 49
3.610085964202881 1.0079545974731445 0.19442807137966156 49
3.604990243911743 1.0058536529541016 0.06466116011142731 49
nan nan nan 0
2.0411832332611084 0.5672216415405273 -0.4802708029747009 119
nan nan nan 0
2.9015355110168457 0.8052127957344055 -0.47086814045906067 119
3.62831974029541 1.0062226057052612 -0.45761987566947937 119
3.6176977157592773 1.0025969743728638 -0.3250914216041565 49
3.5833494663238525 0.9924043416976929 -0.19221623241901398 49
3.597463607788086 0.9956372976303101 -0.06384235620498657 49
3.6119790077209473 0.9989758729934692 0.9932177066802979 49
3.6386892795562744 1.0056796073913574 0.8620350360870361 49
3.637282609939575 1.0046075582504272 0.7253762483596802 49
3.6168220043182373 0.9982770681381226 0.5875453948974609 49
3.567528009414673 0.9840013980865479 0.4496978521347046 49
3.6479055881500244 1.005486249923706 0.32770559191703796 49
3.642465591430664 1.0033026933670044 0.1959981471300125 49
3.6325793266296387 0.9998974800109863 0.06509747356176376 49
nan nan nan 0
2.0525476932525635 0.5626691579818726 -0.48252031207084656 119
2.380164623260498 0.6520328521728516 -0.47182852029800415 119
2.9043285846710205 0.7950796484947205 -0.47086814045906067 119
3.6557443141937256 1.0000990629196167 -0.46066662669181824 119
3.645198345184326 0.9965302348136902 -0.3272702991962433 49
3.6012415885925293 0.9838377833366394 -0.19299866259098053 49
3.6298534870147705 0.9909735321998596 -0.06436069309711456 49
3.634082317352295 0.9914464950561523 0.9983907341957092 49
3.6703808307647705 1.0006611347198486 0.8687785267829895 49
3.6691813468933105 0.9996461868286133 0.7310953736305237 49
3.6441102027893066 0.9921326041221619 0.59145188331604 49
3.5900955200195312 0.9767537117004395 0.45213523507118225 49
3.680232286453247 1.0005873441696167 0.3303202688694 49
3.66521954536438 0.995818555355072 0.19704486429691315 49
3.664994716644287 0.99507075548172 0.06562104821205139 49
nan nan nan 0
nan nan nan 0
2.368211030960083 0.6398796439170837 -0.4689689874649048 119
2.916621446609497 0.78751140832901 -0.4724324643611908 119
3.673586845397949 0.9912103414535522 -0.4624946713447571 119
3.672701120376587 0.9902836680412292 -0.32944920659065247 49
3.6094751358032227 0.9725600481033325 -0.19325947761535645 49
3.6429452896118164 0.9808966517448425 -0.06453347951173782 49
3.6655046939849854 0.9862847328186035 1.006150245666504 49
3.697376012802124 0.9941684603691101 0.8743980526924133 49
3.6963491439819336 0.9932007193565369 0.7358613610267639 49
3.657090663909912 0.9819676280021667 0.5930145382881165 49
3.6174492835998535 0.9706466197967529 0.4551819860935211 49
3.7077577114105225 0.9941847920417786 0.3324991464614868 49
3.6927883625030518 0.9894800782203674 0.19835327565670013 49
3.692591428756714 0.988736629486084 0.06605735421180725 49
nan nan nan 0
2.0517187118530273 0.5470708608627319 -0.48139551281929016 119
2.394144296646118 0.6379278302192688 -0.47373491525650024 119
2.9193525314331055 0.7773256897926331 -0.4724324643611908 119
3.6866161823272705 0.9809332489967346 -0.4637133479118347 119
3.7050178050994873 0.9851372241973877 -0.3320638835430145 49
3.656280040740967 0.9714949131011963 -0.1956067532300949 49
3.6946654319763184 0.9810038208961487 -0.06539738178253174 49
3.6782617568969727 0.9759610891342163 1.0087367296218872 49
3.7243704795837402 0.987499475479126 0.8800175786018372 49
3.7330057621002197 0.9890918135643005 0.7425336837768555 49
3.7082366943359375 0.9818364381790161 0.6008276343345642 49
3.644803524017334 0.9643603563308716 0.4582287073135376 49
3.7449138164520264 0.9901487231254578 0.33554959297180176 49
3.7107019424438477 0.9804103374481201 0.19913829863071442 49
3.734689235687256 0.9860506057739258 0.06675545126199722 49
nan nan nan 0
2.0583274364471436 0.5411444902420044 -0.48252031207084656 119
2.405850648880005 0.6320611834526062 -0.47564128041267395 119
2.936378002166748 0.7708926200866699 -0.4747789800167084 119
3.6900177001953125 0.9680585861206055 -0.4637133479118347 119
3.7421610355377197 0.9810400605201721 -0.33511435985565186 49
3.6886301040649414 0.9663183689117432 -0.19717161357402802 49
3.7222485542297363 0.9744313955307007 -0.0658293291926384 49
3.7236998081207275 0.9741168022155762 1.0203759670257568 49
3.7560768127441406 0.9818862676620483 0.8867610096931458 49
3.7506823539733887 0.9797766804695129 0.7453932166099548 49
3.7164199352264404 0.9701336026191711 0.60160893201828 49
3.6721580028533936 0.9578948616981506 0.4612754285335541 49
3.7628071308135986 0.980839729309082 0.3368569612503052 49
3.7527570724487305 0.9775206446647644 0.20123174786567688 49
3.767136812210083 0.9805641174316406 0.06727902591228485 49
nan nan nan 0
nan nan nan 0
nan nan nan 0
2.915146589279175 0.7544514536857605 -0.47086814045906067 119
3.6933746337890625 0.9551721215248108 -0.4637133479118347 119
3.7841427326202393 0.9779418110847473 -0.3386005759239197 49
3.749995708465576 0.9684188961982727 -0.20030131936073303 49
3.74014949798584 0.9651798605918884 -0.06608849763870239 49
3.741107702255249 0.9647308588027954 1.0242557525634766 49
3.7877886295318604 0.9760635495185852 0.8935044407844543 49
3.7873525619506836 0.975246250629425 0.7520655393600464 49
3.7723941802978516 0.9706924557685852 0.6102033853530884 49
3.713930130004883 0.9549577236175537 0.4661501944065094 49
3.7999777793884277 0.976375937461853 0.33990737795829773 49
3.7416374683380127 0.9606897830963135 0.2004467099905014 49
3.775378704071045 0.968650758266449 0.06736628711223602 49
nan nan nan 0
nan nan nan 0
2.353135347366333 0.6006819009780884 -0.46420302987098694 119
2.941688299179077 0.7503741383552551 -0.4747789800167084 119
3.691877603530884 0.9410483241081238 -0.4631040394306183 119
3.8116676807403564 0.970874011516571 -0.34077948331832886 49
3.7678699493408203 0.9590179324150085 -0.20108374953269958 49
nan nan nan 0
nan nan nan 0
3.8147835731506348 0.9688321948051453 0.8991239666938782 49
3.824035882949829 0.9704715013504028 0.7587379217147827 49
nan nan nan 0
3.7364838123321533 0.9468641877174377 0.46858760714530945 49
3.8516483306884766 0.9753326773643494 0.3442651629447937 49
nan nan nan 0
nan nan nan 0
nan nan nan 0
nan nan nan 0
nan nan nan 0
nan nan nan 0
3.6951398849487305 0.9281554818153381 -0.4631040394306183 119
3.88266921043396 0.9745392799377441 -0.34688040614128113 0
nan nan nan 0
nan nan nan 0
nan nan nan 0
4.106445789337158 1.0276596546173096 0.9676821231842041 48
4.117862701416016 1.0297530889511108 0.8168823719024658 48
4.128840446472168 1.0317326784133911 0.6672390103340149 48
nan nan nan 0
4.144998073577881 1.0342330932617188 0.3704119026660919 48
4.135839462280273 1.0311810970306396 0.22138109803199768 48
4.141019821166992 1.0317051410675049 0.07382367551326752 48
1.7573952674865723 0.436213880777359 -0.4749331474304199 119
2.051496744155884 0.5088344812393188 -0.47914600372314453 119
2.433497905731201 0.6031317710876465 -0.47945404052734375 119
nan nan nan 0
3.698357343673706 0.9152514338493347 -0.4631040394306183 119
3.9005534648895264 0.9645674824714661 -0.34818771481513977 119
4.1428751945495605 1.0237239599227905 -0.22090522944927216 48
4.16745138168335 1.0290250778198242 -0.0735180601477623 48
4.158967971801758 1.0261603593826294 1.1367686986923218 48
4.143120765686035 1.0214831829071045 0.9755494594573975 48
4.145260810852051 1.0212433338165283 0.8216482996940613 48
4.156393527984619 1.023216724395752 0.6711456179618835 48
4.118890285491943 1.0132216215133667 0.5161166787147522 48
4.167930603027344 1.0245139598846436 0.3721550405025482 48
4.153960704803467 1.0203112363815308 0.22216612100601196 48
4.1737260818481445 1.0243936777114868 0.07434724271297455 48
nan nan nan 0
2.067458152770996 0.5051392912864685 -0.48252031207084656 119
nan nan nan 0
2.925396203994751 0.7136760950088501 -0.47086814045906067 119
3.7015295028686523 0.9023361802101135 -0.4631040394306183 119
3.8845386505126953 0.9462307691574097 -0.34644460678100586 119
4.180384159088135 1.0175225734710693 -0.22273088991641998 48
4.161302089691162 1.0121086835861206 -0.07334527373313904 48
4.1484456062316895 1.0082148313522339 1.1328890323638916 48
4.156130313873291 1.0093142986297607 0.977797269821167 48
4.153570652008057 1.007925033569336 0.8226014971733093 48
4.131143093109131 1.0017192363739014 0.6664577126502991 48
4.170633316040039 1.0105241537094116 0.5222101211547852 48
4.166640281677246 1.0087867975234985 0.37171924114227295 48
4.172056198120117 1.0093272924423218 0.22295115888118744 48
4.133543014526367 0.9992462992668152 0.0735618844628334 48
1.8261332511901855 0.43976467847824097 -0.4930504858493805 119
2.088155508041382 0.5024785995483398 -0.4870193302631378 119
nan nan nan 0
2.9278695583343506 0.7034602165222168 -0.47086814045906067 119
3.709482192993164 0.8905683755874634 -0.4637133479118347 119
3.868443727493286 0.9280176758766174 -0.34470149874687195 119
4.169343948364258 0.9994323253631592 -0.22194847464561462 48
4.159948348999023 0.996412456035614 -0.0732588842511177 48
4.137847423553467 0.9903550744056702 1.1290091276168823 48
4.1359357833862305 0.9891344904899597 0.9721777439117432 48
4.142741680145264 0.9899976849555969 0.8197419047355652 48
4.115400314331055 0.9827046394348145 0.663332462310791 48
4.140345096588135 0.9878973364830017 0.5179446935653687 48
4.150755882263184 0.9896156787872314 0.36997613310813904 48
4.14155387878418 0.9866579174995422 0.22111940383911133 48
4.127279758453369 0.9824960827827454 0.07338736206293106 48
nan nan nan 0
nan nan nan 0
nan nan nan 0
2.9447245597839355 0.696646511554718 -0.47321462631225586 119
3.717397928237915 0.8787561058998108 -0.4643227159976959 119
3.85711669921875 0.9110735654830933 -0.3433941602706909 119
4.133929252624512 0.9756964445114136 -0.2198619842529297 48
4.139071941375732 0.9761477708816528 -0.07282692939043045 48
4.1647844314575195 0.9814444184303284 1.1354753971099854 48
4.129879474639893 0.9724580645561218 0.9699299931526184 48
4.131838321685791 0.9721583724021912 0.8168823719024658 48
4.113997936248779 0.9672029614448547 0.6625511646270752 48
4.129274845123291 0.9700340032577515 0.5161166787147522 48
4.154184818267822 0.9751207828521729 0.36997613310813904 48
4.135250091552734 0.9699147343635559 0.22059603035449982 48
4.116082191467285 0.9646610617637634 0.07312557846307755 48
nan nan nan 0
2.0916123390197754 0.487888365983963 -0.4870193302631378 119
nan nan nan 0
2.932709217071533 0.6830028295516968 -0.47086814045906067 119
3.730109930038452 0.8680242896080017 -0.46554142236709595 119
3.8457188606262207 0.8942198157310486 -0.3420868217945099 119
4.147037506103516 0.9635205864906311 -0.22038359940052032 48
4.1229753494262695 0.9571715593338013 -0.07248137146234512 48
4.139955997467041 0.9603522419929504 1.1277159452438354 48
4.12375545501709 0.95583575963974 0.9676821231842041 48
4.120862007141113 0.954407274723053 0.8140228390693665 48
4.107726573944092 0.9506097435951233 0.6609885692596436 48
4.127799987792969 0.9544961452484131 0.5155073404312134 48
4.147857666015625 0.9583715200424194 0.3691045939922333 48
4.1240153312683105 0.9521045684814453 0.21981100738048553 48
4.1048102378845215 0.9469161629676819 0.07286378741264343 48
1.8306384086608887 0.4206176698207855 -0.4930504858493805 119
2.0648128986358643 0.4740435779094696 -0.4802708029747009 119
2.4245171546936035 0.5561797022819519 -0.47564128041267395 119
2.9302618503570557 0.6716582179069519 -0.4700859487056732 119
3.737954616546631 0.8561064004898071 -0.46615076065063477 119
3.8342504501342773 0.8774568438529968 -0.34077948331832886 119
4.140639781951904 0.946812629699707 -0.2198619842529297 48
4.106796741485596 0.9383196830749512 -0.0721358135342598 48
4.138574123382568 0.9448202848434448 1.1264227628707886 48
4.11756706237793 0.9392683506011963 0.9654343724250793 48
4.114596843719482 0.9378353357315063 0.8121163845062256 48
4.106204032897949 0.9351685643196106 0.660207211971283 48
4.121428489685059 0.9378791451454163 0.514288604259491 48
4.146320343017578 0.9427825212478638 0.368668794631958 48
4.117575168609619 0.9354907870292664 0.21928764879703522 48
4.1129655838012695 0.9336885809898376 0.0729510560631752 48
1.8320953845977783 0.4142250120639801 -0.4930504858493805 119
2.0759592056274414 0.46898022294044495 -0.48252031207084656 119
2.43123197555542 0.5487939715385437 -0.4765945076942444 119
2.9277710914611816 0.6603391170501709 -0.46930378675460815 119
3.7457613945007324 0.844144344329834 -0.4667600989341736 119
3.827571392059326 0.8618791103363037 -0.3399079144001007 119
4.143919944763184 0.9323533773422241 -0.2198619842529297 48
4.110046863555908 0.9239785671234131 -0.0721358135342598 48
4.132421493530273 0.9282510280609131 1.1238361597061157 48
4.111313343048096 0.922755777835846 0.963186502456665 48
4.108266830444336 0.9213189482688904 0.8102100491523743 48
4.0998053550720215 0.9186698198318481 0.6586445569992065 48
4.114992141723633 0.921318531036377 0.5130699276924133 48
4.139863967895508 0.9261284470558167 0.36779722571372986 48
4.111069679260254 0.9189335703849792 0.2187642902135849 48
4.116199970245361 0.9193259477615356 0.0729510560631752 48
1.8287447690963745 0.40709784626960754 -0.491756409406662 119
2.0964441299438477 0.4666905403137207 -0.4870193302631378 119
2.428152561187744 0.5400875806808472 -0.47564128041267395 119
2.9298312664031982 0.6511380076408386 -0.46930378675460815 119
3.753239631652832 0.8334483504295349 -0.4673694372177124 119
3.83512282371521 0.8509290814399719 -0.340343713760376 119
4.137078762054443 0.917168915271759 -0.21934036910533905 48
4.112929344177246 0.9110619425773621 -0.0721358135342598 48
4.1258864402771 0.9131766557693481 1.1212496757507324 48
4.109434604644775 0.9087830781936646 0.9620625972747803 48
4.106348514556885 0.9073488712310791 0.8092568516731262 48
4.093026638031006 0.9036561250686646 0.6570820212364197 48
4.1130194664001465 0.9073173403739929 0.5124605894088745 48
4.133025169372559 0.9109739661216736 0.3669256865978241 48
4.109060287475586 0.9049398899078369 0.21850259602069855 48
4.114185333251953 0.9053156971931458 0.07286378741264343 48
1.834802269935608 0.40206506848335266 -0.4930504858493805 119
2.0885422229766846 0.45728573203086853 -0.4847698211669922 119
2.430022954940796 0.5316084623336792 -0.47564128041267395 119
2.9272615909576416 0.6398524045944214 -0.4685215950012207 119
3.7561261653900146 0.8203420042991638 -0.4673694372177124 119
3.8624019622802734 0.8428465723991394 -0.34252259135246277 119
4.130497932434082 0.9005947113037109 -0.21881873905658722 48
4.116084575653076 0.8966996073722839 -0.0721358135342598 48
4.124329566955566 0.8977418541908264 1.1199564933776855 48
4.103060245513916 0.8923622369766235 0.9598148465156555 48
4.10469388961792 0.8919671773910522 0.8083036541938782 48
4.086503505706787 0.8872674107551575 0.6555193066596985 48
4.106461524963379 0.890850305557251 0.5112418532371521 48
4.126443386077881 0.8944311738014221 0.36605411767959595 48
4.102434158325195 0.8884772658348083 0.21797925233840942 48
4.112434387207031 0.8898916840553284 0.07277653366327286 48
1.8315423727035522 0.3943210244178772 -0.491756409406662 119
2.0806784629821777 0.44757866859436035 -0.48252031207084656 119
2.431955099105835 0.5226984024047852 -0.47564128041267395 119
2.929586887359619 0.6291191577911377 -0.4685215950012207 119
3.7591075897216797 0.8065696358680725 -0.4673694372177124 119
3.8946869373321533 0.8349491357803345 -0.34513726830482483 119
4.128889083862305 0.8844040036201477 -0.2185579538345337 48
4.114455699920654 0.8805612921714783 -0.07204942405223846 48
4.12286901473999 0.8816094398498535 1.1186631917953491 48
4.10153865814209 0.8762997388839722 0.958690881729126 48
4.10313606262207 0.8758922219276428 0.8073505163192749 48
4.084898471832275 0.8712536096572876 0.6547380685806274 48
4.1048455238342285 0.8747591376304626 0.5106325149536133 48
4.12482213973999 0.8782636523246765 0.3656183183193207 48
4.100779056549072 0.8723962306976318 0.21771757304668427 48
4.110778331756592 0.8737735152244568 0.07268927246332169 48
1.837632417678833 0.38892531394958496 -0.4930504858493805 119
2.072695255279541 0.4382971525192261 -0.4802708029747009 119
2.4385673999786377 0.5152208209037781 -0.4765945076942444 119
2.93176531791687 0.6188891530036926 -0.4685215950012207 119
3.7619001865386963 0.793442964553833 -0.4673694372177124 119
3.921947479248047 0.8264845609664917 -0.347316175699234 119
4.122178554534912 0.8679284453392029 -0.21803632378578186 48
4.112611770629883 0.865164577960968 -0.07196303457021713 48
4.121194839477539 0.8662191033363342 1.1173698902130127 48
4.09503698348999 0.8599748015403748 0.9564431309700012 48
4.101364612579346 0.8605562448501587 0.8063973188400269 48
4.083081245422363 0.8559760451316833 0.6539567708969116 48
4.098159313201904 0.8583903908729553 0.5094138383865356 48
4.118112564086914 0.8618194460868835 0.3647467792034149 48
4.098911762237549 0.8570545315742493 0.2174558788537979 48
4.108909606933594 0.8583965301513672 0.07260200381278992 48
1.838978886604309 0.38250842690467834 -0.4930504858493805 119
2.0646727085113525 0.4290768802165985 -0.4780212938785553 119
2.4403510093688965 0.5067054629325867 -0.4765945076942444 119
2.9339077472686768 0.6086516380310059 -0.4685215950012207 119
3.7646467685699463 0.7803066372871399 -0.4673694372177124 119
3.9833385944366455 0.8249103426933289 -0.35254552960395813 119
4.120293140411377 0.8525223135948181 -0.21777550876140594 48
4.110711097717285 0.8497915267944336 -0.0718766450881958 48
4.1147332191467285 0.8498742580413818 1.1147834062576294 48
4.088470458984375 0.8437058329582214 0.9541952610015869 48
4.099535942077637 0.8452433943748474 0.8054441213607788 48
4.095717906951904 0.8437109589576721 0.6555193066596985 48
4.096269607543945 0.8430794477462769 0.508804440498352 48
4.116217136383057 0.8464360237121582 0.36431100964546204 48
4.096987724304199 0.8417365550994873 0.21719421446323395 48
4.106983661651611 0.8430432677268982 0.07251474261283875 48
1.8450347185134888 0.3770538568496704 -0.4943445920944214 119
2.0470643043518066 0.41796875 -0.47352227568626404 119
2.446913957595825 0.49916496872901917 -0.47754764556884766 119
2.936014413833618 0.5984066724777222 -0.4685215950012207 119
3.767347574234009 0.7671608328819275 -0.4673694372177124 119
4.025241851806641 0.8189452886581421 -0.35603177547454834 119
4.118351459503174 0.8371401429176331 -0.21751472353935242 48
4.108752727508545 0.8344422578811646 -0.07179024815559387 48
4.112941265106201 0.8345454931259155 1.113490104675293 48
4.091390609741211 0.8294292688369751 0.9541952610015869 48
4.102461338043213 0.8309282064437866 0.8054441213607788 48
4.108319282531738 0.8313682675361633 0.6570820212364197 48
4.094323635101318 0.8277922868728638 0.508195161819458 48
4.114263534545898 0.8310762643814087 0.36387521028518677 48
4.104795455932617 0.8284180760383606 0.2174558788537979 48
4.105001449584961 0.8277140855789185 0.07242748886346817 48
1.8463395833969116 0.37061116099357605 -0.4943445920944214 119
2.067617654800415 0.41465240716934204 -0.4780212938785553 119
2.448641538619995 0.49062061309814453 -0.47754764556884766 119
2.9380853176116943 0.5881544351577759 -0.4685215950012207 119
3.7943341732025146 0.7588720917701721 -0.47041618824005127 119
4.101341724395752 0.8195295929908752 -0.3625684380531311 119
4.11635160446167 0.8217816948890686 -0.2172539085149765 48
4.106738090515137 0.8191171884536743 -0.07170386612415314 48
4.092145919799805 0.8154639601707458 1.10702383518219 48
4.084704875946045 0.8132399916648865 0.9519475102424622 48
4.139034748077393 0.8233057856559753 0.8121163845062256 48
4.116040229797363 0.8179851174354553 0.6578633189201355 48
4.082585334777832 0.8105959296226501 0.5063670873641968 48
4.107368469238281 0.8147714138031006 0.363003671169281 48
4.112559795379639 0.8150553107261658 0.21771757304668427 48
4.098057270050049 0.8114377856254578 0.07225295901298523 48
1.8523606061935425 0.36509793996810913 -0.4956386983394623 119
2.078612804412842 0.4093151092529297 -0.4802708029747009 119
2.45515513420105 0.4830177426338196 -0.4785008728504181 119
2.9401204586029053 0.5778949856758118 -0.4685215950012207 119
3.8115696907043457 0.748491644859314 -0.4722442328929901 119
4.1237287521362305 0.8090439438819885 -0.364311546087265 119
4.1093950271606445 0.8054870367050171 -0.21673227846622467 48
4.099760055541992 0.802855372428894 -0.07153107970952988 48
4.128147602081299 0.8076664209365845 1.1160767078399658 48
4.125770568847656 0.8064538836479187 0.9609387516975403 48
4.170787334442139 0.8144974112510681 0.8178355693817139 48
4.128564357757568 0.8055038452148438 0.6594259142875671 48
4.070776462554932 0.7934916019439697 0.5045390725135803 48
4.119965076446533 0.8023332357406616 0.36387521028518677 48
4.134984970092773 0.804509162902832 0.2187642902135849 48
4.095956802368164 0.7961739897727966 0.07216569036245346 48
1.853623628616333 0.3586297631263733 -0.4956386983394623 119
2.0848121643066406 0.4029814898967743 -0.48139551281929016 119
2.4520070552825928 0.4735140800476074 -0.47754764556884766 119
2.9469690322875977 0.5685640573501587 -0.46930378675460815 119
3.833651065826416 0.7389393448829651 -0.4746816158294678 119
4.111854553222656 0.7918189764022827 -0.36300423741340637 119
4.117084980010986 0.7920809984207153 -0.21699309349060059 48
4.102537155151367 0.788539707660675 -0.07153107970952988 48
4.149914264678955 0.7968948483467102 1.1212496757507324 48
4.166839599609375 0.7993909120559692 0.9699299931526184 48
4.192887306213379 0.8036293983459473 0.8216482996940613 48
4.14105224609375 0.7929452061653137 0.6609885692596436 48
4.10764217376709 0.7858043909072876 0.508804440498352 48
4.108063697814941 0.7851419448852539 0.36256787180900574 48
4.118149757385254 0.7863246202468872 0.21771757304668427 48
4.074158191680908 0.7771877646446228 0.0717293918132782 48
1.854864239692688 0.35215723514556885 -0.4956386983394623 119
2.0909926891326904 0.3966095745563507 -0.48252031207084656 119
2.4536447525024414 0.4649520814418793 -0.47754764556884766 119
2.9489355087280273 0.5582737922668457 -0.46930378675460815 119
3.8459596633911133 0.7273973822593689 -0.4759003221988678 119
4.104804992675781 0.7756115198135376 -0.36213263869285583 119
4.105105400085449 0.7749262452125549 -0.21621066331863403 48
4.090527057647705 0.771435022354126 -0.07127191126346588 48
4.157416343688965 0.7832983136177063 1.1225428581237793 48
4.145664215087891 0.7803347706794739 0.9643104672431946 48
4.147429466247559 0.7799175977706909 0.8121163845062256 48
4.153501987457275 0.7803089618682861 0.6625511646270752 48
4.120115280151367 0.7732922434806824 0.5100231766700745 48
4.154840469360352 0.7790590524673462 0.36648988723754883 48
4.111053943634033 0.7701060771942139 0.21719421446323395 48
4.071932315826416 0.7620419859886169 0.07164212316274643 48
1.8560822010040283 0.3456804156303406 -0.4956386983394623 119
2.097153902053833 0.39019936323165894 -0.4836450219154358 119
2.450427293777466 0.455487459897995 -0.4765945076942444 119
2.955721855163574 0.5488783121109009 -0.4700859487056732 119
3.8289575576782227 0.710347056388855 -0.47346293926239014 119
4.151565074920654 0.7694476246833801 -0.3660546839237213 119
4.107785224914551 0.7605920433998108 -0.21621066331863403 48
4.13743782043457 0.7653356194496155 -0.07204942405223846 48
4.145877361297607 0.7661484479904175 1.1186631917953491 48
4.172318458557129 0.7702816724777222 0.9699299931526184 48
4.1501264572143555 0.7654356360435486 0.8121163845062256 48
4.165914058685303 0.767595648765564 0.6641138195991516 48
4.1227898597717285 0.7589056491851807 0.5100231766700745 48
4.167331695556641 0.7663528919219971 0.3673614263534546 48
4.09407377243042 0.7521423101425171 0.2161474972963333 48
4.108987331390381 0.7541408538818359 0.07225295901298523 48
1.8525264263153076 0.3383316695690155 -0.4943445920944214 119
2.0985031127929688 0.38287654519081116 -0.4836450219154358 119
2.4520022869110107 0.4469311237335205 -0.4765945076942444 119
2.9576196670532227 0.5385575890541077 -0.4700859487056732 119
3.8070006370544434 0.6925361752510071 -0.47041618824005127 119
4.1297221183776855 0.7504982948303223 -0.36387577652931213 119
nan nan nan 0
4.100732326507568 0.7437512874603271 -0.07135830819606781 48
4.215061187744141 0.7637273669242859 1.1367686986923218 48
4.1989521980285645 0.7600516676902771 0.9755494594573975 48
nan nan nan 0
4.158848285675049 0.7512933015823364 0.6625511646270752 48
4.174252033233643 0.7533236742019653 0.5161166787147522 48
4.17978572845459 0.7535690665245056 0.3682330250740051 48
nan nan nan 0
4.146036148071289 0.7459902763366699 0.07286378741264343 48
1.8536961078643799 0.33186307549476624 -0.4943445920944214 119
2.0998268127441406 0.3755491077899933 -0.4836450219154358 119
2.4487154483795166 0.4375059902667999 -0.47564128041267395 119
2.964343309402466 0.5290980339050293 -0.47086814045906067 119
3.7703092098236084 0.6722738742828369 -0.46554142236709595 119
nan nan nan 0
4.127742767333984 0.7345202565193176 -0.21699309349060059 48
nan nan nan 0
4.2557454109191895 0.7557654976844788 1.1471147537231445 48
nan nan nan 0
nan nan nan 0
nan nan nan 0
4.211063861846924 0.744798481464386 0.5203821063041687 48
4.2363457679748535 0.7485074996948242 0.3730265498161316 48
4.197566986083984 0.7409003376960754 0.22138109803199768 48
4.2076945304870605 0.7419306635856628 0.07391094416379929 48
1.8500863313674927 0.3245559632778168 -0.4930504858493805 119
2.105923652648926 0.3690580129623413 -0.4847698211669922 119
2.450227737426758 0.42895570397377014 -0.47564128041267395 119
2.9613075256347656 0.5178965926170349 -0.4700859487056732 119
3.7726330757141113 0.6591089367866516 -0.46554142236709595 119
nan nan nan 0
nan nan nan 0
nan nan nan 0
4.267873764038086 0.7425612807273865 1.1497012376785278 48
4.295357704162598 0.746570885181427 0.996903657913208 48
nan nan nan 0
nan nan nan 0
4.2527570724487305 0.7368727326393127 0.525256872177124 48
4.263472557067871 0.7379629015922546 0.37520545721054077 48
nan nan nan 0
4.284152984619141 0.7400022745132446 0.07521986961364746 48
1.8512078523635864 0.31809598207473755 -0.4930504858493805 119
2.107199192047119 0.3617047071456909 -0.4847698211669922 119
2.4468727111816406 0.4195706844329834 -0.4746881127357483 119
2.9582297801971436 0.5067227482795715 -0.46930378675460815 119
3.7749106884002686 0.6459359526634216 -0.46554142236709595 119
nan nan nan 0
nan nan nan 0
nan nan nan 0
nan nan nan 0
4.326755523681641 0.7364779114723206 1.0036470890045166 48
nan nan nan 0
nan nan nan 0
4.274874687194824 0.7253441214561462 0.5276942253112793 48
nan nan nan 0
nan nan nan 0
4.29163932800293 0.725877046585083 0.07530713081359863 48
1.8475444316864014 0.31083086133003235 -0.491756409406662 119
2.1084489822387695 0.35434702038764954 -0.4847698211669922 119
2.448322296142578 0.4110269546508789 -0.4746881127357483 119
2.9599804878234863 0.49639350175857544 -0.46930378675460815 119
3.7771425247192383 0.6327551007270813 -0.46554142236709595 119
nan nan nan 0
nan nan nan 0
nan nan nan 0
nan nan nan 0
4.319687843322754 0.7197686433792114 1.001399278640747 48
nan nan nan 0
nan nan nan 0
4.3067545890808105 0.7152962684631348 0.531350314617157 48
nan nan nan 0
nan nan nan 0
4.318807125091553 0.7149745225906372 0.07574343681335449 48
1.8485651016235352 0.30470243096351624 -0.491756409406662 119
2.11435866355896 0.34851372241973877 -0.4858945310115814 119
2.444758176803589 0.4025358557701111 -0.47373491525650024 119
2.9566521644592285 0.48629051446914673 -0.4685215950012207 119
3.779111623764038 0.6208857893943787 -0.46554142236709595 119
nan nan nan 0
nan nan nan 0
nan nan nan 0
nan nan nan 0
4.341161251068115 0.7093371748924255 1.0058948993682861 48
nan nan nan 0
4.4001784324646 0.7174034714698792 0.6992727518081665 48
4.30408239364624 0.7009649276733398 0.5307409763336182 48
nan nan nan 0
nan nan nan 0
4.360509395599365 0.7078111171722412 0.07644154131412506 48
1.8495652675628662 0.2985707223415375 -0.491756409406662 119
2.1155624389648438 0.3411311209201813 -0.4858945310115814 119
2.4509944915771484 0.39478015899658203 -0.4746881127357483 119
2.958331823348999 0.4759669303894043 -0.4685215950012207 119
3.7812561988830566 0.6076904535293579 -0.46554142236709595 119
nan nan nan 0
nan nan nan 0
nan nan nan 0
nan nan nan 0
nan nan nan 0
nan nan nan 0
4.470933437347412 0.7129271626472473 0.7102110981941223 48
4.389819145202637 0.6992071270942688 0.5410999059677124 48
nan nan nan 0
nan nan nan 0
4.41726541519165 0.7012073993682861 0.07740142196416855 48
1.850647211074829 0.2917897403240204 -0.491756409406662 119
2.1167984008789062 0.33337491750717163 -0.4858945310115814 119
2.457273483276367 0.3865568935871124 -0.47564128041267395 119
2.9600563049316406 0.4651208817958832 -0.4685215950012207 119
3.7834579944610596 0.5938273668289185 -0.46554142236709595 119
nan nan nan 0
nan nan nan 0
nan nan nan 0
4.490033149719238 0.7015153765678406 1.2066043615341187 48
nan nan nan 0
4.48984956741333 0.6998813152313232 0.8750268220901489 48
4.5027947425842285 0.7010942101478577 0.714898943901062 48
4.43648624420166 0.6899768710136414 0.5465840101242065 48
nan nan nan 0
4.493292331695557 0.6972051858901978 0.23629683256149292 48
4.474147796630859 0.6934349536895752 0.07836129516363144 48
1.8516545295715332 0.2853279709815979 -0.491756409406662 119
2.1179492473602295 0.3259838819503784 -0.4858945310115814 119
2.4634594917297363 0.3787228763103485 -0.4765945076942444 119
2.966543197631836 0.45553508400917053 -0.46930378675460815 119
3.78060245513916 0.5798646211624146 -0.46493205428123474 119
nan nan nan 0
nan nan nan 0
nan nan nan 0
4.521101474761963 0.6902113556861877 1.2143638134002686 48
nan nan nan 0
4.5165276527404785 0.6878998279571533 0.8797927498817444 48
4.505214691162109 0.6853722333908081 0.714898943901062 48
4.483025550842285 0.6811961531639099 0.5520680546760559 48
nan nan nan 0
4.525319576263428 0.6860067844390869 0.23786692321300507 48
4.530913352966309 0.68604576587677 0.07932118326425552 48
1.8574148416519165 0.27958163619041443 -0.4930504858493805 119
2.123891830444336 0.3193131685256958 -0.4870193302631378 119
2.4696199893951416 0.3708503842353821 -0.47754764556884766 119
2.9681153297424316 0.4451771676540375 -0.46930378675460815 119
3.7826035022735596 0.5666643381118774 -0.46493205428123474 119
nan nan nan 0
nan nan nan 0
nan nan nan 0
nan nan nan 0
nan nan nan 0
4.557740211486816 0.6779068112373352 0.887418270111084 48
nan nan nan 0
4.5295562744140625 0.6720988750457764 0.5575522184371948 48
nan nan nan 0
4.512868404388428 0.668012797832489 0.2370818704366684 48
4.553062438964844 0.6731504201889038 0.07967023551464081 48
1.8536012172698975 0.2723941504955292 -0.491756409406662 119
2.120173454284668 0.3111899495124817 -0.4858945310115814 119
2.4708995819091797 0.36222752928733826 -0.47754764556884766 119
2.969651222229004 0.43481382727622986 -0.46930378675460815 119
3.7796480655670166 0.5527390241622925 -0.4643227159976959 119
4.572229862213135 0.6678318977355957 -0.40091702342033386 119
nan nan nan 0
nan nan nan 0
4.597503185272217 0.6690648794174194 1.2337626218795776 48
nan nan nan 0
4.603794574737549 0.6683395504951477 0.8959969878196716 48
4.5880889892578125 0.6652418971061707 0.7273998856544495 48
4.5711669921875 0.6619737148284912 0.5624269843101501 48
4.632314205169678 0.670003354549408 0.40614575147628784 48
4.529998302459717 0.6543975472450256 0.23786692321300507 48
4.570228099822998 0.6593948602676392 0.07993201911449432 48
1.8545408248901367 0.2659222185611725 -0.491756409406662 119
2.121246814727783 0.3037872612476349 -0.4858945310115814 119
2.467290163040161 0.3529053032398224 -0.4765945076942444 119
2.9760396480560303 0.4251435101032257 -0.4700859487056732 119
3.7815542221069336 0.5395422577857971 -0.4643227159976959 119
4.609051704406738 0.6567865014076233 -0.4039674699306488 119
nan nan nan 0
nan nan nan 0
nan nan nan 0
nan nan nan 0
nan nan nan 0
4.639282703399658 0.6561383008956909 0.735213041305542 48
4.622589588165283 0.6529544591903687 0.5685204863548279 48
4.654353141784668 0.6566126942634583 0.40788885951042175 48
4.611363887786865 0.6497271656990051 0.2420537918806076 48
nan nan nan 0
1.8506746292114258 0.2587782144546509 -0.4904623031616211 119
2.1222941875457764 0.2963809072971344 -0.4858945310115814 119
2.4685070514678955 0.34429070353507996 -0.4765945076942444 119
2.9775054454803467 0.4147526025772095 -0.4700859487056732 119
3.783414602279663 0.5263388752937317 -0.4643227159976959 119
4.680386066436768 0.6502905488014221 -0.4100683927536011 119
nan nan nan 0
nan nan nan 0
4.707315444946289 0.6515199542045593 1.262214183807373 48
nan nan nan 0
nan nan nan 0
nan nan nan 0
4.659255027770996 0.6415532827377319 0.5727858543395996 48
4.701027870178223 0.646469235420227 0.41181087493896484 48
4.677911281585693 0.6424583792686462 0.24545563757419586 48
4.6836838722229 0.6424183249473572 0.0818517804145813 48
1.8515666723251343 0.25231656432151794 -0.4904623031616211 119
2.1184885501861572 0.28831392526626587 -0.4847698211669922 119
2.4599666595458984 0.3343498408794403 -0.4746881127357483 119
2.9789352416992188 0.4043566584587097 -0.4700859487056732 119
3.780310869216919 0.5124623775482178 -0.4637133479118347 119
4.746795177459717 0.6426361799240112 -0.41573354601860046 119
nan nan nan 0
nan nan nan 0
nan nan nan 0
nan nan nan 0
4.7467474937438965 0.6384119391441345 0.9226862192153931 48
nan nan nan 0
4.720489978790283 0.6332029700279236 0.580098032951355 48
nan nan nan 0
4.704870700836182 0.6294360160827637 0.24676401913166046 48
nan nan nan 0
1.8524361848831177 0.24585187435150146 -0.4904623031616211 119
2.1194820404052734 0.28091728687286377 -0.4847698211669922 119
2.4562525749206543 0.3251168429851532 -0.47373491525650024 119
2.9754326343536377 0.3933086097240448 -0.46930378675460815 119
3.782076835632324 0.4992635250091553 -0.4637133479118347 119
4.788515090942383 0.6312708854675293 -0.4192197620868683 119
nan nan nan 0
nan nan nan 0
nan nan nan 0
4.791332244873047 0.6282395124435425 1.1059224605560303 48
4.792747497558594 0.6275742053985596 0.9312649369239807 48
4.7928056716918945 0.6267309784889221 0.7586523294448853 48
nan nan nan 0
4.809148788452148 0.6271607875823975 0.42096224427223206 48
4.806066036224365 0.6259056329727173 0.25199761986732483 48
nan nan nan 0
1.8580728769302368 0.24000287055969238 -0.491756409406662 119
2.1204495429992676 0.2735171914100647 -0.4847698211669922 119
2.447636604309082 0.3152868151664734 -0.47182852029800415 119
2.976787567138672 0.3829200267791748 -0.46930378675460815 119
3.7887189388275146 0.4866909086704254 -0.4643227159976959 119
4.840094089508057 0.6208896040916443 -0.42357754707336426 119
4.757882595062256 0.6094995141029358 -0.24855098128318787 48
4.848018169403076 0.6201861500740051 -0.08379849046468735 48
nan nan nan 0
nan nan nan 0
4.86794376373291 0.620144784450531 0.9455628395080566 48
4.888046741485596 0.6218388080596924 0.7734972238540649 48
4.823258399963379 0.612741231918335 0.5922849774360657 48
4.850839614868164 0.6153848171234131 0.4244484603404999 48
4.828035831451416 0.611635684967041 0.25304433703422546 48
nan nan nan 0
1.8588993549346924 0.23351550102233887 -0.491756409406662 119
2.121391534805298 0.2661137580871582 -0.4847698211669922 119
2.429241180419922 0.3043007254600525 -0.46801578998565674 119
2.9781060218811035 0.37252676486968994 -0.46930378675460815 119
3.7903947830200195 0.4734628200531006 -0.4643227159976959 119
4.896601676940918 0.6107725501060486 -0.4283711314201355 119
4.854124069213867 0.6046137809753418 -0.2535063326358795 48
4.855114459991455 0.6038766503334045 -0.08388488739728928 48
5.679351329803467 0.7053882479667664 1.5221577882766724 51
nan nan nan 0
nan nan nan 0
4.890187740325928 0.6047725081443787 0.7734972238540649 48
nan nan nan 0
4.902393341064453 0.6045446991920471 0.42880627512931824 48
nan nan nan 0
nan nan nan 0
1.8644970655441284 0.2276105433702469 -0.4930504858493805 119
2.11747145652771 0.2581176161766052 -0.4836450219154358 119
2.464395046234131 0.29997074604034424 -0.4746881127357483 119
2.9793879985809326 0.36212894320487976 -0.46930378675460815 119
3.7920243740081787 0.46022897958755493 -0.4643227159976959 119
4.943206787109375 0.5990698337554932 -0.4322931468486786 119
4.851248264312744 0.5870662331581116 -0.2532455623149872 48
4.877045631408691 0.5893243551254272 -0.0842304453253746 48
5.710549831390381 0.6890307664871216 1.5299173593521118 51
nan nan nan 0
nan nan nan 0
nan nan nan 0
nan nan nan 0
4.9638214111328125 0.5945367217063904 0.43403559923171997 48
4.92638635635376 0.5891808867454529 0.2580162584781647 48
nan nan nan 0
1.8652801513671875 0.221100851893425 -0.4930504858493805 119
2.1183595657348633 0.2507246732711792 -0.4836450219154358 119
2.470301389694214 0.2919425964355469 -0.47564128041267395 119
2.9806339740753174 0.3517267405986786 -0.46930378675460815 119
3.793607711791992 0.4469895660877228 -0.4643227159976959 119
5.024417877197266 0.5911231637001038 -0.439265638589859 119
nan nan nan 0
nan nan nan 0
5.756093502044678 0.6741495132446289 1.541556715965271 51
5.002877712249756 0.585048258304596 1.1531264781951904 48
5.0155510902404785 0.5856429934501648 0.9732052683830261 48
nan nan nan 0
nan nan nan 0
5.000500202178955 0.5812317728996277 0.4370860457420349 48
nan nan nan 0
nan nan nan 0
1.866040587425232 0.2145884484052658 -0.4930504858493805 119
2.114381790161133 0.24277296662330627 -0.48252031207084656 119
2.4859344959259033 0.2849949896335602 -0.4785008728504181 119
2.9818437099456787 0.3413202464580536 -0.46930378675460815 119
3.79514479637146 0.4337446689605713 -0.4643227159976959 119
5.070990562438965 0.5786636471748352 -0.4431876540184021 0
nan nan nan 0
nan nan nan 0
5.7968034744262695 0.6584135293960571 1.5519027709960938 51
5.067822456359863 0.5747182965278625 1.1677371263504028 48
nan nan nan 0
nan nan nan 0
nan nan nan 0
5.0470452308654785 0.568793535232544 0.441008061170578 48
nan nan nan 0
nan nan nan 0
1.8667782545089722 0.2080734521150589 -0.4930504858493805 119
2.1152162551879883 0.23539090156555176 -0.48252031207084656 119
2.4917924404144287 0.27685776352882385 -0.47945404052734375 119
2.9830169677734375 0.3309095799922943 -0.46930378675460815 119
3.796635866165161 0.4204944968223572 -0.4643227159976959 119
5.077929973602295 0.561506450176239 -0.4436233937740326 0
nan nan nan 0
nan nan nan 0
5.861477851867676 0.645043134689331 1.56871497631073 51
nan nan nan 0
5.107339859008789 0.5602474808692932 0.9903625845909119 48
5.138706684112549 0.5627806186676025 0.8117814064025879 48
5.060151100158691 0.55328369140625 0.62031489610672 48
5.063854217529297 0.5527942180633545 0.44231539964675903 48
5.086162567138672 0.5543311834335327 0.2661283314228058 48
5.102356910705566 0.555195152759552 0.08892000466585159 48
1.8674932718276978 0.20155590772628784 -0.4930504858493805 119
2.1208689212799072 0.22852791845798492 -0.4836450219154358 119
2.487863779067993 0.2676330804824829 -0.4785008728504181 119
2.9890639781951904 0.32102224230766296 -0.4700859487056732 119
3.7980804443359375 0.4072391986846924 -0.4643227159976959 119
5.065001010894775 0.5421872735023499 -0.44231605529785156 119
nan nan nan 0
nan nan nan 0
5.92612886428833 0.6312291026115417 1.5855271816253662 51
nan nan nan 0
5.182477951049805 0.5501887202262878 1.0046604871749878 48
5.1455512046813965 0.545360267162323 0.8125627040863037 48
5.116338729858398 0.5413612127304077 0.6270177364349365 48
5.154914855957031 0.5445331931114197 0.4501594305038452 48
5.147654056549072 0.5428577661514282 0.2692684829235077 48
5.149009704589844 0.5420920252799988 0.08970536291599274 48
1.8681855201721191 0.195035919547081 -0.4930504858493805 119
2.1216537952423096 0.2211233228445053 -0.4836450219154358 119
2.483900785446167 0.25843924283981323 -0.47754764556884766 119
2.990166425704956 0.31058648228645325 -0.4700859487056732 119
3.7994790077209473 0.39397895336151123 -0.4643227159976959 119
5.071817398071289 0.525016725063324 -0.44275185465812683 119
nan nan nan 0
nan nan nan 0
5.985949516296387 0.616476833820343 1.6010463237762451 51
nan nan nan 0
5.189249515533447 0.5325962901115417 1.0056136846542358 48
nan nan nan 0
5.177441120147705 0.5295581221580505 0.6343299150466919 48
5.216246604919434 0.5326073169708252 0.45538875460624695 48
5.2289958000183105 0.5329869389533997 0.27345535159111023 48
5.195632457733154 0.5286700129508972 0.09049072116613388 48
1.8688548803329468 0.18851354718208313 -0.4930504858493805 119
2.12241268157959 0.21371601521968842 -0.4836450219154358 119
2.4799041748046875 0.24927636981010437 -0.4765945076942444 119
2.99123215675354 0.30014699697494507 -0.4700859487056732 119
3.800830841064453 0.38071390986442566 -0.4643227159976959 119
5.078575611114502 0.5078051686286926 -0.4431876540184021 119
nan nan nan 0
nan nan nan 0
6.0553507804870605 0.6022704839706421 1.6191517114639282 51
nan nan nan 0
5.298532485961914 0.525128960609436 1.0265837907791138 48
nan nan nan 0
5.25333833694458 0.5187981128692627 0.6434701085090637 48
5.24781608581543 0.5173279047012329 0.4580034613609314 48
5.280516147613525 0.5196208953857422 0.2760721743106842 48
5.272075653076172 0.5178613066673279 0.09179964661598206 48
1.8695015907287598 0.1819888800382614 -0.4930504858493805 119
2.1279947757720947 0.20677728950977325 -0.4847698211669922 119
2.4807591438293457 0.24061836302280426 -0.4765945076942444 119
2.9922618865966797 0.2897038161754608 -0.4700859487056732 119
3.797196865081787 0.3669668138027191 -0.4637133479118347 119
5.08031702041626 0.4900745153427124 -0.4431876540184021 119
nan nan nan 0
nan nan nan 0
6.129533290863037 0.5880483984947205 1.6385506391525269 51
5.358372688293457 0.5131218433380127 1.2329236268997192 48
5.373623847961426 0.5136358737945557 1.040881633758545 48
nan nan nan 0
5.289700508117676 0.5037508010864258 0.6477355360984802 48
5.343803882598877 0.5079620480537415 0.46628323197364807 48
nan nan nan 0
5.328598499298096 0.5046399235725403 0.09275953471660614 48
1.870125412940979 0.17546199262142181 -0.4930504858493805 119
2.1287035942077637 0.19934792816638947 -0.4847698211669922 119
2.476696729660034 0.23150061070919037 -0.47564128041267395 119
2.9932546615600586 0.2792570888996124 -0.4700859487056732 119
3.798454761505127 0.3537099063396454 -0.4637133479118347 119
5.081996917724609 0.472337931394577 -0.4431876540184021 119
nan nan nan 0
nan nan nan 0
6.1940693855285645 0.5724266767501831 1.655362844467163 51
5.350428104400635 0.49351948499679565 1.2306759357452393 48
5.419373512268066 0.4989250898361206 1.0494604110717773 48
nan nan nan 0
5.340846061706543 0.4898155629634857 0.6538289785385132 48
5.414987564086914 0.495662122964859 0.47238415479660034 48
nan nan nan 0
5.395049095153809 0.4919380843639374 0.09389394521713257 48
1.870726466178894 0.1689329743385315 -0.4930504858493805 119
2.1293864250183105 0.19191616773605347 -0.4847698211669922 119
2.477489709854126 0.2228539139032364 -0.47564128041267395 119
2.994211435317993 0.26880696415901184 -0.4700859487056732 119
3.799666166305542 0.34044864773750305 -0.4637133479118347 119
5.078653335571289 0.4541519284248352 -0.44275185465812683 119
nan nan nan 0
nan nan nan 0
6.253761291503906 0.5559338927268982 1.670881986618042 51
5.454030990600586 0.48388171195983887 1.2542779445648193 48
5.469973564147949 0.48433393239974976 1.0589921474456787 48
5.49864387512207 0.48590534925460815 0.8672544360160828 48
5.3820719718933105 0.47465741634368896 0.6587037444114685 48
5.4960737228393555 0.4837447702884674 0.479356586933136 48
5.444835662841797 0.4782773554325104 0.2844459116458893 48
5.451514720916748 0.4779052436351776 0.09485382586717606 48
