# .PCD v0.7 - Point Cloud Data file format
VERSION 0.7
FIELDS x y z intensity
SIZE 4 4 4 4
TYPE F F F F
COUNT 1 1 1 1
WIDTH 826
HEIGHT 1
VIEWPOINT 0 0 0 1 0 0 0
POINTS 826
DATA ascii
-6.386561870574951 0.17616131901741028 -0.5556187033653259 119
-6.941162586212158 0.19267132878303528 -0.3606988489627838 11
-6.999480247497559 0.19551269710063934 -0.12034153938293457 11
-6.947029113769531 0.19526103138923645 1.8506438732147217 11
-6.92942476272583 0.1959766149520874 1.5903254747390747 11
-6.9414215087890625 0.19752837717533112 1.3411359786987305 11
-7.053079128265381 0.2019377499818802 1.1102420091629028 11
-6.903805732727051 0.19886980950832367 0.8433358669281006 11
-7.013648986816406 0.20325908064842224 0.6105259656906128 11
-7.005707263946533 0.204252690076828 0.36530497670173645 11
-7.109114646911621 0.2085094004869461 0.12347576767206192 11
nan nan nan 0
-2.263641119003296 0.06876488775014877 -0.5140134692192078 119
-2.687479019165039 0.0821097195148468 -0.5147220492362976 119
-3.3108739852905273 0.10173451155424118 -0.5185806751251221 119
nan nan nan 0
-6.380928993225098 0.19829879701137543 -0.555182933807373 119
-7.100151538848877 0.22189033031463623 -0.3690447509288788 11
-7.158652305603027 0.22496920824050903 -0.12310603260993958 11
-7.076645851135254 0.22362838685512543 1.8855618238449097 11
-7.055308818817139 0.2241867184638977 1.6195470094680786 11
-7.078051567077637 0.22614601254463196 1.3678251504898071 11
-7.180667877197266 0.23067916929721832 1.1305559873580933 11
-7.051873207092285 0.2277737259864807 0.8616161942481995 11
-7.19709587097168 0.23372182250022888 0.626649796962738 11
-7.164647102355957 0.23391984403133392 0.37367871403694153 11
-7.263236999511719 0.23840777575969696 0.12618088722229004 11
nan nan nan 0
-2.2682430744171143 0.07722686231136322 -0.5151382088661194 119
-2.692065477371216 0.09212714433670044 -0.5156752467155457 119
-3.310478925704956 0.11386878788471222 -0.5185806751251221 119
nan nan nan 0
-6.370203495025635 0.22133880853652954 -0.5543113350868225 119
-7.248995780944824 0.2531399726867676 -0.3768690228462219 11
-7.337642192840576 0.25751781463623047 -0.1262160837650299 11
-7.210930347442627 0.25433090329170227 1.921772837638855 11
-7.219985008239746 0.2559119760990143 1.6577597856521606 11
-7.263573169708252 0.2587262690067291 1.4040462970733643 11
-7.288352966308594 0.2608826160430908 1.14774489402771 16
-7.2493720054626465 0.26075419783592224 0.8859900832176208 16
-7.2708563804626465 0.26279762387275696 0.6331864595413208 16
-7.328406810760498 0.26615846157073975 0.38231414556503296 11
-7.417187213897705 0.2706791162490845 0.12888601422309875 11
nan nan nan 0
-2.2728278636932373 0.08532680571079254 -0.516262948513031 119
-2.6966323852539062 0.10170863568782806 -0.5166284441947937 119
-3.31006121635437 0.12542381882667542 -0.5185806751251221 119
nan nan nan 0
-6.369392395019531 0.2435736209154129 -0.5543113350868225 119
-7.3977532386779785 0.2841924726963043 -0.38469329476356506 11
-7.486564636230469 0.2889128625392914 -0.12880778312683105 11
-7.345133304595947 0.28473880887031555 1.9579838514328003 11
-7.369966506958008 0.286989688873291 1.6926008462905884 11
-7.326385021209717 0.28657326102256775 1.4164377450942993 16
-7.34168004989624 0.2884548604488373 1.1563392877578735 16
-7.322800636291504 0.28899314999580383 0.8951302766799927 16
-7.339573860168457 0.2909381091594696 0.6392874121665955 16
-7.48209810256958 0.2978956401348114 0.3904262185096741 11
-7.57604455947876 0.3029671609401703 0.13167838752269745 11
nan nan nan 0
-2.2725162506103516 0.09325993061065674 -0.516262948513031 119
-2.706069231033325 0.11152525246143341 -0.5185348391532898 119
-3.309603214263916 0.13697732985019684 -0.5185806751251221 119
nan nan nan 0
-6.368503093719482 0.2658054530620575 -0.5543113350868225 119
-7.561347007751465 0.31691378355026245 -0.39329999685287476 0
-7.640350341796875 0.3215608596801758 -0.13148587942123413 11
-7.479210376739502 0.31608662009239197 1.9941949844360352 11
-7.524685382843018 0.31932416558265686 1.7285658121109009 11
-7.349859237670898 0.31319016218185425 1.4212037324905396 16
-7.5725297927856445 0.32400262355804443 1.1930608749389648 16
-7.341579914093018 0.3154047727584839 0.8975676894187927 16
-7.512685775756836 0.32406938076019287 0.6545396447181702 16
-7.635655403137207 0.33070898056030273 0.3985382914543152 11
-7.729772090911865 0.33613693714141846 0.13438351452350616 11
nan nan nan 0
-2.26731014251709 0.10097518563270569 -0.5151382088661194 119
-2.690953254699707 0.12031282484531403 -0.5156752467155457 119
-3.3091049194335938 0.14852917194366455 -0.5185806751251221 119
nan nan nan 0
-6.362561225891113 0.28780901432037354 -0.5538756251335144 119
-7.714824199676514 0.3503275513648987 -0.40138503909111023 11
-7.798991680145264 0.3555135726928711 -0.13425037264823914 11
-7.637279510498047 0.34947773814201355 2.036872386932373 11
-7.684133052825928 0.35296568274497986 1.7656546831130981 11
-7.564457416534424 0.3487915098667145 1.463144063949585 16
-7.783484935760498 0.3602520823478699 1.2266572713851929 16
-7.588303565979004 0.35254552960395813 0.9280350208282471 16
-7.775214195251465 0.36258918046951294 0.677635908126831 16
-7.789072513580322 0.364597886800766 0.4066503643989563 11
-7.898338794708252 0.3710940480232239 0.1373504251241684 11
nan nan nan 0
-2.26694393157959 0.10888896137475967 -0.5151382088661194 119
-2.710127115249634 0.13065063953399658 -0.5194879770278931 119
-3.303633689880371 0.15984053909778595 -0.5177984833717346 119
-4.33582878112793 0.2105400264263153 -0.5283042192459106 119
-6.361517429351807 0.3100167214870453 -0.5538756251335144 119
-7.883119583129883 0.38554832339286804 -0.41025257110595703 0
-7.962480068206787 0.39082270860671997 -0.13710124790668488 11
-7.809676647186279 0.3846890330314636 2.0834293365478516 11
-7.843435287475586 0.3877241611480713 1.8027434349060059 11
-7.788698196411133 0.386381059885025 1.506990671157837 16
-7.9548163414001465 0.39601364731788635 1.2540030479431152 16
-7.755549430847168 0.38745054602622986 0.9487528204917908 16
-7.898269176483154 0.3959624171257019 0.6885303258895874 16
-7.977252960205078 0.40131792426109314 0.4165942072868347 11
-8.071745872497559 0.4074840247631073 0.140404611825943 11
nan nan nan 0
-2.2616841793060303 0.11655066907405853 -0.5140134692192078 119
nan nan nan 0
-3.3079874515533447 0.17162726819515228 -0.5185806751251221 119
nan nan nan 0
-6.360396385192871 0.3322206735610962 -0.5538756251335144 119
-7.981452941894531 0.4182896614074707 -0.4154687225818634 119
-8.155769348144531 0.4288525879383087 -0.1404704600572586 11
-7.986743450164795 0.4213625490665436 2.131279706954956 11
-8.007452011108398 0.4238565266132355 1.840956211090088 11
-7.963752269744873 0.42293721437454224 1.5413055419921875 16
-8.130922317504883 0.4332383871078491 1.282130241394043 16
-7.937509059906006 0.42432206869125366 0.9712986350059509 16
-8.090818405151367 0.433933824300766 0.7055257558822632 16
-8.140338897705078 0.4380146265029907 0.42522963881492615 11
-8.259968757629395 0.44589748978614807 0.14372055232524872 11
-1.9333871603012085 0.10606212913990021 -0.5085796117782593 119
-2.2466704845428467 0.12364159524440765 -0.5106391906738281 119
-2.6895456314086914 0.14848530292510986 -0.5156752467155457 119
-3.307368040084839 0.1831732541322708 -0.5185806751251221 119
-4.334253311157227 0.24080444872379303 -0.5283042192459106 119
-6.364171504974365 0.35469773411750793 -0.5543113350868225 119
-8.159419059753418 0.45618176460266113 -0.42485785484313965 119
-8.34389591217041 0.4679564833641052 -0.1437532901763916 11
-8.158824920654297 0.4590054750442505 2.1778368949890137 11
-8.181039810180664 0.4616876244544983 1.881416916847229 11
-8.079838752746582 0.4573911726474762 1.5641820430755615 16
-8.3216552734375 0.47253724932670593 1.3126013278961182 16
-8.119303703308105 0.46246853470802307 0.9938444495201111 16
-8.263303756713867 0.4721176028251648 0.7207779884338379 16
-8.3281888961792 0.4772830605506897 0.4351734519004822 11
-8.453011512756348 0.48591670393943787 0.1471237689256668 11
-1.9522910118103027 0.11393579095602036 -0.5137560367584229 119
-2.2559521198272705 0.13205255568027496 -0.5128887295722961 119
nan nan nan 0
-3.306708574295044 0.19471700489521027 -0.5185806751251221 119
nan nan nan 0
-6.362894535064697 0.3769106864929199 -0.5543113350868225 119
-8.406996726989746 0.49946704506874084 -0.43789830803871155 119
-8.521866798400879 0.5077841281890869 -0.14686334133148193 11
-8.33555793762207 0.4981427788734436 2.225687026977539 11
-8.359319686889648 0.50102698802948 1.9230012893676758 11
-8.185979843139648 0.4920715391635895 1.58515202999115 16
-8.522069931030273 0.5137671828269958 1.344635009765625 16
-8.29101848602295 0.5012902021408081 1.0151716470718384 16
-8.440591812133789 0.5118122100830078 0.7364660501480103 16
-8.500909805297852 0.5169588923454285 0.4443322420120239 11
-8.64088249206543 0.5269846320152283 0.15043973922729492 11
nan nan nan 0
-2.2457525730133057 0.1393231749534607 -0.5106391906738281 119
nan nan nan 0
-3.3060085773468018 0.2062583863735199 -0.5185806751251221 119
nan nan nan 0
-6.361539840698242 0.3991190195083618 -0.5543113350868225 119
-8.614501953125 0.5419778823852539 -0.4488522708415985 119
-8.744562149047852 0.5516928434371948 -0.15075089037418365 11
-8.52657699584961 0.5394343137741089 2.277416944503784 11
-8.571460723876953 0.5437759160995483 1.9724531173706055 11
-8.654459953308105 0.5505579710006714 1.676658272743225 16
-8.648366928100586 0.5516859292984009 1.364949107170105 16
-8.49227523803711 0.5432169437408447 1.0401548147201538 16
-8.642555236816406 0.5543442964553833 0.754332959651947 16
-8.708333969116211 0.5600897073745728 0.455322802066803 11
-8.868478775024414 0.5719438195228577 0.15445378422737122 11
nan nan nan 0
-2.2598366737365723 0.14811734855175018 -0.5140134692192078 119
-2.6486616134643555 0.17406652867794037 -0.508049726486206 119
-3.3052687644958496 0.21779726445674896 -0.5185806751251221 119
nan nan nan 0
-6.360107898712158 0.4213225245475769 -0.5543113350868225 119
-8.79191780090332 0.5839579105377197 -0.45824143290519714 119
-8.962063789367676 0.5968300700187683 -0.15455205738544464 11
-8.688492774963379 0.5801347494125366 2.321387767791748 11
-8.793124198913574 0.5886625647544861 2.0241527557373047 11
-8.863068580627441 0.5948988795280457 1.7176454067230225 11
-8.784357070922852 0.5911557674407959 1.3868259191513062 16
-8.718093872070312 0.5882250070571899 1.068184733390808 16
-8.839351654052734 0.5979562401771545 0.7717640995979309 11
-8.945446968078613 0.6067017912864685 0.4678834080696106 11
-9.070923805236816 0.6168023943901062 0.15803152322769165 11
nan nan nan 0
nan nan nan 0
nan nan nan 0
-3.304488182067871 0.22933346033096313 -0.5185806751251221 119
nan nan nan 0
-6.358598709106445 0.44352084398269653 -0.5543113350868225 119
-9.033897399902344 0.6317110061645508 -0.47102105617523193 119
-9.164393424987793 0.6424434781074524 -0.15809406340122223 11
-8.724958419799805 0.613168478012085 2.3317337036132812 32
-9.004855155944824 0.6344183683395386 2.0736045837402344 11
-9.066575050354004 0.6403568983078003 1.7576793432235718 11
-9.26501178741455 0.6559973359107971 1.463394284248352 16
-8.819945335388184 0.6260320544242859 1.0809810161590576 11
-9.120409965515137 0.6489586234092712 0.7966034412384033 11
-9.15743637084961 0.6531996130943298 0.479135662317276 11
-9.303082466125488 0.6652205586433411 0.1621328443288803 11
nan nan nan 0
nan nan nan 0
-2.6767539978027344 0.19468961656093597 -0.5137688517570496 119
-3.308593273162842 0.24122600257396698 -0.5193628668785095 119
nan nan nan 0
-6.357011795043945 0.4657137989997864 -0.5543113350868225 119
-9.260706901550293 0.6800631284713745 -0.48301830887794495 119
-9.3964262008667 0.6916785836219788 -0.1621544063091278 11
-8.717948913574219 0.6432651281356812 2.3304405212402344 32
-9.230949401855469 0.682737410068512 2.1264281272888184 11
-9.294342994689941 0.6890571713447571 1.8024791479110718 11
-9.346390724182129 0.6945561170578003 1.4766765832901 16
-9.134443283081055 0.680408775806427 1.1199791431427002 11
-9.346579551696777 0.6978508234024048 0.816649317741394 16
-9.369207382202148 0.7011846899986267 0.490387886762619 11
-9.510083198547363 0.7133968472480774 0.1657978594303131 11
nan nan nan 0
nan nan nan 0
nan nan nan 0
-3.3077309131622314 0.2527736723423004 -0.5193628668785095 119
nan nan nan 0
-6.355347156524658 0.48790106177330017 -0.5543113350868225 119
-9.497243881225586 0.7307723760604858 -0.4955371022224426 119
-9.633209228515625 0.7429255843162537 -0.16630113124847412 11
-8.71565055847168 0.673692524433136 2.3304405212402344 32
-9.451952934265137 0.7322660684585571 2.1781277656555176 11
-9.526772499084473 0.7397351861000061 1.8482320308685303 11
-9.467000961303711 0.7367563247680664 1.4962092638015747 16
-9.31507682800293 0.7265687584877014 1.14252507686615 16
-9.398709297180176 0.7347424030303955 0.8214429020881653 16
-9.620574951171875 0.7537760138511658 0.5037335753440857 11
-9.761713981628418 0.7665485739707947 0.17024822533130646 11
nan nan nan 0
-2.2526919841766357 0.1792687028646469 -0.5128887295722961 119
nan nan nan 0
-3.306828498840332 0.2643182575702667 -0.5193628668785095 119
-4.33696985244751 0.347420334815979 -0.5295228958129883 119
-6.353605270385742 0.5100824236869812 -0.5543113350868225 119
-9.718605041503906 0.781939685344696 -0.5072734951972961 119
-9.874727249145508 0.7962356209754944 -0.17053425312042236 11
-8.703617095947266 0.7033336758613586 2.3278541564941406 32
-9.697003364562988 0.7853120565414429 2.2354469299316406 11
-9.768742561340332 0.7928380370140076 1.895891547203064 11
-9.779399871826172 0.7954211235046387 1.546213150024414 16
-9.5845308303833 0.7812551856040955 1.1760390996932983 16
-9.818063735961914 0.8020158410072327 0.8584840297698975 16
-9.80201530456543 0.8024269938468933 0.5134156942367554 11
-10.018067359924316 0.8218741416931152 0.17478583753108978 11
-1.9585506916046143 0.16239868104457855 -0.5163442492485046 119
-2.2569074630737305 0.1875343769788742 -0.5140134692192078 119
nan nan nan 0
-3.3058855533599854 0.27585965394973755 -0.5193628668785095 119
-4.35056734085083 0.36379772424697876 -0.5313509702682495 119
-6.351786136627197 0.5322575569152832 -0.5543113350868225 119
-9.969575881958008 0.8371679186820984 -0.5205747485160828 119
-10.135915756225586 0.8529173731803894 -0.17511293292045593 11
-8.701108932495117 0.7337106466293335 2.3278541564941406 32
-9.922375679016113 0.8384366631507874 2.2882702350616455 11
-10.025128364562988 0.8488814830780029 1.9464105367660522 11
-10.042292594909668 0.852100133895874 1.5884039402008057 16
-9.898219108581543 0.8416153788566589 1.215037226676941 16
-10.073280334472656 0.8582712411880493 0.8811445236206055 16
-9.898655891418457 0.8451328277587891 0.5186492800712585 11
-10.284114837646484 0.8798508644104004 0.17949798703193665 11
-1.9579718112945557 0.16923430562019348 -0.5163442492485046 119
-2.2222635746002197 0.19246871769428253 -0.5061401724815369 119
-2.668884754180908 0.23161958158016205 -0.5128157138824463 119
-3.3098220825195312 0.28782546520233154 -0.5201449990272522 119
-4.334438800811768 0.3776894211769104 -0.5295228958129883 119
-6.354851722717285 0.554859459400177 -0.5547471642494202 119
-10.225250244140625 0.8945927023887634 -0.5341368317604065 119
-10.411764144897461 0.9127417206764221 -0.1799507886171341 11
-8.693682670593262 0.7636560797691345 2.3265607357025146 32
-10.006747245788574 0.8807560801506042 2.3085007667541504 32
-10.295905113220215 0.9080175757408142 1.9997889995574951 11
-10.545955657958984 0.9319250583648682 1.6688787937164307 16
-10.152276992797852 0.8989222049713135 1.2467232942581177 16
-10.362951278686523 0.9193990230560303 0.9068555235862732 16
-10.14432144165039 0.901786744594574 0.5317332744598389 11
-10.569792747497559 0.9414686560630798 0.1845591813325882 11
-1.966989517211914 0.17693324387073517 -0.5189324021339417 119
-2.2603955268859863 0.20372320711612701 -0.5151382088661194 119
-2.668060064315796 0.2409343123435974 -0.5128157138824463 119
-3.3087973594665527 0.2993771433830261 -0.5201449990272522 119
nan nan nan 0
-6.35287618637085 0.577038586139679 -0.5547471642494202 119
-10.515451431274414 0.9569802284240723 -0.5495245456695557 119
-10.697274208068848 0.9754099249839783 -0.18496140837669373 11
-8.690964698791504 0.7939980626106262 2.3265607357025146 32
-10.01331615447998 0.9165691137313843 2.31074857711792 32
-10.576165199279785 0.9699508547782898 2.0550739765167236 11
-10.80820369720459 0.9931336641311646 1.7110695838928223 16
-10.440645217895508 0.9611974954605103 1.282674789428711 16
-10.592794418334961 0.9770691990852356 0.9273370504379272 16
-10.409597396850586 0.9620035886764526 0.5458639860153198 11
-10.875076293945312 1.0069351196289062 0.18996943533420563 11
-1.9471253156661987 0.18200035393238068 -0.5137560367584229 119
-2.2645211219787598 0.2120664268732071 -0.516262948513031 119
-2.6672027111053467 0.2502461075782776 -0.5128157138824463 119
-3.3126490116119385 0.3113873600959778 -0.5209271907806396 119
-4.361341953277588 0.4107319414615631 -0.533178985118866 119
-6.355782508850098 0.5996786952018738 -0.555182933807373 119
-10.805337905883789 1.0214043855667114 -0.5649123191833496 119
-11.012331008911133 1.0429102182388306 -0.19049037992954254 11
-8.692948341369629 0.8247865438461304 2.3278541564941406 32
-10.000354766845703 0.9505943655967712 2.3085007667541504 32
-10.870773315429688 1.0352473258972168 2.1132185459136963 11
-11.119311332702637 1.0608744621276855 1.7610734701156616 11
-10.73363971710205 1.0259686708450317 1.3192355632781982 16
-10.876900672912598 1.041577935218811 0.9526122212409973 11
-10.868416786193848 1.0426799058914185 0.5702002048492432 11
-11.24471664428711 1.0807615518569946 0.1965140700340271 11
-1.9512851238250732 0.1892622411251068 -0.5150501132011414 119
-2.2637670040130615 0.21996979415416718 -0.516262948513031 119
-2.705394744873047 0.26335933804512024 -0.5204411745071411 119
-3.311541795730591 0.32294878363609314 -0.5209271907806396 119
-4.36482048034668 0.4264358580112457 -0.5337883234024048 119
-6.358607769012451 0.622346043586731 -0.5556187033653259 119
-11.144593238830566 1.0927361249923706 -0.5829081535339355 119
-11.396697998046875 1.1194634437561035 -0.1972288191318512 11
-8.690016746520996 0.8551256060600281 2.3278541564941406 32
-9.992128372192383 0.9850183725357056 2.3073766231536865 32
-11.218779563903809 1.1079182624816895 2.1818480491638184 11
-11.454647064208984 1.1332300901412964 1.8149839639663696 11
-10.996673583984375 1.0898600816726685 1.3521403074264526 11
-11.39364242553711 1.1312110424041748 0.998369038105011 11
-11.386418342590332 1.1325006484985352 0.5976766347885132 11
-11.464733123779297 1.1423107385635376 0.20044086873531342 11
-1.9506126642227173 0.19607234001159668 -0.5150501132011414 119
-2.258138418197632 0.22738239169120789 -0.5151382088661194 119
-2.684924840927124 0.270830899477005 -0.5166284441947937 119
-3.310394287109375 0.33450624346733093 -0.5209271907806396 119
-4.333680152893066 0.4386705458164215 -0.5301322340965271 119
-6.361351490020752 0.6450403332710266 -0.5560544729232788 119
-11.4039945602417 1.1583746671676636 -0.5967310070991516 119
-11.492191314697266 1.1693599224090576 -0.19895662367343903 11
-8.686979293823242 0.8854542374610901 2.3278541564941406 32
-9.978935241699219 1.0189017057418823 2.305129051208496 32
-11.517580032348633 1.1780366897583008 2.240945816040039 11
-11.833824157714844 1.2124695777893066 1.87592613697052 11
-11.461798667907715 1.176374077796936 1.4100282192230225 11
-11.513495445251465 1.1837106943130493 1.009263515472412 11
-11.50160026550293 1.184516429901123 0.603956937789917 11
-12.291141510009766 1.2679970264434814 0.21501363813877106 11
-1.9498809576034546 0.20322036743164062 -0.5150501132011414 119
-2.25244402885437 0.235151469707489 -0.5140134692192078 119
-2.6839141845703125 0.28066980838775635 -0.5166284441947937 119
-3.3091461658477783 0.34663718938827515 -0.5209271907806396 119
nan nan nan 0
-6.358944892883301 0.6683515310287476 -0.5560544729232788 119
-11.42946720123291 1.2033014297485352 -0.5982958078384399 119
-12.402618408203125 1.3079440593719482 -0.21485242247581482 11
-8.683674812316895 0.9172875881195068 2.3278541564941406 32
-9.970288276672363 1.0549567937850952 2.3040051460266113 32
-11.752352714538574 1.2455912828445435 2.287652015686035 11
-12.281111717224121 1.3038002252578735 1.947806715965271 11
-11.551173210144043 1.2283464670181274 1.4216058254241943 11
-12.118292808532715 1.29079270362854 1.0628643035888672 11
-12.420665740966797 1.3251928091049194 0.6526293158531189 11
-12.400742530822754 1.325256109237671 0.2170206606388092 11
-1.9491596221923828 0.21002548933029175 -0.5150501132011414 119
-2.2516093254089355 0.24301253259181976 -0.5140134692192078 119
-2.6780381202697754 0.2895091772079468 -0.5156752467155457 119
-3.3079159259796143 0.35818618535995483 -0.5209271907806396 119
nan nan nan 0
-6.356573104858398 0.6905443072319031 -0.5560544729232788 119
-11.435124397277832 1.2442706823349 -0.5988174676895142 119
-12.402946472167969 1.3517709970474243 -0.21493880450725555 11
-8.680420875549316 0.9475937485694885 2.3278541564941406 32
-9.961702346801758 1.0892236232757568 2.3028812408447266 32
-11.777207374572754 1.2898131608963013 2.2933709621429443 32
-12.718306541442871 1.3951265811920166 2.018124580383301 11
-12.40023136138916 1.3624258041381836 1.5270228385925293 11
-12.425631523132324 1.367411494255066 1.0903183221817017 11
-12.411001205444336 1.367993950843811 0.6523677110671997 11
-12.470575332641602 1.3767701387405396 0.21832957863807678 11
-1.9532147645950317 0.2173622101545334 -0.5163442492485046 119
-2.245905876159668 0.25033098459243774 -0.5128887295722961 119
-2.677011251449585 0.2988555133342743 -0.5156752467155457 119
-3.311553478240967 0.37027955055236816 -0.5217093825340271 119
nan nan nan 0
-6.354123592376709 0.7127286791801453 -0.5560544729232788 119
-11.46048355102539 1.2875237464904785 -0.6003823280334473 119
-12.88500690460205 1.449838638305664 -0.22340504825115204 11
-8.6770601272583 0.977888286113739 2.3278541564941406 32
-9.957839012145996 1.1239898204803467 2.3028812408447266 32
-11.767756462097168 1.3303639888763428 2.2924177646636963 32
-13.150102615356445 1.4889649152755737 2.0876612663269043 11
-12.543334007263184 1.4224789142608643 1.5453031063079834 11
-12.935495376586914 1.4692387580871582 1.1356393098831177 11
-12.89730453491211 1.4671810865402222 0.6782739758491516 11
-13.24056339263916 1.508570671081543 0.23194247484207153 11
-1.952444076538086 0.22417888045310974 -0.5163442492485046 119
-2.245018243789673 0.25816914439201355 -0.5128887295722961 119
-2.6808278560638428 0.30875977873802185 -0.5166284441947937 119
-3.3102409839630127 0.38183677196502686 -0.5217093825340271 119
nan nan nan 0
-6.356545448303223 0.7354769110679626 -0.5564902424812317 119
-11.450961112976074 1.3269457817077637 -0.6001215577125549 119
-13.530404090881348 1.570306658744812 -0.23472216725349426 11
-8.673593521118164 1.0081709623336792 2.3278541564941406 32
-9.949014663696289 1.1581788063049316 2.301757335662842 32
-11.748414039611816 1.3697277307510376 2.289558172225952 32
-13.610823631286621 1.589270830154419 2.1618857383728027 11
-13.198796272277832 1.543495535850525 1.6269556283950806 11
-13.56352424621582 1.5885472297668457 1.191419005393982 11
-13.507039070129395 1.5843214988708496 0.7107222676277161 11
-13.80620288848877 1.6218551397323608 0.24197760224342346 11
-1.9516496658325195 0.23099280893802643 -0.5163442492485046 119
-2.24410343170166 0.26600414514541626 -0.5128887295722961 119
-2.6797337532043457 0.3181157410144806 -0.5166284441947937 119
-3.3088877201080322 0.39338934421539307 -0.5217093825340271 119
nan nan nan 0
-6.353939056396484 0.7576609253883362 -0.5564902424812317 119
-11.446258544921875 1.3669090270996094 -0.6001215577125549 119
-14.03611946105957 1.6786742210388184 -0.2436203509569168 11
-8.670022010803223 1.0384413003921509 2.3278541564941406 32
-9.94491195678711 1.1929004192352295 2.301757335662842 32
-11.806914329528809 1.418339490890503 2.3019497394561768 32
-14.139644622802734 1.7010688781738281 2.2470486164093018 11
-13.681111335754395 1.6483274698257446 1.6872808933258057 11
-14.042516708374023 1.6943567991256714 1.2341253757476807 11
-13.997135162353516 1.6913597583770752 0.7368902564048767 11
-14.351353645324707 1.7367035150527954 0.2516636848449707 11
-1.9556255340576172 0.238388329744339 -0.5176383256912231 119
-2.243161201477051 0.2738358974456787 -0.5128887295722961 119
-2.683478832244873 0.328063428401947 -0.517581582069397 119
-3.3074944019317627 0.40493711829185486 -0.5217093825340271 119
nan nan nan 0
-6.351255416870117 0.7798357009887695 -0.5564902424812317 119
-11.446372032165527 1.407464861869812 -0.6003823280334473 119
-14.580931663513184 1.7954788208007812 -0.2532096803188324 11
-8.666343688964844 1.0686990022659302 2.3278541564941406 32
-9.94068717956543 1.2276073694229126 2.301757335662842 32
-11.7824068069458 1.4571348428726196 2.2981369495391846 32
-14.251248359680176 1.7649829387664795 2.2657999992370605 0
-14.192399978637695 1.7602097988128662 1.7512624263763428 11
-14.614847183227539 1.8151938915252686 1.285111427307129 11
-14.565921783447266 1.8116989135742188 0.7672451138496399 11
-14.93058967590332 1.859702229499817 0.26196059584617615 11
-1.95957350730896 0.24581439793109894 -0.5189324021339417 119
-2.242191791534424 0.28166434168815613 -0.5128887295722961 119
-2.6823174953460693 0.3374285101890564 -0.517581582069397 119
-3.301161050796509 0.41586270928382874 -0.5209271907806396 119
nan nan nan 0
-6.3534369468688965 0.8026252388954163 -0.5569260716438293 119
-11.451297760009766 1.448664903640747 -0.6009039282798767 119
-15.169730186462402 1.921761393547058 -0.2635765075683594 11
-8.66256046295166 1.0989435911178589 2.3278541564941406 32
-9.936341285705566 1.2622992992401123 2.301757335662842 32
-11.762640953063965 1.4963961839675903 2.2952773571014404 32
-14.259696006774902 1.8165905475616455 2.268143892288208 32
-14.835982322692871 1.892637014389038 1.8316961526870728 11
-15.270491600036621 1.95077645778656 1.3435057401657104 11
-15.163748741149902 1.93982994556427 0.7991700172424316 11
-15.469466209411621 1.9816832542419434 0.2715594172477722 11
-1.9682834148406982 0.2538888156414032 -0.5215205550193787 119
-2.2460262775421143 0.2901134192943573 -0.5140134692192078 119
-2.6859912872314453 0.3474191427230835 -0.5185348391532898 119
-3.299689292907715 0.4273833632469177 -0.5209271907806396 119
-4.349173545837402 0.5640868544578552 -0.5337883234024048 119
-6.350595951080322 0.8247979283332825 -0.5569260716438293 119
-11.456073760986328 1.4899165630340576 -0.6014255881309509 119
-15.480201721191406 2.0160210132598877 -0.269105464220047 119
-8.658671379089355 1.1291749477386475 2.3278541564941406 32
-9.93670654296875 1.2976068258285522 2.3028812408447266 32
-11.75247859954834 1.5368098020553589 2.2943241596221924 32
-14.25816535949707 1.866996169090271 2.268925189971924 32
-15.493569374084473 2.0315134525299072 1.913957953453064 11
-15.550026893615723 2.0416769981384277 1.3687809705734253 11
-15.533126831054688 2.0422158241271973 0.8190577030181885 11
nan nan nan 0
-1.9817484617233276 0.26266157627105713 -0.5254029035568237 119
-2.244999885559082 0.29795172810554504 -0.5140134692192078 119
-2.6896274089813232 0.35743948817253113 -0.5194879770278931 119
-3.2981772422790527 0.43889883160591125 -0.5209271907806396 119
-4.347177982330322 0.5792648196220398 -0.5337883234024048 119
-6.352616310119629 0.8476194739341736 -0.5573618412017822 119
-11.455753326416016 1.5305579900741577 -0.6016863584518433 119
-16.701936721801758 2.2344470024108887 -0.2905302345752716 119
-8.654677391052246 1.1593923568725586 2.3278541564941406 32
-9.93211555480957 1.3322844505310059 2.3028812408447266 32
-11.737314224243164 1.5765174627304077 2.2924177646636963 32
-14.280928611755371 1.9207048416137695 2.2736129760742188 32
-16.219213485717773 2.1842753887176514 2.0047504901885986 11
-16.697898864746094 2.2517082691192627 1.4707531929016113 11
-16.6046199798584 2.2420806884765625 0.8761038780212402 11
nan nan nan 0
-1.9616775512695312 0.26697245240211487 -0.5202265381813049 119
-2.2439463138580322 0.3057864010334015 -0.5140134692192078 119
-2.683500289916992 0.3661623001098633 -0.5185348391532898 119
-3.2966251373291016 0.4504089653491974 -0.5209271907806396 119
-4.374630928039551 0.5984717607498169 -0.5374444127082825 119
-6.35455322265625 0.8704650402069092 -0.5577976107597351 119
-11.445393562316895 1.5698580741882324 -0.6014255881309509 119
-16.996152877807617 2.334226369857788 -0.29580003023147583 119
-8.650577545166016 1.1895958185195923 2.3278541564941406 32
-9.92740535736084 1.3669459819793701 2.3028812408447266 32
-11.731739044189453 1.6174787282943726 2.2924177646636963 32
-14.264352798461914 1.9691922664642334 2.272050380706787 32
-16.92430877685547 2.339409351348877 2.0931057929992676 11
-17.370820999145508 2.404219388961792 1.530890703201294 11
-16.99236297607422 2.35486102104187 0.8970382213592529 11
nan nan nan 0
-1.955950379371643 0.27315038442611694 -0.5189324021339417 119
-2.247690439224243 0.3142921030521393 -0.5151382088661194 119
-2.677344799041748 0.37484660744667053 -0.517581582069397 119
-3.2999234199523926 0.4625991880893707 -0.5217093825340271 119
nan nan nan 0
-6.351475715637207 0.8926413059234619 -0.5577976107597351 119
-11.439844131469727 1.6098003387451172 -0.6014255881309509 119
-18.260143280029297 2.5727946758270264 -0.318002313375473 119
-8.64637279510498 1.2197847366333008 2.3278541564941406 32
-9.92257308959961 1.4015907049179077 2.3028812408447266 32
-11.73088264465332 1.6591076850891113 2.2933709621429443 32
-14.25250244140625 2.018279790878296 2.2712690830230713 32
-17.653078079223633 2.502974033355713 2.1845078468322754 11
-18.146434783935547 2.5761563777923584 1.6001793146133423 11
-18.205074310302734 2.5877227783203125 0.9616732001304626 11
-18.672224044799805 2.657449722290039 0.32854151725769043 11
-1.9406425952911377 0.27792221307754517 -0.5150501132011414 119
-2.24657940864563 0.3221360743045807 -0.5151382088661194 119
-2.6663031578063965 0.3827950060367584 -0.5156752467155457 119
-3.2982888221740723 0.4741152226924896 -0.5217093825340271 119
-4.355610370635986 0.6268767714500427 -0.535616397857666 119
-6.348321437835693 0.9148066639900208 -0.5577976107597351 119
-11.42921257019043 1.649010181427002 -0.6011647582054138 119
-19.052610397338867 2.7523107528686523 -0.3319975435733795 119
-8.642062187194824 1.2499587535858154 2.3278541564941406 32
-9.922442436218262 1.436916708946228 2.3040051460266113 32
-11.725019454956055 1.7000460624694824 2.2933709621429443 32
-14.240483283996582 2.0673084259033203 2.2704877853393555 32
-18.130434036254883 2.6352484226226807 2.24483323097229 32
-19.12807273864746 2.783663749694824 1.687770962715149 11
-19.0556583404541 2.776522159576416 1.0072053670883179 11
-19.6621036529541 2.868389129638672 0.3461684584617615 11
-1.9396605491638184 0.284694641828537 -0.5150501132011414 119
-2.245441436767578 0.3299761414527893 -0.5151382088661194 119
-2.64552640914917 0.38924187421798706 -0.5118624567985535 119
-3.2966136932373047 0.48562556505203247 -0.5217093825340271 119
-4.363214492797852 0.6435250639915466 -0.5368350148200989 119
-6.345089435577393 0.9369608163833618 -0.5577976107597351 119
-11.428326606750488 1.6896257400512695 -0.6014255881309509 119
-20.091304779052734 2.9739909172058105 -0.3503122627735138 119
-8.637645721435547 1.2801176309585571 2.3278541564941406 32
-9.917366027832031 1.471543788909912 2.3040051460266113 32
-11.723868370056152 1.7416847944259644 2.2943241596221924 32
-14.233180046081543 2.11700439453125 2.2704877853393555 32
-18.13585090637207 2.7007124423980713 2.2466611862182617 32
-20.14788246154785 3.003929853439331 1.7788487672805786 11
-20.058229446411133 2.9941422939300537 1.0608497858047485 11
-20.789165496826172 3.1069600582122803 0.36623871326446533 11
-1.94343101978302 0.2921816110610962 -0.5163442492485046 119
-2.2442758083343506 0.3378121852874756 -0.5151382088661194 119
-2.6635658740997314 0.4013998210430145 -0.5156752467155457 119
-3.294898271560669 0.4971299469470978 -0.5217093825340271 119
-4.34622049331665 0.6565278172492981 -0.5350069999694824 119
-6.341780662536621 0.9591035842895508 -0.5577976107597351 119
-11.427295684814453 1.730255365371704 -0.6016863584518433 119
-20.886476516723633 3.166239023208618 -0.36439386010169983 119
-8.637901306152344 1.3109856843948364 2.3291473388671875 32
-9.916985511779785 1.5068848133087158 2.305129051208496 32
-11.717717170715332 1.7825980186462402 2.2943241596221924 32
-14.225703239440918 2.1666746139526367 2.2704877853393555 32
-18.082157135009766 2.7572689056396484 2.2411770820617676 32
-21.166372299194336 3.2313473224639893 1.8699264526367188 11
-20.79789924621582 3.178809642791748 1.1006250381469727 11
-22.369428634643555 3.423001766204834 0.39433708786964417 11
-1.9471203088760376 0.30003821849823 -0.5176383256912231 119
-2.2430226802825928 0.34603559970855713 -0.5151382088661194 119
-2.676629066467285 0.41340723633766174 -0.5185348391532898 119
-3.2930543422698975 0.5092029571533203 -0.5217093825340271 119
nan nan nan 0
-6.333300590515137 0.9815781116485596 -0.5573618412017822 119
-11.425811767578125 1.7728924751281738 -0.6019471883773804 119
-22.826030731201172 3.545893669128418 -0.3985179662704468 119
-8.604401588439941 1.338182806968689 2.321387767791748 32
-9.911396026611328 1.5432223081588745 2.305129051208496 32
-11.715954780578613 1.8262896537780762 2.2952773571014404 32
-14.217666625976562 2.2187998294830322 2.2704877853393555 32
-18.047414779663086 2.8196945190429688 2.2381303310394287 32
-22.522462844848633 3.522894859313965 1.9910728931427002 11
nan nan nan 0
-22.519716262817383 3.5305187702178955 0.3972167670726776 11
-1.950831651687622 0.30758529901504517 -0.5189324021339417 119
-2.2418010234832764 0.35386309027671814 -0.5151382088661194 119
-2.689713954925537 0.42504626512527466 -0.5213943719863892 119
-3.2961344718933105 0.5214664936065674 -0.5224915146827698 119
-4.36101770401001 0.6907169818878174 -0.5374444127082825 119
-6.329835891723633 1.0036795139312744 -0.5573618412017822 119
-11.42448616027832 1.8135480880737305 -0.6022080183029175 119
-24.01821517944336 3.817002058029175 -0.41959720849990845 119
-8.656916618347168 1.3773162364959717 2.336906909942627 32
-9.915571212768555 1.5793427228927612 2.3073766231536865 32
-11.71435546875 1.8679479360580444 2.2962305545806885 32
-14.209835052490234 2.2684152126312256 2.2704877853393555 32
-18.017860412597656 2.8795418739318848 2.2356929779052734 32
-23.951126098632812 3.832059621810913 2.118756055831909 11
nan nan nan 0
-24.215173721313477 3.882981777191162 0.42740941047668457 11
-1.9497461318969727 0.3143930733203888 -0.5189324021339417 119
-2.2357423305511475 0.3609098196029663 -0.5140134692192078 119
-2.7027502059936523 0.4367816746234894 -0.5242539644241333 119
-3.2942938804626465 0.5329689383506775 -0.5224915146827698 119
-4.348783016204834 0.7043488025665283 -0.5362257361412048 119
-6.331210136413574 1.0265657901763916 -0.5577976107597351 119
-11.423013687133789 1.8542157411575317 -0.6024688482284546 119
-25.73676300048828 4.182274341583252 -0.4499201476573944 119
-8.694960594177246 1.414505958557129 2.348546028137207 32
-9.91480541229248 1.6147279739379883 2.3085007667541504 32
-11.707763671875 1.9088271856307983 2.2962305545806885 32
-14.20182991027832 2.318002939224243 2.2704877853393555 32
-18.012598037719727 2.943218946456909 2.236302375793457 32
-24.5618896484375 4.017760276794434 2.174099922180176 11
-25.153295516967773 4.1190080642700195 1.3337817192077637 11
-25.97255516052246 4.257822036743164 0.45873647928237915 11
-1.948636770248413 0.3211970627307892 -0.5189324021339417 119
-2.234468936920166 0.36871182918548584 -0.5140134692192078 119
-2.691523790359497 0.44461342692375183 -0.5223475694656372 119
-3.297286033630371 0.5452706813812256 -0.5232737064361572 119
-4.365881443023682 0.7227666974067688 -0.5386631488800049 119
-6.32267427444458 1.0478452444076538 -0.5573618412017822 119
-11.42139720916748 1.8948954343795776 -0.6027295589447021 119
nan nan nan 0
-8.680440902709961 1.4432640075683594 2.345959424972534 32
-9.937945365905762 1.6541268825531006 2.315244197845459 32
-11.70587158203125 1.9504899978637695 2.2971839904785156 32
-14.193652153015137 2.3675625324249268 2.2704877853393555 32
-17.99242401123047 3.004441976547241 2.235083818435669 32
-24.557540893554688 4.105114936828613 2.174971580505371 32
-27.443511962890625 4.592466354370117 1.4562479257583618 11
-29.236339569091797 4.89772891998291 0.5167657136917114 11
-1.9475038051605225 0.3279971182346344 -0.5189324021339417 119
-2.233168363571167 0.3765093684196472 -0.5140134692192078 119
-2.685115337371826 0.45318904519081116 -0.5213943719863892 119
-3.295362710952759 0.5567770004272461 -0.5232737064361572 119
-4.348652362823486 0.7355191707611084 -0.5368350148200989 119
-6.318978309631348 1.0699092149734497 -0.5573618412017822 119
-11.419635772705078 1.9355864524841309 -0.6029903888702393 119
nan nan nan 0
-8.684873580932617 1.4751731157302856 2.348546028137207 32
-9.917701721191406 1.6863566637039185 2.3118724822998047 32
-11.698991775512695 1.9913392066955566 2.2971839904785156 32
-14.185300827026367 2.417093276977539 2.2704877853393555 32
-17.986719131469727 3.0680630207061768 2.2356929779052734 32
-24.518512725830078 4.186620235443115 2.172792673110962 32
-29.676557540893555 5.072704792022705 1.5758355855941772 11
-31.116199493408203 5.324376583099365 0.5503616333007812 11
-1.9463469982147217 0.3347931504249573 -0.5189324021339417 119
-2.2318403720855713 0.3843022584915161 -0.5140134692192078 119
-2.678680419921875 0.4617253839969635 -0.5204411745071411 119
-3.298265218734741 0.5691162347793579 -0.5240558981895447 119
-4.355838775634766 0.7523837089538574 -0.5380537509918213 119
-6.315205097198486 1.0919599533081055 -0.5573618412017822 119
-11.417730331420898 1.9762883186340332 -0.6032512187957764 119
-28.563331604003906 4.949145317077637 -0.5002856254577637 119
-8.679671287536621 1.5054800510406494 2.348546028137207 32
-9.902153968811035 1.7192986011505127 2.309624671936035 32
-11.69196891784668 2.0321643352508545 2.2971839904785156 32
-14.176777839660645 2.4665942192077637 2.2704877853393555 32
-17.98567771911621 3.132532835006714 2.2369117736816406 32
-24.484121322631836 4.2687578201293945 2.1710495948791504 32
-32.16725540161133 5.6140828132629395 1.7092922925949097 13
-32.126670837402344 5.6127777099609375 0.5685993432998657 13
-1.9404096603393555 0.3407498300075531 -0.5176383256912231 119
-2.230485439300537 0.39209049940109253 -0.5140134692192078 119
-2.6770524978637695 0.4710729122161865 -0.5204411745071411 119
-3.2962584495544434 0.5806258916854858 -0.5240558981895447 119
-4.353186130523682 0.7675838470458984 -0.5380537509918213 119
-6.3064494132995605 1.1131316423416138 -0.5569260716438293 119
-11.410762786865234 2.016131639480591 -0.6032512187957764 119
-28.545881271362305 5.048819541931152 -0.5002856254577637 119
-8.67436408996582 1.5357685089111328 2.348546028137207 32
-9.886497497558594 1.752152681350708 2.3073766231536865 32
-11.684804916381836 2.0729644298553467 2.2971839904785156 32
-14.158356666564941 2.514338493347168 2.268925189971924 32
-17.984407424926758 3.197032928466797 2.2381303310394287 32
-24.439647674560547 4.348961353302002 2.1684348583221436 32
-32.12288284301758 5.721954822540283 1.7079838514328003 13
-32.03798294067383 5.7126007080078125 0.5673776865005493 13
-1.9392085075378418 0.3475210666656494 -0.5176383256912231 119
-2.233898639678955 0.40073421597480774 -0.5151382088661194 119
-2.675391912460327 0.4804146885871887 -0.5204411745071411 119
-3.2942116260528564 0.5921284556388855 -0.5240558981895447 119
-4.355364799499512 0.7836534976959229 -0.5386631488800049 119
-6.302525520324707 1.1351383924484253 -0.5569260716438293 119
-11.398740768432617 2.0550642013549805 -0.6029903888702393 119
nan nan nan 0
-8.668950080871582 1.5660383701324463 2.348546028137207 32
-9.870733261108398 1.7849185466766357 2.305129051208496 32
-11.677496910095215 2.113739490509033 2.2971839904785156 32
-14.144633293151855 2.5628645420074463 2.268143892288208 32
-17.9877872467041 3.2624475955963135 2.2399582862854004 32
-24.414514541625977 4.432465553283691 2.1675631999969482 32
-32.043766021728516 5.823337078094482 1.7048437595367432 13
nan nan nan 0
-1.9379836320877075 0.3542880415916443 -0.5176383256912231 119
-2.2324862480163574 0.40852952003479004 -0.5151382088661194 119
-2.668870210647583 0.48886623978614807 -0.5194879770278931 119
-3.2872676849365234 0.6027331948280334 -0.5232737064361572 119
-4.357483863830566 0.7997475862503052 -0.5392724275588989 119
-6.293625354766846 1.15623140335083 -0.5564902424812317 119
-11.386587142944336 2.093937635421753 -0.6027295589447021 119
-45.50188064575195 8.375783920288086 -0.7988501787185669 119
-8.663431167602539 1.5962891578674316 2.348546028137207 32
-9.864442825317383 1.819362998008728 2.305129051208496 32
-11.665221214294434 2.153597593307495 2.2962305545806885 32
-14.125889778137207 2.6104280948638916 2.2665812969207764 32
-17.986047744750977 3.327021837234497 2.2411770820617676 32
-24.428281784057617 4.523102283477783 2.170177936553955 32
-32.018333435058594 5.934244632720947 1.7045820951461792 13
-45.49000549316406 8.43928337097168 0.8069120049476624 18
-1.9319871664047241 0.3601655960083008 -0.5163442492485046 119
-2.231046676635742 0.416319876909256 -0.5151382088661194 119
-2.662322759628296 0.4972781836986542 -0.5185348391532898 119
-3.2851436138153076 0.6142042279243469 -0.5232737064361572 119
-4.359543800354004 0.8158661127090454 -0.5398817658424377 119
-6.289551258087158 1.178193211555481 -0.5564902424812317 119
-11.37430191040039 2.13275146484375 -0.6024688482284546 119
-45.48219680786133 8.536409378051758 -0.799022912979126 18
-8.657805442810059 1.6265205144882202 2.348546028137207 32
-9.858031272888184 1.8537852764129639 2.305129051208496 32
-11.657631874084473 2.194303512573242 2.2962305545806885 32
-14.10698413848877 2.6578919887542725 2.2650187015533447 32
-17.969449996948242 3.3888652324676514 2.240567922592163 32
-24.431922912597656 4.612041473388672 2.1719212532043457 32
-32.007232666015625 6.047827243804932 1.7051053047180176 13
-45.465179443359375 8.598950386047363 0.8069992065429688 18
-1.930718183517456 0.3669072985649109 -0.5163442492485046 119
-2.2295796871185303 0.424105167388916 -0.5151382088661194 119
-2.6557488441467285 0.5056502819061279 -0.517581582069397 119
-3.2829794883728027 0.6256678104400635 -0.5232737064361572 119
-4.3566694259643555 0.8310787677764893 -0.5398817658424377 119
-6.280507564544678 1.1992064714431763 -0.5560544729232788 119
-11.356978416442871 2.170567512512207 -0.6019471883773804 119
-45.28026580810547 8.662242889404297 -0.79599928855896 18
-8.65207576751709 1.6567318439483643 2.348546028137207 32
-9.851500511169434 1.888184905052185 2.305129051208496 32
-11.64508056640625 2.234058141708374 2.2952773571014404 32
-14.087921142578125 2.7052557468414307 2.263456106185913 32
-17.95263671875 3.4506330490112305 2.2399582862854004 32
-24.420564651489258 4.698237895965576 2.1723568439483643 32
-31.976125717163086 6.157628536224365 1.7045820951461792 13
nan nan nan 0
-1.9294257164001465 0.37364453077316284 -0.5163442492485046 119
-2.22808575630188 0.4318852722644806 -0.5151382088661194 119
-2.6491494178771973 0.5139826536178589 -0.5166284441947937 119
-3.285623073577881 0.6380650997161865 -0.5240558981895447 119
-4.353741645812988 0.8462813496589661 -0.5398817658424377 119
-6.276283264160156 1.2211222648620605 -0.5560544729232788 119
-11.349332809448242 2.2101974487304688 -0.6019471883773804 119
-45.264469146728516 8.82311725616455 -0.7962584495544434 18
-8.646240234375 1.6869232654571533 2.348546028137207 32
-9.849632263183594 1.9234954118728638 2.306252956390381 32
-11.637211799621582 2.274693489074707 2.2952773571014404 32
-14.06869888305664 2.752518653869629 2.2618932723999023 32
-17.925870895385742 3.5104172229766846 2.2381303310394287 32
-24.37468910217285 4.777704238891602 2.1697421073913574 32
-31.954435348510742 6.269208908081055 1.7045820951461792 13
-45.49233627319336 8.933484077453613 0.8085699081420898 18
-1.9281097650527954 0.3803772032260895 -0.5163442492485046 119
-2.226564645767212 0.43966010212898254 -0.5151382088661194 119
-2.652153968811035 0.5241784453392029 -0.517581582069397 119
-3.2833757400512695 0.6495301723480225 -0.5240558981895447 119
-4.345892906188965 0.8605096340179443 -0.5392724275588989 119
-6.271982669830322 1.243023157119751 -0.5560544729232788 119
-11.346446990966797 2.25077223777771 -0.6022080183029175 119
-45.4393424987793 9.021956443786621 -0.7998868227005005 18
-8.640298843383789 1.7170939445495605 2.348546028137207 32
-9.842857360839844 1.9578653573989868 2.306252956390381 32
-11.62920093536377 2.315300941467285 2.2952773571014404 32
-14.054161071777344 2.800645589828491 2.2611119747161865 32
-17.90377426147461 3.5710270404815674 2.2369117736816406 32
-24.33832550048828 4.858858108520508 2.167999029159546 32
-31.927459716796875 6.379733562469482 1.7043203115463257 13
nan nan nan 0
-1.9315053224563599 0.38805654644966125 -0.5176383256912231 119
-2.2250165939331055 0.4474295675754547 -0.5151382088661194 119
-2.650308132171631 0.5334330201148987 -0.517581582069397 119
-3.2859299182891846 0.661962628364563 -0.5248380899429321 119
-4.347727298736572 0.8766553401947021 -0.5398817658424377 119
-6.267605304718018 1.264908790588379 -0.5560544729232788 119
-11.343414306640625 2.291353702545166 -0.6024688482284546 119
-45.68688201904297 9.236985206604004 -0.8048110604286194 18
-8.629518508911133 1.7462859153747559 2.34725284576416 32
-9.840737342834473 1.9931784868240356 2.3073766231536865 32
-11.621047973632812 2.3558802604675293 2.2952773571014404 32
-14.039461135864258 2.8487048149108887 2.26033091545105 32
-17.881471633911133 3.631525754928589 2.2356929779052734 32
-24.296812057495117 4.93882417678833 2.165820360183716 32
-31.904996871948242 6.491142749786377 1.7043203115463257 13
-46.79560470581055 9.529175758361816 0.8329160213470459 18
-1.9301389455795288 0.3947964012622833 -0.5176383256912231 119
-2.2234411239624023 0.4551936089992523 -0.5151382088661194 119
-2.6484298706054688 0.5426810383796692 -0.517581582069397 119
-3.2835991382598877 0.6734286546707153 -0.5248380899429321 119
-4.344641208648682 0.8918263912200928 -0.5398817658424377 119
-6.268031120300293 1.2877815961837769 -0.5564902424812317 119
-11.340237617492676 2.3319411277770996 -0.6027295589447021 119
-45.65925598144531 9.39741325378418 -0.8048974871635437 18
-8.613909721374512 1.7744489908218384 2.3446662425994873 32
-9.833720207214355 2.0275168418884277 2.3073766231536865 32
-11.617561340332031 2.397423028945923 2.2962305545806885 32
-14.034266471862793 2.898693084716797 2.2611119747161865 32
-17.87354850769043 3.6949267387390137 2.236302375793457 32
-24.279422760009766 5.023606300354004 2.165820360183716 32
-31.882144927978516 6.602472305297852 1.7043203115463257 13
-47.19772720336914 9.782766342163086 0.840682327747345 18
-1.9334771633148193 0.4025157690048218 -0.5189324021339417 119
-2.2218384742736816 0.4629520773887634 -0.5151382088661194 119
-2.646519422531128 0.5519225001335144 -0.517581582069397 119
-3.281228542327881 0.6848863959312439 -0.5248380899429321 119
-4.341501235961914 0.9069865942001343 -0.5398817658424377 119
-6.263497829437256 1.3096532821655273 -0.5564902424812317 119
-11.336915969848633 2.3725345134735107 -0.6029903888702393 119
-38.56058120727539 8.07679557800293 -0.6801499724388123 119
-8.5982084274292 1.802524209022522 2.3420796394348145 32
-9.831351280212402 2.062830924987793 2.3085007667541504 32
-11.609121322631836 2.4379613399505615 2.2962305545806885 32
-14.02889633178711 2.9486801624298096 2.2618932723999023 32
-17.875110626220703 3.760359048843384 2.2381303310394287 32
-24.247116088867188 5.105247497558594 2.164512872695923 32
-31.854013442993164 6.712691307067871 1.7040585279464722 13
