# .PCD v0.7 - Point Cloud Data file format
VERSION 0.7
FIELDS x y z intensity
SIZE 4 4 4 4
TYPE F F F F
COUNT 1 1 1 1
WIDTH 775
HEIGHT 1
VIEWPOINT 0 0 0 1 0 0 0
POINTS 775
DATA ascii
3.89300799369812 -0.5998868346214294 -0.4789470434188843 119
5.3494367599487305 -0.8252686858177185 -0.47020596265792847 119
8.57973575592041 -1.3251466751098633 -0.4514603912830353 119
9.138272285461426 -1.4130460023880005 -0.1591307520866394 102
9.068315505981445 -1.4038492441177368 2.446833372116089 107
9.719887733459473 -1.5064553022384644 2.2601728439331055 101
9.524909019470215 -1.4779384136199951 1.8644362688064575 101
9.095163345336914 -1.4128823280334473 1.450111985206604 102
9.198057174682617 -1.430510401725769 1.1382596492767334 102
9.167497634887695 -1.427396535873413 0.808369517326355 102
9.15995979309082 -1.4278603792190552 0.48384588956832886 102
9.086867332458496 -1.4180912971496582 0.15986403822898865 101
1.8508504629135132 -0.29049739241600037 -0.491756409406662 119
2.1121020317077637 -0.3318794369697571 -0.4847698211669922 119
2.4718196392059326 -0.3888447880744934 -0.4785008728504181 119
3.0086770057678223 -0.4738365709781647 -0.4763433039188385 119
3.890890121459961 -0.6134722232818604 -0.4789470434188843 119
5.346523284912109 -0.8439366817474365 -0.47020596265792847 119
8.570125579833984 -1.354308009147644 -0.45119956135749817 119
8.995023727416992 -1.4230624437332153 -0.15671181678771973 101
9.068130493164062 -1.4362506866455078 2.4481265544891357 107
9.3440523147583 -1.4816242456436157 2.1736321449279785 101
9.097949981689453 -1.4442293643951416 1.7815090417861938 102
9.031647682189941 -1.4353203773498535 1.4407362937927246 102
9.094985961914062 -1.4470136165618896 1.126072645187378 0
9.064080238342285 -1.4437187910079956 0.799653947353363 101
9.041510581970215 -1.441741943359375 0.4778272807598114 101
8.820215225219727 -1.4080332517623901 0.15523913502693176 101
1.8545936346054077 -0.297721803188324 -0.4930504858493805 119
2.1109306812286377 -0.33925002813339233 -0.4847698211669922 119
2.470447301864624 -0.3974706828594208 -0.4785008728504181 119
3.007004737854004 -0.48433586955070496 -0.4763433039188385 119
3.893624782562256 -0.6278403401374817 -0.4795564115047455 119
5.3484625816345215 -0.863388180732727 -0.47064176201820374 119
8.550559043884277 -1.3818254470825195 -0.450417160987854 119
8.664285659790039 -1.4017561674118042 -0.15101006627082825 101
9.02968692779541 -1.462490200996399 2.4390735626220703 101
9.011795043945312 -1.4612064361572266 2.0972065925598145 101
8.899057388305664 -1.4445207118988037 1.743381381034851 101
8.612238883972168 -1.3995063304901123 1.374324917793274 101
8.874351501464844 -1.4436899423599243 1.0992614030838013 101
nan nan nan 0
8.69145679473877 -1.417050838470459 0.4595096707344055 101
8.538945198059082 -1.3937153816223145 0.15035247802734375 101
1.8583621978759766 -0.30465152859687805 -0.4943445920944214 119
2.1050467491149902 -0.34509187936782837 -0.4836450219154358 119
2.474030017852783 -0.4060247242450714 -0.47945404052734375 119
3.0103414058685303 -0.4945808947086334 -0.47712549567222595 119
3.8916332721710205 -0.6400693655014038 -0.4795564115047455 119
5.3457231521606445 -0.8801865577697754 -0.47064176201820374 119
8.437787055969238 -1.3908151388168335 -0.4446793496608734 119
8.38361644744873 -1.3833892345428467 -0.14617221057415009 101
8.762957572937012 -1.447555661201477 2.3679447174072266 101
8.718753814697266 -1.4418169260025024 2.0297722816467285 101
8.613616943359375 -1.42597496509552 1.6880964040756226 101
8.378808975219727 -1.3886053562164307 1.337603211402893 101
8.566232681274414 -1.4212030172348022 1.0614819526672363 101
8.459752082824707 -1.4050540924072266 0.7469246983528137 101
8.455462455749512 -1.4058582782745361 0.44721072912216187 101
8.268229484558105 -1.3762106895446777 0.1456403285264969 101
1.8573417663574219 -0.31081241369247437 -0.4943445920944214 119
2.1038293838500977 -0.3524377644062042 -0.4836450219154358 119
2.472597599029541 -0.41465824842453003 -0.47945404052734375 119
3.008596658706665 -0.5050860047340393 -0.47712549567222595 119
3.8942689895629883 -0.6544723510742188 -0.4801657497882843 119
5.342618465423584 -0.8988412618637085 -0.47064176201820374 119
8.127602577209473 -1.3688452243804932 -0.4285092055797577 119
8.117463111877441 -1.3685945272445679 -0.14159353077411652 101
8.467338562011719 -1.4291030168533325 2.2890563011169434 101
8.415822982788086 -1.4219191074371338 1.9600902795791626 101
8.32789134979248 -1.408557415008545 1.6328115463256836 101
7.848029136657715 -1.3288036584854126 1.2532217502593994 101
8.272536277770996 -1.4021652936935425 1.025530457496643 101
7.914608955383301 -1.342918872833252 0.6989890336990356 101
8.184679985046387 -1.390213131904602 0.4330800175666809 101
7.977521896362305 -1.3564586639404297 0.14057911932468414 101
1.8561345338821411 -0.3179417550563812 -0.4943445920944214 119
2.1024606227874756 -0.36051326990127563 -0.4836450219154358 119
2.4758248329162598 -0.42497962713241577 -0.4804072380065918 119
3.011502265930176 -0.5174707174301147 -0.477907657623291 119
3.8917274475097656 -0.6694203615188599 -0.4801657497882843 119
5.339127540588379 -0.9193487763404846 -0.47064176201820374 119
7.866413593292236 -1.3559379577636719 -0.41494712233543396 119
7.841193199157715 -1.3529999256134033 -0.13684207201004028 101
8.190505027770996 -1.414745807647705 2.215341091156006 101
8.155858039855957 -1.4102271795272827 1.90052330493927 101
nan nan nan 0
7.711485385894775 -1.3361634016036987 1.2321263551712036 101
7.8270158767700195 -1.357588291168213 0.9706892371177673 101
7.629664421081543 -1.324729561805725 0.6741496324539185 101
7.913635730743408 -1.3754581212997437 0.41894933581352234 101
7.735843181610107 -1.345947265625 0.1363905519247055 101
1.8597708940505981 -0.3252509534358978 -0.4956386983394623 119
2.101189374923706 -0.36785003542900085 -0.4836450219154358 119
2.4743261337280273 -0.43361929059028625 -0.4804072380065918 119
3.0096774101257324 -0.5279796123504639 -0.477907657623291 119
3.8942551612854004 -0.6838593482971191 -0.4807750880718231 119
5.335886001586914 -0.9379802346229553 -0.47064176201820374 119
7.625586032867432 -1.341852068901062 -0.4024282693862915 119
7.605020999908447 -1.3396018743515015 -0.1327817291021347 101
7.952448844909668 -1.4022313356399536 2.1519715785980225 101
7.910991668701172 -1.3963449001312256 1.8443280458450317 101
7.626161575317383 -1.3474429845809937 1.496505618095398 101
7.468482494354248 -1.3209272623062134 1.1938421726226807 101
7.626760005950928 -1.3502942323684692 0.9463154077529907 101
7.443525314331055 -1.3191930055618286 0.658025860786438 101
7.677716255187988 -1.3620800971984863 0.4066503643989563 101
7.494831085205078 -1.3309842348098755 0.13220196962356567 101
1.8586821556091309 -0.33141642808914185 -0.4956386983394623 119
2.1048195362091064 -0.3753044903278351 -0.4847698211669922 119
2.472951650619507 -0.4413904547691345 -0.4804072380065918 119
3.0080039501190186 -0.5374321937561035 -0.477907657623291 119
3.892087459564209 -0.6960901021957397 -0.4807750880718231 119
5.332912921905518 -0.9547387361526489 -0.47064176201820374 119
7.395246982574463 -1.3252856731414795 -0.39043107628822327 119
7.36950159072876 -1.3219993114471436 -0.12872138619422913 101
7.672282695770264 -1.3776969909667969 2.076962947845459 101
7.379093647003174 -1.3263789415359497 1.7206984758377075 101
7.4431538581848145 -1.339234709739685 1.4612376689910889 101
7.265020847320557 -1.3084925413131714 1.1618084907531738 101
7.392932891845703 -1.3328628540039062 0.9176760911941528 101
7.405031681060791 -1.3363786935806274 0.654975414276123 101
7.437545299530029 -1.343586802482605 0.3940897285938263 101
7.264317512512207 -1.3136025667190552 0.12818790972232819 101
1.8575729131698608 -0.3375781774520874 -0.4956386983394623 119
2.103496551513672 -0.38264939188957214 -0.4847698211669922 119
2.471395969390869 -0.4500199556350708 -0.4804072380065918 119
3.0061097145080566 -0.5479288101196289 -0.477907657623291 119
3.889634132385254 -0.7096717953681946 -0.4807750880718231 119
5.329547882080078 -0.9733482003211975 -0.47064176201820374 119
7.189193248748779 -1.3142763376235962 -0.379737913608551 119
7.163220405578613 -1.3108203411102295 -0.12517939507961273 101
7.439388275146484 -1.362699031829834 2.0148870944976807 101
7.086889743804932 -1.2994091510772705 1.6532641649246216 101
7.201877593994141 -1.3217920064926147 1.4145313501358032 101
7.051545143127441 -1.2954729795455933 1.1282120943069458 101
7.173476696014404 -1.3191677331924438 0.8908648490905762 101
7.253361701965332 -1.3351671695709229 0.6419020295143127 101
7.202016830444336 -1.3270153999328613 0.38179078698158264 101
7.063035488128662 -1.302681803703308 0.12469743937253952 101
1.8563231229782104 -0.3443842828273773 -0.4956386983394623 119
2.1020801067352295 -0.39035651087760925 -0.4847698211669922 119
2.4697299003601074 -0.45907509326934814 -0.4804072380065918 119
3.0040810108184814 -0.5589430928230286 -0.477907657623291 119
3.8821280002593994 -0.7230145931243896 -0.4801657497882843 119
5.325944423675537 -0.9928755164146423 -0.47064176201820374 119
6.973263740539551 -1.301232099533081 -0.36852312088012695 119
6.966711521148682 -1.3012676239013672 -0.1218101754784584 101
7.211206912994385 -1.3482381105422974 1.9541040658950806 101
7.0246124267578125 -1.3146204948425293 1.6397773027420044 101
6.989536762237549 -1.3093189001083374 1.3735443353652954 101
6.8380279541015625 -1.2821727991104126 1.0946156978607178 101
6.963735580444336 -1.3070019483566284 0.8652722835540771 101
7.013443470001221 -1.3175987005233765 0.620984673500061 101
7.000819206237793 -1.3164920806884766 0.3713235855102539 101
6.861694812774658 -1.2915698289871216 0.12120695412158966 101
1.855109691619873 -0.35086193680763245 -0.4956386983394623 119
2.1007046699523926 -0.3976917862892151 -0.4847698211669922 119
2.4681124687194824 -0.4676932394504547 -0.4804072380065918 119
3.0021116733551025 -0.5694259405136108 -0.477907657623291 119
3.879580497741699 -0.7365613579750061 -0.4801657497882843 119
5.322446346282959 -1.0114604234695435 -0.47064176201820374 119
6.796995639801025 -1.2929081916809082 -0.3593948185443878 119
6.770596981048584 -1.2891112565994263 -0.11844096332788467 101
7.002444744110107 -1.3345210552215576 1.8984942436218262 101
6.7567644119262695 -1.2889217138290405 1.5779625177383423 101
6.772790431976318 -1.2932040691375732 1.33160400390625 101
6.663733959197998 -1.2735861539840698 1.0672699213027954 101
6.769031524658203 -1.2949353456497192 0.8415077924728394 101
6.827794075012207 -1.3074121475219727 0.6048608422279358 101
6.814737796783447 -1.3061450719833374 0.36164143681526184 101
6.675485134124756 -1.280663251876831 0.11797825992107391 101
1.853873610496521 -0.3573353588581085 -0.4956386983394623 119
2.099303722381592 -0.40502217411994934 -0.4847698211669922 119
2.4616456031799316 -0.47537505626678467 -0.47945404052734375 119
3.0049548149108887 -0.5808390378952026 -0.47868984937667847 119
3.876985788345337 -0.7500990629196167 -0.4801657497882843 119
5.313992977142334 -1.0290859937667847 -0.47020596265792847 119
6.596363067626953 -1.2786190509796143 -0.3489624559879303 119
6.584469795227051 -1.2775061130523682 -0.11524453014135361 101
6.789127826690674 -1.3184430599212646 1.841591238975525 101
6.522662162780762 -1.2678771018981934 1.5240150690078735 101
6.5417914390563965 -1.2727802991867065 1.28680419921875 101
6.329616546630859 -1.232645869255066 1.0141408443450928 101
6.550143718719482 -1.2767784595489502 0.8146965503692627 101
6.632525444030762 -1.2940384149551392 0.5878654718399048 101
6.633716106414795 -1.295472502708435 0.35222098231315613 101
6.494344711303711 -1.2694320678710938 0.11483682692050934 101
1.8526149988174438 -0.363804429769516 -0.4956386983394623 119
2.097877025604248 -0.4123476445674896 -0.4847698211669922 119
2.4599711894989014 -0.4839648902416229 -0.47945404052734375 119
3.002908945083618 -0.5913246870040894 -0.47868984937667847 119
3.8743436336517334 -0.7636277079582214 -0.4801657497882843 119
5.305481910705566 -1.046665072441101 -0.4697701632976532 119
6.420408725738525 -1.2677819728851318 -0.3398341238498688 119
6.408316612243652 -1.2665563821792603 -0.1122208684682846 101
6.538106441497803 -1.2933940887451172 1.7743420600891113 101
6.370040416717529 -1.261301875114441 1.4891741275787354 101
6.330278396606445 -1.2545770406723022 1.2458170652389526 101
6.320431232452393 -1.2537719011306763 1.0133594274520874 101
6.321732044219971 -1.2551769018173218 0.7866665720939636 101
6.46674919128418 -1.2851430177688599 0.5734847784042358 101
6.467545986175537 -1.2864748239517212 0.3435855507850647 101
6.332977771759033 -1.2608566284179688 0.11204444617033005 101
1.8513338565826416 -0.3702690005302429 -0.4956386983394623 119
2.0964248180389404 -0.4196680784225464 -0.4847698211669922 119
2.4630794525146484 -0.4935131371021271 -0.4804072380065918 119
3.000826597213745 -0.601803183555603 -0.47868984937667847 119
3.871654510498047 -0.7771470546722412 -0.4801657497882843 119
5.301795482635498 -1.0651782751083374 -0.4697701632976532 119
6.2592973709106445 -1.25868558883667 -0.3314882516860962 119
6.247025966644287 -1.2573521137237549 -0.1094563826918602 101
6.306284427642822 -1.2704246044158936 1.712265968322754 101
6.3178391456604 -1.273899793624878 1.4779349565505981 101
6.311426639556885 -1.2737531661987305 1.242957592010498 101
6.224040985107422 -1.257247805595398 0.9985145926475525 101
6.312448024749756 -1.2762526273727417 0.7860572338104248 101
6.296235084533691 -1.2741186618804932 0.558668315410614 101
6.301521301269531 -1.276333212852478 0.3349500894546509 101
6.16685152053833 -1.250177264213562 0.10916478931903839 101
1.8500300645828247 -0.3767291307449341 -0.4956386983394623 119
2.0997209548950195 -0.42795637249946594 -0.4858945310115814 119
2.4613418579101562 -0.5021078586578369 -0.4804072380065918 119
2.9987075328826904 -0.6122743487358093 -0.47868984937667847 119
3.8737804889678955 -0.7916505932807922 -0.4807750880718231 119
5.298045635223389 -1.0836784839630127 -0.4697701632976532 119
6.093439102172852 -1.247478723526001 -0.3228815495967865 101
6.095673561096191 -1.2490447759628296 -0.10686467587947845 101
6.2592291831970215 -1.2836967706680298 1.7006267309188843 101
6.251311302185059 -1.2832099199295044 1.4633241891860962 101
nan nan nan 0
6.055144309997559 -1.2451454401016235 0.9719500541687012 101
6.20587682723999 -1.2772701978683472 0.7732609510421753 101
6.1356353759765625 -1.2639297246932983 0.544723391532898 101
6.145428657531738 -1.267065167427063 0.32683804631233215 101
6.010672092437744 -1.2403748035430908 0.10645967721939087 101
1.8487038612365723 -0.38318464159965515 -0.4956386983394623 119
2.0982141494750977 -0.4352831542491913 -0.4858945310115814 119
2.4643800258636475 -0.5116943717002869 -0.48136040568351746 119
2.996551990509033 -0.6227381229400635 -0.47868984937667847 119
3.8709936141967773 -0.8051677942276001 -0.4807750880718231 119
5.289353847503662 -1.1011502742767334 -0.4693343937397003 119
5.937512397766113 -1.2371667623519897 -0.31479647755622864 101
5.944457530975342 -1.2396963834762573 -0.10427296906709671 101
5.952120304107666 -1.24237859249115 1.6178585290908813 101
5.908188819885254 -1.2342848777770996 1.3835269212722778 101
5.908419132232666 -1.2354092597961426 1.1647961139678955 101
5.915412902832031 -1.237949252128601 0.9500733613967896 101
6.050804138183594 -1.2673856019973755 0.7543712258338928 101
5.980061054229736 -1.253657579421997 0.5312142372131348 101
5.99436616897583 -1.2577487230300903 0.318987637758255 101
5.8693156242370605 -1.2325798273086548 0.10401634126901627 101
1.8473550081253052 -0.38963547348976135 -0.4956386983394623 119
2.1014487743377686 -0.44361087679862976 -0.4870193302631378 119
2.462578773498535 -0.5202935338020325 -0.48136040568351746 119
2.9943599700927734 -0.6331942081451416 -0.47868984937667847 119
3.873014211654663 -0.819702684879303 -0.48138442635536194 119
5.290350914001465 -1.1206390857696533 -0.4697701632976532 119
5.815927505493164 -1.2330310344696045 -0.3085370659828186 101
5.808053970336914 -1.2324211597442627 -0.10194043815135956 101
5.914676189422607 -1.2561242580413818 1.608805775642395 101
5.908609390258789 -1.2559136152267456 1.3846508264541626 101
5.87046480178833 -1.2488768100738525 1.1581237316131592 101
5.795128345489502 -1.2339069843292236 0.931321918964386 101
5.900730133056641 -1.2574684619903564 0.7360908389091492 101
5.848992347717285 -1.2475101947784424 0.5198839902877808 101
5.848328590393066 -1.2484358549118042 0.3113989233970642 101
5.732976913452148 -1.224858045578003 0.10166025906801224 101
1.845983624458313 -0.3960815966129303 -0.4956386983394623 119
2.0998876094818115 -0.45094361901283264 -0.4870193302631378 119
2.4655463695526123 -0.5299177765846252 -0.4823136329650879 119
2.992131471633911 -0.6436426639556885 -0.47868984937667847 119
3.870129346847534 -0.8332170248031616 -0.48138442635536194 119
5.276668548583984 -1.1370006799697876 -0.46889862418174744 119
5.699325084686279 -1.229114294052124 -0.3025384247303009 101
5.6717753410339355 -1.224208950996399 -0.09960789978504181 101
5.796952724456787 -1.2522865533828735 1.5777677297592163 101
5.813711643218994 -1.2569689750671387 1.3632967472076416 101
5.765326976776123 -1.2475610971450806 1.1381068229675293 101
5.65081262588501 -1.223813772201538 0.9086639285087585 101
5.77020263671875 -1.2507247924804688 0.7202478051185608 101
5.7083048820495605 -1.2383513450622559 0.507682204246521 101
5.707310199737549 -1.2391785383224487 0.30407190322875977 101
5.591879844665527 -1.2151380777359009 0.09921692311763763 101
1.8445898294448853 -0.40252286195755005 -0.4956386983394623 119
2.0983006954193115 -0.4582708477973938 -0.4870193302631378 119
2.463681697845459 -0.538520872592926 -0.4823136329650879 119
2.9898667335510254 -0.6540831923484802 -0.47868984937667847 119
3.8720455169677734 -0.8477827906608582 -0.48199379444122314 119
5.262936115264893 -1.153280258178711 -0.4680270552635193 119
5.577945232391357 -1.2233293056488037 -0.29627901315689087 101
5.54050874710083 -1.216132640838623 -0.09736175090074539 101
5.702915668487549 -1.2528239488601685 1.553195834159851 101
5.680811882019043 -1.2490074634552002 1.3329511880874634 101
5.641096591949463 -1.2413077354431152 1.1142771244049072 101
5.550045490264893 -1.2222877740859985 0.8930376768112183 101
5.625255584716797 -1.2398808002471924 0.702576756477356 101
5.567755222320557 -1.228225827217102 0.49548038840293884 101
5.581057071685791 -1.2321817874908447 0.2975299060344696 101
5.446041107177734 -1.2033698558807373 0.09668632596731186 101
1.8431735038757324 -0.40895920991897583 -0.4956386983394623 119
2.0966882705688477 -0.46559250354766846 -0.4870193302631378 119
2.4569952487945557 -0.5460526347160339 -0.48136040568351746 119
2.9923853874206543 -0.6655879616737366 -0.47947201132774353 119
3.869062662124634 -0.8612935543060303 -0.48199379444122314 119
5.244293212890625 -1.168394923210144 -0.46671971678733826 119
5.437182426452637 -1.2123655080795288 -0.28897637128829956 101
5.419128894805908 -1.209332823753357 -0.09528838843107224 101
5.590092658996582 -1.2485092878341675 1.5234510898590088 101
5.5623040199279785 -1.2433222532272339 1.3059775829315186 101
5.507401943206787 -1.2320594787597656 1.088541030883789 101
5.352974891662598 -1.1984935998916626 0.8617852926254272 101
5.485299587249756 -1.229125738143921 0.6855150461196899 101
5.437067031860352 -1.2193145751953125 0.48415014147758484 101
5.445178985595703 -1.2221319675445557 0.2904645502567291 101
5.30035400390625 -1.190598726272583 0.09415572881698608 101
1.841734766960144 -0.41539061069488525 -0.4956386983394623 119
2.095050096511841 -0.47290846705436707 -0.4870193302631378 119
2.4550743103027344 -0.5546258091926575 -0.48136040568351746 119
2.990043878555298 -0.6760293245315552 -0.47947201132774353 119
3.870872974395752 -0.8758891224861145 -0.48260313272476196 119
5.118733882904053 -1.15919029712677 -0.45582523941993713 119
5.291696548461914 -1.1993305683135986 -0.28141292929649353 101
5.122350215911865 -1.1618890762329102 -0.09010497480630875 101
5.45382022857666 -1.2380765676498413 1.4872400760650635 101
5.386894702911377 -1.2238725423812866 1.2655168771743774 101
5.325980186462402 -1.2110105752944946 1.05327308177948 101
5.141693115234375 -1.1700515747070312 0.8281888961791992 101
5.3600053787231445 -1.220715045928955 0.6702813506126404 101
5.165674209594727 -1.1774054765701294 0.4601823091506958 101
5.158530235290527 -1.1767241954803467 0.27528712153434753 101
5.091464519500732 -1.1623605489730835 0.09049072116613388 101
1.8402734994888306 -0.4218169152736664 -0.4956386983394623 119
2.093386650085449 -0.48021867871284485 -0.4870193302631378 119
2.457907199859619 -0.5642905235290527 -0.4823136329650879 119
2.992479085922241 -0.6875682473182678 -0.480254203081131 119
3.8677918910980225 -0.8893955945968628 -0.48260313272476196 119
5.046698570251465 -1.1614117622375488 -0.44972431659698486 119
5.092845439910889 -1.1729676723480225 -0.2709805369377136 101
5.01108980178833 -1.1550588607788086 -0.08820439130067825 101
5.28945255279541 -1.2201939821243286 1.4432694911956787 101
5.202197551727295 -1.2010219097137451 1.222808599472046 101
5.096952438354492 -1.1776611804962158 1.00847327709198 101
5.002852916717529 -1.1568390130996704 0.8063122630119324 101
5.089788913726807 -1.17787766456604 0.6367672681808472 101
5.069334983825684 -1.1740765571594238 0.4519025385379791 101
5.066836357116699 -1.1744295358657837 0.2705768942832947 101
5.028936862945557 -1.1665698289871216 0.08944357931613922 101
1.8387898206710815 -0.4282381236553192 -0.4956386983394623 119
2.0916976928710938 -0.48752301931381226 -0.4870193302631378 119
2.4559226036071777 -0.5728667974472046 -0.4823136329650879 119
2.994870185852051 -0.69913250207901 -0.48103639483451843 119
3.8694963455200195 -0.9040203094482422 -0.48321250081062317 119
4.9747114181518555 -1.163144588470459 -0.4436233937740326 119
5.0303778648376465 -1.1770859956741333 -0.2678508460521698 101
4.992424488067627 -1.1691242456436157 -0.08794521540403366 101
5.082955837249756 -1.191260576248169 1.3876596689224243 101
5.060417652130127 -1.1869101524353027 1.1902153491973877 101
5.025912284851074 -1.1797425746917725 0.9951285719871521 101
4.998784065246582 -1.1742953062057495 0.8063122630119324 101
5.022843360900879 -1.1808722019195557 0.628845751285553 101
5.036114692687988 -1.184919834136963 0.4492878317832947 101
5.023824214935303 -1.1829535961151123 0.2684834599494934 101
4.9323811531066895 -1.162330150604248 0.08778559416532516 101
1.8372838497161865 -0.4346540868282318 -0.4956386983394623 119
2.0899832248687744 -0.4948214292526245 -0.4870193302631378 119
2.4539079666137695 -0.581436038017273 -0.4823136329650879 119
2.9972167015075684 -0.7107217311859131 -0.4818185567855835 119
3.8663170337677 -0.9175218939781189 -0.48321250081062317 119
4.912467002868652 -1.1666911840438843 -0.43839403986930847 119
4.914507865905762 -1.1680819988250732 -0.2618522346019745 101
4.905632972717285 -1.1668771505355835 -0.08647659420967102 101
5.022383689880371 -1.1955742835998535 1.372140645980835 101
5.013588905334473 -1.1944053173065186 1.1801002025604248 101
4.993116855621338 -1.1904492378234863 0.9894095063209534 101
4.888972759246826 -1.1665210723876953 0.7891234159469604 101
4.970419883728027 -1.1868716478347778 0.62275230884552 101
4.930212020874023 -1.1781799793243408 0.44013649225234985 101
4.927396297454834 -1.1784162521362305 0.2635115385055542 101
4.816469669342041 -1.1527762413024902 0.08577857166528702 101
1.8404513597488403 -0.44219303131103516 -0.4969327747821808 119
2.088243246078491 -0.5021138191223145 -0.4870193302631378 119
2.4566352367401123 -0.5911465287208557 -0.48326680064201355 119
2.999518871307373 -0.7223358154296875 -0.48260071873664856 119
3.863090753555298 -0.9310122728347778 -0.48321250081062317 119
4.801838397979736 -1.1581389904022217 -0.42880693078041077 119
4.842447280883789 -1.168827772140503 -0.25820091366767883 101
4.814059257507324 -1.1628648042678833 -0.08492156863212585 101
4.91959285736084 -1.1892658472061157 1.3449822664260864 101
4.9241509437561035 -1.1912775039672852 1.159869909286499 101
4.879209995269775 -1.1813066005706787 0.9674860835075378 101
4.812875747680664 -1.166135549545288 0.7774037718772888 101
4.864964962005615 -1.1796554327011108 0.6099560856819153 101
4.834100246429443 -1.1730648279190063 0.4318567216396332 101
4.8262104988098145 -1.1720422506332397 0.25827792286872864 101
4.744406700134277 -1.1530531644821167 0.08455689996480942 101
1.8388967514038086 -0.4486147165298462 -0.4969327747821808 119
2.086477756500244 -0.5094001293182373 -0.4870193302631378 119
2.454556703567505 -0.5997181534767151 -0.48326680064201355 119
2.9921817779541016 -0.7316287755966187 -0.4818185567855835 119
3.8598175048828125 -0.9444913268089294 -0.48321250081062317 119
4.705843925476074 -1.1523832082748413 -0.4205271005630493 119
4.755892753601074 -1.1655192375183105 -0.2537671625614166 101
4.7080078125 -1.1546552181243896 -0.0831073671579361 101
4.84036111831665 -1.1880110502243042 1.3242902755737305 101
4.830065727233887 -1.1863778829574585 1.1385157108306885 101
4.803560733795166 -1.1807565689086914 0.9531883001327515 101
4.717658996582031 -1.1605143547058105 0.7625589370727539 101
4.764440059661865 -1.1729042530059814 0.5977690815925598 101
4.73808479309082 -1.1672931909561157 0.42357689142227173 101
4.729977607727051 -1.1661715507507324 0.25330600142478943 101
4.652986526489258 -1.1480509042739868 0.08298619091510773 101
1.8420075178146362 -0.4561919569969177 -0.4982268810272217 119
2.084686756134033 -0.5166801810264587 -0.4870193302631378 119
2.4572126865386963 -0.6094642281532288 -0.4842199981212616 119
2.989609718322754 -0.7420689463615417 -0.4818185567855835 119
3.856497049331665 -0.9579588174819946 -0.48321250081062317 119
4.6051154136657715 -1.1447699069976807 -0.4118115305900574 119
4.659731388092041 -1.1592103242874146 -0.24881179630756378 101
4.582669734954834 -1.1408889293670654 -0.08094761520624161 101
4.761199474334717 -1.1862176656723022 1.3035982847213745 101
4.731348514556885 -1.1796575784683228 1.1160376071929932 101
4.694639205932617 -1.1713752746582031 0.9322181344032288 101
4.622541427612305 -1.154242992401123 0.7477139830589294 101
4.659208297729492 -1.1642626523971558 0.5849727988243103 101
4.642169952392578 -1.1608657836914062 0.41529712080955505 101
4.629003047943115 -1.1584317684173584 0.24807241559028625 101
4.571359157562256 -1.1448538303375244 0.08158998936414719 101
1.8404039144515991 -0.46261897683143616 -0.4982268810272217 119
2.0828707218170166 -0.523953914642334 -0.4870193302631378 119
2.4550702571868896 -0.618037760257721 -0.4842199981212616 119
2.982212543487549 -0.7512937188148499 -0.48103639483451843 119
3.8531296253204346 -0.9714146256446838 -0.48321250081062317 119
4.509328365325928 -1.1376863718032837 -0.4035317301750183 119
4.568513870239258 -1.1534667015075684 -0.24411721527576447 101
4.52534294128418 -1.1434071063995361 -0.07999732345342636 101
4.696157455444336 -1.1874384880065918 1.2867859601974487 101
4.63273811340332 -1.1722630262374878 1.0935595035552979 101
4.576326847076416 -1.1588385105133057 0.9093416333198547 101
4.537100315093994 -1.1497482061386108 0.7344316840171814 101
4.544475555419922 -1.152461290359497 0.5709578394889832 101
4.556014537811279 -1.156233787536621 0.40788885951042175 101
4.537819862365723 -1.1524595022201538 0.2433622032403946 101
4.480121612548828 -1.1386383771896362 0.0800192803144455 101
1.8387778997421265 -0.4690403640270233 -0.4982268810272217 119
2.081028938293457 -0.531221330165863 -0.4870193302631378 119
2.457653284072876 -0.6278185844421387 -0.48517316579818726 119
2.97957181930542 -0.7616989612579346 -0.48103639483451843 119
3.8545234203338623 -0.9860886931419373 -0.483821839094162 119
4.428123474121094 -1.133654236793518 -0.3965592086315155 119
4.467719554901123 -1.1446223258972168 -0.2389010488986969 101
4.448684215545654 -1.1405727863311768 -0.07870146632194519 101
4.575026035308838 -1.1738158464431763 1.2544546127319336 101
4.538957595825195 -1.1654061079025269 1.0722053050994873 101
4.510453224182129 -1.1589267253875732 0.8969501852989197 101
4.456531524658203 -1.145901083946228 0.721930742263794 101
4.468332767486572 -1.1497669219970703 0.5618177056312561 101
4.469949245452881 -1.151014804840088 0.40048062801361084 101
4.4467363357543945 -1.1458650827407837 0.23865194618701935 101
4.393824577331543 -1.1330482959747314 0.07853582501411438 101
1.837212324142456 -0.4751354157924652 -0.4982268810272217 119
2.0793497562408447 -0.5377564430236816 -0.4870193302631378 119
2.4556689262390137 -0.6355363726615906 -0.48517316579818726 119
2.9771642684936523 -0.7710558176040649 -0.48103639483451843 119
3.8514063358306885 -0.9981932044029236 -0.483821839094162 119
4.347397327423096 -1.1275520324707031 -0.38958674669265747 119
4.391606330871582 -1.139836311340332 -0.23498892784118652 101
4.367660045623779 -1.134434700012207 -0.07731922715902328 101
4.468475818634033 -1.1614526510238647 1.2260030508041382 101
4.459831237792969 -1.1600368022918701 1.054222822189331 101
4.435540199279785 -1.1545450687408447 0.8826524019241333 101
4.376443862915039 -1.139978289604187 0.7094298005104065 101
4.387862205505371 -1.1437702178955078 0.5520680546760559 101
4.389196395874023 -1.144936203956604 0.3935081660747528 101
4.365814208984375 -1.139650821685791 0.2344650775194168 101
4.312852382659912 -1.1266297101974487 0.07713963836431503 101
1.8356266021728516 -0.48122522234916687 -0.4982268810272217 119
2.082172393798828 -0.5462477207183838 -0.48814404010772705 119
2.4581830501556396 -0.6453508138656616 -0.4861263632774353 119
2.974454402923584 -0.7814432978630066 -0.48103639483451843 119
3.85269832611084 -1.0128928422927856 -0.4844311773777008 119
4.27117919921875 -1.1237105131149292 -0.3830500841140747 119
4.315170764923096 -1.1360896825790405 -0.23107677698135376 101
4.286324977874756 -1.1292951107025146 -0.07593698799610138 101
4.3803300857543945 -1.1548796892166138 1.202724575996399 101
4.3803815841674805 -1.155711054801941 1.0362404584884644 101
4.355551719665527 -1.1499731540679932 0.8674013018608093 101
4.296042442321777 -1.1350632905960083 0.696928858757019 101
4.307076930999756 -1.1387829780578613 0.5423185229301453 101
4.312943935394287 -1.1411397457122803 0.38697150349617004 101
4.289406776428223 -1.1357131004333496 0.23053987324237823 101
4.231573581695557 -1.1211909055709839 0.07574343681335449 101
1.8338505029678345 -0.4879499077796936 -0.4982268810272217 119
2.0801563262939453 -0.5538755655288696 -0.48814404010772705 119
2.455801248550415 -0.6543561816215515 -0.4861263632774353 119
2.976341962814331 -0.7936123609542847 -0.4818185567855835 119
3.8489599227905273 -1.0270068645477295 -0.4844311773777008 119
4.190033912658691 -1.1187982559204102 -0.3760776221752167 119
4.23861837387085 -1.1325634717941284 -0.2271646410226822 101
4.204883575439453 -1.124335765838623 -0.07455474138259888 101
4.292084693908691 -1.1484549045562744 1.1794461011886597 101
4.300815582275391 -1.1515955924987793 1.0182578563690186 101
4.2659687995910645 -1.1430628299713135 0.8502439856529236 101
4.215532302856445 -1.130337119102478 0.6844278573989868 101
4.2261834144592285 -1.1339837312698364 0.5325689911842346 101
4.2317633628845215 -1.136272668838501 0.3799990713596344 101
4.217706680297852 -1.1332875490188599 0.226876363158226 101
4.155019760131836 -1.1172213554382324 0.07443451136350632 101
1.8274731636047363 -0.49309012293815613 -0.4969327747821808 119
2.0782103538513184 -0.5611333250999451 -0.48814404010772705 119
2.4535021781921387 -0.6629245281219482 -0.4861263632774353 119
2.978321075439453 -0.8052859306335449 -0.48260071873664856 119
3.8453516960144043 -1.040436029434204 -0.4844311773777008 119
4.113985061645508 -1.1138906478881836 -0.36954089999198914 119
4.157528877258301 -1.1264593601226807 -0.2229917049407959 101
4.1285576820373535 -1.1193833351135254 -0.0732588842511177 101
4.227452278137207 -1.146988868713379 1.1626337766647339 101
4.226242542266846 -1.1474525928497314 1.001399278640747 101
4.1956400871276855 -1.1399301290512085 0.8368993401527405 101
4.135311126708984 -1.1243141889572144 0.6719268560409546 101
4.155158042907715 -1.1304889917373657 0.5240381360054016 101
4.1556806564331055 -1.1314102411270142 0.37346234917640686 101
4.14146089553833 -1.1283154487609863 0.22295115888118744 101
4.078746318817139 -1.1119939088821411 0.07312557846307755 101
1.8256536722183228 -0.49978482723236084 -0.4969327747821808 119
2.0761396884918213 -0.5687465667724609 -0.48814404010772705 119
2.4510560035705566 -0.6719126105308533 -0.4861263632774353 119
2.9753496646881104 -0.8161965608596802 -0.48260071873664856 119
3.8462979793548584 -1.0558366775512695 -0.485040545463562 119
4.033026218414307 -1.1078518629074097 -0.3625684380531311 0
4.066709041595459 -1.1178677082061768 -0.21829713881015778 101
4.042482852935791 -1.1119673252105713 -0.07179024815559387 101
4.158026218414307 -1.1445304155349731 1.1445281505584717 101
4.146854877471924 -1.1422340869903564 0.9834168553352356 101
4.096796989440918 -1.129215121269226 0.8178355693817139 101
4.050229072570801 -1.1171401739120483 0.6586445569992065 101
4.07922887802124 -1.1259050369262695 0.5148979425430298 101
4.06988525390625 -1.1240906715393066 0.36605411767959595 101
4.0602946281433105 -1.1222045421600342 0.2187642902135849 101
4.002367973327637 -1.106946349143982 0.07181664556264877 101
1.8192442655563354 -0.5048630237579346 -0.4956386983394623 119
2.07414174079895 -0.5759902000427246 -0.48814404010772705 119
2.448695659637451 -0.6804643273353577 -0.4861263632774353 119
2.9772398471832275 -0.8279005289077759 -0.4833828806877136 119
3.8425891399383545 -1.06925630569458 -0.485040545463562 119
3.952359437942505 -1.100544810295105 -0.35559597611427307 119
3.9954428672790527 -1.113292932510376 -0.21464580297470093 101
3.966343879699707 -1.1059308052062988 -0.0704943984746933 101
4.088876247406006 -1.140865445137024 1.1264227628707886 101
4.067760944366455 -1.1357393264770508 0.9654343724250793 101
4.021921634674072 -1.123697280883789 0.8035376667976379 101
3.9749622344970703 -1.1113251447677612 0.6469249725341797 101
4.008364677429199 -1.1214182376861572 0.5063670873641968 101
3.9891915321350098 -1.1168049573898315 0.3590816557407379 101
3.9890401363372803 -1.1175132989883423 0.21510078012943268 101
3.931086540222168 -1.102024793624878 0.07059498131275177 101
1.8129104375839233 -0.5095861554145813 -0.4943445920944214 119
2.072321891784668 -0.5825034379959106 -0.48814404010772705 119
2.4418206214904785 -0.6868246793746948 -0.48517316579818726 119
2.9793782234191895 -0.8385877013206482 -0.4841650724411011 119
3.858318328857422 -1.0867044925689697 -0.4874779284000397 119
3.8482043743133545 -1.0845807790756226 -0.34644460678100586 119
3.8765881061553955 -1.0933109521865845 -0.2083863914012909 101
3.8714346885681152 -1.0925869941711426 -0.0688529834151268 101
4.00625467300415 -1.1313904523849487 1.1044374704360962 101
3.9938464164733887 -1.1286389827728271 0.9485757350921631 101
3.881401777267456 -1.0975943803787231 0.7758952379226685 101
3.8764116764068604 -1.0969139337539673 0.6312987804412842 101
3.942747116088867 -1.116428256034851 0.4984455704689026 101
3.899402141571045 -1.1048897504806519 0.35123762488365173 101
3.8990416526794434 -1.105522871017456 0.21039053797721863 101
3.8266091346740723 -1.085707187652588 0.06876247376203537 101
1.8065656423568726 -0.5142728686332703 -0.4930504858493805 119
2.0655906200408936 -0.5883989930152893 -0.4870193302631378 119
2.43940806388855 -0.6953440308570862 -0.48517316579818726 119
2.9764328002929688 -0.848982572555542 -0.4841650724411011 119
3.8401851654052734 -1.0960795879364014 -0.48564988374710083 119
3.7917110919952393 -1.082959771156311 -0.3416510224342346 101
3.8247385025024414 -1.0931148529052734 -0.2057783007621765 101
3.785886287689209 -1.0827256441116333 -0.06738435477018356 101
3.937272310256958 -1.126763939857483 1.086331844329834 101
3.9102580547332764 -1.1197713613510132 0.9294693470001221 101
3.8539552688598633 -1.104375958442688 0.7711293697357178 101
3.7871079444885254 -1.0859358310699463 0.6172351241111755 101
3.843421459197998 -1.1028093099594116 0.4862586557865143 101
3.7997705936431885 -1.0910022258758545 0.3425220549106598 101
3.7991788387298584 -1.0915501117706299 0.20515693724155426 101
3.7843592166900635 -1.0880072116851807 0.0680643767118454 101
1.8093087673187256 -0.5222300887107849 -0.4943445920944214 119
2.063420057296753 -0.5959657430648804 -0.4870193302631378 119
2.436843156814575 -0.7042801976203918 -0.48517316579818726 119
2.9780452251434326 -0.8612579703330994 -0.48494723439216614 119
3.7980048656463623 -1.0991108417510986 -0.4807750880718231 119
3.7685787677764893 -1.0913078784942627 -0.3399079144001007 101
3.772747278213501 -1.093228816986084 -0.20317021012306213 101
3.762686252593994 -1.0910252332687378 -0.06703878939151764 101
3.831068277359009 -1.111578106880188 1.0578802824020386 101
3.8031935691833496 -1.1042101383209229 0.904743492603302 101
3.7791805267333984 -1.0979533195495605 0.7568315267562866 101
3.76887583732605 -1.0956730842590332 0.6148912310600281 101
3.7774059772491455 -1.0988678932189941 0.4783371686935425 101
3.771834135055542 -1.0979609489440918 0.340343177318573 101
3.7759768962860107 -1.099881887435913 0.20411022007465363 101
3.7659475803375244 -1.0976735353469849 0.06780259311199188 101
1.8167458772659302 -0.5312536954879761 -0.4969327747821808 119
2.0613272190093994 -0.6031648516654968 -0.4870193302631378 119
2.429659605026245 -0.7114028930664062 -0.4842199981212616 119
2.97976016998291 -0.8730366230010986 -0.4857294261455536 119
3.765571355819702 -1.1039843559265137 -0.4771190285682678 119
3.7026124000549316 -1.0862278938293457 -0.3342427909374237 101
3.7689082622528076 -1.106391429901123 -0.20317021012306213 101
3.7444655895233154 -1.0999258756637573 -0.06677962094545364 101
3.7808265686035156 -1.1113238334655762 1.044947862625122 101
3.7759456634521484 -1.1106051206588745 0.8991239666938782 101
3.7564899921417236 -1.1055951118469238 0.7530187368392944 101
3.7602908611297607 -1.1074270009994507 0.6141099333763123 101
3.759265899658203 -1.1078382730484009 0.47650909423828125 101
3.758423328399658 -1.1083028316497803 0.33947160840034485 101
3.7673258781433105 -1.1116427183151245 0.20384854078292847 101
3.7285308837890625 -1.100902795791626 0.06719175726175308 101
1.8195111751556396 -0.5389637351036072 -0.4982268810272217 119
2.0592093467712402 -0.6103565096855164 -0.4870193302631378 119
2.427161693572998 -0.719879686832428 -0.4842199981212616 119
2.9766945838928223 -0.8834326863288879 -0.4857294261455536 119
3.7141213417053223 -1.1029938459396362 -0.4710255563259125 119
3.679699659347534 -1.0934704542160034 -0.3324996531009674 101
3.760236978530884 -1.1181174516677856 -0.20290939509868622 101
3.735811233520508 -1.1115641593933105 -0.06669323146343231 101
3.7630374431610107 -1.1203800439834595 1.0410680770874023 101
3.767376661300659 -1.1223877668380737 0.8980000615119934 101
3.7479043006896973 -1.1172988414764404 0.7520655393600464 101
3.7564022541046143 -1.1205461025238037 0.6141099333763123 101
3.7696423530578613 -1.1252121925354004 0.4783371686935425 101
3.7640769481658936 -1.1242663860321045 0.340343177318573 101
3.7634224891662598 -1.124786376953125 0.20384854078292847 101
3.695927381515503 -1.1053166389465332 0.06666819006204605 101
1.8268705606460571 -0.5480874180793762 -0.5008150935173035 119
2.0570662021636963 -0.6175407767295837 -0.4870193302631378 119
2.4246339797973633 -0.728347659111023 -0.4842199981212616 119
2.9783217906951904 -0.8952394723892212 -0.48651158809661865 119
3.653218984603882 -1.0987988710403442 -0.4637133479118347 119
3.6377031803131104 -1.0948243141174316 -0.3290134370326996 101
3.703718900680542 -1.1153979301452637 -0.20004050433635712 101
3.660109043121338 -1.1029611825942993 -0.06539738178253174 101
3.726733922958374 -1.1237479448318481 1.032015323638916 101
3.7587714195251465 -1.1341241598129272 0.8968761563301086 101
3.734583854675293 -1.1275373697280884 0.7501592040061951 101
3.700465202331543 -1.1179410219192505 0.6055155396461487 101
3.7371890544891357 -1.1297475099563599 0.4746810793876648 101
3.698150634765625 -1.1186505556106567 0.334678053855896 101
3.697345733642578 -1.1191115379333496 0.2004467099905014 101
3.644200563430786 -1.10371994972229 0.06579557061195374 101
1.8249461650848389 -0.5544610619544983 -0.5008150935173035 119
2.0595593452453613 -0.6261345744132996 -0.48814404010772705 119
2.422076940536499 -0.7368068099021912 -0.4842199981212616 119
2.979903221130371 -0.9070684313774109 -0.4872937798500061 119
3.597140073776245 -1.095638394355774 -0.45701056718826294 119
3.6005074977874756 -1.0973507165908813 -0.32596299052238464 101
3.6472668647766113 -1.1122976541519165 -0.19717161357402802 101
3.6179840564727783 -1.1040576696395874 -0.06470625847578049 101
3.695072650909424 -1.1282868385314941 1.0242557525634766 101
3.6895577907562256 -1.1273069381713867 0.8811414241790771 101
3.6742990016937256 -1.123345971107483 0.7387209534645081 101
3.6540372371673584 -1.1178487539291382 0.5984837412834167 101
3.6620419025421143 -1.1209965944290161 0.46554088592529297 101
3.675172805786133 -1.1257175207138062 0.3329349458217621 101
3.645677328109741 -1.117379069328308 0.19782990217208862 101
3.5925304889678955 -1.101775884628296 0.06492295116186142 101
1.8183835744857788 -0.5594078302383423 -0.4995209574699402 119
2.057361125946045 -0.6333199739456177 -0.48814404010772705 119
2.419490098953247 -0.7452569007873535 -0.4842199981212616 119
2.9767189025878906 -0.9174646735191345 -0.4872937798500061 119
3.541128158569336 -1.092099905014038 -0.4503077268600464 119
3.5585787296295166 -1.0981619358062744 -0.32247674465179443 101
3.5956530570983887 -1.110290288925171 -0.19456352293491364 101
3.571120023727417 -1.1033976078033447 -0.0639287456870079 101
3.644968271255493 -1.126911997795105 1.0113232135772705 101
3.639056444168091 -1.1257801055908203 0.8699024319648743 101
3.6281564235687256 -1.1231019496917725 0.7301422357559204 101
3.5982208251953125 -1.1145236492156982 0.5898892879486084 101
3.6012234687805176 -1.1161425113677979 0.4582287073135376 101
3.618889093399048 -1.122309923171997 0.32814136147499084 101
3.594066619873047 -1.1152995824813843 0.19521310925483704 101
3.5409188270568848 -1.0994845628738403 0.06405032426118851 101
1.811808705329895 -0.5643155574798584 -0.4982268810272217 119
2.055137872695923 -0.640497624874115 -0.48814404010772705 119
2.4168739318847656 -0.7536979913711548 -0.4842199981212616 119
2.9734983444213867 -0.9278498291969299 -0.4872937798500061 119
3.4899227619171143 -1.0896632671356201 -0.44421425461769104 119
3.5166890621185303 -1.0986942052841187 -0.3189904987812042 101
3.548863649368286 -1.1094261407852173 -0.19221623241901398 101
3.5243053436279297 -1.1024240255355835 -0.06315123289823532 101
3.5903096199035645 -1.1237586736679077 0.9970974922180176 101
3.588610887527466 -1.1239145994186401 0.8586633801460266 101
3.568009614944458 -1.1181464195251465 0.7187039852142334 101
3.547185182571411 -1.1123003959655762 0.5820761919021606 101
3.5499541759490967 -1.11384916305542 0.45213523507118225 101
3.5626745223999023 -1.118523359298706 0.323347806930542 101
3.542515277862549 -1.1128735542297363 0.19259630143642426 101
3.489367723464966 -1.096846580505371 0.06317770481109619 101
1.8098278045654297 -0.570636510848999 -0.4982268810272217 119
2.052889585494995 -0.6476675271987915 -0.48814404010772705 119
2.4142282009124756 -0.7621298432350159 -0.4842199981212616 119
2.974950075149536 -0.9397109746932983 -0.4880759119987488 119
3.4387776851654053 -1.086882472038269 -0.4381207823753357 119
3.465341329574585 -1.095943570137024 -0.31463271379470825 101
3.497364044189453 -1.10674250125885 -0.1896081417798996 101
3.477541208267212 -1.1011372804641724 -0.06237372010946274 101
3.5403223037719727 -1.1216963529586792 0.9841649532318115 101
3.5382235050201416 -1.1217108964920044 0.847424328327179 101
3.5126209259033203 -1.1142688989639282 0.7082188725471497 101
3.491502285003662 -1.1082404851913452 0.5734817981719971 101
3.494015693664551 -1.109709620475769 0.4454324245452881 101
3.506531000137329 -1.1143583059310913 0.31855425238609314 101
3.491025447845459 -1.1101014614105225 0.18997950851917267 101
3.4426424503326416 -1.0953779220581055 0.06239234656095505 101
1.8032238483428955 -0.5754821300506592 -0.4969327747821808 119
2.0552573204040527 -0.6563114523887634 -0.48926883935928345 119
2.4162285327911377 -0.7720462679862976 -0.48517316579818726 119
2.971651792526245 -0.950089693069458 -0.4880759119987488 119
3.406602382659912 -1.0898064374923706 -0.434464693069458 119
3.4140560626983643 -1.0928479433059692 -0.3102749288082123 101
3.4506824016571045 -1.1052361726760864 -0.18726086616516113 101
3.4260690212249756 -1.0980119705200195 -0.06150982156395912 101
3.4857945442199707 -1.1178240776062012 0.9699391722679138 101
3.4832563400268555 -1.1176806688308716 0.8350613713264465 101
3.457303047180176 -1.1100184917449951 0.6977338194847107 101
3.4405934810638428 -1.105316162109375 0.5656687021255493 101
3.447598934173584 -1.108230471611023 0.43994832038879395 101
3.455202579498291 -1.1113401651382446 0.31419646739959717 101
3.439598560333252 -1.1069837808609009 0.18736271560192108 101
3.391211986541748 -1.092064380645752 0.06151972711086273 101
1.8012040853500366 -0.5817731022834778 -0.4969327747821808 119
2.0529537200927734 -0.6634816527366638 -0.48926883935928345 119
2.4275295734405518 -0.7850065231323242 -0.4880327582359314 119
2.9730160236358643 -0.9619773626327515 -0.48885810375213623 119
3.3650057315826416 -1.0894620418548584 -0.4295898973941803 119
3.3580968379974365 -1.0878727436065674 -0.30548134446144104 101
3.3993046283721924 -1.1018779277801514 -0.18465277552604675 101
3.3794169425964355 -1.096083164215088 -0.06073230877518654 101
3.4359312057495117 -1.1150758266448975 0.9570066332817078 101
3.432995080947876 -1.1147854328155518 0.8238223195075989 101
3.406726598739624 -1.1069124937057495 0.6882019639015198 101
3.3897485733032227 -1.1020501852035522 0.5578556060791016 101
3.401235818862915 -1.1064412593841553 0.4344641864299774 101
3.4039382934570312 -1.107977271080017 0.3098386526107788 101
3.3882367610931396 -1.1035206317901611 0.1847459226846695 101
3.3446006774902344 -1.0899543762207031 0.06073437258601189 101
1.799264907836914 -0.5877428650856018 -0.4969327747821808 119
2.050859212875366 -0.6699279546737671 -0.48926883935928345 119
2.4390475749969482 -0.7972036600112915 -0.49089235067367554 119
2.9699792861938477 -0.9713125228881836 -0.48885810375213623 119
3.323833703994751 -1.0876805782318115 -0.424715131521225 119
3.3120594024658203 -1.0844676494598389 -0.30155932903289795 101
3.353121042251587 -1.0985604524612427 -0.1823054850101471 101
3.328451633453369 -1.0911215543746948 -0.059868406504392624 101
3.381929397583008 -1.1093060970306396 0.9427809119224548 101
3.3785560131073 -1.108852744102478 0.8114593625068665 101
3.361262798309326 -1.103826880455017 0.6796232461929321 101
3.344043493270874 -1.0988187789916992 0.5508237481117249 101
3.3505983352661133 -1.1016207933425903 0.42837071418762207 101
3.3578574657440186 -1.1046568155288696 0.3059166669845581 101
3.3420677185058594 -1.1001088619232178 0.18239079415798187 101
3.2936766147613525 -1.0848170518875122 0.05986174941062927 101
1.7973060607910156 -0.5937061905860901 -0.4969327747821808 119
2.048508405685425 -0.6770827174186707 -0.48926883935928345 119
2.454890251159668 -0.8118773102760315 -0.49470508098602295 119
2.9712588787078857 -0.9832252264022827 -0.4896402657032013 119
3.310594320297241 -1.0961564779281616 -0.42349642515182495 119
3.2987968921661377 -1.0928891897201538 -0.3006877601146698 101
3.292391061782837 -1.091404676437378 -0.17917577922344208 101
3.296152353286743 -1.093290090560913 -0.059350065886974335 101
3.341364622116089 -1.108933925628662 0.9324348568916321 101
3.3422980308532715 -1.1098912954330444 0.8035920262336731 101
3.310809850692749 -1.10007643699646 0.6700913310050964 101
