# .PCD v0.7 - Point Cloud Data file format
VERSION 0.7
FIELDS x y z intensity
SIZE 4 4 4 4
TYPE F F F F
COUNT 1 1 1 1
WIDTH 899
HEIGHT 1
VIEWPOINT 0 0 0 1 0 0 0
POINTS 899
DATA ascii
5.290981292724609 0.48431119322776794 -0.4614903926849365 119
8.541040420532227 0.7803030014038086 -0.4459834098815918 119
14.864361763000488 1.3553807735443115 -0.2572700083255768 119
9.162618637084961 0.8338648676872253 2.4532995223999023 107
10.736912727355957 0.9752476215362549 2.47821044921875 107
12.772001266479492 1.1578500270843506 2.483055591583252 107
14.916515350341797 1.3496367931365967 2.363463878631592 51
14.688016891479492 1.3263778686523438 1.8061035871505737 51
14.930614471435547 1.3456581830978394 1.308207631111145 51
14.947356224060059 1.3445371389389038 0.7845159769058228 51
15.169926643371582 1.3618885278701782 0.2651892900466919 51
1.86614990234375 0.16589313745498657 -0.491756409406662 119
2.1247994899749756 0.18851225078105927 -0.4836450219154358 119
2.487576961517334 0.22026027739048004 -0.47754764556884766 119
3.0290186405181885 0.2676689624786377 -0.4755611717700958 119
3.9039525985717773 0.34429866075515747 -0.4765096604824066 119
5.297601222991943 0.4662759304046631 -0.461926132440567 119
8.548686027526855 0.7509212493896484 -0.44624418020248413 119
15.302275657653809 1.3414689302444458 -0.2647859454154968 119
9.165472984313965 0.8018763065338135 2.4532995223999023 107
10.735397338867188 0.9373390674591064 2.477086305618286 107
12.775965690612793 1.113260269165039 2.483055591583252 107
15.29505729675293 1.330076813697815 2.4228434562683105 51
15.01392650604248 1.30298912525177 1.8457111120224 51
15.237926483154297 1.3197495937347412 1.3347902297973633 51
15.29023265838623 1.3215910196304321 0.8023101687431335 51
15.543161392211914 1.3407198190689087 0.2716466784477234 51
1.8715296983718872 0.15978889167308807 -0.4930504858493805 119
2.1254446506500244 0.18109416961669922 -0.4836450219154358 119
2.488330602645874 0.2115756869316101 -0.47754764556884766 119
3.0299344062805176 0.2570940852165222 -0.4755611717700958 119
3.905130624771118 0.33066919445991516 -0.4765096604824066 119
5.299196243286133 0.4477810263633728 -0.461926132440567 119
8.556230545043945 0.7214957475662231 -0.44650498032569885 119
15.665542602539062 1.3182281255722046 -0.2710060477256775 119
9.168216705322266 0.7698779702186584 2.4532995223999023 107
10.733748435974121 0.8994529247283936 2.4759624004364014 107
12.779773712158203 1.0686570405960083 2.483055591583252 107
nan nan nan 0
15.394250869750977 1.2818711996078491 1.8920214176177979 51
15.629623413085938 1.2987236976623535 1.3687809705734253 51
15.672933578491211 1.2995682954788208 0.8221978545188904 51
15.92141342163086 1.3173738718032837 0.27819132804870605 51
1.8720760345458984 0.15325506031513214 -0.4930504858493805 119
2.126063823699951 0.17367388308048248 -0.4836450219154358 119
2.489053964614868 0.20288850367069244 -0.47754764556884766 119
3.030813455581665 0.24651607871055603 -0.4755611717700958 119
3.8963680267333984 0.3162328004837036 -0.4752909541130066 119
5.300727367401123 0.4292806386947632 -0.461926132440567 119
8.558696746826172 0.6916245818138123 -0.44650498032569885 119
16.058727264404297 1.2948778867721558 -0.27774447202682495 119
9.17084789276123 0.7378702163696289 2.4532995223999023 107
10.731966972351074 0.8615899085998535 2.4748387336730957 107
12.783426284790039 1.0240408182144165 2.483055591583252 107
15.712568283081055 1.2559254169464111 2.48769211769104 107
15.769658088684082 1.2577189207077026 1.9377224445343018 51
16.06107521057129 1.2781400680541992 1.4062579870224 51
16.06561851501465 1.2756798267364502 0.8426088690757751 51
16.329587936401367 1.2937722206115723 0.28525957465171814 51
1.8725996017456055 0.14671935141086578 -0.4930504858493805 119
2.126657009124756 0.16625148057937622 -0.4836450219154358 119
2.494640350341797 0.194580540060997 -0.4785008728504181 119
3.0316555500030518 0.2359350621700287 -0.4755611717700958 119
3.892500638961792 0.3022458553314209 -0.4746816158294678 119
5.307159423828125 0.41115978360176086 -0.4623619318008423 119
8.56603717803955 0.6621297001838684 -0.44676581025123596 119
16.48682975769043 1.2714892625808716 -0.2850876450538635 119
9.173368453979492 0.7058534622192383 2.4532995223999023 107
10.73005199432373 0.8237501978874207 2.473714828491211 107
12.786922454833984 0.9794121384620667 2.483055591583252 107
15.707008361816406 1.2003180980682373 2.4861295223236084 107
16.16982078552246 1.2328472137451172 1.986470103263855 51
16.467735290527344 1.252670407295227 1.4415559768676758 51
16.483213424682617 1.250954508781433 0.8643282651901245 51
16.757728576660156 1.2688465118408203 0.2926768660545349 51
1.8731002807617188 0.14018186926841736 -0.4930504858493805 119
2.1272246837615967 0.1588270366191864 -0.4836450219154358 119
2.500199317932129 0.18623603880405426 -0.47945404052734375 119
3.0373854637145996 0.22571715712547302 -0.4763433039188385 119
3.888582468032837 0.28828972578048706 -0.47407227754592896 119
5.308562278747559 0.3926318287849426 -0.4623619318008423 119
8.578255653381348 0.6329594850540161 -0.4472874402999878 119
16.93988800048828 1.2469624280929565 -0.29286274313926697 119
9.175775527954102 0.6738281846046448 2.4532995223999023 107
10.728002548217773 0.7859342694282532 2.472590923309326 107
12.785368919372559 0.9344136714935303 2.482102394104004 107
15.75543212890625 1.1487151384353638 2.493161201477051 107
16.574947357177734 1.205557107925415 2.035827398300171 51
16.904216766357422 1.226540207862854 1.479468822479248 51
16.920751571655273 1.2247711420059204 0.8870943784713745 51
17.215805053710938 1.2431074380874634 0.30061769485473633 51
1.8735783100128174 0.13364268839359283 -0.4930504858493805 119
2.1277658939361572 0.15140067040920258 -0.4836450219154358 119
2.5008342266082764 0.17750757932662964 -0.47945404052734375 119
3.0381548404693604 0.2151133120059967 -0.4763433039188385 119
3.8895649909973145 0.27471426129341125 -0.47407227754592896 119
5.314868927001953 0.3744491934776306 -0.46279770135879517 119
8.590374946594238 0.6037120819091797 -0.4478090703487396 119
17.397953033447266 1.2196372747421265 -0.3007242679595947 119
9.182890892028809 0.6421315670013428 2.454592704772949 107
10.730680465698242 0.7484818696975708 2.472590923309326 107
12.773863792419434 0.8887567520141602 2.4792428016662598 107
15.764272689819336 1.0940533876419067 2.4939427375793457 107
17.034536361694336 1.1792232990264893 2.0918869972229004 51
17.35064697265625 1.198063611984253 1.5182530879974365 51
17.378225326538086 1.1969202756881714 0.9109072089195251 51
17.688861846923828 1.215213418006897 0.30882030725479126 51
1.8740333318710327 0.1271018534898758 -0.4930504858493805 119
2.1331422328948975 0.14430129528045654 -0.4847698211669922 119
2.506335735321045 0.1691073775291443 -0.4804072380065918 119
3.0388870239257812 0.20450685918331146 -0.4763433039188385 119
3.89050030708313 0.261135458946228 -0.47407227754592896 119
5.3211140632629395 0.35622724890708923 -0.46323350071907043 119
8.597412109375 0.5740550756454468 -0.44806987047195435 119
17.851043701171875 1.1887969970703125 -0.30849939584732056 119
9.185076713562012 0.6100733876228333 2.454592704772949 107
10.728365898132324 0.710698127746582 2.4714670181274414 107
12.76709270477295 0.8435150384902954 2.4773364067077637 107
15.763067245483398 1.0386943817138672 2.493161201477051 107
17.484233856201172 1.149044394493103 2.146728515625 51
17.851755142211914 1.1700682640075684 1.561830997467041 51
17.85563850402832 1.167193055152893 0.9357668161392212 51
18.15195083618164 1.1833808422088623 0.31684839725494385 51
1.8696460723876953 0.12024950981140137 -0.491756409406662 119
2.1336328983306885 0.13685433566570282 -0.4847698211669922 119
2.502012252807617 0.16004426777362823 -0.47945404052734375 119
3.044511079788208 0.19421231746673584 -0.47712549567222595 119
3.89634108543396 0.2478685826063156 -0.4746816158294678 119
5.327295303344727 0.33796626329421997 -0.4636692404747009 119
8.609330177307129 0.5446714758872986 -0.4485914707183838 119
18.249242782592773 1.1513453722000122 -0.31532421708106995 119
9.187150001525879 0.5780077576637268 2.454592704772949 107
10.730781555175781 0.6732447743415833 2.4714670181274414 107
12.760162353515625 0.7983314394950867 2.4754300117492676 107
15.76166820526123 0.9833571314811707 2.492379903793335 107
17.973546981811523 1.118205189704895 2.206444263458252 51
18.34292984008789 1.1379722356796265 1.6045372486114502 51
18.343013763427734 1.1347637176513672 0.9611498117446899 51
18.714824676513672 1.1544864177703857 0.32662177085876465 51
1.8700543642044067 0.11372248828411102 -0.491756409406662 119
2.138960599899292 0.12970061600208282 -0.4858945310115814 119
2.5025558471679688 0.15130963921546936 -0.47945404052734375 119
3.045170307159424 0.1835838109254837 -0.47712549567222595 119
3.9021358489990234 0.23456408083438873 -0.4752909541130066 119
5.3284430503845215 0.31936848163604736 -0.4636692404747009 119
8.621147155761719 0.5152117013931274 -0.4491131007671356 119
nan nan nan 0
9.19393253326416 0.5462215542793274 2.455886125564575 107
10.73306655883789 0.6357832551002502 2.4714670181274414 107
12.753070831298828 0.7532065510749817 2.4735236167907715 107
15.760074615478516 0.9280422925949097 2.491598606109619 107
18.49753189086914 1.0859997272491455 2.270425796508789 51
18.893760681152344 1.105953574180603 1.6524728536605835 51
18.915115356445312 1.1038910150527954 0.9909812808036804 51
19.252756118774414 1.120224118232727 0.3359588086605072 51
1.8656182289123535 0.10691775381565094 -0.4904623031616211 119
2.1394002437591553 0.12223346531391144 -0.4858945310115814 119
2.4981682300567627 0.1422940492630005 -0.4785008728504181 119
3.045792818069458 0.1729530692100525 -0.47712549567222595 119
3.902930974960327 0.22094164788722992 -0.4752909541130066 119
5.329524993896484 0.30076679587364197 -0.4636692404747009 119
8.627878189086914 0.4853956699371338 -0.44937390089035034 119
16.709497451782227 0.9371337890625 -0.2885432541370392 119
9.195782661437988 0.5141253471374512 2.455886125564575 107
10.735219955444336 0.5983139872550964 2.4714670181274414 107
12.75072193145752 0.7084131240844727 2.4725704193115234 107
15.758286476135254 0.8727506399154663 2.4908173084259033 107
19.061147689819336 1.0523380041122437 2.3392820358276367 51
19.315275192260742 1.0629866123199463 1.6890782117843628 51
19.3077335357666 1.0591914653778076 1.0113922357559204 51
20.22495460510254 1.1059683561325073 0.3528876304626465 51
1.8611574172973633 0.1001453846693039 -0.4891682267189026 119
2.1398138999938965 0.11476481705904007 -0.4858945310115814 119
2.5035512447357178 0.13383497297763824 -0.47945404052734375 119
3.0463778972625732 0.16232021152973175 -0.47712549567222595 119
3.9086344242095947 0.20757973194122314 -0.4759003221988678 119
5.335516929626465 0.28242477774620056 -0.4641050398349762 119
8.634507179260254 0.45553886890411377 -0.44963473081588745 119
16.722652435302734 0.8793260455131531 -0.28871601819992065 119
9.197521209716797 0.4820230007171631 2.455886125564575 107
10.73724365234375 0.56083744764328 2.4714670181274414 107
12.753116607666016 0.6639004945755005 2.4725704193115234 107
15.761237144470215 0.8177386522293091 2.4908173084259033 107
19.71395492553711 1.0193670988082886 2.4191064834594727 51
20.30876922607422 1.0465697050094604 1.7757983207702637 51
20.30862808227539 1.04300856590271 1.0637282133102417 51
20.2486629486084 1.0363855361938477 0.35323667526245117 51
1.8566721677780151 0.09340546280145645 -0.4878741204738617 119
2.135335683822632 0.10705084353685379 -0.4847698211669922 119
2.5040030479431152 0.12509512901306152 -0.47945404052734375 119
3.0469260215759277 0.15168538689613342 -0.47712549567222595 119
3.9142918586730957 0.1941806823015213 -0.4765096604824066 119
5.336470603942871 0.2637985944747925 -0.4641050398349762 119
8.641031265258789 0.4256417155265808 -0.4498955309391022 119
16.7406005859375 0.8216830492019653 -0.28897520899772644 119
9.194324493408203 0.44967880845069885 2.454592704772949 107
10.7391357421875 0.5233541131019592 2.4714670181274414 107
12.750454902648926 0.6191417574882507 2.4716172218322754 107
15.759062767028809 0.7624779939651489 2.4900360107421875 107
20.337013244628906 0.9804173707962036 2.495274782180786 51
20.700366973876953 0.9943128228187561 1.8097889423370361 51
20.726102828979492 0.9919233322143555 1.0854476690292358 51
nan nan nan 0
1.852162480354309 0.08669807016849518 -0.4865800142288208 119
2.1356964111328125 0.09959647804498672 -0.4847698211669922 119
2.504424571990967 0.11635376513004303 -0.47945404052734375 119
3.0474367141723633 0.14104869961738586 -0.47712549567222595 119
3.9149458408355713 0.1805160641670227 -0.4765096604824066 119
5.342334270477295 0.24539780616760254 -0.46454083919525146 119
8.642464637756348 0.3954762816429138 -0.4498955309391022 119
16.718395233154297 0.7621041536331177 -0.2885432541370392 119
9.19583797454834 0.41758185625076294 2.454592704772949 107
10.740897178649902 0.4858643114566803 2.4714670181274414 107
12.752538681030273 0.5746305584907532 2.4716172218322754 107
15.761628150939941 0.7074639201164246 2.4900360107421875 107
nan nan nan 0
21.28093147277832 0.9477556943893433 1.8603392839431763 51
21.288122177124023 0.9443531632423401 1.1147557497024536 51
21.56892204284668 0.9530377984046936 0.3761866092681885 60
1.8572789430618286 0.08044126629829407 -0.4878741204738617 119
2.1311638355255127 0.09193094074726105 -0.4836450219154358 119
2.4999115467071533 0.1074003055691719 -0.4785008728504181 119
3.0429766178131104 0.13019919395446777 -0.4763433039188385 119
3.905635356903076 0.16642668843269348 -0.4752909541130066 119
5.34315824508667 0.22674807906150818 -0.46454083919525146 119
8.643792152404785 0.3653060495853424 -0.4498955309391022 119
16.676000595092773 0.7018494606018066 -0.2877657413482666 119
9.192413330078125 0.3852775990962982 2.4532995223999023 107
10.742527961730957 0.448368638753891 2.4714670181274414 107
12.74956226348877 0.5299085378646851 2.4706640243530273 107
15.75906753540039 0.6522371172904968 2.4892547130584717 107
20.60120391845703 0.8490419387817383 2.526960611343384 107
nan nan nan 0
nan nan nan 0
21.61707305908203 0.8795714974403381 0.376971960067749 60
1.8672000169754028 0.07434194535017014 -0.4904623031616211 119
2.126603603363037 0.0842982605099678 -0.48252031207084656 119
2.5002713203430176 0.09867333620786667 -0.4785008728504181 119
3.043412446975708 0.11957642436027527 -0.4763433039188385 119
3.876439094543457 0.15162864327430725 -0.4716348946094513 119
5.3488945960998535 0.20828942954540253 -0.46497660875320435 119
8.64002513885498 0.3349379003047943 -0.44963473081588745 119
15.998956680297852 0.6174166202545166 -0.2760166823863983 119
9.18887710571289 0.35300230979919434 2.4520061016082764 107
10.744027137756348 0.41086745262145996 2.4714670181274414 107
12.751334190368652 0.48540106415748596 2.4706640243530273 107
15.761248588562012 0.597223699092865 2.4892547130584717 107
20.58916473388672 0.7765640616416931 2.525132656097412 107
21.615541458129883 0.8114980459213257 1.8891006708145142 60
21.61353302001953 0.8076450824737549 1.1315033435821533 60
21.605024337768555 0.8035511374473572 0.3767101764678955 60
1.8771010637283325 0.0681743249297142 -0.4930504858493805 119
2.126884937286377 0.0768745169043541 -0.48252031207084656 119
2.4956953525543213 0.08976871520280838 -0.47754764556884766 119
3.043811321258545 0.10895220935344696 -0.4763433039188385 119
3.901742935180664 0.1389797329902649 -0.4746816158294678 119
5.3495893478393555 0.18961702287197113 -0.46497660875320435 119
8.636151313781738 0.3046005666255951 -0.44937390089035034 119
16.085948944091797 0.5645469427108765 -0.27748531103134155 119
9.185225486755371 0.3207564353942871 2.4507129192352295 107
10.740527153015137 0.37319210171699524 2.4703431129455566 107
12.748044967651367 0.44071805477142334 2.4697108268737793 107
15.75830078125 0.5420332551002502 2.488473415374756 107
20.591751098632812 0.7046896815299988 2.525132656097412 107
21.608285903930664 0.735701858997345 1.8882291316986084 60
21.616222381591797 0.7321948409080505 1.1315033435821533 60
21.602703094482422 0.7279622554779053 0.37662291526794434 60
1.8821545839309692 0.06178004667162895 -0.4943445920944214 119
2.1271402835845947 0.06944982707500458 -0.48252031207084656 119
2.4959933757781982 0.08105656504631042 -0.47754764556884766 119
3.044173002243042 0.0983266532421112 -0.4763433039188385 119
3.9170844554901123 0.1258372962474823 -0.4765096604824066 119
5.355196475982666 0.171101376414299 -0.46541234850883484 119
8.632170677185059 0.27429431676864624 -0.4491131007671356 119
15.972896575927734 0.5047613382339478 -0.27549833059310913 119
9.181461334228516 0.2885403335094452 2.4494194984436035 107
10.732024192810059 0.335394024848938 2.468095302581787 107
12.759318351745605 0.39652132987976074 2.4716172218322754 107
15.760096549987793 0.4870232045650482 2.488473415374756 107
20.594085693359375 0.6328068375587463 2.525132656097412 107
21.6107234954834 0.6602703332901001 1.8882291316986084 60
21.613656997680664 0.6565841436386108 1.1312416791915894 60
21.595117568969727 0.6522485017776489 0.376448392868042 60
1.8775311708450317 0.055068135261535645 -0.4930504858493805 119
2.132239580154419 0.06216628476977348 -0.4836450219154358 119
2.5011675357818604 0.07248561829328537 -0.4785008728504181 119
3.0444979667663574 0.08769991248846054 -0.4763433039188385 119
3.9274213314056396 0.11244740337133408 -0.47772833704948425 119
5.3607401847839355 0.1525488942861557 -0.4658481478691101 119
8.608120918273926 0.2434549629688263 -0.4478090703487396 119
nan nan nan 0
9.182413101196289 0.2564893066883087 2.4494194984436035 107
10.728260040283203 0.29779505729675293 2.4669711589813232 107
12.780250549316406 0.3525219261646271 2.4754300117492676 107
15.75676441192627 0.4318719506263733 2.48769211769104 107
20.59120750427246 0.5607811212539673 2.5245234966278076 107
21.597959518432617 0.5844266414642334 1.8869218826293945 60
21.610824584960938 0.5810002088546753 1.1309798955917358 60
21.577272415161133 0.5763294696807861 0.3760993182659149 60
1.8728840351104736 0.0483892560005188 -0.491756409406662 119
2.1373138427734375 0.05484798550605774 -0.4847698211669922 119
2.5063118934631348 0.06387953460216522 -0.47945404052734375 119
3.044785499572754 0.07707209885120392 -0.4763433039188385 119
3.947634696960449 0.09923632442951202 -0.4801657497882843 119
5.361239910125732 0.13383547961711884 -0.4658481478691101 119
8.633875846862793 0.21402420103549957 -0.4491131007671356 119
16.705699920654297 0.41119828820228577 -0.28811129927635193 119
9.178424835205078 0.22431716322898865 2.4481265544891357 107
10.71949291229248 0.26010826230049133 2.464723587036133 107
12.796123504638672 0.30826300382614136 2.4782896041870117 107
15.75817584991455 0.37686794996261597 2.48769211769104 107
20.58807945251465 0.4887831509113312 2.523913860321045 107
21.515213012695312 0.5070371031761169 1.8795135021209717 60
21.522869110107422 0.5034590363502502 1.126269817352295 60
21.434213638305664 0.4976421594619751 0.37356871366500854 60
1.8682130575180054 0.04174349084496498 -0.4904623031616211 119
2.1423628330230713 0.04749501124024391 -0.4858945310115814 119
2.5114266872406006 0.05523841828107834 -0.4804072380065918 119
3.0450358390808105 0.06644334644079208 -0.4763433039188385 119
3.933072328567505 0.08513372391462326 -0.47833770513534546 119
5.366654396057129 0.11522737890481949 -0.4662839472293854 119
8.639562606811523 0.18399137258529663 -0.44937390089035034 119
16.702037811279297 0.35277649760246277 -0.2880249321460724 119
9.17915153503418 0.19227710366249084 2.4481265544891357 107
10.710593223571777 0.22248628735542297 2.4624757766723633 107
12.831472396850586 0.2643018662929535 2.484961986541748 107
15.7544584274292 0.321758508682251 2.486910820007324 107
20.584699630737305 0.4168139398097992 2.5233047008514404 107
21.432193756103516 0.4302324652671814 1.872105360031128 60
21.43463706970215 0.42653900384902954 1.121559500694275 60
21.425825119018555 0.4226226210594177 0.3733942210674286 60
1.8731763362884521 0.03531298413872719 -0.491756409406662 119
2.1473865509033203 0.04010745882987976 -0.4870193302631378 119
2.5116043090820312 0.04647156596183777 -0.4804072380065918 119
3.0452492237091064 0.055813781917095184 -0.4763433039188385 119
3.9432692527770996 0.07158436626195908 -0.4795564115047455 119
5.37200403213501 0.09658309072256088 -0.46671971678733826 119
8.64514446258545 0.153921440243721 -0.44963473081588745 119
16.698165893554688 0.29438522458076477 -0.28793850541114807 119
9.179767608642578 0.160234734416008 2.4481265544891357 107
10.701562881469727 0.18492962419986725 2.4602279663085938 107
12.797964096069336 0.21892240643501282 2.4782896041870117 107
15.755485534667969 0.26676324009895325 2.486910820007324 107
20.57114028930664 0.3447079062461853 2.5214765071868896 107
21.433565139770508 0.35541754961013794 1.872105360031128 60
21.43599510192871 0.3517155349254608 1.121559500694275 60
21.422168731689453 0.3477488160133362 0.3733069598674774 60
1.8781170845031738 0.02884833887219429 -0.4930504858493805 119
2.1426422595977783 0.03253746032714844 -0.4858945310115814 119
2.5019357204437256 0.03755680471658707 -0.4785008728504181 119
3.050363540649414 0.04525680094957352 -0.47712549567222595 119
3.9335708618164062 0.05767384544014931 -0.47833770513534546 119
5.372308731079102 0.0778307095170021 -0.46671971678733826 119
8.650622367858887 0.12381477653980255 -0.4498955309391022 119
16.694093704223633 0.23602525889873505 -0.28785213828086853 119
9.18027114868164 0.12819036841392517 2.4481265544891357 107
10.697271347045898 0.14750589430332184 2.459104061126709 107
12.783926010131836 0.17404739558696747 2.4754300117492676 107
15.75632095336914 0.21176470816135406 2.486910820007324 107
20.562294006347656 0.27276748418807983 2.5202579498291016 107
21.419734954833984 0.28040269017219543 1.870798110961914 60
21.4221134185791 0.27669432759284973 1.1207743883132935 60
21.418254852294922 0.27290570735931396 0.37321969866752625 60
1.8782023191452026 0.022620121017098427 -0.4930504858493805 119
2.1427338123321533 0.02580600418150425 -0.4858945310115814 119
2.4922256469726562 0.029580067843198776 -0.4765945076942444 119
3.050490617752075 0.0356735959649086 -0.47712549567222595 119
nan nan nan 0
5.3725266456604 0.060952749103307724 -0.46671971678733826 119
8.650968551635742 0.09663747251033783 -0.4498955309391022 119
16.699752807617188 0.18363311886787415 -0.28793850541114807 119
9.180628776550293 0.09934911876916885 2.4481265544891357 107
10.692809104919434 0.11384689062833786 2.457979917526245 107
12.779501914978027 0.13383331894874573 2.4744768142700195 107
15.751969337463379 0.16221295297145844 2.4861295223236084 107
20.54816246032715 0.20801717042922974 2.518429756164551 107
21.415529251098633 0.21305978298187256 1.8703621625900269 60
21.417884826660156 0.20934471487998962 1.120512843132019 60
21.419008255004883 0.2056170403957367 0.37321969866752625 60
1.8830965757369995 0.016433799639344215 -0.4943445920944214 119
2.137939214706421 0.018284643068909645 -0.4847698211669922 119
2.4923136234283447 0.02088039740920067 -0.4765945076942444 119
3.0456583499908447 0.02498466707766056 -0.4763433039188385 119
nan nan nan 0
5.372706890106201 0.04219875857234001 -0.46671971678733826 119
8.646260261535645 0.06640102714300156 -0.44963473081588745 119
16.670297622680664 0.1251138597726822 -0.2874201834201813 119
9.18091869354248 0.0673021450638771 2.4481265544891357 107
10.68826961517334 0.07648646086454391 2.4568560123443604 107
12.770074844360352 0.0891551822423935 2.4725704193115234 107
15.747501373291016 0.1071937084197998 2.4853482246398926 107
20.538837432861328 0.13622361421585083 2.5172111988067627 107
21.416141510009766 0.13830433785915375 1.8703621625900269 60
21.41848373413086 0.1345810741186142 1.120512843132019 60
21.41959571838379 0.13084949553012848 0.37321969866752625 60
1.8831441402435303 0.009531794115900993 -0.4943445920944214 119
2.133120059967041 0.010424773208796978 -0.4836450219154358 119
2.497281551361084 0.011768599040806293 -0.47754764556884766 119
3.045729160308838 0.01382160373032093 -0.4763433039188385 119
nan nan nan 0
5.377805709838867 0.022527387365698814 -0.46715548634529114 119
8.65143871307373 0.03473050147294998 -0.4498955309391022 119
16.6656436920166 0.0639941394329071 -0.28733378648757935 119
9.181103706359863 0.03365194424986839 2.4481265544891357 107
10.68360710144043 0.037294477224349976 2.4557323455810547 107
12.765408515930176 0.04233364388346672 2.4716172218322754 107
15.742849349975586 0.049459993839263916 2.4845669269561768 107
20.534236907958984 0.06092936918139458 2.516601800918579 107
21.41152572631836 0.05979541689157486 1.8699264526367188 60
nan nan nan 0
nan nan nan 0
1.8831658363342285 0.0029583368450403214 -0.4943445920944214 119
2.1380155086517334 0.0029855347238481045 -0.4847698211669922 119
2.502215623855591 0.003057386027649045 -0.4785008728504181 119
3.0457589626312256 0.0031899402383714914 -0.4763433039188385 119
nan nan nan 0
5.377851486206055 0.003755204612389207 -0.46715548634529114 119
8.651507377624512 0.0045311339199543 -0.4498955309391022 119
16.6657657623291 0.005819790530949831 -0.28733378648757935 119
9.185994148254395 0.0016045485390350223 2.4494194984436035 107
10.683671951293945 -0.0 2.4557323455810547 107
12.76056957244873 -0.002227139426395297 2.4706640243530273 107
15.733049392700195 -0.005491870455443859 2.483004093170166 107
20.534324645996094 -0.010751747526228428 2.516601800918579 107
21.411602020263672 -0.014948120340704918 1.8699264526367188 60
21.418899536132812 -0.018691519275307655 1.120512843132019 60
nan nan nan 0
1.8831647634506226 -0.0036154212430119514 -0.4943445920944214 119
2.1428844928741455 -0.004488053731620312 -0.4858945310115814 119
2.5071194171905518 -0.005688482895493507 -0.47945404052734375 119
3.0457515716552734 -0.007442189380526543 -0.4763433039188385 119
nan nan nan 0
5.382812976837158 -0.015031687915325165 -0.467591255903244 119
8.656463623046875 -0.02568432129919529 -0.4501563608646393 119
21.58492660522461 -0.0678112655878067 -0.37234175205230713 119
9.185943603515625 -0.030461853370070457 2.4494194984436035 107
10.67873477935791 -0.03727596625685692 2.45460844039917 107
12.760483741760254 -0.046769823879003525 2.4706640243530273 107
15.727994918823242 -0.060391463339328766 2.48222279548645 107
20.534160614013672 -0.08242984861135483 2.516601800918579 107
21.969284057617188 -0.0920252576470375 1.9187337160110474 80
22.257545471191406 -0.09711747616529465 1.1644749641418457 80
23.35945701599121 -0.106002576649189 0.4070773422718048 80
1.8831406831741333 -0.010188871063292027 -0.4943445920944214 119
2.137984037399292 -0.011940879747271538 -0.4847698211669922 119
2.507084369659424 -0.014439928345382214 -0.47945404052734375 119
3.0457069873809814 -0.018073800951242447 -0.4763433039188385 119
3.948807954788208 -0.024122193455696106 -0.4801657497882843 119
5.38770866394043 -0.03385241702198982 -0.4680270552635193 119
8.661314964294434 -0.05593310669064522 -0.450417160987854 119
21.59955596923828 -0.14325577020645142 -0.3726009130477905 119
9.185781478881836 -0.06252659112215042 2.4494194984436035 107
10.678539276123047 -0.07455147802829742 2.45460844039917 107
12.760242462158203 -0.09131193906068802 2.4706640243530273 107
15.717812538146973 -0.11521964520215988 2.4806604385375977 107
20.533748626708984 -0.15410694479942322 2.516601800918579 107
23.6025390625 -0.18125805258750916 2.061669111251831 80
23.939708709716797 -0.18802590668201447 1.252661108970642 80
24.918657302856445 -0.20006409287452698 0.4343031346797943 80
1.887923002243042 -0.01680518500506878 -0.4956386983394623 119
2.147672653198242 -0.019492194056510925 -0.4870193302631378 119
2.507018566131592 -0.023191196843981743 -0.47945404052734375 119
3.0456254482269287 -0.028705190867185593 -0.4763433039188385 119
3.948699712753296 -0.03790596127510071 -0.4801657497882843 119
5.3875579833984375 -0.05265882611274719 -0.4680270552635193 119
8.661067008972168 -0.0861663967370987 -0.450417160987854 119
21.60892105102539 -0.2187526375055313 -0.372773677110672 119
9.180679321289062 -0.09454084932804108 2.4481265544891357 107
10.678214073181152 -0.11182607710361481 2.45460844039917 107
12.759846687316895 -0.13585293292999268 2.4706640243530273 107
15.712377548217773 -0.17003092169761658 2.479879140853882 107
20.523162841796875 -0.22567304968833923 2.515383005142212 107
25.110902786254883 -0.28050315380096436 2.1937100887298584 80
25.092248916625977 -0.284674733877182 1.3131091594696045 80
26.487464904785156 -0.30512717366218567 0.4617033898830414 80
1.8830236196517944 -0.023335319012403488 -0.4943445920944214 119
2.123234272003174 -0.02668275125324726 -0.48139551281929016 119
2.502014398574829 -0.03187964856624603 -0.4785008728504181 119
3.0504448413848877 -0.03940001502633095 -0.47712549567222595 119
3.963430404663086 -0.05188414454460144 -0.48199379444122314 119
5.392321586608887 -0.07153065502643585 -0.46846285462379456 119
8.665703773498535 -0.11646571755409241 -0.45067793130874634 119
21.64801788330078 -0.2947249710559845 -0.37346482276916504 119
9.180293083190918 -0.12658682465553284 2.4481265544891357 107
10.677759170532227 -0.14909932017326355 2.45460844039917 107
12.759294509887695 -0.1803922802209854 2.4706640243530273 107
15.711688041687012 -0.2248763144016266 2.479879140853882 107
20.507362365722656 -0.2970952093601227 2.5135550498962402 107
nan nan nan 0
26.93337059020996 -0.39959388971328735 1.4096689224243164 80
28.660659790039062 -0.4302239716053009 0.4996623694896698 80
1.887759804725647 -0.029984859749674797 -0.4956386983394623 119
2.166969060897827 -0.03479807451367378 -0.4915183484554291 119
2.5215187072753906 -0.040931783616542816 -0.4823136329650879 119
3.0404131412506104 -0.04988577961921692 -0.4755611717700958 119
3.9483389854431152 -0.06547193974256516 -0.4801657497882843 119
5.3920392990112305 -0.09035293012857437 -0.46846285462379456 119
8.655261039733887 -0.1465449184179306 -0.4501563608646393 119
21.676847457885742 -0.3708018958568573 -0.3739831745624542 119
9.174965858459473 -0.1585478037595749 2.446833372116089 107
10.672303199768066 -0.18628573417663574 2.453484535217285 107
12.753679275512695 -0.22484290599822998 2.4697108268737793 107
15.7058687210083 -0.27963101863861084 2.479097604751587 107
20.491313934326172 -0.36840978264808655 2.5117268562316895 107
29.112375259399414 -0.5284891128540039 2.5440759658813477 107
29.597705841064453 -0.5424669981002808 1.5494059324264526 80
32.032894134521484 -0.5926918387413025 0.5585642457008362 80
1.8731575012207031 -0.03629351034760475 -0.491756409406662 119
2.14247989654541 -0.0418858602643013 -0.4858945310115814 119
2.506638288497925 -0.04944288358092308 -0.47945404052734375 119
3.0649075508117676 -0.060989756137132645 -0.47947201132774353 119
3.958009719848633 -0.0794530138373375 -0.48138442635536194 119
5.396671295166016 -0.1092749610543251 -0.46889862418174744 119
8.684649467468262 -0.17736825346946716 -0.45172119140625 119
21.74039649963379 -0.4478043019771576 -0.37510621547698975 119
9.174356460571289 -0.19057345390319824 2.446833372116089 107
10.671586990356445 -0.2235378921031952 2.453484535217285 107
12.747910499572754 -0.2692565619945526 2.4687576293945312 107
15.70479679107666 -0.3344530463218689 2.479097604751587 107
20.475017547607422 -0.43961599469184875 2.5098989009857178 107
29.23484992980957 -0.6328017711639404 2.5549705028533936 107
31.80207633972168 -0.6939237713813782 1.6650683879852295 80
32.095603942871094 -0.7059329748153687 0.5596986413002014 80
1.8875044584274292 -0.04316307231783867 -0.4956386983394623 119
2.152061700820923 -0.04958871752023697 -0.48814404010772705 119
2.5064504146575928 -0.058192383497953415 -0.47945404052734375 119
3.0498650074005127 -0.07134145498275757 -0.47712549567222595 119
3.9676311016082764 -0.09350240230560303 -0.48260313272476196 119
5.381317615509033 -0.12775751948356628 -0.467591255903244 119
8.669001579284668 -0.2073241025209427 -0.45093876123428345 119
21.73870086669922 -0.5236896872520447 -0.37510621547698975 119
9.168807029724121 -0.22247961163520813 2.445539951324463 107
10.665871620178223 -0.26066824793815613 2.4523606300354004 107
12.741985321044922 -0.31363263726234436 2.467804431915283 107
15.698596954345703 -0.3891485929489136 2.478316307067871 107
20.45847511291504 -0.5107129812240601 2.508070945739746 107
29.142833709716797 -0.7325934767723083 2.547126531600952 107
nan nan nan 0
36.170997619628906 -0.9219018816947937 0.6309044361114502 80
1.8873422145843506 -0.04975142702460289 -0.4956386983394623 119
nan nan nan 0
nan nan nan 0
3.0446605682373047 -0.08185430616140366 -0.4763433039188385 119
nan nan nan 0
5.400755882263184 -0.14708344638347626 -0.4693343937397003 119
8.678208351135254 -0.237856924533844 -0.4514603912830353 119
nan nan nan 0
9.163146018981934 -0.25434932112693787 2.444246768951416 107
10.660025596618652 -0.297761470079422 2.4512367248535156 107
12.735906600952148 -0.357970654964447 2.466851234436035 107
15.697141647338867 -0.4439445436000824 2.478316307067871 107
20.45160675048828 -0.5819820761680603 2.5074615478515625 107
29.110225677490234 -0.8334612250328064 2.5445120334625244 107
nan nan nan 0
44.95252990722656 -1.3027502298355103 0.7843111157417297 80
nan nan nan 0
2.151663064956665 -0.06461161375045776 -0.48814404010772705 119
nan nan nan 0
nan nan nan 0
nan nan nan 0
5.42012357711792 -0.16654662787914276 -0.47107750177383423 119
nan nan nan 0
nan nan nan 0
9.15737533569336 -0.2861822843551636 2.44295334815979 107
10.654051780700684 -0.3348170518875122 2.450112819671631 107
12.729673385620117 -0.40227004885673523 2.465898036956787 107
15.690561294555664 -0.4985782504081726 2.4775350093841553 107
20.449451446533203 -0.6533679366111755 2.5074615478515625 107
nan nan nan 0
nan nan nan 0
49.02993392944336 -1.5922242403030396 0.8556041717529297 106
1.8966028690338135 -0.0632481798529625 -0.4982268810272217 119
nan nan nan 0
nan nan nan 0
nan nan nan 0
nan nan nan 0
nan nan nan 0
8.671345710754395 -0.2982642948627472 -0.45119956135749817 119
nan nan nan 0
9.156320571899414 -0.318145751953125 2.44295334815979 107
10.64794921875 -0.37183454632759094 2.448988676071167 107
12.718379974365234 -0.4463581144809723 2.463991641998291 107
15.683789253234863 -0.5531713962554932 2.4767537117004395 107
20.447046279907227 -0.7247459292411804 2.5074615478515625 107
nan nan nan 0
49.169288635253906 -1.7599914073944092 2.5764989852905273 106
49.124000549316406 -1.7669551372528076 0.8573494553565979 106
nan nan nan 0
nan nan nan 0
nan nan nan 0
nan nan nan 0
nan nan nan 0
nan nan nan 0
nan nan nan 0
nan nan nan 0
9.150327682495117 -0.34992071986198425 2.441660165786743 107
10.646585464477539 -0.40900057554244995 2.448988676071167 107
12.711841583251953 -0.4905616343021393 2.463038682937622 107
15.676828384399414 -0.6077234148979187 2.4759724140167236 107
20.434473037719727 -0.7957287430763245 2.5062427520751953 107
nan nan nan 0
49.14289093017578 -1.930829405784607 2.5754523277282715 106
49.09755325317383 -1.937630534172058 0.8570003509521484 106
nan nan nan 0
nan nan nan 0
nan nan nan 0
nan nan nan 0
nan nan nan 0
nan nan nan 0
8.654086112976074 -0.35817453265190125 -0.450417160987854 119
nan nan nan 0
9.144224166870117 -0.38165777921676636 2.4403669834136963 107
10.640225410461426 -0.44595757126808167 2.4478647708892822 107
12.705147743225098 -0.5347248315811157 2.462085485458374 107
15.669676780700684 -0.6622334718704224 2.475191116333008 107
20.421655654907227 -0.8666327595710754 2.5050244331359863 107
nan nan nan 0
49.11589813232422 -2.1015045642852783 2.5744056701660156 106
nan nan nan 0
nan nan nan 0
2.131082773208618 -0.09379039704799652 -0.4836450219154358 119
nan nan nan 0
nan nan nan 0
nan nan nan 0
nan nan nan 0
nan nan nan 0
nan nan nan 0
9.142836570739746 -0.4135747253894806 2.4403669834136963 107
10.63373851776123 -0.4828752279281616 2.4467411041259766 107
12.703204154968262 -0.5790708661079407 2.462085485458374 107
15.662336349487305 -0.716701090335846 2.474409818649292 107
20.40859031677246 -0.9374569058418274 2.503805637359619 107
nan nan nan 0
49.148162841796875 -2.274785041809082 2.5764989852905273 106
nan nan nan 0
nan nan nan 0
2.145341396331787 -0.10192227363586426 -0.4870193302631378 119
nan nan nan 0
nan nan nan 0
nan nan nan 0
nan nan nan 0
nan nan nan 0
nan nan nan 0
9.141336441040039 -0.4454866945743561 2.4403669834136963 107
10.631987571716309 -0.5199909806251526 2.4467411041259766 107
12.696202278137207 -0.6231691241264343 2.461132287979126 107
15.654807090759277 -0.7711255550384521 2.473628520965576 107
20.38041114807129 -1.0074653625488281 2.5007588863372803 107
28.952064514160156 -1.436253547668457 2.532745838165283 107
49.114990234375 -2.4450888633728027 2.575190544128418 106
nan nan nan 0
nan nan nan 0
nan nan nan 0
nan nan nan 0
nan nan nan 0
nan nan nan 0
nan nan nan 0
nan nan nan 0
nan nan nan 0
9.139725685119629 -0.47739318013191223 2.4403669834136963 107
10.630107879638672 -0.5571003556251526 2.4467411041259766 107
12.693949699401855 -0.6674833297729492 2.461132287979126 107
15.647088050842285 -0.8255060911178589 2.4728472232818604 107
20.38667869567871 -1.0791246891021729 2.5019774436950684 107
nan nan nan 0
49.10116958618164 -2.6162519454956055 2.5749289989471436 106
64.1668472290039 -3.430225372314453 1.120967984199524 0
nan nan nan 0
nan nan nan 0
nan nan nan 0
nan nan nan 0
nan nan nan 0
nan nan nan 0
nan nan nan 0
nan nan nan 0
9.138004302978516 -0.5092939138412476 2.4403669834136963 107
10.63296127319336 -0.5944748520851135 2.4478647708892822 107
12.686641693115234 -0.7115145325660706 2.460179090499878 107
15.639180183410645 -0.879842221736908 2.4720659255981445 107
20.382789611816406 -1.1502808332443237 2.5019774436950684 107
28.94133186340332 -1.6383403539657593 2.532745838165283 107
49.086753845214844 -2.7873477935791016 2.57466721534729 106
64.17942810058594 -3.6556098461151123 1.1214042901992798 0
nan nan nan 0
nan nan nan 0
nan nan nan 0
nan nan nan 0
nan nan nan 0
nan nan nan 0
8.761160850524902 -0.515905499458313 -0.4564157724380493 119
nan nan nan 0
9.136170387268066 -0.5411883592605591 2.4403669834136963 107
10.630821228027344 -0.6315871477127075 2.4478647708892822 107
12.684080123901367 -0.755794882774353 2.460179090499878 107
15.631084442138672 -0.9341331720352173 2.4712846279144287 107
20.38855743408203 -1.2220169305801392 2.5031962394714355 107
nan nan nan 0
49.04682159423828 -2.9568727016448975 2.573096990585327 106
64.1812515258789 -3.880520820617676 1.1216660737991333 0
nan nan nan 0
nan nan nan 0
nan nan nan 0
nan nan nan 0
nan nan nan 0
nan nan nan 0
8.749340057373047 -0.5458626747131348 -0.4558941423892975 119
nan nan nan 0
9.134225845336914 -0.5730762481689453 2.4403669834136963 107
10.633415222167969 -0.6689977645874023 2.448988676071167 107
12.676466941833496 -0.7997569441795349 2.45922589302063 107
15.632657051086426 -0.9890020489692688 2.4720659255981445 107
20.408931732177734 -1.2947498559951782 2.5062427520751953 107
nan nan nan 0
49.06111526489258 -3.1296491622924805 2.5744056701660156 106
64.1623306274414 -4.104212284088135 1.1215788125991821 0
nan nan nan 0
nan nan nan 0
nan nan nan 0
nan nan nan 0
nan nan nan 0
nan nan nan 0
8.70752239227295 -0.5737738013267517 -0.45380765199661255 119
nan nan nan 0
9.13698959350586 -0.6052764654159546 2.441660165786743 107
10.631014823913574 -0.7061111927032471 2.448988676071167 107
12.67359733581543 -0.8440011739730835 2.45922589302063 107
15.65374755859375 -1.0452091693878174 2.4759724140167236 107
20.379528045654297 -1.3643250465393066 2.5031962394714355 107
nan nan nan 0
49.05985641479492 -3.30155611038208 2.5749289989471436 106
nan nan nan 0
nan nan nan 0
nan nan nan 0
nan nan nan 0
nan nan nan 0
nan nan nan 0
nan nan nan 0
8.795127868652344 -0.6103878021240234 -0.45850223302841187 119
nan nan nan 0
9.134820938110352 -0.6371667981147766 2.441660165786743 107
10.633345603942871 -0.7435559630393982 2.450112819671631 107
12.665678024291992 -0.8878918290138245 2.4582724571228027 107
15.640151023864746 -1.0991520881652832 2.474409818649292 107
20.379594802856445 -1.4358034133911133 2.503805637359619 107
nan nan nan 0
49.053009033203125 -3.4731390476226807 2.575190544128418 106
49.007476806640625 -3.4785115718841553 0.8569130897521973 106
nan nan nan 0
nan nan nan 0
nan nan nan 0
nan nan nan 0
nan nan nan 0
nan nan nan 0
8.758084297180176 -0.6385431885719299 -0.45667657256126404 119
nan nan nan 0
9.13254165649414 -0.6690494418144226 2.441660165786743 107
10.630684852600098 -0.7806687355041504 2.450112819671631 107
12.662501335144043 -0.9320979714393616 2.4582724571228027 107
nan nan nan 0
20.35466194152832 -1.5054683685302734 2.501368284225464 107
nan nan nan 0
49.04058837890625 -3.6443450450897217 2.575190544128418 106
48.93022537231445 -3.644730806350708 0.855778694152832 106
nan nan nan 0
2.13680100440979 -0.16141699254512787 -0.4858945310115814 119
nan nan nan 0
nan nan nan 0
nan nan nan 0
5.461621284484863 -0.4164135456085205 -0.47587108612060547 119
8.770737648010254 -0.6702521443367004 -0.4574589729309082 119
nan nan nan 0
9.13015079498291 -0.7009238600730896 2.441660165786743 107
10.62789535522461 -0.8177719712257385 2.450112819671631 107
12.654275894165039 -0.9759151935577393 2.4573192596435547 107
15.597628593444824 -1.2056491374969482 2.468940496444702 107
nan nan nan 0
nan nan nan 0
48.99272155761719 -3.8127946853637695 2.5733587741851807 106
nan nan nan 0
nan nan nan 0
nan nan nan 0
nan nan nan 0
nan nan nan 0
nan nan nan 0
5.375725746154785 -0.4287435710430145 -0.46846285462379456 119
8.763367652893066 -0.7004657983779907 -0.4571981728076935 119
nan nan nan 0
9.12764835357666 -0.7327897548675537 2.441660165786743 107
10.62012004852295 -0.8544744849205017 2.448988676071167 107
12.64590072631836 -1.0196864604949951 2.4563660621643066 107
8.869147300720215 -0.7167106866836548 1.4016708135604858 102
20.264511108398438 -1.6411235332489014 2.4916186332702637 107
nan nan nan 0
nan nan nan 0
8.852542877197266 -0.7215898633003235 0.15436653792858124 102
nan nan nan 0
2.1307668685913086 -0.17592975497245789 -0.4847698211669922 119
nan nan nan 0
nan nan nan 0
nan nan nan 0
nan nan nan 0
8.76584529876709 -0.73146653175354 -0.4574589729309082 119
nan nan nan 0
9.120221138000488 -0.7642433643341064 2.4403669834136963 107
10.6073637008667 -0.8907251954078674 2.4467411041259766 107
12.642265319824219 -1.0638227462768555 2.4563660621643066 107
nan nan nan 0
nan nan nan 0
nan nan nan 0
8.859264373779297 -0.7517195343971252 0.4639582335948944 102
8.849970817565918 -0.7524865865707397 0.15436653792858124 102
1.8762577772140503 -0.16118191182613373 -0.4943445920944214 119
2.134993553161621 -0.18378427624702454 -0.4858945310115814 119
2.5027408599853516 -0.21588069200515747 -0.4804072380065918 119
3.0492074489593506 -0.26355379819869995 -0.47868984937667847 119
3.944042205810547 -0.3415910601615906 -0.48138442635536194 119
5.412300109863281 -0.469707727432251 -0.4719490706920624 119
8.773187637329102 -0.7629258632659912 -0.45798060297966003 119
8.868322372436523 -0.772758424282074 -0.15316982567310333 102
9.112687110900879 -0.7956541180610657 2.4390735626220703 107
10.599336624145508 -0.9273217916488647 2.445617198944092 107
12.638474464416504 -1.1079459190368652 2.4563660621643066 107
8.8590087890625 -0.7781789302825928 1.40088951587677 102
8.847631454467773 -0.7787357568740845 1.0858558416366577 102
8.874917030334473 -0.7826982736587524 0.7761218547821045 102
8.856586456298828 -0.7826395034790039 0.4639582335948944 102
8.857248306274414 -0.7842559814453125 0.1545410454273224 102
1.8756836652755737 -0.16773028671741486 -0.4943445920944214 119
2.1488962173461914 -0.1925399899482727 -0.48926883935928345 119
nan nan nan 0
3.0826990604400635 -0.277292937040329 -0.4841650724411011 119
3.9329404830932617 -0.3544653058052063 -0.4801657497882843 119
5.44039249420166 -0.49128517508506775 -0.47456371784210205 119
8.775443077087402 -0.793995201587677 -0.45824143290519714 119
8.870550155639648 -0.8041613101959229 -0.15325620770454407 102
9.1050443649292 -0.8270216584205627 2.4377806186676025 107
10.58633041381836 -0.9634315371513367 2.4433693885803223 107
12.629642486572266 -1.1516101360321045 2.4554131031036377 107
8.875909805297852 -0.8108950853347778 1.4040145874023438 102
8.859685897827148 -0.8109721541404724 1.087683916091919 102
8.872130393981934 -0.8136727213859558 0.7761218547821045 102
8.853800773620605 -0.8135499954223633 0.4639582335948944 102
8.879347801208496 -0.817460298538208 0.15497736632823944 102
1.875086784362793 -0.17427662014961243 -0.4943445920944214 119
2.1094043254852295 -0.19642619788646698 -0.4802708029747009 119
2.4816246032714844 -0.23152396082878113 -0.4765945076942444 119
3.0522098541259766 -0.2852942645549774 -0.47947201132774353 119
3.951443672180176 -0.3700425922870636 -0.48260313272476196 119
5.4287261962890625 -0.5093421339988708 -0.4736922085285187 119
8.777589797973633 -0.8250897526741028 -0.45850223302841187 119
8.882619857788086 -0.8365265727043152 -0.15351538360118866 102
9.097293853759766 -0.8583455085754395 2.4364871978759766 107
10.578051567077637 -0.9999203085899353 2.4422454833984375 107
12.625545501708984 -1.1956887245178223 2.4554131031036377 107
8.887775421142578 -0.8432723879814148 1.4063585996627808 102
8.866681098937988 -0.8428324460983276 1.088902473449707 102
8.894028663635254 -0.8469982743263245 0.7783007621765137 102
8.925466537475586 -0.8515641689300537 0.4678834080696106 102
8.89137077331543 -0.8498770594596863 0.15523913502693176 102
1.888888955116272 -0.18221205472946167 -0.4982268810272217 119
2.1329519748687744 -0.20613138377666473 -0.4858945310115814 119
2.490571975708008 -0.2411310225725174 -0.4785008728504181 119
3.0462803840637207 -0.2954699993133545 -0.47868984937667847 119
3.9254305362701416 -0.3814336061477661 -0.4795564115047455 119
5.421957492828369 -0.5278062224388123 -0.4732564091682434 119
8.784595489501953 -0.8566935062408447 -0.4590238630771637 119
8.904524803161621 -0.869958221912384 -0.15394733846187592 102
9.089434623718262 -0.8896252512931824 2.4351940155029297 107
10.569647789001465 -1.0363630056381226 2.4411215782165527 107
12.621294975280762 -1.2397527694702148 2.4554131031036377 107
8.909351348876953 -0.8767094612121582 1.4102650880813599 102
8.883440971374512 -0.875725269317627 1.0913399457931519 102
8.910844802856445 -0.879997193813324 0.78004390001297 102
8.907532691955566 -0.8812399506568909 0.4670984148979187 102
8.908247947692871 -0.882880687713623 0.15558819472789764 102
1.8786300420761108 -0.18784335255622864 -0.4956386983394623 119
2.1273720264434814 -0.2130899578332901 -0.4847698211669922 119
2.470180034637451 -0.24786308407783508 -0.4746881127357483 119
3.0452303886413574 -0.3061017096042633 -0.47868984937667847 119
3.94382643699646 -0.39712241291999817 -0.48199379444122314 119
5.429994106292725 -0.547728955745697 -0.47412797808647156 119
8.786519050598145 -0.8878542184829712 -0.45928463339805603 119
8.916354179382324 -0.9025458693504333 -0.1542065143585205 102
9.08146858215332 -0.9208605885505676 2.4339005947113037 107
10.565966606140137 -1.0732516050338745 2.4411215782165527 107
12.612007141113281 -1.2833049297332764 2.4544599056243896 107
8.920976638793945 -0.909305989742279 1.4126091003417969 102
8.905014991760254 -0.9092494249343872 1.0943865776062012 102
8.922585487365723 -0.912617027759552 0.7813512682914734 102
8.929238319396973 -0.9148722290992737 0.4684067964553833 102
8.920031547546387 -0.9155021905899048 0.15584997832775116 102
1.8779629468917847 -0.1943998634815216 -0.4956386983394623 119
2.1314609050750732 -0.2210170477628708 -0.4858945310115814 119
2.498591899871826 -0.25952666997909546 -0.4804072380065918 119
3.0441434383392334 -0.31672966480255127 -0.47868984937667847 119
3.9374799728393555 -0.4103720784187317 -0.48138442635536194 119
5.428049087524414 -0.566679835319519 -0.47412797808647156 119
8.78833293914795 -0.9190387725830078 -0.45954543352127075 119
8.933037757873535 -0.9357475638389587 -0.15455205738544464 102
