# .PCD v0.7 - Point Cloud Data file format
VERSION 0.7
FIELDS x y z intensity
SIZE 4 4 4 4
TYPE F F F F
COUNT 1 1 1 1
WIDTH 804
HEIGHT 1
VIEWPOINT 0 0 0 1 0 0 0
POINTS 804
DATA ascii
2.5331437587738037 -3.5763635635375977 -0.07507307827472687 116
3.0782134532928467 -4.3475165367126465 1.4161112308502197 109
3.0759987831115723 -4.345996379852295 1.219436764717102 109
3.0809507369995117 -4.354605197906494 1.0284901857376099 109
3.0847957134246826 -4.361653804779053 0.8391273021697998 109
1.5863295793533325 -2.2437732219696045 0.33270329236984253 117
1.606060266494751 -2.2725226879119873 0.24011406302452087 117
1.5951287746429443 -2.2578909397125244 0.14287716150283813 117
1.5706984996795654 -2.2241334915161133 0.046859707683324814 117
1.1100250482559204 -1.5747274160385132 -0.5059914588928223 119
1.2764066457748413 -1.8114346265792847 -0.5027658939361572 119
1.5370323657989502 -2.182114839553833 -0.5109092593193054 119
1.6340898275375366 -2.3207671642303467 -0.4434920847415924 119
1.6358989477157593 -2.324197769165039 -0.34428128600120544 0
1.6184942722320557 -2.300323247909546 -0.24272911250591278 117
1.578920602798462 -2.244910478591919 -0.14135847985744476 117
1.603420376777649 -2.280590057373047 -0.04751460999250412 117
3.0741281509399414 -4.374041557312012 1.4212841987609863 109
3.0748133659362793 -4.376640319824219 1.2250564098358154 109
3.0770153999328613 -4.381400108337402 1.032302975654602 109
3.083739757537842 -4.392604827880859 0.8430338501930237 109
1.575636863708496 -2.245234489440918 0.3320939540863037 117
1.5981179475784302 -2.2781150341033936 0.24011406302452087 117
1.584370732307434 -2.25935697555542 0.14261546730995178 117
1.5944907665252686 -2.274632692337036 0.0478195920586586 117
1.10452139377594 -1.5785925388336182 -0.5059914588928223 119
1.2700759172439575 -1.8158791065216064 -0.5027658939361572 119
1.526593565940857 -2.183444023132324 -0.5099561214447021 119
1.6514403820037842 -2.362887144088745 -0.45053160190582275 119
1.6448293924331665 -2.3543031215667725 -0.34793737530708313 119
nan nan nan 0
1.5825079679489136 -2.266784906387329 -0.14240172505378723 117
1.5840059518814087 -2.2697746753692627 -0.047169048339128494 117
3.072658061981201 -4.404551982879639 1.4277504682540894 109
3.073451519012451 -4.407328128814697 1.2306759357452393 109
3.075737237930298 -4.412247180938721 1.0370688438415527 109
3.082505226135254 -4.4236016273498535 0.8469404578208923 109
1.559280276298523 -2.238504409790039 0.33026590943336487 117
1.590156078338623 -2.283679485321045 0.24011406302452087 117
1.5736221075057983 -2.2607758045196533 0.14235380291938782 117
1.5751198530197144 -2.263770341873169 0.047470543533563614 117
1.0990045070648193 -1.5824384689331055 -0.5059914588928223 119
1.263729453086853 -1.8203014135360718 -0.5027658939361572 119
1.5161641836166382 -2.184727430343628 -0.5090028643608093 119
nan nan nan 0
nan nan nan 0
nan nan nan 0
1.5717415809631348 -2.268190860748291 -0.14214091002941132 117
nan nan nan 0
3.071012258529663 -4.435104846954346 1.4342167377471924 109
3.0719125270843506 -4.4380598068237305 1.236295461654663 109
3.074280261993408 -4.4431376457214355 1.0418347120285034 109
3.0810916423797607 -4.454643249511719 0.8508469462394714 109
1.562746286392212 -2.2602617740631104 0.33270329236984253 117
1.585006833076477 -2.293313980102539 0.24054984748363495 117
1.5742353200912476 -2.278578996658325 0.1431388258934021 117
1.5672082901000977 -2.269254684448242 0.047470543533563614 117
1.0934739112854004 -1.5862650871276855 -0.5059914588928223 119
1.257367730140686 -1.8247016668319702 -0.5027658939361572 119
1.5057445764541626 -2.185964345932007 -0.508049726486206 119
1.844957709312439 -2.679417848587036 -0.5091946125030518 119
2.1066954135894775 -3.060680627822876 -0.4515264332294464 115
2.2916977405548096 -3.3307034969329834 -0.35036662220954895 116
2.259899139404297 -3.2857158184051514 -0.20629991590976715 116
2.468801498413086 -3.590785503387451 -0.07464112341403961 116
3.069190263748169 -4.465699672698975 1.4406828880310059 109
3.0701966285705566 -4.468833923339844 1.241914987564087 109
3.072645425796509 -4.474071502685547 1.0466006994247437 109
3.079498529434204 -4.4857282638549805 0.8547534942626953 109
1.5548468828201294 -2.2657032012939453 0.33270329236984253 117
1.576992154121399 -2.298832654953003 0.24054984748363495 117
1.574743628501892 -2.2964141368865967 0.14392387866973877 117
2.667290687561035 -3.8911073207855225 0.08167725801467896 116
1.0879302024841309 -1.5900722742080688 -0.5059914588928223 119
1.2482404708862305 -1.8250583410263062 -0.5016411542892456 119
1.4981050491333008 -2.19120717048645 -0.508049726486206 119
1.857885718345642 -2.7184596061706543 -0.515451967716217 119
2.101597547531128 -3.076211452484131 -0.45274510979652405 115
2.2744393348693848 -3.330455780029297 -0.3494950532913208 116
nan nan nan 0
2.456252098083496 -3.599381446838379 -0.07464112341403961 116
3.0671920776367188 -4.496335029602051 1.4471492767333984 109
3.0683023929595947 -4.499649524688721 1.2475343942642212 109
3.0708322525024414 -4.505048751831055 1.0513666868209839 109
3.077726125717163 -4.5168561935424805 0.8586600422859192 109
1.5525161027908325 -2.279320001602173 0.33392199873924255 117
1.5717612504959106 -2.3084404468536377 0.24098561704158783 117
1.572337031364441 -2.310152530670166 0.1444472372531891 117
2.6508798599243164 -3.896260976791382 0.08158998936414719 116
1.0823731422424316 -1.593860149383545 -0.5059914588928223 119
1.2418622970581055 -1.8294044733047485 -0.5016411542892456 119
1.4876909255981445 -2.192361354827881 -0.507096529006958 119
1.8622465133666992 -2.7453627586364746 -0.5193628668785095 119
2.096417188644409 -3.0917437076568604 -0.4539638161659241 115
2.260005474090576 -3.334252119064331 -0.3490593135356903 116
2.234104871749878 -3.297279119491577 -0.20603910088539124 116
2.438066005706787 -3.5996551513671875 -0.07446835190057755 116
3.067725419998169 -4.53101110458374 1.454908847808838 109
3.0689616203308105 -4.534541606903076 1.2542779445648193 109
3.0688397884368896 -4.536067008972168 1.0561326742172241 109
3.0757737159729004 -4.5480265617370605 0.8625666499137878 109
1.5417710542678833 -2.280614137649536 0.33331263065338135 117
1.5636937618255615 -2.313912868499756 0.24098561704158783 117
1.5726484060287476 -2.3280396461486816 0.14523227512836456 117
2.6260721683502197 -3.888917922973633 0.0812409445643425 116
1.0768030881881714 -1.5976287126541138 -0.5059914588928223 119
1.2381908893585205 -1.8377684354782104 -0.5027658939361572 119
1.4800291061401367 -2.1975409984588623 -0.507096529006958 119
1.8471360206604004 -2.7436532974243164 -0.5177984833717346 119
2.074528932571411 -3.082573890686035 -0.4515264332294464 115
2.237231731414795 -3.325589179992676 -0.347316175699234 116
2.2197952270507812 -3.3009140491485596 -0.2057783007621765 116
2.414330005645752 -3.591547727584839 -0.07412278652191162 116
3.065359354019165 -4.5617356300354 1.461375117301941 109
3.0666980743408203 -4.565448760986328 1.2598974704742432 109
3.0666682720184326 -4.567126750946045 1.0608986616134644 109
3.073641300201416 -4.579237937927246 0.8664731979370117 109
1.5310357809066772 -2.281860828399658 0.33270329236984253 117
1.5556071996688843 -2.31935715675354 0.24098561704158783 117
1.5700736045837402 -2.3418095111846924 0.14575563371181488 117
2.6041319370269775 -3.8856027126312256 0.08097916096448898 116
1.0688132047653198 -1.5971767902374268 -0.504697322845459 119
1.2324113845825195 -1.8416491746902466 -0.5027658939361572 119
1.4731180667877197 -2.2021799087524414 -0.507096529006958 119
1.8385075330734253 -2.7494428157806396 -0.5177984833717346 119
2.0620765686035156 -3.0849499702453613 -0.4509170651435852 115
2.221238613128662 -3.3243181705474854 -0.34644460678100586 116
2.2066407203674316 -3.3037192821502686 -0.2055174857378006 116
2.400259017944336 -3.5949573516845703 -0.07403639703989029 116
3.0644192695617676 -4.591429710388184 1.4678412675857544 109
3.06585955619812 -4.595324516296387 1.2655168771743774 109
3.0659215450286865 -4.5971550941467285 1.065664529800415 109
3.07293701171875 -4.609416961669922 0.8703796863555908 109
1.5211071968078613 -2.282529592514038 0.3320939540863037 117
1.542790174484253 -2.3159420490264893 0.24011406302452087 117
1.5710114240646362 -2.359198570251465 0.14654067158699036 117
2.583601474761963 -3.8812801837921143 0.08071737736463547 116
1.0635108947753906 -1.6007124185562134 -0.504697322845459 119
1.2286707162857056 -1.8499984741210938 -0.5038906931877136 119
1.4681369066238403 -2.211397886276245 -0.508049726486206 119
1.826168179512024 -2.7517285346984863 -0.5170162916183472 119
2.043065309524536 -3.0797228813171387 -0.44908902049064636 115
2.204115629196167 -3.323749303817749 -0.3455730378627777 116
2.192336320877075 -3.3072397708892822 -0.20525668561458588 116
2.379410982131958 -3.5908114910125732 -0.0737772285938263 116
3.0643763542175293 -4.626258373260498 1.4756008386611938 109
3.065938949584961 -4.630372047424316 1.2722604274749756 109
3.063401222229004 -4.628293991088867 1.0704303979873657 109
3.070453643798828 -4.640708923339844 0.8742862343788147 109
1.507655143737793 -2.2795469760894775 0.3308752477169037 117
1.5319496393203735 -2.3171584606170654 0.239678293466568 117
1.5710257291793823 -2.377164840698242 0.14732570946216583 117
2.564526081085205 -3.881932258605957 0.08054284751415253 116
1.0576368570327759 -1.6045995950698853 -0.504697322845459 119
1.2218818664550781 -1.8544893264770508 -0.5038906931877136 119
1.457322120666504 -2.212664842605591 -0.507096529006958 119
1.8187860250473022 -2.76252818107605 -0.5177984833717346 119
2.0290353298187256 -3.0830445289611816 -0.44847968220710754 115
2.186443328857422 -3.3234827518463135 -0.34470149874687195 116
2.171969413757324 -3.302737236022949 -0.20447425544261932 116
2.3607420921325684 -3.591153621673584 -0.07360444217920303 116
3.060662031173706 -4.6576409339904785 1.4820671081542969 109
3.062321424484253 -4.661938667297363 1.2778799533843994 109
3.059887409210205 -4.660005569458008 1.075196385383606 109
3.069683790206909 -4.676703453063965 0.8789741396903992 109
1.4965676069259644 -2.2809081077575684 0.33026590943336487 117
1.5179829597473145 -2.314427614212036 0.23880673944950104 117
1.5705153942108154 -2.3954339027404785 0.1481107473373413 117
2.542060136795044 -3.8787622451782227 0.08028106391429901 116
1.0520292520523071 -1.6082817316055298 -0.504697322845459 119
1.210068702697754 -1.850588083267212 -0.5016411542892456 119
1.452275037765503 -2.2218470573425293 -0.508049726486206 119
1.811833143234253 -2.77299427986145 -0.5185806751251221 119
2.012833595275879 -3.081798553466797 -0.4472609758377075 115
2.1693828105926514 -3.322753429412842 -0.3438299298286438 115
2.157698392868042 -3.306117057800293 -0.2042134553194046 115
2.342729091644287 -3.590998411178589 -0.07343167066574097 116
3.0602147579193115 -4.692569255828857 1.4898265600204468 109
3.059333086013794 -4.693006992340088 1.2834994792938232 109
3.059680938720703 -4.695332050323486 1.0809155702590942 109
3.0668179988861084 -4.708080768585205 0.882880687713623 109
1.4831808805465698 -2.2778007984161377 0.32904723286628723 117
1.5071775913238525 -2.315537691116333 0.23837095499038696 117
1.5675904750823975 -2.4092721939086914 0.14863410592079163 117
2.5230536460876465 -3.879229784011841 0.08010653406381607 116
1.0464088916778564 -1.6119441986083984 -0.504697322845459 119
1.2009494304656982 -1.850713849067688 -0.5005163550376892 119
1.4445104598999023 -2.226902961730957 -0.508049726486206 119
1.8021425008773804 -2.779301881790161 -0.5185806751251221 119
1.9993648529052734 -3.084641456604004 -0.4466516375541687 115
2.1523540019989014 -3.3219451904296875 -0.34295839071273804 115
2.1298587322235107 -3.288483142852783 -0.2026485949754715 116
2.3247458934783936 -3.5907609462738037 -0.0732588842511177 116
3.0569369792938232 -4.723496913909912 1.4962928295135498 109
3.0588107109069824 -4.728201389312744 1.2902427911758423 109
3.0565989017486572 -4.726591110229492 1.085681438446045 109
3.0664515495300293 -4.7436418533325195 0.8875685334205627 109
1.4725271463394165 -2.2787957191467285 0.328437864780426 117
1.493680477142334 -2.3124165534973145 0.23749940097332 117
1.5672966241836548 -2.4273135662078857 0.1494191586971283 117
2.504075050354004 -3.879612922668457 0.07993201911449432 116
1.0407758951187134 -1.6155869960784912 -0.504697322845459 119
1.1918443441390991 -1.8507988452911377 -0.4993916451931 119
1.4367284774780273 -2.231931686401367 -0.508049726486206 119
1.8031190633773804 -2.80218768119812 -0.5217093825340271 119
1.9778465032577515 -3.074906587600708 -0.44421425461769104 115
2.1380512714385986 -3.3252482414245605 -0.34252259135246277 115
2.1156668663024902 -3.2916970252990723 -0.20238777995109558 115
2.31219744682312 -3.598853826522827 -0.0732588842511177 116
3.053480386734009 -4.754458427429199 1.5027590990066528 109
3.055448055267334 -4.759349346160889 1.2958624362945557 109
3.0559871196746826 -4.762016773223877 1.0914006233215332 109
3.0632071495056152 -4.7751007080078125 0.8914750814437866 109
1.4618849754333496 -2.2797446250915527 0.3278285264968872 115
1.482911467552185 -2.313422918319702 0.23706363141536713 117
1.566895604133606 -2.4453821182250977 0.15020418167114258 117
2.4851245880126953 -3.879910469055176 0.07975748926401138 116
1.0377312898635864 -1.623279333114624 -0.5059914588928223 119
1.182753086090088 -1.8508424758911133 -0.49826687574386597 119
1.4289287328720093 -2.2369332313537598 -0.508049726486206 119
1.769406795501709 -2.7710041999816895 -0.5146698355674744 119
1.9564203023910522 -3.065058946609497 -0.4417768716812134 115
2.1237518787384033 -3.3284924030303955 -0.3420868217945099 115
2.1014788150787354 -3.2948524951934814 -0.20212697982788086 115
2.2888710498809814 -3.590041399002075 -0.07291332632303238 115
3.0524399280548096 -4.789525985717773 1.5105185508728027 109
3.054522752761841 -4.794640064239502 1.3026058673858643 109
3.0525286197662354 -4.793355941772461 1.0961666107177734 109
3.0624325275421143 -4.810760974884033 0.8961629271507263 109
1.4512540102005005 -2.280646562576294 0.327219158411026 115
1.472153663635254 -2.314382314682007 0.23662783205509186 117
1.5637081861495972 -2.459263563156128 0.1507275402545929 117
2.4635210037231445 -3.8759043216705322 0.07949570566415787 116
1.0320587158203125 -1.626891851425171 -0.5059914588928223 119
1.1788944005966187 -1.859074354171753 -0.4993916451931 119
1.4211117029190063 -2.2419073581695557 -0.508049726486206 119
1.7200747728347778 -2.7145910263061523 -0.5029371976852417 119
1.951020359992981 -3.080254316329956 -0.4429955780506134 115
nan nan nan 0
nan nan nan 0
2.270979881286621 -3.58955979347229 -0.07274054735898972 115
3.0486106872558594 -4.82056188583374 1.5169848203659058 109
3.0533878803253174 -4.829981803894043 1.3093491792678833 109
3.0515100955963135 -4.8288774490356445 1.1018856763839722 109
3.05617094039917 -4.838122844696045 0.8992881774902344 109
1.437984824180603 -2.277306079864502 0.32600048184394836 115
1.4614075422286987 -2.3152949810028076 0.23619207739830017 117
1.5631076097488403 -2.4773755073547363 0.15151259303092957 117
2.449976682662964 -3.8844799995422363 0.07949570566415787 116
1.0263735055923462 -1.6304844617843628 -0.5059914588928223 119
1.1749924421310425 -1.8673012256622314 -0.5005163550376892 119
1.413277268409729 -2.246854305267334 -0.508049726486206 119
1.6475006341934204 -2.620241403579712 -0.4841650724411011 119
nan nan nan 0
1.6022955179214478 -2.550320863723755 -0.26016029715538025 119
2.067802906036377 -3.292529344558716 -0.20108374953269958 115
nan nan nan 0
3.0471689701080322 -4.855720520019531 1.5247443914413452 109
3.0520436763763428 -4.8653740882873535 1.3160927295684814 109
3.050280809402466 -4.864449977874756 1.1076048612594604 109
3.049755811691284 -4.865499496459961 0.9024134874343872 109
1.427391767501831 -2.278106212615967 0.32539111375808716 115
1.4480289220809937 -2.3119397163391113 0.23532050848007202 117
1.5623993873596191 -2.4955132007598877 0.15229761600494385 117
nan nan nan 0
1.020675778388977 -1.6340571641921997 -0.5059914588928223 119
1.1684670448303223 -1.8713912963867188 -0.5005163550376892 119
1.4054256677627563 -2.2517738342285156 -0.508049726486206 119
1.6200459003448486 -2.5966475009918213 -0.47868984937667847 119
1.6405898332595825 -2.6305978298187256 -0.3759673535823822 119
1.606558918952942 -2.5770325660705566 -0.26233920454978943 119
nan nan nan 0
1.5744720697402954 -2.5275280475616455 -0.05079743266105652 117
3.045518636703491 -4.890927314758301 1.5325038433074951 109
3.0479142665863037 -4.896678924560547 1.3217121362686157 109
3.048840045928955 -4.90007209777832 1.1133239269256592 109
3.043186902999878 -4.892889976501465 0.9055386781692505 109
1.4168106317520142 -2.278860330581665 0.32478177547454834 115
1.4373204708099365 -2.312749147415161 0.23488472402095795 115
1.5615835189819336 -2.5136756896972656 0.15308266878128052 117
1.5788486003875732 -2.542457103729248 0.05157185718417168 117
1.0149656534194946 -1.6376100778579712 -0.5059914588928223 119
1.1644935607910156 -1.8796002864837646 -0.5016411542892456 119
1.3975569009780884 -2.2566659450531006 -0.508049726486206 119
1.6499632596969604 -2.665271043777466 -0.49042245745658875 119
1.6653461456298828 -2.691169261932373 -0.383888840675354 119
nan nan nan 0
1.5904675722122192 -2.5721731185913086 -0.15596379339694977 117
1.5708966255187988 -2.541513442993164 -0.05097021907567978 117
3.0436596870422363 -4.926181793212891 1.5402634143829346 109
3.046164035797119 -4.932159900665283 1.3284555673599243 109
3.0471878051757812 -4.935743808746338 1.1190431118011475 109
3.031276226043701 -4.911888122558594 0.9071012735366821 109
1.406241774559021 -2.2795681953430176 0.3241724371910095 115
1.4266244173049927 -2.3135128021240234 0.23444895446300507 115
1.5606597661972046 -2.531862735748291 0.1538676917552948 117
1.5647192001342773 -2.539440631866455 0.05139733478426933 117
1.009243130683899 -1.6411430835723877 -0.5059914588928223 119
1.1579254865646362 -1.8836537599563599 -0.5016411542892456 119
1.3896713256835938 -2.261530637741089 -0.508049726486206 119
1.6742510795593262 -2.7257180213928223 -0.5005906820297241 119
nan nan nan 0
nan nan nan 0
1.5710346698760986 -2.5606849193573 -0.1549205482006073 117
1.5672426223754883 -2.55550479888916 -0.05114299803972244 117
3.0415914058685303 -4.961482048034668 1.5480228662490845 109
3.044203042984009 -4.967687606811523 1.3351991176605225 109
3.0453238487243652 -4.971464157104492 1.1247621774673462 109
3.047638177871704 -4.977191925048828 0.9172583222389221 109
1.3930944204330444 -2.2759976387023926 0.3229537308216095 115
1.4133409261703491 -2.309980869293213 0.23357738554477692 115
1.5596281290054321 -2.5500741004943848 0.15465274453163147 117
nan nan nan 0
1.0035083293914795 -1.6446559429168701 -0.5059914588928223 119
1.1513431072235107 -1.8876841068267822 -0.5016411542892456 119
1.3817685842514038 -2.2663679122924805 -0.508049726486206 119
1.7032768726348877 -2.7948009967803955 -0.512323260307312 119
1.8556543588638306 -3.0460238456726074 -0.433245986700058 115
2.0250821113586426 -3.325442314147949 -0.33729323744773865 115
nan nan nan 0
2.169006824493408 -3.5645859241485596 -0.07144469022750854 115
3.039314031600952 -4.996828079223633 1.555782437324524 109
3.0420305728912354 -5.003261089324951 1.3419424295425415 109
3.0432469844818115 -5.007229804992676 1.1304813623428345 109
3.0481951236724854 -5.0173444747924805 0.9227274656295776 109
1.3825651407241821 -2.276604652404785 0.3223443925380707 115
1.4026843309402466 -2.310642719268799 0.23314161598682404 115
1.558488130569458 -2.5683088302612305 0.15543778240680695 117
2.3455121517181396 -3.8668060302734375 0.07827404141426086 116
0.9977613687515259 -1.648148775100708 -0.5059914588928223 119
1.144747018814087 -1.8916916847229004 -0.5016411542892456 119
1.3738490343093872 -2.271177053451538 -0.508049726486206 119
1.7088426351547241 -2.826085090637207 -0.5170162916183472 119
1.8552790880203247 -3.069471597671509 -0.43568336963653564 115
2.0134615898132324 -3.332490921020508 -0.33729323744773865 115
1.9842114448547363 -3.285374164581299 -0.198475643992424 115
2.1617188453674316 -3.580695390701294 -0.0716174766421318 115
3.0393216609954834 -5.03635311126709 1.5648351907730103 109
3.039647102355957 -5.038880348205566 1.3486859798431396 109
3.04095721244812 -5.043041706085205 1.1362004280090332 109
3.051058292388916 -5.061790943145752 0.9289779663085938 109
1.3720487356185913 -2.2771661281585693 0.32173505425453186 115
1.3894702196121216 -2.3069911003112793 0.23227006196975708 115
1.5572396516799927 -2.586566209793091 0.15622282028198242 117
2.332000255584717 -3.874969720840454 0.07827404141426086 116
0.9920021295547485 -1.651621699333191 -0.5059914588928223 119
1.1381367444992065 -1.8956760168075562 -0.5016411542892456 119
1.3659127950668335 -2.275959014892578 -0.508049726486206 119
1.698967456817627 -2.8320329189300537 -0.5170162916183472 119
1.8394486904144287 -3.0674169063568115 -0.434464693069458 115
1.999255895614624 -3.3352270126342773 -0.33685746788978577 115
1.9701648950576782 -3.2879974842071533 -0.1982148438692093 115
2.144068717956543 -3.579641580581665 -0.07144469022750854 115
3.036609172821045 -5.0717949867248535 1.5725947618484497 109
3.0370514392852783 -5.07454252243042 1.3554292917251587 109
3.038454294204712 -5.0788984298706055 1.1419196128845215 109
3.0511138439178467 -5.102080821990967 0.934447169303894 109
1.3615453243255615 -2.277682065963745 0.32112571597099304 115
1.3788537979125977 -2.307551383972168 0.2318342626094818 115
1.5558828115463257 -2.604846477508545 0.1570078730583191 117
2.3133342266082764 -3.8745014667510986 0.07809951156377792 116
0.9837586283683777 -1.6509253978729248 -0.504697322845459 119
1.1315126419067383 -1.899637222290039 -0.5016411542892456 119
1.3579598665237427 -2.2807130813598633 -0.508049726486206 119
1.684019923210144 -2.829458713531494 -0.515451967716217 119
1.826192855834961 -3.069554090499878 -0.4338553547859192 115
1.9825094938278198 -3.333622932434082 -0.3359858989715576 115
1.956124186515808 -3.290562391281128 -0.19795402884483337 116
2.1290066242218018 -3.58280611038208 -0.07135830819606781 115
3.0336861610412598 -5.107278823852539 1.5803542137145996 109
3.036731243133545 -5.114438056945801 1.3632967472076416 109
3.035737991333008 -5.114798545837402 1.1476386785507202 109
3.0484049320220947 -5.13818359375 0.9391350150108337 109
1.3510550260543823 -2.2781519889831543 0.32051634788513184 115
1.3682507276535034 -2.30806565284729 0.23139849305152893 115
1.5544170141220093 -2.623148202896118 0.15779289603233337 117
2.2972474098205566 -3.878251075744629 0.07801225036382675 116
0.9779898524284363 -1.6543493270874023 -0.504697322845459 119
1.122727632522583 -1.899185061454773 -0.5005163550376892 119
1.3503893613815308 -2.285203695297241 -0.508049726486206 119
1.6746279001235962 -2.8350276947021484 -0.515451967716217 119
1.8109571933746338 -3.0670461654663086 -0.43263664841651917 115
1.9638487100601196 -3.327310085296631 -0.3346785604953766 116
1.9401271343231201 -3.2884299755096436 -0.19743241369724274 116
2.112034559249878 -3.5812339782714844 -0.07118552178144455 115
3.0314502716064453 -5.142274856567383 1.588113784790039 109
3.034595251083374 -5.149664878845215 1.3700400590896606 109
3.0337069034576416 -5.150211811065674 1.1533578634262085 109
3.04638409614563 -5.173798084259033 0.9438229203224182 109
1.3384584188461304 -2.274066209793091 0.3192976713180542 115
1.3580635786056519 -2.3082971572875977 0.23096270859241486 115
1.5558346509933472 -2.6455044746398926 0.158839613199234 117
2.276773452758789 -3.8729188442230225 0.07775046676397324 116
0.9724984169006348 -1.6575833559036255 -0.504697322845459 119
1.1160913705825806 -1.9030925035476685 -0.5005163550376892 119
1.3424041271209717 -2.2899036407470703 -0.508049726486206 119
1.6622247695922852 -2.836595296859741 -0.5146698355674744 119
1.7977319955825806 -3.0690665245056152 -0.43202728033065796 115
1.9446717500686646 -3.3212497234344482 -0.33337122201919556 116
1.9235920906066895 -3.2865638732910156 -0.1969107985496521 116
2.0944724082946777 -3.5799548625946045 -0.07101274281740189 115
3.0305492877960205 -5.182009696960449 1.5971664190292358 109
3.0338125228881836 -5.18966817855835 1.377907395362854 109
3.033045530319214 -5.19043493270874 1.1600302457809448 109
3.043250799179077 -5.209986686706543 0.9485107064247131 109
1.328009843826294 -2.2744386196136475 0.3186883330345154 115
1.3474870920181274 -2.3087217807769775 0.23052693903446198 115
1.5541391372680664 -2.663857936859131 0.15962466597557068 117
2.2582035064697266 -3.8722054958343506 0.0775759369134903 116
0.9667064547538757 -1.6609678268432617 -0.504697322845459 119
1.1073238849639893 -1.902572751045227 -0.4993916451931 119
1.3348033428192139 -2.294342517852783 -0.508049726486206 119
1.6503264904022217 -2.837822675704956 -0.5138876438140869 119
1.7850505113601685 -3.070720911026001 -0.43141797184944153 115
1.9261400699615479 -3.314760446548462 -0.3320638835430145 116
1.9076670408248901 -3.2842891216278076 -0.19638918340206146 116
2.077568769454956 -3.5782337188720703 -0.07083996385335922 115
3.027894973754883 -5.217094898223877 1.6049259901046753 109
3.0312554836273193 -5.224985599517822 1.3846508264541626 109
3.030590534210205 -5.225940704345703 1.1657493114471436 109
3.0408174991607666 -5.245685577392578 0.9531986117362976 109
1.317972183227539 -2.2745361328125 0.3180789649486542 115
1.339823603630066 -2.3131775856018066 0.23052693903446198 115
1.5528024435043335 -2.681960344314575 0.16040968894958496 117
2.240342378616333 -3.8710193634033203 0.07740142196416855 116
0.9611931443214417 -1.664164423942566 -0.504697322845459 119
1.1031116247177124 -1.9106453657150269 -0.5005163550376892 119
1.3267863988876343 -2.298987865447998 -0.508049726486206 119
1.6354750394821167 -2.835010528564453 -0.512323260307312 119
1.7693626880645752 -3.0683348178863525 -0.4301992654800415 115
1.9120700359344482 -3.317148208618164 -0.33162811398506165 116
1.8936983346939087 -3.2866017818450928 -0.19612836837768555 116
2.060075283050537 -3.5767998695373535 -0.07066717743873596 115
3.02653431892395 -5.256932735443115 1.6139787435531616 109
3.0300092697143555 -5.265093803405762 1.392518162727356 109
3.0294625759124756 -5.266269683837891 1.1724216938018799 109
3.037259101867676 -5.281955242156982 0.9578864574432373 109
1.3075515031814575 -2.274820327758789 0.31746962666511536 115
1.3292595148086548 -2.313521385192871 0.2300911545753479 115
1.5508915185928345 -2.7003538608551025 0.16119474172592163 117
2.2218382358551025 -3.8701446056365967 0.07722689211368561 116
0.9550872445106506 -1.6676762104034424 -0.504697322845459 119
1.0961014032363892 -1.9146755933761597 -0.5005163550376892 119
1.3183512687683105 -2.303835391998291 -0.508049726486206 119
1.6226212978363037 -2.8366992473602295 -0.5115411281585693 119
1.7556413412094116 -3.070491075515747 -0.4295898973941803 115
1.892484426498413 -3.3111608028411865 -0.3303207755088806 116
1.874208688735962 -3.2805140018463135 -0.195345938205719 116
2.0444726943969727 -3.5799851417541504 -0.07058079540729523 116
3.024007558822632 -5.297352313995361 1.6230316162109375 109
3.025179624557495 -5.301553726196289 1.3992615938186646 109
3.0247316360473633 -5.302918434143066 1.1781407594680786 109
3.0325562953948975 -5.318793773651123 0.962574303150177 109
1.294290542602539 -2.2709741592407227 0.3162509500980377 115
1.3158400058746338 -2.3097221851348877 0.22921960055828094 115
1.5508673191070557 -2.7233755588531494 0.16224145889282227 117
2.2076382637023926 -3.8782620429992676 0.07722689211368561 116
0.9516456723213196 -1.675199270248413 -0.5059914588928223 119
1.0894112586975098 -1.9184900522232056 -0.5005163550376892 119
1.3103013038635254 -2.3084232807159424 -0.508049726486206 119
1.612709403038025 -2.842345952987671 -0.5115411281585693 119
1.7375677824020386 -3.063650369644165 -0.42776188254356384 115
1.8735450506210327 -3.3047471046447754 -0.3290134370326996 116
1.8578225374221802 -3.2783477306365967 -0.19482432305812836 116
nan nan nan 0
3.0197768211364746 -5.33309268951416 1.6307910680770874 109
3.023453950881958 -5.341760635375977 1.407128930091858 109
3.020704507827759 -5.339076519012451 1.183859944343567 109
3.030989408493042 -5.359437942504883 0.9680434465408325 109
1.283913016319275 -2.27115797996521 0.3156415820121765 115
1.30531907081604 -2.309964656829834 0.22878383100032806 115
1.5487186908721924 -2.7418153285980225 0.16302649676799774 117
nan nan nan 0
0.9457923173904419 -1.6785109043121338 -0.5059914588928223 119
1.0827078819274902 -1.9222811460494995 -0.5005163550376892 119
1.30223548412323 -2.3129827976226807 -0.508049726486206 119
1.6027779579162598 -2.8479580879211426 -0.5115411281585693 119
1.6927982568740845 -3.0091426372528076 -0.41923099756240845 115
1.649596929550171 -2.9335455894470215 -0.2911006212234497 115
1.846367597579956 -3.2848129272460938 -0.19482432305812836 116
2.007185935974121 -3.572378635406494 -0.07014884054660797 115
3.017698049545288 -5.373078346252441 1.6398438215255737 109
3.019099712371826 -5.377772331237793 1.413872480392456 109
3.0188634395599365 -5.379550933837891 1.1905322074890137 109
3.024343490600586 -5.391521453857422 0.9719500541687012 109
1.273550271987915 -2.271296977996826 0.3150322437286377 115
1.2923771142959595 -2.305816888809204 0.2279122769832611 115
1.5489006042480469 -2.7646288871765137 0.16407321393489838 117
2.1682960987091064 -3.8717708587646484 0.07679058611392975 116
0.9399274587631226 -1.6818021535873413 -0.5059914588928223 119
1.0783673524856567 -1.9303021430969238 -0.5016411542892456 119
1.2941536903381348 -2.317514419555664 -0.508049726486206 119
1.5952339172363281 -2.8578476905822754 -0.512323260307312 119
nan nan nan 0
nan nan nan 0
1.645240306854248 -2.9510629177093506 -0.17448122799396515 115
1.5688235759735107 -2.8151497840881348 -0.05503055453300476 117
3.0153768062591553 -5.413115501403809 1.64889657497406 109
3.0169005393981934 -5.418075084686279 1.4217396974563599 109
3.0143892765045166 -5.415788650512695 1.196251392364502 109
3.007906436920166 -5.406361103057861 0.972731351852417 109
1.26320219039917 -2.2713916301727295 0.3144228756427765 115
1.279480218887329 -2.301607131958008 0.22704072296619415 115
1.5513672828674316 -2.791841506958008 0.16538161039352417 117
1.562459111213684 -2.8129587173461914 0.055498648434877396 117
0.9340511560440063 -1.685072898864746 -0.5059914588928223 119
1.073983907699585 -1.9383158683776855 -0.5027658939361572 119
1.2860561609268188 -2.3220179080963135 -0.508049726486206 119
1.5852484703063965 -2.863398551940918 -0.512323260307312 119
1.6597346067428589 -2.999176263809204 -0.41618427634239197 115
1.7568610906600952 -3.1759941577911377 -0.31419694423675537 115
1.5696923732757568 -2.838806629180908 -0.16743938624858856 117
1.563823938369751 -2.829359769821167 -0.05520333722233772 117
3.012813091278076 -5.4532012939453125 1.6579493284225464 109
3.0144567489624023 -5.4584269523620605 1.4296070337295532 109
3.012071132659912 -5.456357002258301 1.2029236555099487 109
nan nan nan 0
1.250472068786621 -2.2670960426330566 0.31320419907569885 115
1.2666285037994385 -2.297335624694824 0.226169154047966 115
1.5464324951171875 -2.805985689163208 0.1659049689769745 117
1.5574549436569214 -2.827152967453003 0.05567317083477974 117
0.9281635284423828 -1.6883230209350586 -0.5059914588928223 119
1.0695576667785645 -1.9463227987289429 -0.5038906931877136 119
1.2779430150985718 -2.3264927864074707 -0.508049726486206 119
1.5776206254959106 -2.873243570327759 -0.5131054520606995 119
1.6611943244934082 -3.0267043113708496 -0.41923099756240845 115
1.7936798334121704 -3.26944637298584 -0.3229125142097473 115
1.6534087657928467 -3.0150136947631836 -0.17761093378067017 115
nan nan nan 0
3.01232647895813 -5.497569561004639 1.6682953834533691 109
3.011767864227295 -5.498827934265137 1.4374744892120361 109
3.0071487426757812 -5.492669105529785 1.2086427211761475 109
nan nan nan 0
1.2377874851226807 -2.262739658355713 0.31198549270629883 115
1.2538222074508667 -2.2930023670196533 0.22529760003089905 115
1.5414179563522339 -2.820129632949829 0.1664283275604248 117
2.101266384124756 -3.846005439758301 0.07583069801330566 116
0.9222645163536072 -1.6915526390075684 -0.5059914588928223 119
1.0650885105133057 -1.9543219804763794 -0.5050153732299805 119
1.2698142528533936 -2.330939531326294 -0.508049726486206 119
1.565219759941101 -2.8743958473205566 -0.512323260307312 119
1.6648545265197754 -3.058637857437134 -0.4228871166706085 115
1.791778564453125 -3.2931888103485107 -0.3246556520462036 115
1.747841238975525 -3.2137703895568848 -0.18908652663230896 115
1.930846929550171 -3.551741361618042 -0.06919854879379272 115
3.009260416030884 -5.537757396697998 1.6773481369018555 109
3.0111591815948486 -5.543557643890381 1.4464656114578247 109
3.0066936016082764 -5.53764009475708 1.2162681818008423 109
1.217311143875122 -2.242941379547119 0.3976869285106659 115
1.220415472984314 -2.2495977878570557 0.30954810976982117 115
1.2386871576309204 -2.284229278564453 0.22399026155471802 115
1.5363233089447021 -2.8342723846435547 0.16695168614387512 117
2.0830655097961426 -3.8445262908935547 0.07565618306398392 116
0.916354238986969 -1.6947616338729858 -0.5059914588928223 119
1.0605766773223877 -1.9623140096664429 -0.5061401724815369 119
1.2593368291854858 -2.3310391902923584 -0.507096529006958 119
1.5504835844039917 -2.8711514472961426 -0.5107589364051819 119
1.6518104076385498 -3.060063362121582 -0.4222777485847473 115
1.7802722454071045 -3.2994232177734375 -0.3246556520462036 115
1.765055775642395 -3.2725887298583984 -0.19221623241901398 115
1.9231818914413452 -3.567260503768921 -0.06937132775783539 115
3.005950927734375 -5.577991008758545 1.6864008903503418 109
3.0079636573791504 -5.584059238433838 1.454332947731018 109
3.0059614181518555 -5.582675933837891 1.2238937616348267 109
1.2071338891983032 -2.242828607559204 0.39690566062927246 115
1.2031505107879639 -2.2363624572753906 0.3071107268333435 115
1.2259879112243652 -2.2797651290893555 0.22311870753765106 115
nan nan nan 0
2.0743651390075684 -3.860581159591675 0.07583069801330566 116
0.9104328155517578 -1.697950005531311 -0.5059914588928223 119
1.056021809577942 -1.9702980518341064 -0.5072649121284485 119
1.2442387342453003 -2.322441577911377 -0.5042369961738586 119
1.5474461317062378 -2.889606475830078 -0.5131054520606995 119
nan nan nan 0
1.7687443494796753 -3.305617332458496 -0.3246556520462036 115
1.7536215782165527 -3.2787299156188965 -0.19221623241901398 115
1.9107182025909424 -3.5739517211914062 -0.06937132775783539 116
3.0046730041503906 -5.622527122497559 1.6967469453811646 109
3.0068178176879883 -5.628904342651367 1.4633241891860962 109
3.004951000213623 -5.627772808074951 1.231519341468811 109
1.2039483785629272 -2.255742311477661 0.3984682559967041 115
1.1883288621902466 -2.2274129390716553 0.30528268218040466 115
1.2133350372314453 -2.275240659713745 0.2222471386194229 115
1.2229046821594238 -2.2941501140594482 0.1342417299747467 115
2.058525800704956 -3.863386392593384 0.07574343681335449 116
0.9067676663398743 -1.7053818702697754 -0.5072855353355408 119
1.0514243841171265 -1.9782743453979492 -0.5083897113800049 119
1.2315187454223633 -2.318101406097412 -0.5023306012153625 119
nan nan nan 0
nan nan nan 0
1.1945594549179077 -2.2513768672943115 -0.2196328192949295 115
1.7374869585037231 -3.2760088443756104 -0.19169461727142334 115
nan nan nan 0
3.000858783721924 -5.6628546714782715 1.7057996988296509 109
3.003114700317383 -5.669503211975098 1.471191644668579 109
3.003661870956421 -5.672929763793945 1.2391448020935059 109
1.1914466619491577 -2.2512011528015137 0.39690566062927246 115
1.1712638139724731 -2.214000701904297 0.302845299243927 115
1.2007285356521606 -2.270655632019043 0.22137558460235596 115
1.2125556468963623 -2.29399037361145 0.13398003578186035 115
2.0426924228668213 -3.866128921508789 0.07565618306398392 116
0.9008092880249023 -1.7085367441177368 -0.5072855353355408 119
1.0467838048934937 -1.9862421751022339 -0.5095144510269165 119
1.2165565490722656 -2.3093581199645996 -0.4994710087776184 119
1.2143081426620483 -2.3060660362243652 -0.40672993659973145 0
1.2197883129119873 -2.3174545764923096 -0.3168606460094452 115
1.198289394378662 -2.277573585510254 -0.2218116968870163 115
nan nan nan 0
1.1669312715530396 -2.219851493835449 -0.04267675802111626 115
2.999046564102173 -5.707499980926514 1.716145634651184 109
3.001430034637451 -5.714458465576172 1.4801828861236572 109
3.002094030380249 -5.718146324157715 1.2467702627182007 109
1.1835812330245972 -2.2553462982177734 0.39690566062927246 115
1.1658337116241455 -2.222470283508301 0.3034546673297882 115
1.1904821395874023 -2.2704217433929443 0.22093980014324188 115
1.2022228240966797 -2.2937862873077393 0.1337183564901352 115
1.1684671640396118 -2.2303285598754883 0.04328196495771408 115
0.894839882850647 -1.7116707563400269 -0.5072855353355408 119
1.0421005487442017 -1.9942020177841187 -0.5106391906738281 119
1.2153053283691406 -2.3266425132751465 -0.5023306012153625 119
1.2108222246170044 -2.3190457820892334 -0.40829429030418396 0
1.2070993185043335 -2.312899112701416 -0.31564193964004517 115
1.1903319358825684 -2.2817423343658447 -0.2218116968870163 115
1.1881921291351318 -2.2786102294921875 -0.13223016262054443 115
1.186903953552246 -2.277109384536743 -0.043713439255952835 115
2.9969587326049805 -5.752200126647949 1.7264916896820068 109
2.9972174167633057 -5.755147933959961 1.488050103187561 109
3.00024676322937 -5.763420104980469 1.254395842552185 109
1.175701379776001 -2.2594640254974365 0.39690566062927246 115
1.1603586673736572 -2.230929136276245 0.30406397581100464 115
1.1802520751953125 -2.27014422416687 0.220504030585289 115
1.1942087411880493 -2.297968864440918 0.1337183564901352 115
1.1675881147384644 -2.2477028369903564 0.043543748557567596 115
0.8888595700263977 -1.714783787727356 -0.5072855353355408 119
1.032891869544983 -1.9935016632080078 -0.5095144510269165 119
1.2116910219192505 -2.3395872116088867 -0.5042369961738586 119
nan nan nan 0
nan nan nan 0
nan nan nan 0
1.1779378652572632 -2.278308629989624 -0.1319693624973297 115
1.1904243230819702 -2.3034446239471436 -0.04414539039134979 115
2.9945952892303467 -5.796955585479736 1.7368377447128296 109
2.99499249458313 -5.800207138061523 1.4970413446426392 109
2.998120069503784 -5.808750629425049 1.2620213031768799 109
1.1678073406219482 -2.263554334640503 0.39690566062927246 115
1.152564287185669 -2.2349660396575928 0.30406397581100464 115
1.1700383424758911 -2.269822835922241 0.22006824612617493 115
1.183893084526062 -2.297684907913208 0.13345667719841003 115
1.159735083580017 -2.2517645359039307 0.043543748557567596 115
0.8828684687614441 -1.7178760766983032 -0.5072855353355408 119
1.0259268283843994 -1.997094988822937 -0.5095144510269165 119
1.205759048461914 -2.3481688499450684 -0.5051901340484619 119
1.510310173034668 -2.9425342082977295 -0.5177984833717346 119
nan nan nan 0
1.6971464157104492 -3.309390068054199 -0.32204097509384155 115
1.6665222644805908 -3.2510712146759033 -0.18882571160793304 115
1.8320952653884888 -3.5756101608276367 -0.06876660138368607 116
2.991955518722534 -5.841763973236084 1.7471836805343628 109
2.9924893379211426 -5.845320224761963 1.5060325860977173 109
2.9957127571105957 -5.854135990142822 1.2696467638015747 109
1.1598988771438599 -2.2676169872283936 0.39690566062927246 115
1.1447557210922241 -2.2389755249023438 0.30406397581100464 115
1.1598414182662964 -2.269458055496216 0.21963247656822205 115
1.1758654117584229 -2.3018035888671875 0.13345667719841003 115
nan nan nan 0
0.8771669268608093 -1.7207943201065063 -0.5072855353355408 119
1.0174353122711182 -1.9959678649902344 -0.5083897113800049 119
1.2028326988220215 -2.360692024230957 -0.507096529006958 0
1.52122962474823 -2.9868698120117188 -0.5248380899429321 119
1.5528687238693237 -3.0503082275390625 -0.41557490825653076 115
1.6867413520812988 -3.3147053718566895 -0.32204097509384155 115
1.6744104623794556 -3.2918949127197266 -0.1909121870994568 115
1.809524416923523 -3.5590662956237793 -0.06833464652299881 116
2.9910941123962402 -5.885581016540527 1.757529854774475 109
2.991763114929199 -5.889442443847656 1.5150238275527954 109
2.995084524154663 -5.898530006408691 1.277272343635559 109
1.1594746112823486 -2.28446102142334 0.3992495536804199 115
1.1377160549163818 -2.242560863494873 0.30406397581100464 115
1.1572115421295166 -2.281975269317627 0.220504030585289 115
1.1663707494735718 -2.301032543182373 0.13319499790668488 115
nan nan nan 0
0.871455729007721 -1.723693609237671 -0.5072855353355408 119
1.008264422416687 -1.9951587915420532 -0.5072649121284485 119
1.1967982053756714 -2.3692574501037598 -0.508049726486206 0
1.521923542022705 -3.0142033100128174 -0.5287489295005798 119
1.5287954807281494 -3.029127359390259 -0.41191884875297546 115
1.614586591720581 -3.200500965118408 -0.3102749288082123 115
1.6651577949523926 -3.302178144454956 -0.1911730021238327 115
1.788089394569397 -3.54750394821167 -0.06798908859491348 115
2.9879164695739746 -5.930492401123047 1.7678757905960083 109
2.988718032836914 -5.9346604347229 1.5240150690078735 109
2.9921319484710693 -5.944022178649902 1.284897804260254 109
1.1581525802612305 -2.301729202270508 0.40159350633621216 115
1.1343408823013306 -2.255385637283325 0.30528268218040466 115
1.1470015048980713 -2.281550407409668 0.22006824612617493 115
1.1583316326141357 -2.3050899505615234 0.13319499790668488 115
nan nan nan 0
0.867295503616333 -1.7311941385269165 -0.5085796117782593 119
1.0009450912475586 -1.9988410472869873 -0.5072649121284485 119
1.1903032064437866 -2.378016948699951 -0.5090028643608093 0
1.4998172521591187 -2.997678756713867 -0.5248380899429321 119
1.5176829099655151 -3.03471040725708 -0.41191884875297546 115
1.589482307434082 -3.1796650886535645 -0.3076602518558502 115
1.5793923139572144 -3.160860061645508 -0.182566300034523 117
1.567333698272705 -3.138096570968628 -0.059954799711704254 117
2.9855761528015137 -5.980295181274414 1.779515027999878 109
2.9843497276306152 -5.980450630187988 1.5330063104629517 109
2.9878528118133545 -5.990086555480957 1.2925232648849487 109
1.1541157960891724 -2.31479811668396 0.4031561315059662 115
1.1437755823135376 -2.2950618267059326 0.31015744805336 115
1.1497362852096558 -2.3080313205718994 0.2222471386194229 115
1.1476496458053589 -2.3048501014709473 0.13293331861495972 115
1.1998591423034668 -2.4107582569122314 0.046336136758327484 115
0.861247181892395 -1.7342110872268677 -0.5085796117782593 119
0.9939616918563843 -2.0023226737976074 -0.5072649121284485 119
1.181995153427124 -2.382157564163208 -0.5090028643608093 0
1.500315546989441 -3.0250167846679688 -0.5287489295005798 119
1.5092848539352417 -3.044435739517212 -0.4125281870365143 115
1.6270287036895752 -3.283381462097168 -0.3172473907470703 115
1.5550518035888672 -3.13950777053833 -0.1810014545917511 117
1.5852060317993164 -3.2017910480499268 -0.061077866703271866 115
2.981820821762085 -6.02531099319458 1.7898612022399902 109
2.9828977584838867 -6.030134677886963 1.5431214570999146 109
2.9843292236328125 -6.035678863525391 1.300148844718933 109
nan nan nan 0
1.1445496082305908 -2.316837787628174 0.31259486079216003 115
1.1504942178726196 -2.329895257949829 0.22399026155471802 115
1.1484370231628418 -2.326751947402954 0.13398003578186035 115
1.1781654357910156 -2.3880321979522705 0.045812565833330154 115
0.8551884293556213 -1.7372068166732788 -0.5085796117782593 119
0.9869662523269653 -2.005779981613159 -0.5072649121284485 119
1.1736726760864258 -2.3862688541412354 -0.5090028643608093 0
1.5006412267684937 -3.0523946285247803 -0.5326597690582275 119
1.5074036121368408 -3.0675017833709717 -0.41496556997299194 115
1.630929708480835 -3.320336103439331 -0.32029783725738525 115
1.5836944580078125 -3.2255945205688477 -0.18569600582122803 115
1.7281951904296875 -3.5214602947235107 -0.06712518632411957 115
2.9799141883850098 -6.074708461761475 1.8015003204345703 109
2.978989839553833 -6.07550573348999 1.5521126985549927 109
2.9826836585998535 -6.085725784301758 1.308727502822876 109
1.5290088653564453 -3.1210949420928955 0.5437920093536377 117
1.1473679542541504 -2.343104362487793 0.3156415820121765 115
1.1511132717132568 -2.351792097091675 0.22573336958885193 115
1.1468912363052368 -2.3442022800445557 0.13476508855819702 115
1.169822335243225 -2.392130136489868 0.045812565833330154 115
0.849119246006012 -1.7401814460754395 -0.5085796117782593 119
0.9799587726593018 -2.0092129707336426 -0.5072649121284485 119
1.1631851196289062 -2.385939598083496 -0.508049726486206 0
1.500793695449829 -3.0798110961914062 -0.5365706086158752 119
1.5032063722610474 -3.0861294269561768 -0.4167936146259308 115
1.612788438796997 -3.3125739097595215 -0.3189904987812042 115
1.5855351686477661 -3.2580416202545166 -0.18726086616516113 115
1.7312002182006836 -3.5589404106140137 -0.06772991269826889 115
2.9755871295928955 -6.1198225021362305 1.811846375465393 109
2.976931095123291 -6.125304698944092 1.5622278451919556 109
2.9785802364349365 -6.131419658660889 1.3163529634475708 109
1.5288907289505005 -3.1486258506774902 0.5476985573768616 117
1.1500167846679688 -2.3694183826446533 0.3186883330345154 115
1.1515936851501465 -2.3737215995788574 0.22747647762298584 115
1.1452374458312988 -2.3616695404052734 0.1355501264333725 115
1.157104253768921 -2.3872017860412598 0.04563803970813751 115
0.8451424241065979 -1.7474826574325562 -0.5098737478256226 119
0.9729393124580383 -2.0126214027404785 -0.5072649121284485 119
1.1548495292663574 -2.3899853229522705 -0.508049726486206 0
1.5007730722427368 -3.1072657108306885 -0.5404815077781677 115
1.5010548830032349 -3.1092348098754883 -0.41923099756240845 117
1.590391993522644 -3.2957534790039062 -0.31681162118911743 115
1.5784913301467896 -3.2725510597229004 -0.18778248131275177 115
1.7165955305099487 -3.5604586601257324 -0.06764352321624756 115
2.9730780124664307 -6.169330596923828 1.8234856128692627 109
2.9745607376098633 -6.175163269042969 1.5723429918289185 109
2.976323127746582 -6.181581020355225 1.3249317407608032 109
1.5264571905136108 -3.171743631362915 0.5508237481117249 117
1.1503443717956543 -2.3913068771362305 0.32112571597099304 115
1.1519346237182617 -2.3956830501556396 0.22921960055828094 115
1.1434756517410278 -2.3791539669036865 0.13633516430854797 115
1.1444345712661743 -2.382213830947876 0.04546351730823517 115
0.8390374779701233 -1.7504220008850098 -0.5098737478256226 119
0.9659080505371094 -2.016005516052246 -0.5072649121284485 119
1.144379734992981 -2.3895747661590576 -0.507096529006958 0
1.5005789995193481 -3.1347572803497314 -0.5443924069404602 115
1.498760461807251 -3.132362127304077 -0.4216684103012085 117
1.5745797157287598 -3.292297840118408 -0.3159400522708893 115
1.5584441423416138 -3.260021209716797 -0.1867392510175705 115
1.704156756401062 -3.5664288997650146 -0.06764352321624756 115
2.970259189605713 -6.218894958496094 1.8351248502731323 109
2.9718782901763916 -6.22507905960083 1.5824581384658813 109
2.973752021789551 -6.231800556182861 1.333510398864746 109
1.5281330347061157 -3.2037973403930664 0.5555116534233093 117
1.1419901847839355 -2.395307779312134 0.32112571597099304 115
1.1521363258361816 -2.417675495147705 0.23096270859241486 115
1.1416056156158447 -2.3966543674468994 0.13712020218372345 115
1.1382611989974976 -2.3907079696655273 0.04555077850818634 115
0.8308498859405518 -1.748977780342102 -0.5085796117782593 119
0.9609547853469849 -2.023765802383423 -0.5083897113800049 119
1.1360316276550293 -2.393554925918579 -0.507096529006958 0
1.4980944395065308 -3.1578238010406494 -0.5475211143493652 115
1.4984490871429443 -3.1599953174591064 -0.424715131521225 117
1.5588111877441406 -3.2887721061706543 -0.3150685131549835 115
1.549193024635315 -3.269953966140747 -0.1870000660419464 117
nan nan nan 0
2.967130422592163 -6.268515586853027 1.8467642068862915 109
2.968883752822876 -6.275051116943359 1.5925732851028442 109
2.9708662033081055 -6.282077312469482 1.3420891761779785 109
