# .PCD v0.7 - Point Cloud Data file format
VERSION 0.7
FIELDS x y z intensity
SIZE 4 4 4 4
TYPE F F F F
COUNT 1 1 1 1
WIDTH 801
HEIGHT 1
VIEWPOINT 0 0 0 1 0 0 0
POINTS 801
DATA ascii
3.1599128246307373 -2.415935516357422 -0.06807547062635422 109
3.1608808040618896 -2.4175500869750977 1.0552937984466553 109
3.1568470001220703 -2.4153382778167725 0.9081152081489563 109
3.1485066413879395 -2.4098284244537354 0.7625506520271301 109
3.1555535793304443 -2.41609525680542 0.6227043271064758 109
3.1585941314697266 -2.4192981719970703 0.4838212728500366 109
3.161761999130249 -2.422600030899048 0.34513673186302185 109
3.1650285720825195 -2.4259798526763916 0.20698869228363037 109
3.156526803970337 -2.4203379154205322 0.06876247376203537 109
1.5202277898788452 -1.1677770614624023 -0.5034032464027405 119
1.7339245080947876 -1.332411289215088 -0.49601736664772034 119
2.061640739440918 -1.584812879562378 -0.4975646436214447 119
2.5357797145843506 -1.949994444847107 -0.5005906820297241 119
3.196789026260376 -2.459193468093872 -0.49052467942237854 0
3.1606285572052 -2.4322543144226074 -0.3455730378627777 109
3.1599693298339844 -2.4326255321502686 -0.20629991590976715 109
3.1593821048736572 -2.433051586151123 -0.06824825704097748 109
3.1600749492645264 -2.4344639778137207 1.0578802824020386 109
3.1561145782470703 -2.43229079246521 0.910362958908081 109
3.1478500366210938 -2.426797389984131 0.7644569873809814 109
3.154921770095825 -2.4331274032592773 0.6242669224739075 109
3.154059410095215 -2.433340311050415 0.48443061113357544 109
3.161172866821289 -2.4397084712982178 0.34600830078125 109
3.164445638656616 -2.4431159496307373 0.2075120508670807 109
3.1559722423553467 -2.437453269958496 0.06893699616193771 109
1.5161422491073608 -1.1730763912200928 -0.5034032464027405 119
1.7331156730651855 -1.341437816619873 -0.49714213609695435 119
2.0638580322265625 -1.5980095863342285 -0.4994710087776184 119
2.5367660522460938 -1.9648823738098145 -0.502155065536499 119
3.196030855178833 -2.4764163494110107 -0.4917433559894562 109
3.1599926948547363 -2.4493753910064697 -0.34644460678100586 109
3.159350633621216 -2.4497604370117188 -0.20682154595851898 109
3.1587700843811035 -2.450193166732788 -0.06842103600502014 109
3.1591897010803223 -2.451401710510254 1.0604668855667114 109
3.1553022861480713 -2.449268102645874 0.9126108288764954 109
3.147113561630249 -2.4437918663024902 0.7663633823394775 109
3.154209613800049 -2.4501845836639404 0.6258296370506287 109
3.153383493423462 -2.450425386428833 0.48564931750297546 109
3.1605024337768555 -2.4568421840667725 0.34687986969947815 109
3.1677234172821045 -2.4633424282073975 0.20829710364341736 109
3.155336618423462 -2.454594135284424 0.06911152601242065 109
1.5082287788391113 -1.1753928661346436 -0.502109169960022 119
1.7245802879333496 -1.344483733177185 -0.49601736664772034 119
2.046656370162964 -1.5961487293243408 -0.49661147594451904 119
2.5065298080444336 -1.9554990530014038 -0.4974619746208191 119
3.1951918601989746 -2.493664503097534 -0.4929620623588562 109
3.1553497314453125 -2.463456153869629 -0.34688040614128113 109
3.1586503982543945 -2.4669206142425537 -0.20734316110610962 109
3.1580772399902344 -2.467360258102417 -0.0685938149690628 109
3.158224582672119 -2.4683632850646973 1.0630533695220947 109
3.158247947692871 -2.4692697525024414 0.9159824848175049 109
3.1462960243225098 -2.4608097076416016 0.7682697176933289 109
3.153416395187378 -2.467266321182251 0.6273921728134155 109
3.14871883392334 -2.4644768238067627 0.4862586557865143 109
3.1597509384155273 -2.474000930786133 0.3477514088153839 109
3.1669671535491943 -2.4805426597595215 0.20882046222686768 109
3.1546196937561035 -2.4717600345611572 0.069286048412323 109
1.5003176927566528 -1.1776683330535889 -0.5008150935173035 119
nan nan nan 0
2.056511640548706 -1.6154109239578247 -0.5004242062568665 119
2.526870012283325 -1.9855955839157104 -0.5029371976852417 119
3.1942710876464844 -2.5109362602233887 -0.49418073892593384 109
3.154562473297119 -2.4806132316589355 -0.3477519452571869 109
3.1578691005706787 -2.4841055870056152 -0.20786477625370026 109
3.1573028564453125 -2.4845521450042725 -0.06876660138368607 109
3.1571788787841797 -2.485347270965576 1.065639853477478 109
3.1572651863098145 -2.4863076210021973 0.9182303547859192 109
3.1453986167907715 -2.4778523445129395 0.7701761722564697 109
3.152543067932129 -2.48437237739563 0.6289548277854919 109
3.1478915214538574 -2.481597661972046 0.4874773621559143 109
3.1589179039001465 -2.4911842346191406 0.34862297773361206 109
3.1661293506622314 -2.497767448425293 0.209343820810318 109
3.1538212299346924 -2.488950729370117 0.06946057826280594 109
1.4961977005004883 -1.1828982830047607 -0.5008150935173035 119
nan nan nan 0
nan nan nan 0
2.5083062648773193 -1.9852094650268555 -0.5005906820297241 119
3.193268299102783 -2.5282320976257324 -0.49539944529533386 109
3.153693199157715 -2.4977946281433105 -0.34862351417541504 109
3.157006025314331 -2.501314878463745 -0.2083863914012909 109
3.1564464569091797 -2.5017685890197754 -0.06893938034772873 109
3.1560535430908203 -2.502354145050049 1.0682263374328613 109
3.156200885772705 -2.503368377685547 0.920478105545044 109
3.1482648849487305 -2.497968912124634 0.7730357050895691 109
3.151587963104248 -2.501502275466919 0.6305174231529236 109
3.1469826698303223 -2.4987423419952393 0.48869603872299194 109
3.158003091812134 -2.5083913803100586 0.3494945168495178 109
3.1652097702026367 -2.515016555786133 0.20986716449260712 109
3.1529407501220703 -2.5061657428741455 0.06963510066270828 109
1.4845032691955566 -1.1820968389511108 -0.4982268810272217 119
nan nan nan 0
nan nan nan 0
nan nan nan 0
3.1921839714050293 -2.5455515384674072 -0.4966181218624115 109
3.152742624282837 -2.5149998664855957 -0.3494950532913208 109
3.1560614109039307 -2.5185487270355225 -0.20890802145004272 109
3.155508518218994 -2.5190093517303467 -0.06911215931177139 109
3.1548476219177246 -2.519383192062378 1.0708128213882446 109
3.1550567150115967 -2.5204522609710693 0.9227259755134583 109
3.1471951007843018 -2.5150716304779053 0.7749421000480652 109
3.1505517959594727 -2.518655776977539 0.632080078125 109
3.149869203567505 -2.5190110206604004 0.4905241131782532 109
3.1570072174072266 -2.525622844696045 0.35036608576774597 109
3.164208173751831 -2.532289981842041 0.21039053797721863 109
3.1519789695739746 -2.523405075073242 0.06980962306261063 109
1.4766002893447876 -1.184249758720398 -0.4969327747821808 119
nan nan nan 0
nan nan nan 0
nan nan nan 0
3.1910176277160645 -2.562894344329834 -0.4978368282318115 109
3.1517105102539062 -2.5322296619415283 -0.35036662220954895 109
3.155034303665161 -2.535806179046631 -0.20942962169647217 109
3.1544885635375977 -2.536273717880249 -0.06928493827581406 109
3.1535613536834717 -2.5364344120025635 1.0733994245529175 109
3.1538310050964355 -2.5375583171844482 0.924973726272583 109
3.146043539047241 -2.5321972370147705 0.7768484354019165 109
3.1494340896606445 -2.535832166671753 0.6336426734924316 109
3.1487865447998047 -2.5362164974212646 0.4917427599430084 109
3.1559293270111084 -2.5428781509399414 0.35123762488365173 109
3.1592373847961426 -2.5464532375335693 0.2106522172689438 109
3.1509342193603516 -2.540667772293091 0.06998414546251297 109
1.4687004089355469 -1.1863621473312378 -0.4956386983394623 119
nan nan nan 0
2.0070364475250244 -1.6223680973052979 -0.4937518835067749 119
2.529620885848999 -2.0455241203308105 -0.5091946125030518 119
3.193626880645752 -2.583380699157715 -0.49966487288475037 109
3.1505961418151855 -2.5494818687438965 -0.3512381613254547 109
3.153925657272339 -2.5530874729156494 -0.209951251745224 109
3.1533865928649902 -2.5535619258880615 -0.06945771723985672 109
3.1521942615509033 -2.5535073280334473 1.0759857892990112 109
3.152524948120117 -2.554687023162842 0.9272215962409973 109
3.1448113918304443 -2.5493454933166504 0.7787548899650574 109
3.1482350826263428 -2.5530314445495605 0.6352053284645081 109
3.147622585296631 -2.553445816040039 0.49296149611473083 109
3.154768943786621 -2.5601563453674316 0.3521091938018799 109
3.154205560684204 -2.5606119632720947 0.21091388165950775 109
3.153689384460449 -2.5611064434051514 0.07024593651294708 109
nan nan nan 0
nan nan nan 0
2.001361131668091 -1.629364013671875 -0.4937518835067749 119
2.4765148162841797 -2.016918897628784 -0.49980852007865906 119
3.1922852993011475 -2.6007821559906006 -0.5008835792541504 109
3.149399757385254 -2.5667576789855957 -0.35210976004600525 109
3.1527342796325684 -2.5703911781311035 -0.21047286689281464 109
3.148327589035034 -2.5677132606506348 -0.06954411417245865 109
3.1507461071014404 -2.57060170173645 1.078572392463684 109
3.147362470626831 -2.568756103515625 0.9283455014228821 109
3.1434969902038574 -2.5665154457092285 0.7806611657142639 109
3.146953821182251 -2.570253372192383 0.6367679238319397 109
3.150219678878784 -2.5738372802734375 0.4947895109653473 109
3.1573829650878906 -2.580609083175659 0.3534165322780609 109
3.152979850769043 -2.577928066253662 0.21143725514411926 109
3.1524691581726074 -2.5784289836883545 0.07042045146226883 109
nan nan nan 0
nan nan nan 0
nan nan nan 0
2.5000054836273193 -2.0506064891815186 -0.5060659050941467 119
3.1908600330352783 -2.6182053089141846 -0.502102255821228 109
3.148120880126953 -2.5840556621551514 -0.3529812693595886 109
3.151461124420166 -2.5877182483673096 -0.21099449694156647 109
3.147071599960327 -2.585033655166626 -0.06971688568592072 109
3.149216890335083 -2.5877163410186768 1.0811588764190674 109
3.145904064178467 -2.585914134979248 0.9305932521820068 109
3.142102003097534 -2.583707809448242 0.7825676202774048 109
3.1455910205841064 -2.5874972343444824 0.6383305788040161 109
3.1488797664642334 -2.5911242961883545 0.4960081875324249 109
3.1560473442077637 -2.5979459285736084 0.35428810119628906 109
3.151670455932617 -2.595266342163086 0.2119605988264084 109
3.151167154312134 -2.5957746505737305 0.07059498131275177 109
nan nan nan 0
1.705153226852417 -1.4076204299926758 -0.5016411542892456 119
nan nan nan 0
2.4471445083618164 -2.021577835083008 -0.4966798424720764 119
3.189352512359619 -2.635650157928467 -0.5033209919929504 109
3.1467599868774414 -2.60137677192688 -0.35385286808013916 109
3.150104522705078 -2.605067014694214 -0.2115160971879959 109
3.1495845317840576 -2.605563163757324 -0.06997605413198471 109
3.1476073265075684 -2.6048526763916016 1.0837453603744507 109
3.144364356994629 -2.6030936241149902 0.9328411221504211 109
3.1406242847442627 -2.600921154022217 0.7844739556312561 109
3.1441457271575928 -2.6047630310058594 0.639893114566803 109
3.147458553314209 -2.608433723449707 0.49722689390182495 109
3.1584632396698 -2.6184840202331543 0.3555954396724701 109
3.1541225910186768 -2.615814447402954 0.21274566650390625 109
3.1536293029785156 -2.6163344383239746 0.07085676491260529 109
nan nan nan 0
1.6927369832992554 -1.4073346853256226 -0.4993916451931 119
nan nan nan 0
2.4666473865509033 -2.0522172451019287 -0.502155065536499 119
3.1839470863342285 -2.6499414443969727 -0.5039302706718445 109
3.149143934249878 -2.62190580368042 -0.3551601767539978 109
3.148665428161621 -2.6224381923675537 -0.21203772723674774 109
3.1481523513793945 -2.622941493988037 -0.07014884054660797 109
3.1459152698516846 -2.6220080852508545 1.086331844329834 109
3.142742395401001 -2.620293140411377 0.9350888729095459 109
3.1390647888183594 -2.6181559562683105 0.7863803505897522 109
3.142618417739868 -2.6220500469207764 0.6414558291435242 109
3.145954132080078 -2.6257646083831787 0.4984455704689026 109
3.1569507122039795 -2.635877847671509 0.35646697878837585 109
3.1564693450927734 -2.63641095161438 0.21353068947792053 109
3.1521499156951904 -2.633737325668335 0.07103128731250763 109
nan nan nan 0
1.6878139972686768 -1.413234829902649 -0.4993916451931 119
nan nan nan 0
nan nan nan 0
3.1822845935821533 -2.6674158573150635 -0.5051490068435669 109
3.147606134414673 -2.6392831802368164 -0.35603177547454834 109
3.1471433639526367 -2.6398308277130127 -0.21255932748317719 109
3.146636486053467 -2.640341281890869 -0.07032161951065063 109
3.1441428661346436 -2.6391842365264893 1.0889184474945068 109
3.1447699069976807 -2.640646457672119 0.9384605884552002 109
3.137423276901245 -2.635411262512207 0.7882866859436035 109
3.141008138656616 -2.639357566833496 0.643018364906311 109
3.144366979598999 -2.6431164741516113 0.4996642768383026 109
3.1591672897338867 -2.656498670578003 0.3577743470668793 109
3.154888868331909 -2.653841018676758 0.21405403316020966 109
3.150587797164917 -2.6511623859405518 0.07120581716299057 109
nan nan nan 0
1.67914617061615 -1.4159770011901855 -0.49826687574386597 119
2.0026333332061768 -1.6893630027770996 -0.5013774037361145 119
nan nan nan 0
3.1767466068267822 -2.681709051132202 -0.5057583451271057 0
3.1459851264953613 -2.656681537628174 -0.3569033145904541 109
3.145538091659546 -2.6572446823120117 -0.21308095753192902 109
3.145037889480591 -2.6577630043029785 -0.0704943984746933 109
3.1422877311706543 -2.656379222869873 1.0915048122406006 109
3.1429738998413086 -2.657899856567383 0.9407084584236145 109
3.135699510574341 -2.6526870727539062 0.7901930809020996 109
3.1393160820007324 -2.656686544418335 0.6445810198783875 109
3.142697334289551 -2.660489559173584 0.5008829832077026 109
3.1574771404266357 -2.673947811126709 0.35864585638046265 109
3.1570358276367188 -2.674520254135132 0.21483910083770752 109
3.148942232131958 -2.6686079502105713 0.07138033211231232 109
nan nan nan 0
1.689046859741211 -1.4344443082809448 -0.5027658939361572 119
1.9892430305480957 -1.6899874210357666 -0.4994710087776184 119
nan nan nan 0
3.1749279499053955 -2.6992101669311523 -0.5069770216941833 0
3.1442816257476807 -2.6741013526916504 -0.35777488350868225 109
3.1438496112823486 -2.6746795177459717 -0.21360257267951965 109
3.14335560798645 -2.6752049922943115 -0.07066717743873596 109
3.144028902053833 -2.676724672317505 1.0953847169876099 109
3.141094923019409 -2.6751725673675537 0.9429562091827393 109
3.137629270553589 -2.673165798187256 0.7930526733398438 109
3.14129900932312 -2.677238702774048 0.6469249725341797 109
3.144721031188965 -2.681102752685547 0.5027110576629639 109
3.1557037830352783 -2.691417694091797 0.3595174551010132 109
3.155277729034424 -2.6920056343078613 0.21536244451999664 109
3.1472132205963135 -2.6860744953155518 0.07155486196279526 109
nan nan nan 0
1.6729223728179932 -1.430831789970398 -0.4993916451931 119
1.9609546661376953 -1.677775263786316 -0.4937518835067749 119
nan nan nan 0
3.1692564487457275 -2.7135040760040283 -0.5075863599777222 0
3.142493724822998 -2.6915407180786133 -0.358646422624588 109
3.1420774459838867 -2.6921350955963135 -0.21412420272827148 109
3.1453857421875 -2.6959214210510254 -0.07092635333538055 109
3.1419994831085205 -2.6939706802368164 1.0979710817337036 109
3.139133930206299 -2.6924643516540527 0.9452040791511536 109
3.1357293128967285 -2.6904945373535156 0.7949590682983398 109
3.139429807662964 -2.6946210861206055 0.6484876275062561 109
3.1428730487823486 -2.698529005050659 0.5039296746253967 109
3.150068521499634 -2.705662488937378 0.35995322465896606 109
3.149648904800415 -2.7062573432922363 0.2156241238117218 109
3.145400285720825 -2.7035610675811768 0.0717293918132782 109
nan nan nan 0
1.682682991027832 -1.4493807554244995 -0.5038906931877136 119
1.9997063875198364 -1.7230571508407593 -0.5051901340484619 119
nan nan nan 0
3.1672821044921875 -2.731031656265259 -0.5088050365447998 0
3.144394874572754 -2.712254047393799 -0.35995379090309143 109
3.1402220726013184 -2.7096107006073 -0.21464580297470093 109
3.143524646759033 -2.7134175300598145 -0.07109913229942322 109
3.139888048171997 -2.7112350463867188 1.1005576848983765 109
3.1370904445648193 -2.709775447845459 0.9474518299102783 109
3.133746385574341 -2.7078418731689453 0.7968654036521912 109
3.1412131786346436 -2.7152516841888428 0.6508315205574036 109
3.140942335128784 -2.715975522994995 0.5051484107971191 109
3.148138999938965 -2.723158836364746 0.3608247637748718 109
3.1477348804473877 -2.7237699031829834 0.2161474972963333 109
3.143503427505493 -2.7210679054260254 0.07190390676259995 109
nan nan nan 0
nan nan nan 0
1.9714367389678955 -1.7107256650924683 -0.4994710087776184 119
nan nan nan 0
3.165224075317383 -2.7485790252685547 -0.5100237727165222 0
3.142428398132324 -2.729745864868164 -0.3608253300189972 109
3.1420516967773438 -2.7303812503814697 -0.21542824804782867 109
3.141580104827881 -2.730933904647827 -0.07127191126346588 109
3.14133882522583 -2.73168683052063 1.1044374704360962 109
3.1386399269104004 -2.730302095413208 0.9508236050605774 109
3.135382890701294 -2.7284302711486816 0.7997249364852905 109
3.1391661167144775 -2.7326853275299072 0.6523941159248352 109
3.138927936553955 -2.73344087600708 0.5063670873641968 109
3.1423702239990234 -2.737403154373169 0.3612605631351471 109
3.1419718265533447 -2.738020658493042 0.21640916168689728 109
3.1415228843688965 -2.7385942935943604 0.07207843661308289 109
1.4441226720809937 -1.2606765031814575 -0.5034032464027405 119
1.6583527326583862 -1.447693109512329 -0.4993916451931 119
1.9734468460083008 -1.723367691040039 -0.5013774037361145 119
2.4016311168670654 -2.0980308055877686 -0.4990263283252716 119
3.1640472412109375 -2.765040159225464 -0.5112424492835999 0
3.1413373947143555 -2.746161460876465 -0.36169689893722534 109
3.1409754753112793 -2.746812343597412 -0.21594984829425812 109
3.140510320663452 -2.747373104095459 -0.07144469022750854 109
3.140010356903076 -2.747903347015381 1.10702383518219 109
3.137378692626953 -2.7465672492980957 0.9530713558197021 109
3.134181261062622 -2.744734525680542 0.8016313314437866 109
3.1379950046539307 -2.749042272567749 0.6539567708969116 109
3.137789726257324 -2.7498302459716797 0.5075858235359192 109
3.1412456035614014 -2.753828525543213 0.36213210225105286 109
3.1408629417419434 -2.754462957382202 0.2169325351715088 109
3.1404197216033936 -2.7550439834594727 0.07225295901298523 109
nan nan nan 0
1.6349945068359375 -1.4373892545700073 -0.4937678575515747 119
1.9600474834442139 -1.7237628698349 -0.4994710087776184 119
2.412832021713257 -2.122711181640625 -0.5029371976852417 119
3.1618270874023438 -2.782625436782837 -0.5124611854553223 0
3.139209508895874 -2.763692855834961 -0.3625684380531311 109
3.1388628482818604 -2.764360189437866 -0.21647147834300995 109
3.1384036540985107 -2.7649283409118652 -0.0716174766421318 109
3.141270160675049 -2.768427848815918 1.1109037399291992 109
3.1387364864349365 -2.7671682834625244 0.9564431309700012 109
3.1319432258605957 -2.762151002883911 0.8035376667976379 109
3.135786294937134 -2.7665133476257324 0.6555193066596985 109
3.135613441467285 -2.767334222793579 0.508804440498352 109
3.1390817165374756 -2.7713699340820312 0.363003671169281 109
3.138713836669922 -2.772020101547241 0.2174558788537979 109
3.138277053833008 -2.7726094722747803 0.07242748886346817 109
1.4352864027023315 -1.270727515220642 -0.5034032464027405 119
1.64065682888031 -1.4530625343322754 -0.49714213609695435 119
1.953716516494751 -1.7309353351593018 -0.4994710087776184 119
2.4013400077819824 -2.128264904022217 -0.502155065536499 119
3.155320882797241 -2.79748797416687 -0.5130705237388611 0
3.1402385234832764 -2.78509521484375 -0.36387577652931213 109
3.1361796855926514 -2.78247332572937 -0.21699309349060059 109
3.13946533203125 -2.786367893218994 -0.0718766450881958 109
3.141937017440796 -2.7895421981811523 1.1147834062576294 109
3.1358582973480225 -2.7851240634918213 0.958690881729126 109
3.1328065395355225 -2.7833919525146484 0.8063973188400269 109
3.136699914932251 -2.7878308296203613 0.6578633189201355 109
3.1365761756896973 -2.788700580596924 0.5106325149536133 109
3.1363465785980225 -2.7894768714904785 0.36387521028518677 109
3.1397242546081543 -2.7934625148773193 0.21824093163013458 109
3.139296770095825 -2.7940642833709717 0.07268927246332169 109
1.434446930885315 -1.2789440155029297 -0.504697322845459 119
1.628303050994873 -1.4522950649261475 -0.4948926270008087 119
1.9476624727249146 -1.7377445697784424 -0.4994710087776184 119
2.397580623626709 -2.1399223804473877 -0.5029371976852417 119
3.156641960144043 -2.8184006214141846 -0.5148985385894775 0
3.137927532196045 -2.802675724029541 -0.3647473454475403 109
3.1338951587677 -2.800057888031006 -0.21751472353935242 109
3.1371750831604004 -2.8039729595184326 -0.07204942405223846 109
3.1393818855285645 -2.806931257247925 1.1173698902130127 109
3.1370112895965576 -2.8057973384857178 0.9620625972747803 109
3.1303870677948 -2.800855875015259 0.8083036541938782 109
3.1343088150024414 -2.805349826812744 0.6594259142875671 109
3.1342170238494873 -2.80625319480896 0.5118511915206909 109
3.1377217769622803 -2.810377836227417 0.3651825785636902 109
3.1373913288116455 -2.8110690116882324 0.2187642902135849 109
3.136970043182373 -2.811678647994995 0.07286378741264343 109
1.4227864742279053 -1.2774900197982788 -0.502109169960022 119
1.6340968608856201 -1.4677363634109497 -0.49826687574386597 119
1.941584825515747 -1.744532585144043 -0.4994710087776184 119
2.3900961875915527 -2.1482784748077393 -0.5029371976852417 119
3.157855749130249 -2.8393566608428955 -0.516726553440094 0
3.1355316638946533 -2.8202738761901855 -0.36561888456344604 109
3.1315252780914307 -2.817659378051758 -0.21803632378578186 109
3.1347997188568115 -2.8215954303741455 -0.07222220301628113 109
3.1403324604034424 -2.827568292617798 1.1212496757507324 109
3.1344385147094727 -2.823251485824585 0.9643104672431946 109
3.1278843879699707 -2.8183374404907227 0.8102100491523743 109
3.135502815246582 -2.826193332672119 0.6617698669433594 109
3.1354596614837646 -2.827146530151367 0.5136792063713074 109
3.1352896690368652 -2.8279857635498047 0.36605411767959595 109
3.134974241256714 -2.8286936283111572 0.21928764879703522 109
3.1345584392547607 -2.829310894012451 0.07303831726312637 109
1.4219008684158325 -1.2856879234313965 -0.5034032464027405 119
1.632576823234558 -1.476699709892273 -0.4993916451931 119
1.935483455657959 -1.7512993812561035 -0.4994710087776184 119
2.382582902908325 -2.1566085815429688 -0.5029371976852417 119
3.16264009475708 -2.8636860847473145 -0.519163966178894 0
3.133051633834839 -2.8378899097442627 -0.3664904534816742 109
3.1327712535858154 -2.8386313915252686 -0.21881873905658722 109
3.1360433101654053 -2.842593193054199 -0.07248137146234512 109
3.137598991394043 -2.845000982284546 1.1238361597061157 109
3.131781816482544 -2.8407223224639893 0.9665582180023193 109
3.1252970695495605 -2.8358347415924072 0.8121163845062256 109
3.1329314708709717 -2.843759298324585 0.663332462310791 109
3.132920026779175 -2.8447461128234863 0.5148979425430298 109
3.136460065841675 -2.848959445953369 0.3673614263534546 109
3.132472038269043 -2.8463351726531982 0.21981100738048553 109
3.135761260986328 -2.85032320022583 0.07330010086297989 109
1.4138333797454834 -1.2873917818069458 -0.502109169960022 119
1.62741219997406 -1.4823895692825317 -0.4993916451931 119
1.9293583631515503 -1.758044719696045 -0.4994710087776184 119
2.3750405311584473 -2.164912223815918 -0.5029371976852417 119
3.1636264324188232 -2.8847403526306152 -0.5209920406341553 0
3.130486249923706 -2.8555221557617188 -0.36736199259757996 109
3.130220651626587 -2.856281042098999 -0.21934036910533905 109
3.13348650932312 -2.8602635860443115 -0.07265415787696838 109
3.1347827911376953 -2.862449884414673 1.1264227628707886 109
3.132638454437256 -2.861494779586792 0.9699299931526184 109
3.1262495517730713 -2.8566598892211914 0.8149760365486145 109
3.1339216232299805 -2.8646740913391113 0.6656763553619385 109
3.130295991897583 -2.862362861633301 0.5161166787147522 109
3.1375224590301514 -2.86997652053833 0.368668794631958 109
3.133568286895752 -2.8673641681671143 0.22059603035449982 109
3.1331677436828613 -2.8680026531219482 0.07347463071346283 109
1.405771255493164 -1.2890551090240479 -0.5008150935173035 119
1.6222277879714966 -1.4880611896514893 -0.4993916451931 119
1.9232099056243896 -1.7647687196731567 -0.4994710087776184 119
2.36746883392334 -2.173189401626587 -0.5029371976852417 119
3.164503335952759 -2.9058353900909424 -0.5228200554847717 0
3.127835988998413 -2.87317156791687 -0.3682335913181305 109
3.127584218978882 -2.8739469051361084 -0.2198619842529297 109
3.1345245838165283 -2.881333589553833 -0.07291332632303238 109
3.135437250137329 -2.8831822872161865 1.1303024291992188 109
3.1298022270202637 -2.8790087699890137 0.9721777439117432 109
3.1234824657440186 -2.874202251434326 0.8168823719024658 109
3.1311700344085693 -2.8822855949401855 0.6672390103340149 109
3.131237506866455 -2.883357524871826 0.5179446935653687 109
3.134812116622925 -2.887660264968872 0.36954033374786377 109
3.1308841705322266 -2.88505220413208 0.22111940383911133 109
3.134165048599243 -2.889087200164795 0.07373641431331635 109
1.4012631177902222 -1.2939541339874268 -0.5008150935173035 119
1.6134448051452637 -1.4904087781906128 -0.49826687574386597 119
1.9170379638671875 -1.7714712619781494 -0.4994710087776184 119
2.3598687648773193 -2.1814401149749756 -0.5029371976852417 119
3.157984733581543 -2.9202332496643066 -0.5234294533729553 0
3.1287567615509033 -2.894219160079956 -0.36954089999198914 109
3.124863386154175 -2.891629695892334 -0.22038359940052032 109
3.1317853927612305 -2.899049997329712 -0.07308610528707504 109
3.132441997528076 -2.9006729125976562 1.1328890323638916 109
3.13045597076416 -2.8998489379882812 0.9755494594573975 109
3.1242313385009766 -2.8950963020324707 0.8197419047355652 109
3.13195538520813 -2.9032700061798096 0.6695829629898071 109
3.1284313201904297 -2.9010183811187744 0.5191633701324463 109
3.1356685161590576 -2.908747673034668 0.3708477020263672 109
3.131774663925171 -2.9061527252197266 0.2219044417142868 109
3.1313889026641846 -2.9068119525909424 0.07391094416379929 109
1.3967376947402954 -1.298837661743164 -0.5008150935173035 119
1.6082323789596558 -1.496031641960144 -0.49826687574386597 119
1.910842776298523 -1.7781521081924438 -0.4994710087776184 119
2.3558545112609863 -2.1930291652679443 -0.5037193894386292 119
3.1514034271240234 -2.9346206188201904 -0.5240387320518494 0
3.125924587249756 -2.9119131565093994 -0.3704124689102173 109
3.118403196334839 -2.90592360496521 -0.22064441442489624 109
3.128960132598877 -2.9167816638946533 -0.0732588842511177 109
3.129361867904663 -2.918177366256714 1.1354753971099854 109
3.1274397373199463 -2.917405366897583 0.977797269821167 109
3.121283531188965 -2.9126815795898438 0.8216482996940613 109
3.13263201713562 -2.9242947101593018 0.6719268560409546 109
3.1291675567626953 -2.9220826625823975 0.5209914445877075 109
3.13277530670166 -2.926475763320923 0.37171924114227295 109
3.1289074420928955 -2.9238853454589844 0.22242781519889832 109
3.1321794986724854 -2.927967071533203 0.0741727277636528 109
1.392195463180542 -1.3037053346633911 -0.5008150935173035 119
1.6030006408691406 -1.5016363859176636 -0.49826687574386597 119
1.904624104499817 -1.7848114967346191 -0.4994710087776184 119
2.348184823989868 -2.2012391090393066 -0.5037193894386292 119
3.1447606086730957 -2.948997974395752 -0.5246480703353882 0
3.1266393661499023 -2.933030366897583 -0.3717198073863983 109
3.111882209777832 -2.920208215713501 -0.22090522944927216 109
3.129694700241089 -2.93795108795166 -0.0735180601477623 109
3.1261980533599854 -2.9356954097747803 1.1380620002746582 109
3.127890110015869 -2.9383115768432617 0.9811689853668213 109
3.1218278408050537 -2.933642625808716 0.8245078325271606 109
3.1296021938323975 -2.9419772624969482 0.673489511013031 109
3.129794120788574 -2.9431867599487305 0.522819459438324 109
3.1297972202301025 -2.9442191123962402 0.3725908100605011 109
3.1295909881591797 -2.945054769515991 0.2232128381729126 109
3.1292197704315186 -2.945735454559326 0.07434724271297455 109
1.3876361846923828 -1.3085570335388184 -0.5008150935173035 119
1.59774911403656 -1.5072227716445923 -0.49826687574386597 119
1.894812822341919 -1.7880804538726807 -0.49851784110069275 119
2.340486764907837 -2.2094223499298096 -0.5037193894386292 119
3.1380560398101807 -2.963364601135254 -0.5252574682235718 0
3.127244472503662 -2.9541878700256348 -0.37302714586257935 109
3.0980403423309326 -2.9276232719421387 -0.22064441442489624 109
3.126685857772827 -2.955726146697998 -0.07369083911180496 109
3.1264593601226807 -2.95654559135437 1.141941785812378 109
3.1246931552886963 -2.95590877532959 0.9834168553352356 109
3.118698835372925 -2.9512696266174316 0.8264142870903015 109
3.130072832107544 -2.9630684852600098 0.6758334040641785 109
3.1303117275238037 -2.9643311500549316 0.5246474742889404 109
3.1267330646514893 -2.961977481842041 0.37346234917640686 109
3.130164623260498 -2.9662647247314453 0.22399787604808807 109
3.1261744499206543 -2.96351957321167 0.07452177256345749 109
1.383060097694397 -1.3133928775787354 -0.5008150935173035 119
1.5924781560897827 -1.5127907991409302 -0.49826687574386597 119
1.8921175003051758 -1.7980644702911377 -0.4994710087776184 119
2.3363394737243652 -2.2209813594818115 -0.5045015811920166 119
3.131288766860962 -2.977720260620117 -0.5258668065071106 0
3.124131202697754 -2.971952438354492 -0.3738987147808075 109
3.116739273071289 -2.965956687927246 -0.22273088991641998 109
3.127211809158325 -2.9769628047943115 -0.07395000755786896 109
3.123115301132202 -2.974102258682251 1.1445281505584717 109
3.12493896484375 -2.976879119873047 0.9867885112762451 109
3.1190378665924072 -2.9722962379455566 0.8292738199234009 109
3.1268601417541504 -2.980792284011841 0.6773960590362549 109
3.1271281242370605 -2.9820895195007324 0.5258662104606628 109
3.1271870136260986 -2.9831879138946533 0.3747696876525879 109
3.1270158290863037 -2.984067440032959 0.22452124953269958 109
3.1266591548919678 -2.984769582748413 0.074783556163311 109
1.3784669637680054 -1.3182125091552734 -0.5008150935173035 119
1.5871877670288086 -1.5183403491973877 -0.49826687574386597 119
1.8858295679092407 -1.80465829372406 -0.4994710087776184 119
2.3285725116729736 -2.229123115539551 -0.5045015811920166 119
3.1244595050811768 -2.9920647144317627 -0.5264761447906494 119
3.124528646469116 -2.993176221847534 -0.3752060532569885 109
3.1171822547912598 -2.987182378768921 -0.22351330518722534 109
3.124019145965576 -2.9947803020477295 -0.07412278652191162 109
3.1231729984283447 -2.9950151443481445 1.148408055305481 109
3.121560573577881 -2.9945149421691895 0.9890363812446594 109
3.119267463684082 -2.993360757827759 0.8321333527565002 109
3.123561382293701 -2.9985287189483643 0.6789586544036865 109
3.1274383068084717 -3.0032992362976074 0.5276942253112793 109
3.123938798904419 -3.0009870529174805 0.37564125657081604 109
3.1273813247680664 -3.0053439140319824 0.22530627250671387 109
3.123429298400879 -3.0025949478149414 0.07495808601379395 109
1.377336025238037 -1.3263663053512573 -0.502109169960022 119
1.5818781852722168 -1.5238714218139648 -0.49826687574386597 119
1.8795186281204224 -1.811230182647705 -0.4994710087776184 119
2.3243327140808105 -2.2406654357910156 -0.505283772945404 119
3.1175689697265625 -3.0063977241516113 -0.5270854830741882 119
3.1212315559387207 -3.010981559753418 -0.3760776221752167 109
3.121108293533325 -3.0119142532348633 -0.2245565503835678 109
3.1243369579315186 -3.0160834789276123 -0.07438195496797562 109
3.123121976852417 -3.0159637928009033 1.1522877216339111 109
3.12160062789917 -3.015547752380371 0.9924080967903137 109
3.1193888187408447 -3.014463424682617 0.8349930047988892 109
3.1237282752990723 -3.019711494445801 0.6813026666641235 109
3.124070644378662 -3.0210976600646973 0.5289129018783569 109
3.1241841316223145 -3.0222628116607666 0.3769485652446747 109
3.1240477561950684 -3.023186683654785 0.22582964599132538 109
3.1237049102783203 -3.0239105224609375 0.07521986961364746 109
1.3726978302001953 -1.33116614818573 -0.502109169960022 119
1.5800461769104004 -1.5327763557434082 -0.4993916451931 119
1.8731848001480103 -1.817779779434204 -0.4994710087776184 119
2.3129537105560303 -2.2453253269195557 -0.5045015811920166 119
3.107055425643921 -3.0172617435455322 -0.5270854830741882 119
3.117847442626953 -3.028799295425415 -0.37694916129112244 109
3.1213181018829346 -3.0332298278808594 -0.22533896565437317 109
3.1209590435028076 -3.033940315246582 -0.07455474138259888 109
3.1195003986358643 -3.033581495285034 1.1548742055892944 109
3.1215322017669678 -3.0366172790527344 0.9957797527313232 109
3.115882158279419 -3.032179832458496 0.8368993401527405 109
3.1202452182769775 -3.0374863147735596 0.6828652024269104 109
3.1241724491119385 -3.0423710346221924 0.5307409763336182 109
3.1207518577575684 -3.0401015281677246 0.3778201639652252 109
3.12420392036438 -3.044527530670166 0.22661468386650085 109
3.1202898025512695 -3.0417752265930176 0.07539438456296921 109
1.3680428266525269 -1.3359496593475342 -0.502109169960022 119
1.5746861696243286 -1.5382822751998901 -0.4993916451931 119
1.8703386783599854 -1.8277379274368286 -0.5004242062568665 119
2.298039197921753 -2.246480941772461 -0.5029371976852417 119
3.100052833557129 -3.0315592288970947 -0.527694821357727 119
3.1179375648498535 -3.0501134395599365 -0.3782564699649811 109
3.121417760848999 -3.054584264755249 -0.22612141072750092 109
3.1210668087005615 -3.055307626724243 -0.07481390982866287 109
3.1192448139190674 -3.0545902252197266 1.1587539911270142 109
3.121354341506958 -3.0577232837677 0.9991514682769775 109
3.115795612335205 -3.0533437728881836 0.8397588729858398 109
3.120203733444214 -3.0587310791015625 0.6852091550827026 109
3.120620012283325 -3.0602073669433594 0.5319596529006958 109
3.1207876205444336 -3.0614407062530518 0.37912747263908386 109
3.120684862136841 -3.062408685684204 0.22713802754878998 109
3.120356321334839 -3.06315541267395 0.07565618306398392 109
1.3633711338043213 -1.34071683883667 -0.502109169960022 119
1.5693069696426392 -1.5437697172164917 -0.4993916451931 119
1.8639472723007202 -1.8342554569244385 -0.5004242062568665 119
2.2866644859313965 -2.2510244846343994 -0.502155065536499 119
3.089451551437378 -3.0423617362976074 -0.527694821357727 119
3.0966265201568604 -3.05049204826355 -0.37694916129112244 0
3.1178488731384277 -3.0724706649780273 -0.22664301097393036 109
3.121063470840454 -3.076712131500244 -0.07507307827472687 109
3.118880271911621 -3.0756335258483887 1.1626337766647339 109
3.1210672855377197 -3.0788650512695312 1.0025231838226318 109
3.1121063232421875 -3.071096897125244 0.8416652679443359 109
3.120051383972168 -3.080012321472168 0.6875531077384949 109
3.1205124855041504 -3.08154296875 0.533787727355957 109
3.1207125186920166 -3.0828168392181396 0.3804348111152649 109
3.120630979537964 -3.0838124752044678 0.22792308032512665 109
3.1167550086975098 -3.081057548522949 0.07583069801330566 109
1.3586827516555786 -1.3454676866531372 -0.502109169960022 119
1.5639086961746216 -1.5492380857467651 -0.4993916451931 119
1.8575332164764404 -1.8407506942749023 -0.5004242062568665 119
2.2787928581237793 -2.258992910385132 -0.502155065536499 119
3.075289011001587 -3.0496327877044678 -0.5270854830741882 119
3.078887462615967 -3.054267168045044 -0.3760776221752167 116
3.1177382469177246 -3.0938868522644043 -0.2274254560470581 109
3.120948553085327 -3.098154067993164 -0.07533225417137146 109
3.1184065341949463 -3.0967113971710205 1.166513442993164 109
3.1206703186035156 -3.100041627883911 1.0058948993682861 109
3.111811637878418 -3.092320680618286 0.8445248007774353 109
3.119788646697998 -3.101330041885376 0.6898970603942871 109
3.116774797439575 -3.0994155406951904 0.5350064039230347 109
3.1205270290374756 -3.1042304039001465 0.3817421793937683 109
3.1204652786254883 -3.105252981185913 0.22870811820030212 109
3.116610527038574 -3.1024997234344482 0.07609248906373978 109
1.3573977947235107 -1.3536124229431152 -0.5034032464027405 119
1.5550419092178345 -1.5512468814849854 -0.49826687574386597 119
1.847622036933899 -1.8437563180923462 -0.4994710087776184 119
2.274388551712036 -2.2704224586486816 -0.5029371976852417 119
3.0576019287109375 -3.053335666656494 -0.5258668065071106 119
3.064683198928833 -3.0614757537841797 -0.3756418228149414 116
3.1175150871276855 -3.1153392791748047 -0.22820788621902466 109
3.1171860694885254 -3.116097927093506 -0.07550503313541412 109
3.1144087314605713 -3.1144087314605713 1.169100046157837 109
3.1201634407043457 -3.1212525367736816 1.0092666149139404 109
3.1114070415496826 -3.113579750061035 0.8473843336105347 109
3.1194143295288086 -3.122682809829712 0.6922409534454346 109
3.1164567470550537 -3.1208112239837646 0.5368344187736511 109
3.1202290058135986 -3.1256794929504395 0.38304948806762695 109
3.120187997817993 -3.126729726791382 0.2294931560754776 109
3.116353750228882 -3.1239776611328125 0.07635427266359329 109
1.352664589881897 -1.3583424091339111 -0.5034032464027405 119
1.549889326095581 -1.5563950538635254 -0.49826687574386597 119
1.8380351066589355 -1.8463947772979736 -0.49851784110069275 119
2.2668471336364746 -2.277951955795288 -0.5029371976852417 119
3.0404601097106934 -3.0564215183258057 -0.5246480703353882 119
3.0474894046783447 -3.0645573139190674 -0.37477025389671326 115
3.1177279949188232 -3.1362838745117188 -0.22899030148983002 109
3.1174070835113525 -3.1370558738708496 -0.07576420158147812 109
3.1142752170562744 -3.1349985599517822 1.172979712486267 109
3.11666202545166 -3.1384963989257812 1.01151442527771 109
3.1114389896392822 -3.1343307495117188 0.8502439856529236 109
3.1194779872894287 -3.143526315689087 0.694584846496582 109
3.1165761947631836 -3.1416985988616943 0.5386624932289124 109
3.120368480682373 -3.1466195583343506 0.384356826543808 109
3.1203482151031494 -3.147697687149048 0.23027820885181427 109
3.1165337562561035 -3.1449475288391113 0.07661605626344681 109
1.348152756690979 -1.3628206253051758 -0.5034032464027405 119
1.541021704673767 -1.558331847190857 -0.49714213609695435 119
1.8281279802322388 -1.8493086099624634 -0.4975646436214447 119
2.26582407951355 -2.2928762435913086 -0.5045015811920166 119
3.02628493309021 -3.0634853839874268 -0.5240387320518494 119
3.0297741889953613 -3.0680885314941406 -0.3738987147808075 115
3.113776922225952 -3.154254674911499 -0.22951193153858185 109
3.1134610176086426 -3.1550357341766357 -0.07593698799610138 109
3.1134886741638184 -3.156165361404419 1.1768594980239868 109
3.115950345993042 -3.1597635746002197 1.0148861408233643 109
3.110816478729248 -3.155658721923828 0.853103518486023 109
3.1188855171203613 -3.1649491786956787 0.696928858757019 109
3.1160387992858887 -3.1631643772125244 0.5404905080795288 109
3.1198501586914062 -3.1681394577026367 0.3856641352176666 109
3.1198501586914062 -3.169245481491089 0.23106324672698975 109
3.116056203842163 -3.166496515274048 0.07687783986330032 109
1.3433873653411865 -1.3675181865692139 -0.5034032464027405 119
1.5358455181121826 -1.5634334087371826 -0.49714213609695435 119
1.8254246711730957 -1.858863115310669 -0.49851784110069275 119
2.2582080364227295 -2.300377368927002 -0.5045015811920166 119
3.009157419204712 -3.066419839859009 -0.5228200554847717 119
3.0056307315826416 -3.0638959407806396 -0.3721556067466736 115
3.11378812789917 -3.175257921218872 -0.2302943468093872 109
3.11348032951355 -3.1760528087615967 -0.07619615644216537 109
3.113147020339966 -3.176821708679199 1.1807392835617065 109
3.115683078765869 -3.1805198192596436 1.0182578563690186 109
3.1106369495391846 -3.1764776706695557 0.8559630513191223 109
3.11873722076416 -3.185861587524414 0.6992727518081665 109
3.112473726272583 -3.1805737018585205 0.5417091846466064 109
3.1162936687469482 -3.18558931350708 0.38653573393821716 109
3.1197965145111084 -3.1902835369110107 0.23184826970100403 109
3.1160225868225098 -3.18753719329834 0.07713963836431503 109
1.338845133781433 -1.3719655275344849 -0.5034032464027405 119
1.5303786993026733 -1.5687849521636963 -0.49714213609695435 119
1.8223514556884766 -1.8687375783920288 -0.4994710087776184 119
2.250164747238159 -2.308245897293091 -0.5045015811920166 119
2.994971752166748 -3.0733509063720703 -0.5222107172012329 119
2.9844906330108643 -3.0636653900146484 -0.37084826827049255 115
3.113135814666748 -3.1968393325805664 -0.23107677698135376 109
3.109349489212036 -3.194066286087036 -0.07636893540620804 109
3.1121442317962646 -3.1980535984039307 1.1846190690994263 109
3.1147539615631104 -3.2018532752990723 1.0216295719146729 109
3.1097960472106934 -3.19787335395813 0.8588227033615112 109
3.117924690246582 -3.2073519229888916 0.701616644859314 109
3.1117289066314697 -3.202096462249756 0.5435372591018677 109
3.1155667304992676 -3.2071659564971924 0.3878430426120758 109
3.115598440170288 -3.2083184719085693 0.23237164318561554 109
3.115323781967163 -3.209156036376953 0.07740142196416855 109
1.3304473161697388 -1.37339448928833 -0.502109169960022 119
1.5246186256408691 -1.5743836164474487 -0.49714213609695435 119
1.8189040422439575 -1.878930687904358 -0.5004242062568665 119
2.2416892051696777 -2.3164777755737305 -0.5045015811920166 119
2.980236768722534 -3.0807406902313232 -0.5216013789176941 119
2.96285343170166 -3.0638413429260254 -0.36954089999198914 115
3.1083390712738037 -3.2154083251953125 -0.2315984070301056 109
3.1115176677703857 -3.219820737838745 -0.07671450078487396 109
3.110468626022339 -3.2198596000671387 1.1884987354278564 109
3.1131508350372314 -3.223761796951294 1.0250012874603271 109
3.108280897140503 -3.219843626022339 0.8616822361946106 109
3.113006830215454 -3.225865602493286 0.7031792998313904 109
3.1103079319000244 -3.2241950035095215 0.5453652739524841 109
3.114163637161255 -3.2293193340301514 0.38915038108825684 109
3.1142146587371826 -3.2305004596710205 0.23315668106079102 109
3.110478162765503 -3.2277519702911377 0.0775759369134903 109
1.3256449699401855 -1.3780303001403809 -0.502109169960022 119
1.5224905014038086 -1.5832072496414185 -0.49826687574386597 119
1.8157356977462769 -1.888806939125061 -0.5013774037361145 119
2.2335896492004395 -2.3242886066436768 -0.5045015811920166 119
2.9694650173187256 -3.091125011444092 -0.5216013789176941 119
2.941790819168091 -3.063386917114258 -0.3682335913181305 115
3.1074697971343994 -3.2370450496673584 -0.23238082230091095 109
3.1106438636779785 -3.241483688354492 -0.07697366923093796 109
3.1125845909118652 -3.2446391582489014 1.1936718225479126 109
3.111995220184326 -3.2451584339141846 1.0283730030059814 109
3.107212781906128 -3.2413039207458496 0.86454176902771 109
3.11197829246521 -3.2474093437194824 0.7055232524871826 109
3.1093337535858154 -3.2457833290100098 0.5471932888031006 109
3.1132075786590576 -3.250962972640991 0.39045774936676025 109
3.1132774353027344 -3.2521719932556152 0.2339417040348053 109
3.1095621585845947 -3.2494261264801025 0.07783772796392441 109
1.320826768875122 -1.382649302482605 -0.502109169960022 119
1.516954779624939 -1.5885121822357178 -0.49826687574386597 119
1.8091315031051636 -1.8951336145401 -0.5013774037361145 119
2.2254626750946045 -2.33207106590271 -0.5045015811920166 119
2.955231189727783 -3.0978806018829346 -0.5209920406341553 119
2.920767307281494 -3.0628232955932617 -0.36692625284194946 115
3.106487274169922 -3.2587146759033203 -0.2331632375717163 109
3.113105297088623 -3.266798257827759 -0.07731922715902328 109
3.111234426498413 -3.2659759521484375 1.1975516080856323 109
3.1107277870178223 -3.2665860652923584 1.0317447185516357 109
3.106032371520996 -3.2627952098846436 0.8674013018608093 109
3.1142418384552 -3.2725625038146973 0.7086484432220459 109
3.108246326446533 -3.267404317855835 0.5490214228630066 109
3.112138032913208 -3.2726387977600098 0.3917650580406189 109
3.1087868213653564 -3.2702574729919434 0.2344650775194168 109
3.1085317134857178 -3.271132230758667 0.07809951156377792 109
1.3159923553466797 -1.387251377105713 -0.502109169960022 119
1.511400580406189 -1.5937976837158203 -0.49826687574386597 119
1.8058820962905884 -1.9049991369247437 -0.5023306012153625 119
2.217308759689331 -2.33982515335083 -0.5045015811920166 119
2.9409866333007812 -3.104574680328369 -0.5203827023506165 119
2.899783134460449 -3.0621495246887207 -0.36561888456344604 115
3.105391502380371 -3.2804172039031982 -0.23394568264484406 109
3.1119916439056396 -3.2885384559631348 -0.07757839560508728 109
3.109771966934204 -3.287342071533203 1.201431393623352 109
3.109349250793457 -3.2880444526672363 1.03511643409729 109
3.1047396659851074 -3.284318208694458 0.8702609539031982 109
3.1129753589630127 -3.2941815853118896 0.7109923958778381 109
3.107046127319336 -3.2890567779541016 0.550849437713623 109
3.110954999923706 -3.294346332550049 0.3930723965167999 109
3.107635259628296 -3.2919816970825195 0.23525011539459229 109
3.1073875427246094 -3.29287052154541 0.07836129516363144 109
1.3111419677734375 -1.3918366432189941 -0.502109169960022 119
1.5058279037475586 -1.5990636348724365 -0.49826687574386597 119
1.799221396446228 -1.911291241645813 -0.5023306012153625 119
2.212512254714966 -2.351147174835205 -0.505283772945404 119
2.923330545425415 -3.1075918674468994 -0.519163966178894 119
2.8822522163391113 -3.0649960041046143 -0.3647473454475403 115
3.1041815280914307 -3.3021509647369385 -0.2347281128168106 109
3.114187240600586 -3.3139536380767822 -0.07792395353317261 109
3.108198642730713 -3.3087379932403564 1.2053110599517822 109
3.107858419418335 -3.309532880783081 1.0384881496429443 109
3.1033341884613037 -3.3058712482452393 0.8731204867362976 109
3.111595869064331 -3.3158316612243652 0.7133363485336304 109
3.105731964111328 -3.3107407093048096 0.5526774525642395 109
3.1096582412719727 -3.3160858154296875 0.39437976479530334 109
3.106369733810425 -3.3137378692626953 0.23603513836860657 109
3.1061296463012695 -3.314640998840332 0.07862309366464615 109
1.3029762506484985 -1.3928779363632202 -0.5008150935173035 119
1.500236988067627 -1.6043102741241455 -0.49826687574386597 119
1.7891868352890015 -1.9139745235443115 -0.5013774037361145 119
2.2076635360717773 -2.362464189529419 -0.5060659050941467 119
2.9090776443481445 -3.1141510009765625 -0.5185546875 115
2.861337423324585 -3.064117193222046 -0.36344000697135925 115
3.106265068054199 -3.327566385269165 -0.23577134311199188 109
3.112833261489868 -3.3357696533203125 -0.0781831294298172 109
3.106513500213623 -3.330162525177002 1.209190845489502 109
3.106255054473877 -3.3310506343841553 1.0418598651885986 109
3.101815938949585 -3.3274545669555664 0.875980019569397 109
3.110103130340576 -3.337512254714966 0.7156802415847778 109
3.104304313659668 -3.3324553966522217 0.554505467414856 109
3.1082475185394287 -3.3378560543060303 0.395687073469162 109
3.1083920001983643 -3.339179515838623 0.2370818704366684 109
3.104757308959961 -3.336442470550537 0.07888487726449966 109
1.2948191165924072 -1.3938790559768677 -0.4995209574699402 119
1.494627833366394 -1.6095373630523682 -0.49826687574386597 119
1.7824950218200684 -1.920208215713501 -0.5013774037361145 119
2.2061216831207275 -2.3773958683013916 -0.5076302289962769 119
2.89143967628479 -3.1170098781585693 -0.5173359513282776 115
2.840463638305664 -3.063129186630249 -0.36213263869285583 115
3.0980255603790283 -3.3420512676239014 -0.2360321581363678 109
3.1113641262054443 -3.3576154708862305 -0.0784422978758812 109
3.104717254638672 -3.351616144180298 1.2130706310272217 109
3.1078498363494873 -3.3561723232269287 1.0463554859161377 109
3.1001851558685303 -3.3490679264068604 0.8788396716117859 109
3.1084964275360107 -3.359222173690796 0.7180241942405701 109
3.1027631759643555 -3.3542003631591797 0.5563335418701172 109
3.1101040840148926 -3.3633134365081787 0.3974301815032959 109
3.1068854331970215 -3.3610095977783203 0.23786692321300507 109
3.106663703918457 -3.3619465827941895 0.07923392206430435 109
1.2899457216262817 -1.3983904123306274 -0.4995209574699402 119
1.4890003204345703 -1.6147446632385254 -0.49826687574386597 119
1.7757813930511475 -1.9264185428619385 -0.5013774037361145 119
2.2011561393737793 -2.388714075088501 -0.5084124207496643 119
2.8771791458129883 -3.123433828353882 -0.516726553440094 115
2.819631576538086 -3.062033176422119 -0.3608253300189972 115
3.0863406658172607 -3.3528449535369873 -0.2360321581363678 109
3.1097800731658936 -3.3794920444488525 -0.07870146632194519 109
