# .PCD v0.7 - Point Cloud Data file format
VERSION 0.7
FIELDS x y z intensity
SIZE 4 4 4 4
TYPE F F F F
COUNT 1 1 1 1
WIDTH 759
HEIGHT 1
VIEWPOINT 0 0 0 1 0 0 0
POINTS 759
DATA ascii
-0.880454957485199 -0.8247803449630737 0.22685880959033966 50
-0.8822535872459412 -0.8261762857437134 0.18517054617404938 50
-0.8757076859474182 -0.8197595477104187 0.14258712530136108 50
-0.889878511428833 -0.8327336311340332 0.10327955335378647 50
-0.8738987445831299 -0.8174940347671509 0.06070970743894577 50
-0.8677706718444824 -0.8114776015281677 0.020070265978574753 50
-0.8751239776611328 -0.8172093629837036 -0.3105829656124115 50
-0.8825300335884094 -0.824125349521637 -0.26994141936302185 50
-0.8747171759605408 -0.816543698310852 -0.2249525934457779 50
-0.8728389143943787 -0.8145053386688232 -0.1830284744501114 50
-0.8916527032852173 -0.8317707180976868 -0.14502467215061188 50
-0.8804018497467041 -0.820988118648529 -0.10197237133979797 50
-0.8753319978713989 -0.8159748315811157 -0.06050768867135048 50
-0.8838178515434265 -0.8235970139503479 -0.02021530643105507 50
-0.8832294940948486 -0.8227607011795044 0.3129670321941376 50
-0.8837143182754517 -0.8229244351387024 0.269737184047699 50
-0.886634349822998 -0.8253545761108398 0.2278119921684265 50
-0.8884601593017578 -0.8267648220062256 0.1859518587589264 50
-0.8819122910499573 -0.8203845024108887 0.1431964635848999 50
-0.8961377739906311 -0.8333257436752319 0.10371533036231995 50
-0.880119800567627 -0.8181442618370056 0.06097138673067093 50
-0.8739778399467468 -0.8121504783630371 0.020157529041171074 50
-0.881369948387146 -0.8175873756408691 -0.3118770718574524 50
-0.8854014277458191 -0.8210396766662598 -0.26994141936302185 50
-0.8811616897583008 -0.8168221116065979 -0.22590577602386475 50
-0.879298985004425 -0.8148101568222046 -0.18381063640117645 50
-0.8945507407188416 -0.8286531567573547 -0.14502467215061188 50
-0.8869169354438782 -0.8212941884994507 -0.10240815579891205 50
-0.8818392157554626 -0.8163063526153564 -0.0607684962451458 50
-0.8903566598892212 -0.8239023089408875 -0.0203016959130764 50
-0.8860961198806763 -0.8196726441383362 0.3129670321941376 50
-0.8901586532592773 -0.823142409324646 0.27086108922958374 50
-0.8931142091751099 -0.8255863189697266 0.22876517474651337 50
-0.8949676752090454 -0.8270100951194763 0.1867331564426422 50
-0.8884161114692688 -0.8206685185432434 0.14380581676959991 50
-0.9027004837989807 -0.83357173204422 0.10415110737085342 50
-0.8866391777992249 -0.8184537887573242 0.06123306602239609 50
-0.880481481552124 -0.8124850392341614 0.020244790241122246 50
-0.8880560398101807 -0.8174681067466736 -0.3131711781024933 50
-0.8921324014663696 -0.8209328651428223 -0.27106615900993347 50
-0.8879039287567139 -0.8167556524276733 -0.2268589735031128 50
-0.8860563039779663 -0.8147706389427185 -0.1845928132534027 50
-0.9013795852661133 -0.8285707831382751 -0.1456340253353119 50
-0.8937315940856934 -0.8212528824806213 -0.10284393280744553 50
-0.8849671483039856 -0.812914252281189 -0.0607684962451458 50
-0.8971959352493286 -0.8238588571548462 -0.020388085395097733 50
-0.8927950263023376 -0.8195304274559021 0.3142602741718292 50
-0.8969024419784546 -0.8230123519897461 0.2719849944114685 50
-0.899894654750824 -0.825468897819519 0.2297183722257614 50
-0.9017765522003174 -0.826905369758606 0.18751446902751923 50
-0.8952189683914185 -0.8206046223640442 0.14441515505313873 50
-0.9095669388771057 -0.8334646821022034 0.1045868843793869 50
-0.893457293510437 -0.8184159994125366 0.061494745314121246 50
-0.8872817158699036 -0.8124744296073914 0.020332051441073418 50
-0.8944688439369202 -0.817621648311615 -0.3144652545452118 50
-0.8985890746116638 -0.8211000561714172 -0.2721909284591675 50
-0.8943735361099243 -0.8169617056846619 -0.22781215608119965 50
-0.8925418257713318 -0.8150027394294739 -0.18537499010562897 50
-0.9079316258430481 -0.8287650942802429 -0.1462433636188507 50
-0.9002722501754761 -0.8214855194091797 -0.103279709815979 50
-0.8914883136749268 -0.8131852149963379 -0.061029303818941116 50
-0.9000663161277771 -0.8207219839096069 -0.020388085395097733 50
-0.899219810962677 -0.8196627497673035 0.31555354595184326 50
-0.9033710360527039 -0.8231580257415771 0.27310889959335327 50
-0.9063991904258728 -0.8256279230117798 0.23067155480384827 50
-0.9083091020584106 -0.8270775079727173 0.18829578161239624 50
-0.9017479419708252 -0.8208153247833252 0.14502450823783875 50
-0.9161547422409058 -0.8336367607116699 0.10502266883850098 50
-0.9000023007392883 -0.8186520338058472 0.061756424605846405 50
-0.8938156366348267 -0.8127305507659912 0.02041931450366974 50
-0.8973174691200256 -0.8144943714141846 -0.3144652545452118 50
-0.9050577878952026 -0.8212321996688843 -0.2733156681060791 50
-0.9008553624153137 -0.8171324133872986 -0.2287653386592865 50
-0.8990396857261658 -0.8151994943618774 -0.18615715205669403 50
-0.9144960641860962 -0.8289237022399902 -0.14685271680355072 50
-0.9068253636360168 -0.8216825127601624 -0.10371548682451248 50
-0.8980221748352051 -0.8134204745292664 -0.06129011511802673 50
-0.9066314101219177 -0.8209306597709656 -0.020474476739764214 50
-0.9056562185287476 -0.8197600245475769 0.3168468177318573 50
-0.9098516702651978 -0.823268711566925 0.27423280477523804 50
-0.9092756509780884 -0.8224589228630066 0.23067155480384827 50
-0.9148537516593933 -0.8272141218185425 0.18907709419727325 50
-0.9082893133163452 -0.8209904432296753 0.14563384652137756 50
-0.9227548837661743 -0.833773136138916 0.10545844584703445 50
-0.9065598249435425 -0.8188523650169373 0.062018103897571564 50
-0.900353193283081 -0.8129609227180481 0.02050657570362091 50
-0.9037426114082336 -0.8145908117294312 -0.3157593905925751 50
-0.9079188704490662 -0.8180679678916931 -0.2733156681060791 50
-0.9037021994590759 -0.8139828443527222 -0.2287653386592865 50
-0.9018797874450684 -0.8120562434196472 -0.18615715205669403 50
-0.9210726022720337 -0.8290465474128723 -0.14746206998825073 50
-0.9133908748626709 -0.8218438029289246 -0.10415127128362656 50
-0.9045683741569519 -0.8136199712753296 -0.06155092269182205 50
-0.9132090210914612 -0.8211034536361694 -0.020560866221785545 50
-0.9121043682098389 -0.819822371006012 0.31814005970954895 50
-0.9163438677787781 -0.8233438730239868 0.2753567099571228 50
-0.91579270362854 -0.8225598335266113 0.23162473738193512 50
-0.921410322189331 -0.8273150324821472 0.18985840678215027 50
-0.9148427844047546 -0.8211298584938049 0.14624319970607758 50
-0.9293670654296875 -0.8338735103607178 0.10589422285556793 50
-0.9131296277046204 -0.8190168142318726 0.06227978318929672 50
-0.9069076180458069 -0.8131505250930786 0.020593838766217232 50
-0.9101792573928833 -0.8146522045135498 -0.3170534670352936 50
-0.9143997430801392 -0.8181423544883728 -0.2744404673576355 50
-0.9101964831352234 -0.8140956163406372 -0.22971853613853455 50
-0.9083904027938843 -0.81219482421875 -0.1869393289089203 50
-0.9313613176345825 -0.8324407339096069 -0.14868077635765076 50
-0.9199683666229248 -0.8219690322875977 -0.10458704829216003 50
-0.9111270308494568 -0.8137836456298828 -0.06181173026561737 50
-0.9160696268081665 -0.8179107904434204 -0.020560866221785545 50
-0.9185638427734375 -0.8198496699333191 0.3194333016872406 50
-0.9228476881980896 -0.8233837485313416 0.27648061513900757 50
-0.9223214983940125 -0.8226252198219299 0.23257794976234436 50
-0.9279788732528687 -0.827380359172821 0.19063973426818848 50
-0.9214082360267639 -0.8212333917617798 0.1468525528907776 50
-0.9359911680221558 -0.8339378237724304 0.106330007314682 50
-0.9197116494178772 -0.8191454410552979 0.06254146248102188 50
-0.9134743213653564 -0.8133041858673096 0.020681099966168404 50
-0.9202371835708618 -0.817887008190155 -0.31964167952537537 50
-0.920892059803009 -0.8181813359260559 -0.2755652070045471 50
-0.9130326509475708 -0.8109134435653687 -0.22971853613853455 50
-0.9149128198623657 -0.8122977018356323 -0.18772150576114655 50
-0.9379730820655823 -0.8324788808822632 -0.14929011464118958 50
-0.9265579581260681 -0.8220584988594055 -0.10502282530069351 50
-0.9176977276802063 -0.8139114379882812 -0.06207254156470299 50
-0.9226598739624023 -0.8180246949195862 -0.020647255703806877 50
-0.9250346422195435 -0.8198418021202087 0.32072657346725464 50
-0.9293628931045532 -0.8233883380889893 0.27760452032089233 50
-0.928861677646637 -0.8226549029350281 0.2335311472415924 50
-0.9345589280128479 -0.8274097442626953 0.1914210468530655 50
-0.9279856085777283 -0.8213011622428894 0.1474618911743164 50
-0.9426270723342896 -0.833966076374054 0.10676579177379608 50
-0.9263055324554443 -0.8192378878593445 0.06280314177274704 50
-0.9200530648231506 -0.8134219646453857 0.020768361166119576 50
-0.9267076849937439 -0.8178656101226807 -0.32093575596809387 50
-0.9273957014083862 -0.8181849122047424 -0.27668997645378113 50
-0.9195388555526733 -0.8109679222106934 -0.2306717187166214 50
-0.9214471578598022 -0.8123650550842285 -0.1885036826133728 50
-0.9445964097976685 -0.8324809074401855 -0.1498994678258896 50
-0.9331592321395874 -0.8221118450164795 -0.10545860230922699 50
-0.9242803454399109 -0.8140031695365906 -0.062333349138498306 50
-0.9292620420455933 -0.8181024789810181 -0.020733647048473358 50
-0.9315164089202881 -0.8197986483573914 0.3220198154449463 50
-0.9322314858436584 -0.8201392292976379 0.27760452032089233 50
-0.9354134202003479 -0.8226490020751953 0.23448432981967926 50
-0.9411504864692688 -0.8274032473564148 0.1922023445367813 50
-0.9308468103408813 -0.8180569410324097 0.1474618911743164 50
-0.9492744207382202 -0.8339580297470093 0.10720156878232956 50
-0.9329113364219666 -0.8192943334579468 0.0630648210644722 50
-0.9266436100006104 -0.8135035037994385 0.020855624228715897 50
-0.9331890940666199 -0.8178088068962097 -0.32222986221313477 50
-0.9375751614570618 -0.8213633298873901 -0.27893948554992676 50
-0.9260565638542175 -0.8109868764877319 -0.23162490129470825 50
-0.9279929995536804 -0.8123965263366699 -0.18928584456443787 50
-0.9512311816215515 -0.8324468731880188 -0.1505088061094284 50
-0.9397721290588379 -0.8221290707588196 -0.10589438676834106 50
-0.9271161556243896 -0.8107718825340271 -0.062333349138498306 50
-0.9358757734298706 -0.8181440234184265 -0.02082003653049469 50
-0.9380092620849609 -0.8197203278541565 0.32331305742263794 50
-0.9387576580047607 -0.8200854659080505 0.2787284255027771 50
-0.9419763088226318 -0.8226073384284973 0.2354375123977661 50
-0.9477533102035522 -0.8273607492446899 0.19298365712165833 50
-0.9374358057975769 -0.8180657029151917 0.14807124435901642 50
-0.9559332132339478 -0.8339137434959412 0.10763734579086304 50
-0.9357655644416809 -0.8160328269004822 0.0630648210644722 50
-0.9332460761070251 -0.8135490417480469 0.02094288542866707 50
-0.939681351184845 -0.8177168369293213 -0.32352393865585327 50
-0.9441121816635132 -0.8212831020355225 -0.2800642251968384 50
-0.9325857162475586 -0.8109702467918396 -0.2325781136751175 50
-0.9345501661300659 -0.8123921751976013 -0.19006802141666412 50
-0.9578771591186523 -0.8323765397071838 -0.15111815929412842 50
-0.9463965892791748 -0.8221102952957153 -0.10633017122745514 50
-0.9337107539176941 -0.810804545879364 -0.06259416043758392 50
-0.9425011873245239 -0.8181493878364563 -0.02090642601251602 50
-0.9445128440856934 -0.8196065425872803 0.324606329202652 50
-0.9452949166297913 -0.8199960589408875 0.27985233068466187 50
-0.948550283908844 -0.8225298523902893 0.23639070987701416 50
-0.9543672800064087 -0.8272822499275208 0.19376496970653534 50
-0.9440363049507141 -0.8180384039878845 0.14868059754371643 50
-0.9588382840156555 -0.8305718898773193 0.10763734579086304 50
-0.9423829317092896 -0.816029965877533 0.06332650035619736 50
-0.9398601055145264 -0.8135583996772766 0.02103014849126339 50
-0.9461843371391296 -0.817589521408081 -0.32481804490089417 50
-0.9506601691246033 -0.8211671710014343 -0.2811889946460724 50
-0.9391258358955383 -0.810917854309082 -0.23353131115436554 50
-0.9411187767982483 -0.8123520016670227 -0.19085021317005157 50
-0.9645341634750366 -0.8322699666023254 -0.15172751247882843 50
-0.9492605328559875 -0.8188017010688782 -0.10633017122745514 50
-0.9403168559074402 -0.8108010292053223 -0.06285496801137924 50
-0.9491380453109741 -0.8181184530258179 -0.020992817357182503 50
-0.9510269165039062 -0.8194572925567627 0.32589957118034363 50
-0.9518429040908813 -0.8198710083961487 0.28097623586654663 50
-0.9588545560836792 -0.8256190419197083 0.23829707503318787 50
-0.9609922170639038 -0.8271676301956177 0.19454628229141235 50
-0.9506478905677795 -0.8179749846458435 0.14928995072841644 50
-0.9655079245567322 -0.8304678797721863 0.10807312279939651 50
-0.9490118026733398 -0.8159908652305603 0.06358817964792252 50
-0.9464854001998901 -0.8135313391685486 0.02111740969121456 50
-0.9490325450897217 -0.814281702041626 -0.32481804490089417 50
-0.9572186470031738 -0.821015477180481 -0.282313734292984 50
-0.9494030475616455 -0.8140243887901306 -0.23543767631053925 50
-0.947698175907135 -0.8122756481170654 -0.19163239002227783 50
-0.9712021350860596 -0.832127034664154 -0.15233685076236725 50
-0.9558959603309631 -0.8187233209609985 -0.10676595568656921 50
-0.9469342231750488 -0.8107612133026123 -0.06311577558517456 50
-0.9557862281799316 -0.8180512189865112 -0.021079208701848984 50
-0.9575514197349548 -0.8192725777626038 0.3271928131580353 50
-0.9584015607833862 -0.8197101950645447 0.2821001410484314 50
-0.9654613137245178 -0.8254566192626953 0.2392502725124359 50
-0.9676278829574585 -0.8270167112350464 0.19532757997512817 50
-0.9572705030441284 -0.817875325679779 0.14989928901195526 50
-0.972188413143158 -0.8303274512290955 0.10850889980792999 50
-0.9556517601013184 -0.8159154057502747 0.06384986639022827 50
-0.9531219601631165 -0.8134679794311523 0.021204670891165733 50
-0.9555454850196838 -0.8140961527824402 -0.32611215114593506 50
-0.9637877345085144 -0.8208279609680176 -0.283438503742218 50
-0.9559760689735413 -0.8138872385025024 -0.2363908737897873 50
-0.95428866147995 -0.8121633529663086 -0.1924145519733429 50
-0.9778807163238525 -0.8319475650787354 -0.15294620394706726 50
-0.9625423550605774 -0.8186086416244507 -0.10720173269510269 50
-0.9573670625686646 -0.8139193654060364 -0.0636373981833458 50
-0.9624452590942383 -0.8179473280906677 -0.021165600046515465 50
-0.9640862941741943 -0.8190522193908691 0.32848605513572693 50
-0.9686840772628784 -0.8226673007011414 0.2843479514122009 50
-0.9720785617828369 -0.8252581357955933 0.24020345509052277 50
-0.9742742776870728 -0.8268295526504517 0.1961088925600052 50
-0.9639040231704712 -0.8177394270896912 0.15050864219665527 50
-0.9788797497749329 -0.8301505446434021 0.10894468426704407 50
-0.9623027443885803 -0.8158034682273865 0.06411154568195343 50
-0.9559557437896729 -0.8101359605789185 0.021204670891165733 50
-0.9619265198707581 -0.8140428066253662 -0.32740622758865356 50
-0.970080554485321 -0.820943295955658 -0.28456324338912964 50
-0.9622755646705627 -0.814050018787384 -0.23734405636787415 50
-0.9606063365936279 -0.8123502731323242 -0.19319672882556915 50
-0.9842793941497803 -0.8320751786231995 -0.15355554223060608 50
-0.968913733959198 -0.8187956809997559 -0.10763750970363617 50
-0.9637336134910583 -0.8141298294067383 -0.06389820575714111 50
-0.9688297510147095 -0.8181451559066772 -0.021251989528536797 50
-0.974035918712616 -0.822250485420227 0.3310725688934326 50
-0.9749872088432312 -0.822762131690979 0.2854718565940857 50
-0.9784181714057922 -0.8253650069236755 0.24115663766860962 50
-0.9806423187255859 -0.8269484043121338 0.1968902051448822 50
-0.9702626466751099 -0.8179057240486145 0.1511179804801941 50
-0.9852917790412903 -0.8302808403968811 0.10938046127557755 50
-0.9686797261238098 -0.8159931302070618 0.06437322497367859 50
-0.9623201489448547 -0.8103489279747009 0.021291935816407204 50
-0.9646207094192505 -0.8108485341072083 -0.32740622758865356 50
-0.9766701459884644 -0.8206862211227417 -0.28568801283836365 50
-0.9688695669174194 -0.8138430714607239 -0.2382972538471222 50
-0.9672179818153381 -0.8121678829193115 -0.1939789056777954 50
-0.9909790754318237 -0.8318250179290771 -0.1541648954153061 50
-0.9755815267562866 -0.8186101913452148 -0.10807328671216965 50
-0.9703950881958008 -0.8139697313308716 -0.06415901333093643 50
-0.9793412685394287 -0.8211825489997864 -0.02142477035522461 50
-0.9806016683578491 -0.8219479918479919 0.33236581087112427 50
-0.9815877079963684 -0.8224828839302063 0.28659576177597046 50
-0.981293261051178 -0.8219447135925293 0.24115663766860962 50
-0.9873095154762268 -0.8266907930374146 0.19767151772975922 50
-0.9769172668457031 -0.8176991939544678 0.1517273336648941 50
-0.9920042157173157 -0.8300328850746155 0.10981623828411102 50
-0.9753521680831909 -0.8158103823661804 0.06463490426540375 50
-0.9728134870529175 -0.8133984804153442 0.021466460078954697 50
-0.9714359045028687 -0.8102321028709412 -0.32870033383369446 50
-0.9835560321807861 -0.8200498819351196 -0.28681275248527527 50
-0.9757576584815979 -0.8132593631744385 -0.23925043642520905 50
-0.974123477935791 -0.811609148979187 -0.19476106762886047 50
-0.9979790449142456 -0.8311898708343506 -0.1547742336988449 50
-0.9825455546379089 -0.8180452585220337 -0.10850907117128372 50
-0.9773512482643127 -0.8134318590164185 -0.06441982835531235 50
-0.9863300919532776 -0.820613443851471 -0.02151115983724594 50
-0.9874639511108398 -0.8212651610374451 0.3336590826511383 50
-0.9884848594665527 -0.8218224048614502 0.2877196669578552 50
-0.988216757774353 -0.821307897567749 0.24210983514785767 50
-0.9942750930786133 -0.8260496854782104 0.19845283031463623 50
-0.9838675856590271 -0.8171128630638123 0.15233667194843292 50
-0.999016284942627 -0.8293993473052979 0.1102520152926445 50
-0.9823196530342102 -0.8152480125427246 0.0648965835571289 50
-0.9759295582771301 -0.809657096862793 0.021466460078954697 50
-0.9779778122901917 -0.809916615486145 -0.32999444007873535 50
-0.9901652932167053 -0.8197183609008789 -0.2879375219345093 50
-0.982371985912323 -0.8129777312278748 -0.2402036190032959 50
-0.9807557463645935 -0.8113517761230469 -0.19554324448108673 50
-1.0046987533569336 -0.8308638334274292 -0.15538358688354492 50
-0.9892340898513794 -0.8177842497825623 -0.1089448481798172 50
-0.9840337038040161 -0.8131961226463318 -0.06468063592910767 50
-0.9930428266525269 -0.8203495144844055 -0.021597549319267273 50
-0.9940487742424011 -0.8208886981010437 0.33495232462882996 50
-0.9951047897338867 -0.821468710899353 0.28884357213974 50
-0.9948633313179016 -0.8209773898124695 0.24306301772594452 50
-1.0009621381759644 -0.8257166147232056 0.19923412799835205 50
-0.9905426502227783 -0.8168308734893799 0.15294602513313293 50
-1.0057487487792969 -0.8290753364562988 0.11068779230117798 50
-0.9890128970146179 -0.8149895668029785 0.06515826284885406 50
-0.982612669467926 -0.8094189167022705 0.02155372127890587 50
-0.988118052482605 -0.8128053545951843 -0.33258262276649475 50
-0.9966411590576172 -0.8195246458053589 -0.2890622615814209 50
-0.988854169845581 -0.8128322958946228 -0.24115681648254395 50
-0.9872564673423767 -0.8112302422523499 -0.196325421333313 50
-1.0112833976745605 -0.8306776285171509 -0.15599294006824493 50
-0.9957900643348694 -0.8176602721214294 -0.10938062518835068 50
-0.9905844926834106 -0.8130964636802673 -0.06494144350290298 50
-0.9996225833892822 -0.8202230930328369 -0.021683940663933754 50
-1.0004998445510864 -0.8206508159637451 0.3362455666065216 50
-1.0015909671783447 -0.8212534189224243 0.28996747732162476 50
-1.0013763904571533 -0.8207853436470032 0.24401620030403137 50
-1.0075147151947021 -0.8255227208137512 0.20001544058322906 50
-0.9970851540565491 -0.81668621301651 0.15355536341667175 50
-1.0123465061187744 -0.8288911581039429 0.11112356930971146 50
-0.9994378685951233 -0.8180304765701294 0.06568162143230438 50
-0.9891563653945923 -0.8093268871307373 0.02164098247885704 50
-0.9946898221969604 -0.8124063014984131 -0.33387669920921326 50
-1.0032695531845093 -0.8191218376159668 -0.2901870310306549 50
-0.9992907047271729 -0.8155827522277832 -0.24306318163871765 50
-0.9939086437225342 -0.8109011054039001 -0.19710758328437805 50
-1.0180225372314453 -0.8302791118621826 -0.15660227835178375 50
-1.0024986267089844 -0.8173267841339111 -0.10981640964746475 50
-0.9972872138023376 -0.812788188457489 -0.0652022510766983 50
-1.0063552856445312 -0.8198863863945007 -0.021770330145955086 50
-1.0071033239364624 -0.8202034831047058 0.33753883838653564 50
-1.0082297325134277 -0.8208281397819519 0.2910913825035095 50
-1.008042335510254 -0.8203830718994141 0.24496939778327942 50
-1.01422119140625 -0.8251174688339233 0.20079675316810608 50
-1.0037801265716553 -0.8163320422172546 0.15416471660137177 50
-1.022963523864746 -0.8316364884376526 0.11199513077735901 50
-1.0061620473861694 -0.8176858425140381 0.06594330072402954 50
-0.9997357726097107 -0.81217360496521 0.021815506741404533 50
-1.0050220489501953 -0.8150132894515991 -0.33646491169929504 50
-1.0099072456359863 -0.8186827301979065 -0.29131177067756653 50
-1.005944848060608 -0.815179705619812 -0.2440163791179657 50
-1.0005704164505005 -0.810535192489624 -0.1978897601366043 50
-1.0209146738052368 -0.8267204761505127 -0.15660227835178375 50
-1.0092170238494873 -0.8169562816619873 -0.11025218665599823 50
-1.0039998292922974 -0.8124430179595947 -0.06546305865049362 50
-1.013097882270813 -0.8195127248764038 -0.021856719627976418 50
-1.0137158632278442 -0.8197199106216431 0.3388320803642273 50
-1.0148777961730957 -0.8203665614128113 0.2922152876853943 50
-1.0147175788879395 -0.8199442625045776 0.24592258036136627 50
-1.0209370851516724 -0.824675440788269 0.2015780657529831 50
-1.0104845762252808 -0.8159409761428833 0.15477405488491058 50
-1.0297361612319946 -0.8311891555786133 0.11243090778589249 50
-1.012896180152893 -0.817304253578186 0.0662049800157547 50
-1.006455898284912 -0.8118176460266113 0.021902769804000854 50
-1.0116225481033325 -0.8145289421081543 -0.33775898814201355 50
-1.0203492641448975 -0.8212619423866272 -0.29356130957603455 50
-1.016432523727417 -0.817817211151123 -0.2459227442741394 50
-1.0072418451309204 -0.8101328015327454 -0.19867193698883057 50
-1.027661919593811 -0.8262614607810974 -0.15721163153648376 50
-1.0120625495910645 -0.813428521156311 -0.11025218665599823 50
-1.0107221603393555 -0.8120608329772949 -0.06572386622428894 50
-1.0198501348495483 -0.819101870059967 -0.0219431109726429 50
-1.0203372240066528 -0.8192000985145569 0.34012532234191895 50
-1.0215349197387695 -0.8198685050010681 0.29333919286727905 50
-1.0252302885055542 -0.822540283203125 0.24782894551753998 50
-1.0276621580123901 -0.824196457862854 0.2023593783378601 50
-1.0171985626220703 -0.8155129551887512 0.1553834080696106 50
-1.0365179777145386 -0.8307046294212341 0.11286668479442596 50
-1.0196396112442017 -0.8168854713439941 0.06646665930747986 50
-1.0131856203079224 -0.8114244937896729 0.021990031003952026 50
-1.018231987953186 -0.8140085339546204 -0.33905309438705444 50
-1.0270155668258667 -0.8207366466522217 -0.29468604922294617 50
-1.0231159925460815 -0.8173277378082275 -0.24687594175338745 50
-1.0139225721359253 -0.8096936345100403 -0.19945409893989563 50
-1.0344182252883911 -0.8257653117179871 -0.15782096982002258 50
-1.0187891721725464 -0.8129976987838745 -0.11068796366453171 50
-1.0174540281295776 -0.8116416335105896 -0.06598468124866486 50
-1.0266118049621582 -0.8186538219451904 -0.02202950045466423 50
-1.0269672870635986 -0.818644106388092 0.341418594121933 50
-1.0320110321044922 -0.822370171546936 0.2955870032310486 50
-1.0319344997406006 -0.8220147490501404 0.24878214299678802 50
-1.0343960523605347 -0.823680579662323 0.20314067602157593 50
-1.0239218473434448 -0.815048098564148 0.15599274635314941 50
-1.043308973312378 -0.8301829099655151 0.11330246180295944 50
-1.0263925790786743 -0.816429615020752 0.06672833859920502 50
-1.0199247598648071 -0.8109942674636841 0.022077292203903198 50
-1.0248500108718872 -0.8134518265724182 -0.34034717082977295 50
-1.0336906909942627 -0.8201748728752136 -0.2958108186721802 50
-1.0298081636428833 -0.8168014287948608 -0.2478291243314743 50
-1.020612359046936 -0.8092175722122192 -0.2002362757921219 50
-1.0411837100982666 -0.8252320885658264 -0.1584303230047226 50
-1.0294288396835327 -0.815622866153717 -0.11155952513217926 50
-1.0241951942443848 -0.8111852407455444 -0.06624548882246017 50
-1.0333826541900635 -0.8181684017181396 -0.022115889936685562 50
-1.033605933189392 -0.8180516958236694 0.34271183609962463 50
-1.0386961698532104 -0.8217856884002686 0.29671090841293335 50
-1.0386474132537842 -0.8214524388313293 0.24973532557487488 50
-1.045013189315796 -0.8261905908584595 0.20470330119132996 50
-1.0306543111801147 -0.8145461082458496 0.15660209953784943 50
-1.0501089096069336 -0.8296236991882324 0.11373823881149292 50
-1.0331546068191528 -0.8159364461898804 0.06699001789093018 50
-1.026673436164856 -0.8105269074440002 0.02216455526649952 50
-1.0352699756622314 -0.815848171710968 -0.34293538331985474 50
-1.0403742790222168 -0.8195763826370239 -0.2969355583190918 50
-1.0365092754364014 -0.816238522529602 -0.24878232181072235 50
-1.0273112058639526 -0.8087047338485718 -0.20101845264434814 50
-1.0479578971862793 -0.8246616721153259 -0.1590396612882614 50
-1.0361846685409546 -0.8151041865348816 -0.11199530214071274 50
-1.0309455394744873 -0.8106916546821594 -0.0665062963962555 50
-1.0440928936004639 -0.8207353353500366 -0.022288670763373375 50
-1.0440503358840942 -0.8204071521759033 0.34529832005500793 50
-1.0453897714614868 -0.8211644887924194 0.2978347837924957 50
-1.0453687906265259 -0.8208531141281128 0.2506885230541229 50
-1.0517754554748535 -0.8255870342254639 0.20548461377620697 50
-1.041299819946289 -0.8170705437660217 0.15782079100608826 50
-1.0569175481796265 -0.8290272355079651 0.114174023270607 50
-1.0399258136749268 -0.8154061436653137 0.06725169718265533 50
-1.0373655557632446 -0.8131062388420105 0.022339079529047012 50
-1.0419150590896606 -0.815205454826355 -0.34422945976257324 50
-1.047066330909729 -0.8189412355422974 -0.2980603277683258 50
-1.043218970298767 -0.8156386613845825 -0.2497355043888092 50
-1.034018874168396 -0.8081548810005188 -0.2018006294965744 50
-1.0547407865524292 -0.824053943157196 -0.15964901447296143 50
-1.0429490804672241 -0.814548134803772 -0.11243107914924622 50
-1.0416405200958252 -0.813233494758606 -0.06702791154384613 50
-1.0508925914764404 -0.8201616406440735 -0.022375060245394707 50
-1.0507158041000366 -0.8197286128997803 0.346591591835022 50
-1.0520915985107422 -0.8205066323280334 0.2989586889743805 50
-1.0520986318588257 -0.8202168345451355 0.2516416907310486 50
-1.0585463047027588 -0.824946403503418 0.20626592636108398 50
-1.048060417175293 -0.8164806365966797 0.15843014419078827 50
-1.0637348890304565 -0.8283933401107788 0.11460980027914047 50
-1.0467058420181274 -0.8148383498191833 0.06751338392496109 50
-1.0441428422927856 -0.81255042552948 0.022426340728998184 50
-1.0485684871673584 -0.8145262598991394 -0.34552356600761414 50
-1.0537666082382202 -0.8182692527770996 -0.2991850674152374 50
-1.0499370098114014 -0.815001904964447 -0.25068870186805725 50
-1.0407352447509766 -0.8075680136680603 -0.20258279144763947 50
-1.0654535293579102 -0.8264505863189697 -0.16086770594120026 50
-1.0536586046218872 -0.8170070052146912 -0.11330264061689377 50
-1.0484193563461304 -0.8126515746116638 -0.06728871911764145 50
-1.057700753211975 -0.8195502161979675 -0.022461451590061188 50
-1.0573893785476685 -0.8190135955810547 0.347884863615036 50
-1.0588016510009766 -0.8198118805885315 0.30008259415626526 50
-1.062718391418457 -0.8225479125976562 0.2535480856895447 50
-1.065325379371643 -0.8242684602737427 0.2070472240447998 50
-1.054829716682434 -0.815853476524353 0.1590394824743271 50
-1.0705605745315552 -0.8277218341827393 0.11504557728767395 50
-1.0534944534301758 -0.814233124256134 0.06777506321668625 50
-1.0509288311004639 -0.8119572997093201 0.022513601928949356 50
-1.055229663848877 -0.8138105869293213 -0.34681764245033264 50
-1.0604747533798218 -0.8175604939460754 -0.30030983686447144 50
-1.0566632747650146 -0.8143280744552612 -0.2516418695449829 50
-1.0474599599838257 -0.8069441914558411 -0.20336496829986572 50
-1.0722638368606567 -0.8257544040679932 -0.16147705912590027 50
-1.0604509115219116 -0.8163624405860901 -0.11373841762542725 50
-1.0552067756652832 -0.8120321035385132 -0.06754953414201736 50
-1.064517617225647 -0.8189014196395874 -0.02254784107208252 50
-1.0678991079330444 -0.8212061524391174 0.3504713773727417 50
-1.0655194520950317 -0.8190802335739136 0.30120649933815 50
-1.0694750547409058 -0.8218240737915039 0.25450125336647034 50
-1.0721125602722168 -0.8235532641410828 0.20782853662967682 50
-1.0616073608398438 -0.8151889443397522 0.1596488356590271 50
-1.0773944854736328 -0.8270127773284912 0.11548135429620743 50
-1.0602916479110718 -0.8135904669761658 0.06803674250841141 50
-1.0577234029769897 -0.8113265633583069 0.022600864991545677 50
-1.0618988275527954 -0.8130583763122559 -0.3481117784976959 50
-1.0710597038269043 -0.8197760581970215 -0.30255934596061707 50
-1.0633974075317383 -0.8136171698570251 -0.25259506702423096 50
-1.0541929006576538 -0.8062829971313477 -0.20414714515209198 50
-1.0790821313858032 -0.8250206708908081 -0.1620863974094391 50
-1.0672516822814941 -0.8156805038452148 -0.11417419463396072 50
-1.0620026588439941 -0.8113751411437988 -0.06781034171581268 50
-1.0713427066802979 -0.8182148933410645 -0.02263423055410385 50
-1.0745981931686401 -0.8204042911529541 0.35176461935043335 50
-1.0722452402114868 -0.8183118104934692 0.3023304343223572 50
-1.0762394666671753 -0.8210629224777222 0.2554544508457184 50
-1.0789077281951904 -0.8228005766868591 0.20860984921455383 50
-1.0683929920196533 -0.8144869804382324 0.16025817394256592 50
-1.0842363834381104 -0.8262659311294556 0.1159171313047409 50
-1.0670969486236572 -0.8129101395606995 0.06829842180013657 50
-1.0645263195037842 -0.8106582760810852 0.02268812619149685 50
-1.068575382232666 -0.812269389629364 -0.3494058847427368 50
-1.0777937173843384 -0.8189798593521118 -0.3036841154098511 50
-1.0740481615066528 -0.815838098526001 -0.25450143218040466 50
-1.060934066772461 -0.8055847883224487 -0.20492930710315704 50
-1.0859084129333496 -0.8242495059967041 -0.1626957505941391 50
-1.0780284404754639 -0.8179717063903809 -0.11504575610160828 50
-1.0688066482543945 -0.810680627822876 -0.068071149289608 50
-1.0781759023666382 -0.8174906969070435 -0.022720621898770332 50
-1.0813045501708984 -0.8195657730102539 0.353057861328125 50
-1.078978419303894 -0.8175061941146851 0.30345433950424194 50
-1.0830118656158447 -0.8202646970748901 0.25640764832496643 50
-1.0857105255126953 -0.8220104575157166 0.20939116179943085 50
-1.075186848640442 -0.8137476444244385 0.16086752712726593 50
-1.0910861492156982 -0.8254814743995667 0.11635290831327438 50
-1.0778928995132446 -0.8152040839195251 0.06882178038358688 50
-1.071337342262268 -0.8099523186683655 0.02277538925409317 50
-1.0752593278884888 -0.8114436268806458 -0.3506999611854553 50
-1.0845352411270142 -0.8181467056274414 -0.3048088848590851 50
-1.080808401107788 -0.8150392770767212 -0.2554546296596527 50
-1.0676831007003784 -0.8048492074012756 -0.2057114839553833 50
-1.0967059135437012 -0.8264272809028625 -0.16391445696353912 50
-1.0848556756973267 -0.8172006607055664 -0.11548153311014175 50
-1.0756187438964844 -0.8099485039710999 -0.06833195686340332 50
-1.0850169658660889 -0.8167286515235901 -0.022807011380791664 50
-1.0841587781906128 -0.8157863020896912 0.353057861328125 50
-1.0857189893722534 -0.8166635632514954 0.3045782446861267 50
-1.0897915363311768 -0.8194290995597839 0.2573608458042145 50
-1.092521071434021 -0.8211830258369446 0.21017248928546906 50
-1.0819883346557617 -0.8129706382751465 0.16147686541080475 50
-1.097943663597107 -0.8246592283248901 0.11678869277238846 50
-1.084725022315979 -0.8144346475601196 0.06908345967531204 50
-1.0781564712524414 -0.8092086315155029 0.022862650454044342 50
-1.0858155488967896 -0.8134768009185791 -0.3532881736755371 50
-1.0912840366363525 -0.8172763586044312 -0.3059336245059967 50
-1.0875760316848755 -0.8142032027244568 -0.25640785694122314 50
-1.0744398832321167 -0.8040763735771179 -0.20649366080760956 50
-1.103557825088501 -0.8255667686462402 -0.16452381014823914 50
-1.0916904211044312 -0.8163917660713196 -0.11591731011867523 50
-1.0824387073516846 -0.8091785311698914 -0.06859276443719864 50
-1.09186589717865 -0.8159289360046387 -0.022893400862812996 50
-1.0908691883087158 -0.8148873448371887 0.35435113310813904 50
-1.0963705778121948 -0.8186988234519958 0.30682605504989624 50
-1.096578598022461 -0.818556010723114 0.2583140432834625 50
-1.0993391275405884 -0.8203179836273193 0.21095380187034607 50
-1.0887974500656128 -0.812156081199646 0.16208621859550476 50
-1.1048086881637573 -0.823799192905426 0.11722447723150253 50
-1.091564655303955 -0.8136272430419922 0.0693451389670372 50
-1.0849833488464355 -0.8084272146224976 0.022949911653995514 50
-1.0925238132476807 -0.8125638961791992 -0.3545822501182556 50
-1.0980398654937744 -0.816368818283081 -0.3070583939552307 50
-1.0943509340286255 -0.8133296966552734 -0.2573610246181488 50
-1.085168480873108 -0.8062111735343933 -0.20805799961090088 50
-1.1104170083999634 -0.8246684670448303 -0.16513314843177795 50
-1.0985329151153564 -0.8155452013015747 -0.11635308712720871 50
-1.0892664194107056 -0.8083708882331848 -0.06885357201099396 50
-1.0987224578857422 -0.8150911927223206 -0.022979792207479477 50
-1.0975865125656128 -0.8139515519142151 0.3556443750858307 50
-1.1070494651794434 -0.8206697106361389 0.30907386541366577 50
-1.1073161363601685 -0.8205679059028625 0.26022040843963623 50
-1.1101325750350952 -0.822354793548584 0.2125164121389389 50
-1.0996023416519165 -0.8142572045326233 0.1633049100637436 50
-1.1156846284866333 -0.8258646726608276 0.11809603869915009 50
-1.0984119176864624 -0.8127821087837219 0.06960681825876236 50
-1.0958369970321655 -0.810580849647522 0.023124435916543007 50
-1.1031242609024048 -0.8144828081130981 -0.357170432806015 50
-1.108722448348999 -0.818317174911499 -0.30930790305137634 50
-1.1011329889297485 -0.8124188184738159 -0.25831422209739685 50
-1.0919504165649414 -0.805349588394165 -0.20884017646312714 50
-1.1172833442687988 -0.8237324357032776 -0.16574250161647797 50
-1.109392523765564 -0.8176159858703613 -0.11722465604543686 50
-1.0961015224456787 -0.8075253367424011 -0.06911438703536987 50
-1.1055864095687866 -0.8142155408859253 -0.02306618168950081 50
-1.1082000732421875 -0.8158420920372009 0.358230859041214 50
-1.11775541305542 -0.8225757479667664 0.3113216757774353 50
-1.114127516746521 -0.8196062445640564 0.2611736059188843 50
-1.1209535598754883 -0.8243263363838196 0.21407903730869293 50
-1.1104352474212646 -0.8162928223609924 0.16452361643314362 50
-1.1225744485855103 -0.8249145746231079 0.11853181570768356 50
-1.1092904806137085 -0.8148550391197205 0.07013017684221268 50
-1.1067190170288086 -0.8126686811447144 0.0232989601790905 50
-1.1099978685379028 -0.8132886290550232 -0.3584645390510559 50
-1.1156445741653442 -0.8171267509460449 -0.31043264269828796 50
-1.112023949623108 -0.814176619052887 -0.26022058725357056 50
-1.102865219116211 -0.8071753978729248 -0.21040453016757965 50
-1.1243001222610474 -0.8225621581077576 -0.16635183990001678 50
-1.120422601699829 -0.8194250464439392 -0.11809621751308441 50
-1.107115387916565 -0.8093962073326111 -0.06963600218296051 50
-1.116635799407959 -0.8160575032234192 -0.02323896437883377 50
-1.1189829111099243 -0.8174731135368347 0.3608173727989197 50
-1.1325664520263672 -0.8270935416221619 0.3146933913230896 50
-1.1290169954299927 -0.8241993188858032 0.26403316855430603 50
-1.1319458484649658 -0.826034665107727 0.21564166247844696 50
-1.1214382648468018 -0.8180668354034424 0.16574230790138245 50
-1.1336394548416138 -0.8266641497612 0.11940336972475052 50
-1.1203395128250122 -0.816666305065155 0.07065354287624359 50
-1.1177709102630615 -0.8144951462745667 0.023473486304283142 50
-1.1206414699554443 -0.8150905966758728 -0.3610527217388153 50
-1.126370906829834 -0.8189573884010315 -0.3126821517944336 50
-1.1188294887542725 -0.8131756782531738 -0.2611737847328186 50
-1.1136665344238281 -0.8091261982917786 -0.21196888387203217 50
-1.1392109394073486 -0.8273815512657166 -0.16817988455295563 50
-1.1313375234603882 -0.8213617205619812 -0.11896777153015137 50
-1.122057557106018 -0.8143253326416016 -0.07041843235492706 50
-1.1316171884536743 -0.8209616541862488 -0.023498134687542915 50
-1.133559226989746 -0.8220686316490173 0.364697128534317 50
-1.1472803354263306 -0.831713855266571 0.3180651068687439 50
-1.1438103914260864 -0.8288938403129578 0.2668927311897278 50
-1.1468207836151123 -0.8307701349258423 0.2179855853319168 50
-1.136345624923706 -0.8228793740272522 0.1675703376531601 50
-1.1486225128173828 -0.8314641118049622 0.12071070820093155 50
-1.1353188753128052 -0.8215319514274597 0.07143858075141907 50
-1.1327629089355469 -0.8193730115890503 0.023735271766781807 50
-1.1311687231063843 -0.8170257210731506 -0.3636409044265747 50
-1.1407864093780518 -0.8239724636077881 -0.31605643033981323 50
-1.133316993713379 -0.8182764649391174 -0.26403334736824036 50
-1.1282161474227905 -0.8142940402030945 -0.21431539952754974 50
-1.1498537063598633 -0.8296059370040894 -0.16939857602119446 50
-1.1500718593597412 -0.8294581174850464 -0.12071089446544647 50
-1.1327108144760132 -0.8166364431381226 -0.0709400475025177 50
-1.14230215549469 -0.8232484459877014 -0.023670915514230728 50
-1.1518114805221558 -0.8297962546348572 0.369870126247406 50
-1.1617481708526611 -0.8366469740867615 0.3214367926120758 50
-1.1583590507507324 -0.8338993787765503 0.26975229382514954 50
-1.165459156036377 -0.8387018442153931 0.22111082077026367 50
-1.1510109901428223 -0.8279995918273926 0.16939838230609894 50
-1.163360834121704 -0.8365756273269653 0.12201803922653198 50
-1.150057315826416 -0.8267044425010681 0.07222361862659454 50
-1.151566743850708 -0.8274847865104675 0.024084320291876793 50
-1.145645260810852 -0.8217146396636963 -0.367523193359375 50
-1.1555335521697998 -0.8285017609596252 -0.3194306790828705 50
-1.148134708404541 -0.8228934407234192 -0.2668929100036621 50
-1.1430951356887817 -0.8189795017242432 -0.21666191518306732 50
-1.1688814163208008 -0.8371455073356628 -0.17183595895767212 50
-1.1651103496551514 -0.8341372013092041 -0.1220182254910469 50
-1.1517963409423828 -0.8243013620376587 -0.07198328524827957 50
-1.1614326238632202 -0.8308910727500916 -0.024016475304961205 50
-1.1704154014587402 -0.8370087146759033 0.375043123960495 50
-1.1765518188476562 -0.841086745262146 0.3248085081577301 50
-1.1732432842254639 -0.8384121060371399 0.2726118564605713 50
-1.180435299873352 -0.8432404398918152 0.22345475852489471 50
-1.1660103797912598 -0.8326287269592285 0.17122642695903778 50
-1.1784361600875854 -0.841191291809082 0.12332537770271301 50
-1.169193983078003 -0.8342859148979187 0.07327033579349518 50
-1.1666580438613892 -0.832169234752655 0.024346105754375458 50
-1.1566625833511353 -0.8229092359542847 -0.3701113760471344 50
-1.1745870113372803 -0.835352897644043 -0.32392969727516174 50
-1.1632870435714722 -0.8270108103752136 -0.26975247263908386 50
-1.158307671546936 -0.8231664896011353 -0.2190084308385849 50
-1.1882702112197876 -0.8441476821899414 -0.17427335679531097 50
-1.1804879903793335 -0.8383092284202576 -0.12332556396722794 50
-1.1671677827835083 -0.8285436034202576 -0.07276571542024612 50
-1.1768454313278198 -0.8351047039031982 -0.02427564561367035 50
-1.189378261566162 -0.843686044216156 0.38021615147590637 50
-1.1916955709457397 -0.8450172543525696 0.3281802237033844 50
-1.1884669065475464 -0.8424161672592163 0.27547141909599304 50
-1.1917234659194946 -0.8444120287895203 0.22501736879348755 50
-1.181348204612732 -0.8367508053779602 0.17305445671081543 50
-1.1979179382324219 -0.8481733202934265 0.12506848573684692 50
-1.1886911392211914 -0.8413289189338684 0.07431705296039581 50
-1.1820878982543945 -0.8363457322120667 0.024607891216874123 50
-1.171363115310669 -0.8272247314453125 -0.3739936649799347 50
-1.193415880203247 -0.8424864411354065 -0.328428715467453 50
-1.1822080612182617 -0.8342651724815369 -0.27356523275375366 50
-1.177315592765808 -0.8305048942565918 -0.22213712334632874 50
-1.2074326276779175 -0.8514345288276672 -0.17671073973178864 50
-1.1996917724609375 -0.845662534236908 -0.12506867945194244 50
-1.182297945022583 -0.8330927491188049 -0.07354813814163208 50
-1.1920146942138672 -0.8396283388137817 -0.024534815922379494 50
-1.2002142667770386 -0.8450905680656433 0.38280266523361206 50
-1.202606201171875 -0.8464607000350952 0.33042803406715393 50
-1.203442931175232 -0.8467357158660889 0.2783309817314148 50
-1.206782341003418 -0.8487704396247864 0.2273613065481186 50
-1.1964410543441772 -0.8411849737167358 0.17488250136375427 50
-1.209021806716919 -0.8497148156166077 0.12594003975391388 50
-1.1997919082641602 -0.8429151773452759 0.07484041154384613 50
-1.1931862831115723 -0.8379551768302917 0.024782415479421616 50
-1.1900626420974731 -0.8342198729515076 -0.3791700601577759 50
-1.2123087644577026 -0.8494986295700073 -0.33292776346206665 50
-1.1971733570098877 -0.838581383228302 -0.2764247953891754 50
-1.1923434734344482 -0.8348880410194397 -0.2244836390018463 50
-1.2225944995880127 -0.8557520508766174 -0.17853878438472748 50
-1.2107986211776733 -0.8471807241439819 -0.1259402334690094 50
-1.1974737644195557 -0.837546169757843 -0.07433056831359863 50
-1.207229733467102 -0.8440560698509216 -0.02479398623108864 50
-1.2150332927703857 -0.8491963744163513 0.3866824209690094 50
-1.2135413885116577 -0.8478384017944336 0.33267587423324585 50
-1.2144395112991333 -0.8481504917144775 0.2802373468875885 50
-1.2178364992141724 -0.850206732749939 0.22892391681671143 50
-1.2075093984603882 -0.8426836729049683 0.1761011928319931 50
-1.2201508283615112 -0.8511890769004822 0.12681160867214203 50
-1.2150139808654785 -0.8472903370857239 0.0756254494190216 50
-1.2043023109436035 -0.8395082950592041 0.02495693974196911 50
-1.200896143913269 -0.8355775475502014 -0.38175827264785767 50
-1.2272653579711914 -0.8536072373390198 -0.3363020420074463 50
-1.2121831178665161 -0.8428031206130981 -0.27928435802459717 50
-1.2033607959747314 -0.8363577127456665 -0.22604797780513763 50
-1.2337255477905273 -0.8571423888206482 -0.1797574907541275 50
-1.2260218858718872 -0.8514729738235474 -0.12724757194519043 50
-1.2085932493209839 -0.839056134223938 -0.07485218346118927 50
-1.2183829545974731 -0.8455374240875244 -0.02496676705777645 50
-1.2219586372375488 -0.8477029800415039 0.38797569274902344 50
-1.2245006561279297 -0.8491499423980713 0.3349236845970154 50
-1.2254605293273926 -0.8494988083839417 0.2821437418460846 50
-1.2289154529571533 -0.8515762686729431 0.23048655688762665 50
-1.2186026573181152 -0.8441153168678284 0.17731988430023193 50
-1.2313047647476196 -0.852595865726471 0.12768316268920898 50
-1.2220696210861206 -0.8458857536315918 0.07588712871074677 50
-1.2154476642608643 -0.8409883975982666 0.0251314640045166 50
-1.2157275676727295 -0.8396142721176147 -0.38564056158065796 50
-1.2382559776306152 -0.8548537492752075 -0.3385515511035919 50
-1.2272369861602783 -0.8469303250312805 -0.2821439504623413 50
-1.2184679508209229 -0.8405648469924927 -0.2283944934606552 50
-1.2448810338974 -0.8584654331207275 -0.18097618222236633 50
-1.2330875396728516 -0.8500151634216309 -0.1276833564043045 50
-1.2197378873825073 -0.840498685836792 -0.07537379860877991 50
-1.2295610904693604 -0.8469511270523071 -0.025139546021819115 50
-1.2288882732391357 -0.846171498298645 0.3892689347267151 50
-1.2314704656600952 -0.8476327657699585 0.33604758977890015 50
-1.2365055084228516 -0.8507804274559021 0.2840501070022583 50
-1.2359495162963867 -0.8500800132751465 0.23126786947250366 50
-1.2297205924987793 -0.8454797267913818 0.17853857576847076 50
-1.242483377456665 -0.8539353013038635 0.12855473160743713 50
-1.2291303873062134 -0.8444421887397766 0.07614880800247192 50
-1.2224968671798706 -0.8395708203315735 0.025218725204467773 50
-1.2266181707382202 -0.8408267498016357 -0.38822874426841736 50
-1.2492700815200806 -0.8560339212417603 -0.34080106019973755 50
-1.2382845878601074 -0.8481887578964233 -0.284050315618515 50
-1.2295442819595337 -0.841886579990387 -0.22995884716510773 50
-1.2519652843475342 -0.8569177389144897 -0.18158553540706635 50
-1.2442690134048462 -0.8513311147689819 -0.12855492532253265 50
-1.2309072017669678 -0.8418735861778259 -0.07589541375637054 50
-1.236636996269226 -0.8454756140708923 -0.025225937366485596 50
-1.2358219623565674 -0.8446018695831299 0.39056217670440674 50
-1.2424675226211548 -0.8488256931304932 0.3382954001426697 50
-1.2435210943222046 -0.8492271304130554 0.28500330448150635 50
-1.247066855430603 -0.8513294458389282 0.2328304797410965 50
-1.2367637157440186 -0.8439794182777405 0.17914791405200958 50
-1.2495713233947754 -0.8523998260498047 0.12899050116539001 50
-1.2361958026885986 -0.8429596424102783 0.07641048729419708 50
-1.2295509576797485 -0.8381141424179077 0.025305986404418945 50
-1.2375317811965942 -0.8419733643531799 -0.39081692695617676 50
-1.2562791109085083 -0.8544076681137085 -0.34192579984664917 50
-1.2493560314178467 -0.849380373954773 -0.2859566807746887 50
-1.2406445741653442 -0.8431413173675537 -0.23152320086956024 50
-1.2590539455413818 -0.8553310632705688 -0.18219487369060516 50
-1.2513537406921387 -0.849780797958374 -0.12899069488048553 50
-1.2379696369171143 -0.8403761386871338 -0.07615622878074646 50
-1.2395806312561035 -0.8411537408828735 -0.025225937366485596 50
-1.2467567920684814 -0.845705509185791 0.3931486904621124 50
-1.2494553327560425 -0.8472177386283875 0.33941930532455444 50
-1.250540852546692 -0.8476351499557495 0.2859565019607544 50
-1.2541193962097168 -0.8497413992881775 0.2336117923259735 50
-1.2479201555252075 -0.8452232480049133 0.1803666204214096 50
-1.2607882022857666 -0.8536178469657898 0.12986205518245697 50
-1.2474009990692139 -0.8442365527153015 0.0769338458776474 50
-1.2407503128051758 -0.8394196629524231 0.02548051066696644 50
-1.2444658279418945 -0.8403512239456177 -0.39211103320121765 50
-1.263291835784912 -0.8527429103851318 -0.3430505692958832 50
-1.2563819885253906 -0.847759485244751 -0.28690987825393677 50
-1.2517684698104858 -0.8443285822868347 -0.23308755457401276 50
-1.270261526107788 -0.8564797639846802 -0.183413565158844 50
-1.258442759513855 -0.848191499710083 -0.1294264793395996 50
-1.2491775751113892 -0.8416297435760498 -0.0766778439283371 50
-1.246655821800232 -0.8396143317222595 -0.025312326848506927 50
-1.253707766532898 -0.8440458178520203 0.3944419324398041 50
-1.2604891061782837 -0.8482915163040161 0.341667115688324 50
-1.2575644254684448 -0.8460044860839844 0.28690966963768005 50
-1.265274167060852 -0.8508703112602234 0.23517441749572754 50
-1.254981517791748 -0.8436306715011597 0.18097597360610962 50
-1.2678943872451782 -0.8519898056983948 0.13029783964157104 50
-1.2544853687286377 -0.842661440372467 0.07719553261995316 50
-1.2478231191635132 -0.8378704190254211 0.02556777372956276 50
-1.251403570175171 -0.838690996170044 -0.39340510964393616 50
-1.2703083753585815 -0.8510396480560303 -0.3441753089427948 50
-1.2634116411209106 -0.8460999131202698 -0.2878630757331848 50
-1.2588117122650146 -0.8427010774612427 -0.23386971652507782 50
-1.2773678302764893 -0.8548005223274231 -0.184022918343544 50
-1.265535831451416 -0.846562922000885 -0.12986226379871368 50
-1.256258487701416 -0.8400396704673767 -0.07693865895271301 50
-1.2537353038787842 -0.8380357623100281 -0.02539871633052826 50
-1.2606621980667114 -0.8423476815223694 0.3957351744174957 50
-1.2674938440322876 -0.8465924859046936 0.34279102087020874 50
-1.2645920515060425 -0.84433513879776 0.2878628671169281 50
-1.2723442316055298 -0.8491900563240051 0.23595573008060455 50
-1.2661752700805664 -0.8447533845901489 0.18219466507434845 50
-1.2791485786437988 -0.8530862331390381 0.131169393658638 50
-1.265728235244751 -0.8438167572021484 0.07771889120340347 50
-1.2590606212615967 -0.8390543460845947 0.025742297992110252 50
-1.2623660564422607 -0.8396672010421753 -0.39599332213401794 50
