# .PCD v0.7 - Point Cloud Data file format
VERSION 0.7
FIELDS x y z intensity
SIZE 4 4 4 4
TYPE F F F F
COUNT 1 1 1 1
WIDTH 794
HEIGHT 1
VIEWPOINT 0 0 0 1 0 0 0
POINTS 794
DATA ascii
1.9972413778305054 2.0459353923797607 0.6507409811019897 44
1.9916893243789673 2.0395355224609375 0.5461769104003906 44
2.0145206451416016 2.062195301055908 0.4500347375869751 44
1.982981562614441 2.0292012691497803 0.3436715304851532 44
1.9974921941757202 2.0433363914489746 0.24665075540542603 44
1.9956841468811035 2.04077410697937 0.147587388753891 44
2.001938819885254 2.0464553833007812 0.049303047358989716 44
1.3180532455444336 1.3450124263763428 -0.4943445920944214 119
1.5069231986999512 1.5372087955474854 -0.48814404010772705 119
1.7760134935379028 1.8110747337341309 -0.48517316579818726 119
2.0256969928741455 2.0649662017822266 -0.45209595561027527 119
2.021986961364746 2.06046462059021 -0.3497653901576996 44
2.0401499271392822 2.0782477855682373 -0.2514446973800659 44
1.9964733123779297 2.033045530319214 -0.14683546125888824 44
2.030750036239624 2.067228317260742 -0.04941519349813461 44
2.017359972000122 2.0528810024261475 0.7604323029518127 44
2.0214481353759766 2.0563230514526367 0.6563604474067688 44
2.0160038471221924 2.0500690937042236 0.5509428381919861 44
2.032097101211548 2.0657129287719727 0.45237869024276733 44
2.0144193172454834 2.047027826309204 0.3479369580745697 44
2.025578260421753 2.0576491355895996 0.2492654174566269 44
2.02731990814209 2.058699369430542 0.1494191586971283 44
2.0301201343536377 2.0608232021331787 0.049826618283987045 44
1.322740077972412 1.3404033184051514 -0.4943445920944214 119
1.515702486038208 1.5354063510894775 -0.48926883935928345 119
1.785773515701294 1.8083568811416626 -0.4861263632774353 119
2.043304681777954 2.068422794342041 -0.45444250106811523 119
2.0535850524902344 2.07810378074646 -0.3540308475494385 44
2.061398983001709 2.085282802581787 -0.2531878352165222 44
2.03515625 2.0580177307128906 -0.1491827517747879 44
2.0731117725372314 2.095667839050293 -0.05027909204363823 44
2.038102865219116 2.059558868408203 0.7656053304672241 44
2.0423240661621094 2.0631041526794434 0.6608560681343079 44
2.0369622707366943 2.0569698810577393 0.5547555685043335 44
2.0531978607177734 2.072640895843506 0.4555039405822754 44
2.035525321960449 2.054084062576294 0.35037434101104736 44
2.0502820014953613 2.0682530403137207 0.2514443099498749 44
2.0520730018615723 2.0693373680114746 0.1507275402545929 44
2.065467596054077 2.0821175575256348 0.05052471533417702 44
1.3274110555648804 1.335777997970581 -0.4943445920944214 119
1.524487853050232 1.5335614681243896 -0.49039360880851746 119
1.7920750379562378 1.802112340927124 -0.4861263632774353 119
2.0679266452789307 2.0787832736968994 -0.45835334062576294 119
2.07832932472229 2.0885112285614014 -0.35707756876945496 44
2.082721710205078 2.0921947956085205 -0.25493094325065613 44
2.066991090774536 2.0756680965423584 -0.15100841224193573 44
2.080414295196533 2.088418483734131 -0.05027909204363823 44
2.0793721675872803 2.086643934249878 0.7785378694534302 44
2.0632717609405518 2.0697646141052246 0.6653517484664917 44
2.061459541320801 2.0672245025634766 0.5595215559005737 44
2.0708835124969482 2.0759503841400146 0.45784783363342285 44
2.067221164703369 2.0715558528900146 0.35463976860046387 44
2.0786030292510986 2.0822346210479736 0.25405898690223694 44
2.076925039291382 2.0798275470733643 0.15203595161437988 44
2.076256036758423 2.0784318447113037 0.05061197280883789 44
1.3320655822753906 1.3311363458633423 -0.4943445920944214 119
1.5298316478729248 1.5282306671142578 -0.49039360880851746 119
1.8018275499343872 1.799314022064209 -0.48707953095436096 119
2.085655450820923 2.0820188522338867 -0.4606998860836029 119
2.1066839694976807 2.1022770404815674 -0.36073365807533264 44
2.097064971923828 2.091947555541992 -0.2558025121688843 44
2.0848307609558105 2.0790176391601562 -0.1517908275127411 44
2.0912322998046875 2.0846734046936035 -0.05036548525094986 44
2.083221912384033 2.075963258743286 0.7772445678710938 44
2.080838918685913 2.0728650093078613 0.6687234044075012 44
2.079096794128418 2.070406675338745 0.5623810887336731 44
2.0886173248291016 2.0791614055633545 0.4601917862892151 44
2.0814754962921143 2.071328639984131 0.3558584451675415 44
2.0999839305877686 2.089017629623413 0.25580209493637085 44
2.0947937965393066 2.083127498626709 0.15282097458839417 44
2.0905892848968506 2.0782206058502197 0.05078649893403053 44
1.3367040157318115 1.3264784812927246 -0.4943445920944214 119
1.5316978693008423 1.519450068473816 -0.48926883935928345 119
1.8080973625183105 1.7930134534835815 -0.48707953095436096 119
2.089402914047241 2.07124924659729 -0.45991769433021545 119
2.128109931945801 2.1088833808898926 -0.3631710708141327 0
2.1149702072143555 2.0951311588287354 -0.2571098506450653 44
2.0991711616516113 2.078754186630249 -0.15231245756149292 44
2.105602264404297 2.084394931793213 -0.05053826421499252 44
2.0973219871520996 2.0754735469818115 0.779831051826477 44
2.09498929977417 2.072441577911377 0.6709712147712708 44
2.0932910442352295 2.0700390338897705 0.5642874836921692 44
2.10288667678833 2.0788021087646484 0.4617544114589691 44
2.095752716064453 2.0710268020629883 0.35707715153694153 44
2.110806465148926 2.085174798965454 0.25623786449432373 44
2.1091582775115967 2.0828194618225098 0.15334433317184448 44
2.1049463748931885 2.077934503555298 0.05096102133393288 44
1.3413262367248535 1.3218042850494385 -0.4943445920944214 119
1.5335217714309692 1.5106751918792725 -0.48814404010772705 119
1.8178424835205078 1.7901350259780884 -0.4880327582359314 119
2.100139856338501 2.0674078464508057 -0.4606998860836029 119
2.1425325870513916 2.1084039211273193 -0.3643897473812103 0
2.1293725967407227 2.094721794128418 -0.25798138976097107 44
2.113534927368164 2.078416109085083 -0.15283407270908356 44
2.119995594024658 2.0840418338775635 -0.050711046904325485 44
2.107998847961426 2.0715253353118896 0.7811243534088135 44
2.1056864261627197 2.068530321121216 0.6720951795578003 44
2.1110103130340576 2.0730366706848145 0.5671470165252686 44
2.1171786785125732 2.0783681869506836 0.46331703662872314 44
2.110053539276123 2.070650815963745 0.35829582810401917 44
2.1251840591430664 2.084770679473877 0.25710946321487427 44
2.127110719680786 2.085932493209839 0.15412938594818115 44
2.122896909713745 2.08107328414917 0.05122280865907669 44
1.342480182647705 1.3137363195419312 -0.4930504858493805 119
1.5353031158447266 1.5019062757492065 -0.4870193302631378 119
1.827589511871338 1.7872105836868286 -0.48898595571517944 119
2.1038119792938232 2.056612014770508 -0.45991769433021545 119
2.156978130340576 2.10784912109375 -0.36560845375061035 0
2.1473605632781982 2.0977180004119873 -0.2592887282371521 44
2.1279218196868896 2.0780029296875 -0.1533556878566742 44
2.1344118118286133 2.083613157272339 -0.05088382586836815 44
2.1221303939819336 2.0709009170532227 0.7837108373641968 44
2.1198689937591553 2.06797194480896 0.6743429899215698 44
2.1287760734558105 2.0759358406066895 0.5700066089630127 44
2.131493330001831 2.077860116958618 0.4648796319961548 44
2.1243772506713867 2.070199728012085 0.3595145642757416 44
2.1395838260650635 2.0842909812927246 0.25798100233078003 44
2.141533613204956 2.0854618549346924 0.15465274453163147 44
2.137312650680542 2.08062481880188 0.05139733478426933 44
1.3470577001571655 1.30904221534729 -0.4930504858493805 119
1.5370419025421143 1.4931433200836182 -0.4858945310115814 119
1.8338168859481812 1.7808201313018799 -0.48898595571517944 119
2.118065118789673 2.056135654449463 -0.46148207783699036 119
2.1750071048736572 2.11067533493042 -0.3674364686012268 44
2.16182017326355 2.0971460342407227 -0.26016029715538025 44
2.14233136177063 2.077514886856079 -0.15387731790542603 44
2.148850917816162 2.083109140396118 -0.05105660483241081 44
2.1362831592559814 2.0702028274536133 0.7862973809242249 44
2.1375725269317627 2.0707292556762695 0.6777146458625793 44
2.143061399459839 2.0753211975097656 0.5719130039215088 44
2.145829916000366 2.0772769451141357 0.4664422571659088 44
2.138723134994507 2.069674015045166 0.3607332408428192 44
2.1540064811706543 2.083735942840576 0.2588525712490082 44
2.1559789180755615 2.08491587638855 0.1551761031150818 44
2.1517510414123535 2.0801005363464355 0.05157185718417168 44
1.3516188859939575 1.3043321371078491 -0.4930504858493805 119
1.5387382507324219 1.4843863248825073 -0.4847698211669922 119
1.8435548543930054 1.7778151035308838 -0.4899391233921051 119
2.153672695159912 2.0761489868164062 -0.46773943305015564 119
2.1895084381103516 2.109957695007324 -0.36865517497062683 44
2.1763017177581787 2.096498489379883 -0.261031836271286 44
2.156763792037964 2.076951026916504 -0.15439893305301666 44
2.1633126735687256 2.0825300216674805 -0.051229387521743774 44
2.1504569053649902 2.0694315433502197 0.7888838648796082 44
2.1518099308013916 2.0700104236602783 0.6799624562263489 44
2.1609058380126953 2.0780344009399414 0.5747725367546082 44
2.1637489795684814 2.0800414085388184 0.46878620982170105 44
2.1566693782806396 2.072511672973633 0.36256128549575806 44
2.1720430850982666 2.0865564346313477 0.2601598799228668 44
2.1704463958740234 2.084294319152832 0.1556994616985321 44
2.1662116050720215 2.079501152038574 0.05174638330936432 44
1.3526767492294312 1.2962645292282104 -0.491756409406662 119
1.5439103841781616 1.4790061712265015 -0.4847698211669922 119
1.8532944917678833 1.774763822555542 -0.49089235067367554 119
2.185878276824951 2.0925235748291016 -0.47321462631225586 0
2.204031229019165 2.1091644763946533 -0.36987385153770447 44
2.190805196762085 2.0957751274108887 -0.26190340518951416 44
2.171217918395996 2.0763118267059326 -0.1549205482006073 44
2.1777961254119873 2.0818750858306885 -0.05140216648578644 44
2.168142795562744 2.071922779083252 0.7927635908126831 44
2.1660683155059814 2.0692172050476074 0.6822102665901184 44
2.17879581451416 2.080648422241211 0.5776321291923523 44
2.178140878677368 2.079296112060547 0.4703488349914551 44
2.167480945587158 2.068397283554077 0.3631706237792969 44
2.186521291732788 2.0858380794525146 0.26103144884109497 44
2.1849355697631836 2.083597183227539 0.15622282028198242 44
2.180694341659546 2.0788259506225586 0.05192090570926666 44
1.3571932315826416 1.2915350198745728 -0.491756409406662 119
1.5455338954925537 1.4702500104904175 -0.4836450219154358 119
1.859478235244751 1.7682838439941406 -0.49089235067367554 119
2.1967484951019287 2.0882833003997803 -0.4739968180656433 0
2.2185750007629395 2.108295202255249 -0.3710925579071045 44
2.2053301334381104 2.0949761867523193 -0.2627749741077423 44
2.1856937408447266 2.075596809387207 -0.15544216334819794 44
2.195927143096924 2.0845861434936523 -0.05166133865714073 44
2.182368755340576 2.070991277694702 0.7953501343727112 44
2.183882236480713 2.0717029571533203 0.6855820417404175 44
2.196729898452759 2.083162307739258 0.5804916620254517 44
2.192553758621216 2.0784757137298584 0.4719114601612091 44
2.1782901287078857 2.064232349395752 0.3637799620628357 44
2.201021194458008 2.0850441455841064 0.26190298795700073 44
2.199446439743042 2.0828239917755127 0.15674617886543274 44
2.1951982975006104 2.0780746936798096 0.052095428109169006 44
1.3616933822631836 1.2867895364761353 -0.491756409406662 119
1.5506565570831299 1.464846134185791 -0.4836450219154358 119
1.8692078590393066 1.7651522159576416 -0.4918454885482788 119
2.207615613937378 2.0839924812316895 -0.4747789800167084 119
2.2331395149230957 2.1073501110076904 -0.37231123447418213 44
2.2198758125305176 2.0941014289855957 -0.26364651322364807 44
2.200191020965576 2.0748062133789062 -0.15596379339694977 44
2.210465908050537 2.0837666988372803 -0.051834121346473694 44
2.1966147422790527 2.0699856281280518 0.7979366779327393 44
2.198193073272705 2.0707485675811768 0.6878297924995422 44
2.214707851409912 2.0855765342712402 0.5833512544631958 44
2.210583448410034 2.0809645652770996 0.47425535321235657 44
2.189096212387085 2.0600168704986572 0.3643893301486969 44
2.2155418395996094 2.084174156188965 0.2627745568752289 44
2.217616081237793 2.0853958129882812 0.1575312316417694 44
2.2133665084838867 2.080672025680542 0.05235721915960312 44
1.3661768436431885 1.2820285558700562 -0.491756409406662 119
1.5593135356903076 1.4627575874328613 -0.4847698211669922 119
1.8753581047058105 1.7586166858673096 -0.4918454885482788 119
2.2184793949127197 2.079651117324829 -0.4755611717700958 119
2.2477245330810547 2.1063292026519775 -0.37352994084358215 44
2.2344424724578857 2.0931503772735596 -0.2645180821418762 44
2.2183539867401123 2.077352285385132 -0.15674620866775513 44
2.2250254154205322 2.0828709602355957 -0.05200690031051636 44
2.2108802795410156 2.0689055919647217 0.8005231618881226 44
2.212523937225342 2.0697195529937744 0.6900776028633118 44
2.2363147735595703 2.091243028640747 0.5871639847755432 44
2.2250492572784424 2.0799808502197266 0.4758179783821106 44
2.1708922386169434 2.028644561767578 0.3601239025592804 44
2.2337231636047363 2.0866284370422363 0.2640818953514099 44
2.232180595397949 2.0844578742980957 0.15805459022521973 44
2.2279248237609863 2.0797557830810547 0.05253174155950546 44
1.3706436157226562 1.277251958847046 -0.491756409406662 119
1.5644100904464722 1.457305669784546 -0.4847698211669922 119
1.8850774765014648 1.7554047107696533 -0.49279871582984924 119
2.229339838027954 2.075259208679199 -0.4763433039188385 119
2.262329339981079 2.105232000350952 -0.37474867701530457 44
2.2490293979644775 2.092123031616211 -0.265389621257782 44
2.2329049110412598 2.0763967037200928 -0.15726782381534576 44
2.23960542678833 2.0818986892700195 -0.05217967927455902 44
2.2251646518707275 2.067751407623291 0.8031096458435059 44
2.2268741130828857 2.068615436553955 0.6923254132270813 44
2.2579874992370605 2.0967836380004883 0.5909767150878906 44
2.243154764175415 2.0822808742523193 0.47816193103790283 44
2.228888750076294 2.0683140754699707 0.368654727935791 44
2.2482967376708984 2.0855934619903564 0.26495346426963806 44
2.246765613555908 2.0834436416625977 0.15857794880867004 44
2.2425036430358887 2.078763723373413 0.052706263959407806 44
1.3786383867263794 1.2757397890090942 -0.4930504858493805 119
1.569487452507019 1.4518359899520874 -0.4847698211669922 119
1.8947972059249878 1.7521462440490723 -0.4937518835067749 119
2.240196943283081 2.070817232131958 -0.47712549567222595 119
2.27695369720459 2.104058265686035 -0.3759673535823822 44
2.2636358737945557 2.0910191535949707 -0.26626119017601013 44
2.2511444091796875 2.078752279281616 -0.15805025398731232 44
2.2578792572021484 2.0842413902282715 -0.052438847720623016 44
2.2430174350738525 2.0697975158691406 0.8069893717765808 44
2.2448248863220215 2.070739984512329 0.6956971883773804 44
2.286942958831787 2.108853340148926 0.5966958403587341 44
2.261303186416626 2.084479808807373 0.48050588369369507 44
2.2689409255981445 2.090787887573242 0.37413886189460754 44
2.262890100479126 2.084482192993164 0.2658250033855438 44
2.2650434970855713 2.085735321044922 0.15936297178268433 44
2.2607803344726562 2.081080436706543 0.05296804755926132 44
1.3866393566131592 1.2741875648498535 -0.4943445920944214 119
1.5745457410812378 1.4463485479354858 -0.4847698211669922 119
1.9045170545578003 1.7488412857055664 -0.49470508098602295 119
2.2474117279052734 2.0629847049713135 -0.47712549567222595 119
2.291597843170166 2.1028079986572266 -0.3771860599517822 44
2.2782623767852783 2.089838981628418 -0.2671327590942383 44
2.265747308731079 2.0776307582855225 -0.15857186913490295 44
2.2725112438201904 2.0831034183502197 -0.05261162668466568 44
2.2573506832122803 2.068481206893921 0.8095758557319641 44
2.2592246532440186 2.0694732666015625 0.6979449987411499 44
2.287050485610962 2.0942280292510986 0.5947895050048828 44
2.279494285583496 2.0865774154663086 0.48284977674484253 44
2.2762253284454346 2.082854986190796 0.37413886189460754 44
2.27750301361084 2.08329439163208 0.266696572303772 44
2.279680013656616 2.08455491065979 0.15988633036613464 44
2.2791008949279785 2.0832951068878174 0.053229838609695435 44
1.3910787105560303 1.2693395614624023 -0.4943445920944214 119
1.5795848369598389 1.4408435821533203 -0.4847698211669922 119
1.9142367839813232 1.7454897165298462 -0.4956582486629486 119
2.258248805999756 2.0584540367126465 -0.477907657623291 119
2.306260347366333 2.1014809608459473 -0.37840473651885986 44
2.296590566635132 2.0919363498687744 -0.2684400975704193 44
2.2840614318847656 2.0797946453094482 -0.1593542993068695 44
2.287163019180298 2.081888437271118 -0.05278440937399864 44
2.2752740383148193 2.070340633392334 0.8134556412696838 44
2.2772469520568848 2.0714094638824463 0.7013166546821594 44
2.294346809387207 2.0862319469451904 0.5947895050048828 44
2.297727346420288 2.0885732173919678 0.48519372940063477 44
2.2834818363189697 2.074896812438965 0.37413886189460754 44
2.2958223819732666 2.085378646850586 0.268003910779953 44
2.298032522201538 2.0866544246673584 0.1606713831424713 44
2.29746413230896 2.08540678024292 0.05349162220954895 44
1.3955010175704956 1.2644760608673096 -0.4943445920944214 119
1.5846046209335327 1.4353210926055908 -0.4847698211669922 119
1.916679859161377 1.7355027198791504 -0.49470508098602295 119
2.265420436859131 2.0505588054656982 -0.477907657623291 119
2.3246214389801025 2.103407144546509 -0.3802327811717987 44
2.3112666606903076 2.0905895233154297 -0.26931166648864746 44
2.2987148761749268 2.0785067081451416 -0.15987591445446014 44
2.3018336296081543 2.080596685409546 -0.052957188338041306 44
2.289654493331909 2.068861961364746 0.8160421848297119 44
2.291694402694702 2.069978952407837 0.703564465045929 44
2.30525803565979 2.0814998149871826 0.5957427024841309 44
2.312335729598999 2.087157964706421 0.4867563545703888 44
2.2980799674987793 2.0735626220703125 0.37535756826400757 44
2.3104851245880127 2.084024429321289 0.26887547969818115 44
2.312718629837036 2.0853073596954346 0.16119474172592163 44
2.3121564388275146 2.084068775177002 0.05366614833474159 44
1.3999063968658447 1.2595970630645752 -0.4943445920944214 119
1.5896052122116089 1.4297810792922974 -0.4847698211669922 119
1.9190762042999268 1.7255200147628784 -0.4937518835067749 119
2.2762374877929688 2.0459399223327637 -0.47868984937667847 119
2.3393325805664062 2.1019134521484375 -0.38145145773887634 0
2.3259615898132324 2.089165687561035 -0.2701832056045532 44
2.313386917114258 2.0771420001983643 -0.16039754450321198 44
2.3165230751037598 2.079227924346924 -0.053129974752664566 44
2.3076467514038086 2.070533514022827 0.8199219107627869 44
2.3097870349884033 2.071726083755493 0.706936240196228 44
2.312509775161743 2.0734403133392334 0.5957427024841309 44
2.323284864425659 2.0823700428009033 0.4875376522541046 44
2.309000015258789 2.0688397884368896 0.3759669065475464 44
2.3251662254333496 2.0825929641723633 0.2697470188140869 44
2.3274238109588623 2.083883285522461 0.16171810030937195 44
2.3268673419952393 2.082653284072876 0.053840670734643936 44
1.4042946100234985 1.2547028064727783 -0.4943445920944214 119
1.5945864915847778 1.42422354221344 -0.4847698211669922 119
1.9250876903533936 1.718810796737671 -0.4937518835067749 119
2.283365249633789 2.0379817485809326 -0.47868984937667847 119
2.3540616035461426 2.1003427505493164 -0.38267016410827637 0
2.34067440032959 2.087664842605591 -0.27105477452278137 44
2.3280773162841797 2.075700044631958 -0.1609191596508026 44
2.334963083267212 2.0811078548431396 -0.05338914319872856 44
2.3220725059509277 2.068891763687134 0.8225083947181702 44
2.3242809772491455 2.070131540298462 0.7091840505599976 44
2.3270652294158936 2.0718834400177 0.597649097442627 44
2.3379175662994385 2.0808143615722656 0.48910024762153625 44
2.323622941970825 2.0673649311065674 0.3771856129169464 44
2.3398654460906982 2.0810844898223877 0.27061858773231506 44
2.342146635055542 2.0823814868927 0.16224145889282227 44
2.3415963649749756 2.081160545349121 0.05401519685983658 44
1.4086657762527466 1.249793291091919 -0.4943445920944214 119
1.5995482206344604 1.418648600578308 -0.4847698211669922 119
1.9274030923843384 1.7088242769241333 -0.49279871582984924 119
2.2941606044769287 2.0332744121551514 -0.47947201132774353 119
2.368807792663574 2.0986948013305664 -0.383888840675354 0
2.3591339588165283 2.0893890857696533 -0.2723621129989624 44
2.3427858352661133 2.0741806030273438 -0.16144077479839325 44
2.349700450897217 2.079571008682251 -0.053561922162771225 44
2.336514949798584 2.067174196243286 0.8250948786735535 44
2.338792085647583 2.0684611797332764 0.7114318013191223 44
2.34163761138916 2.0702497959136963 0.5995554327964783 44
2.348867416381836 2.075911283493042 0.48988157510757446 44
2.341982841491699 2.069098711013794 0.37901362776756287 44
2.3545823097229004 2.079498767852783 0.2714901566505432 44
2.3568875789642334 2.0808026790618896 0.16276481747627258 44
2.3525948524475098 2.076282024383545 0.05410245805978775 44
1.4093959331512451 1.241675853729248 -0.4930504858493805 119
1.6044905185699463 1.4130566120147705 -0.4847698211669922 119
1.9296722412109375 1.6988425254821777 -0.4918454885482788 119
2.3049514293670654 2.0285165309906006 -0.480254203081131 119
2.3835713863372803 2.0969693660736084 -0.38510754704475403 0
2.3738934993743896 2.0877201557159424 -0.27323368191719055 44
2.3575117588043213 2.0725836753845215 -0.1619623899459839 44
2.364455461502075 2.0779569149017334 -0.05373470112681389 44
2.354602098464966 2.0685689449310303 0.8289746642112732 44
2.3533194065093994 2.0667145252227783 0.7136796116828918 44
2.356227159500122 2.06853985786438 0.6014618277549744 44
2.36352276802063 2.074214458465576 0.4914442002773285 44
2.35665225982666 2.0674567222595215 0.3802323341369629 44
2.373061180114746 2.0811195373535156 0.27279746532440186 44
2.37164568901062 2.079145908355713 0.1632881760597229 44
2.367347478866577 2.0746471881866455 0.054276980459690094 44
1.4137216806411743 1.2367485761642456 -0.4930504858493805 119
1.6094132661819458 1.407447338104248 -0.4847698211669922 119
1.9281997680664062 1.6856353282928467 -0.4899391233921051 119
2.315737009048462 2.0237083435058594 -0.48103639483451843 119
2.4020891189575195 2.098431348800659 -0.38693559169769287 0
2.388669967651367 2.0859735012054443 -0.2741052508354187 44
2.3722550868988037 2.070909261703491 -0.16248400509357452 44
2.379227876663208 2.0762646198272705 -0.05390748381614685 44
2.3690872192382812 2.0666871070861816 0.8315612077713013 44
2.367863178253174 2.0648915767669678 0.7159274220466614 44
2.370832681655884 2.0667529106140137 0.6033682227134705 44
2.378195285797119 2.0724408626556396 0.4930068254470825 44
2.371338367462158 2.065737247467041 0.3814510107040405 44
2.387824058532715 2.0793654918670654 0.27366903424263 44
2.3864212036132812 2.077411651611328 0.16381153464317322 44
2.382117509841919 2.07293438911438 0.05445150285959244 44
1.4141695499420166 1.2288860082626343 -0.491756409406662 119
1.613826870918274 1.4023842811584473 -0.4847698211669922 119
1.9297806024551392 1.6763508319854736 -0.48898595571517944 119
2.3258121013641357 2.0196609497070312 -0.4818185567855835 119
2.4161648750305176 2.097381114959717 -0.3881542980670929 0
2.402735710144043 2.0849883556365967 -0.27497678995132446 44
2.3862931728363037 2.0699901580810547 -0.16300563514232635 44
2.3932929039001465 2.0753304958343506 -0.054080262780189514 44
2.3828675746917725 2.065561532974243 0.8341476917266846 44
2.3817026615142822 2.063823699951172 0.7181752324104309 44
2.3847341537475586 2.0657219886779785 0.6052745580673218 44
2.3921613693237305 2.071424961090088 0.49456945061683655 44
2.3853209018707275 2.0647733211517334 0.38266971707344055 44
2.405644655227661 2.0816314220428467 0.27497637271881104 44
2.4004883766174316 2.07643723487854 0.16433489322662354 44
2.396181344985962 2.0719804763793945 0.05462602898478508 44
1.4182369709014893 1.2241896390914917 -0.491756409406662 119
1.6187121868133545 1.396742343902588 -0.4847698211669922 119
1.9319034814834595 1.666398286819458 -0.4880327582359314 119
2.340327739715576 2.017979860305786 -0.4833828806877136 119
2.4309892654418945 2.095414400100708 -0.38937297463417053 0
2.421319007873535 2.0863423347473145 -0.2762841284275055 44
2.4010705947875977 2.0681650638580322 -0.163527250289917 44
2.408099412918091 2.0734875202178955 -0.05425304174423218 44
2.3973844051361084 2.063532829284668 0.8367341756820679 44
2.396278142929077 2.0618526935577393 0.7204230427742004 44
2.3993725776672363 2.063786506652832 0.6071809530258179 44
2.4068665504455566 2.0695016384124756 0.4961320757865906 44
2.400040864944458 2.0629043579101562 0.3838883936405182 44
2.420452117919922 2.079713821411133 0.2758479416370392 44
2.415297508239746 2.074552059173584 0.16485825181007385 44
2.414777994155884 2.073373556137085 0.054887816309928894 44
1.4229270219802856 1.2187349796295166 -0.491756409406662 119
1.6240633726119995 1.3905166387557983 -0.4847698211669922 119
1.9308300018310547 1.6525849103927612 -0.4861263632774353 119
2.3555638790130615 2.015399932861328 -0.48494723439216614 119
2.450331687927246 2.0957419872283936 -0.39120104908943176 0
2.4368839263916016 2.0835037231445312 -0.27715566754341125 44
2.4203813076019287 2.0686628818511963 -0.16430966556072235 44
2.427446126937866 2.0739681720733643 -0.05451221391558647 44
2.4163081645965576 2.063722610473633 0.8406139612197876 44
2.4152934551239014 2.062127113342285 0.7237948179244995 44
2.4184792041778564 2.064117431640625 0.6100404858589172 44
2.4260661602020264 2.0698606967926025 0.49847596883773804 44
2.419271945953369 2.0633349418640137 0.3857164680957794 44
2.439790725708008 2.08009934425354 0.2771552503108978 44
2.4308457374572754 2.0717403888702393 0.16538161039352417 44
2.4341375827789307 2.073812484741211 0.05514959990978241 44
1.4271725416183472 1.2137606143951416 -0.491756409406662 119
1.628907322883606 1.3848391771316528 -0.4847698211669922 119
1.929106593132019 1.6394779682159424 -0.4842199981212616 119
2.3701119422912598 2.0135600566864014 -0.48651158809661865 119
2.465197801589966 2.0936009883880615 -0.3924197256565094 0
2.455533266067505 2.084655523300171 -0.2784630358219147 44
2.4390084743499756 2.069894313812256 -0.1650920957326889 44
2.4422953128814697 2.0719504356384277 -0.054684996604919434 44
2.4308643341064453 2.061523199081421 0.8432004451751709 44
2.4336256980895996 2.0631351470947266 0.727166473865509 44
2.4331588745117188 2.062009572982788 0.6119468808174133 44
2.4445810317993164 2.0709564685821533 0.5008199214935303 44
2.4340341091156006 2.0612919330596924 0.38693514466285706 44
2.4546401500701904 2.0780067443847656 0.278026819229126 44
2.4494969844818115 2.0729191303253174 0.16616664826869965 44
2.4528162479400635 2.074984550476074 0.055411387234926224 44
1.4314006567001343 1.2087714672088623 -0.491756409406662 119
1.6337313652038574 1.3791447877883911 -0.4847698211669922 119
1.9273154735565186 1.6264032125473022 -0.4823136329650879 119
2.3884503841400146 2.0148274898529053 -0.48885810375213623 119
2.4800784587860107 2.091381549835205 -0.3936384320259094 0
2.470412015914917 2.0824923515319824 -0.27933457493782043 44
2.4576735496520996 2.0710206031799316 -0.16587452590465546 44
2.4609830379486084 2.07307505607605 -0.05494416505098343 44
2.4491288661956787 2.0623586177825928 0.8470801711082458 44
2.4519944190979004 2.064040422439575 0.7305382490158081 44
2.451608419418335 2.0629844665527344 0.6148064732551575 44
2.4631330966949463 2.0719478130340576 0.5031638741493225 44
2.4526095390319824 2.0623648166656494 0.3887631595134735 44
2.4695043563842773 2.075835943222046 0.27889835834503174 44
2.4643635749816895 2.0707807540893555 0.16669002175331116 44
2.467695951461792 2.0728461742401123 0.05558590963482857 44
1.435611367225647 1.2037675380706787 -0.491756409406662 119
1.6385356187820435 1.3734335899353027 -0.4847698211669922 119
1.9216941595077515 1.610208511352539 -0.47945404052734375 119
2.403040647506714 2.012820243835449 -0.49042245745658875 119
2.4987785816192627 2.0922696590423584 -0.3954664468765259 0
2.4891247749328613 2.083447217941284 -0.28064194321632385 44
2.476376533508301 2.0720419883728027 -0.166656956076622 44
2.479708671569824 2.074094295501709 -0.05520333722233772 44
2.4637234210968018 2.059993267059326 0.8496667146682739 44
2.466660976409912 2.0617177486419678 0.7327860593795776 44
2.4700944423675537 2.0638554096221924 0.6176660060882568 44
2.4817214012145996 2.0728349685668945 0.50550776720047 44
2.467412233352661 2.060152292251587 0.38998186588287354 44
2.4843835830688477 2.0735867023468018 0.2797699570655823 44
2.483078718185425 2.0717620849609375 0.16747504472732544 44
2.486433744430542 2.0738255977630615 0.05584769695997238 44
1.4435160160064697 1.2018390893936157 -0.4930504858493805 119
1.6395752429962158 1.3645890951156616 -0.4836450219154358 119
1.9348496198654175 1.6097692251205444 -0.48136040568351746 119
2.4176456928253174 2.010735273361206 -0.49198681116104126 119
2.5136988162994385 2.0898795127868652 -0.3966851532459259 0
2.5040435791015625 2.081113576889038 -0.2815134823322296 44
2.4951162338256836 2.0729575157165527 -0.16743938624858856 44
2.498471260070801 2.075007915496826 -0.05546250939369202 44
2.4820475578308105 2.060636043548584 0.8535465002059937 44
2.4850897789001465 2.062429189682007 0.7361577153205872 44
2.4848387241363525 2.061488628387451 0.6195724010467529 44
2.49654483795166 2.070464611053467 0.5070704221725464 44
2.4860503673553467 2.0610289573669434 0.3918099105358124 44
2.499276876449585 2.071258306503296 0.28064149618148804 44
2.501830577850342 2.0726382732391357 0.1682600975036621 44
2.5013585090637207 2.0715112686157227 0.056022223085165024 44
1.4477025270462036 1.1967930793762207 -0.4930504858493805 119
1.6443284749984741 1.3588576316833496 -0.4836450219154358 119
1.9480249881744385 1.6092573404312134 -0.48326680064201355 119
2.428457498550415 2.0054283142089844 -0.49276894330978394 119
2.5324604511260986 2.0905709266662598 -0.39851319789886475 0
2.522818088531494 2.0818707942962646 -0.28282082080841064 44
2.510040521621704 2.0705902576446533 -0.1679610013961792 44
2.5134129524230957 2.0726351737976074 -0.05563528835773468 44
2.4966788291931152 2.0581037998199463 0.856132984161377 44
2.499793767929077 2.059938907623291 0.7384055256843567 44
2.503384590148926 2.062164545059204 0.6224319338798523 44
2.5151939392089844 2.071155309677124 0.5094143748283386 44
2.5047242641448975 2.061800718307495 0.3936379849910736 44
2.5180301666259766 2.072016477584839 0.28194883465766907 44
2.5167624950408936 2.0702366828918457 0.16878345608711243 44
2.516296863555908 2.069117546081543 0.05619674548506737 44
1.4556043148040771 1.1947964429855347 -0.4943445920944214 119
1.6490617990493774 1.35310959815979 -0.4836450219154358 119
1.9612205028533936 1.608673334121704 -0.48517316579818726 119
2.4392619132995605 2.000070571899414 -0.4935511350631714 119
2.5474185943603516 2.08801007270813 -0.39973190426826477 0
2.541628360748291 2.0825226306915283 -0.2841281592845917 44
2.5249786376953125 2.068143844604492 -0.16848261654376984 44
2.5283687114715576 2.070183277130127 -0.055808067321777344 44
2.5150604248046875 2.058553457260132 0.8600127100944519 44
2.5182812213897705 2.0604560375213623 0.741777241230011 44
2.5181665420532227 2.059628486633301 0.6243383288383484 44
2.530054807662964 2.068615198135376 0.5109769701957703 44
2.5195908546447754 2.059326171875 0.39485666155815125 44
2.532961845397949 2.0695173740386963 0.28282037377357483 44
2.5355753898620605 2.0709147453308105 0.1695684939622879 44
2.5312492847442627 2.0666449069976807 0.05637127161026001 44
1.4597660303115845 1.1897082328796387 -0.4943445920944214 119
1.6537749767303467 1.347344994544983 -0.4836450219154358 119
1.9858529567718506 1.6173152923583984 -0.4899391233921051 119
2.4500582218170166 1.994661569595337 -0.49433329701423645 119
2.5662388801574707 2.088502883911133 -0.4015599191188812 0
2.556609869003296 2.0799245834350586 -0.2849997282028198 44
2.5399301052093506 2.0656182765960693 -0.16900423169136047 44
2.5472168922424316 2.070805788040161 -0.05606723576784134 44
2.5297274589538574 2.055854082107544 0.86259925365448 44
2.5330212116241455 2.0577969551086426 0.7440250515937805 44
2.532960891723633 2.057014226913452 0.6262446641921997 44
2.544928789138794 2.0659964084625244 0.5125395655632019 44
2.5383245944976807 2.0599000453948975 0.3966846764087677 44
2.5479071140289307 2.066939115524292 0.283691942691803 44
2.5505449771881104 2.0683412551879883 0.17009185254573822 44
2.5462145805358887 2.0640926361083984 0.056545794010162354 44
1.4639099836349487 1.1846054792404175 -0.4943445920944214 119
1.6622557640075684 1.3446279764175415 -0.4847698211669922 119
1.964769959449768 1.5887699127197266 -0.48326680064201355 119
2.4570059776306152 1.9860972166061401 -0.49433329701423645 119
2.581233501434326 2.08577036857605 -0.40277862548828125 0
2.5754787921905518 2.0803775787353516 -0.28630703687667847 44
2.55489444732666 2.0630133152008057 -0.1695258617401123 44
2.5622098445892334 2.0681817531585693 -0.0562400184571743 44
2.5481643676757812 2.05610990524292 0.8664789795875549 44
2.5477733612060547 2.055060386657715 0.74627286195755 44
2.551588535308838 2.0574028491973877 0.6291042566299438 44
2.563659906387329 2.0663981437683105 0.5148835182189941 44
2.5532281398773193 2.0572547912597656 0.3979033827781677 44
2.566743850708008 2.067405939102173 0.284999281167984 44
2.56552791595459 2.065688371658325 0.17061521112918854 44
2.5611929893493652 2.0614614486694336 0.056720320135354996 44
1.46803617477417 1.179488182067871 -0.4943445920944214 119
1.6669392585754395 1.3388174772262573 -0.4847698211669922 119
1.966476559638977 1.578829050064087 -0.4823136329650879 119
2.467775344848633 1.9805996417999268 -0.4951154887676239 119
2.600111246109009 2.086064338684082 -0.4046066701412201 0
2.590496301651001 2.0776071548461914 -0.2871786057949066 44
2.569871664047241 2.0603291988372803 -0.17004747688770294 44
2.5772156715393066 2.0654783248901367 -0.056412797421216965 44
2.5628647804260254 2.0532424449920654 0.8690654635429382 44
2.5663397312164307 2.055290937423706 0.7496446371078491 44
2.566418170928955 2.0546188354492188 0.6310106515884399 44
2.578569173812866 2.063608169555664 0.5164461135864258 44
2.572019577026367 2.0576303005218506 0.39973142743110657 44
2.5817248821258545 2.0646557807922363 0.28587085008621216 44
2.5844228267669678 2.0660738945007324 0.171400249004364 44
2.5800890922546387 2.061871290206909 0.05698210373520851 44
1.4681644439697266 1.1716010570526123 -0.4930504858493805 119
1.6711369752883911 1.3335740566253662 -0.4847698211669922 119
1.9637528657913208 1.5665217638015747 -0.4804072380065918 119
2.477846384048462 1.9759160280227661 -0.49589765071868896 119
2.614413261413574 2.0840725898742676 -0.4058253765106201 0
2.608696937561035 2.0787711143493652 -0.28848594427108765 44
2.5841426849365234 2.0584676265716553 -0.17056909203529358 44
2.5954244136810303 2.06671404838562 -0.05667196959257126 44
2.580639123916626 2.0542049407958984 0.872945249080658 44
2.5804085731506348 2.053285598754883 0.7518924474716187 44
2.584383964538574 2.0557122230529785 0.6338701844215393 44
2.5966358184814453 2.064718008041382 0.518790066242218 44
2.5862410068511963 2.055715799331665 0.4009501338005066 44
2.5998973846435547 2.065830707550049 0.2871781587600708 44
2.602630376815796 2.067261219024658 0.1721852868795395 44
2.598299741744995 2.063081979751587 0.057243891060352325 44
1.4682565927505493 1.1637262105941772 -0.491756409406662 119
1.6757819652557373 1.3277325630187988 -0.4847698211669922 119
1.96920907497406 1.5596574544906616 -0.4804072380065918 119
2.488600492477417 1.9703201055526733 -0.4966798424720764 119
2.6333463191986084 2.0841734409332275 -0.40765342116355896 0
2.6237497329711914 2.075833559036255 -0.2893575131893158 44
2.606977939605713 2.0618245601654053 -0.17161232233047485 44
2.6143875122070312 2.0669431686401367 -0.056931138038635254 44
2.5953726768493652 2.0511739253997803 0.875531792640686 44
2.5990288257598877 2.053326368331909 0.7552641034126282 44
2.6030995845794678 2.05580472946167 0.6367297768592834 44
2.6154561042785645 2.064822196960449 0.5211340188980103 44
2.605087995529175 2.055898904800415 0.40277814865112305 44
2.6149141788482666 2.062912940979004 0.28804972767829895 44
2.6215925216674805 2.067439556121826 0.17297032475471497 44
2.617263078689575 2.063284397125244 0.05750567466020584 44
1.4725120067596436 1.1583369970321655 -0.491756409406662 119
1.680637001991272 1.3215816020965576 -0.4847698211669922 119
1.9710534811019897 1.5493961572647095 -0.47945404052734375 119
2.5035715103149414 1.9672883749008179 -0.49824416637420654 119
2.648772954940796 2.080638885498047 -0.408872127532959 0
2.6430931091308594 2.0754315853118896 -0.2906648516654968 44
2.62630033493042 2.061504364013672 -0.1723947525024414 44
2.633744955062866 2.06660532951355 -0.05719031020998955 44
2.614274024963379 2.0505900382995605 0.879411518573761 44
2.61803936958313 2.0528056621551514 0.7586358189582825 44
2.6183433532714844 2.0523059368133545 0.6386361718177795 44
2.6307811737060547 2.061314105987549 0.5226966142654419 44
2.62041974067688 2.052457571029663 0.40399685502052307 44
2.634222984313965 2.0625271797180176 0.28935706615448 44
2.637016534805298 2.063971996307373 0.17349368333816528 44
2.636620044708252 2.0629196166992188 0.057767461985349655 44
1.4765464067459106 1.1531898975372314 -0.491756409406662 119
1.6852399110794067 1.3157070875167847 -0.4847698211669922 119
1.976449966430664 1.5425063371658325 -0.47945404052734375 119
2.5143167972564697 1.961574912071228 -0.4990263283252716 119
2.667759418487549 2.080536127090454 -0.41070014238357544 0
2.6621062755584717 2.075380325317383 -0.29197219014167786 44
2.6452958583831787 2.061532497406006 -0.17317718267440796 44
2.6527740955352783 2.0666162967681885 -0.05744947865605354 44
2.632847785949707 2.0503547191619873 0.8832913041114807 44
2.640566825866699 2.0556256771087646 0.7631314396858215 44
2.6371119022369385 2.052196979522705 0.6414957642555237 44
2.6496546268463135 2.0612151622772217 0.5250405669212341 44
2.6393210887908936 2.0524373054504395 0.4058248996734619 44
2.6532044410705566 2.062490463256836 0.290664404630661 44
2.6560330390930176 2.063945770263672 0.17427872121334076 44
2.6595969200134277 2.0659708976745605 0.05811651051044464 44
1.4807631969451904 1.1477702856063843 -0.491756409406662 119
1.6900508403778076 1.3095214366912842 -0.4847698211669922 119
1.9820902347564697 1.5352519750595093 -0.47945404052734375 119
2.521489381790161 1.9523462057113647 -0.4990263283252716 119
2.6832163333892822 2.076819658279419 -0.41191884875297546 0
2.681513547897339 2.074753522872925 -0.2932795286178589 44
2.6646831035614014 2.060987710952759 -0.1739596128463745 44
2.6721956729888916 2.0660531520843506 -0.05770865082740784 44
2.6518094539642334 2.0495517253875732 0.8871710300445557 44
2.65964937210083 2.0548698902130127 0.7665031552314758 44
2.6562695503234863 2.051518440246582 0.644355297088623 44
2.6689188480377197 2.060544013977051 0.5273844599723816 44
2.6546833515167236 2.048814058303833 0.40704357624053955 44
2.672576904296875 2.0618796348571777 0.29197174310684204 44
2.6754419803619385 2.063345193862915 0.17506377398967743 44
2.675069808959961 2.0623137950897217 0.058291032910346985 44
1.4847606420516968 1.1425944566726685 -0.491756409406662 119
1.694611668586731 1.3036141395568848 -0.4847698211669922 119
1.9835461378097534 1.5253318548202515 -0.4785008728504181 119
2.5596115589141846 1.9676108360290527 -0.505283772945404 119
2.7022547721862793 2.076512336730957 -0.4137468934059143 0
2.6966397762298584 2.071449041366577 -0.29415109753608704 44
2.687702178955078 2.063838005065918 -0.1750028431415558 44
2.6912882328033447 2.065845012664795 -0.05796782299876213 44
2.670442819595337 2.0491034984588623 0.8910508155822754 44
2.674537420272827 2.0515036582946777 0.7687509655952454 44
2.675100088119507 2.0511937141418457 0.6472148895263672 44
2.683934450149536 2.0572240352630615 0.528947114944458 44
2.6736369132995605 2.0485904216766357 0.4088716506958008 44
2.6916210651397705 2.061624526977539 0.29327908158302307 44
2.694521427154541 2.0631000995635986 0.1758487969636917 44
2.6941659450531006 2.0620737075805664 0.0585528202354908 44
1.4925776720046997 1.1403367519378662 -0.4930504858493805 119
1.699151873588562 1.2976908683776855 -0.4847698211669922 119
1.9888585805892944 1.518398642539978 -0.4785008728504181 119
2.5860931873321533 1.973644495010376 -0.5091946125030518 119
2.7173776626586914 2.073087453842163 -0.41496556997299194 0
2.715735912322998 2.07108473777771 -0.2954584062099457 44
2.6988606452941895 2.0574705600738525 -0.1752636432647705 44
2.706435441970825 2.0624985694885254 -0.05814060568809509 44
2.68910551071167 2.0485498905181885 0.8949306011199951 44
2.693310499191284 2.051010847091675 0.7721226811408997 44
2.690054416656494 2.0477893352508545 0.6491212248802185 44
2.7028892040252686 2.056814670562744 0.5312910079956055 44
2.6926209926605225 2.0482587814331055 0.41069966554641724 44
2.710695505142212 2.0612614154815674 0.2945864200592041 44
2.7096564769744873 2.059725046157837 0.17637217044830322 44
2.7093045711517334 2.058711290359497 0.05872734636068344 44
1.4965490102767944 1.1351196765899658 -0.4930504858493805 119
1.7036712169647217 1.291751742362976 -0.4847698211669922 119
1.9902348518371582 1.5084822177886963 -0.47754764556884766 119
2.6087114810943604 1.9765344858169556 -0.512323260307312 119
2.7364656925201416 2.072578191757202 -0.4167936146259308 0
2.7348623275756836 2.070612668991089 -0.2967657744884491 44
2.713989019393921 2.0540640354156494 -0.17578525841236115 44
2.725578546524048 2.0620875358581543 -0.05839977413415909 44
2.707796573638916 2.0478909015655518 0.8988102674484253 44
2.708226442337036 2.047473192214966 0.7743704915046692 44
2.7089335918426514 2.047264814376831 0.6519807577133179 44
2.7218739986419678 2.05629825592041 0.5336349606513977 44
2.707674980163574 2.0448288917541504 0.4119183421134949 44
2.7258248329162598 2.057788848876953 0.29545795917510986 44
2.7287867069244385 2.059277296066284 0.1771572083234787 44
2.7244560718536377 2.055263042449951 0.058901868760585785 44
1.5043604373931885 1.1327941417694092 -0.4943445920944214 119
1.708169937133789 1.2857969999313354 -0.4847698211669922 119
1.9954884052276611 1.5015257596969604 -0.47754764556884766 119
2.643221378326416 1.988196611404419 -0.5177984833717346 119
2.7555835247039795 2.0719611644744873 -0.41862165927886963 0
2.7500367164611816 2.0670390129089355 -0.29763731360435486 44
2.729126453399658 2.050576686859131 -0.17630688846111298 44
2.7407548427581787 2.058565616607666 -0.05857255309820175 44
2.7226531505584717 2.0442264080047607 0.9013968110084534 44
2.7231502532958984 2.043856620788574 0.7766183018684387 44
2.727841854095459 2.046633720397949 0.654840350151062 44
2.7369370460510254 2.052710771560669 0.5351975560188293 44
2.726708173751831 2.0442960262298584 0.4137464165687561 44
2.744948625564575 2.057223081588745 0.2967652976512909 44
2.743950605392456 2.055727005004883 0.17768056690692902 44
2.7436182498931885 2.0547306537628174 0.0591636523604393 44
1.5083054304122925 1.1275359392166138 -0.4943445920944214 119
1.712647795677185 1.2798266410827637 -0.4847698211669922 119
2.0007176399230957 1.4945510625839233 -0.47754764556884766 119
2.614532709121704 1.9523648023605347 -0.5107589364051819 119
2.7747299671173096 2.071235179901123 -0.42044970393180847 0
2.769211530685425 2.066363573074341 -0.2989446520805359 44
2.744272232055664 2.047008752822876 -0.1768285036087036 44
2.7599470615386963 2.057950973510742 -0.058831725269556046 44
2.741389751434326 2.0433695316314697 0.9052765965461731 44
2.7419886589050293 2.0430715084075928 0.7799900770187378 44
2.7467784881591797 2.0458950996398926 0.6576998829841614 44
2.7559688091278076 2.051992416381836 0.5375415086746216 44
2.7457706928253174 2.043654441833496 0.41557443141937256 44
2.76410174369812 2.0565483570098877 0.2980726361274719 44
2.7631289958953857 2.0550758838653564 0.1784656047821045 44
2.7587976455688477 2.0511064529418945 0.05933817848563194 44
1.5122320652008057 1.1222641468048096 -0.4943445920944214 119
1.7171049118041992 1.2738404273986816 -0.4847698211669922 119
2.005922317504883 1.487558126449585 -0.47754764556884766 119
2.6332335472106934 1.9520492553710938 -0.5131054520606995 119
2.7899177074432373 2.067446708679199 -0.4216684103012085 0
2.78841495513916 2.0655791759490967 -0.3002519905567169 44
2.763439416885376 2.0463311672210693 -0.17761093378067017 44
2.7791683673858643 2.057227611541748 -0.05909089371562004 44
2.76015305519104 2.0424063205718994 0.909156322479248 44
2.756937026977539 2.0392820835113525 0.7822378277778625 44
2.7696897983551025 2.0479671955108643 0.6615126729011536 44
2.775029182434082 2.051166534423828 0.5398854613304138 44
2.764862060546875 2.04290509223938 0.4174024760723114 44
2.7832834720611572 2.055765390396118 0.29937997460365295 44
2.782336473464966 2.0543158054351807 0.17925064265727997 44
2.782029628753662 2.0533390045166016 0.05968722328543663 44
1.512251853942871 1.1141139268875122 -0.4930504858493805 119
1.721540927886963 1.267838954925537 -0.4847698211669922 119
2.0111026763916016 1.4805470705032349 -0.47754764556884766 119
2.616166591644287 1.9252830743789673 -0.5084124207496643 119
2.809109687805176 2.0665178298950195 -0.42349642515182495 119
2.8076465129852295 2.0646860599517822 -0.30155932903289795 44
2.7866580486297607 2.0485024452209473 -0.17865416407585144 44
2.7984180450439453 2.0563950538635254 -0.059350065886974335 44
2.7789433002471924 2.041337251663208 0.9130361080169678 44
2.7797470092773438 2.0411810874938965 0.7867334485054016 44
2.788691759109497 2.046999931335449 0.6643722653388977 44
2.7980988025665283 2.0531537532806396 0.5430106520652771 44
2.7839808464050293 2.0420470237731934 0.41923052072525024 44
2.802492618560791 2.05487322807312 0.300687313079834 44
2.801571846008301 2.0534462928771973 0.18003568053245544 44
2.8012781143188477 2.0524795055389404 0.05994901433587074 44
1.5161316394805908 1.1088284254074097 -0.4930504858493805 119
1.7259560823440552 1.2618218660354614 -0.4847698211669922 119
2.016258478164673 1.473517894744873 -0.47754764556884766 119
2.610908269882202 1.9073996543884277 -0.5060659050941467 119
2.8283298015594482 2.0654802322387695 -0.4253244996070862 119
2.8269054889678955 2.06368350982666 -0.302866667509079 44
2.8099253177642822 2.0505363941192627 -0.1796974092721939 44
2.817695379257202 2.055452823638916 -0.05960923433303833 44
2.801661968231201 2.0430073738098145 0.9182090759277344 44
2.79866623878479 2.0400748252868652 0.7901051640510559 44
2.80772066116333 2.0459249019622803 0.6672317981719971 44
2.8172242641448975 2.0520970821380615 0.5453546047210693 44
2.8031277656555176 2.0410804748535156 0.4210585653781891 44
2.821730136871338 2.0538721084594727 0.301994651556015 44
2.8208353519439697 2.0524678230285645 0.18082071840763092 44
2.824597120285034 2.0544509887695312 0.06029805913567543 44
1.5199929475784302 1.1035293340682983 -0.4930504858493805 119
1.7303500175476074 1.2557895183563232 -0.4847698211669922 119
2.0213897228240967 1.4664709568023682 -0.47754764556884766 119
2.6095545291900635 1.8924757242202759 -0.5045015811920166 119
2.8515942096710205 2.067246198654175 -0.42776188254356384 119
2.846191644668579 2.0625717639923096 -0.30417400598526 44
2.8291969299316406 2.0495030879974365 -0.18047983944416046 44
2.837000608444214 2.054401159286499 -0.059868406504392624 44
2.8205132484436035 2.0417115688323975 0.9220888018608093 44
2.8215584754943848 2.041717767715454 0.794600784778595 44
2.8267760276794434 2.044741630554199 0.6700913310050964 44
2.836376190185547 2.050931930541992 0.5476985573768616 44
2.8223016262054443 2.0400049686431885 0.42288661003112793 44
2.840994119644165 2.0527615547180176 0.30330199003219604 44
2.8441734313964844 2.0543031692504883 0.18186743557453156 44
2.8439111709594727 2.053358316421509 0.06055985018610954 44
1.5238358974456787 1.0982170104980469 -0.4930504858493805 119
1.7347229719161987 1.249741792678833 -0.4847698211669922 119
2.026496410369873 1.4594061374664307 -0.47754764556884766 119
