# .PCD v0.7 - Point Cloud Data file format
VERSION 0.7
FIELDS x y z intensity
SIZE 4 4 4 4
TYPE F F F F
COUNT 1 1 1 1
WIDTH 791
HEIGHT 1
VIEWPOINT 0 0 0 1 0 0 0
POINTS 791
DATA ascii
3.124934196472168 -1.0876058340072632 -0.1708298921585083 101
3.095445156097412 -1.077947974205017 -0.055980850011110306 101
3.14667010307312 -1.0964022874832153 0.8819980025291443 101
3.1506471633911133 -1.0984047651290894 0.760883629322052 101
3.1365556716918945 -1.0941060781478882 0.6376829743385315 101
3.1181857585906982 -1.088308572769165 0.5164461135864258 101
3.128382682800293 -1.092480182647705 0.40216881036758423 101
3.1301541328430176 -1.0937117338180542 0.2867423892021179 101
3.1280980110168457 -1.093605875968933 0.17166192829608917 101
3.065614700317383 -1.072361707687378 0.056022223085165024 101
1.8043540716171265 -0.6329365968704224 -0.502109169960022 119
2.0725321769714355 -0.7274152040481567 -0.49826687574386597 119
2.4673867225646973 -0.8664844632148743 -0.5004242062568665 119
2.9946751594543457 -1.0522422790527344 -0.4966798424720764 119
3.1026785373687744 -1.0907999277114868 -0.39912253618240356 0
3.066772699356079 -1.0787780284881592 -0.28107771277427673 101
3.0834388732910156 -1.0852453708648682 -0.16874341666698456 101
3.049224853515625 -1.0738015174865723 -0.05520333722233772 101
3.1063809394836426 -1.094538927078247 0.8716520071029663 101
3.110034942626953 -1.0964365005493164 0.7518924474716187 101
3.0910582542419434 -1.090353012084961 0.6291042566299438 101
3.0771114826202393 -1.086037278175354 0.5101956129074097 101
3.087113857269287 -1.0901734828948975 0.3972940444946289 101
3.088745594024658 -1.0913560390472412 0.2832561731338501 101
3.0866005420684814 -1.091204047203064 0.1695684939622879 101
3.0241479873657227 -1.0697190761566162 0.05532412230968475 101
1.7930301427841187 -0.6360020041465759 -0.4995209574699402 119
2.060797929763794 -0.7313863039016724 -0.49601736664772034 119
2.4920992851257324 -0.8849468231201172 -0.50614333152771 119
2.986330509185791 -1.0610357522964478 -0.49589765071868896 119
3.06611967086792 -1.0899875164031982 -0.39485710859298706 0
3.030137538909912 -1.077791690826416 -0.2780272364616394 101
3.037294387817383 -1.0809345245361328 -0.1663961410522461 101
3.0077812671661377 -1.0710227489471436 -0.05451221391558647 101
3.066143751144409 -1.0924075841903687 0.8613060116767883 101
3.0694751739501953 -1.0941983461380005 0.7429011464118958 101
3.0502490997314453 -1.087944746017456 0.621478796005249 101
3.0360915660858154 -1.083492398262024 0.5039451718330383 101
3.0505735874176025 -1.0892609357833862 0.3930286169052124 101
3.0473926067352295 -1.0887248516082764 0.2797699570655823 101
3.0498602390289307 -1.0902067422866821 0.1677367389202118 101
2.992152214050293 -1.0701673030853271 0.054800551384687424 101
nan nan nan 0
2.090331554412842 -0.7500938177108765 -0.5038906931877136 119
2.447418689727783 -0.8787130117416382 -0.4975646436214447 119
2.9640181064605713 -1.0647752285003662 -0.49276894330978394 119
3.02960467338562 -1.0889332294464111 -0.39059168100357056 0
2.9888603687286377 -1.0748775005340576 -0.2745409905910492 101
2.9959166049957275 -1.0780056715011597 -0.16430966556072235 101
2.9569873809814453 -1.0645809173583984 -0.053648315370082855 101
3.030503273010254 -1.0916458368301392 0.8522531986236572 101
3.0289695262908936 -1.0916906595230103 0.7339099049568176 101
3.0094950199127197 -1.0852651596069336 0.6138532757759094 101
2.999772787094116 -1.0823509693145752 0.49847596883773804 101
3.0094101428985596 -1.0864218473434448 0.3881538510322571 101
3.0060954093933105 -1.0858182907104492 0.2762836813926697 101
3.0037732124328613 -1.0855721235275269 0.16538161039352417 101
2.9460866451263428 -1.065305471420288 0.05401519685983658 101
1.8157886266708374 -0.6583818197250366 -0.5072855353355408 119
2.0693812370300293 -0.7507399320602417 -0.4993916451931 119
2.416654109954834 -0.8772025108337402 -0.4918454885482788 119
2.9370741844177246 -1.0666860342025757 -0.48885810375213623 119
2.9931347370147705 -1.0876374244689941 -0.38632622361183167 0
2.961684226989746 -1.0767942667007446 -0.2723621129989624 101
2.945211410522461 -1.0713871717453003 -0.16170157492160797 101
2.939160108566284 -1.0697667598724365 -0.05338914319872856 101
2.990367889404297 -1.0889959335327148 0.8419072031974792 101
2.9930970668792725 -1.0905815362930298 0.726042628288269 101
2.968796730041504 -1.082314372062683 0.6062277555465698 101
2.9634995460510254 -1.0809690952301025 0.4930068254470825 101
2.968303918838501 -1.0833085775375366 0.38327908515930176 101
2.9601778984069824 -1.0809284448623657 0.272361695766449 101
2.9624459743499756 -1.0823426246643066 0.1632881760597229 101
2.9282641410827637 -1.0704336166381836 0.053753409534692764 101
nan nan nan 0
2.0576000213623047 -0.754603922367096 -0.49714213609695435 119
2.42279314994812 -0.8890145421028137 -0.4937518835067749 119
2.886974334716797 -1.059911847114563 -0.48103639483451843 119
2.961369752883911 -1.087811827659607 -0.38267016410827637 0
2.897129535675049 -1.0647881031036377 -0.2666969895362854 101
2.9320809841156006 -1.0782147645950317 -0.16117995977401733 101
2.9119489192962646 -1.071388602256775 -0.052957188338041306 101
2.9548213481903076 -1.0877481698989868 0.8328544497489929 101
2.952697277069092 -1.0875513553619385 0.7170513272285461 101
2.923551321029663 -1.0773956775665283 0.597649097442627 101
2.9272727966308594 -1.0793474912643433 0.4875376522541046 101
2.9319121837615967 -1.0816395282745361 0.37901362776756287 101
2.9330227375030518 -1.0826307535171509 0.2701827883720398 101
2.916494607925415 -1.077108383178711 0.16093306243419647 101
2.849480390548706 -1.0529241561889648 0.05235721915960312 101
nan nan nan 0
nan nan nan 0
2.447286605834961 -0.9077075123786926 -0.4994710087776184 119
2.892516613006592 -1.073419213294983 -0.48260071873664856 119
2.9063782691955566 -1.079140543937683 -0.3759673535823822 101
2.879387617111206 -1.0696907043457031 -0.265389621257782 101
2.8768157958984375 -1.06930673122406 -0.15831105411052704 101
2.8707056045532227 -1.0676058530807495 -0.05226606875658035 101
2.9193196296691895 -1.0862653255462646 0.8238016963005066 101
2.907790184020996 -1.0825530290603638 0.706936240196228 101
2.8921751976013184 -1.0773143768310547 0.5919299721717834 101
2.877211093902588 -1.0723122358322144 0.47972455620765686 0
2.890918731689453 -1.077995777130127 0.37413886189460754 101
2.8872249126434326 -1.0771923065185547 0.2662607729434967 101
2.8706164360046387 -1.0715665817260742 0.15857794880867004 101
2.855154037475586 -1.0663625001907349 0.05253174155950546 101
nan nan nan 0
nan nan nan 0
2.4718406200408936 -0.9261507987976074 -0.5051901340484619 119
2.884316921234131 -1.0812716484069824 -0.4818185567855835 119
2.893490791320801 -1.0852868556976318 -0.37474867701530457 101
2.8711612224578857 -1.077483057975769 -0.2649538815021515 101
2.8779287338256836 -1.0805959701538086 -0.15857186913490295 101
2.857789993286133 -1.0736033916473389 -0.05209328606724739 101
2.879533052444458 -1.0823452472686768 0.8134556412696838 108
2.863142490386963 -1.0767548084259033 0.6968210339546204 0
2.8610236644744873 -1.0765279531478882 0.5862108469009399 0
2.8736393451690674 -1.0818474292755127 0.47972455620765686 0
2.8594629764556885 -1.0770803689956665 0.37048280239105225 108
2.874315023422241 -1.0832475423812866 0.26538923382759094 108
2.8717188835144043 -1.0828416347503662 0.158839613199234 108
2.870311975479126 -1.082883358001709 0.05288079008460045 108
nan nan nan 0
nan nan nan 0
2.4869537353515625 -0.9417261481285095 -0.5090028643608093 119
2.871288537979126 -1.0878338813781738 -0.480254203081131 119
2.8943252563476562 -1.0971394777297974 -0.375357985496521 108
2.872040033340454 -1.08926522731781 -0.265389621257782 101
2.8554656505584717 -1.08354914188385 -0.15752863883972168 101
2.863372325897217 -1.0871212482452393 -0.05226606875658035 108
2.8667075634002686 -1.08896005153656 0.8108691573143005 108
2.8639206886291504 -1.0884734392166138 0.6979449987411499 108
2.8480727672576904 -1.0830191373825073 0.5843043923377991 108
2.865229368209839 -1.0901156663894653 0.47894322872161865 108
2.8556859493255615 -1.0870552062988281 0.37048280239105225 108
2.8798258304595947 -1.0968198776245117 0.2662607729434967 108
2.8632559776306152 -1.0910813808441162 0.15857794880867004 108
2.8618431091308594 -1.0911149978637695 0.05279352515935898 108
nan nan nan 0
nan nan nan 0
2.4698991775512695 -0.9451390504837036 -0.50614333152771 119
2.8720860481262207 -1.0996158123016357 -0.48103639483451843 119
2.8904778957366943 -1.1072357892990112 -0.375357985496521 108
2.872871160507202 -1.1010663509368896 -0.26582542061805725 108
2.856328010559082 -1.0952976942062378 -0.1577894389629364 108
2.859560251235962 -1.0971096754074097 -0.05226606875658035 108
2.8538708686828613 -1.0954983234405518 0.8082826733589172 108
2.8510074615478516 -1.0949701070785522 0.6956971883773804 108
2.8442749977111816 -1.092954158782959 0.5843043923377991 108
2.8475778102874756 -1.0947937965393066 0.4765993058681488 108
2.8518738746643066 -1.0970168113708496 0.37048280239105225 108
2.8759799003601074 -1.1068657636642456 0.2662607729434967 108
2.8640894889831543 -1.1028634309768677 0.158839613199234 108
2.8580169677734375 -1.1010979413986206 0.05279352515935898 108
nan nan nan 0
2.0533435344696045 -0.7935548424720764 -0.4993916451931 119
2.4620068073272705 -0.9519845247268677 -0.5051901340484619 119
2.868230104446411 -1.109634518623352 -0.48103639483451843 119
2.8865952491760254 -1.1173187494277954 -0.375357985496521 108
2.8690102100372314 -1.1110879182815552 -0.26582542061805725 108
2.8571434020996094 -1.1070656776428223 -0.15805025398731232 108
2.8603744506835938 -1.1088918447494507 -0.05235246196389198 108
2.8455264568328857 -1.103706955909729 0.8069893717765808 108
2.8517098426818848 -1.1066780090332031 0.6968210339546204 108
2.845017910003662 -1.1046524047851562 0.5852575898170471 108
2.8483424186706543 -1.1065152883529663 0.4773806035518646 108
2.8526527881622314 -1.1087628602981567 0.3710921108722687 108
2.872098445892334 -1.1168979406356812 0.2662607729434967 108
2.860222339630127 -1.112854242324829 0.158839613199234 108
2.854156017303467 -1.1110676527023315 0.05279352515935898 108
nan nan nan 0
2.073251485824585 -0.8095778226852417 -0.5050153732299805 119
2.454097032546997 -0.9587867259979248 -0.5042369961738586 119
2.86893892288208 -1.121437668800354 -0.4818185567855835 119
2.8826773166656494 -1.1273880004882812 -0.375357985496521 108
2.865114450454712 -1.121095895767212 -0.26582542061805725 108
2.8579108715057373 -1.1188523769378662 -0.15831105411052704 108
2.8564863204956055 -1.1188695430755615 -0.05235246196389198 108
2.8506500720977783 -1.1171574592590332 0.8095758557319641 108
2.852365255355835 -1.1184040307998657 0.6979449987411499 108
2.8411448001861572 -1.1145765781402588 0.5852575898170471 108
2.849059820175171 -1.1182554960250854 0.47816193103790283 108
2.8487651348114014 -1.1187137365341187 0.3710921108722687 108
2.868182420730591 -1.1269166469573975 0.2662607729434967 108
2.8609671592712402 -1.1246583461761475 0.15910130739212036 108
2.854912757873535 -1.1228536367416382 0.05288079008460045 108
nan nan nan 0
2.0704128742218018 -0.8168098330497742 -0.5050153732299805 119
2.446169853210449 -0.9655451774597168 -0.5032837390899658 119
2.869600296020508 -1.1332592964172363 -0.48260071873664856 119
2.8787245750427246 -1.1374435424804688 -0.375357985496521 108
2.8658156394958496 -1.1329212188720703 -0.26626119017601013 108
2.8539879322052 -1.1288214921951294 -0.15831105411052704 108
2.8572118282318115 -1.1306732892990112 -0.052438847720623016 108
2.851223945617676 -1.1288793087005615 0.8108691573143005 108
2.852973461151123 -1.1301480531692505 0.6990688443183899 108
2.841799736022949 -1.1262956857681274 0.5862108469009399 108
2.8497297763824463 -1.130014181137085 0.47894322872161865 108
2.8494558334350586 -1.1304811239242554 0.3717014789581299 108
2.8642311096191406 -1.1369216442108154 0.2662607729434967 108
2.8616647720336914 -1.1364811658859253 0.15936297178268433 108
2.85097599029541 -1.132812261581421 0.05288079008460045 108
nan nan nan 0
nan nan nan 0
2.442784547805786 -0.9740779995918274 -0.5032837390899658 119
2.8656270503997803 -1.1432691812515259 -0.48260071873664856 119
2.879345655441284 -1.1493250131607056 -0.3759673535823822 108
2.866469144821167 -1.1447652578353882 -0.2666969895362854 108
2.8500301837921143 -1.1387768983840942 -0.15831105411052704 108
2.85324764251709 -1.1406399011611938 -0.052438847720623016 108
2.851750135421753 -1.1406186819076538 0.8121623992919922 108
2.853534460067749 -1.1419100761413574 0.7001928091049194 108
2.837851047515869 -1.1362086534500122 0.5862108469009399 108
2.8503525257110596 -1.1417912244796753 0.47972455620765686 108
2.8454926013946533 -1.1404207944869995 0.3717014789581299 108
2.864868402481079 -1.1487665176391602 0.266696572303772 108
2.857680082321167 -1.1464632749557495 0.15936297178268433 108
2.8516435623168945 -1.1446192264556885 0.05296804755926132 108
nan nan nan 0
nan nan nan 0
2.4393694400787354 -0.9825990200042725 -0.5032837390899658 119
2.866199016571045 -1.1551109552383423 -0.4833828806877136 119
2.8753163814544678 -1.1593687534332275 -0.3759673535823822 108
2.867074966430664 -1.1566276550292969 -0.2671327590942383 108
2.850668430328369 -1.1505874395370483 -0.15857186913490295 108
2.853884220123291 -1.1524646282196045 -0.05252524092793465 108
2.8477513790130615 -1.1505662202835083 0.8121623992919922 108
2.854048013687134 -1.1536897420883179 0.7013166546821594 108
2.8384177684783936 -1.147947907447815 0.5871639847755432 108
2.8509275913238525 -1.1535862684249878 0.48050588369369507 108
2.8460941314697266 -1.1522085666656494 0.3723108172416687 108
2.8608407974243164 -1.1587598323822021 0.266696572303772 108
2.858288526535034 -1.1583067178726196 0.15962466597557068 108
2.847630500793457 -1.1545662879943848 0.05296804755926132 108
nan nan nan 0
nan nan nan 0
2.435924768447876 -0.9911079406738281 -0.5032837390899658 119
2.862149238586426 -1.1651087999343872 -0.4833828806877136 119
2.8758480548858643 -1.1712703704833984 -0.376576691865921 108
2.863020181655884 -1.1666284799575806 -0.2671327590942383 108
2.846634864807129 -1.1605310440063477 -0.15857186913490295 108
2.8544728755950928 -1.1643075942993164 -0.05261162668466568 108
2.84818959236145 -1.1623246669769287 0.8134556412696838 108
2.8545141220092773 -1.1654868125915527 0.702440619468689 108
2.838937282562256 -1.1597049236297607 0.5881171822547913 108
2.846883535385132 -1.1635308265686035 0.48050588369369507 108
2.842054843902588 -1.1621363162994385 0.3723108172416687 108
2.861388683319092 -1.1706249713897705 0.26713234186172485 108
2.858848810195923 -1.170168399810791 0.15988633036613464 108
2.8482096195220947 -1.1663939952850342 0.05305531248450279 108
nan nan nan 0
nan nan nan 0
2.432450294494629 -0.9996049404144287 -0.5032837390899658 119
2.8626325130462646 -1.1769704818725586 -0.4841650724411011 119
2.8763315677642822 -1.183189868927002 -0.3771860599517822 0
2.8635365962982178 -1.1785109043121338 -0.26756852865219116 108
2.8471832275390625 -1.1723617315292358 -0.15883268415927887 108
2.850391149520874 -1.1742645502090454 -0.05261162668466568 108
2.8485805988311768 -1.1741001605987549 0.8147488832473755 108
2.850428342819214 -1.1754438877105713 0.702440619468689 108
2.839409112930298 -1.1714797019958496 0.5890703797340393 108
2.84736967086792 -1.175345540046692 0.4812871515750885 108
2.8425679206848145 -1.173944354057312 0.3729201853275299 108
2.8618884086608887 -1.182508111000061 0.2675681412220001 108
2.859361171722412 -1.1820480823516846 0.160148024559021 108
2.844120740890503 -1.1763290166854858 0.05305531248450279 108
nan nan nan 0
2.037842273712158 -0.8453522324562073 -0.5005163550376892 119
2.4334795475006104 -1.0099711418151855 -0.5042369961738586 119
2.858506679534912 -1.1869558095932007 -0.4841650724411011 119
2.8767669200897217 -1.1951266527175903 -0.37779536843299866 0
2.8640050888061523 -1.1904112100601196 -0.26800432801246643 108
2.847684144973755 -1.1842104196548462 -0.15909349918365479 108
2.850890636444092 -1.1861275434494019 -0.05269801989197731 108
2.8444647789001465 -1.184036374092102 0.8147488832473755 108
2.8508055210113525 -1.187259554862976 0.703564465045929 108
2.8398334980010986 -1.1832717657089233 0.5900235772132874 108
2.843249559402466 -1.1852775812149048 0.4812871515750885 108
2.8384528160095215 -1.1838594675064087 0.3729201853275299 108
2.857743263244629 -1.1924906969070435 0.2675681412220001 108
2.859825372695923 -1.1939456462860107 0.16040968894958496 108
2.8446102142333984 -1.1881765127182007 0.053142573684453964 108
nan nan nan 0
2.0483596324920654 -0.8581078052520752 -0.5038906931877136 119
2.4299392700195312 -1.018459439277649 -0.5042369961738586 119
2.8589000701904297 -1.1988362073898315 -0.48494723439216614 119
2.8771538734436035 -1.2070813179016113 -0.37840473651885986 0
2.859832286834717 -1.2004011869430542 -0.26800432801246643 108
2.8481366634368896 -1.19607675075531 -0.1593542993068695 108
2.851341962814331 -1.1980081796646118 -0.05278440937399864 108
2.844766855239868 -1.1958298683166504 0.8160421848297119 108
2.851135015487671 -1.1990923881530762 0.7046884298324585 108
2.840209722518921 -1.1950809955596924 0.5909767150878906 108
2.84364652633667 -1.1971113681793213 0.4820684790611267 108
2.838876724243164 -1.1956866979599 0.37352949380874634 108
2.8581535816192627 -1.2043931484222412 0.268003910779953 108
2.855640411376953 -1.2039210796356201 0.16040968894958496 108
2.8450517654418945 -1.2000417709350586 0.053229838609695435 108
nan nan nan 0
2.027404308319092 -0.8576602935791016 -0.4993916451931 119
2.4263694286346436 -1.026935338973999 -0.5042369961738586 119
2.859245777130127 -1.2107341289520264 -0.4857294261455536 119
2.872922897338867 -1.2171169519424438 -0.37840473651885986 0
2.860210657119751 -1.212320327758789 -0.2684400975704193 108
2.8439443111419678 -1.2060112953186035 -0.1593542993068695 108
2.8517448902130127 -1.2099064588546753 -0.05287080258131027 108
2.8450212478637695 -1.2076398134231567 0.8173353672027588 108
2.8469319343566895 -1.2090373039245605 0.7046884298324585 108
2.8360207080841064 -1.20498788356781 0.5909767150878906 108
2.8439953327178955 -1.208962082862854 0.48284977674484253 108
2.8392527103424072 -1.207531213760376 0.37413886189460754 108
2.8539319038391113 -1.214362621307373 0.268003910779953 108
2.8560147285461426 -1.2158374786376953 0.1606713831424713 108
2.845444679260254 -1.2119245529174805 0.05331709608435631 108
nan nan nan 0
2.015437602996826 -0.8609045147895813 -0.49714213609695435 119
2.4182565212249756 -1.033469796180725 -0.5032837390899658 119
2.8595428466796875 -1.2226488590240479 -0.48651158809661865 119
2.8732197284698486 -1.2290897369384766 -0.3790140748023987 0
2.855961561203003 -1.222296953201294 -0.2684400975704193 108
2.8443071842193604 -1.217896580696106 -0.15961511433124542 108
2.847503900527954 -1.2198535203933716 -0.05287080258131027 108
2.8452277183532715 -1.219466209411621 0.8186286687850952 108
2.8471717834472656 -1.2208876609802246 0.7058122754096985 108
2.836308240890503 -1.2168153524398804 0.5919299721717834 108
2.8397579193115234 -1.2188822031021118 0.48284977674484253 108
2.835020065307617 -1.2174346446990967 0.37413886189460754 108
2.854252338409424 -1.2262835502624512 0.2684396803379059 108
2.8563406467437744 -1.227771282196045 0.16093306243419647 108
2.8411970138549805 -1.2218495607376099 0.05331709608435631 108
1.7559394836425781 -0.7569537162780762 -0.502109169960022 119
2.021367311477661 -0.871793270111084 -0.4993916451931 119
2.4146342277526855 -1.0419048070907593 -0.5032837390899658 119
2.855257511138916 -1.2326231002807617 -0.48651158809661865 119
2.8689119815826416 -1.2391117811203003 -0.3790140748023987 0
2.8562498092651367 -1.2342344522476196 -0.2688758969306946 108
2.8446221351623535 -1.2297990322113037 -0.15987591445446014 108
2.8478169441223145 -1.231770396232605 -0.052957188338041306 108
2.840953826904297 -1.2293903827667236 0.8186286687850952 108
2.84289288520813 -1.230818748474121 0.7058122754096985 108
2.8365471363067627 -1.2286592721939087 0.5928831100463867 108
2.840017557144165 -1.2307511568069458 0.48363110423088074 108
2.8353066444396973 -1.2292975187301636 0.37474822998046875 108
2.84995436668396 -1.2362391948699951 0.2684396803379059 108
2.8520374298095703 -1.2377341985702515 0.16093306243419647 108
2.8415002822875977 -1.233750820159912 0.05340436100959778 108
1.7532864809036255 -0.763078510761261 -0.502109169960022 119
2.0183117389678955 -0.8788437843322754 -0.4993916451931 119
2.410982608795166 -1.0503270626068115 -0.5032837390899658 119
2.8554646968841553 -1.2445554733276367 -0.4872937798500061 119
2.8691179752349854 -1.2511022090911865 -0.3796234428882599 0
2.856489419937134 -1.2461888790130615 -0.26931166648864746 108
2.8448879718780518 -1.2417185306549072 -0.16013672947883606 108
2.848081588745117 -1.2437043190002441 -0.053043581545352936 108
2.8410708904266357 -1.241233229637146 0.8199219107627869 108
2.843043327331543 -1.2426860332489014 0.706936240196228 108
2.836738348007202 -1.2405198812484741 0.5938363075256348 108
2.84022855758667 -1.2426366806030273 0.48441240191459656 108
2.8355445861816406 -1.2411770820617676 0.37535756826400757 108
2.850184440612793 -1.2481780052185059 0.26887547969818115 108
2.8522727489471436 -1.2496858835220337 0.16119474172592163 108
2.841754913330078 -1.245668888092041 0.05349162220954895 108
1.741902470588684 -0.7650042772293091 -0.4995209574699402 119
2.015540838241577 -0.8851801753044128 -0.4993916451931 119
2.4076709747314453 -1.0578961372375488 -0.5032837390899658 119
2.8515408039093018 -1.2535200119018555 -0.4872937798500061 119
2.865173578262329 -1.2601096630096436 -0.3796234428882599 0
2.85711932182312 -1.2571626901626587 -0.26974743604660034 108
2.845543384552002 -1.2526618242263794 -0.16039754450321198 108
2.8487355709075928 -1.254660725593567 -0.053129974752664566 108
2.8371572494506836 -1.250152587890625 0.8199219107627869 108
2.843583345413208 -1.2535768747329712 0.708060085773468 108
2.83282732963562 -1.2494256496429443 0.5938363075256348 108
2.8408288955688477 -1.2535470724105835 0.48519372940063477 108
2.8361711502075195 -1.2520833015441895 0.3759669065475464 108
2.8508052825927734 -1.2591383457183838 0.26931124925613403 108
2.8529000282287598 -1.2606587409973145 0.1614564210176468 108
2.837827682495117 -1.254590392112732 0.05349162220954895 108
1.7570180892944336 -0.7786032557487488 -0.504697322845459 119
2.0124387741088867 -0.8922103643417358 -0.4993916451931 119
2.399477005004883 -1.064303994178772 -0.5023306012153625 119
2.8471477031707764 -1.2634661197662354 -0.4872937798500061 119
2.865293025970459 -1.272117018699646 -0.3802327811717987 0
2.8527138233184814 -1.2671281099319458 -0.26974743604660034 108
2.841153383255005 -1.2625869512557983 -0.16039754450321198 108
2.8443386554718018 -1.2645970582962036 -0.053129974752664566 108
2.8371894359588623 -1.2620115280151367 0.8212151527404785 108
2.8391902446746826 -1.2634952068328857 0.708060085773468 108
2.832932472229004 -1.2613028287887573 0.5947895050048828 108
2.8364357948303223 -1.263455867767334 0.48519372940063477 108
2.8363163471221924 -1.263995885848999 0.3765762448310852 108
2.8463926315307617 -1.2690818309783936 0.26931124925613403 108
2.848482131958008 -1.2706094980239868 0.1614564210176468 108
2.837996482849121 -1.2665261030197144 0.05357888340950012 108
1.754152536392212 -0.7850378155708313 -0.504697322845459 119
2.0047085285186768 -0.8975893259048462 -0.49826687574386597 119
2.395559787750244 -1.0730912685394287 -0.5023306012153625 119
2.8470041751861572 -1.2759125232696533 -0.4880759119987488 119
2.8606112003326416 -1.282610297203064 -0.3802327811717987 0
2.852595090866089 -1.2796140909194946 -0.2701832056045532 108
2.84106183052063 -1.2750362157821655 -0.1606583446264267 108
2.844245195388794 -1.2770612239837646 -0.0532163605093956 108
2.8369503021240234 -1.2743809223175049 0.8225083947181702 108
2.838984251022339 -1.2758901119232178 0.7091840505599976 108
2.8327672481536865 -1.2736903429031372 0.5957427024841309 108
2.836289882659912 -1.275869369506836 0.4859750270843506 108
2.8361902236938477 -1.276419758796692 0.3771856129169464 108
2.846263885498047 -1.2815508842468262 0.2697470188140869 108
2.848358392715454 -1.2830919027328491 0.16171810030937195 108
2.83789324760437 -1.2789734601974487 0.05366614833474159 108
1.7602041959762573 -0.795132577419281 -0.5072855353355408 119
2.00156307220459 -0.9045815467834473 -0.49826687574386597 119
2.3917994499206543 -1.081446886062622 -0.5023306012153625 119
2.8425328731536865 -1.2858426570892334 -0.4880759119987488 119
2.86063814163208 -1.294634222984314 -0.3808421194553375 0
2.8526484966278076 -1.2916182279586792 -0.2706190049648285 108
2.841142416000366 -1.2870060205459595 -0.1609191596508026 108
2.8397700786590576 -1.2869818210601807 -0.0532163605093956 108
2.836883544921875 -1.2862704992294312 0.8238016963005066 108
2.8389501571655273 -1.2878048419952393 0.7103078961372375 108
2.8283040523529053 -1.2835707664489746 0.5957427024841309 108
2.836315631866455 -1.2878038883209229 0.4867563545703888 108
2.836235523223877 -1.2883645296096802 0.37779495120048523 108
2.841773271560669 -1.2914783954620361 0.2697470188140869 108
2.848407745361328 -1.295093297958374 0.1619797796010971 108
2.8379619121551514 -1.2909417152404785 0.053753409534692764 108
1.7574180364608765 -0.8012719750404358 -0.5072855353355408 119
1.993960976600647 -0.9095410704612732 -0.49714213609695435 119
2.388010025024414 -1.0897891521453857 -0.5023306012153625 119
2.838027238845825 -1.2957570552825928 -0.4880759119987488 119
2.8606154918670654 -1.306673526763916 -0.38145145773887634 0
2.8481228351593018 -1.3015680313110352 -0.2706190049648285 108
2.8411734104156494 -1.2989916801452637 -0.16117995977401733 108
2.8398067951202393 -1.2989661693572998 -0.05330275371670723 108
2.83676815032959 -1.2981749773025513 0.8250948786735535 108
2.838867664337158 -1.2997349500656128 0.7114318013191223 108
2.828268527984619 -1.295479655265808 0.5966958403587341 108
2.8362927436828613 -1.299754023551941 0.4875376522541046 108
2.8362324237823486 -1.3003252744674683 0.37840431928634644 108
2.8417749404907227 -1.3034666776657104 0.2701827883720398 108
2.848407506942749 -1.3071106672286987 0.16224145889282227 108
2.837981700897217 -1.302925944328308 0.053840670734643936 108
1.754610300064087 -0.8074015974998474 -0.5072855353355408 119
1.9907740354537964 -0.9164957404136658 -0.49714213609695435 119
2.3841912746429443 -1.0981183052062988 -0.5023306012153625 119
2.8379721641540527 -1.307722568511963 -0.48885810375213623 119
2.860543966293335 -1.3187288045883179 -0.38206082582473755 0
2.8480849266052246 -1.3135879039764404 -0.27105477452278137 108
2.841156005859375 -1.3109934329986572 -0.16144077479839325 108
2.8397939205169678 -1.3109663724899292 -0.05338914319872856 108
2.832219362258911 -1.3080692291259766 0.8250948786735535 108
2.838735818862915 -1.3116800785064697 0.7125557065010071 108
2.8281846046447754 -1.307403802871704 0.597649097442627 108
2.8317387104034424 -1.3096466064453125 0.4875376522541046 108
2.8316760063171387 -1.3102177381515503 0.37840431928634644 108
2.8417282104492188 -1.3154710531234741 0.27061858773231506 108
2.848358631134033 -1.3191440105438232 0.16250313818454742 108
2.837952136993408 -1.3149261474609375 0.05392793193459511 108
1.7474009990692139 -0.8114872574806213 -0.5059914588928223 119
1.9875627756118774 -0.9234392642974854 -0.49714213609695435 119
2.3803436756134033 -1.1064339876174927 -0.5023306012153625 119
2.8378679752349854 -1.3197033405303955 -0.4896402657032013 119
2.8604228496551514 -1.3307993412017822 -0.38267016410827637 0
2.8479981422424316 -1.3256233930587769 -0.27149057388305664 108
2.8410885334014893 -1.323010802268982 -0.16170157492160797 108
2.835200786590576 -1.3208709955215454 -0.05338914319872856 108
2.8320138454437256 -1.3199880123138428 0.8263881802558899 108
2.8385555744171143 -1.3236401081085205 0.7136796116828918 108
2.828051805496216 -1.3193432092666626 0.5986022353172302 108
2.831624984741211 -1.3216118812561035 0.4883189797401428 108
2.8315820693969727 -1.3221937417984009 0.37901362776756287 108
2.8371191024780273 -1.3253824710845947 0.27061858773231506 108
2.8437366485595703 -1.3290785551071167 0.16250313818454742 108
2.8333449363708496 -1.3248244524002075 0.05392793193459511 108
1.7445578575134277 -0.8175819516181946 -0.5059914588928223 119
1.9887380599975586 -0.9324396252632141 -0.49826687574386597 119
2.376466989517212 -1.1147361993789673 -0.5023306012153625 119
2.8332440853118896 -1.3296012878417969 -0.4896402657032013 119
2.8602523803710938 -1.342885136604309 -0.3832795321941376 0
2.8478617668151855 -1.3376743793487549 -0.2719263434410095 108
2.8364531993865967 -1.332919955253601 -0.16170157492160797 108
2.835097074508667 -1.3328866958618164 -0.05347553268074989 108
2.831759214401245 -1.331921100616455 0.8276814222335815 108
2.8339178562164307 -1.3335405588150024 0.7136796116828918 108
2.8278701305389404 -1.331297516822815 0.5995554327964783 108
2.8314621448516846 -1.3335922956466675 0.48910024762153625 108
2.8314387798309326 -1.3341851234436035 0.3796229958534241 108
2.8369805812835693 -1.3374016284942627 0.27105435729026794 108
2.8435957431793213 -1.341126799583435 0.16276481747627258 108
2.8332245349884033 -1.3368399143218994 0.05401519685983658 108
1.7460592985153198 -0.8257312178611755 -0.5072855353355408 119
1.9854711294174194 -0.9393758773803711 -0.49826687574386597 119
2.372561454772949 -1.123024821281433 -0.5023306012153625 119
2.85536527633667 -1.352164626121521 -0.49433329701423645 119
2.8555476665496826 -1.3528611660003662 -0.3832795321941376 0
2.8476762771606445 -1.3497406244277954 -0.2723621129989624 108
2.836294651031494 -1.3449523448944092 -0.1619623899459839 108
2.8349435329437256 -1.34491765499115 -0.053561922162771225 108
2.831456422805786 -1.3438687324523926 0.8289746642112732 108
2.833646774291992 -1.3455144166946411 0.7148035168647766 108
2.827638864517212 -1.343266487121582 0.6005086302757263 108
2.8312501907348633 -1.3455878496170044 0.48988157510757446 108
2.8312461376190186 -1.3461915254592896 0.3802323341369629 108
2.8367929458618164 -1.3494361639022827 0.2714901566505432 108
2.838897228240967 -1.3510446548461914 0.16276481747627258 108
2.833054542541504 -1.3488706350326538 0.05410245805978775 108
1.7431663274765015 -0.8318211436271667 -0.5072855353355408 119
1.982179880142212 -0.9463008046150208 -0.49826687574386597 119
2.368626832962036 -1.1312997341156006 -0.5023306012153625 119
2.8729074001312256 -1.3727693557739258 -0.49824416637420654 119
2.8552849292755127 -1.3649609088897705 -0.383888840675354 0
2.847440719604492 -1.3618215322494507 -0.2727978825569153 108
2.8360869884490967 -1.3569997549057007 -0.1622232049703598 108
2.8347411155700684 -1.356963872909546 -0.053648315370082855 108
2.831104278564453 -1.3558303117752075 0.8302679657936096 108
2.833326578140259 -1.3575026988983154 0.7159274220466614 108
2.827359199523926 -1.355250358581543 0.6014618277549744 108
2.830989122390747 -1.3575979471206665 0.4906628727912903 108
2.8310043811798096 -1.3582130670547485 0.3808417022228241 108
2.8365557193756104 -1.361485481262207 0.2719259262084961 108
2.838665008544922 -1.363107442855835 0.16302649676799774 108
2.828328847885132 -1.3587515354156494 0.05410245805978775 108
1.7402520179748535 -0.8379008769989014 -0.5072855353355408 119
1.9788646697998047 -0.9532141089439392 -0.49826687574386597 119
2.3646633625030518 -1.1395609378814697 -0.5023306012153625 119
2.8903403282165527 -1.3935129642486572 -0.502155065536499 119
2.854973077774048 -1.3770755529403687 -0.3844982087612152 0
2.847155809402466 -1.3739174604415894 -0.27323368191719055 108
2.8313329219818115 -1.3668912649154663 -0.1622232049703598 108
2.8344886302948 -1.3690248727798462 -0.05373470112681389 108
2.830702781677246 -1.3678057193756104 0.8315612077713013 108
2.8329570293426514 -1.3695049285888672 0.7170513272285461 108
2.8226113319396973 -1.3651113510131836 0.6014618277549744 108
2.8306784629821777 -1.3696225881576538 0.4914442002773285 108
2.8307127952575684 -1.3702490329742432 0.3814510107040405 108
2.836268901824951 -1.3735495805740356 0.272361695766449 108
2.8383829593658447 -1.3751848936080933 0.1632881760597229 108
2.8280675411224365 -1.3707966804504395 0.05418971925973892 108
1.737316608428955 -0.8439703583717346 -0.5072855353355408 119
1.9755252599716187 -0.9601158499717712 -0.49826687574386597 119
2.360671281814575 -1.1478081941604614 -0.5023306012153625 119
2.885458469390869 -1.4035935401916504 -0.502155065536499 119
2.8546109199523926 -1.3892043828964233 -0.38510754704475403 0
2.8423426151275635 -1.3838474750518799 -0.27323368191719055 108
2.831033229827881 -1.3789526224136353 -0.16248400509357452 108
2.8341867923736572 -1.3811007738113403 -0.05382109433412552 108
2.825911045074463 -1.377678394317627 0.8315612077713013 108
2.832538604736328 -1.3815213441848755 0.7181752324104309 108
2.822239875793457 -1.377108097076416 0.6024149656295776 108
2.8303184509277344 -1.3816616535186768 0.4922254979610443 108
2.830371856689453 -1.382299542427063 0.38206037878990173 108
2.835932493209839 -1.385628342628479 0.27279746532440186 108
2.8380515575408936 -1.3872772455215454 0.16354985535144806 108
2.827755928039551 -1.3828561305999756 0.054276980459690094 108
1.7343599796295166 -0.8500295877456665 -0.5072855353355408 119
1.9721617698669434 -0.9670058488845825 -0.49826687574386597 119
2.3610568046569824 -1.158203125 -0.5032837390899658 119
2.884974718093872 -1.4158328771591187 -0.5029371976852417 119
2.8497445583343506 -1.399160385131836 -0.38510754704475403 0
2.841965436935425 -1.3959567546844482 -0.27366945147514343 108
2.830683946609497 -1.391028642654419 -0.16274482011795044 108
2.829348564147949 -1.3909854888916016 -0.05382109433412552 108
2.8254189491271973 -1.3896660804748535 0.8328544497489929 108
2.8320703506469727 -1.393551230430603 0.7192991375923157 108
2.821819543838501 -1.389119029045105 0.6033682227134705 108
2.8254780769348145 -1.3915328979492188 0.4922254979610443 108
2.8299810886383057 -1.394364356994629 0.38266971707344055 108
2.8355462551116943 -1.3977214097976685 0.2732332646846771 108
2.837669849395752 -1.399383783340454 0.16381153464317322 108
2.827394962310791 -1.3949304819107056 0.054364245384931564 108
1.7313822507858276 -0.8560784459114075 -0.5072855353355408 119
1.9687743186950684 -0.973884105682373 -0.49826687574386597 119
2.356999635696411 -1.1664377450942993 -0.5032837390899658 119
2.8800148963928223 -1.4258946180343628 -0.5029371976852417 119
2.849290132522583 -1.411302089691162 -0.38571691513061523 0
2.841538429260254 -1.4080802202224731 -0.2741052508354187 108
2.830284595489502 -1.4031188488006592 -0.16300563514232635 108
2.8289544582366943 -1.4030745029449463 -0.05390748381614685 108
2.8248772621154785 -1.4016668796539307 0.8341476917266846 108
2.831552505493164 -1.405594825744629 0.7204230427742004 108
2.8213493824005127 -1.4011437892913818 0.6043213605880737 108
2.825026512145996 -1.403584599494934 0.4930068254470825 108
2.829540967941284 -1.4064433574676514 0.38327908515930176 108
2.8351097106933594 -1.409828543663025 0.27366903424263 108
2.837238073348999 -1.4115046262741089 0.16407321393489838 108
2.826984167098999 -1.4070188999176025 0.05445150285959244 108
1.7283834218978882 -0.8621168732643127 -0.5072855353355408 119
1.965362787246704 -0.9807504415512085 -0.49826687574386597 119
2.3529136180877686 -1.1746580600738525 -0.5032837390899658 119
2.8750200271606445 -1.4359389543533325 -0.5029371976852417 119
2.848785877227783 -1.4234575033187866 -0.38632622361183167 0
2.8410613536834717 -1.420217514038086 -0.2745409905910492 108
2.8298354148864746 -1.415223240852356 -0.16326643526554108 108
2.8285105228424072 -1.415177822113037 -0.05399387329816818 108
2.824286699295044 -1.413680911064148 0.835440993309021 108
2.8309855461120605 -1.417651891708374 0.72154700756073 108
2.8208296298980713 -1.4131821393966675 0.6052745580673218 108
2.8245248794555664 -1.4156501293182373 0.49378812313079834 108
2.829050302505493 -1.4185360670089722 0.3838883936405182 108
2.8346235752105713 -1.4219497442245483 0.2741048038005829 108
2.83229398727417 -1.4213998317718506 0.16407321393489838 108
2.8265233039855957 -1.419121503829956 0.05453876778483391 108
1.7253636121749878 -0.8681448101997375 -0.5072855353355408 119
1.9619274139404297 -0.9876048564910889 -0.49826687574386597 119
2.353182792663574 -1.1850718259811401 -0.5042369961738586 119
2.8744003772735596 -1.4481879472732544 -0.5037193894386292 119
2.848231554031372 -1.435626745223999 -0.38693559169769287 0
2.840534210205078 -1.4323688745498657 -0.27497678995132446 108
2.829336166381836 -1.4273415803909302 -0.163527250289917 108
2.828016519546509 -1.4272949695587158 -0.054080262780189514 108
2.823646068572998 -1.4257076978683472 0.8367341756820679 108
2.8303680419921875 -1.429721713066101 0.72267085313797 108
2.8202602863311768 -1.4252338409423828 0.6062277555465698 108
2.8239734172821045 -1.4277291297912598 0.49456945061683655 108
2.828510046005249 -1.4306426048278809 0.3844977617263794 108
2.8296427726745605 -1.4318357706069946 0.2741048038005829 108
2.8317697048187256 -1.4335328340530396 0.16433489322662354 108
2.826012134552002 -1.4312379360198975 0.05462602898478508 108
1.722322702407837 -0.8741621971130371 -0.5072855353355408 119
1.9628121852874756 -0.9966530799865723 -0.4993916451931 119
2.349031686782837 -1.1932786703109741 -0.5042369961738586 119
2.8693277835845947 -1.4582126140594482 -0.5037193894386292 119
2.847626209259033 -1.4478092193603516 -0.3875449299812317 0
2.835516929626465 -1.4422754049301147 -0.27497678995132446 108
2.828786849975586 -1.4394736289978027 -0.1637880504131317 108
2.82747220993042 -1.4394259452819824 -0.054166655987501144 108
2.822956085205078 -1.4377473592758179 0.8380274772644043 108
2.8297014236450195 -1.4418047666549683 0.7237948179244995 108
2.819640874862671 -1.4372987747192383 0.6071809530258179 108
2.8233718872070312 -1.4398213624954224 0.49535074830055237 108
2.8279197216033936 -1.4427626132965088 0.3851071000099182 108
2.829063892364502 -1.443968653678894 0.27454057335853577 108
2.831195592880249 -1.4456796646118164 0.1645965725183487 108
2.8209991455078125 -1.441093921661377 0.05462602898478508 108
1.719260811805725 -0.8801688551902771 -0.5072855353355408 119
1.9593212604522705 -1.0034985542297363 -0.4993916451931 119
2.3448522090911865 -1.2014710903167725 -0.5042369961738586 119
2.868614673614502 -1.4704723358154297 -0.5045015811920166 119
2.846971273422241 -1.4600051641464233 -0.3881542980670929 0
2.8348968029022217 -1.4544379711151123 -0.27541255950927734 108
2.8281869888305664 -1.451619267463684 -0.16404886543750763 108
2.8268775939941406 -1.4515705108642578 -0.05425304174423218 108
2.822216272354126 -1.4497995376586914 0.8393206596374512 108
2.8289847373962402 -1.4539005756378174 0.7249186635017395 108
2.818971633911133 -1.4493765830993652 0.6081340909004211 108
2.8271121978759766 -1.454185962677002 0.496913343667984 108
2.8272788524627686 -1.4548958539962769 0.3857164680957794 108
2.828434944152832 -1.4561151266098022 0.27497637271881104 108
2.830570936203003 -1.4578397274017334 0.16485825181007385 108
2.8203957080841064 -1.4532220363616943 0.05471329018473625 108
1.7118867635726929 -0.8839490413665771 -0.5059914588928223 119
1.9601346254348755 -1.0125675201416016 -0.5005163550376892 119
2.345004081726074 -1.2119022607803345 -0.5051901340484619 119
2.867851495742798 -1.482744812965393 -0.505283772945404 119
2.8462655544281006 -1.4722139835357666 -0.3887636363506317 0
2.834226369857788 -1.466614007949829 -0.2758483588695526 108
2.8231027126312256 -1.4614826440811157 -0.16404886543750763 108
2.826232671737671 -1.463728427886963 -0.05433943495154381 108
2.8257150650024414 -1.4640858173370361 0.8419072031974792 108
2.8282179832458496 -1.4660087823867798 0.726042628288269 108
2.8182528018951416 -1.4614675045013428 0.609087347984314 108
2.8264026641845703 -1.4663199186325073 0.4976946711540222 108
2.8265879154205322 -1.467042088508606 0.38632577657699585 108
2.8321762084960938 -1.4705699682235718 0.2758479416370392 108
2.8298957347869873 -1.47001314163208 0.165119931101799 108
2.8197414875030518 -1.4653633832931519 0.054800551384687424 108
1.7087907791137695 -0.8899192810058594 -0.5059914588928223 119
1.9565881490707397 -1.0194035768508911 -0.5005163550376892 119
2.3451123237609863 -1.2223492860794067 -0.50614333152771 119
2.8626580238342285 -1.4927464723587036 -0.505283772945404 119
2.8455090522766113 -1.4844356775283813 -0.38937297463417053 0
2.833505392074585 -1.4788029193878174 -0.2762841284275055 108
2.8224103450775146 -1.4736391305923462 -0.16430966556072235 108
2.8255372047424316 -1.4758994579315186 -0.05442582443356514 108
2.8248679637908936 -1.4761775732040405 0.8432004451751709 108
2.8274006843566895 -1.478129267692566 0.727166473865509 108
2.8174831867218018 -1.4735708236694336 0.6100404858589172 108
2.8256428241729736 -1.478466510772705 0.49847596883773804 108
2.8258466720581055 -1.4792014360427856 0.38693514466285706 108
2.8314380645751953 -1.482757806777954 0.2762836813926697 108
2.8291702270507812 -1.4821995496749878 0.16538161039352417 108
2.819037437438965 -1.477518081665039 0.054887816309928894 108
1.7058303356170654 -0.8955808877944946 -0.5059914588928223 119
1.9576897621154785 -1.0278100967407227 -0.5016411542892456 119
2.3412606716156006 -1.229710578918457 -0.50614333152771 119
2.862326145172119 -1.5040295124053955 -0.5060659050941467 119
2.845224380493164 -1.4956769943237305 -0.38998231291770935 0
2.833254337310791 -1.4900157451629639 -0.2767198979854584 108
2.822185754776001 -1.4848235845565796 -0.16457048058509827 108
2.825310468673706 -1.4870973825454712 -0.05451221391558647 108
2.8244900703430176 -1.487295150756836 0.8444936871528625 108
2.8270537853240967 -1.4892754554748535 0.7282904386520386 108
2.8171825408935547 -1.4847034215927124 0.6109936833381653 108
2.825352668762207 -1.489639401435852 0.49925729632377625 108
2.8255748748779297 -1.490386962890625 0.3875444829463959 108
2.8311710357666016 -1.493970274925232 0.27671948075294495 108
2.828915596008301 -1.4934114217758179 0.16564328968524933 108
2.8188023567199707 -1.488701581954956 0.054975077509880066 108
1.7028510570526123 -0.9012327194213867 -0.5059914588928223 119
1.949784278869629 -1.0323576927185059 -0.5005163550376892 119
2.33695387840271 -1.2378755807876587 -0.50614333152771 119
2.861422300338745 -1.5163241624832153 -0.5068480968475342 119
2.8443708419799805 -1.507924199104309 -0.39059168100357056 0
2.8324363231658936 -1.5022304058074951 -0.27715566754341125 108
2.8213958740234375 -1.4970060586929321 -0.164831280708313 108
2.8245179653167725 -1.499294400215149 -0.0545986033976078 108
2.827812671661377 -1.5016759634017944 0.8470801711082458 108
2.8261404037475586 -1.5014203786849976 0.7294142842292786 108
2.816316843032837 -1.4968317747116089 0.6119468808174133 108
2.824496269226074 -1.5018112659454346 0.5000385642051697 108
2.824737071990967 -1.502571702003479 0.3881538510322571 108
2.830336093902588 -1.5061838626861572 0.2771552503108978 108
2.828092575073242 -1.505623459815979 0.1659049689769745 108
2.8180010318756104 -1.5008821487426758 0.05506233870983124 108
1.6995364427566528 -0.9074679613113403 -0.5059914588928223 119
1.9459874629974365 -1.0394970178604126 -0.5005163550376892 119
2.3324012756347656 -1.2464326620101929 -0.50614333152771 119
2.8602001667022705 -1.5291298627853394 -0.5076302289962769 119
2.843201160430908 -1.5206797122955322 -0.39120104908943176 0
2.8313028812408447 -1.5149517059326172 -0.2775914669036865 108
2.8202927112579346 -1.5096935033798218 -0.1650920957326889 108
2.823411226272583 -1.511996865272522 -0.054684996604919434 108
2.826547145843506 -1.5143111944198608 0.8483734726905823 108
2.8249125480651855 -1.5140701532363892 0.7305382490158081 108
2.8151371479034424 -1.5094633102416992 0.6129000782966614 108
2.8189728260040283 -1.5121533870697021 0.5000385642051697 108
2.8235836029052734 -1.5152614116668701 0.3887631595134735 108
2.8291852474212646 -1.5189036130905151 0.2775910496711731 108
2.8269541263580322 -1.5183414220809937 0.16616664826869965 108
2.816884756088257 -1.5135667324066162 0.05514959990978241 108
1.6963584423065186 -0.9133948683738708 -0.5059914588928223 119
1.9423470497131348 -1.0462833642959595 -0.5005163550376892 119
2.328036069869995 -1.2545666694641113 -0.50614333152771 119
2.8548452854156494 -1.5391044616699219 -0.5076302289962769 119
2.8422434329986572 -1.5329508781433105 -0.3918103873729706 0
2.830380916595459 -1.5271906852722168 -0.2780272364616394 108
2.819399356842041 -1.5219007730484009 -0.16535289585590363 108
2.822514772415161 -1.5242185592651367 -0.05477138236165047 108
2.825493335723877 -1.5264641046524048 0.8496667146682739 108
2.823896646499634 -1.526238203048706 0.7316620945930481 108
2.814168930053711 -1.5216155052185059 0.6138532757759094 108
2.818021059036255 -1.5243339538574219 0.5008199214935303 108
2.8226418495178223 -1.5274702310562134 0.3893725275993347 108
2.8282461166381836 -1.5311412811279297 0.278026819229126 108
2.8260276317596436 -1.5305780172348022 0.1664283275604248 108
2.8159797191619873 -1.5257718563079834 0.05523686483502388 108
1.693159818649292 -0.9193107485771179 -0.5059914588928223 119
1.9344021081924438 -1.0507317781448364 -0.4993916451931 119
2.3279550075531006 -1.2650288343429565 -0.507096529006958 119
2.8537943363189697 -1.5514191389083862 -0.5084124207496643 119
2.8412349224090576 -1.5452340841293335 -0.3924197256565094 0
2.8294081687927246 -1.5394418239593506 -0.2784630358219147 108
2.818455457687378 -1.5341202020645142 -0.16561371088027954 108
2.8215675354003906 -1.5364525318145752 -0.0548577755689621 108
2.8243892192840576 -1.5386282205581665 0.8509599566459656 108
2.8228297233581543 -1.5384175777435303 0.7327860593795776 108
2.8131496906280518 -1.5337789058685303 0.6148064732551575 108
2.817018508911133 -1.5365263223648071 0.5016012787818909 108
2.8216490745544434 -1.5396909713745117 0.38998186588287354 108
2.827256202697754 -1.5433909893035889 0.27846258878707886 108
2.825049877166748 -1.5428266525268555 0.16669002175331116 108
2.815023899078369 -1.5379891395568848 0.05532412230968475 108
1.6899404525756836 -0.9252153038978577 -0.5059914588928223 119
1.9307225942611694 -1.0574777126312256 -0.4993916451931 119
2.3235251903533936 -1.2731472253799438 -0.507096529006958 119
2.8483614921569824 -1.5613713264465332 -0.5084124207496643 119
2.840174913406372 -1.5575284957885742 -0.3930290639400482 0
2.8327512741088867 -1.5541006326675415 -0.27933457493782043 108
2.817460536956787 -1.546351432800293 -0.16587452590465546 108
2.8205692768096924 -1.5486983060836792 -0.05494416505098343 108
2.8232340812683105 -1.5508030652999878 0.8522531986236572 108
2.821712017059326 -1.5506080389022827 0.7339099049568176 108
2.812080144882202 -1.5459541082382202 0.6157596707344055 108
2.815965414047241 -1.5487300157546997 0.5023825168609619 108
2.820605516433716 -1.551923394203186 0.39059123396873474 108
2.8262150287628174 -1.555652379989624 0.27889835834503174 108
2.828394651412964 -1.5574954748153687 0.16721338033676147 108
2.8183956146240234 -1.5526304244995117 0.055498648434877396 108
1.6867005825042725 -0.9311087131500244 -0.5059914588928223 119
1.9270195960998535 -1.0642107725143433 -0.4993916451931 119
2.3190667629241943 -1.2812501192092896 -0.507096529006958 119
2.8428938388824463 -1.5713043212890625 -0.5084124207496643 119
2.839063882827759 -1.569834589958191 -0.3936384320259094 0
2.831667900085449 -1.5663903951644897 -0.2797703742980957 108
2.8207831382751465 -1.5610122680664062 -0.1663961410522461 108
2.8195199966430664 -1.5609560012817383 -0.05503055453300476 108
2.822028875350952 -1.5629886388778687 0.8535465002059937 108
2.8205440044403076 -1.5628095865249634 0.7350338101387024 108
2.8109591007232666 -1.5581400394439697 0.6167128086090088 108
2.8191797733306885 -1.563340187072754 0.5039451718330383 108
2.8195106983184814 -1.5641670227050781 0.39120060205459595 108
