# .PCD v0.7 - Point Cloud Data file format
VERSION 0.7
FIELDS x y z intensity
SIZE 4 4 4 4
TYPE F F F F
COUNT 1 1 1 1
WIDTH 759
HEIGHT 1
VIEWPOINT 0 0 0 1 0 0 0
POINTS 759
DATA ascii
-0.7154187560081482 -1.011170506477356 0.10502266883850098 40
-0.7057518362998962 -0.9971380829811096 0.062018103897571564 40
-0.6980934739112854 -0.9859527945518494 0.02041931450366974 40
-0.7067280411720276 -0.9963032007217407 -0.3170534670352936 40
-0.7016106247901917 -0.9887232184410095 -0.27106615900993347 40
-0.7097094655036926 -0.9997665286064148 -0.2306717187166214 40
-0.705528974533081 -0.9935101270675659 -0.1869393289089203 40
-0.7205607891082764 -1.0143024921417236 -0.14807140827178955 40
-0.7002226710319519 -0.9853091239929199 -0.10240815579891205 40
-0.7020585536956787 -0.9875274300575256 -0.06129011511802673 40
-0.7059537768363953 -0.9926395416259766 -0.020388085395097733 40
-0.7025506496429443 -0.9874895215034485 0.3142602741718292 40
-0.705842912197113 -0.9917504787445068 0.2719849944114685 40
-0.7054111957550049 -0.990777850151062 0.22876517474651337 40
-0.70693439245224 -0.9925506114959717 0.1867331564426422 40
-0.7046977877616882 -0.9890450239181519 0.14441515505313873 40
-0.7131619453430176 -1.0005548000335693 0.10415110737085342 40
-0.7063292860984802 -0.990602970123291 0.061756424605846405 40
-0.6986277103424072 -0.9794400334358215 0.020332051441073418 40
-0.7072206139564514 -0.9900241494178772 -0.3157593905925751 40
-0.7018814086914062 -0.9825499057769775 -0.26994141936302185 40
-0.7071393728256226 -0.9895451664924622 -0.2287653386592865 40
-0.70577472448349 -0.987271249294281 -0.18615715205669403 40
-0.7208569645881653 -1.0079970359802246 -0.14746206998825073 40
-0.7004165649414062 -0.9790534377098083 -0.10197237133979797 40
-0.7022515535354614 -0.9812564849853516 -0.061029303818941116 40
-0.7061585187911987 -0.9863519668579102 -0.0203016959130764 40
-0.7028372287750244 -0.981350839138031 0.3129670321941376 40
-0.706117570400238 -0.9855677485466003 0.27086108922958374 40
-0.7056611180305481 -0.9845674633979797 0.2278119921684265 40
-0.7071714997291565 -0.9863113164901733 0.1859518587589264 40
-0.7020165920257568 -0.9787608981132507 0.1431964635848999 40
-0.7133979797363281 -0.9942625164985657 0.10371533036231995 40
-0.7065263390541077 -0.9843226671218872 0.061494745314121246 40
-0.6958695650100708 -0.9691187739372253 0.020157529041171074 40
-0.7076793909072876 -0.9837527871131897 -0.3144652545452118 40
-0.7024612426757812 -0.9761395454406738 -0.26881664991378784 40
-0.7077215313911438 -0.9830872416496277 -0.22781215608119965 40
-0.7034446597099304 -0.9767867922782898 -0.1845928132534027 40
-0.7185693383216858 -0.9974214434623718 -0.1462433636188507 40
-0.7009175419807434 -0.9725615978240967 -0.1015365943312645 40
-0.7027524709701538 -0.9747489094734192 -0.0607684962451458 40
-0.7066729068756104 -0.9798262119293213 -0.02021530643105507 40
-0.703432559967041 -0.9749746918678284 0.31167376041412354 40
-0.7067022323608398 -0.9791463613510132 0.269737184047699 40
-0.706220269203186 -0.9781188368797302 0.22685880959033966 40
-0.7077183723449707 -0.9798333048820496 0.18517054617404938 40
-0.7025223970413208 -0.9722818732261658 0.14258712530136108 40
-0.711028516292572 -0.9836925864219666 0.10284377634525299 40
-0.7041065096855164 -0.9737581014633179 0.06097138673067093 40
-0.6963182687759399 -0.9626332521438599 0.020070265978574753 40
-0.7084456086158752 -0.9772422909736633 -0.3131711781024933 40
-0.7031740546226501 -0.9696144461631775 -0.2676919102668762 40
-0.7084376811981201 -0.9765138626098633 -0.2268589735031128 40
-0.7041193842887878 -0.9702051877975464 -0.18381063640117645 40
-0.7193046808242798 -0.9907651543617249 -0.1456340253353119 40
-0.6986234188079834 -0.961925745010376 -0.10066504031419754 40
-0.7033853530883789 -0.9681270122528076 -0.06050768867135048 40
-0.704380989074707 -0.9691416621208191 -0.020042525604367256 40
-0.7041610479354858 -0.9684834480285645 0.3103805184364319 40
-0.7045547366142273 -0.9686694741249084 0.26748937368392944 40
-0.7040249109268188 -0.9675859808921814 0.22495242953300476 40
-0.7083985209465027 -0.9732398986816406 0.18438923358917236 40
-0.7031599879264832 -0.9656885266304016 0.14197777211666107 40
-0.7116965055465698 -0.9770538210868835 0.10240799188613892 40
-0.704730212688446 -0.9671354293823242 0.06070970743894577 40
-0.6968969106674194 -0.956034779548645 0.01998300477862358 40
-0.7061558365821838 -0.9669627547264099 -0.3105829656124115 40
-0.7036804556846619 -0.9632201194763184 -0.2665671408176422 40
-0.7089459300041199 -0.9700721502304077 -0.22590577602386475 40
-0.7045872211456299 -0.9637548327445984 -0.1830284744501114 40
-0.7168995141983032 -0.9802367687225342 -0.14441533386707306 40
-0.6990357637405396 -0.9554612040519714 -0.10022925585508347 40
-0.700862467288971 -0.9576072692871094 -0.05998606979846954 40
-0.704806387424469 -0.9626432657241821 -0.019956136122345924 40
-0.7046834230422974 -0.9621230363845825 0.30908727645874023 40
-0.7050521969795227 -0.9622741341590881 0.2663654685020447 40
-0.704496443271637 -0.9611638188362122 0.2239992469549179 40
-0.7088712453842163 -0.9667785167694092 0.18360792100429535 40
-0.7006561756134033 -0.9552249312400818 0.14075908064842224 40
-0.7121559977531433 -0.9705476760864258 0.10197221487760544 40
-0.7051473259925842 -0.9606444835662842 0.06044802814722061 40
-0.6972709894180298 -0.9495668411254883 0.01989574171602726 40
-0.7066649198532104 -0.9606015682220459 -0.309288889169693 40
-0.7041507959365845 -0.9568341374397278 -0.2654424011707306 40
-0.7094179391860962 -0.963638961315155 -0.2249525934457779 40
-0.7020900845527649 -0.9533366560935974 -0.18146412074565887 40
-0.717373251914978 -0.9737328886985779 -0.14380598068237305 40
-0.6994116306304932 -0.949005663394928 -0.09979347884654999 40
-0.7012377977371216 -0.9511359930038452 -0.059725262224674225 40
-0.7051949501037598 -0.9561538696289062 -0.019869744777679443 40
-0.7051700949668884 -0.9557708501815796 0.3077940344810486 40
-0.7026203870773315 -0.9519672989845276 0.26411765813827515 40
-0.704931914806366 -0.9547502994537354 0.22304606437683105 40
-0.7093076109886169 -0.9603257775306702 0.18282660841941833 40
-0.7010371088981628 -0.9487819075584412 0.14014974236488342 40
-0.7096181511878967 -0.9600448608398438 0.10110066086053848 40
-0.7055276036262512 -0.9541622996330261 0.06018634885549545 40
-0.6976084113121033 -0.9431079030036926 0.019808480516076088 40
-0.7071382999420166 -0.9542486667633057 -0.3079947829246521 40
-0.7045851945877075 -0.9504565596580505 -0.2643176317214966 40
-0.7098535895347595 -0.9572142362594604 -0.22399939596652985 40
-0.7024712562561035 -0.9469138383865356 -0.1806819587945938 40
-0.7178102731704712 -0.967237651348114 -0.14319664239883423 40
-0.6997509002685547 -0.9425591230392456 -0.09935770183801651 40
-0.6985995173454285 -0.9406651258468628 -0.05920364335179329 40
-0.7055468559265137 -0.9496734738349915 -0.01978335529565811 40
-0.7056211233139038 -0.9494271278381348 0.30650076270103455 40
-0.7030322551727295 -0.9455990195274353 0.2629937529563904 40
-0.7024019360542297 -0.9444068670272827 0.22113968431949615 40
-0.7097074389457703 -0.9538817405700684 0.18204531073570251 40
-0.7013816237449646 -0.9423480033874512 0.1395403891801834 40
-0.7099903225898743 -0.9535667896270752 0.100664883852005 40
-0.7058713436126709 -0.947689414024353 0.059924669563770294 40
-0.6979092359542847 -0.9366582036018372 0.019721219316124916 40
-0.7075759768486023 -0.9479043483734131 -0.3067007064819336 40
-0.704983651638031 -0.9440877437591553 -0.26319289207458496 40
-0.710253119468689 -0.9507982730865479 -0.223046213388443 40
-0.7028160691261292 -0.940500020980835 -0.17989978194236755 40
-0.7152393460273743 -0.9567763805389404 -0.1419779360294342 40
-0.7000538110733032 -0.936121940612793 -0.09892192482948303 40
-0.6988877654075623 -0.9342226386070251 -0.05894283577799797 40
-0.7058622241020203 -0.9432023167610168 -0.01969696581363678 40
-0.7060363292694092 -0.943091869354248 0.3052075207233429 40
-0.7034081220626831 -0.939239501953125 0.2618698477745056 40
-0.7027512788772583 -0.9380210638046265 0.2201865017414093 40
-0.7100709676742554 -0.9474467039108276 0.1812639981508255 40
-0.6987128257751465 -0.9319525957107544 0.13832169771194458 40
-0.7103260159492493 -0.947097897529602 0.10022910684347153 40
-0.7061784863471985 -0.9412256479263306 0.05966298654675484 40
-0.6981735825538635 -0.9302181005477905 0.019633956253528595 40
-0.7050754427909851 -0.93770831823349 -0.3041124939918518 40
-0.7053462862968445 -0.9377277493476868 -0.26206812262535095 40
-0.7106165289878845 -0.9443911910057068 -0.22209303081035614 40
-0.7031248807907104 -0.934095561504364 -0.1791176050901413 40
-0.7155895233154297 -0.9503095149993896 -0.14136859774589539 40
-0.700320303440094 -0.9296940565109253 -0.09848614037036896 40
-0.6991395354270935 -0.9277896285057068 -0.05868202820420265 40
-0.70614093542099 -0.9367406368255615 -0.0196105744689703 40
-0.7035079002380371 -0.9329090118408203 0.3026210069656372 40
-0.703748345375061 -0.9328889846801758 0.26074594259262085 40
-0.7030647397041321 -0.9316445589065552 0.21923330426216125 40
-0.7103983163833618 -0.9410207867622375 0.1804826855659485 40
-0.6989709734916687 -0.92554771900177 0.13771235942840576 40
-0.7106251120567322 -0.9406382441520691 0.09979332238435745 40
-0.7064490914344788 -0.9347712993621826 0.05940130725502968 40
-0.6984014511108398 -0.9237874150276184 0.019546695053577423 40
-0.7054283618927002 -0.9313914179801941 -0.3028184175491333 40
-0.7027310729026794 -0.9274936318397522 -0.2598186135292053 40
-0.7109439969062805 -0.9379932880401611 -0.2211398333311081 40
-0.7033974528312683 -0.9277002215385437 -0.17833544313907623 40
-0.7159033417701721 -0.9438518285751343 -0.14075924456119537 40
-0.7005504369735718 -0.9232757687568665 -0.09805036336183548 40
-0.6993550658226013 -0.9213663339614868 -0.058421216905117035 40
-0.7063832879066467 -0.9302884340286255 -0.019524184986948967 40
-0.7038387060165405 -0.9266015291213989 0.30132776498794556 40
-0.7040528059005737 -0.9265475869178772 0.2596220374107361 40
-0.7033421397209167 -0.9252771139144897 0.2182801216840744 40
-0.7077001929283142 -0.9306731224060059 0.17892006039619446 40
-0.6991928815841675 -0.9191524386405945 0.13710300624370575 40
-0.7108879089355469 -0.934188187122345 0.09935754537582397 40
-0.7066833972930908 -0.9283267259597778 0.05913962796330452 40
-0.6985930800437927 -0.9173667430877686 0.019459431990981102 40
-0.7028164863586426 -0.9212437272071838 -0.3002302348613739 40
-0.7030086517333984 -0.9211621880531311 -0.2586938738822937 40
-0.7082569599151611 -0.9277032613754272 -0.2192334681749344 40
-0.7036339640617371 -0.921314537525177 -0.17755326628684998 40
-0.716180682182312 -0.9374035000801086 -0.14014990627765656 40
-0.7007443904876709 -0.9168672561645508 -0.097614586353302 40
-0.6995342373847961 -0.9149528741836548 -0.058160409331321716 40
-0.7065892219543457 -0.9238461852073669 -0.019437795504927635 40
-0.7041339874267578 -0.9203031063079834 0.3000345230102539 40
-0.7043216228485107 -0.9202155470848083 0.2584981322288513 40
-0.7035837769508362 -0.9189192056655884 0.21732693910598755 40
-0.7079415321350098 -0.9242764711380005 0.17813876271247864 40
-0.6993787288665771 -0.9127668738365173 0.13649366796016693 40
-0.7111144065856934 -0.9277478456497192 0.0989217683672905 40
-0.7068813443183899 -0.9218918681144714 0.05887794867157936 40
-0.6987484097480774 -0.9109558463096619 0.01937217079102993 40
-0.7030852437019348 -0.9149553179740906 -0.298936128616333 40
-0.7032507061958313 -0.9148401021957397 -0.2575691044330597 40
-0.7084988355636597 -0.921334445476532 -0.21828027069568634 40
-0.703834593296051 -0.9149385690689087 -0.17677108943462372 40
-0.716421902179718 -0.9309649467468262 -0.13954055309295654 40
-0.7009021639823914 -0.9104688167572021 -0.09717880189418793 40
-0.6996771693229675 -0.908549427986145 -0.0578996017575264 40
-0.7067587375640869 -0.9174137711524963 -0.019351404160261154 40
-0.7014456987380981 -0.9101884961128235 0.2974480092525482 40
-0.7045547962188721 -0.9138928055763245 0.25737422704696655 40
-0.7037896513938904 -0.9125708937644958 0.2163737416267395 40
-0.708146870136261 -0.9178894758224487 0.17735745012760162 40
-0.6995285153388977 -0.9063912630081177 0.13588431477546692 40
-0.7113045454025269 -0.9213172197341919 0.09848599135875702 40
-0.707042932510376 -0.9154670834541321 0.0586162693798542 40
-0.6988674998283386 -0.9045551419258118 0.019284909591078758 40
-0.7033185958862305 -0.908676266670227 -0.2976420223712921 40
-0.7034571766853333 -0.9085275530815125 -0.25644436478614807 40
-0.708704948425293 -0.9149752259254456 -0.2173270881175995 40
-0.7039992809295654 -0.9085723757743835 -0.17598891258239746 40
-0.7166268825531006 -0.9245361089706421 -0.13893121480941772 50
-0.7010238170623779 -0.904080331325531 -0.09674302488565445 40
-0.6997839212417603 -0.9021561741828918 -0.05763879045844078 40
-0.7068920135498047 -0.9109914302825928 -0.019265014678239822 40
-0.7016569375991821 -0.9039191007614136 0.29615476727485657 40
-0.7047523856163025 -0.907579779624939 0.2562503218650818 40
-0.7039597630500793 -0.906232476234436 0.21542055904865265 40
-0.7083163857460022 -0.9115124344825745 0.1765761375427246 40
-0.6996423006057739 -0.9000257253646851 0.1352749764919281 40
-0.7145162224769592 -0.9188286662101746 0.09848599135875702 40
-0.7071684002876282 -0.909052312374115 0.058354590088129044 40
-0.698950469493866 -0.8981648683547974 0.019197646528482437 40
-0.7064862251281738 -0.9062156677246094 -0.2976420223712921 50
-0.7036281824111938 -0.9022248387336731 -0.25531959533691406 50
-0.7088754177093506 -0.9086260199546814 -0.21637389063835144 50
-0.7071664929389954 -0.9061094522476196 -0.17598891258239746 50
-0.7167956829071045 -0.9181172251701355 -0.1383218616247177 50
-0.7041753530502319 -0.9016278386116028 -0.09674302488565445 40
-0.7029288411140442 -0.8997079133987427 -0.05763879045844078 40
-0.7069891095161438 -0.9045794010162354 -0.01917862519621849 40
-0.7018330693244934 -0.897659420967102 0.2948615252971649 40
-0.7049146890640259 -0.9012766480445862 0.255126416683197 40
-0.7040942907333374 -0.8999040722846985 0.2144673764705658 40
-0.7084499001502991 -0.9051453471183777 0.1757948249578476 40
-0.7027797102928162 -0.8975780606269836 0.1352749764919281 40
-0.7146477699279785 -0.9124076962471008 0.09805021435022354 40
-0.7072576880455017 -0.9026480317115784 0.058092910796403885 40
-0.7020813822746277 -0.895719587802887 0.019197646528482437 40
-0.7066624760627747 -0.8999455571174622 -0.2963479459285736 50
-0.7067732214927673 -0.8997632265090942 -0.25531959533691406 50
-0.709010124206543 -0.9022866487503052 -0.2154207080602646 50
-0.7072732448577881 -0.8997530341148376 -0.1752067506313324 50
-0.7199962139129639 -0.9156095385551453 -0.1383218616247177 50
-0.704238772392273 -0.8952494263648987 -0.09630724787712097 40
-0.7029772996902466 -0.8933247923851013 -0.05737798288464546 40
-0.7101424336433411 -0.9021060466766357 -0.01917862519621849 50
-0.7049621939659119 -0.8952040672302246 0.2948615252971649 40
-0.7080564498901367 -0.8988105058670044 0.255126416683197 40
-0.7041932940483093 -0.8935856819152832 0.21351417899131775 40
-0.7116051316261292 -0.9026669263839722 0.1757948249578476 40
-0.7028355002403259 -0.8912226557731628 0.1346656233072281 40
-0.7178283929824829 -0.9099075794219971 0.09805021435022354 50
-0.7073109149932861 -0.8962541222572327 0.057831231504678726 50
-0.7052037715911865 -0.8932633996009827 0.019197646528482437 50
-0.7097995281219482 -0.8974733948707581 -0.2963479459285736 50
-0.706886887550354 -0.8934699892997742 -0.25419485569000244 50
-0.7121553421020508 -0.8998062610626221 -0.2154207080602646 50
-0.7104096412658691 -0.8972787261009216 -0.1752067506313324 50
-0.7201067209243774 -0.9092004299163818 -0.1377125084400177 50
-0.7073594927787781 -0.8927857875823975 -0.09630724787712097 50
-0.7060912847518921 -0.8908655643463135 -0.05737798288464546 50
-0.7101810574531555 -0.895704448223114 -0.01909223385155201 50
-0.7050813436508179 -0.888953685760498 0.2935682535171509 40
-0.7111895680427551 -0.8963335156440735 0.255126416683197 40
-0.7073081135749817 -0.8911221027374268 0.21351417899131775 40
-0.7147517204284668 -0.9001774787902832 0.1757948249578476 50
-0.7059421539306641 -0.8887639045715332 0.1346656233072281 50
-0.7179014682769775 -0.903496503829956 0.09761443734169006 50
-0.710435152053833 -0.8937796354293823 0.057831231504678726 50
-0.7083175182342529 -0.8907963037490845 0.019197646528482437 50
-0.712928056716919 -0.8949902057647705 -0.2963479459285736 50
-0.7100013494491577 -0.8909969925880432 -0.25419485569000244 50
-0.7122324109077454 -0.8934767842292786 -0.21446752548217773 50
-0.713537335395813 -0.8947934508323669 -0.1752067506313324 50
-0.7232760190963745 -0.9066811800003052 -0.1377125084400177 50
-0.7104716300964355 -0.8903111815452576 -0.09630724787712097 50
-0.7123118042945862 -0.8922976851463318 -0.05763879045844078 50
-0.7133033275604248 -0.8932200074195862 -0.01909223385155201 50
-0.7081800699234009 -0.8864871263504028 0.2935682535171509 50
-0.7143139839172363 -0.8938454985618591 0.255126416683197 50
-0.7104144096374512 -0.8886477947235107 0.21351417899131775 50
-0.7178895473480225 -0.8976770043373108 0.1757948249578476 50
-0.7090402245521545 -0.8862943053245544 0.1346656233072281 50
-0.7241631746292114 -0.9048740863800049 0.09805021435022354 50
-0.7135506272315979 -0.8912943601608276 0.057831231504678726 50
-0.7114226818084717 -0.8883184790611267 0.019197646528482437 50
-0.7160477638244629 -0.8924962282180786 -0.2963479459285736 50
-0.7131072282791138 -0.8885132670402527 -0.25419485569000244 50
-0.7153468728065491 -0.8909852504730225 -0.21446752548217773 50
-0.7166564464569092 -0.8922972679138184 -0.1752067506313324 50
-0.7264364957809448 -0.9041510224342346 -0.1377125084400177 50
-0.7166954278945923 -0.8917081356048584 -0.09674302488565445 50
-0.7154222130775452 -0.8898058533668518 -0.05763879045844078 50
-0.7164169549942017 -0.8907246589660645 -0.01909223385155201 50
-0.7112701535224915 -0.8840096592903137 0.2935682535171509 50
-0.7174297571182251 -0.8913466334342957 0.255126416683197 50
-0.7135120630264282 -0.886162519454956 0.21351417899131775 50
-0.7210186719894409 -0.8951656818389893 0.1757948249578476 50
-0.7152433395385742 -0.8876782655715942 0.1352749764919281 50
-0.7273173332214355 -0.9023407697677612 0.09805021435022354 50
-0.7197917103767395 -0.8926851749420166 0.058092910796403885 50
-0.7145191431045532 -0.885829746723175 0.019197646528482437 50
-0.722194254398346 -0.8937478065490723 -0.2976420223712921 50
-0.719266951084137 -0.889807403087616 -0.25531959533691406 50
-0.7215388417243958 -0.8922994136810303 -0.2154207080602646 50
-0.7197667360305786 -0.8897902369499207 -0.1752067506313324 50
-0.7327099442481995 -0.9054675698280334 -0.1383218616247177 50
-0.7198037505149841 -0.8892009258270264 -0.09674302488565445 50
-0.7185238003730774 -0.8873031139373779 -0.05763879045844078 50
-0.7226685285568237 -0.8921030163764954 -0.01917862519621849 50
-0.7173924446105957 -0.8852739930152893 0.2948615252971649 50
-0.7236047983169556 -0.8926215171813965 0.2562503218650818 50
-0.7196925282478333 -0.8874788284301758 0.2144673764705658 50
-0.7241390347480774 -0.8926433324813843 0.1757948249578476 50
-0.7183375358581543 -0.8851761221885681 0.1352749764919281 50
-0.733601987361908 -0.9036634564399719 0.09848599135875702 50
-0.7260510325431824 -0.8940431475639343 0.058354590088129044 50
-0.7207590937614441 -0.8872102499008179 0.019284909591078758 50
-0.7253096699714661 -0.8912214636802673 -0.2976420223712921 50
-0.7223686575889587 -0.8872913122177124 -0.25531959533691406 50
-0.72464919090271 -0.8897753357887268 -0.2154207080602646 50
-0.7259874939918518 -0.8911009430885315 -0.17598891258239746 50
-0.7358660697937012 -0.9029043912887573 -0.1383218616247177 50
-0.7260506749153137 -0.890543520450592 -0.09717880189418793 50
-0.7247725129127502 -0.8886590600013733 -0.0578996017575264 50
-0.7257781028747559 -0.8895750045776367 -0.01917862519621849 50
-0.7204782962799072 -0.8827643990516663 0.2948615252971649 50
-0.7267162203788757 -0.8900902271270752 0.2562503218650818 50
-0.7227860689163208 -0.8849612474441528 0.2144673764705658 50
-0.7303751707077026 -0.8939346075057983 0.1765761375427246 50
-0.724563717842102 -0.8865059018135071 0.13588431477546692 50
-0.736751914024353 -0.9010972380638123 0.09848599135875702 50
-0.7291674613952637 -0.8915032744407654 0.058354590088129044 50
-0.7238516211509705 -0.8846889138221741 0.019284909591078758 50
-0.7284161448478699 -0.8886841535568237 -0.2976420223712921 50
-0.7285504937171936 -0.8885316848754883 -0.25644436478614807 50
-0.7308635115623474 -0.8910354375839233 -0.21637389063835144 50
-0.729093611240387 -0.8885613679885864 -0.17598891258239746 50
-0.7421620488166809 -0.9041662812232971 -0.13893121480941772 50
-0.7291548252105713 -0.8880037069320679 -0.09717880189418793 50
-0.7278701066970825 -0.8861237168312073 -0.0578996017575264 50
-0.7320528030395508 -0.8908987045288086 -0.019265014678239822 50
-0.7266222834587097 -0.8839752674102783 0.29615476727485657 50
-0.7298187613487244 -0.8875480890274048 0.2562503218650818 50
-0.728988766670227 -0.8862234354019165 0.21542055904865265 50
-0.7334911227226257 -0.891379714012146 0.1765761375427246 50
-0.7276538014411926 -0.8839713335037231 0.13588431477546692 50
-0.7430591583251953 -0.9023651480674744 0.0989217683672905 50
-0.7354495525360107 -0.8928065896034241 0.0586162693798542 50
-0.7269353270530701 -0.8821568489074707 0.019284909591078758 50
-0.7284391522407532 -0.882411539554596 -0.2963479459285736 50
-0.7316475510597229 -0.8859831690788269 -0.25644436478614807 50
-0.737095296382904 -0.8922627568244934 -0.2173270881175995 50
-0.7353367209434509 -0.8898177146911621 -0.17677108943462372 50
-0.7453136444091797 -0.9015701413154602 -0.13893121480941772 50
-0.7354243993759155 -0.8892914652824402 -0.097614586353302 50
-0.7341415882110596 -0.887424886226654 -0.058160409331321716 50
-0.7351581454277039 -0.8883379101753235 -0.019265014678239822 50
-0.7297035455703735 -0.8814334869384766 0.29615476727485657 50
-0.7360199689865112 -0.88874751329422 0.25737422704696655 50
-0.7320778369903564 -0.8836734294891357 0.21542055904865265 50
-0.7397493720054626 -0.892616331577301 0.17735745012760162 50
-0.7339023351669312 -0.8852464556694031 0.13649366796016693 50
-0.7462044954299927 -0.8997659087181091 0.0989217683672905 50
-0.7385615706443787 -0.8902339339256287 0.0586162693798542 50
-0.7332029342651367 -0.8834609985351562 0.01937217079102993 50
-0.7315149307250977 -0.8798635005950928 -0.2963479459285736 50
-0.7378510236740112 -0.8871695399284363 -0.2575691044330597 50
-0.7402054071426392 -0.8896843791007996 -0.2173270881175995 50
-0.7384383678436279 -0.8872454762458801 -0.17677108943462372 50
-0.7516315579414368 -0.9027768969535828 -0.13954055309295654 50
-0.7385241389274597 -0.8867189288139343 -0.097614586353302 50
-0.7372348308563232 -0.8848568201065063 -0.058160409331321716 50
-0.7414553165435791 -0.8896066546440125 -0.019351404160261154 50
-0.7358688116073608 -0.882590651512146 0.2974480092525482 50
-0.7391178607940674 -0.886172890663147 0.25737422704696655 50
-0.73830246925354 -0.8848813772201538 0.2163737416267395 50
-0.7428606748580933 -0.8900286555290222 0.17735745012760162 50
-0.7369878888130188 -0.8826792240142822 0.13649366796016693 50
-0.7525337338447571 -0.9009785056114197 0.09935754537582397 50
-0.7448660731315613 -0.8914821147918701 0.05887794867157936 50
-0.7362823486328125 -0.880896270275116 0.01937217079102993 50
-0.7376822829246521 -0.8810076713562012 -0.2976420223712921 50
-0.7409433126449585 -0.8845885396003723 -0.2575691044330597 50
-0.7464588284492493 -0.8908573985099792 -0.21828027069568634 50
-0.7447032332420349 -0.888447105884552 -0.17755326628684998 50
-0.7547782063484192 -0.9001476764678955 -0.13954055309295654 50
-0.7416148781776428 -0.8841356039047241 -0.097614586353302 50
-0.7435286641120911 -0.886103093624115 -0.058421216905117035 50
-0.7477702498435974 -0.8908421397209167 -0.019437795504927635 50
-0.7420508861541748 -0.8837152719497681 0.29874125123023987 50
-0.7453402876853943 -0.8873180747032166 0.2584981322288513 50
-0.7413868308067322 -0.8822988271713257 0.2163737416267395 50
-0.7491406798362732 -0.8912106156349182 0.17813876271247864 50
-0.7432585954666138 -0.8838996291160583 0.13710300624370575 50
-0.7556741237640381 -0.8983462452888489 0.09935754537582397 50
-0.7511882781982422 -0.8926971554756165 0.05913962796330452 50
-0.7425722479820251 -0.8821454048156738 0.019459431990981102 50
-0.7407531142234802 -0.8784273266792297 -0.2976420223712921 50
-0.7471679449081421 -0.8857206106185913 -0.2586938738822937 50
-0.749563992023468 -0.8882463574409485 -0.21828027069568634 50
-0.7477999329566956 -0.8858422636985779 -0.17755326628684998 50
-0.7611176371574402 -0.9012991786003113 -0.14014990627765656 50
-0.7479109168052673 -0.8853464722633362 -0.09805036336183548 50
-0.7498400211334229 -0.8873159885406494 -0.05868202820420265 50
-0.7508753538131714 -0.8882265090942383 -0.019437795504927635 50
-0.7451311945915222 -0.8811197280883789 0.29874125123023987 50
-0.7484330534934998 -0.8847110271453857 0.2584981322288513 50
-0.7476328015327454 -0.8834522366523743 0.21732693910598755 50
-0.7522470355033875 -0.8885902166366577 0.17813876271247864 50
-0.7463394403457642 -0.8812997937202454 0.13710300624370575 50
-0.7620249390602112 -0.8995034098625183 0.09979332238435745 50
-0.7542998194694519 -0.8900695443153381 0.05913962796330452 50
-0.7456470131874084 -0.8795480132102966 0.019459431990981102 50
-0.7469412088394165 -0.8795174360275269 -0.298936128616333 50
-0.7534093856811523 -0.8868198990821838 -0.2598186135292053 50
-0.7558385729789734 -0.8893645405769348 -0.2192334681749344 50
-0.7540863156318665 -0.8869890570640564 -0.17833544313907623 50
-0.7642590999603271 -0.8986368179321289 -0.14014990627765656 50
-0.7509967684745789 -0.8827303647994995 -0.09805036336183548 50
-0.7529327869415283 -0.8846930861473083 -0.05868202820420265 50
-0.7572119832038879 -0.8894065618515015 -0.019524184986948967 50
-0.7513339519500732 -0.8821904063224792 0.3000345230102539 50
-0.7546762824058533 -0.8858016133308411 0.2596220374107361 50
-0.7507120966911316 -0.8808371424674988 0.21732693910598755 50
-0.7585483193397522 -0.8897171020507812 0.17892006039619446 50
-0.7526314854621887 -0.882465124130249 0.13771235942840576 50
-0.7651601433753967 -0.8968379497528076 0.09979332238435745 50
-0.7606436014175415 -0.8912290334701538 0.05940130725502968 50
-0.7519586682319641 -0.8807417750358582 0.019546695053577423 50
-0.7531458139419556 -0.8805750012397766 -0.3002302348613739 50
-0.7565003633499146 -0.8841846585273743 -0.2598186135292053 50
-0.7621299624443054 -0.8904498219490051 -0.22018665075302124 50
-0.7571778893470764 -0.884351372718811 -0.17833544313907623 50
-0.7706196308135986 -0.8997328877449036 -0.14075924456119537 50
-0.7573143839836121 -0.8838860988616943 -0.09848614037036896 50
-0.7592657804489136 -0.8858506679534912 -0.05894283577799797 50
-0.7603119611740112 -0.886758029460907 -0.019524184986948967 50
-0.757553219795227 -0.8832284212112427 0.30132776498794556 50
-0.757763683795929 -0.8831619024276733 0.2596220374107361 50
-0.7569789886474609 -0.8819358348846436 0.2182801216840744 50
-0.7648665308952332 -0.8908107876777649 0.17970137298107147 50
-0.7557073831558228 -0.8798326253890991 0.13771235942840576 50
-0.7715322375297546 -0.8979396224021912 0.10022910684347153 50
-0.767004668712616 -0.8923550844192505 0.05966298654675484 50
-0.758287787437439 -0.881902277469635 0.019633956253528595 50
-0.7593669891357422 -0.8815999627113342 -0.3015243113040924 50
-0.7627623081207275 -0.8852293491363525 -0.26094338297843933 50
-0.7684382200241089 -0.891501784324646 -0.2211398333311081 50
-0.7634851932525635 -0.8854430317878723 -0.1791176050901413 50
-0.7769969701766968 -0.9007952809333801 -0.14136859774589539 50
-0.7603950500488281 -0.8812371492385864 -0.09848614037036896 50
-0.7623533606529236 -0.8831949234008789 -0.05894283577799797 50
-0.7666699290275574 -0.8878824710845947 -0.0196105744689703 50
-0.7637888193130493 -0.8842337727546692 0.3026210069656372 50
-0.7640273571014404 -0.8841978907585144 0.26074594259262085 50
-0.7632627487182617 -0.883001446723938 0.21923330426216125 50
-0.7679714560508728 -0.8881354928016663 0.17970137298107147 50
-0.7620205879211426 -0.8809426426887512 0.13832169771194458 50
-0.7746618986129761 -0.8952409625053406 0.10022910684347153 50
-0.7701148390769958 -0.8896723389625549 0.05966298654675484 50
-0.7613615989685059 -0.8792499899864197 0.019633956253528595 50
-0.7656044363975525 -0.8825922608375549 -0.3028184175491333 50
-0.7658477425575256 -0.882561445236206 -0.26094338297843933 50
-0.77154541015625 -0.8888140320777893 -0.2211398333311081 50
-0.7698091864585876 -0.8865013718605042 -0.17989978194236755 50
-0.7833911180496216 -0.9018241167068481 -0.1419779360294342 50
-0.7634665369987488 -0.8785775303840637 -0.09848614037036896 50
-0.7687074542045593 -0.8842968344688416 -0.05920364335179329 50
-0.7697645425796509 -0.8852008581161499 -0.0196105744689703 50
-0.7668707370758057 -0.8815621733665466 0.3026210069656372 50
-0.7671091556549072 -0.8815255761146545 0.26074594259262085 50
-0.7695629596710205 -0.8840337991714478 0.2201865017414093 50
-0.7743101119995117 -0.8891736268997192 0.1804826855659485 50
-0.7650910019874573 -0.8782773613929749 0.13832169771194458 50
-0.777782142162323 -0.8925314545631409 0.10022910684347153 50
-0.7764967679977417 -0.8907425403594971 0.059924669563770294 50
-0.7677117586135864 -0.8803547620773315 0.019721219316124916 50
-0.7718579769134521 -0.8835516571998596 -0.3041124939918518 50
-0.7721295356750488 -0.8835511803627014 -0.26206812262535095 50
-0.777873694896698 -0.8898106813430786 -0.22209303081035614 50
-0.7761499881744385 -0.8875263333320618 -0.1806819587945938 50
-0.786534309387207 -0.8990840315818787 -0.1419779360294342 50
-0.7698088884353638 -0.8796554803848267 -0.09892192482948303 50
-0.77178955078125 -0.8816081881523132 -0.05920364335179329 50
-0.776143491268158 -0.8862694501876831 -0.01969696581363678 50
-0.7731258869171143 -0.8825129270553589 0.30391427874565125 50
-0.7733926177024841 -0.8825065493583679 0.2618698477745056 50
-0.7726441621780396 -0.8813421130180359 0.2201865017414093 50
-0.7806654572486877 -0.890178382396698 0.1812639981508255 50
-0.7714249491691589 -0.8793320655822754 0.1389310508966446 50
-0.7841783761978149 -0.8935547471046448 0.100664883852005 50
-0.7796013951301575 -0.8880266547203064 0.059924669563770294 50
-0.7707801461219788 -0.877669632434845 0.019721219316124916 50
-0.7781276106834412 -0.8844780921936035 -0.3054066002368927 50
-0.7784276604652405 -0.8845077753067017 -0.26319289207458496 50
-0.7809749841690063 -0.8870900273323059 -0.22209303081035614 50
-0.7792432308197021 -0.8848116397857666 -0.1806819587945938 50
-0.7929486036300659 -0.9000568389892578 -0.14258728921413422 50
-0.7761681079864502 -0.8806997537612915 -0.09935770183801651 50
-0.778164267539978 -0.8826542496681213 -0.059464454650878906 50
-0.779232382774353 -0.8835547566413879 -0.01969696581363678 50
-0.7793970704078674 -0.8834306597709656 0.3052075207233429 50
-0.7764683961868286 -0.8798015117645264 0.2618698477745056 50
-0.7789643406867981 -0.8823192119598389 0.22113968431949615 50
-0.7837679386138916 -0.8874479532241821 0.1812639981508255 50
-0.77448970079422 -0.8766338229179382 0.1389310508966446 50
-0.7872926592826843 -0.8908120393753052 0.100664883852005 50
-0.7826963663101196 -0.8852999210357666 0.059924669563770294 50
-0.7771510481834412 -0.8787185549736023 0.019808480516076088 50
-0.7812103033065796 -0.8817564845085144 -0.3054066002368927 50
-0.7815104126930237 -0.8817851543426514 -0.26319289207458496 50
-0.7873228788375854 -0.8880311846733093 -0.223046213388443 50
-0.785603940486908 -0.8857808113098145 -0.18146412074565887 50
-0.79608553647995 -0.8972834348678589 -0.14258728921413422 50
-0.7792375683784485 -0.8779851198196411 -0.09935770183801651 50
-0.7812405824661255 -0.8799325823783875 -0.059464454650878906 50
-0.785631537437439 -0.884567141532898 -0.01978335529565811 50
-0.7824760675430298 -0.8807047009468079 0.3052075207233429 50
-0.7827713489532471 -0.8807274699211121 0.2629937529563904 50
-0.7820395231246948 -0.8795947432518005 0.22113968431949615 50
-0.7901430726051331 -0.8883968591690063 0.18204531073570251 50
-0.7808437347412109 -0.8776326775550842 0.1395403891801834 50
-0.7937089800834656 -0.8917792439460754 0.10110066086053848 50
-0.7857818603515625 -0.8825624585151672 0.059924669563770294 50
-0.7802135944366455 -0.8760004043579102 0.019808480516076088 50
-0.7874987721443176 -0.8826279640197754 -0.3067007064819336 50
-0.787827730178833 -0.8826864957809448 -0.2643176317214966 50
-0.7904179096221924 -0.885277509689331 -0.223046213388443 50
-0.7886911034584045 -0.8830332159996033 -0.18146412074565887 50
-0.8025192618370056 -0.8981998562812805 -0.14319664239883423 50
-0.7856169939041138 -0.8789735436439514 -0.09979347884654999 50
-0.7843074202537537 -0.8772001266479492 -0.059464454650878906 50
-0.7920472621917725 -0.8855457305908203 -0.019869744777679443 50
-0.788766086101532 -0.8815674185752869 0.30650076270103455 50
-0.7858409285545349 -0.8779897093772888 0.2629937529563904 50
-0.7883791923522949 -0.8805162906646729 0.222092866897583 50
-0.7932393550872803 -0.8856333494186401 0.18204531073570251 50
-0.7839024662971497 -0.8749016523361206 0.1395403891801834 50
-0.8001415133476257 -0.8927122950553894 0.10153643786907196 50
-0.7921910881996155 -0.8835316896438599 0.06018634885549545 50
-0.7866047024726868 -0.8769932389259338 0.01989574171602726 50
-0.7905749082565308 -0.8798736929893494 -0.3067007064819336 50
-0.7909041047096252 -0.8799310922622681 -0.2643176317214966 50
-0.7967850565910339 -0.8861629366874695 -0.22399939596652985 50
-0.7950711250305176 -0.883946418762207 -0.18224629759788513 50
-0.8089691400527954 -0.8990823030471802 -0.14380598068237305 50
-0.788680374622345 -0.8762258291244507 -0.09979347884654999 50
-0.790705680847168 -0.8781677484512329 -0.059725262224674225 50
-0.7951335906982422 -0.8827754855155945 -0.019869744777679443 50
-0.791838526725769 -0.8788087368011475 0.30650076270103455 50
-0.7921628355979919 -0.8788601756095886 0.26411765813827515 50
-0.7947348952293396 -0.8814042806625366 0.22304606437683105 50
-0.7996336817741394 -0.8865262269973755 0.18282660841941833 50
-0.7902762293815613 -0.8758445382118225 0.14014974236488342 50
-0.80659019947052 -0.8936113119125366 0.10197221487760544 50
-0.7952703833580017 -0.8807610869407654 0.06018634885549545 50
-0.7930121421813965 -0.8779519200325012 0.01998300477862358 50
-0.7936413884162903 -0.8771086931228638 -0.3067007064819336 50
-0.797240138053894 -0.8807768821716309 -0.2654424011707306 50
-0.803167998790741 -0.887014627456665 -0.2249525934457779 50
-0.80146723985672 -0.8848258852958679 -0.1830284744501114 50
-0.8121026158332825 -0.8962529301643372 -0.14380598068237305 50
-0.795079231262207 -0.877157986164093 -0.10022925585508347 50
-0.7937662601470947 -0.8754022717475891 -0.059725262224674225 50
-0.8015689849853516 -0.883697509765625 -0.019956136122345924 50
-0.7981468439102173 -0.8796161413192749 0.3077940344810486 50
-0.7985002994537354 -0.8796971440315247 0.2652415633201599 50
-0.8011061549186707 -0.8822585344314575 0.2239992469549179 50
-0.8027234077453613 -0.8837296366691589 0.18282660841941833 50
-0.7933287024497986 -0.8730806112289429 0.14014974236488342 50
-0.809704601764679 -0.8907904028892517 0.10197221487760544 50
-0.8016991019248962 -0.8816739916801453 0.06044802814722061 50
-0.7960718870162964 -0.8751785159111023 0.01998300477862358 50
-0.7999510765075684 -0.8779028058052063 -0.3079947829246521 50
-0.8003097772598267 -0.8779886364936829 -0.2654424011707306 50
-0.8062593340873718 -0.8842056393623352 -0.2249525934457779 50
-0.8045510053634644 -0.8820228576660156 -0.1830284744501114 50
-0.8185712695121765 -0.8970786929130554 -0.14441533386707306 50
-0.8014944195747375 -0.8780561685562134 -0.10066504031419754 50
-0.8001840710639954 -0.8763134479522705 -0.05998606979846954 50
-0.804648756980896 -0.8808941841125488 -0.019956136122345924 50
-0.8012123703956604 -0.8768247365951538 0.3077940344810486 50
-0.8015661835670471 -0.8769044876098633 0.2652415633201599 50
-0.8041809797286987 -0.8794567584991455 0.2239992469549179 50
-0.8091364502906799 -0.8845661282539368 0.18360792100429535 50
-0.7997217178344727 -0.8739674091339111 0.14075908064842224 50
-0.8161723017692566 -0.8916327357292175 0.10240799188613892 50
-0.8081438541412354 -0.8825526237487793 0.06070970743894577 50
-0.8024988174438477 -0.8760808110237122 0.020070265978574753 50
-0.8030106425285339 -0.8751051425933838 -0.3079947829246521 50
-0.8066641688346863 -0.8787787556648254 -0.2665671408176422 50
-0.8126606345176697 -0.8850011229515076 -0.22590577602386475 50
-0.8109656572341919 -0.882845938205719 -0.18381063640117645 50
-0.8250554800033569 -0.8978700637817383 -0.14502467215061188 50
-0.807925283908844 -0.8789200782775879 -0.10110081732273102 50
-0.8066179156303406 -0.8771904110908508 -0.06024688109755516 50
-0.8111032843589783 -0.8817593455314636 -0.020042525604367256 50
-0.807538628578186 -0.8775767683982849 0.30908727645874023 50
-0.8079218864440918 -0.8776857852935791 0.2663654685020447 50
-0.8105707764625549 -0.8802549839019775 0.22495242953300476 50
-0.8122192621231079 -0.8817363977432251 0.18360792100429535 50
-0.8061305284500122 -0.8748200535774231 0.14136843383312225 50
-0.819279670715332 -0.8887782692909241 0.10240799188613892 50
-0.8146045207977295 -0.8833970427513123 0.06097138673067093 50
-0.8055519461631775 -0.8732742071151733 0.020070265978574753 50
-0.8093382120132446 -0.8758438229560852 -0.309288889169693 50
-0.8130337595939636 -0.8795350790023804 -0.2676919102668762 50
-0.8190773129463196 -0.8857627511024475 -0.2268589735031128 50
-0.8173959255218506 -0.8836350440979004 -0.1845928132534027 50
-0.8281846046447754 -0.8949845433235168 -0.14502467215061188 50
-0.8109883666038513 -0.8760945200920105 -0.10110081732273102 50
-0.8130675554275513 -0.8780331611633301 -0.06050768867135048 50
-0.8141762614250183 -0.878922700881958 -0.020042525604367256 50
-0.8105970025062561 -0.8747525215148926 0.30908727645874023 50
-0.8109806776046753 -0.8748602271080017 0.2663654685020447 50
-0.8169758915901184 -0.8810192346572876 0.2259056270122528 50
-0.8186508417129517 -0.8825165033340454 0.18438923358917236 50
-0.8125550150871277 -0.875638484954834 0.14197777211666107 50
-0.82576584815979 -0.8895635604858398 0.10284377634525299 50
-0.817683219909668 -0.8805481791496277 0.06097138673067093 50
-0.8119977712631226 -0.8741196393966675 0.020157529041171074 50
-0.8156806826591492 -0.8765490055084229 -0.3105829656124115 50
-0.8160989880561829 -0.8766916990280151 -0.2676919102668762 50
-0.8221641778945923 -0.8828982710838318 -0.2268589735031128 50
-0.8204753994941711 -0.8807764053344727 -0.1845928132534027 50
-0.8346869945526123 -0.8957189917564392 -0.1456340253353119 50
-0.8174378871917725 -0.8769016861915588 -0.1015365943312645 50
-0.8161274790763855 -0.8751896619796753 -0.06050768867135048 50
-0.8206494450569153 -0.8797308802604675 -0.020128915086388588 50
-0.8169407844543457 -0.8754489421844482 0.3103805184364319 50
-0.817354142665863 -0.8755855560302734 0.26748937368392944 50
-0.8233962655067444 -0.8817495107650757 0.22685880959033966 50
-0.8250976204872131 -0.8832623958587646 0.18517054617404938 50
-0.8156065344810486 -0.8727968335151672 0.14197777211666107 50
-0.8322674632072449 -0.8903144001960754 0.10327955335378647 50
-0.8241622447967529 -0.8813355565071106 0.06123306602239609 50
-0.815044105052948 -0.8712798953056335 0.020157529041171074 50
-0.8220378160476685 -0.8772205710411072 -0.3118770718574524 50
-0.822486162185669 -0.8773919343948364 -0.26881664991378784 50
-0.8285985589027405 -0.8836033344268799 -0.22781215608119965 50
-0.826923668384552 -0.8815087676048279 -0.18537499010562897 50
-0.8378085494041443 -0.8927999138832092 -0.1456340253353119 50
-0.8239030241966248 -0.8776746392250061 -0.10197237133979797 50
-0.8225955963134766 -0.8759754300117493 -0.0607684962451458 50
-0.8271380662918091 -0.8805046677589417 -0.02021530643105507 50
-0.8232991695404053 -0.876111626625061 0.31167376041412354 50
-0.8237425088882446 -0.8762769103050232 0.2686132788658142 50
-0.8264690637588501 -0.8788699507713318 0.22685880959033966 50
-0.8315595984458923 -0.8839740753173828 0.1859518587589264 50
-0.8220492601394653 -0.8735586404800415 0.14258712530136108 50
-0.8353701829910278 -0.8874038457870483 0.10327955335378647 50
-0.8272336721420288 -0.8784533143043518 0.06123306602239609 50
-0.8215084075927734 -0.8720685243606567 0.020244790241122246 50
-0.8250948786735535 -0.8743457794189453 -0.3118770718574524 50
-0.8255438208580017 -0.8745156526565552 -0.26881664991378784 50
-0.8316778540611267 -0.8807055354118347 -0.22781215608119965 50
-0.8299956917762756 -0.878616988658905 -0.18537499010562897 50
-0.8443284034729004 -0.8934769034385681 -0.1462433636188507 50
-0.8303833603858948 -0.8784129619598389 -0.10240815579891205 50
-0.8290790319442749 -0.8767266273498535 -0.061029303818941116 50
-0.8336421251296997 -0.881243884563446 -0.0203016959130764 50
-0.8263523578643799 -0.8732324242591858 0.31167376041412354 50
-0.8301456570625305 -0.876934289932251 0.269737184047699 50
-0.8329068422317505 -0.8795435428619385 0.2278119921684265 50
-0.8346402049064636 -0.8810659646987915 0.1859518587589264 50
-0.828507125377655 -0.8742860555648804 0.1431964635848999 50
-0.8418894410133362 -0.8880972862243652 0.10371533036231995 50
-0.8337308168411255 -0.8791835308074951 0.061494745314121246 50
-0.8279881477355957 -0.872822642326355 0.020332051441073418 50
-0.8314688801765442 -0.8749613165855408 -0.3131711781024933 50
-0.8319479823112488 -0.8751595616340637 -0.26994141936302185 50
-0.838129460811615 -0.8813539743423462 -0.2287653386592865 50
-0.8364612460136414 -0.8792924284934998 -0.18615715205669403 50
-0.8508632183074951 -0.8941192030906677 -0.14685271680355072 50
-0.8334445357322693 -0.8755089640617371 -0.10240815579891205 50
-0.8321343064308167 -0.8738272190093994 -0.061029303818941116 50
-0.8367132544517517 -0.8783285021781921 -0.0203016959130764 50
-0.8327274322509766 -0.8738390207290649 0.3129670321941376 50
-0.8365634083747864 -0.8775576949119568 0.27086108922958374 50
-0.8393592238426208 -0.8801828622817993 0.22876517474651337 50
-0.8411194682121277 -0.8817204833030701 0.1867331564426422 50
-0.8349801301956177 -0.8749790191650391 0.14380581676959991 50
-0.8484237194061279 -0.8887559771537781 0.10415110737085342 50
-0.8367946743965149 -0.8762678503990173 0.061494745314121246 50
-0.8310298323631287 -0.8699269890785217 0.020332051441073418 50
-0.8345180153846741 -0.8720536231994629 -0.3131711781024933 50
-0.834997832775116 -0.8722502589225769 -0.26994141936302185 50
-0.8445956110954285 -0.8819679617881775 -0.22971853613853455 50
-0.8429417610168457 -0.8799334168434143 -0.1869393289089203 50
-0.8574128150939941 -0.8947269320487976 -0.14746206998825073 50
-0.8399425148963928 -0.8761901259422302 -0.10284393280744553 50
-0.8386355042457581 -0.8745211362838745 -0.06129011511802673 50
-0.8432348966598511 -0.8790101408958435 -0.020388085395097733 50
-0.8391167521476746 -0.8744118213653564 0.3142602741718292 50
-0.8429955244064331 -0.8781468272209167 0.2719849944114685 50
-0.845826268196106 -0.8807878494262695 0.2297183722257614 50
-0.8441920876502991 -0.8787791132926941 0.1867331564426422 50
-0.8414679169654846 -0.8756373524665833 0.14441515505313873 50
-0.851520836353302 -0.8857890367507935 0.10415110737085342 50
-0.8433092832565308 -0.8769405484199524 0.061756424605846405 50
-0.8375272154808044 -0.8706236481666565 0.02041931450366974 50
-0.8409081697463989 -0.8726128935813904 -0.3144652545452118 50
-0.8414187431335449 -0.8728377223014832 -0.27106615900993347 50
-0.8510761857032776 -0.8825474381446838 -0.2306717187166214 50
-0.8494367599487305 -0.8805397748947144 -0.18772150576114655 50
-0.8605307340621948 -0.8917284607887268 -0.14746206998825073 50
-0.8429958820343018 -0.8732528686523438 -0.10284393280744553 50
-0.841683030128479 -0.871588408946991 -0.06129011511802673 50
-0.8497714400291443 -0.8796569108963013 -0.020474476739764214 50
-0.8455203771591187 -0.874950647354126 0.31555354595184326 50
-0.8460556268692017 -0.8751988410949707 0.2719849944114685 50
-0.8488956093788147 -0.8778300285339355 0.2297183722257614 50
-0.8506881594657898 -0.8793764710426331 0.18751446902751923 50
-0.8445193767547607 -0.872694730758667 0.14441515505313873 50
-0.8580722212791443 -0.8863900899887085 0.1045868843793869 50
-0.846365213394165 -0.8739914894104004 0.061756424605846405 50
-0.8440395593643188 -0.8712855577468872 0.02050657570362091 50
-0.843949019908905 -0.8696722388267517 -0.3144652545452118 50
-0.8478537797927856 -0.8733909130096436 -0.2721909284591675 50
-0.8541516661643982 -0.8795711994171143 -0.2306717187166214 50
-0.8559463620185852 -0.8811115622520447 -0.1885036826133728 50
-0.8670968413352966 -0.892278254032135 -0.14807140827178955 50
-0.8495108485221863 -0.8738763928413391 -0.103279709815979 50
-0.848201334476471 -0.8722246885299683 -0.06155092269182205 50
-0.8528368473052979 -0.8766852617263794 -0.020474476739764214 50
-0.8519377112388611 -0.8754552006721497 0.3168468177318573 50
-0.8525040149688721 -0.875731348991394 0.27310889959335327 50
-0.8553789854049683 -0.8783778548240662 0.23067155480384827 50
-0.853752613067627 -0.8764016628265381 0.18751446902751923 50
-0.8510239720344543 -0.8732956647872925 0.14502450823783875 50
-0.8646379113197327 -0.8869560956954956 0.10502266883850098 50
-0.8528969287872314 -0.8746066689491272 0.062018103897571564 50
-0.8470757603645325 -0.8683339953422546 0.02050657570362091 50
-0.8503552079200745 -0.8701752424240112 -0.3157593905925751 50
-0.8543028831481934 -0.8739097714424133 -0.2733156681060791 50
-0.8606484532356262 -0.8800936341285706 -0.23162490129470825 50
-0.8590167164802551 -0.8781184554100037 -0.1885036826133728 50
-0.8736771941184998 -0.8927931189537048 -0.14868077635765076 50
-0.8560404181480408 -0.8744651079177856 -0.10371548682451248 50
-0.8512407541275024 -0.8692585825920105 -0.06155092269182205 50
-0.8593902587890625 -0.8772741556167603 -0.020560866221785545 50
-0.8583689332008362 -0.8759257197380066 0.31814005970954895 50
-0.8589664101600647 -0.8762294054031372 0.27423280477523804 50
-0.8618765473365784 -0.8788911700248718 0.23162473738193512 50
-0.8602650165557861 -0.8769416213035583 0.18829578161239624 50
-0.8540672063827515 -0.8703197240829468 0.14502450823783875 50
-0.8677286505699158 -0.8839325308799744 0.10502266883850098 50
-0.8559446930885315 -0.8716241717338562 0.062018103897571564 50
-0.8536050915718079 -0.8689382672309875 0.020593838766217232 50
-0.8567750453948975 -0.8706440329551697 -0.3170534670352936 50
-0.8573482632637024 -0.8709223866462708 -0.2733156681060791 50
-0.8671593070030212 -0.8805814385414124 -0.2325781136751175 50
-0.8655424118041992 -0.8786327242851257 -0.18928584456443787 50
-0.876788318157196 -0.8897379636764526 -0.14868077635765076 50
-0.8590877056121826 -0.8714715838432312 -0.10371548682451248 50
-0.857775866985321 -0.8698371648788452 -0.06181173026561737 50
-0.8624473214149475 -0.8742690086364746 -0.020560866221785545 50
-0.8614212274551392 -0.8729241490364075 0.31814005970954895 50
-0.8620197772979736 -0.8732258081436157 0.27423280477523804 50
-0.8649392127990723 -0.8758772611618042 0.23162473738193512 50
-0.8667916059494019 -0.8774468302726746 0.18907709419727325 50
-0.8605883121490479 -0.8708631992340088 0.14563384652137756 50
-0.8743107318878174 -0.884440541267395 0.10545844584703445 50
-0.8624929189682007 -0.8721813559532166 0.06227978318929672 50
-0.8601487874984741 -0.8695072531700134 0.020681099966168404 50
-0.863208532333374 -0.8710785508155823 -0.3183475732803345 50
-0.8638129830360413 -0.8713843822479248 -0.2744404673576355 50
-0.8736839890480042 -0.881034255027771 -0.23353131115436554 50
-0.8720821142196655 -0.8791119456291199 -0.19006802141666412 50
