# .PCD v0.7 - Point Cloud Data file format
VERSION 0.7
FIELDS x y z intensity
SIZE 4 4 4 4
TYPE F F F F
COUNT 1 1 1 1
WIDTH 769
HEIGHT 1
VIEWPOINT 0 0 0 1 0 0 0
POINTS 769
DATA ascii
1.6838608980178833 -0.8539018630981445 -0.4956386983394623 119
1.9240574836730957 -0.9761300086975098 -0.48926883935928345 119
2.2925493717193604 -1.1635798215866089 -0.4918454885482788 119
2.455925703048706 -1.2470402717590332 -0.430195152759552 119
2.463193655014038 -1.2512714862823486 -0.3345317244529724 108
2.445261001586914 -1.2426989078521729 -0.2366282045841217 108
2.442056894302368 -1.2416068315505981 -0.14109766483306885 108
2.4403069019317627 -1.241253137588501 -0.046650707721710205 108
2.4360456466674805 -1.2396210432052612 0.7216347455978394 108
2.4394426345825195 -1.2418856620788574 0.6226433515548706 108
2.435255289077759 -1.2402892112731934 0.5233003497123718 108
2.436647653579712 -1.2415339946746826 0.42659544944763184 108
2.434915542602539 -1.2411867380142212 0.3308752477169037 108
2.443523406982422 -1.2461119890213013 0.23662783205509186 108
2.444746732711792 -1.2472734451293945 0.1418304443359375 108
2.4341111183166504 -1.2423828840255737 0.047034233808517456 108
1.6808699369430542 -0.8597744703292847 -0.4956386983394623 119
1.9206384420394897 -0.9828402996063232 -0.48926883935928345 119
2.2884738445281982 -1.1715751886367798 -0.4918454885482788 119
2.4515576362609863 -1.2556054592132568 -0.430195152759552 119
2.4632277488708496 -1.2621251344680786 -0.33514106273651123 108
2.445340871810913 -1.2534990310668945 -0.23706398904323578 108
2.4377079010009766 -1.2501236200332642 -0.14109766483306885 108
2.4404070377349854 -1.2520458698272705 -0.04673709720373154 108
2.436000347137451 -1.2503222227096558 0.722927987575531 108
2.4350929260253906 -1.2503933906555176 0.6226433515548706 108
2.435277223587036 -1.2510250806808472 0.5242535471916199 108
2.4366912841796875 -1.2522891759872437 0.42737674713134766 108
2.4349818229675293 -1.2519478797912598 0.3314846158027649 108
2.4435882568359375 -1.2569122314453125 0.23706363141536713 108
2.440377950668335 -1.255799651145935 0.1418304443359375 108
2.434204339981079 -1.2531601190567017 0.04712149500846863 108
1.6780096292495728 -0.8653436899185181 -0.4956386983394623 119
1.917541265487671 -0.988869309425354 -0.48926883935928345 119
2.2891438007354736 -1.1810094118118286 -0.49279871582984924 119
2.45198917388916 -1.2655659914016724 -0.4309772849082947 119
2.4592504501342773 -1.269857406616211 -0.33514106273651123 108
2.4458160400390625 -1.2634611129760742 -0.23749975860118866 108
2.438204526901245 -1.2600682973861694 -0.14135847985744476 108
2.4409027099609375 -1.2620024681091309 -0.04682349041104317 108
2.4363505840301514 -1.2601879835128784 0.7242212295532227 108
2.4354794025421143 -1.2602763175964355 0.6237671971321106 108
2.4356935024261475 -1.2609260082244873 0.5252067446708679 108
2.4371306896209717 -1.262209415435791 0.42815807461738586 108
2.4354429244995117 -1.2618744373321533 0.3320939540863037 108
2.444049835205078 -1.2668750286102295 0.23749940097332 108
2.4408533573150635 -1.265758752822876 0.14209210872650146 108
2.4346930980682373 -1.2631033658981323 0.0472087562084198 108
1.675130844116211 -0.8709034323692322 -0.4956386983394623 119
1.914077877998352 -0.9955567717552185 -0.48926883935928345 119
2.2893614768981934 -1.1912583112716675 -0.4937518835067749 119
2.451936960220337 -1.2763975858688354 -0.43175947666168213 119
2.4592041969299316 -1.2807263135910034 -0.33575040102005005 108
2.445808172225952 -1.2742924690246582 -0.23793554306030273 108
2.438218832015991 -1.2708793878555298 -0.14161927998065948 108
2.4409148693084717 -1.2728265523910522 -0.0469098761677742 108
2.436218738555908 -1.270918607711792 0.7255144715309143 108
2.43538498878479 -1.2710243463516235 0.6248911619186401 108
2.4356284141540527 -1.2716922760009766 0.526159942150116 108
2.4327099323272705 -1.2707089185714722 0.42815807461738586 108
2.4354217052459717 -1.272666573524475 0.33270329236984253 108
2.4440269470214844 -1.2777063846588135 0.23793518543243408 108
2.440844774246216 -1.276585340499878 0.14235380291938782 108
2.4302690029144287 -1.2715942859649658 0.0472087562084198 108
1.671927571296692 -0.8770372271537781 -0.4956386983394623 119
1.9104160070419312 -1.0025655031204224 -0.48926883935928345 119
2.289325714111328 -1.20192289352417 -0.49470508098602295 119
2.447242498397827 -1.2853758335113525 -0.43175947666168213 119
2.4588868618011475 -1.2920396327972412 -0.33635976910591125 108
2.4455301761627197 -1.2855658531188965 -0.23837131261825562 108
2.4379639625549316 -1.282131552696228 -0.1418800950050354 108
2.4406578540802 -1.2840921878814697 -0.04699626937508583 108
2.4358184337615967 -1.2820888757705688 0.7268077731132507 108
2.435020685195923 -1.2822117805480957 0.6260150074958801 108
2.4309511184692383 -1.2806107997894287 0.526159942150116 108
2.4324049949645996 -1.2819191217422485 0.4289393723011017 108
2.4307408332824707 -1.2815842628479004 0.33270329236984253 108
2.443732976913452 -1.2889792919158936 0.23837095499038696 108
2.440565347671509 -1.2878530025482178 0.14261546730995178 108
2.4300131797790527 -1.2828271389007568 0.04729602113366127 108
1.668855905532837 -0.8828680515289307 -0.4956386983394623 119
1.9069048166275024 -1.009227991104126 -0.48926883935928345 119
2.2937920093536377 -1.2145003080368042 -0.49661147594451904 119
2.4471046924591064 -1.2962220907211304 -0.4325416386127472 119
2.458746910095215 -1.3029385805130005 -0.3369691073894501 108
2.4410276412963867 -1.2940945625305176 -0.23837131261825562 108
2.43788480758667 -1.2929733991622925 -0.14214091002941132 108
2.4405765533447266 -1.2949469089508057 -0.047082655131816864 108
2.435594320297241 -1.2928481101989746 0.7281009554862976 108
2.434833288192749 -1.292988896369934 0.6271389722824097 108
2.430800437927246 -1.291391372680664 0.527113139629364 108
2.432276487350464 -1.292719841003418 0.4297206997871399 108
2.4306344985961914 -1.2923911809921265 0.33331263065338135 108
2.4436163902282715 -1.2998409271240234 0.23880673944950104 108
2.440462827682495 -1.2987101078033447 0.14287716150283813 108
2.4299333095550537 -1.2936509847640991 0.047383278608322144 108
1.6657640933990479 -0.8886880278587341 -0.4956386983394623 119
1.9033702611923218 -1.0158782005310059 -0.48926883935928345 119
2.29386830329895 -1.2248115539550781 -0.4975646436214447 119
2.4469211101531982 -1.3070831298828125 -0.43332383036613464 119
2.4585607051849365 -1.3138521909713745 -0.3375784754753113 108
2.4408884048461914 -1.3049559593200684 -0.23880711197853088 108
2.433356523513794 -1.3014752864837646 -0.14214091002941132 108
2.4404497146606445 -1.305816888809204 -0.047169048339128494 108
2.4353249073028564 -1.3036214113235474 0.729394257068634 108
2.430305004119873 -1.3014800548553467 0.6271389722824097 108
2.4306044578552246 -1.3021864891052246 0.5280663371086121 108
2.4321019649505615 -1.3035351037979126 0.4305019974708557 108
2.4304819107055664 -1.3032128810882568 0.33392199873924255 108
2.443453311920166 -1.310717225074768 0.23924250900745392 108
2.4359147548675537 -1.3072209358215332 0.14287716150283813 108
2.429807662963867 -1.3044898509979248 0.047470543533563614 108
1.6583985090255737 -0.8922090530395508 -0.4943445920944214 119
1.8998126983642578 -1.0225160121917725 -0.48926883935928345 119
2.293900728225708 -1.235138177871704 -0.49851784110069275 119
2.4466912746429443 -1.3179583549499512 -0.4341059923171997 119
2.4583284854888916 -1.3247804641723633 -0.3381877839565277 108
2.4407026767730713 -1.3158318996429443 -0.23924288153648376 108
2.4331934452056885 -1.3123317956924438 -0.14240172505378723 108
2.4402761459350586 -1.3167015314102173 -0.047255437821149826 108
2.435009479522705 -1.3144086599349976 0.7306875586509705 108
2.4300339221954346 -1.3122706413269043 0.6282628178596497 108
2.426044225692749 -1.310662865638733 0.5280663371086121 108
2.4318816661834717 -1.3143649101257324 0.4312833249568939 108
2.430283308029175 -1.3140493631362915 0.33453133702278137 108
2.443244457244873 -1.3216084241867065 0.239678293466568 108
2.4357283115386963 -1.3180923461914062 0.1431388258934021 108
2.4296352863311768 -1.3153433799743652 0.047557804733514786 108
1.6552740335464478 -0.8979924917221069 -0.4943445920944214 119
1.8962318897247314 -1.0291414260864258 -0.48926883935928345 119
2.2982022762298584 -1.2478219270706177 -0.5004242062568665 119
2.446415662765503 -1.328848123550415 -0.43488818407058716 119
2.4580495357513428 -1.3357231616973877 -0.3387971520423889 108
2.4360947608947754 -1.3243435621261597 -0.23924288153648376 108
2.4329841136932373 -1.3232027292251587 -0.14266252517700195 108
2.440056800842285 -1.3276010751724243 -0.047341831028461456 108
2.4304065704345703 -1.322900414466858 0.7306875586509705 108
2.4297173023223877 -1.3230750560760498 0.6293867826461792 108
2.425764560699463 -1.3214714527130127 0.5290194749832153 108
2.4316153526306152 -1.325209140777588 0.43206459283828735 108
2.4256818294525146 -1.3225245475769043 0.33453133702278137 108
2.442988872528076 -1.3325140476226807 0.24011406302452087 108
2.435495615005493 -1.3289783000946045 0.14340052008628845 108
2.4250290393829346 -1.3238164186477661 0.047557804733514786 108
1.6521294116973877 -0.9037650227546692 -0.4943445920944214 119
1.8926279544830322 -1.0357542037963867 -0.48926883935928345 119
2.298137664794922 -1.2581936120986938 -0.5013774037361145 119
2.4460930824279785 -1.3397518396377563 -0.43567031621932983 119
2.457724094390869 -1.3466798067092896 -0.33940649032592773 108
2.4358248710632324 -1.3352333307266235 -0.23967866599559784 108
2.4371066093444824 -1.3364890813827515 -0.1431841403245926 108
2.4354076385498047 -1.3361103534698486 -0.047341831028461456 108
2.4300081729888916 -1.3336999416351318 0.7319807410240173 108
2.429354667663574 -1.3338929414749146 0.6305106282234192 108
2.42543888092041 -1.33229398727417 0.5299726724624634 108
2.4269745349884033 -1.3336888551712036 0.43206459283828735 108
2.4253995418548584 -1.3333747386932373 0.3351406753063202 108
2.4426872730255127 -1.3434338569641113 0.24054984748363495 108
2.435216188430786 -1.3398786783218384 0.14366218447685242 108
2.4247732162475586 -1.3346840143203735 0.047645069658756256 108
1.6489646434783936 -0.9095264673233032 -0.4943445920944214 119
1.8890008926391602 -1.0423543453216553 -0.48926883935928345 119
2.302325963973999 -1.2709522247314453 -0.5032837390899658 119
2.4457249641418457 -1.3506696224212646 -0.4364525079727173 119
2.4530081748962402 -1.3552507162094116 -0.33940649032592773 108
2.4355084896087646 -1.3461371660232544 -0.24011443555355072 108
2.4367964267730713 -1.3474043607711792 -0.1434449553489685 108
2.435103416442871 -1.3470232486724854 -0.04742821678519249 108
2.4295637607574463 -1.344512701034546 0.7332740426063538 108
2.4289464950561523 -1.3447248935699463 0.6316345930099487 108
2.42506742477417 -1.343130350112915 0.5309258699417114 108
2.426624059677124 -1.3445460796356201 0.43284592032432556 108
2.4250707626342773 -1.3442386388778687 0.335750013589859 108
2.442338705062866 -1.354367733001709 0.24098561704158783 108
2.4348907470703125 -1.3507931232452393 0.14392387866973877 108
2.4244704246520996 -1.345565915107727 0.04773232713341713 108
1.6457797288894653 -0.9152768850326538 -0.4943445920944214 119
1.8853508234024048 -1.0489418506622314 -0.48926883935928345 119
2.302164077758789 -1.2813681364059448 -0.5042369961738586 119
2.440995216369629 -1.3591985702514648 -0.4364525079727173 119
2.4525983333587646 -1.366220235824585 -0.34001585841178894 108
2.435145854949951 -1.3570553064346313 -0.2405502200126648 108
2.4364395141601562 -1.3583334684371948 -0.14370575547218323 108
2.4347524642944336 -1.3579500913619995 -0.04751460999250412 108
2.4290733337402344 -1.3553385734558105 0.7345672845840454 108
2.4284915924072266 -1.355569839477539 0.6327584385871887 108
2.424649715423584 -1.353980302810669 0.5318790674209595 108
2.426227569580078 -1.355417013168335 0.4336272180080414 108
2.4246957302093506 -1.355116605758667 0.3363593816757202 108
2.437596321105957 -1.3628848791122437 0.24098561704158783 108
2.434518337249756 -1.3617218732833862 0.14418554306030273 108
2.424121618270874 -1.356462001800537 0.0478195920586586 108
1.6424139738082886 -0.9213027954101562 -0.4943445920944214 119
1.8814936876296997 -1.055845022201538 -0.48926883935928345 119
2.297452211380005 -1.2897974252700806 -0.5042369961738586 119
2.440303087234497 -1.3705544471740723 -0.43723466992378235 119
2.4519009590148926 -1.3776311874389648 -0.34062519669532776 108
2.434497833251953 -1.3684120178222656 -0.24098598957061768 108
2.4357967376708984 -1.3697017431259155 -0.14396657049655914 108
2.4341161251068115 -1.3693159818649292 -0.04760099574923515 108
2.4282987117767334 -1.3666013479232788 0.7358605265617371 108
2.4277522563934326 -1.366851806640625 0.6338824033737183 108
2.4239470958709717 -1.3652666807174683 0.5328322649002075 108
2.4255456924438477 -1.3667247295379639 0.4344085454940796 108
2.4240360260009766 -1.366431474685669 0.33696871995925903 108
2.4369235038757324 -1.3742567300796509 0.2414214164018631 108
2.4338600635528564 -1.373089075088501 0.1444472372531891 108
2.423487424850464 -1.3677948713302612 0.04790685325860977 108
1.6391880512237549 -0.9270303249359131 -0.4943445920944214 119
1.8777966499328613 -1.0624061822891235 -0.48926883935928345 119
2.2972073554992676 -1.3002266883850098 -0.5051901340484619 119
2.4398014545440674 -1.3814977407455444 -0.4380168616771698 119
2.451395273208618 -1.3886276483535767 -0.3412345349788666 108
2.434039831161499 -1.3793575763702393 -0.24142178893089294 108
2.4353444576263428 -1.380658507347107 -0.14422737061977386 108
2.4336700439453125 -1.3802706003189087 -0.04768738895654678 108
2.423513650894165 -1.3750693798065186 0.7358605265617371 108
2.42720365524292 -1.3777230978012085 0.635006308555603 108
2.4234349727630615 -1.3761433362960815 0.5337854623794556 108
2.4250540733337402 -1.3776224851608276 0.4351898431777954 108
2.4235661029815674 -1.3773366212844849 0.33757805824279785 108
2.436441659927368 -1.3852165937423706 0.24185717105865479 108
2.433392286300659 -1.3840450048446655 0.14470891654491425 108
2.427384853363037 -1.3811966180801392 0.048081375658512115 108
1.6361048221588135 -0.9324609637260437 -0.4943445920944214 119
1.8742631673812866 -1.0686273574829102 -0.48926883935928345 119
2.2928831577301025 -1.3078373670578003 -0.5051901340484619 119
2.4394960403442383 -1.3920283317565918 -0.43879902362823486 119
2.4510867595672607 -1.3992093801498413 -0.3418438732624054 108
2.4337775707244873 -1.3898916244506836 -0.24185754358768463 108
2.4350881576538086 -1.391203761100769 -0.14448818564414978 108
2.433419942855835 -1.3908140659332275 -0.047773778438568115 108
2.423133134841919 -1.3854957818984985 0.7371537685394287 108
2.4268503189086914 -1.388183355331421 0.6361302137374878 108
2.4231181144714355 -1.3866099119186401 0.5347386002540588 108
2.4247586727142334 -1.3881103992462158 0.4359711706638336 108
2.4232919216156006 -1.3878322839736938 0.33818739652633667 108
2.4318346977233887 -1.393288493156433 0.24185717105865479 108
2.4331212043762207 -1.394589900970459 0.1449705958366394 108
2.4271316528320312 -1.3917194604873657 0.048168640583753586 108
1.6328400373458862 -0.9381663799285889 -0.4943445920944214 119
1.8705216646194458 -1.0751632452011108 -0.48926883935928345 119
2.288303852081299 -1.3158330917358398 -0.5051901340484619 119
2.4389026165008545 -1.402997612953186 -0.4395812153816223 119
2.446187734603882 -1.4077566862106323 -0.3418438732624054 108
2.433227777481079 -1.4008638858795166 -0.2422933429479599 108
2.4302170276641846 -1.3996952772140503 -0.14448818564414978 108
2.432882070541382 -1.401795744895935 -0.047860171645879745 108
2.42246675491333 -1.396357774734497 0.7384470701217651 108
2.426210641860962 -1.3990800380706787 0.6372541189193726 108
2.4225151538848877 -1.397512435913086 0.5356917977333069 108
2.42417573928833 -1.3990343809127808 0.43675246834754944 108
2.4227304458618164 -1.3987641334533691 0.3387967646121979 108
2.431269645690918 -1.4042600393295288 0.24229297041893005 108
2.4325618743896484 -1.405572533607483 0.14523227512836456 108
2.426586866378784 -1.4026850461959839 0.04825589805841446 108
1.6295552253723145 -0.9438603520393372 -0.4943445920944214 119
1.8667572736740112 -1.081686019897461 -0.48926883935928345 119
2.2836968898773193 -1.32381272315979 -0.5051901340484619 119
2.438262462615967 -1.4139798879623413 -0.440363347530365 119
2.4455513954162598 -1.418777346611023 -0.3424532413482666 108
2.432631015777588 -1.4118491411209106 -0.24272911250591278 108
2.4296345710754395 -1.4106769561767578 -0.1447489857673645 108
2.4322967529296875 -1.4127904176712036 -0.04794655740261078 108
2.4217536449432373 -1.4072316884994507 0.739740252494812 108
2.4255242347717285 -1.4099891185760498 0.6383780241012573 108
2.4218649864196777 -1.4084274768829346 0.5366449952125549 108
2.423546075820923 -1.4099712371826172 0.43753379583358765 108
2.417833089828491 -1.407212495803833 0.3387967646121979 108
2.430657386779785 -1.4152443408966064 0.24272873997688293 108
2.431955337524414 -1.416568398475647 0.14549395442008972 108
2.425995349884033 -1.4136639833450317 0.04834316298365593 108
1.6262507438659668 -0.949542760848999 -0.4943445920944214 119
1.862969994544983 -1.088195562362671 -0.48926883935928345 119
2.274824380874634 -1.329300045967102 -0.5042369961738586 119
2.437575340270996 -1.424974799156189 -0.44114553928375244 119
2.4448680877685547 -1.429810643196106 -0.3430625796318054 108
2.4319872856140137 -1.4228472709655762 -0.24316489696502686 108
2.4290049076080322 -1.4216715097427368 -0.14500980079174042 108
2.4316649436950684 -1.4237980842590332 -0.04803295060992241 108
2.420994281768799 -1.4181177616119385 0.7410335540771484 108
2.4247913360595703 -1.4209104776382446 0.6395019292831421 108
2.421168088912964 -1.419355034828186 0.537598192691803 108
2.4228696823120117 -1.4209208488464355 0.43831509351730347 108
2.4171864986419678 -1.4181549549102783 0.3394061028957367 108
2.4299981594085693 -1.4262416362762451 0.243164524435997 108
2.4313013553619385 -1.427577018737793 0.14575563371181488 108
2.421046018600464 -1.422123670578003 0.04834316298365593 108
1.6229262351989746 -0.9552136659622192 -0.4943445920944214 119
1.8633586168289185 -1.0971639156341553 -0.49039360880851746 119
2.2701704502105713 -1.3372325897216797 -0.5042369961738586 119
2.4368412494659424 -1.4359819889068604 -0.4419277310371399 119
2.4441373348236084 -1.4408563375473022 -0.34367191791534424 108
2.4312961101531982 -1.433858036994934 -0.24360066652297974 108
2.428328037261963 -1.4326790571212769 -0.14527061581611633 108
2.43098521232605 -1.4348186254501343 -0.04811934009194374 108
2.4201884269714355 -1.4290157556533813 0.7423267960548401 108
2.419816493988037 -1.429365873336792 0.6395019292831421 108
2.420424699783325 -1.4302949905395508 0.538551390171051 108
2.4221463203430176 -1.4318827390670776 0.4390964210033417 108
2.4164934158325195 -1.4291101694107056 0.3400154411792755 108
2.4292917251586914 -1.4372514486312866 0.2436002939939499 108
2.43060040473938 -1.438598394393921 0.14601731300354004 108
2.4203684329986572 -1.4331129789352417 0.0484304241836071 108
1.619581937789917 -0.9608729481697083 -0.4943445920944214 119
1.8595173358917236 -1.1036616563796997 -0.49039360880851746 119
2.261268138885498 -1.342642903327942 -0.5032837390899658 119
2.4360597133636475 -1.4470014572143555 -0.44270989298820496 119
2.443359375 -1.4519144296646118 -0.34428128600120544 108
2.4305579662323 -1.4448814392089844 -0.2440364509820938 108
2.4276039600372314 -1.4436990022659302 -0.14553143084049225 108
2.430258274078369 -1.4458515644073486 -0.04820572957396507 108
2.4193358421325684 -1.4399253129959106 0.7436200380325317 108
2.4189984798431396 -1.4402962923049927 0.6406258344650269 108
2.4196341037750244 -1.4412469863891602 0.5395045876502991 108
2.4213757514953613 -1.4428569078445435 0.4398776888847351 108
2.41575288772583 -1.440077781677246 0.34062477946281433 108
2.4285380840301514 -1.4482738971710205 0.24403607845306396 108
2.42985200881958 -1.449632167816162 0.1462789922952652 108
2.419644355773926 -1.4441150426864624 0.04851768910884857 108
1.616218090057373 -0.9665204882621765 -0.4943445920944214 119
1.8556535243988037 -1.110145926475525 -0.49039360880851746 119
2.2565677165985107 -1.3505278825759888 -0.5032837390899658 119
2.4352307319641113 -1.4580329656600952 -0.4434920847415924 119
2.4425337314605713 -1.462984561920166 -0.34489062428474426 108
2.429771900177002 -1.4559170007705688 -0.2444722205400467 108
2.426832437515259 -1.4547312259674072 -0.14579223096370697 108
2.429483652114868 -1.4568970203399658 -0.048292119055986404 108
2.418436288833618 -1.4508461952209473 0.7449132800102234 108
2.4181337356567383 -1.4512386322021484 0.6417497396469116 108
2.4187967777252197 -1.452210783958435 0.5404577851295471 108
2.4163246154785156 -1.4513003826141357 0.4398776888847351 108
2.4149653911590576 -1.4510575532913208 0.34123414754867554 108
2.42773699760437 -1.4593082666397095 0.24447184801101685 108
2.429056167602539 -1.4606783390045166 0.14654067158699036 108
2.418872356414795 -1.4551292657852173 0.048604946583509445 108
1.6128344535827637 -0.9721562266349792 -0.4943445920944214 119
1.8517670631408691 -1.1166166067123413 -0.49039360880851746 119
2.256042718887329 -1.3609318733215332 -0.5042369961738586 119
2.434354543685913 -1.469076156616211 -0.44427424669265747 119
2.4416606426239014 -1.4740664958953857 -0.34549999237060547 108
2.428938627243042 -1.4669647216796875 -0.24490801990032196 108
2.426013231277466 -1.465775728225708 -0.14605304598808289 108
2.428662061691284 -1.4679547548294067 -0.048378512263298035 108
2.4174904823303223 -1.4617784023284912 0.746206521987915 108
2.417221784591675 -1.4621922969818115 0.6428735852241516 108
2.4221112728118896 -1.46572744846344 0.5423641800880432 108
2.415468692779541 -1.4622836112976074 0.4406590163707733 108
2.418375253677368 -1.4646201133728027 0.34245285391807556 108
2.4268884658813477 -1.470354676246643 0.24490763247013092 108
2.4282124042510986 -1.4717365503311157 0.14680235087871552 108
2.418053150177002 -1.4661561250686646 0.048692211508750916 108
1.6094311475753784 -0.9777801632881165 -0.4943445920944214 119
1.8520210981369019 -1.1256037950515747 -0.4915183484554291 119
2.2512784004211426 -1.3687986135482788 -0.5042369961738586 119
2.4334311485290527 -1.4801311492919922 -0.4450564384460449 119
2.440739870071411 -1.485160231590271 -0.3461093306541443 108
2.428057909011841 -1.4780241250991821 -0.24534378945827484 108
2.4251465797424316 -1.4768321514129639 -0.1463138461112976 108
2.427792549133301 -1.4790242910385132 -0.04846489802002907 108
2.416497230529785 -1.4727214574813843 0.7474997639656067 108
2.4162631034851074 -1.473157286643982 0.6439975500106812 108
2.421170711517334 -1.4767290353775024 0.5433173179626465 108
2.418781280517578 -1.4758508205413818 0.44222164154052734 108
2.4174840450286865 -1.475638508796692 0.343062162399292 108
2.425992012023926 -1.4814130067825317 0.2453434020280838 108
2.427321434020996 -1.4828064441680908 0.14706403017044067 108
2.4171862602233887 -1.4771945476531982 0.04877947270870209 108
1.6060081720352173 -0.9833921194076538 -0.4943445920944214 119
1.8480807542800903 -1.1320616006851196 -0.4915183484554291 119
2.2464866638183594 -1.3766487836837769 -0.5042369961738586 119
2.432459831237793 -1.4911974668502808 -0.4458385705947876 119
2.4397714138031006 -1.4962655305862427 -0.3467186689376831 108
2.4271295070648193 -1.4890955686569214 -0.24577957391738892 108
2.4242324829101562 -1.4879004955291748 -0.14657466113567352 108
2.426875352859497 -1.4901057481765747 -0.0485512912273407 108
2.4195728302001953 -1.4862035512924194 0.75008624792099 108
2.415256977081299 -1.484133243560791 0.6451213955879211 108
2.420182704925537 -1.4877419471740723 0.5442705154418945 108
2.4178216457366943 -1.4868719577789307 0.44300296902656555 108
2.4165451526641846 -1.486668586730957 0.3436715304851532 108
2.4250481128692627 -1.4924830198287964 0.24577918648719788 108
2.426382541656494 -1.493888258934021 0.14732570946216583 108
2.416271924972534 -1.488244891166687 0.04886673390865326 108
1.6025657653808594 -0.9889921545982361 -0.4943445920944214 119
1.8441178798675537 -1.1385058164596558 -0.4915183484554291 119
2.2458434104919434 -1.3870611190795898 -0.5051901340484619 119
2.431441307067871 -1.5022748708724976 -0.44662076234817505 119
2.4387547969818115 -1.507381796836853 -0.3473280072212219 108
2.4261536598205566 -1.500178337097168 -0.246215358376503 108
2.4232702255249023 -1.498980164527893 -0.14683546125888824 108
2.425909996032715 -1.501198649406433 -0.04863768070936203 108
2.4184768199920654 -1.4971826076507568 0.7513795495033264 108
2.4142038822174072 -1.4951202869415283 0.6462453603744507 108
2.419147253036499 -1.4987658262252808 0.5452237129211426 108
2.416814088821411 -1.4979043006896973 0.44378426671028137 108
2.4155590534210205 -1.4977099895477295 0.3442808985710144 108
2.4240567684173584 -1.503564715385437 0.24621498584747314 108
2.4253957271575928 -1.504981517791748 0.147587388753891 108
2.415309429168701 -1.4993066787719727 0.04895399510860443 108
1.5950026512145996 -0.9920293688774109 -0.4930504858493805 119
1.8401325941085815 -1.1449360847473145 -0.4915183484554291 119
2.236821174621582 -1.3922985792160034 -0.5042369961738586 119
2.4303743839263916 -1.5133634805679321 -0.4474029242992401 119
2.433478355407715 -1.5158854722976685 -0.3473280072212219 108
2.4251291751861572 -1.5112724304199219 -0.24665112793445587 108
2.4222605228424072 -1.5100716352462769 -0.14709627628326416 108
2.4248971939086914 -1.512303113937378 -0.04872407019138336 108
2.4173338413238525 -1.5081722736358643 0.7526727914810181 108
2.4131031036376953 -1.506117820739746 0.6473692059516907 108
2.4180641174316406 -1.5098007917404175 0.5461769104003906 108
2.415759563446045 -1.5089478492736816 0.4445655941963196 108
2.414524793624878 -1.5087625980377197 0.3448902368545532 108
2.4230170249938965 -1.5146571397781372 0.24665075540542603 108
2.424361228942871 -1.5160861015319824 0.14784908294677734 108
2.414299488067627 -1.5103800296783447 0.0490412600338459 108
1.591530203819275 -0.997590959072113 -0.4930504858493805 119
1.8319973945617676 -1.1487642526626587 -0.49039360880851746 119
2.2277896404266357 -1.3974897861480713 -0.5032837390899658 119
2.429260015487671 -1.5244628190994263 -0.44818511605262756 119
2.432375431060791 -1.5270094871520996 -0.34793737530708313 108
2.4240574836730957 -1.522377610206604 -0.24708691239356995 108
2.4212024211883545 -1.5211738348007202 -0.14735709130764008 108
2.4238362312316895 -1.5234187841415405 -0.04881046339869499 108
2.4161434173583984 -1.5191720724105835 0.7539660334587097 108
2.41607928276062 -1.519720196723938 0.6496170163154602 108
2.416933298110962 -1.5208461284637451 0.5471300482749939 108
2.4146571159362793 -1.520002007484436 0.4453468918800354 108
2.413443088531494 -1.519826054573059 0.34549957513809204 108
2.4219295978546143 -1.5257608890533447 0.2470865398645401 108
2.423278570175171 -1.5272014141082764 0.1481107473373413 108
2.4132416248321533 -1.5214643478393555 0.049128517508506775 108
1.5880382061004639 -1.0031403303146362 -0.4930504858493805 119
1.8238576650619507 -1.152549386024475 -0.48926883935928345 119
2.22289776802063 -1.4052577018737793 -0.5032837390899658 119
2.428097724914551 -1.53557288646698 -0.4489672780036926 119
2.4312238693237305 -1.5381439924240112 -0.34854671359062195 108
2.4229371547698975 -1.5334936380386353 -0.24752268195152283 108
2.4200966358184814 -1.532287359237671 -0.1476178914308548 108
2.42272686958313 -1.5345451831817627 -0.048896852880716324 108
2.414905548095703 -1.530181646347046 0.7552592754364014 108
2.41487455368042 -1.5307528972625732 0.6507409811019897 108
2.4116098880767822 -1.5292733907699585 0.5471300482749939 108
2.4135069847106934 -1.531067132949829 0.4461282193660736 108
2.412313222885132 -1.5309005975723267 0.34610891342163086 108
2.4207940101623535 -1.5368752479553223 0.24752230942249298 108
2.4221479892730713 -1.5383280515670776 0.14837244153022766 108
2.412135601043701 -1.532559871673584 0.049215782433748245 108
1.584702968597412 -1.0084009170532227 -0.4930504858493805 119
1.820227861404419 -1.158273458480835 -0.48926883935928345 119
2.21433162689209 -1.409598469734192 -0.5023306012153625 119
2.427427291870117 -1.5458461046218872 -0.4497494697570801 119
2.430565357208252 -1.54844069480896 -0.34915608167648315 108
2.4223084449768066 -1.5437750816345215 -0.2479584813117981 108
2.419481039047241 -1.5425670146942139 -0.1478787064552307 108
2.4221091270446777 -1.5448371171951294 -0.048983242362737656 108
2.4141581058502197 -1.5403589010238647 0.7565525770187378 108
2.41416072845459 -1.540953278541565 0.6518648266792297 108
2.410930633544922 -1.539483904838562 0.5480833053588867 108
2.412846803665161 -1.5413004159927368 0.44690951704978943 108
2.4116737842559814 -1.541143774986267 0.34671828150749207 108
2.4201505184173584 -1.547155737876892 0.24795809388160706 108
2.4215095043182373 -1.5486199855804443 0.14863410592079163 108
2.41152024269104 -1.542824625968933 0.049303047358989716 108
1.585416316986084 -1.0162568092346191 -0.4943445920944214 119
1.812072515487671 -1.1619905233383179 -0.48814404010772705 119
2.209397792816162 -1.4173192977905273 -0.5023306012153625 119
2.4261724948883057 -1.5569771528244019 -0.45053160190582275 119
2.429321527481079 -1.5595966577529907 -0.3497653901576996 108
2.4252867698669434 -1.557604193687439 -0.24883003532886505 108
2.4182827472686768 -1.5537022352218628 -0.14813950657844543 108
2.4209072589874268 -1.5559853315353394 -0.04906963184475899 108
2.4128289222717285 -1.5513885021209717 0.7578457593917847 108
2.4128644466400146 -1.552006483078003 0.6529887914657593 108
2.4096696376800537 -1.5505461692810059 0.54903644323349 108
2.407451868057251 -1.549713373184204 0.44690951704978943 108
2.410451650619507 -1.5522395372390747 0.3473276197910309 108
2.4189226627349854 -1.5582916736602783 0.24839386343955994 108
2.4160892963409424 -1.557063102722168 0.14863410592079163 108
2.4103214740753174 -1.5539417266845703 0.04939030855894089 108
1.5816808938980103 -1.0220608711242676 -0.4943445920944214 119
1.8078014850616455 -1.1686241626739502 -0.48814404010772705 119
2.2083096504211426 -1.4280729293823242 -0.5032837390899658 119
2.424596071243286 -1.5685415267944336 -0.4513137936592102 119
2.4319214820861816 -1.5738826990127563 -0.3509840965270996 108
2.4195616245269775 -1.5664829015731812 -0.24883003532886505 108
2.4167628288269043 -1.5652694702148438 -0.14840032160282135 108
2.4151878356933594 -1.5648480653762817 -0.04906963184475899 108
2.411179542541504 -1.562848448753357 0.7591390609741211 108
2.4153356552124023 -1.56614089012146 0.6552366018295288 108
2.4122061729431152 -1.5647097826004028 0.5509428381919861 108
2.414184093475342 -1.5665916204452515 0.4492534399032593 108
2.4089090824127197 -1.5637662410736084 0.3479369580745697 108
2.417372226715088 -1.5698599815368652 0.248829647898674 108
2.4103658199310303 -1.5659080743789673 0.14863410592079163 108
2.408801794052124 -1.5654898881912231 0.04947756975889206 108
1.5781035423278809 -1.0275757312774658 -0.4943445920944214 119
1.803711175918579 -1.1749275922775269 -0.48814404010772705 119
2.2033114433288574 -1.4357726573944092 -0.5032837390899658 119
2.4232430458068848 -1.5796921253204346 -0.45209595561027527 119
2.430570125579834 -1.5850731134414673 -0.3515934646129608 108
2.4265940189361572 -1.583083987236023 -0.2501373589038849 108
2.419647216796875 -1.5791540145874023 -0.14892195165157318 108
2.4138970375061035 -1.5760021209716797 -0.04915602505207062 108
2.41379714012146 -1.576537847518921 0.7617255449295044 108
2.4098541736602783 -1.574562430381775 0.6552366018295288 108
2.4108381271362305 -1.575805902481079 0.5518960356712341 108
2.408701181411743 -1.5750091075897217 0.4492534399032593 108
2.4075889587402344 -1.574881911277771 0.3485462963581085 108
2.420213460922241 -1.5837432146072388 0.24970120191574097 108
2.413240432739258 -1.5797817707061768 0.14915746450424194 108
2.411687135696411 -1.5793663263320923 0.0496520958840847 108
1.5745071172714233 -1.0330780744552612 -0.4943445920944214 119
1.7955260276794434 -1.178543210029602 -0.4870193302631378 119
2.2023890018463135 -1.4461489915847778 -0.5042369961738586 119
2.421841859817505 -1.5908526182174683 -0.4528781473636627 119
2.4250223636627197 -1.5935477018356323 -0.3515934646129608 108
2.462675094604492 -1.618905782699585 -0.25449514389038086 108
2.4182920455932617 -1.5903340578079224 -0.1491827517747879 108
2.445969581604004 -1.6091471910476685 -0.0499335341155529 108
2.4082791805267334 -1.584954023361206 0.7617255449295044 108
2.408412456512451 -1.5856441259384155 0.6563604474067688 108
2.405322790145874 -1.5842117071151733 0.5518960356712341 108
2.4361798763275146 -1.6051446199417114 0.4555039405822754 0
2.4103641510009766 -1.5887385606765747 0.34976500272750854 108
2.4313039779663086 -1.6031494140625 0.2514443099498749 108
2.4327194690704346 -1.6046922206878662 0.1507275402545929 108
2.4520583152770996 -1.618062973022461 0.05061197280883789 0
1.5749200582504272 -1.0412312746047974 -0.4956386983394623 119
1.7914012670516968 -1.1848036050796509 -0.4870193302631378 119
2.1932342052459717 -1.4511195421218872 -0.5032837390899658 119
2.416274070739746 -1.5992968082427979 -0.4528781473636627 119
2.440134048461914 -1.6157019138336182 -0.3546401858329773 108
2.49853515625 -1.6549988985061646 -0.2588529586791992 0
2.4543490409851074 -1.6263469457626343 -0.1517908275127411 0
2.47367262840271 -1.639772891998291 -0.050624653697013855 0
2.4148077964782715 -1.6013586521148682 0.7656053304672241 0
2.4353420734405518 -1.615587830543518 0.6653517484664917 0
2.436584949493408 -1.6170247793197632 0.560474693775177 0
2.46347713470459 -1.6354910135269165 0.4617544114589691 0
2.4461441040039062 -1.624598741531372 0.3558584451675415 0
2.463031768798828 -1.6364343166351318 0.25536632537841797 0
2.4603705406188965 -1.6352852582931519 0.15282097458839417 0
2.488025426864624 -1.654292345046997 0.051484595984220505 0
1.5712759494781494 -1.0467225313186646 -0.4956386983394623 119
1.7872546911239624 -1.1910494565963745 -0.4870193302631378 119
2.1840715408325195 -1.4560438394546509 -0.5023306012153625 119
2.447653293609619 -1.6323819160461426 -0.45991769433021545 0
2.4633774757385254 -1.6434898376464844 -0.3589056134223938 0
2.5010287761688232 -1.6692403554916382 -0.25972452759742737 0
2.4860310554504395 -1.6598578691482544 -0.15413811802864075 0
2.4970343112945557 -1.6678346395492554 -0.051229387521743774 109
2.4533777236938477 -1.6392946243286133 0.779831051826477 109
2.458041191101074 -1.6430312395095825 0.6732190251350403 109
2.467647075653076 -1.650075078010559 0.5690534114837646 109
2.4905917644500732 -1.6660470962524414 0.46800488233566284 109
2.469329357147217 -1.6524478197097778 0.3601239025592804 109
2.49041748046875 -1.6671892404556274 0.2588525712490082 109
2.4961349964141846 -1.6716477870941162 0.15543778240680695 109
2.49054217338562 -1.668531894683838 0.05165912210941315 109
1.567612648010254 -1.0522009134292603 -0.4956386983394623 119
1.7830861806869507 -1.197281002998352 -0.4870193302631378 119
2.174901008605957 -1.4609218835830688 -0.5013774037361145 119
2.4665346145629883 -1.657442331314087 -0.464610755443573 0
2.482337474822998 -1.6686904430389404 -0.3625617027282715 109
2.507586717605591 -1.6862990856170654 -0.261031836271286 109
2.496793746948242 -1.6796740293502808 -0.15518134832382202 109
2.4994921684265137 -1.682123064994812 -0.05140216648578644 109
2.4877054691314697 -1.6748218536376953 0.7927635908126831 109
2.4886603355407715 -1.676095724105835 0.683334231376648 109
2.4903664588928223 -1.6778768301010132 0.5757257342338562 109
2.4929516315460205 -1.6802512407302856 0.46956750750541687 109
2.4841201305389404 -1.6749292612075806 0.3631706237792969 109
2.5052297115325928 -1.6897987127304077 0.26103144884109497 109
2.5027015209198 -1.688728928565979 0.15622282028198242 109
2.497133731842041 -1.6856064796447754 0.05192090570926666 109
1.5599294900894165 -1.0549609661102295 -0.4943445920944214 119
1.7788960933685303 -1.2034976482391357 -0.4870193302631378 119
2.1657235622406006 -1.4657537937164307 -0.5004242062568665 119
2.485269784927368 -1.6826540231704712 -0.46930378675460815 0
2.5011510848999023 -1.6940433979034424 -0.36621779203414917 109
2.5058088302612305 -1.697835922241211 -0.2614676356315613 109
2.503314971923828 -1.6967839002609253 -0.15596379339694977 109
2.501880645751953 -1.6964490413665771 -0.0515749454498291 109
2.49383544921875 -1.69162917137146 0.7966433763504028 109
2.4908573627471924 -1.6902438402175903 0.6855820417404175 109
2.4926164150238037 -1.692073106765747 0.5776321291923523 109
2.491156816482544 -1.691717505455017 0.4703488349914551 109
2.4905734062194824 -1.6919565200805664 0.3649986684322357 109
2.4993159770965576 -1.698533296585083 0.26103144884109497 109
2.496791362762451 -1.697454810142517 0.15622282028198242 109
2.495368480682373 -1.6971242427825928 0.05200817063450813 109
1.5562375783920288 -1.0603996515274048 -0.4943445920944214 119
1.774684190750122 -1.2096999883651733 -0.4870193302631378 119
2.156538724899292 -1.4705394506454468 -0.4994710087776184 119
2.499779224395752 -1.7052336931228638 -0.47321462631225586 0
2.5075204372406006 -1.7111557722091675 -0.368045836687088 109
2.5039806365966797 -1.7093807458877563 -0.26190340518951416 109
2.501500129699707 -1.7083277702331543 -0.1562245935201645 109
2.5000717639923096 -1.7079920768737793 -0.05166133865714073 109
2.4958903789520264 -1.7057743072509766 0.7992298603057861 109
2.492985725402832 -1.70442795753479 0.6878297924995422 109
2.490746021270752 -1.703534483909607 0.5785852670669556 109
2.4933881759643555 -1.7059805393218994 0.4719114601612091 109
2.49284291267395 -1.706246018409729 0.36621734499931335 109
2.501591682434082 -1.7128753662109375 0.26190298795700073 109
2.4990899562835693 -1.7118031978607178 0.15674617886543274 109
2.4935529232025146 -1.7086501121520996 0.052095428109169006 109
1.5485448837280273 -1.0630919933319092 -0.4930504858493805 119
1.7704507112503052 -1.215887427330017 -0.4870193302631378 119
2.1473469734191895 -1.4752788543701172 -0.49851784110069275 119
2.5100910663604736 -1.7251378297805786 -0.4763433039188385 0
2.5097110271453857 -1.7255216836929321 -0.36926451325416565 109
2.5021023750305176 -1.7209335565567017 -0.26233920454978943 109
2.4996354579925537 -1.7198795080184937 -0.1564854085445404 109
2.5023305416107178 -1.7223774194717407 -0.051834121346473694 109
2.49389910697937 -1.7172155380249023 0.8005231618881226 109
2.4910333156585693 -1.7158833742141724 0.688953697681427 109
2.4928677082061768 -1.717788577079773 0.5804916620254517 109
2.4914839267730713 -1.7174763679504395 0.47269272804260254 109
2.490957260131836 -1.71775484085083 0.36682671308517456 109
2.5037972927093506 -1.7272539138793945 0.2627745568752289 109
2.497209072113037 -1.723352313041687 0.1570078730583191 109
2.491687536239624 -1.720184087753296 0.05218269303441048 109
1.5448246002197266 -1.068490982055664 -0.4930504858493805 119
1.7661956548690796 -1.222059965133667 -0.4870193302631378 119
2.138148307800293 -1.479972004890442 -0.4975646436214447 119
2.5243544578552246 -1.7479459047317505 -0.480254203081131 0
2.5077521800994873 -1.7370975017547607 -0.36987385153770447 109
2.500174045562744 -1.7324941158294678 -0.2627749741077423 109
2.497720241546631 -1.7314388751983643 -0.15674620866775513 109
2.500411033630371 -1.7339506149291992 -0.05192050710320473 109
2.4918577671051025 -1.7286633253097534 0.8018164038658142 109
2.4930341243743896 -1.73012375831604 0.6912015676498413 109
2.4908883571624756 -1.7292789220809937 0.5814448595046997 109
2.493586301803589 -1.7317969799041748 0.47425535321235657 109
2.4890217781066895 -1.7292708158493042 0.3674360513687134 109
2.501842975616455 -1.7388261556625366 0.26321035623550415 109
2.499377489089966 -1.7377595901489258 0.1575312316417694 109
2.489772081375122 -1.7317256927490234 0.05226995423436165 109
1.5410853624343872 -1.073876976966858 -0.4930504858493805 119
1.7619191408157349 -1.2282177209854126 -0.4870193302631378 119
2.1289432048797607 -1.4846190214157104 -0.49661147594451904 119
2.530388832092285 -1.7652236223220825 -0.48260071873664856 0
2.5057430267333984 -1.748680591583252 -0.3704832196235657 109
2.4981956481933594 -1.744062066078186 -0.2632107436656952 109
2.4998483657836914 -1.745864987373352 -0.15726782381534576 109
2.50253963470459 -1.74839448928833 -0.05209328606724739 109
2.4937262535095215 -1.7428847551345825 0.8044028878211975 109
2.4909722805023193 -1.7416071891784668 0.6923254132270813 109
2.4928812980651855 -1.7435895204544067 0.5833512544631958 109
2.491572618484497 -1.7433221340179443 0.4750366806983948 109
2.4911015033721924 -1.7436401844024658 0.368654727935791 109
2.503918409347534 -1.7532626390457153 0.2640818953514099 109
2.4973857402801514 -1.7493380308151245 0.15779289603233337 109
2.4919002056121826 -1.7461438179016113 0.05244447663426399 109
1.537327527999878 -1.0792497396469116 -0.4930504858493805 119
1.757621169090271 -1.2343604564666748 -0.4870193302631378 119
2.1237480640411377 -1.4920413494110107 -0.49661147594451904 119
2.528251886367798 -1.7768850326538086 -0.4833828806877136 0
2.5077433586120605 -1.7631254196166992 -0.3717019259929657 109
2.5002408027648926 -1.7585028409957886 -0.26408231258392334 109
2.4978229999542236 -1.7574539184570312 -0.15752863883972168 109
2.500509262084961 -1.759996771812439 -0.05217967927455902 109
2.4915764331817627 -1.754359483718872 0.8056961894035339 109
2.4928441047668457 -1.7559030055999756 0.6945732235908508 109
2.4907917976379395 -1.7551079988479614 0.5843043923377991 109
2.4935450553894043 -1.7576992511749268 0.4765993058681488 109
2.489055871963501 -1.7551851272583008 0.3692640960216522 109
2.5018532276153564 -1.7648632526397705 0.2645176649093628 109
2.4994235038757324 -1.7638027667999268 0.1583162546157837 109
2.4898738861083984 -1.7577146291732788 0.05253174155950546 109
1.5376837253570557 -1.087129831314087 -0.4943445920944214 119
1.7537347078323364 -1.2398760318756104 -0.4870193302631378 119
2.1150424480438232 -1.4958715438842773 -0.4956582486629486 119
2.5186257362365723 -1.7819669246673584 -0.48260071873664856 0
2.518394708633423 -1.7824629545211792 -0.37413930892944336 109
2.4987690448760986 -1.7692270278930664 -0.2645180821418762 109
2.5004384517669678 -1.7710645198822021 -0.15805025398731232 109
2.499047040939331 -1.7707337141036987 -0.05226606875658035 109
2.4939334392547607 -1.7677644491195679 0.8082826733589172 109
2.4912898540496826 -1.766543984413147 0.6956971883773804 109
2.489269256591797 -1.7657641172409058 0.5852575898170471 109
2.496066093444824 -1.771240234375 0.47816193103790283 109
2.4916229248046875 -1.7687413692474365 0.37048280239105225 109
2.5003576278686523 -1.775598406791687 0.26495346426963806 109
2.4979407787323 -1.7745379209518433 0.15857794880867004 109
2.4884145259857178 -1.768424153327942 0.052619002759456635 109
1.5340702533721924 -1.092223048210144 -0.4943445920944214 119
1.7493959665298462 -1.24599027633667 -0.4870193302631378 119
2.1058108806610107 -1.5003973245620728 -0.49470508098602295 119
2.51239013671875 -1.7907475233078003 -0.48260071873664856 0
2.5242795944213867 -1.7998865842819214 -0.3759673535823822 109
2.4966330528259277 -1.7808310985565186 -0.2649538815021515 109
2.498305559158325 -1.7826818227767944 -0.15831105411052704 109
2.500988483428955 -1.7852553129196167 -0.052438847720623016 109
2.49167799949646 -1.7792657613754272 0.8095758557319641 109
2.493037223815918 -1.7808934450149536 0.6979449987411499 109
2.487083911895752 -1.7772961854934692 0.5862108469009399 109
2.4938852787017822 -1.7828145027160645 0.47894322872161865 109
2.4894704818725586 -1.7803149223327637 0.3710921108722687 109
2.4981954097747803 -1.7872134447097778 0.26538923382759094 109
2.4957916736602783 -1.7861524820327759 0.158839613199234 109
2.490356206893921 -1.782920002937317 0.05279352515935898 109
1.5300567150115967 -1.0978384017944336 -0.4943445920944214 119
1.7448173761367798 -1.2523937225341797 -0.4870193302631378 119
2.100297451019287 -1.5081053972244263 -0.49470508098602295 119
2.505809783935547 -1.7999440431594849 -0.48260071873664856 0
2.5337865352630615 -1.820710301399231 -0.37840473651885986 109
2.498178243637085 -1.7957844734191895 -0.26582542061805725 109
2.4998626708984375 -1.7976570129394531 -0.15883268415927887 109
2.4984869956970215 -1.797329306602478 -0.05252524092793465 109
2.489060401916504 -1.7912075519561768 0.8108691573143005 109
2.4904470443725586 -1.79286527633667 0.6990688443183899 109
2.4885189533233643 -1.792136788368225 0.5881171822547913 109
2.4953486919403076 -1.7977166175842285 0.48050588369369507 109
2.490980625152588 -1.7952303886413574 0.3723108172416687 109
2.499709129333496 -1.802183747291565 0.2662607729434967 109
2.4973278045654297 -1.8011295795440674 0.15936297178268433 109
2.4878592491149902 -1.7949607372283936 0.05288079008460045 109
1.5262151956558228 -1.1031725406646729 -0.4943445920944214 119
1.7443830966949463 -1.2613312005996704 -0.48814404010772705 119
2.091043472290039 -1.512550950050354 -0.4937518835067749 119
2.503512382507324 -1.8115746974945068 -0.4833828806877136 0
2.539475679397583 -1.8382736444473267 -0.3802327811717987 109
2.4959287643432617 -1.8074150085449219 -0.26626119017601013 109
2.4976162910461426 -1.809301733970642 -0.15909349918365479 109
2.5002939701080322 -1.8119069337844849 -0.05269801989197731 109
2.4906134605407715 -1.8055546283721924 0.8134556412696838 109
2.4881176948547363 -1.8044078350067139 0.7001928091049194 109
2.4862210750579834 -1.803694725036621 0.5890703797340393 109
2.4930551052093506 -1.809316873550415 0.4812871515750885 109
2.4887149333953857 -1.8068301677703857 0.3729201853275299 109
2.4974331855773926 -1.8138254880905151 0.266696572303772 109
2.4950649738311768 -1.8127708435058594 0.15962466597557068 109
2.489666223526001 -1.8095123767852783 0.05305531248450279 109
1.5223551988601685 -1.1084933280944824 -0.4943445920944214 119
1.7399696111679077 -1.267412543296814 -0.48814404010772705 119
2.0857510566711426 -1.5198408365249634 -0.4937518835067749 119
2.497173547744751 -1.8203026056289673 -0.4833828806877136 0
2.537053346633911 -1.850050926208496 -0.3808421194553375 109
2.497652530670166 -1.821987271308899 -0.2671327590942383 109
2.49531888961792 -1.820952296257019 -0.1593542993068695 109
2.4979918003082275 -1.8235710859298706 -0.05278440937399864 109
2.48819637298584 -1.8170859813690186 0.8147488832473755 109
2.4857380390167236 -1.8159561157226562 0.7013166546821594 109
2.48783540725708 -1.8181543350219727 0.5909767150878906 109
2.490710973739624 -1.8209229707717896 0.4820684790611267 109
2.486398696899414 -1.8184360265731812 0.37352949380874634 109
2.4951064586639404 -1.8254731893539429 0.26713234186172485 109
2.492751359939575 -1.824418067932129 0.15988633036613464 109
2.48736834526062 -1.821144938468933 0.053142573684453964 109
1.5184764862060547 -1.1138006448745728 -0.4943445920944214 119
1.735534906387329 -1.2734785079956055 -0.48814404010772705 119
2.080432891845703 -1.5271121263504028 -0.4937518835067749 119
2.4908041954040527 -1.8290083408355713 -0.4833828806877136 119
2.534579277038574 -1.8618335723876953 -0.38145145773887634 109
2.495291233062744 -1.8336442708969116 -0.26756852865219116 109
2.4969935417175293 -1.8355662822723389 -0.15987591445446014 109
2.4996659755706787 -1.838202953338623 -0.052957188338041306 109
2.489619255065918 -1.8314844369888306 0.8173353672027588 109
2.487231731414795 -1.830397367477417 0.703564465045929 109
2.485426425933838 -1.8297375440597534 0.5919299721717834 109
2.492292642593384 -1.8354631662368774 0.48363110423088074 109
2.4840314388275146 -1.8300477266311646 0.37413886189460754 109
2.4967386722564697 -1.8400819301605225 0.268003910779953 109
2.494405508041382 -1.8390344381332397 0.16040968894958496 109
2.4850194454193115 -1.8327839374542236 0.053229838609695435 109
1.51457941532135 -1.1190942525863647 -0.4943445920944214 119
