# .PCD v0.7 - Point Cloud Data file format
VERSION 0.7
FIELDS x y z intensity
SIZE 4 4 4 4
TYPE F F F F
COUNT 1 1 1 1
WIDTH 766
HEIGHT 1
VIEWPOINT 0 0 0 1 0 0 0
POINTS 766
DATA ascii
-1.4074898958206177 -7.579371452331543 0.6710991859436035 111
-1.4085890054702759 -7.577921390533447 0.40194013714790344 111
-1.4088795185089111 -7.572129249572754 0.13377268612384796 111
-0.35496407747268677 -1.898566722869873 -0.5072855353355408 119
-0.4085262715816498 -2.182941198348999 -0.5038906931877136 119
-1.4177662134170532 -7.568462371826172 -1.487928032875061 111
-1.418656349182129 -7.56591796875 -1.2131502628326416 111
-1.421433448791504 -7.573431491851807 -0.9414417147636414 111
-1.4114052057266235 -7.5127668380737305 -0.6654351353645325 111
-1.4226242303848267 -7.565208911895752 -0.40008100867271423 111
-1.4265892505645752 -7.579010486602783 -0.13260895013809204 111
-0.9281673431396484 -4.92632532119751 1.33204984664917 114
-0.9722940921783447 -5.155586242675781 1.2014544010162354 114
-1.0177123546600342 -5.391249179840088 1.0580389499664307 114
-1.0689053535461426 -5.657022953033447 0.9047573804855347 114
-1.0723235607147217 -5.669689178466797 0.7037954330444336 114
-1.4330116510391235 -7.569518089294434 0.6706634163856506 111
-1.4350322484970093 -7.572958469390869 0.40194013714790344 111
-1.4306443929672241 -7.542606830596924 0.1333363801240921 111
-0.3619202971458435 -1.8972530364990234 -0.5072855353355408 119
-0.41652441024780273 -2.181429386138916 -0.5038906931877136 119
-1.4224612712860107 -7.442688941955566 -1.4640982151031494 111
-1.424107551574707 -7.444255828857422 -1.194378137588501 111
-1.4286487102508545 -7.460938453674316 -0.928036093711853 111
-1.426742434501648 -7.443948745727539 -0.6597699522972107 111
-1.4465794563293457 -7.540328502655029 -0.39903774857521057 111
-1.433617353439331 -7.465720176696777 -0.13070836663246155 111
-0.9462170004844666 -4.9228901863098145 1.33204984664917 114
-0.9911836981773376 -5.151987552642822 1.2014544010162354 114
-1.0383936166763306 -5.392302989959717 1.0589921474456787 114
-1.089632272720337 -5.653067588806152 0.9047573804855347 114
-1.0940369367599487 -5.670593738555908 0.7044047713279724 114
-1.4513014554977417 -7.515308856964111 0.666305661201477 111
-1.4523552656173706 -7.513721942901611 0.3990616500377655 111
-1.4487836360931396 -7.488229751586914 0.1324637532234192 111
-0.3685407042503357 -1.8959779739379883 -0.5072855353355408 119
-0.4241364896297455 -2.179961919784546 -0.5038906931877136 119
-1.4493707418441772 -7.442496299743652 -1.4650514125823975 111
-1.4500840902328491 -7.439239501953125 -1.194378137588501 111
-1.4603855609893799 -7.485131740570068 -0.9316921830177307 111
-1.454627275466919 -7.448700428009033 -0.6606415510177612 111
-1.4633126258850098 -7.486228942871094 -0.3964296877384186 111
-1.4577488899230957 -7.450858116149902 -0.13053558766841888 111
-0.9643235206604004 -4.924297332763672 1.3333430290222168 114
-1.0100986957550049 -5.15327787399292 1.2025783061981201 114
-1.0572099685668945 -5.388645172119141 1.0589921474456787 114
-1.1103100776672363 -5.654075622558594 0.9055386781692505 114
-1.1147814989089966 -5.671609878540039 0.7050141096115112 114
-1.472718358039856 -7.485760688781738 0.6641267538070679 111
-1.4718210697174072 -7.4743123054504395 0.3972298800945282 111
-1.4662128686904907 -7.438982963562012 0.13167838752269745 111
-0.3751566708087921 -1.8946800231933594 -0.5072855353355408 119
-0.43269044160842896 -2.1832468509674072 -0.5050153732299805 119
-1.4772511720657349 -7.447021007537842 -1.4669578075408936 111
-1.4779666662216187 -7.443820476531982 -1.1959425210952759 111
-1.4826353788375854 -7.4605183601379395 -0.9292548298835754 111
-1.480619192123413 -7.443577289581299 -0.6606415510177612 111
-1.4806606769561768 -7.437001705169678 -0.3940823972225189 111
-1.4847254753112793 -7.450627326965332 -0.1306219846010208 111
-0.9815066456794739 -4.920901298522949 1.3333430290222168 114
-1.0280808210372925 -5.149720668792725 1.2025783061981201 114
-1.0769751071929932 -5.389734745025635 1.0599453449249268 114
-1.1300398111343384 -5.650165557861328 0.9055386781692505 114
-1.1345722675323486 -5.667684078216553 0.7050141096115112 114
-1.491011142730713 -7.441503524780273 0.6606405377388 111
-1.4920116662979126 -7.439755439758301 0.39565980434417725 111
-1.493154764175415 -7.438721179962158 0.13176566362380981 111
-0.38176804780960083 -1.8933589458465576 -0.5072855353355408 119
-0.44030874967575073 -2.181723117828369 -0.5050153732299805 119
-1.5042088031768799 -7.446630001068115 -1.4679110050201416 110
-1.5049200057983398 -7.443456649780273 -1.1967246532440186 111
-1.5086684226989746 -7.455297470092773 -0.9292548298835754 111
-1.5075819492340088 -7.4432454109191895 -0.6610773205757141 111
-1.5076037645339966 -7.436681747436523 -0.39434322714805603 111
-1.5117180347442627 -7.45029878616333 -0.13070836663246155 111
-0.999639093875885 -4.922178268432617 1.3346363306045532 114
-1.0460504293441772 -5.1461005210876465 1.2025783061981201 114
-1.0957821607589722 -5.3859429359436035 1.0599453449249268 114
-1.1507409811019897 -5.651025295257568 0.9063199758529663 114
-1.155340313911438 -5.668551445007324 0.70562344789505 114
-1.518968939781189 -7.446013927459717 0.6615120768547058 111
-1.5199698209762573 -7.444285869598389 0.39618316292762756 111
-1.5191117525100708 -7.433464050292969 0.13176566362380981 111
-0.3893459141254425 -1.8967458009719849 -0.5085796117782593 119
-0.4479217231273651 -2.180172920227051 -0.5050153732299805 119
-1.5272274017333984 -7.426910877227783 -1.4650514125823975 110
-1.529897928237915 -7.433320999145508 -1.1959425210952759 110
-1.5326805114746094 -7.4402642250061035 -0.928036093711853 111
-1.5224905014038086 -7.384275436401367 -0.6562837362289429 110
-1.5335534811019897 -7.4313740730285645 -0.39434322714805603 111
-1.535692811012268 -7.435184478759766 -0.13053558766841888 111
-1.0168145895004272 -4.91865873336792 1.3346363306045532 114
-1.06400728225708 -5.1424174308776855 1.2025783061981201 114
-1.11557137966156 -5.3868913650512695 1.0608986616134644 114
-1.1704597473144531 -5.646974086761475 0.9063199758529663 114
-1.175120234489441 -5.664484024047852 0.70562344789505 114
-1.5459637641906738 -7.44554328918457 0.6619478464126587 111
-1.5459458827972412 -7.438935279846191 0.39618316292762756 111
-1.5267250537872314 -7.340015411376953 0.13019494712352753 110
-0.3959644138813019 -1.8953752517700195 -0.5085796117782593 119
-0.45552918314933777 -2.178596258163452 -0.5050153732299805 119
-1.5189591646194458 -7.258191108703613 -1.4326430559158325 110
-1.5244505405426025 -7.278095245361328 -1.1716951131820679 110
-1.5301316976547241 -7.2988691329956055 -0.910974383354187 110
-1.5104119777679443 -7.19854736328125 -0.6401599049568176 110
-1.5430653095245361 -7.347790241241455 -0.39017027616500854 110
-1.5287312269210815 -7.273223400115967 -0.12777110934257507 110
-1.034972071647644 -4.919806003570557 1.3359296321868896 114
-1.0829551219940186 -5.143439769744873 1.2037022113800049 114
-1.1343683004379272 -5.382964611053467 1.0608986616134644 114
-1.1911834478378296 -5.64768648147583 0.9071012735366821 114
-1.195910930633545 -5.66520357131958 0.7062328457832336 114
-1.540024995803833 -7.289026737213135 0.6484387516975403 110
-1.5429787635803223 -7.29671049118042 0.3888561427593231 110
-1.5202481746673584 -7.183023452758789 0.1274898201227188 110
-0.40358224511146545 -1.8987056016921997 -0.5098737478256226 119
-0.46211743354797363 -2.1722278594970703 -0.5038906931877136 119
-1.5146427154541016 -7.113624572753906 -1.4050005674362183 110
-1.5210264921188354 -7.137490272521973 -1.1497942209243774 110
-1.5255792140960693 -7.1527299880981445 -0.8933032751083374 110
-1.5084941387176514 -7.066579341888428 -0.6288296580314636 110
-1.5353200435638428 -7.186102867126465 -0.3818243741989136 110
-1.5175220966339111 -7.096736907958984 -0.12474744021892548 110
-1.0521390438079834 -4.916162967681885 1.3359296321868896 114
-1.1009024381637573 -5.1396284103393555 1.2037022113800049 114
-1.1541802883148193 -5.3837714195251465 1.0618517398834229 114
-1.210890293121338 -5.643494129180908 0.9071012735366821 114
-1.2156788110733032 -5.660994529724121 0.7062328457832336 0
-1.5351060628890991 -7.142383098602295 0.6358011364936829 110
-1.5358877182006836 -7.139954090118408 0.3807440400123596 110
-1.5095374584197998 -7.011506080627441 0.12452290952205658 110
-0.41020748019218445 -1.8972852230072021 -0.5098737478256226 119
-0.46969711780548096 -2.1706016063690186 -0.5038906931877136 119
-1.508297085762024 -6.964381217956543 -1.376404881477356 110
-1.5124552249908447 -6.977693557739258 -1.1247648000717163 110
-1.5147651433944702 -6.982463836669922 -0.8725854754447937 110
-1.4982757568359375 -6.900640964508057 -0.6144489049911499 110
-1.523284673690796 -7.009923934936523 -0.37269607186317444 110
-1.5104119777679443 -6.944844722747803 -0.12215573340654373 110
-1.0692932605743408 -4.9124603271484375 1.3359296321868896 114
-1.119873285293579 -5.140513896942139 1.2048259973526 114
-1.1729661226272583 -5.379709720611572 1.0618517398834229 114
-1.231635332107544 -5.644057750701904 0.9078826308250427 114
-1.2364908456802368 -5.661564826965332 0.7068421244621277 0
-1.5259915590286255 -6.981266498565674 0.6218562126159668 110
-1.5287885665893555 -6.988215923309326 0.37289369106292725 110
-1.5051332712173462 -6.874338626861572 0.12216684222221375 110
-0.4168277680873871 -1.8958418369293213 -0.5098737478256226 119
-0.47727108001708984 -2.1689486503601074 -0.5038906931877136 119
-1.4998728036880493 -6.8104777336120605 -1.3468559980392456 110
-1.4995982646942139 -6.803577423095703 -1.0973886251449585 110
-1.5017122030258179 -6.807515621185303 -0.8512582778930664 110
-1.4901392459869385 -6.749454021453857 -0.6013755202293396 110
-1.517579436302185 -6.86804723739624 -0.36539340019226074 110
-1.5022605657577515 -6.7930908203125 -0.11956403404474258 110
-1.0874781608581543 -4.913414001464844 1.3372228145599365 114
-1.137810230255127 -5.136573791503906 1.2048259973526 114
-1.1927999258041382 -5.380373954772949 1.062804937362671 114
-1.2513293027877808 -5.639724254608154 0.9078826308250427 114
-1.2573217153549194 -5.662059307098389 0.7074515223503113 0
-1.517932653427124 -6.830027103424072 0.6087828278541565 110
-1.5195648670196533 -6.831740856170654 0.36478158831596375 110
-1.4954450130462646 -6.717769145965576 0.11946171522140503 110
-0.42344292998313904 -1.894375205039978 -0.5098737478256226 119
-0.48483920097351074 -2.167269468307495 -0.5038906931877136 119
-1.4914650917053223 -6.661509037017822 -1.3182603120803833 110
-1.493103265762329 -6.663371562957764 -1.0754878520965576 110
-1.493972659111023 -6.661801338195801 -0.8335872292518616 110
-1.4798752069473267 -6.5935492515563965 -0.5878663659095764 110
-1.508714199066162 -6.716554641723633 -0.35756915807724 110
-1.4930682182312012 -6.641479969024658 -0.11697232723236084 110
-1.1046226024627686 -4.909587860107422 1.3372228145599365 114
-1.1568036079406738 -5.13732385635376 1.2059500217437744 114
-1.2115737199783325 -5.376177787780762 1.062804937362671 114
-1.2710078954696655 -5.635321617126465 0.9078826308250427 114
-1.27707839012146 -5.657635688781738 0.7074515223503113 0
-1.509934425354004 -6.683788776397705 0.5961452722549438 110
-1.509268045425415 -6.675418853759766 0.356669545173645 110
-1.489095687866211 -6.580857276916504 0.1171056404709816 110
-0.4300529658794403 -1.8928855657577515 -0.5098737478256226 119
-0.49240145087242126 -2.1655640602111816 -0.5038906931877136 119
-1.4798579216003418 -6.503111839294434 -1.287758231163025 110
-1.4845516681671143 -6.518479824066162 -1.0528048276901245 110
-1.488543152809143 -6.5307416915893555 -0.817744255065918 110
-1.474080204963684 -6.4620819091796875 -0.5765361189842224 110
-1.4999215602874756 -6.570076942443848 -0.3500056862831116 110
-1.48617684841156 -6.504638671875 -0.11463978886604309 110
-1.1228300333023071 -4.910410404205322 1.3385159969329834 114
-1.1758160591125488 -5.138004302978516 1.2070739269256592 114
-1.2314285039901733 -5.376700401306152 1.063758134841919 114
-1.2917746305465698 -5.635664939880371 0.9086639285087585 114
-1.297929048538208 -5.657980442047119 0.7080608606338501 0
-1.5009342432022095 -6.537692070007324 0.5835076570510864 110
-1.5012531280517578 -6.533851623535156 0.3493424952030182 110
-1.4818090200424194 -6.444072246551514 0.11474956572055817 110
-0.43665775656700134 -1.8913729190826416 -0.5098737478256226 119
-0.4999576508998871 -2.163831949234009 -0.5038906931877136 119
-1.4715865850448608 -6.364006996154785 -1.2610689401626587 110
-1.4772337675094604 -6.383352756500244 -1.0316860675811768 110
-1.4810974597930908 -6.394967079162598 -0.801291823387146 110
-1.4628866910934448 -6.311326503753662 -0.5634627342224121 110
-1.4935100078582764 -6.43833589553833 -0.3432246446609497 110
-1.479479193687439 -6.372797966003418 -0.11239363998174667 110
-1.1399636268615723 -4.906460762023926 1.3385159969329834 114
-1.1937439441680908 -5.13386869430542 1.2070739269256592 114
-1.250189185142517 -5.372368812561035 1.063758134841919 114
-1.3114389181137085 -5.631121635437012 0.9086639285087585 114
-1.3187977075576782 -5.6582489013671875 0.7086701989173889 0
-1.4931960105895996 -6.401443004608154 0.5717417001724243 110
-1.4956737756729126 -6.407011032104492 0.342800498008728 110
-1.473586082458496 -6.3074212074279785 0.11239349097013474 110
-0.443257212638855 -1.8898371458053589 -0.5098737478256226 119
-0.5075078010559082 -2.1620736122131348 -0.5038906931877136 119
-1.46573007106781 -6.239376068115234 -1.2372392416000366 110
-1.470121145248413 -6.2531657218933105 -1.0113495588302612 110
-1.4738590717315674 -6.264157295227051 -0.7854487895965576 110
-1.457509160041809 -6.189821243286133 -0.5530040264129639 110
-1.483906865119934 -6.297001838684082 -0.3359220027923584 110
-1.469584584236145 -6.231353282928467 -0.10997471958398819 110
-1.1581929922103882 -4.9071526527404785 1.3398092985153198 114
-1.2127771377563477 -5.134411811828613 1.208197832107544 114
-1.270063877105713 -5.372749328613281 1.064711332321167 114
-1.3322240114212036 -5.631314754486084 0.9094452261924744 114
-1.3396838903427124 -5.658439636230469 0.7092795372009277 0
-1.4856733083724976 -6.270175457000732 0.5604113936424255 110
-1.4869236946105957 -6.27057409286499 0.33573514223098755 110
-1.4678905010223389 -6.18549919128418 0.11029919981956482 110
-0.44985127449035645 -1.8882783651351929 -0.5098737478256226 119
-0.5150517821311951 -2.1602888107299805 -0.5038906931877136 119
-1.4613001346588135 -6.12441349029541 -1.2153159379959106 110
-1.4644120931625366 -6.13271427154541 -0.9925774931907654 110
-1.4680325984954834 -6.143130302429199 -0.7708244323730469 110
-1.4524599313735962 -6.073275089263916 -0.5429811477661133 110
-1.4768222570419312 -6.170382499694824 -0.32940179109573364 110
-1.4657078981399536 -6.119227409362793 -0.1080741360783577 110
-1.175315022468567 -4.903079509735107 1.3398092985153198 114
-1.2306921482086182 -5.1301469802856445 1.208197832107544 114
-1.2899562120437622 -5.3730549812316895 1.065664529800415 114
-1.3530265092849731 -5.63143253326416 0.9102265238761902 114
-1.3594273328781128 -5.653728485107422 0.7092795372009277 0
-1.479583740234375 -6.148725509643555 0.5499527454376221 110
-1.4807466268539429 -6.148840427398682 0.32945483922958374 110
-1.4601905345916748 -6.058835029602051 0.10811764746904373 110
-0.45611056685447693 -1.8867762088775635 -0.5098737478256226 119
-0.52183598279953 -2.1586601734161377 -0.5038906931877136 119
-1.4551420211791992 -6.014837741851807 -1.1943458318710327 110
-1.4581058025360107 -6.022488594055176 -0.9753696322441101 110
-1.4604462385177612 -6.027555465698242 -0.7568094730377197 110
-1.446883201599121 -5.96702766418457 -0.5338297486305237 110
-1.4691171646118164 -6.054107666015625 -0.32340314984321594 110
-1.4542508125305176 -5.988283634185791 -0.10582799464464188 110
-1.1918535232543945 -4.904057025909424 1.3411026000976562 114
-1.2479543685913086 -5.1309895515441895 1.2093217372894287 114
-1.3068296909332275 -5.36897611618042 1.065664529800415 114
-1.373049259185791 -5.6367506980896 0.9117891788482666 114
-1.3783577680587769 -5.654251575469971 0.7098888754844666 0
-1.4705604314804077 -6.027909755706787 0.5394940376281738 110
-1.474002718925476 -6.037444114685059 0.32369789481163025 110
-1.4543001651763916 -5.952233791351318 0.10628514736890793 110
-0.4623648524284363 -1.8852534294128418 -0.5098737478256226 119
-0.5305291414260864 -2.1615564823150635 -0.5050153732299805 119
-1.4503713846206665 -5.904855251312256 -1.1733756065368652 110
-1.455542802810669 -5.921448230743408 -0.9597262144088745 110
-1.4565826654434204 -5.921220302581787 -0.7440131902694702 110
-1.4426993131637573 -5.860372543334961 -0.5246784090995789 110
-1.4651579856872559 -5.947129726409912 -0.31792616844177246 110
-1.4524071216583252 -5.890946388244629 -0.10418657213449478 110
-1.2089645862579346 -4.899866580963135 1.3411026000976562 114
-1.265857219696045 -5.1266021728515625 1.2093217372894287 114
-1.3267405033111572 -5.369146823883057 1.066617727279663 114
-1.3927167654037476 -5.631923198699951 0.9117891788482666 114
-1.3992785215377808 -5.654223442077637 0.7104982733726501 110
-1.4628547430038452 -5.906702041625977 0.5290353298187256 110
-1.4674410820007324 -5.9207916259765625 0.317679226398468 110
-1.4485915899276733 -5.8403730392456055 0.10436538606882095 110
-0.46927154064178467 -1.883545994758606 -0.5098737478256226 119
-0.5384480357170105 -2.159597635269165 -0.5050153732299805 119
-1.4458624124526978 -5.794729709625244 -1.1524055004119873 110
-1.452112078666687 -5.815455913543701 -0.9433005452156067 110
-1.45421302318573 -5.8195481300354 -0.7318261861801147 110
-1.4387930631637573 -5.753570079803467 -0.5155270099639893 110
-1.4602773189544678 -5.835155487060547 -0.31218835711479187 110
-1.4472696781158447 -5.778894901275635 -0.10228599607944489 110
-1.228089451789856 -4.900087356567383 1.3423959016799927 114
-1.2858238220214844 -5.126653671264648 1.2104456424713135 114
-1.3476054668426514 -5.369009494781494 1.0675709247589111 114
-1.4145524501800537 -5.631569862365723 0.9125704169273376 114
-1.4212028980255127 -5.653870105743408 0.711107611656189 110
-1.4601916074752808 -5.804691314697266 0.5203197598457336 110
-1.4635342359542847 -5.813689708709717 0.3121839463710785 110
-1.4443411827087402 -5.733221054077148 0.10253288596868515 110
-0.4746595323085785 -1.8772141933441162 -0.5085796117782593 119
-0.547178328037262 -2.162428140640259 -0.5061401724815369 119
-1.4407786130905151 -5.689726829528809 -1.1323884725570679 110
-1.4469276666641235 -5.709822177886963 -0.9268749356269836 110
-1.450119972229004 -5.718227386474609 -0.719639241695404 110
-1.4343632459640503 -5.651954174041748 -0.5068114399909973 110
-1.4548259973526 -5.728392124176025 -0.3067113757133484 110
-1.442804217338562 -5.676902770996094 -0.10055818408727646 110
-1.2451865673065186 -4.895771026611328 1.3423959016799927 114
-1.3037114143371582 -5.122134208679199 1.2104456424713135 114
-1.3663386106491089 -5.364272117614746 1.0675709247589111 114
-1.4354215860366821 -5.631383895874023 0.9133517742156982 114
-1.4433830976486206 -5.658492088317871 0.7123262882232666 110
-1.4558053016662598 -5.703034400939941 0.5116041898727417 110
-1.4578664302825928 -5.706952095031738 0.30668866634368896 110
-1.4395813941955566 -5.631275177001953 0.10078764706850052 110
-0.48120933771133423 -1.875545859336853 -0.5085796117782593 119
-0.5559347867965698 -2.1652233600616455 -0.5072649121284485 119
-1.434979796409607 -5.584831714630127 -1.112371563911438 110
-1.4410240650177002 -5.604296684265137 -0.9104493260383606 110
-1.4465742111206055 -5.6218132972717285 -0.708061695098877 110
-1.42799973487854 -5.545616626739502 -0.4976600706577301 110
-1.4498933553695679 -5.6265740394592285 -0.30149519443511963 110
-1.4376448392868042 -5.575014591217041 -0.09883038699626923 110
-1.2622684240341187 -4.89139461517334 1.3423959016799927 114
-1.3228012323379517 -5.122269153594971 1.2115695476531982 114
-1.386283278465271 -5.364222049713135 1.0685241222381592 114
-1.4340490102767944 -5.54505729675293 0.9000694751739502 110
-1.4593958854675293 -5.6390061378479 0.7104982733726501 110
-1.4519762992858887 -5.606302261352539 0.5033244490623474 110
-1.4514713287353516 -5.600326061248779 0.3011934161186218 110
-1.4341275691986084 -5.529433250427246 0.09904240071773529 110
-0.4865366816520691 -1.8691809177398682 -0.5072855353355408 119
-0.5647175908088684 -2.1679844856262207 -0.5083897113800049 119
-1.4309425354003906 -5.489546298980713 -1.0942609310150146 110
-1.4356478452682495 -5.503661155700684 -0.8948058485984802 110
-1.4411197900772095 -5.520693302154541 -0.6958747506141663 110
-1.4234293699264526 -5.449032306671143 -0.48938024044036865 110
-1.4442682266235352 -5.524861812591553 -0.29627901315689087 110
-1.431792140007019 -5.473232269287109 -0.0971025824546814 110
-1.2805578708648682 -4.89163064956665 1.34368896484375 114
-1.3406733274459839 -5.117620468139648 1.2115695476531982 114
-1.4049993753433228 -5.359350681304932 1.0685241222381592 114
-1.4345982074737549 -5.468364238739014 0.8883498311042786 110
-1.452607274055481 -5.533076286315918 0.6977019906044006 110
-1.4487552642822266 -5.514484882354736 0.49548038840293884 110
-1.4430806636810303 -5.488986492156982 0.29543647170066833 110
-1.427980661392212 -5.427698612213135 0.09729716181755066 110
-0.4930584132671356 -1.8674710988998413 -0.5072855353355408 119
-0.5735262036323547 -2.1707100868225098 -0.5095144510269165 119
-1.426257848739624 -5.394357681274414 -1.0761504173278809 110
-1.4295871257781982 -5.403133392333984 -0.8791624307632446 110
-1.4362475872039795 -5.424478054046631 -0.6842970848083496 110
-1.4169267416000366 -5.347733497619629 -0.4806646704673767 110
-1.4392304420471191 -5.428084850311279 -0.2913236618041992 110
-1.426528811454773 -5.376392364501953 -0.0954611748456955 110
-1.2988646030426025 -4.891798973083496 1.3449822664260864 114
-1.3597800731658936 -5.117618560791016 1.212693452835083 114
-1.4274822473526 -5.3686442375183105 1.0713835954666138 114
-1.428280234336853 -5.367872714996338 0.8727236390113831 110
-1.441266417503357 -5.412876129150391 0.6830776333808899 110
-1.4436290264129639 -5.417945861816406 0.4872005879878998 110
-1.440362811088562 -5.40189790725708 0.29098790884017944 110
-1.4224302768707275 -5.330906867980957 0.0956391841173172 110
-0.4983249306678772 -1.8610734939575195 -0.5059914588928223 119
-0.5810999274253845 -2.1686947345733643 -0.5095144510269165 119
-1.4209262132644653 -5.299270153045654 -1.058039665222168 110
-1.4241222143173218 -5.307486057281494 -0.8643011450767517 110
-1.430721640586853 -5.328365802764893 -0.6727195382118225 110
-1.411027193069458 -5.251358509063721 -0.47238487005233765 110
-1.4335347414016724 -5.331410884857178 -0.2863682806491852 110
-1.4206068515777588 -5.279655933380127 -0.0938197523355484 110
-1.315932273864746 -4.887235164642334 1.3449822664260864 114
-1.3776357173919678 -5.11284065246582 1.212693452835083 114
-1.4385465383529663 -5.335194110870361 1.065664529800415 0
-1.4238513708114624 -5.277029037475586 0.8586600422859192 110
-1.4355727434158325 -5.316780090332031 0.671500027179718 110
-1.4391460418701172 -5.326320648193359 0.479356586933136 110
-1.4357514381408691 -5.310075759887695 0.2862776517868042 110
-1.417527437210083 -5.239046096801758 0.09406846761703491 110
-0.5048182606697083 -1.8593226671218872 -0.5059914588928223 119
-0.5861119031906128 -2.15725040435791 -0.5072649121284485 119
-1.4162366390228271 -5.209023952484131 -1.0408823490142822 110
-1.4193036556243896 -5.216708183288574 -0.8502219915390015 110
-1.4245424270629883 -5.232358455657959 -0.6611419320106506 110
-1.4084001779556274 -5.16950798034668 -0.46541234850883484 110
-1.4284957647323608 -5.2396626472473145 -0.28167372941970825 110
-1.414027452468872 -5.183028697967529 -0.0921783447265625 110
-1.3342558145523071 -4.887271404266357 1.3462755680084229 114
-1.3967583179473877 -5.112700462341309 1.2138173580169678 114
-1.4286857843399048 -5.225979804992676 1.044694423675537 110
-1.4188063144683838 -5.186283111572266 0.8445964455604553 110
-1.4292261600494385 -5.220790863037109 0.6599224805831909 110
-1.4340412616729736 -5.234792709350586 0.4715125560760498 110
-1.4318368434906006 -5.22316837310791 0.2818291187286377 110
-1.4133235216140747 -5.152106761932373 0.0925850123167038 110
-0.5125871300697327 -1.8622055053710938 -0.5072855353355408 119
-0.5923447608947754 -2.1504945755004883 -0.5061401724815369 119
-1.4122384786605835 -5.123607158660889 -1.024678111076355 110
-1.4138689041137695 -5.126029968261719 -0.836142897605896 110
-1.4190311431884766 -5.141244888305664 -0.6501736640930176 110
-1.405219316482544 -5.087740898132324 -0.4584398865699768 110
-1.4228335618972778 -5.148014068603516 -0.2769791781902313 110
-1.410788893699646 -5.1009674072265625 -0.09079609811306 110
-1.3513073921203613 -4.882584095001221 1.3462755680084229 114
-1.4158966541290283 -5.112488746643066 1.214941143989563 114
-1.4246344566345215 -5.14055061340332 1.0284901857376099 110
-1.4144649505615234 -5.100396633148193 0.8313141465187073 110
-1.4275352954864502 -5.144040584564209 0.6507822275161743 110
-1.4269825220108032 -5.1385674476623535 0.46323278546333313 110
-1.4273333549499512 -5.136353969573975 0.2773805558681488 110
-1.4085301160812378 -5.065261363983154 0.09110155701637268 110
-0.5190843343734741 -1.8604049682617188 -0.5072855353355408 119
-0.5985376834869385 -2.143721342086792 -0.5050153732299805 119
-1.4076615571975708 -5.038282871246338 -1.0084739923477173 110
-1.4078189134597778 -5.035454750061035 -0.8220638036727905 110
-1.414238452911377 -5.055013656616211 -0.6398147940635681 110
-1.4014850854873657 -5.006060600280762 -0.4514674246311188 110
-1.4178965091705322 -5.061278820037842 -0.27254539728164673 110
-1.4069948196411133 -5.0189924240112305 -0.0894138514995575 110
-1.3696472644805908 -4.882488250732422 1.3475688695907593 114
-1.4258337020874023 -5.079370975494385 1.208197832107544 114
-1.4200044870376587 -5.0552144050598145 1.0122859477996826 110
-1.4095416069030762 -5.014604568481445 0.818031907081604 110
-1.4239826202392578 -5.062588214874268 0.6410326957702637 110
-1.421968698501587 -5.052045822143555 0.4558245539665222 110
-1.4222415685653687 -5.049635410308838 0.2729319930076599 110
-1.4045039415359497 -4.983325481414795 0.08970536291599274 110
-0.5255751609802246 -1.85858154296875 -0.5072855353355408 119
-0.6046905517578125 -2.1369311809539795 -0.5038906931877136 119
-1.4025064706802368 -4.953053951263428 -0.9922696948051453 110
-1.4038463830947876 -4.954487323760986 -0.8095489740371704 110
-1.410215139389038 -4.973653793334961 -0.6300652027130127 110
-1.3971978425979614 -4.924468040466309 -0.44449496269226074 110
-1.4123713970184326 -4.9746413230896 -0.2681116461753845 110
-1.4026460647583008 -4.937107563018799 -0.08803161233663559 110
-1.3866819143295288 -4.8776774406433105 1.3475688695907593 114
-1.420892357826233 -4.994699001312256 1.189091444015503 110
-1.4161401987075806 -4.974694728851318 0.9970349669456482 110
-1.4053897857666016 -4.933659553527832 0.8055309057235718 110
-1.4212394952774048 -4.985997676849365 0.6318925023078918 110
-1.416368842124939 -4.965622425079346 0.4484162926673889 110
-1.4179325103759766 -4.967817783355713 0.2687451243400574 110
-1.39992356300354 -4.901480197906494 0.08830916881561279 110
-0.5333900451660156 -1.8613784313201904 -0.5085796117782593 119
-0.6121461391448975 -2.134807586669922 -0.5038906931877136 119
-1.398127555847168 -4.872641086578369 -0.9770187139511108 110
-1.3993263244628906 -4.873610496520996 -0.7970342040061951 110
-1.4056411981582642 -4.8923845291137695 -0.6203156113624573 110
-1.392358422279358 -4.842968463897705 -0.4375225007534027 110
-1.409019947052002 -4.897702693939209 -0.26419952511787415 110
-1.3991261720657349 -4.860119342803955 -0.08673576265573502 110
-1.4063736200332642 -4.882089138031006 1.3501553535461426 114
-1.4194260835647583 -4.924169063568115 1.1733567714691162 110
-1.411731481552124 -4.8942646980285645 0.9817839860916138 110
-1.4006901979446411 -4.852806091308594 0.7930299639701843 110
-1.4152249097824097 -4.899952411651611 0.6215336322784424 110
-1.411565899848938 -4.8840861320495605 0.44144386053085327 110
-1.4116828441619873 -4.881296157836914 0.2642965614795685 110
-1.3947889804840088 -4.819729328155518 0.08691298216581345 110
-0.5398842096328735 -1.8595051765441895 -0.5085796117782593 119
-0.6182349920272827 -2.127979040145874 -0.5027658939361572 119
-1.394574761390686 -4.797033786773682 -0.9627208113670349 110
-1.395638346672058 -4.797567844390869 -0.785301685333252 110
-1.4005173444747925 -4.811208724975586 -0.6105660796165466 110
-1.3869673013687134 -4.761562824249268 -0.4305500388145447 110
-1.4037517309188843 -4.816054821014404 -0.26002657413482666 110
-1.3936864137649536 -4.778417110443115 -0.08535351604223251 110
-1.4152878522872925 -4.849332332611084 1.3423959016799927 114
-1.4161193370819092 -4.849033832550049 1.1564981937408447 110
-1.4067785739898682 -4.813926696777344 0.9665328860282898 110
-1.3968298435211182 -4.776785850524902 0.7813103199005127 110
-1.4100210666656494 -4.818774700164795 0.6117841005325317 110
-1.4062111377716064 -4.802643775939941 0.43447136878967285 110
-1.4062503576278687 -4.799671649932861 0.26010969281196594 110
-1.3891009092330933 -4.738073825836182 0.0855167880654335 110
-0.5463718175888062 -1.8576093912124634 -0.5085796117782593 119
-0.6256592869758606 -2.125808000564575 -0.5027658939361572 119
-1.391898274421692 -4.726219654083252 -0.9493762254714966 110
-1.3914366960525513 -4.721611499786377 -0.7735690474510193 110
-1.3948442935943604 -4.730129718780518 -0.600816547870636 110
-1.3810248374938965 -4.680254936218262 -0.42357754707336426 110
-1.39934504032135 -4.739293575286865 -0.2561144232749939 110
-1.38910973072052 -4.7016072273254395 -0.08405765891075134 110
-1.4075586795806885 -4.760992050170898 1.3191173076629639 110
-1.412305235862732 -4.773982048034668 1.1396396160125732 110
-1.4026756286621094 -4.738390922546387 0.9522351026535034 110
-1.3924556970596313 -4.700852870941162 0.7695906758308411 110
-1.4042681455612183 -4.737693786621094 0.6020345687866211 110
-1.4003056287765503 -4.7213006019592285 0.4274989068508148 110
-1.401686191558838 -4.722931861877441 0.25618448853492737 110
-1.3828600645065308 -4.656517505645752 0.08412059396505356 110
-0.5528527498245239 -1.855690836906433 -0.5085796117782593 119
-0.6316841840744019 -2.1189427375793457 -0.5016411542892456 119
-1.3887443542480469 -4.655482769012451 -0.9360315799713135 110
-1.3881348371505737 -4.650475978851318 -0.7626186609268188 110
-1.3914629220962524 -4.6586594581604 -0.5922856330871582 110
-1.3759585618972778 -4.603820323944092 -0.4170408546924591 110
-1.394419550895691 -4.662622451782227 -0.2522023022174835 110
-1.3825809955596924 -4.6200995445251465 -0.08267541974782944 110
-1.404772162437439 -4.691273212432861 1.3010116815567017 110
-1.4093832969665527 -4.7036848068237305 1.1239049434661865 110
-1.3980625867843628 -4.662942886352539 0.937937319278717 110
-1.3875690698623657 -4.625009059906006 0.7578710317611694 110
-1.3993933200836182 -4.661465167999268 0.5928943157196045 110
-1.395282506942749 -4.644827842712402 0.42096224427223206 110
-1.3966037034988403 -4.6462836265563965 0.2522592842578888 110
-1.3775070905685425 -4.5798516273498535 0.08281166106462479 110
-0.5593269467353821 -1.8537497520446777 -0.5085796117782593 119
-0.6376685500144958 -2.112060546875 -0.5005163550376892 119
-1.3851138353347778 -4.584826946258545 -0.9226868748664856 110
-1.3829240798950195 -4.574694633483887 -0.7508860230445862 110
-1.3875999450683594 -4.587271690368652 -0.58375483751297 110
-1.3718187808990479 -4.532246112823486 -0.41093993186950684 110
-1.3889762163162231 -4.586043834686279 -0.24829016625881195 110
-1.3769506216049194 -4.543479919433594 -0.08137957006692886 110
-1.4043197631835938 -4.6308770179748535 1.2854926586151123 110
-1.4045734405517578 -4.628804683685303 1.107046365737915 110
-1.3943662643432617 -4.592281818389893 0.9245926737785339 110
-1.383605718612671 -4.553983211517334 0.7469326257705688 110
-1.3954472541809082 -4.590078353881836 0.5843635201454163 110
-1.3911924362182617 -4.573214530944824 0.4148613214492798 110
-1.3924576044082642 -4.57450532913208 0.24859578907489777 110
-1.371635913848877 -4.503281116485596 0.08150273561477661 110
-0.5657943487167358 -1.8517861366271973 -0.5085796117782593 119
-0.6464616060256958 -2.114480972290039 -0.5016411542892456 119
-1.3810073137283325 -4.514254093170166 -0.9093422889709473 110
-1.3786473274230957 -4.503729343414307 -0.7399356365203857 110
-1.383255958557129 -4.5159687995910645 -0.5752239227294922 110
-1.3671962022781372 -4.460757255554199 -0.40483906865119934 110
-1.383015513420105 -4.509562015533447 -0.24437803030014038 110
-1.3722689151763916 -4.471735954284668 -0.08017010241746902 110
-1.4006273746490479 -4.561307907104492 1.2673872709274292 110
-1.4006890058517456 -4.558672904968262 1.0913116931915283 110
-1.3916363716125488 -4.52639627456665 0.9122011661529541 110
-1.3791638612747192 -4.4830427169799805 0.7359943389892578 110
-1.3910200595855713 -4.518775463104248 0.5758326053619385 110
-1.3866198062896729 -4.501687049865723 0.4087604582309723 110
-1.3878275156021118 -4.502813816070557 0.24493226408958435 110
-1.36672043800354 -4.431584358215332 0.08028106391429901 110
-0.5722548365592957 -1.8497997522354126 -0.5085796117782593 119
-0.6581604480743408 -2.126173257827759 -0.5050153732299805 119
-1.3778775930404663 -4.448454856872559 -0.8969508409500122 110
-1.373892068862915 -4.432850360870361 -0.7289851903915405 110
-1.3799010515213013 -4.449492454528809 -0.567302405834198 110
-1.36356782913208 -4.3941144943237305 -0.39917391538619995 110
-1.3780187368392944 -4.437946319580078 -0.24072670936584473 110
-1.368586540222168 -4.404854774475098 -0.07904703170061111 110
-1.3979005813598633 -4.496433734893799 1.2505749464035034 110
-1.3963323831558228 -4.488626003265381 1.0755770206451416 110
-1.3870049715042114 -4.455899715423584 0.898856520652771 110
-1.3757121562957764 -4.416903495788574 0.7258372902870178 110
-1.3861124515533447 -4.447561264038086 0.5673017501831055 110
-1.3830476999282837 -4.435002326965332 0.4030953049659729 110
-1.3842015266418457 -4.435977935791016 0.2415304183959961 110
-1.36281156539917 -4.364749908447266 0.07914666086435318 110
-0.5787083506584167 -1.8477909564971924 -0.5085796117782593 119
-0.669948935508728 -2.1378097534179688 -0.5083897113800049 119
-1.372836709022522 -4.378049850463867 -0.8836061358451843 110
-1.3701374530792236 -4.366772174835205 -0.7188169360160828 110
-1.3775858879089355 -4.3878302574157715 -0.5599902272224426 110
-1.3594911098480225 -4.32755184173584 -0.39350879192352295 110
-1.3740365505218506 -4.371184825897217 -0.2373361885547638 110
-1.3644541501998901 -4.338054656982422 -0.07792395353317261 110
-1.3947383165359497 -4.431634902954102 1.2337626218795776 110
-1.391504168510437 -4.418665409088135 1.0598423480987549 110
-1.3833739757537842 -4.390173435211182 0.8864651322364807 110
-1.3718159198760986 -4.350844860076904 0.7156802415847778 110
-1.3822178840637207 -4.381169319152832 0.5593802332878113 110
-1.3790273666381836 -4.368398666381836 0.3974301815032959 110
-1.3816298246383667 -4.373983860015869 0.2383902668952942 110
-1.359959602355957 -4.302764892578125 0.07809951156377792 110
-0.5866143703460693 -1.8503634929656982 -0.5098737478256226 119
-0.6818264126777649 -2.1493895053863525 -0.5117639303207397 119
-1.3688063621520996 -4.312413215637207 -0.8712146878242493 110
-1.3674334287643433 -4.305482387542725 -0.7094308733940125 110
-1.3748571872711182 -4.326238632202148 -0.552678108215332 110
-1.3564757108688354 -4.2658185958862305 -0.38827943801879883 110
-1.3696051836013794 -4.304506301879883 -0.23394568264484406 110
-1.36138916015625 -4.276101589202881 -0.07688727229833603 110
-1.3896745443344116 -4.362310886383057 1.215657114982605 110
-1.3862046003341675 -4.348794460296631 1.0441076755523682 110
-1.3793007135391235 -4.324526786804199 0.8740736842155457 110
-1.3689769506454468 -4.289572715759277 0.7063045501708984 110
-1.377877116203308 -4.3148603439331055 0.5514587759971619 110
-1.376075029373169 -4.3066229820251465 0.39220085740089417 110
-1.3771220445632935 -4.307306289672852 0.23498842120170593 110
-1.3582148551940918 -4.245614528656006 0.07713963836431503 110
-0.5930697917938232 -1.8483046293258667 -0.5098737478256226 119
-0.6863464117050171 -2.13771915435791 -0.5095144510269165 119
-1.3658359050750732 -4.251531600952148 -0.8597764372825623 110
-1.3643184900283813 -4.244264602661133 -0.7000448107719421 110
-1.3717155456542969 -4.264720916748047 -0.5453659296035767 110
-1.3545722961425781 -4.208901405334473 -0.38348588347435 110
-1.3677862882614136 -4.24741792678833 -0.23107677698135376 110
-1.3579086065292358 -4.214223384857178 -0.07585059106349945 110
-1.3856263160705566 -4.297674655914307 1.1988447904586792 110
-1.3834264278411865 -4.288288593292236 1.030620813369751 110
-1.3747864961624146 -4.258963108062744 0.8616822361946106 110
-1.3657270669937134 -4.228373050689697 0.696928858757019 110
-1.3746165037155151 -4.25335693359375 0.5441465377807617 110
-1.3727086782455444 -4.2449212074279785 0.38697150349617004 110
-1.373703122138977 -4.2454657554626465 0.23184826970100403 110
-1.3560879230499268 -4.1885294914245605 0.07617975026369095 110
-0.6006864905357361 -1.8509215116500854 -0.5111678242683411 119
-0.6930588483810425 -2.135552406311035 -0.5095144510269165 119
-1.3609944581985474 -4.191199779510498 -0.8483381867408752 110
-1.3593326807022095 -4.183596611022949 -0.6906587481498718 110
-1.3666940927505493 -4.203755855560303 -0.5380537509918213 110
-1.3508386611938477 -4.152522087097168 -0.37869226932525635 110
-1.3625776767730713 -4.186124324798584 -0.22794707119464874 110
-1.3525632619857788 -4.152894973754883 -0.07481390982866287 110
-1.3796663284301758 -4.233602523803711 1.1820324659347534 110
-1.3787668943405151 -4.228337287902832 1.0171339511871338 110
-1.3698903322219849 -4.1986284255981445 0.8502439856529236 110
-1.3606122732162476 -4.167725086212158 0.6875531077384949 110
-1.3710211515426636 -4.197125434875488 0.5374437570571899 110
-1.3690153360366821 -4.1885085105896 0.3821779191493988 110
-1.3684087991714478 -4.184179306030273 0.22870811820030212 110
-1.3521369695663452 -4.131984233856201 0.07521986961364746 110
-0.6068211197853088 -1.84891939163208 -0.5111678242683411 119
-0.6989891529083252 -2.1284916400909424 -0.5083897113800049 119
-1.3587619066238403 -4.135130405426025 -0.8378531336784363 110
-1.3569610118865967 -4.12722110748291 -0.682054877281189 110
-1.3627493381500244 -4.142389297485352 -0.5307415723800659 110
-1.3481943607330322 -4.095737934112549 -0.3738987147808075 110
-1.3599992990493774 -4.12917423248291 -0.22507818043231964 110
-1.3498389720916748 -4.095919609069824 -0.07386362552642822 110
-1.376285433769226 -4.173717498779297 1.166513442993164 110
-1.3767259120941162 -4.172604084014893 1.0047709941864014 110
-1.3676117658615112 -4.142551422119141 0.8397588729858398 110
-1.3581125736236572 -4.111367225646973 0.6789586544036865 110
-1.3669743537902832 -4.135770320892334 0.5301316380500793 110
-1.3664238452911377 -4.13168478012085 0.37738436460494995 110
-1.365751028060913 -4.127233505249023 0.22582964599132538 110
-1.3492670059204102 -4.075035095214844 0.07425998896360397 110
-0.6135936379432678 -1.8466829061508179 -0.5111678242683411 119
-0.7052487134933472 -2.1212921142578125 -0.5072649121284485 119
-1.356866478919983 -4.078891754150391 -0.8273679614067078 110
-1.3549230098724365 -4.070677280426025 -0.6734508872032166 110
-1.3606733083724976 -4.085573673248291 -0.5240387320518494 110
-1.3458751440048218 -4.038788795471191 -0.36910516023635864 110
-1.3561714887619019 -4.067319869995117 -0.22194847464561462 110
-1.3458564281463623 -4.034037113189697 -0.07282692939043045 110
-1.3762805461883545 -4.122832775115967 1.1535810232162476 110
-1.373487949371338 -4.112077236175537 0.9912841320037842 110
-1.3656721115112305 -4.0863037109375 0.8292738199234009 110
-1.355944037437439 -4.054841995239258 0.670364260673523 110
-1.3648018836975098 -4.078963756561279 0.5234287977218628 110
-1.3641635179519653 -4.074692249298096 0.3725908100605011 110
-1.3634227514266968 -4.070119857788086 0.22295115888118744 110
-1.3483060598373413 -4.0226616859436035 0.07338736206293106 110
-0.6200360655784607 -1.8445297479629517 -0.5111678242683411 119
-0.7126490473747253 -2.1188173294067383 -0.5072649121284485 119
-1.3538751602172852 -4.022959232330322 -0.8168829083442688 110
-1.3517882823944092 -4.014440059661865 -0.6648470163345337 110
-1.3574963808059692 -4.029066562652588 -0.5173359513282776 110
-1.3424615859985352 -3.9821460247039795 -0.364311546087265 110
-1.352805495262146 -4.01051664352417 -0.21907955408096313 110
-1.3423439264297485 -3.977210521697998 -0.0718766450881958 110
-1.3736648559570312 -4.067667484283447 1.139355182647705 110
-1.3706775903701782 -4.056485652923584 0.9789212346076965 110
-1.3626351356506348 -4.030364990234375 0.8187887668609619 110
-1.3526817560195923 -3.998624563217163 0.6617698669433594 110
-1.363120675086975 -4.027167320251465 0.5173353552818298 110
-1.3624005317687988 -4.022727966308594 0.3682330250740051 110
-1.3599941730499268 -4.013316631317139 0.2200726866722107 110
-1.3446813821792603 -3.9658515453338623 0.07242748886346817 110
-0.6264709234237671 -1.84235417842865 -0.5111678242683411 119
-0.7200407981872559 -2.1163170337677 -0.5072649121284485 119
-1.352091908454895 -3.9717445373535156 -0.8073511123657227 110
-1.3482775688171387 -3.958275079727173 -0.656243085861206 110
-1.353941559791565 -3.9726319313049316 -0.510633111000061 110
-1.3386694192886353 -3.9255776405334473 -0.35951799154281616 110
-1.349059820175171 -3.9537878036499023 -0.21621066331863403 110
-1.3384513854980469 -3.9204580783843994 -0.07092635333538055 110
-1.3706812858581543 -4.012571811676025 1.1251294612884521 110
-1.3659203052520752 -3.996354103088379 0.9654343724250793 110
-1.3592244386672974 -3.974496841430664 0.8083036541938782 110
-1.349043607711792 -3.9424798488616943 0.653175413608551 110
-1.3594871759414673 -3.9707376956939697 0.5106325149536133 110
-1.358677625656128 -3.966114044189453 0.3634394705295563 110
-1.356185793876648 -3.95658802986145 0.21719421446323395 110
-1.3406764268875122 -3.9091155529022217 0.07146760076284409 110
-0.629756510257721 -1.831022024154663 -0.5085796117782593 119
-0.7290091514587402 -2.1183977127075195 -0.5083897113800049 119
-1.348369836807251 -3.9159510135650635 -0.7968659400939941 110
-1.3443915843963623 -3.9021847248077393 -0.6476392149925232 110
-1.350009560585022 -3.916271686553955 -0.5039302706718445 110
-1.336122989654541 -3.873793125152588 -0.3551601767539978 110
-1.3465638160705566 -3.9018542766571045 -0.21360257267951965 110
-1.3358110189437866 -3.8685073852539062 -0.07006245106458664 110
-1.3673299551010132 -3.957547187805176 1.1109037399291992 110
-1.362351894378662 -3.940910577774048 0.9530713558197021 110
-1.3570451736450195 -3.923341989517212 0.7987717986106873 110
-1.346645474433899 -3.8910770416259766 0.645362377166748 110
-1.3571003675460815 -3.919072389602661 0.5045390725135803 110
-1.3562066555023193 -3.9142823219299316 0.3590816557407379 110
-1.3536337614059448 -3.9046528339385986 0.21457740664482117 110
-1.3379305601119995 -3.857180595397949 0.07059498131275177 110
-0.6428133845329285 -1.8469467163085938 -0.5137560367584229 119
-0.7351662516593933 -2.1111104488372803 -0.5072649121284485 119
-1.346563696861267 -3.8646328449249268 -0.787334144115448 110
-1.3424276113510132 -3.8505992889404297 -0.6398174166679382 110
-1.3480091094970703 -3.8644392490386963 -0.4978368282318115 110
-1.333898663520813 -3.821842670440674 -0.3508024215698242 110
-1.3460397720336914 -3.854466438293457 -0.21125528216362 110
-1.3334906101226807 -3.8163909912109375 -0.06919854879379272 110
-1.3658862113952637 -3.9069161415100098 1.0979710817337036 110
-1.3607001304626465 -3.8899025917053223 0.9418323636054993 110
-1.3535798788070679 -3.8673813343048096 0.7882866859436035 110
-1.3445751667022705 -3.8395047187805176 0.6375492215156555 110
-1.3550446033477783 -3.867236852645874 0.4984455704689026 110
-1.3540648221969604 -3.8622803688049316 0.35472384095191956 110
-1.3497554063796997 -3.847836971282959 0.21169894933700562 110
-1.3355027437210083 -3.805079460144043 0.06972236186265945 110
-0.6460496783256531 -1.8355801105499268 -0.5111678242683411 119
-0.7473857402801514 -2.122317314147949 -0.5106391906738281 119
-1.3437339067459106 -3.813615322113037 -0.7778021693229675 110
-1.337798833847046 -3.7946577072143555 -0.6312135457992554 110
-1.3449815511703491 -3.812908887863159 -0.4917433559894562 110
-1.3323112726211548 -3.7748899459838867 -0.34688040614128113 110
-1.3428597450256348 -3.8026621341705322 -0.2086472064256668 110
-1.3318146467208862 -3.76928973197937 -0.06842103600502014 110
-1.3618072271347046 -3.852034330368042 1.0837453603744507 110
-1.3580230474472046 -3.8391976356506348 0.9305932521820068 110
-1.350695252418518 -3.8163626194000244 0.7787548899650574 110
-1.3414839506149292 -3.7882344722747803 0.6297361254692078 110
-1.351961374282837 -3.8157052993774414 0.49235212802886963 110
-1.3525596857070923 -3.8152782917022705 0.35080188512802124 110
-1.3464864492416382 -3.7960433959960938 0.20908214151859283 110
-1.3320623636245728 -3.753279209136963 0.06884974241256714 110
-0.6505146026611328 -1.828877329826355 -0.5098737478256226 119
-0.7458860874176025 -2.0970077514648438 -0.5050153732299805 119
-1.3408968448638916 -3.7677571773529053 -0.7692235112190247 110
-1.3348040580749512 -3.748565673828125 -0.6241740584373474 110
-1.3419634103775024 -3.7665913105010986 -0.48625922203063965 110
-1.3274387121200562 -3.7237677574157715 -0.34252259135246277 110
-1.3397024869918823 -3.7560977935791016 -0.20629991590976715 110
-1.3285269737243652 -3.7227115631103516 -0.06764352321624756 110
-1.3576604127883911 -3.802250862121582 1.0708128213882446 110
-1.353685975074768 -3.789031744003296 0.9193542003631592 110
-1.346156358718872 -3.7658815383911133 0.7692229151725769 110
-1.3367470502853394 -3.7375004291534424 0.62192302942276 110
-1.3472212553024292 -3.764714002609253 0.4862586557865143 110
-1.3477485179901123 -3.764116048812866 0.3464440703392029 110
-1.3432494401931763 -3.7494888305664062 0.2067270129919052 110
-1.328658938407898 -3.706723690032959 0.0680643767118454 110
nan nan nan 0
-0.7564988136291504 -2.103560209274292 -0.5072649121284485 119
-1.3374223709106445 -3.716869592666626 -0.759691596031189 110
-1.3328251838684082 -3.7020649909973145 -0.6171344518661499 110
-1.341647982597351 -3.724531412124634 -0.48138442635536194 110
-1.3252291679382324 -3.67693829536438 -0.3386005759239197 110
-1.337561011314392 -3.7091243267059326 -0.2039526402950287 110
-1.3262430429458618 -3.6757287979125977 -0.06686601042747498 110
-1.3545242547988892 -3.7520599365234375 1.0578802824020386 110
-1.3503526449203491 -3.7384607791900635 0.9081152081489563 110
-1.3442792892456055 -3.7196147441864014 0.760644257068634 110
-1.334670901298523 -3.6910133361816406 0.6148912310600281 110
-1.3434703350067139 -3.7133212089538574 0.48016518354415894 110
-1.3456206321716309 -3.717236280441284 0.3425220549106598 110
-1.3393257856369019 -3.6978302001953125 0.20411022007465363 110
-1.3262603282928467 -3.659762144088745 0.06727902591228485 110
nan nan nan 0
-0.767534613609314 -2.1099300384521484 -0.5095144510269165 119
-1.3359277248382568 -3.670431613922119 -0.7511128783226013 110
-1.3311762809753418 -3.6553924083709717 -0.6100949048995972 110
-1.3399993181228638 -3.6776235103607178 -0.4759003221988678 110
-1.3233424425125122 -3.629939317703247 -0.3346785604953766 110
-1.335747241973877 -3.6619791984558105 -0.20160536468029022 110
-1.3242809772491455 -3.6285767555236816 -0.06608849763870239 110
-1.3533573150634766 -3.7062387466430664 1.046241044998169 110
-1.3489983081817627 -3.692300796508789 0.8980000615119934 110
-1.3410513401031494 -3.6685631275177 0.7511123418807983 110
