# .PCD v0.7 - Point Cloud Data file format
VERSION 0.7
FIELDS x y z intensity
SIZE 4 4 4 4
TYPE F F F F
COUNT 1 1 1 1
WIDTH 855
HEIGHT 1
VIEWPOINT 0 0 0 1 0 0 0
POINTS 855
DATA ascii
-29.283353805541992 0.950961172580719 0.5107446312904358 13
nan nan nan 0
nan nan nan 0
nan nan nan 0
-3.3845722675323486 0.11464311182498932 -0.53031325340271 119
nan nan nan 0
nan nan nan 0
nan nan nan 0
nan nan nan 0
-8.77981948852539 0.3050631880760193 2.3420796394348145 32
-10.131826400756836 0.35381045937538147 2.329854965209961 32
-11.9727783203125 0.4201899766921997 2.3191070556640625 32
-14.548622131347656 0.5131327509880066 2.2970523834228516 32
-18.577272415161133 0.6584703922271729 2.277738094329834 32
-25.42011260986328 0.9054567217826843 2.2220356464385986 32
-29.29930305480957 1.0487525463104248 1.5344902276992798 13
nan nan nan 0
nan nan nan 0
nan nan nan 0
-2.696685314178467 0.10029666870832443 -0.5166284441947937 119
-3.3594765663146973 0.12553474307060242 -0.5264024138450623 119
nan nan nan 0
-6.200285911560059 0.23385563492774963 -0.5394948720932007 119
nan nan nan 0
nan nan nan 0
-8.783526420593262 0.3358931839466095 2.3433730602264404 32
-10.13053035736084 0.3891749680042267 2.329854965209961 32
-11.976142883300781 0.46216949820518494 2.3200604915618896 32
-14.54674243927002 0.5639137625694275 2.2970523834228516 32
-18.584775924682617 0.7236992716789246 2.278956413269043 32
nan nan nan 0
-29.29546356201172 1.151019811630249 1.5344902276992798 13
nan nan nan 0
nan nan nan 0
nan nan nan 0
-2.671797275543213 0.10871151834726334 -0.5118624567985535 119
nan nan nan 0
nan nan nan 0
nan nan nan 0
nan nan nan 0
-42.894813537597656 1.782823085784912 -0.7412278652191162 18
-8.782299995422363 0.36655133962631226 2.3433730602264404 32
-10.133977890014648 0.4247387945652008 2.3309788703918457 32
-11.994072914123535 0.5047968029975891 2.3238730430603027 32
-14.544685363769531 0.614687979221344 2.2970523834228516 32
-18.59205436706543 0.7889887094497681 2.28017520904541 32
nan nan nan 0
-29.29126739501953 1.2532730102539062 1.5344902276992798 13
nan nan nan 0
nan nan nan 0
nan nan nan 0
nan nan nan 0
nan nan nan 0
nan nan nan 0
nan nan nan 0
nan nan nan 0
-42.76346969604492 1.9269169569015503 -0.7390680909156799 18
-8.780967712402344 0.39720508456230164 2.3433730602264404 32
-10.13243293762207 0.4601103663444519 2.3309788703918457 32
-12.002043724060059 0.5471078753471375 2.325779438018799 32
-14.547385215759277 0.6656804084777832 2.2978336811065674 32
-18.599102020263672 0.8543376922607422 2.2813940048217773 32
nan nan nan 0
-29.2767391204834 1.3550493717193604 1.5339667797088623 13
nan nan nan 0
nan nan nan 0
nan nan nan 0
nan nan nan 0
-3.3333137035369873 0.15952719748020172 -0.5224915146827698 119
nan nan nan 0
-6.207447528839111 0.2992505729198456 -0.5403664112091064 119
nan nan nan 0
-42.76647186279297 2.07666277885437 -0.7392409443855286 18
-8.77952766418457 0.42785394191741943 2.3433730602264404 32
-10.125899314880371 0.49523836374282837 2.329854965209961 32
-12.034378051757812 0.5906838774681091 2.332451820373535 32
-14.540040016174316 0.7162132263183594 2.2970523834228516 32
-18.605920791625977 0.9197455644607544 2.2826128005981445 32
-25.39006805419922 1.259548306465149 2.2207283973693848 32
-29.266841888427734 1.4569876194000244 1.5337051153182983 13
nan nan nan 0
nan nan nan 0
nan nan nan 0
-2.68031644821167 0.13718582689762115 -0.5137688517570496 119
-3.367260217666626 0.17293471097946167 -0.5279667377471924 119
nan nan nan 0
nan nan nan 0
nan nan nan 0
-43.20329666137695 2.2490639686584473 -0.7469296455383301 18
-8.777979850769043 0.4584975838661194 2.3433730602264404 32
-10.12410831451416 0.5305812954902649 2.329854965209961 32
-12.022439956665039 0.6321726441383362 2.330545425415039 32
-14.537450790405273 0.7669630646705627 2.2970523834228516 32
-18.602596282958984 0.9846867322921753 2.2826128005981445 32
-25.39048957824707 1.3484326601028442 2.2211639881134033 32
-29.256593704223633 1.5588734149932861 1.5334434509277344 13
nan nan nan 0
nan nan nan 0
nan nan nan 0
-2.7582366466522217 0.15082904696464539 -0.529019832611084 119
-3.411015272140503 0.1871221512556076 -0.5350062847137451 119
nan nan nan 0
-6.205207347869873 0.34257906675338745 -0.5403664112091064 119
nan nan nan 0
-43.24509811401367 2.4026310443878174 -0.7477935552597046 18
-8.771504402160645 0.488866925239563 2.3420796394348145 32
-10.122194290161133 0.5659178495407104 2.329854965209961 32
-12.020160675048828 0.6741349101066589 2.330545425415039 32
-14.534686088562012 0.8177035450935364 2.2970523834228516 32
-18.59904670715332 1.0496158599853516 2.2826128005981445 32
-25.39557647705078 1.4376168251037598 2.2220356464385986 32
-29.250972747802734 1.660988450050354 1.5334434509277344 13
nan nan nan 0
-2.005387544631958 0.11598095297813416 -0.5279910564422607 119
-2.2754757404327393 0.1319998949766159 -0.5173877477645874 119
-2.738093376159668 0.15931575000286102 -0.5252071022987366 119
-3.3511805534362793 0.1955750435590744 -0.5256202220916748 119
nan nan nan 0
-6.179111480712891 0.3627775311470032 -0.5381875038146973 119
nan nan nan 0
-43.21648406982422 2.5523908138275146 -0.7474479675292969 18
-8.769744873046875 0.5194821953773499 2.3420796394348145 32
-10.115293502807617 0.6009584665298462 2.328731060028076 32
-12.017733573913574 0.7160889506340027 2.330545425415039 32
-14.526813507080078 0.8681395053863525 2.2962710857391357 32
-18.590314865112305 1.1142354011535645 2.282003402709961 32
-25.41029167175293 1.527450680732727 2.22377872467041 32
-29.244997024536133 1.7630833387374878 1.5334434509277344 13
-43.192787170410156 2.6115152835845947 0.7546420097351074 18
-1.9905086755752563 0.12209329754114151 -0.5241087675094604 119
-2.3139023780822754 0.14233490824699402 -0.5263857841491699 119
nan nan nan 0
nan nan nan 0
nan nan nan 0
-6.1728363037109375 0.3840351998806 -0.5377517938613892 119
-10.966999053955078 0.684219479560852 -0.5719541907310486 119
-43.18735122680664 2.7019803524017334 -0.7471023797988892 18
-8.763057708740234 0.549788773059845 2.3407866954803467 32
-10.113134384155273 0.6362637877464294 2.328731060028076 32
-12.020059585571289 0.7583433985710144 2.331498622894287 32
-14.523694038391113 0.9188422560691833 2.2962710857391357 32
-18.58631134033203 1.1791208982467651 2.282003402709961 32
-25.404804229736328 1.6161398887634277 2.22377872467041 32
-29.238662719726562 1.865156650543213 1.5334434509277344 13
nan nan nan 0
-2.0045289993286133 0.1299782693386078 -0.5279910564422607 119
nan nan nan 0
nan nan nan 0
nan nan nan 0
nan nan nan 0
-6.216190338134766 0.40851980447769165 -0.5416737794876099 119
-10.984474182128906 0.7238105535507202 -0.5729973912239075 119
-35.949501037597656 2.3751566410064697 -0.62192302942276 119
-8.761085510253906 0.5803742408752441 2.3407866954803467 32
-10.110852241516113 0.6715613603591919 2.328731060028076 32
-12.022236824035645 0.8006227612495422 2.332451820373535 32
-14.52039909362793 0.9695338010787964 2.2962710857391357 32
-18.582082748413086 1.2439919710159302 2.282003402709961 32
-25.40894889831543 1.7054764032363892 2.2246503829956055 32
-29.231975555419922 1.9672073125839233 1.5334434509277344 13
-45.52779006958008 3.0718395709991455 0.7958296537399292 16
-1.9655159711837769 0.13433994352817535 -0.5176383256912231 119
nan nan nan 0
-2.677513837814331 0.18394289910793304 -0.5137688517570496 119
nan nan nan 0
-4.3652825355529785 0.3014221787452698 -0.5325696468353271 119
-6.179943084716797 0.4278079569339752 -0.5386233329772949 119
nan nan nan 0
-35.90607833862305 2.4982006549835205 -0.6213182806968689 119
-8.75900650024414 0.6109525561332703 2.3407866954803467 32
-10.10358715057373 0.7065109014511108 2.3276071548461914 32
-12.019368171691895 0.8425832986831665 2.332451820373535 32
-14.516925811767578 1.0202136039733887 2.2962710857391357 32
-18.582578659057617 1.309196949005127 2.2826128005981445 32
-25.407808303833008 1.7945107221603394 2.225085973739624 32
-29.229909896850586 2.0695865154266357 1.5337051153182983 13
-45.486873626708984 3.228618860244751 0.7953061461448669 16
-1.9939383268356323 0.14327692985534668 -0.5254029035568237 119
nan nan nan 0
nan nan nan 0
nan nan nan 0
-4.384002208709717 0.31809455156326294 -0.5350069999694824 119
-6.163508415222168 0.44829338788986206 -0.5373159646987915 119
nan nan nan 0
-35.92206954956055 2.625342845916748 -0.6217502951622009 119
-8.756820678710938 0.6415234804153442 2.3407866954803467 32
-10.101058959960938 0.7417746782302856 2.3276071548461914 32
-12.016353607177734 0.8845335841178894 2.332451820373535 32
-14.513276100158691 1.0708808898925781 2.2962710857391357 32
-18.587793350219727 1.3747862577438354 2.2838313579559326 32
-25.416292190551758 1.8842943906784058 2.226393461227417 32
-29.22250747680664 2.171605348587036 1.5337051153182983 13
-45.53016662597656 3.391462802886963 0.7962660193443298 16
-1.9982420206069946 0.1505991518497467 -0.5266969799995422 119
-2.29225754737854 0.17316024005413055 -0.5218867659568787 119
nan nan nan 0
nan nan nan 0
nan nan nan 0
nan nan nan 0
nan nan nan 0
-35.91767120361328 2.7511000633239746 -0.6218366026878357 119
-8.754528045654297 0.6720865368843079 2.3407866954803467 32
-10.098407745361328 0.7770294547080994 2.3276071548461914 32
-12.018087387084961 0.9268504977226257 2.333405017852783 32
-14.509449005126953 1.121535062789917 2.2962710857391357 32
-18.587827682495117 1.440044641494751 2.284440755844116 32
-25.42942237854004 1.974544644355774 2.2281365394592285 32
-29.21474838256836 2.2735977172851562 1.5337051153182983 13
nan nan nan 0
-1.9928895235061646 0.1571936458349228 -0.5254029035568237 119
-2.3013525009155273 0.18192853033542633 -0.5241362452507019 119
-2.6950125694274902 0.2135217934846878 -0.517581582069397 119
nan nan nan 0
-4.3965163230896 0.34987372159957886 -0.5368350148200989 119
nan nan nan 0
nan nan nan 0
-35.91283416748047 2.876858711242676 -0.62192302942276 119
-8.752127647399902 0.702641487121582 2.3407866954803467 32
-10.095634460449219 0.8122747540473938 2.3276071548461914 32
-12.014779090881348 0.9687958359718323 2.333405017852783 32
-14.510368347167969 1.172573447227478 2.2970523834228516 32
-18.592580795288086 1.5057207345962524 2.2856593132019043 32
-25.432302474975586 2.064103841781616 2.2290079593658447 32
-29.211612701416016 2.375967264175415 1.5339667797088623 13
nan nan nan 0
-1.9827020168304443 0.1633560210466385 -0.5228146910667419 119
-2.2958481311798096 0.18955974280834198 -0.5230115056037903 119
nan nan nan 0
nan nan nan 0
nan nan nan 0
nan nan nan 0
nan nan nan 0
-35.90755844116211 3.002617120742798 -0.6220094561576843 119
-8.749622344970703 0.7331878542900085 2.3407866954803467 32
-10.097591400146484 0.8479177355766296 2.328731060028076 32
-12.011323928833008 1.0107293128967285 2.333405017852783 32
-14.506186485290527 1.2232168912887573 2.2970523834228516 32
-18.592159271240234 1.571029782295227 2.286268949508667 32
-25.424943923950195 2.1528666019439697 2.2290079593658447 32
-29.203142166137695 2.4779202938079834 1.5339667797088623 13
-42.8869514465332 3.6465466022491455 0.7506279349327087 30
-1.9724959135055542 0.16944921016693115 -0.5202265381813049 119
-2.2806107997894287 0.1963191032409668 -0.5196372270584106 119
-2.7032365798950195 0.23317481577396393 -0.5194879770278931 119
-3.3394932746887207 0.2886439859867096 -0.5248380899429321 119
-4.389022350311279 0.38013023138046265 -0.5362257361412048 119
-6.186422348022461 0.5368896722793579 -0.5399306416511536 119
-10.912186622619629 0.94893479347229 -0.5701284408569336 119
-31.060903549194336 2.706549644470215 -0.5381245017051697 30
-8.75182056427002 0.7641453146934509 2.3420796394348145 32
-10.094571113586426 0.8831597566604614 2.328731060028076 32
-12.012611389160156 1.0530791282653809 2.3343582153320312 32
-14.50182819366455 1.2738455533981323 2.2970523834228516 32
-18.58161735534668 1.6354836225509644 2.2856593132019043 32
-25.417274475097656 2.241602897644043 2.2290079593658447 32
-29.19928550720215 2.580282688140869 1.5342284440994263 13
-36.95302963256836 3.271965265274048 0.646873414516449 30
-1.967081904411316 0.1759032905101776 -0.5189324021339417 119
-2.289616346359253 0.20514827966690063 -0.5218867659568787 119
-2.7219607830047607 0.24436496198177338 -0.5233007073402405 119
-3.3335466384887695 0.2998568117618561 -0.5240558981895447 119
-4.382726192474365 0.39500299096107483 -0.535616397857666 119
-6.189471244812012 0.5589289665222168 -0.5403664112091064 119
-10.918754577636719 0.9879195690155029 -0.5706501007080078 119
-30.981563568115234 2.8086371421813965 -0.5369150638580322 30
-8.749099731445312 0.7946901917457581 2.3420796394348145 32
-10.096278190612793 0.918832540512085 2.329854965209961 32
-12.01863956451416 1.0958960056304932 2.3362646102905273 32
-14.502212524414062 1.3249080181121826 2.2978336811065674 32
-18.565908432006836 1.6994309425354004 2.284440755844116 32
-25.414255142211914 2.3307671546936035 2.2294440269470215 32
-29.190101623535156 2.6821916103363037 1.5342284440994263 13
-29.165456771850586 2.6850602626800537 0.5105701088905334 13
-1.9664559364318848 0.18276862800121307 -0.5189324021339417 119
-2.288886308670044 0.21313926577568054 -0.5218867659568787 119
-2.7162041664123535 0.2534089684486389 -0.5223475694656372 119
-3.332479476928711 0.3114912211894989 -0.5240558981895447 119
-4.35661506652832 0.40798550844192505 -0.5325696468353271 119
-6.207319259643555 0.5823919773101807 -0.5421095490455627 119
-10.915239334106445 1.0260270833969116 -0.5706501007080078 119
-29.189720153808594 2.7489590644836426 -0.5059874057769775 13
-8.751081466674805 0.8256791234016418 2.3433730602264404 32
-10.097860336303711 0.9545280933380127 2.3309788703918457 32
-12.004966735839844 1.1369167566299438 2.3343582153320312 32
-14.497499465942383 1.3755220174789429 2.2978336811065674 32
-18.54998207092285 1.7632883787155151 2.283221960067749 32
-25.401004791259766 2.4189929962158203 2.2290079593658447 32
-29.18553352355957 2.7845420837402344 1.5344902276992798 13
-29.185768127441406 2.7897045612335205 0.5110936760902405 13
-1.9658058881759644 0.18963173031806946 -0.5189324021339417 119
-2.28812837600708 0.2211276739835739 -0.5218867659568787 119
-2.7055323123931885 0.2619427442550659 -0.5204411745071411 119
-3.346118211746216 0.32455214858055115 -0.5264024138450623 119
-4.384801387786865 0.42607027292251587 -0.5362257361412048 119
-6.16558837890625 0.6001952886581421 -0.5386233329772949 119
-10.901651382446289 1.06315279006958 -0.5701284408569336 119
-29.169998168945312 2.8498611450195312 -0.5058146119117737 13
-8.752952575683594 0.8566915392875671 2.3446662425994873 32
-10.099315643310547 0.9902458190917969 2.3321027755737305 32
-11.986271858215332 1.1773754358291626 2.331498622894287 32
-14.497525215148926 1.426603078842163 2.298614978790283 32
-18.53877830505371 1.8275423049926758 2.2826128005981445 32
-25.412233352661133 2.5096025466918945 2.2307512760162354 32
-29.175636291503906 2.886401414871216 1.5344902276992798 13
-29.165903091430664 2.8905789852142334 0.5109191536903381 13
-1.9602922201156616 0.19635415077209473 -0.5176383256912231 119
-2.2873024940490723 0.22951258718967438 -0.5218867659568787 119
-2.709437608718872 0.27234816551208496 -0.5213943719863892 119
-3.330165386199951 0.3353297710418701 -0.5240558981895447 119
-4.39308500289917 0.443134605884552 -0.5374444127082825 119
-6.1732587814331055 0.6237908005714417 -0.5394948720932007 119
-10.907617568969727 1.1041079759597778 -0.5706501007080078 119
-29.1494083404541 2.95574688911438 -0.5056418180465698 13
-8.749753952026367 0.8887669444084167 2.3446662425994873 32
-10.095619201660156 1.0272550582885742 2.3321027755737305 32
-11.9623441696167 1.2193084955215454 2.327685832977295 32
-14.492198944091797 1.4797296524047852 2.298614978790283 32
-18.52208137512207 1.8944683074951172 2.2813940048217773 32
-25.422685623168945 2.6047568321228027 2.232494354248047 32
nan nan nan 0
-29.150136947631836 2.996946334838867 0.510831892490387 13
-1.9595948457717896 0.20319564640522003 -0.5176383256912231 119
-2.286487579345703 0.23749537765979767 -0.5218867659568787 119
-2.708470344543457 0.2818042039871216 -0.5213943719863892 119
-3.3240630626678467 0.34644025564193726 -0.5232737064361572 119
nan nan nan 0
-6.161135673522949 0.6442995667457581 -0.5386233329772949 119
-10.908663749694824 1.1426961421966553 -0.5709109306335449 119
-29.123998641967773 3.0559141635894775 -0.5053826570510864 13
-8.7514009475708 0.9198086857795715 2.345959424972534 32
-10.096817016601562 1.0629992485046387 2.3332266807556152 32
-11.943371772766113 1.2595131397247314 2.324826240539551 32
-14.491854667663574 1.5308263301849365 2.299396276473999 32
-18.52029037475586 1.9596329927444458 2.282003402709961 32
-25.378767013549805 2.689807891845703 2.2294440269470215 32
-29.16416358947754 3.096156597137451 1.5350135564804077 13
nan nan nan 0
-1.9540715217590332 0.20951977372169495 -0.5163442492485046 119
-2.2904884815216064 0.24599550664424896 -0.5230115056037903 119
-2.707470178604126 0.29125678539276123 -0.5213943719863892 119
-3.317923069000244 0.3575122356414795 -0.5224915146827698 119
nan nan nan 0
-6.153896808624268 0.6652666330337524 -0.5381875038146973 119
-10.904607772827148 1.18076753616333 -0.5709109306335449 119
-24.06849479675293 2.6104230880737305 -0.41769659519195557 119
-8.748137474060059 0.9503511786460876 2.345959424972534 32
-10.093045234680176 1.0982372760772705 2.3332266807556152 32
-11.924263000488281 1.2996002435684204 2.3219666481018066 32
-14.4913330078125 1.5819391012191772 2.300177574157715 32
-18.523202896118164 2.0253477096557617 2.283221960067749 32
-23.883813858032227 2.615701198577881 2.098710298538208 30
-24.026012420654297 2.6355183124542236 1.2646982669830322 30
-23.40880012512207 2.571948289871216 0.41039329767227173 30
-1.953328251838684 0.21633946895599365 -0.5163442492485046 119
-2.2944581508636475 0.25452643632888794 -0.5241362452507019 119
-2.7064368724823 0.30070585012435913 -0.5213943719863892 119
-3.316655158996582 0.3690917491912842 -0.5224915146827698 119
nan nan nan 0
-6.156487464904785 0.6872963905334473 -0.5386233329772949 119
-10.900420188903809 1.2188245058059692 -0.5709109306335449 119
-22.732728958129883 2.5458648204803467 -0.39463043212890625 119
-8.744766235351562 0.9808821082115173 2.345959424972534 32
-10.089150428771973 1.133461833000183 2.3332266807556152 32
-11.914776802062988 1.3406670093536377 2.3210136890411377 32
-14.485723495483398 1.6325136423110962 2.300177574157715 32
-18.545610427856445 2.0933332443237305 2.2868781089782715 32
-22.454044342041016 2.538466453552246 1.9736417531967163 30
-22.404197692871094 2.5367910861968994 1.1796523332595825 30
-21.83991813659668 2.476759672164917 0.38299304246902466 30
-1.9477627277374268 0.22260813415050507 -0.5150501132011414 119
-2.298395872116089 0.26308807730674744 -0.5252610445022583 119
-2.7004947662353516 0.30959224700927734 -0.5204411745071411 119
-3.3202528953552246 0.3812301456928253 -0.5232737064361572 119
nan nan nan 0
-6.154050827026367 0.7087823152542114 -0.5386233329772949 119
-10.881217956542969 1.2551500797271729 -0.5701284408569336 119
-21.3679256439209 2.4685723781585693 -0.37104591727256775 30
-8.741289138793945 1.0114010572433472 2.345959424972534 32
-10.080291748046875 1.1681116819381714 2.3321027755737305 32
-11.91002368927002 1.3822492361068726 2.3210136890411377 32
-14.484841346740723 1.6836384534835815 2.3009588718414307 32
-18.552976608276367 2.159778118133545 2.288706064224243 32
-21.0449161529541 2.4535911083221436 1.8503164052963257 30
-21.204938888549805 2.475999355316162 1.1168493032455444 30
-20.639442443847656 2.4136204719543457 0.3620501458644867 30
-1.9469738006591797 0.2294057458639145 -0.5150501132011414 119
-2.2974634170532227 0.27110937237739563 -0.5252610445022583 119
-2.699397563934326 0.31901681423187256 -0.5204411745071411 119
-3.318901777267456 0.3928176760673523 -0.5232737064361572 119
-4.374826431274414 0.518568754196167 -0.5362257361412048 119
-6.151539325714111 0.7302596569061279 -0.5386233329772949 119
-10.861895561218262 1.2913566827774048 -0.5693460702896118 119
-20.1876277923584 2.403654098510742 -0.3506578207015991 119
-8.73291015625 1.0413358211517334 2.3446662425994873 32
-10.076152801513672 1.203291416168213 2.3321027755737305 32
-11.90512752532959 1.4238145351409912 2.3210136890411377 32
-14.483779907226562 1.7347772121429443 2.3017401695251465 32
-18.569963455200195 2.227482557296753 2.291753053665161 32
-19.893831253051758 2.389803647994995 1.7496514320373535 30
-20.046049118041992 2.4116384983062744 1.056139588356018 30
-19.529029846191406 2.352896213531494 0.3426779806613922 30
-1.9461612701416016 0.23620055615901947 -0.5150501132011414 119
-2.2868306636810303 0.27795174717903137 -0.5230115056037903 119
-2.6982674598693848 0.32843756675720215 -0.5204411745071411 119
-3.3224122524261475 0.40499791502952576 -0.5240558981895447 119
-4.33850622177124 0.5296269655227661 -0.5319602489471436 119
-6.153896808624268 0.7523325085639954 -0.5390591025352478 119
-10.82262897491455 1.3250163793563843 -0.5675203800201416 119
-19.132110595703125 2.3457369804382324 -0.3324294686317444 119
-8.729222297668457 1.0718131065368652 2.3446662425994873 32
-10.071890830993652 1.23845636844635 2.3321027755737305 32
-11.900084495544434 1.4653624296188354 2.3210136890411377 32
-14.482537269592285 1.7859288454055786 2.3025214672088623 32
nan nan nan 0
-18.857160568237305 2.3320724964141846 1.659009575843811 30
-19.011764526367188 2.3545615673065186 1.0019718408584595 30
nan nan nan 0
-1.9453248977661133 0.24299249053001404 -0.5150501132011414 119
-2.2761781215667725 0.284723162651062 -0.520762026309967 119
-2.701974868774414 0.33846431970596313 -0.5213943719863892 119
-3.3307783603668213 0.4178222119808197 -0.5256202220916748 119
-4.346479415893555 0.546005129814148 -0.533178985118866 119
-6.151233196258545 0.7738090753555298 -0.5390591025352478 119
-10.827845573425293 1.3640344142913818 -0.568041980266571 119
-17.73006248474121 2.236682653427124 -0.30815383791923523 119
-8.720635414123535 1.101671814918518 2.3433730602264404 32
-10.062673568725586 1.2729947566986084 2.3309788703918457 32
-11.894896507263184 1.5068925619125366 2.3210136890411377 32
-14.490913391113281 1.8383359909057617 2.304865598678589 32
nan nan nan 0
-17.870555877685547 2.273420572280884 1.5727254152297974 30
-17.715618133544922 2.256852149963379 0.9339351058006287 30
-17.52354621887207 2.2354915142059326 0.307685911655426 30
-1.9444648027420044 0.24978145956993103 -0.5150501132011414 119
-2.2510101795196533 0.28955894708633423 -0.5151382088661194 119
-2.7007768154144287 0.34789392352104187 -0.5213943719863892 119
-3.334197759628296 0.43007802963256836 -0.5264024138450623 119
-4.359312057495117 0.5630810260772705 -0.5350069999694824 119
-6.148494720458984 0.7952761650085449 -0.5390591025352478 119
-10.823019027709961 1.4018223285675049 -0.568041980266571 119
-17.2957820892334 2.2432591915130615 -0.3007242679595947 119
-8.716736793518066 1.1321057081222534 2.3433730602264404 32
-10.058168411254883 1.3081122636795044 2.3309788703918457 32
-11.894431114196777 1.549038052558899 2.3219666481018066 32
-14.484408378601074 1.8889076709747314 2.304865598678589 32
-17.399036407470703 2.272091865539551 2.1497750282287598 30
-16.998199462890625 2.2227652072906494 1.4964641332626343 30
-17.068967819213867 2.235048770904541 0.9001783728599548 30
-16.67793846130371 2.186807632446289 0.29293861985206604 30
-1.9531571865081787 0.25783151388168335 -0.5176383256912231 119
-2.2644753456115723 0.2993299663066864 -0.518512487411499 119
-2.6995460987091064 0.3573192358016968 -0.5213943719863892 119
-3.347362756729126 0.44366052746772766 -0.5287489295005798 119
nan nan nan 0
-6.140743732452393 0.8160774111747742 -0.5386233329772949 119
-10.82300853729248 1.4402517080307007 -0.5683028101921082 119
-16.400821685791016 2.18542218208313 -0.2852604389190674 119
-8.707944869995117 1.1618871688842773 2.3420796394348145 32
-10.05354118347168 1.3432139158248901 2.3309788703918457 32
-11.893816947937012 1.5911988019943237 2.3229198455810547 32
-14.511990547180176 1.944046139717102 2.3103346824645996 32
-16.5351505279541 2.2180092334747314 2.0437488555908203 30
-16.21528434753418 2.1779837608337402 1.4280469417572021 30
-16.30392837524414 2.192786931991577 0.860141396522522 30
-15.931979179382324 2.1455929279327393 0.2799365818500519 30
-1.9569847583770752 0.2656380534172058 -0.5189324021339417 119
-2.2730178833007812 0.30893993377685547 -0.520762026309967 119
-2.6982181072235107 0.3672111928462982 -0.5213943719863892 119
-3.3212482929229736 0.4525921940803528 -0.5248380899429321 119
-4.369922637939453 0.5962737798690796 -0.5368350148200989 119
-6.137711048126221 0.8385788202285767 -0.5386233329772949 119
-10.812710762023926 1.479233741760254 -0.568041980266571 119
-15.674517631530762 2.1471405029296875 -0.2727338671684265 119
-8.703627586364746 1.1937956809997559 2.3420796394348145 32
-10.053377151489258 1.3807159662246704 2.3321027755737305 32
-11.892766952514648 1.635450005531311 2.3238730430603027 32
-14.504768371582031 1.9972221851348877 2.3103346824645996 32
-15.799307823181152 2.1782827377319336 1.9535653591156006 30
-15.541078567504883 2.14544415473938 1.369216799736023 30
-15.578594207763672 2.1533942222595215 0.8221978545188904 30
-15.15644359588623 2.0977370738983154 0.2664109766483307 30
-1.960829257965088 0.27313393354415894 -0.5202265381813049 119
-2.281575918197632 0.31821829080581665 -0.5230115056037903 119
-2.7017810344696045 0.37730634212493896 -0.5223475694656372 119
-3.3098666667938232 0.4628150761127472 -0.5232737064361572 119
nan nan nan 0
-6.134746551513672 0.859998345375061 -0.5386233329772949 119
-10.807480812072754 1.5169681310653687 -0.568041980266571 119
-14.78571891784668 2.077996253967285 -0.2573564052581787 119
-8.699407577514648 1.2241696119308472 2.3420796394348145 32
-10.04849624633789 1.4158004522323608 2.3321027755737305 32
-11.891846656799316 1.6776392459869385 2.324826240539551 32
-14.468367576599121 2.043696641921997 2.3056468963623047 32
-15.138070106506348 2.140988826751709 1.8725223541259766 30
-14.783865928649902 2.0935256481170654 1.3029783964157104 30
-14.794820785522461 2.0977108478546143 0.7811141014099121 30
-14.708514213562012 2.08809232711792 0.25864464044570923 30
-1.9646447896957397 0.28065982460975647 -0.5215205550193787 119
-2.285274028778076 0.3268703818321228 -0.5241362452507019 119
-2.6955888271331787 0.3860391676425934 -0.5213943719863892 119
-3.2984540462493896 0.47296392917633057 -0.5217093825340271 119
nan nan nan 0
-6.126776695251465 0.8806986212730408 -0.5381875038146973 119
-10.797178268432617 1.553972840309143 -0.5677812099456787 119
-14.441901206970215 2.081108808517456 -0.2514818608760834 0
-8.69508171081543 1.2545288801193237 2.3420796394348145 32
-10.048315048217773 1.451564073562622 2.3332266807556152 32
-11.890775680541992 1.7198415994644165 2.325779438018799 32
-13.952835083007812 2.0205774307250977 2.2243905067443848 30
-14.506759643554688 2.103379011154175 1.7951353788375854 30
-14.150445938110352 2.0542376041412354 1.2476344108581543 30
-14.298227310180664 2.0782392024993896 0.7552077770233154 30
-13.800758361816406 2.008392333984375 0.2427629679441452 30
-1.9588745832443237 0.2868163287639618 -0.5202265381813049 119
-2.2744784355163574 0.3334321975708008 -0.5218867659568787 119
-2.6942248344421387 0.39544618129730225 -0.5213943719863892 119
-3.2918968200683594 0.48375675082206726 -0.5209271907806396 119
nan nan nan 0
-6.1236653327941895 0.9020797610282898 -0.5381875038146973 119
-10.786747932434082 1.5909239053726196 -0.5675203800201416 119
-13.732270240783691 2.027804136276245 -0.2392144501209259 119
-8.690649032592773 1.2848726511001587 2.3420796394348145 32
-10.043187141418457 1.4866305589675903 2.3332266807556152 32
-11.889554977416992 1.7620574235916138 2.326732635498047 32
-13.413222312927246 1.9902606010437012 2.1392276287078857 30
-13.910266876220703 2.0664937496185303 1.7220138311386108 30
-13.719486236572266 2.0405991077423096 1.2101573944091797 30
-13.747631072998047 2.0472376346588135 0.7264230847358704 30
-13.462377548217773 2.0071606636047363 0.2369164079427719 30
-1.9483599662780762 0.2918795347213745 -0.5176383256912231 119
-2.268601417541504 0.3398542106151581 -0.520762026309967 119
-2.69296932220459 0.4039084017276764 -0.5213943719863892 119
-3.290360927581787 0.49409615993499756 -0.5209271907806396 119
-4.361400604248047 0.6557068824768066 -0.5368350148200989 119
-6.115876197814941 0.9205719828605652 -0.5377517938613892 119
-10.781697273254395 1.6248036623001099 -0.5675203800201416 119
-13.211729049682617 1.9933682680130005 -0.23022988438606262 119
-8.686570167541504 1.312168836593628 2.3420796394348145 32
-10.038467407226562 1.518174648284912 2.3332266807556152 32
-11.903371810913086 1.802340030670166 2.330545425415039 32
-12.943038940429688 1.962071180343628 2.0650033950805664 30
-13.34926700592041 2.026035785675049 1.6531575918197632 30
-13.186092376708984 2.0036251544952393 1.1635291576385498 30
-13.18825912475586 2.0063092708587646 0.697114884853363 30
-13.10510540008545 1.9959996938705444 0.23072078824043274 30
-1.9426074028015137 0.29760757088661194 -0.5163442492485046 119
-2.2529549598693848 0.34555524587631226 -0.5173877477645874 119
-2.6915431022644043 0.4133061468601227 -0.5213943719863892 119
-3.293497323989868 0.5063290596008301 -0.5217093825340271 119
-4.36398983001709 0.6716819405555725 -0.5374444127082825 119
-6.112625598907471 0.9419147372245789 -0.5377517938613892 119
-10.771024703979492 1.6616674661636353 -0.5672596096992493 119
-12.84896183013916 1.9845311641693115 -0.22400978207588196 119
-8.681936264038086 1.342482566833496 2.3420796394348145 32
-10.033106803894043 1.553206205368042 2.3332266807556152 32
-11.901859283447266 1.844631314277649 2.331498622894287 32
-12.477373123168945 1.9360586404800415 1.9915601015090942 30
-12.802682876586914 1.988823652267456 1.5861294269561768 30
-12.534260749816895 1.949366569519043 1.1064420938491821 30
-12.776612281799316 1.9893416166305542 0.6756571531295776 30
-12.258329391479492 1.9108353853225708 0.21588625013828278 30
-1.9366792440414429 0.3043147325515747 -0.5150501132011414 119
-2.241986036300659 0.352689266204834 -0.5151382088661194 119
-2.6850879192352295 0.4228743016719818 -0.5204411745071411 119
-3.3012852668762207 0.5205097198486328 -0.5232737064361572 119
-4.3368682861328125 0.6845645904541016 -0.5343976616859436 119
-6.108963966369629 0.9653785824775696 -0.5377517938613892 119
-10.764564514160156 1.7030129432678223 -0.5672596096992493 119
-12.209220886230469 1.9337496757507324 -0.21295183897018433 119
-8.676717758178711 1.3758089542388916 2.3420796394348145 32
-10.027069091796875 1.5917190313339233 2.3332266807556152 32
-11.904382705688477 1.8918581008911133 2.333405017852783 32
-11.996755599975586 1.9086848497390747 1.9157729148864746 30
-12.314657211303711 1.961466908454895 1.5264134407043457 30
-12.187284469604492 1.9433602094650269 1.0763733386993408 30
-12.216638565063477 1.9502273797988892 0.6463490128517151 30
-12.004072189331055 1.9184424877166748 0.2115231603384018 30
-1.9403736591339111 0.3118394911289215 -0.5163442492485046 119
-2.211881399154663 0.3558697998523712 -0.5083897113800049 119
-2.6835954189300537 0.4322444498538971 -0.5204411745071411 119
-3.304323434829712 0.5328162312507629 -0.5240558981895447 119
-4.358949184417725 0.7036533355712891 -0.5374444127082825 119
-6.100639343261719 0.9859022498130798 -0.5373159646987915 119
-10.758554458618164 1.7405779361724854 -0.5672596096992493 119
-11.847081184387207 1.9188073873519897 -0.20673175156116486 30
-8.676630020141602 1.4068608283996582 2.3433730602264404 32
-10.021451950073242 1.626710295677185 2.3332266807556152 32
-11.776588439941406 1.9137187004089355 2.309575319290161 32
-11.561064720153809 1.8807668685913086 1.8470176458358765 30
-11.906084060668945 1.939028024673462 1.4764469861984253 30
-11.733064651489258 1.912952184677124 1.0367175340652466 30
-11.79088306427002 1.92449152469635 0.6241062879562378 30
-11.602595329284668 1.8958452939987183 0.20454218983650208 30
-1.9392733573913574 0.3186107575893402 -0.5163442492485046 119
-2.234661817550659 0.3675418198108673 -0.5140134692192078 119
-2.6772267818450928 0.4408118426799774 -0.5194879770278931 119
-3.307316303253174 0.5451505184173584 -0.5248380899429321 119
-4.346673965454102 0.7172487378120422 -0.5362257361412048 119
-6.097160816192627 1.0071914196014404 -0.5373159646987915 119
-10.742559432983398 1.7764922380447388 -0.566737949848175 119
-11.4704008102417 1.898911714553833 -0.2002524882555008 30
-8.671666145324707 1.4371393918991089 2.3433730602264404 32
-10.025323867797852 1.6632764339447021 2.3354742527008057 32
-11.397004127502441 1.892892599105835 2.2361795902252197 30
-11.189051628112793 1.860361099243164 1.7884193658828735 30
-11.488031387329102 1.912131905555725 1.4252618551254272 30
-11.352910995483398 1.8916778564453125 1.0035983324050903 30
-11.419634819030762 1.9048445224761963 0.6047419309616089 30
-11.231017112731934 1.8753970861434937 0.19808480143547058 30
-1.9381494522094727 0.3253781497478485 -0.5163442492485046 119
-2.24777889251709 0.3777623772621155 -0.5173877477645874 119
-2.6708316802978516 0.4493401348590851 -0.5185348391532898 119
-3.300523281097412 0.5558716654777527 -0.5240558981895447 119
-4.344143390655518 0.732417106628418 -0.5362257361412048 119
-6.088696479797363 1.027639389038086 -0.5368801951408386 119
-10.73629379272461 1.8139798641204834 -0.566737949848175 119
-11.123584747314453 1.8814126253128052 -0.19429156184196472 30
-8.671359062194824 1.468206763267517 2.3446662425994873 32
-10.033867835998535 1.7007038593292236 2.338846206665039 32
-11.003196716308594 1.8669772148132324 2.1599247455596924 30
-10.841670036315918 1.8415167331695557 1.7337275743484497 30
-11.129026412963867 1.8923240900039673 1.3813890218734741 30
-10.992692947387695 1.8711168766021729 0.9722223281860352 30
-11.048672676086426 1.8826299905776978 0.5853776335716248 30
-10.879438400268555 1.8557472229003906 0.19197645783424377 30
-1.9417619705200195 0.33295780420303345 -0.5176383256912231 119
-2.2608513832092285 0.388078898191452 -0.520762026309967 119
-2.6692469120025635 0.4586603045463562 -0.5185348391532898 119
-3.29856276512146 0.567389190196991 -0.5240558981895447 119
-4.336669445037842 0.7467343211174011 -0.535616397857666 119
-6.075255393981934 1.0471946001052856 -0.5360086560249329 119
-10.690532684326172 1.8446532487869263 -0.5646514892578125 119
-10.767181396484375 1.8598144054412842 -0.1881578415632248 30
-8.670940399169922 1.4992893934249878 2.345959424972534 32
-10.032671928405762 1.7365492582321167 2.339970111846924 32
-10.687093734741211 1.8517440557479858 2.0989208221435547 30
-10.514025688171387 1.823646903038025 1.6821610927581787 30
-10.784972190856934 1.8725812435150146 1.3393440246582031 30
-10.65239143371582 1.851476788520813 0.9425893425941467 30
-10.712445259094238 1.8638408184051514 0.5678451061248779 30
-10.53798770904541 1.8353822231292725 0.1860426366329193 30
-1.9405879974365234 0.3397337794303894 -0.5176383256912231 119
-2.273879051208496 0.3984912633895874 -0.5241362452507019 119
-2.662795066833496 0.4671267867088318 -0.517581582069397 119
-3.2916982173919678 0.5780457854270935 -0.5232737064361572 119
-4.334036827087402 0.7618675827980042 -0.535616397857666 119
-6.066657543182373 1.0675315856933594 -0.53557288646698 119
-10.566009521484375 1.8611702919006348 -0.5583921074867249 119
-10.406147003173828 1.8348835706710815 -0.18193775415420532 30
-8.670411109924316 1.530387043952942 2.34725284576416 32
-10.036144256591797 1.773254632949829 2.3422179222106934 32
-10.380900382995605 1.836037039756775 2.039823055267334 30
-10.210955619812012 1.8078172206878662 1.6345012187957764 30
-10.455855369567871 1.853058099746704 1.2991271018981934 30
-10.346696853637695 1.8355748653411865 0.9160069227218628 30
-10.401067733764648 1.8470933437347412 0.5516209602355957 30
-10.201738357543945 1.813531756401062 0.18019609153270721 30
-1.9393901824951172 0.34650564193725586 -0.5176383256912231 119
-2.253291368484497 0.40299534797668457 -0.5196372270584106 119
-2.6659798622131348 0.4772838354110718 -0.5185348391532898 119
-3.289660692214966 0.5895324349403381 -0.5232737064361572 119
-4.326465606689453 0.7761152386665344 -0.5350069999694824 119
-6.057991027832031 1.087821125984192 -0.5351370573043823 119
-10.244924545288086 1.8415061235427856 -0.5417003035545349 119
-10.094623565673828 1.816308617591858 -0.17658156156539917 30
-8.669769287109375 1.5614991188049316 2.348546028137207 32
-10.029891967773438 1.8082764148712158 2.3422179222106934 32
-10.074950218200684 1.8182154893875122 1.9807251691818237 30
-9.917847633361816 1.791650652885437 1.5884039402008057 30
-10.1660795211792 1.8383257389068604 1.2637850046157837 30
-10.041244506835938 1.8175619840621948 0.8894243836402893 30
-10.065376281738281 1.8237444162368774 0.5340884327888489 30
-9.914963722229004 1.7982784509658813 0.17522215843200684 30
-1.9381688833236694 0.35327327251434326 -0.5176383256912231 119
-2.25187087059021 0.4108583331108093 -0.5196372270584106 119
-2.66912579536438 0.48746874928474426 -0.5194879770278931 119
-3.2875828742980957 0.6010119318962097 -0.5232737064361572 119
-4.318848609924316 0.7903193831443787 -0.5343976616859436 119
-6.054156303405762 1.1089608669281006 -0.5351370573043823 119
-9.95357608795166 1.825026512145996 -0.5265733599662781 119
-9.803028106689453 1.7991915941238403 -0.17157092690467834 30
-8.669015884399414 1.592625617980957 2.349839448928833 32
-9.841434478759766 1.8097918033599854 2.2995095252990723 30
-9.793392181396484 1.8027241230010986 1.9263935089111328 30
-9.649264335632324 1.7779350280761719 1.546213150024414 30
-9.866775512695312 1.8197932243347168 1.2272242307662964 30
-9.760540008544922 1.8019611835479736 0.865020751953125 30
-9.788897514343262 1.8089631795883179 0.5196959972381592 30
-9.643169403076172 1.78377366065979 0.17050999402999878 30
-1.9416720867156982 0.36091917753219604 -0.5189324021339417 119
-2.2408435344696045 0.4169340133666992 -0.5173877477645874 119
-2.667407989501953 0.49678272008895874 -0.5194879770278931 119
-3.2854647636413574 0.6124840378761292 -0.5232737064361572 119
-4.316063404083252 0.8053901791572571 -0.5343976616859436 119
-6.055145740509033 1.1310017108917236 -0.53557288646698 119
-9.67228889465332 1.8083717823028564 -0.5119680762290955 119
-9.555904388427734 1.7883381843566895 -0.1673378050327301 30
-8.66815185546875 1.6237658262252808 2.35113263130188 32
-9.595627784729004 1.799239158630371 2.243314266204834 30
-9.531364440917969 1.7889115810394287 1.875874638557434 30
-9.376049041748047 1.7614550590515137 1.5032410621643066 30
-9.606745719909668 1.8065314292907715 1.1955381631851196 30
-9.499649047851562 1.7881087064743042 0.842360258102417 30
-9.267308235168457 1.746050238609314 0.4922196567058563 30
-9.37651538848877 1.7683205604553223 0.16588512063026428 30
-1.9404003620147705 0.3676946759223938 -0.5189324021339417 119
-2.2393746376037598 0.42475345730781555 -0.5173877477645874 119
-2.6704800128936768 0.5070062875747681 -0.5204411745071411 119
-3.2881579399108887 0.6248706579208374 -0.5240558981895447 119
-4.318100929260254 0.8213785290718079 -0.5350069999694824 119
-6.05605411529541 1.1530628204345703 -0.5360086560249329 119
-9.371623039245605 1.7860368490219116 -0.4963195025920868 119
-9.274604797363281 1.769224762916565 -0.16249996423721313 30
-8.66717529296875 1.654919147491455 2.3524258136749268 32
-9.31173324584961 1.7796764373779297 2.1781277656555176 30
-9.284018516540527 1.7760590314865112 1.82821524143219 30
-9.112768173217773 1.744947075843811 1.4618315696716309 30
-9.356680870056152 1.793345332145691 1.1650707721710205 30
-9.209628105163574 1.76682710647583 0.8170850872993469 30
-9.045400619506836 1.7369576692581177 0.48070570826530457 30
-9.15918254852295 1.7604644298553467 0.1621328443288803 30
-1.9391050338745117 0.3744657039642334 -0.5189324021339417 119
-2.2330946922302246 0.43164312839508057 -0.516262948513031 119
-2.668694019317627 0.5163249373435974 -0.5204411745071411 119
-3.2908053398132324 0.6372836232185364 -0.5248380899429321 119
-4.320079803466797 0.8373909592628479 -0.535616397857666 119
-6.056881427764893 1.175144076347351 -0.5364444255828857 119
-9.183971405029297 1.7835191488265991 -0.4866696000099182 119
-9.086799621582031 1.7662941217422485 -0.15930353105068207 30
-8.661345481872559 1.685163140296936 2.3524258136749268 32
-9.071136474609375 1.7665358781814575 2.123056411743164 30
-9.017609596252441 1.7577455043792725 1.776742935180664 30
-8.786707878112793 1.7143292427062988 1.4102650880813599 30
-9.131180763244629 1.7831920385360718 1.1376502513885498 30
-9.0127534866333 1.7616980075836182 0.8000896573066711 30
-9.034381866455078 1.7675626277923584 0.4804440438747406 30
-8.902772903442383 1.74342679977417 0.15768247842788696 30
-1.9377861022949219 0.3812321722507477 -0.5189324021339417 119
-2.231574296951294 0.4394354522228241 -0.516262948513031 119
-2.6716909408569336 0.5265863537788391 -0.5213943719863892 119
-3.2885608673095703 0.6487667560577393 -0.5248380899429321 119
-4.321999549865723 0.8534271717071533 -0.5362257361412048 119
-6.057629108428955 1.1972451210021973 -0.5368801951408386 119
-9.060132026672363 1.7923105955123901 -0.4804101884365082 119
-8.835376739501953 1.749450922012329 -0.1549840271472931 30
-8.64593505859375 1.7135087251663208 2.349839448928833 32
-8.830747604370117 1.7517380714416504 2.0679850578308105 30
-8.76107406616211 1.7395062446594238 1.7271771430969238 30
-8.67410659790039 1.723812460899353 1.3930763006210327 30
-8.88640022277832 1.7676141262054443 1.1077923774719238 30
-8.796491622924805 1.751326322555542 0.7813512682914734 30
-8.802901268005371 1.754199743270874 0.4684067964553833 30
-8.700526237487793 1.7353777885437012 0.1541920006275177 30
-1.936443567276001 0.3879939615726471 -0.5189324021339417 119
-2.230026960372925 0.44722241163253784 -0.516262948513031 119
-2.6698365211486816 0.5359090566635132 -0.5213943719863892 119
-3.28627610206604 0.6602420210838318 -0.5248380899429321 119
-4.318994522094727 0.8685085773468018 -0.5362257361412048 119
-6.053412914276123 1.2183829545974731 -0.5368801951408386 119
-8.735655784606934 1.7598298788070679 -0.4634576141834259 119
-8.628289222717285 1.7397676706314087 -0.1514420062303543 30
-8.616228103637695 1.7389006614685059 2.3433730602264404 30
-8.604902267456055 1.738178014755249 2.0162856578826904 30
-8.533644676208496 1.7253344058990479 1.6833305358886719 30
-8.474416732788086 1.7148993015289307 1.3618239164352417 30
-8.636977195739746 1.7493644952774048 1.0773249864578247 30
-8.590176582336426 1.7414460182189941 0.7634843587875366 30
-8.596094131469727 1.7442076206207275 0.4576779305934906 30
-8.483748435974121 1.7229536771774292 0.15043973922729492 30
-1.935077428817749 0.39475107192993164 -0.5189324021339417 119
-2.228452205657959 0.455003947019577 -0.516262948513031 119
-2.667949676513672 0.5452252626419067 -0.5213943719863892 119
-3.2791130542755127 0.6707196235656738 -0.5240558981895447 119
-4.311074256896973 0.8825839757919312 -0.535616397857666 119
-6.049123287200928 1.2395057678222656 -0.5368801951408386 119
-8.587608337402344 1.7612203359603882 -0.4558941423892975 119
-8.308746337890625 1.7055400609970093 -0.1459130346775055 30
-8.40194034576416 1.7261983156204224 2.2864699363708496 30
-8.379261016845703 1.7230629920959473 1.964585781097412 30
-8.320845603942871 1.7125645875930786 1.6423434019088745 30
-8.19750690460205 1.6886707544326782 1.3180705308914185 30
-8.38779354095459 1.7293956279754639 1.0468575954437256 30
-8.242570877075195 1.7009533643722534 0.7329797744750977 30
-8.379685401916504 1.7307735681533813 0.4464256763458252 30
-8.183938980102539 1.6918326616287231 0.14520400762557983 30
-1.933687686920166 0.401503324508667 -0.5189324021339417 119
-2.2268505096435547 0.4627799093723297 -0.516262948513031 119
-2.666030168533325 0.5545348525047302 -0.5213943719863892 119
-3.2719173431396484 0.6811553239822388 -0.5232737064361572 119
-4.298250198364258 0.8956023454666138 -0.5343976616859436 119
-6.044759273529053 1.2606136798858643 -0.5368801951408386 119
-8.2392578125 1.7197692394256592 -0.43763747811317444 30
-8.170615196228027 1.7069296836853027 -0.14358049631118774 30
-8.183121681213379 1.7110331058502197 2.228273630142212 30
-8.163370132446289 1.7083903551101685 1.9151339530944824 30
-8.117851257324219 1.700343370437622 1.6032626628875732 30
-8.022390365600586 1.681809902191162 1.290724754333496 30
-8.167999267578125 1.7138237953186035 1.020046353340149 30
-8.075719833374023 1.6959329843521118 0.7185990810394287 30
-8.187911033630371 1.7209858894348145 0.43648186326026917 30
-8.041003227233887 1.6915732622146606 0.14276066422462463 30
-1.932274341583252 0.40825071930885315 -0.5189324021339417 119
-2.2252213954925537 0.4705502390861511 -0.516262948513031 119
-2.6640782356262207 0.5638376474380493 -0.5213943719863892 119
-3.26468825340271 0.6915488243103027 -0.5224915146827698 119
-4.290243148803711 0.9095713496208191 -0.5337883234024048 119
-6.035449981689453 1.2806721925735474 -0.5364444255828857 119
-8.047603607177734 1.7091023921966553 -0.42772677540779114 30
-7.959226608276367 1.6917850971221924 -0.13995210826396942 30
-8.002305030822754 1.7024016380310059 2.1804232597351074 30
-7.976279258728027 1.6983201503753662 1.8724256753921509 30
-7.934247016906738 1.690818190574646 1.5679947137832642 30
-7.813612937927246 1.6665362119674683 1.2579096555709839 30
-7.962978363037109 1.6998469829559326 0.9950631856918335 30
-7.923620223999023 1.692891240119934 0.7055257558822632 30
-7.96701192855835 1.7036160230636597 0.4249679446220398 30
-7.8541741371154785 1.6809210777282715 0.13953198492527008 30
-1.926115870475769 0.4139782786369324 -0.5176383256912231 119
-2.2235653400421143 0.4783148467540741 -0.516262948513031 119
-2.6572957038879395 0.5721005797386169 -0.5204411745071411 119
-3.262254476547241 0.7029405236244202 -0.5224915146827698 119
-4.267637252807617 0.920356810092926 -0.5313509702682495 119
-6.030942440032959 1.301732063293457 -0.5364444255828857 119
-7.8414835929870605 1.693955659866333 -0.4170336127281189 119
-7.7724785804748535 1.6804686784744263 -0.13675568997859955 30
-7.802769184112549 1.6884434223175049 2.1273999214172363 30
-7.7750749588012695 1.6838712692260742 1.8263455629348755 30
-7.731623649597168 1.6758736371994019 1.528913974761963 30
-7.638826370239258 1.657155156135559 1.230563759803772 30
-7.763006687164307 1.6855133771896362 0.9706892371177673 30
-7.722967147827148 1.6782314777374268 0.6880946159362793 30
-7.765852928161621 1.6889702081680298 0.41450074315071106 30
-7.677288055419922 1.6711119413375854 0.13647781312465668 30
-1.924659013748169 0.42069917917251587 -0.5176383256912231 119
-2.2218821048736572 0.4860736131668091 -0.516262948513031 119
-2.655282497406006 0.5813727974891663 -0.5204411745071411 119
-3.2597808837890625 0.7143236398696899 -0.5224915146827698 119
-4.293483257293701 0.941626787185669 -0.5350069999694824 119
-6.026362419128418 1.3227760791778564 -0.5364444255828857 119
-7.669708728790283 1.684890866279602 -0.4081660807132721 119
-7.610320568084717 1.6732369661331177 -0.13399119675159454 30
-7.617582321166992 1.676227331161499 2.078256368637085 30
-7.6121344566345215 1.6764216423034668 1.7892566919326782 30
-7.572342872619629 1.669044017791748 1.498412013053894 30
-7.473848819732666 1.6487023830413818 1.2047805786132812 30
-7.6020026206970215 1.6783641576766968 0.951190173625946 30
-7.556561470031738 1.6697149276733398 0.6737139225006104 30
-7.599023342132568 1.6804884672164917 0.40586531162261963 30
-7.485926151275635 1.6568479537963867 0.13316184282302856 30
-1.9184643030166626 0.4263671338558197 -0.5163442492485046 119
-2.2201719284057617 0.4938264787197113 -0.516262948513031 119
-2.6484456062316895 0.5895712971687317 -0.5194879770278931 119
-3.257267475128174 0.7256980538368225 -0.5224915146827698 119
-4.295014381408691 0.9576881527900696 -0.535616397857666 119
-6.021708011627197 1.343803882598877 -0.5364444255828857 119
