# .PCD v0.7 - Point Cloud Data file format
VERSION 0.7
FIELDS x y z intensity
SIZE 4 4 4 4
TYPE F F F F
COUNT 1 1 1 1
WIDTH 782
HEIGHT 1
VIEWPOINT 0 0 0 1 0 0 0
POINTS 782
DATA ascii
-1.8534386157989502 -0.7662040591239929 -0.1027587428689003 50
-1.8465384244918823 -0.7629741430282593 -0.033864956349134445 50
-1.8656498193740845 -0.7704896926879883 0.5302334427833557 50
-1.8862777948379517 -0.7786235213279724 0.4619249403476715 50
-1.8729643821716309 -0.7727453112602234 0.3860412538051605 50
-1.8844349384307861 -0.7770929336547852 0.3164306581020355 50
-1.8523198366165161 -0.7634713053703308 0.2413012832403183 50
-1.886765480041504 -0.7772834897041321 0.17518304288387299 50
-1.8683412075042725 -0.7693119049072266 0.10388687252998352 50
-1.8568425178527832 -0.7641981840133667 0.034381236881017685 50
-1.7912214994430542 -0.7353641390800476 -0.5085796117782593 119
-1.8968441486358643 -0.7783393263816833 -0.4645242393016815 119
-1.883661150932312 -0.7725458741188049 -0.3879478871822357 0
-1.8768683671951294 -0.7693772912025452 -0.31521567702293396 50
-1.8952447175979614 -0.7765239477157593 -0.24678568542003632 50
-1.888389229774475 -0.7733302116394043 -0.17518331110477448 50
-1.8838284015655518 -0.7710784673690796 -0.1043236032128334 50
-1.8862066268920898 -0.7716675996780396 -0.034556079655885696 50
-1.899621844291687 -0.7767689824104309 0.539286196231842 50
-1.9205535650253296 -0.7849368453025818 0.4697922468185425 50
-1.9074572324752808 -0.7791958451271057 0.3927135765552521 50
-1.9191412925720215 -0.7835779786109924 0.3218998610973358 50
-1.8779476881027222 -0.7663764357566833 0.24434801936149597 50
-1.9171397686004639 -0.781980037689209 0.17779771983623505 50
-1.9033809900283813 -0.7759805917739868 0.10571862757205963 50
-1.9011653661727905 -0.7746903300285339 0.03516659513115883 50
-1.7937774658203125 -0.729107141494751 -0.5085796117782593 119
-1.926630973815918 -0.7827155590057373 -0.4712727665901184 119
-1.9090847969055176 -0.7751990556716919 -0.39271384477615356 0
-1.9024221897125244 -0.7721068859100342 -0.31912657618522644 50
-1.9347339868545532 -0.7848275303840637 -0.2516604959964752 50
-1.937237024307251 -0.785449206829071 -0.17954111099243164 50
-1.9235296249389648 -0.7795006632804871 -0.10641007125377655 50
-1.9352246522903442 -0.7838467955589294 -0.03541998192667961 50
-1.9381369352340698 -0.784632682800293 0.54963219165802 50
-1.954896092414856 -0.7910203337669373 0.4776596128940582 50
-1.9420171976089478 -0.7854146361351013 0.39938589930534363 50
-1.9584938287734985 -0.7916806936264038 0.32815033197402954 50
-1.9266252517700195 -0.7784072756767273 0.2504414916038513 50
-1.9521878957748413 -0.7883388996124268 0.18084818124771118 50
-1.943119764328003 -0.7842826247215271 0.1078120619058609 50
-1.9409476518630981 -0.7830119729042053 0.0358646959066391 50
-1.796311616897583 -0.7228412628173828 -0.5085796117782593 119
-1.9655109643936157 -0.7905290126800537 -0.4802708029747009 119
-1.9527661800384521 -0.785007119178772 -0.4012925624847412 0
-1.9509295225143433 -0.7838732600212097 -0.32694828510284424 50
-1.9789087772369385 -0.794714093208313 -0.25714460015296936 50
-1.9815696477890015 -0.7953810691833496 -0.18346312642097473 50
-1.958678126335144 -0.7857957482337952 -0.10823573917150497 50
-1.9797102212905884 -0.7938324213027954 -0.036197494715452194 50
-1.9722462892532349 -0.790440022945404 0.5586849451065063 50
-1.9893038272857666 -0.7968734502792358 0.4855269193649292 50
-1.9812003374099731 -0.7932260632514954 0.4070114195346832 50
-2.0025110244750977 -0.8013529181480408 0.3351821303367615 50
-1.9661931991577148 -0.7864212989807129 0.25531625747680664 50
-1.9826782941818237 -0.7926135063171387 0.18346284329891205 50
-1.9783024787902832 -0.7904637455940247 0.10964382439851761 50
-1.9947384595870972 -0.7966273427009583 0.03682457283139229 50
-1.7988238334655762 -0.7165665030479431 -0.5085796117782593 119
-2.0044686794281006 -0.7980803847312927 -0.48926883935928345 119
-1.9919780492782593 -0.7927044630050659 -0.4089180827140808 0
-1.9949531555175781 -0.793485164642334 -0.33398786187171936 50
-2.027787685394287 -0.8061349987983704 -0.2632380723953247 50
-2.025994062423706 -0.8050126433372498 -0.18738512694835663 50
-1.9938932657241821 -0.7918546795845032 -0.1100613996386528 50
-2.0242879390716553 -0.8035166263580322 -0.03697500377893448 50
-2.0064196586608887 -0.796018660068512 0.5677376985549927 50
-2.0237765312194824 -0.8024959564208984 0.49339425563812256 50
-2.015897750854492 -0.7989646792411804 0.4136837124824524 50
-2.0282533168792725 -0.8034519553184509 0.33908867835998535 50
-2.0104544162750244 -0.7959953546524048 0.2608003616333008 50
-2.0178534984588623 -0.7985175251960754 0.1865132749080658 50
-2.0181946754455566 -0.7982451915740967 0.11173726618289948 50
-2.016103506088257 -0.797011137008667 0.037173621356487274 50
-1.8013142347335815 -0.710283100605011 -0.5085796117782593 119
-2.0480353832244873 -0.8071556687355042 -0.4993916451931 119
-2.0312671661376953 -0.8001375198364258 -0.416543573141098 0
-2.039067029953003 -0.802798867225647 -0.3410274386405945 50
-2.0536797046661377 -0.8081380724906921 -0.2662848234176636 50
-2.0334274768829346 -0.7997588515281677 -0.1878209114074707 50
-2.0338215827941895 -0.7995040416717529 -0.11214786767959595 50
-2.036386489868164 -0.8001019358634949 -0.03714778274297714 50
-2.0271685123443604 -0.7960718274116516 0.572910726070404 50
-2.049241304397583 -0.8043270707130432 0.4990138113498688 50
-2.0323824882507324 -0.7973006963729858 0.41654327511787415 50
-2.0448389053344727 -0.8017755150794983 0.3414326012134552 50
-2.0224618911743164 -0.7925942540168762 0.2620190680027008 50
-2.0438179969787598 -0.8005521893501282 0.18869218230247498 50
-2.0349173545837402 -0.7966562509536743 0.11252229660749435 50
-2.0374956130981445 -0.7972555756568909 0.03752266988158226 50
-1.808281660079956 -0.7057470083236694 -0.5098737478256226 119
-2.0735340118408203 -0.8088541626930237 -0.5050153732299805 119
-2.052340030670166 -0.8001740574836731 -0.4203563332557678 119
-2.0510597229003906 -0.7992625832557678 -0.3425917625427246 50
-2.0796098709106445 -0.809969961643219 -0.26933157444000244 50
-2.0547733306884766 -0.7998836040496826 -0.1895640343427658 50
-2.0505599975585938 -0.7978313565254211 -0.1129302978515625 50
-2.053145170211792 -0.7984246015548706 -0.037406954914331436 50
-2.043440341949463 -0.7942401170730591 0.5767905116081238 50
-2.061119556427002 -0.8006974458694458 0.5012615919113159 50
-2.053455114364624 -0.7973076105117798 0.42035603523254395 50
-2.0614373683929443 -0.7999929785728455 0.34377655386924744 50
-2.0390968322753906 -0.7909137010574341 0.26384711265563965 50
-2.0698211193084717 -0.8024153113365173 0.19087108969688416 50
-2.0516536235809326 -0.7949603199958801 0.11330734193325043 50
-2.0542516708374023 -0.7955546975135803 0.037784457206726074 50
-1.8107341527938843 -0.6994305849075317 -0.5098737478256226 119
-2.089979648590088 -0.8068752884864807 -0.5083897113800049 119
-2.0688583850860596 -0.7983060479164124 -0.42321592569351196 119
-2.0768752098083496 -0.800983190536499 -0.3465026021003723 50
-2.096316337585449 -0.8080606460571289 -0.2711595892906189 50
-2.0714969635009766 -0.7980784177780151 -0.19087137281894684 50
-2.0719711780548096 -0.7978459000587463 -0.11397353559732437 50
-2.074582099914551 -0.7984354496002197 -0.03775251656770706 50
-2.0642316341400146 -0.7940383553504944 0.5819635391235352 50
-2.082091808319092 -0.8004913926124573 0.505757212638855 50
-2.0699708461761475 -0.7954166531562805 0.4232156276702881 50
-2.07804799079895 -0.7981041669845581 0.3461204767227173 50
-2.060377597808838 -0.7909050583839417 0.2662844955921173 50
-2.0865604877471924 -0.8005378842353821 0.192178413271904 50
-2.0730645656585693 -0.7949448823928833 0.11435405910015106 50
-2.0710208415985107 -0.7937466502189636 0.03804624453186989 50
-1.8131647109985352 -0.6931056380271912 -0.5098737478256226 119
-2.110987424850464 -0.8065300583839417 -0.5128887295722961 119
-2.08538818359375 -0.7963324785232544 -0.42607545852661133 119
-2.098113775253296 -0.8007723689079285 -0.34963130950927734 50
-2.113034725189209 -0.8060445785522461 -0.27298763394355774 50
-2.0928869247436523 -0.7979405522346497 -0.19261449575424194 50
-2.0887413024902344 -0.7959425449371338 -0.11475596576929092 50
-2.091372489929199 -0.796527087688446 -0.038011688739061356 50
-2.0805323123931885 -0.7919827103614807 0.5858432650566101 50
-2.098534107208252 -0.7984160780906677 0.5091289281845093 50
-2.0864980220794678 -0.7934198975563049 0.42607516050338745 50
-2.0992870330810547 -0.7978637218475342 0.34924569725990295 50
-2.0770440101623535 -0.788995087146759 0.26811254024505615 50
-2.107969045639038 -0.8003214597702026 0.1939215213060379 50
-2.089832067489624 -0.7930181622505188 0.11513910442590714 50
-2.0924761295318604 -0.7936038374900818 0.038395293056964874 50
-1.81557297706604 -0.6867722868919373 -0.5098737478256226 119
-2.1320180892944336 -0.8060479164123535 -0.5173877477645874 119
-2.1019294261932373 -0.7942531704902649 -0.42893505096435547 119
-2.1193759441375732 -0.8004229068756104 -0.35275998711586 50
-2.1297640800476074 -0.8039215207099915 -0.2748156785964966 50
-2.1143007278442383 -0.7976629734039307 -0.19435760378837585 50
-2.1101953983306885 -0.7956934571266174 -0.1157992035150528 50
-2.112852096557617 -0.7962740659713745 -0.03835725039243698 50
-2.096843719482422 -0.7898229956626892 0.5897230505943298 50
-2.119546890258789 -0.7979523539543152 0.5136245489120483 50
-2.1076302528381348 -0.7930461168289185 0.42988792061805725 50
-2.115926742553711 -0.7957462072372437 0.3515896499156952 50
-2.0983667373657227 -0.788724422454834 0.2705499529838562 50
-2.1294009685516357 -0.7999652028083801 0.19566462934017181 50
-2.1112852096557617 -0.7927391529083252 0.11618582159280777 50
-2.1092748641967773 -0.7915642857551575 0.03865707665681839 50
-1.817959189414978 -0.6804305911064148 -0.5098737478256226 119
-2.148507833480835 -0.8037217259407043 -0.520762026309967 119
-2.118481397628784 -0.7920679450035095 -0.43179458379745483 119
-2.136035203933716 -0.7982060313224792 -0.35510653257369995 50
-2.151153564453125 -0.8034278154373169 -0.27725306153297424 50
-2.1310715675354004 -0.795503556728363 -0.19566494226455688 50
-2.1269943714141846 -0.7935587167739868 -0.11658161878585815 50
-2.129671335220337 -0.7941340208053589 -0.03861641883850098 50
-2.1176910400390625 -0.7892457246780396 0.5948960185050964 50
-2.136016368865967 -0.795650839805603 0.5169962644577026 50
-2.1287853717803955 -0.7925342321395874 0.43370065093040466 50
-2.1372056007385254 -0.7952443957328796 0.35471490025520325 50
-2.119713068008423 -0.7883144021034241 0.27298733592033386 50
-2.150855541229248 -0.7994689345359802 0.19740775227546692 50
-2.1280813217163086 -0.7905810475349426 0.11697085201740265 50
-2.1307716369628906 -0.7911572456359863 0.039006125181913376 50
-1.8203232288360596 -0.6740806102752686 -0.5098737478256226 119
-2.160438060760498 -0.7995991110801697 -0.5230115056037903 119
-2.1396472454071045 -0.7914797067642212 -0.43560734391212463 119
-2.157336473464966 -0.7975951433181763 -0.3582352101802826 50
-2.167910575866699 -0.8010743856430054 -0.2790811061859131 50
-2.1525251865386963 -0.7949624061584473 -0.1974080502986908 50
-2.148488759994507 -0.7930454611778259 -0.11762485653162003 50
-2.151191234588623 -0.7936164736747742 -0.038961976766586304 50
-2.138559579849243 -0.7885324358940125 0.6000690460205078 50
-2.157066583633423 -0.7949287295341492 0.5214918851852417 50
-2.1499619483947754 -0.7918842434883118 0.43751341104507446 50
-2.1585066318511963 -0.7946037650108337 0.3578401207923889 50
-2.1364243030548096 -0.7860512137413025 0.2748153507709503 50
-2.172333002090454 -0.7988325953483582 0.19915086030960083 50
-2.1495745182037354 -0.7900378108024597 0.11801756918430328 50
-2.1522910594940186 -0.7906098365783691 0.03935517370700836 50
-1.8181302547454834 -0.6660610437393188 -0.5085796117782593 119
-2.1677908897399902 -0.7937279939651489 -0.5241362452507019 119
-2.1562252044677734 -0.7890664935112 -0.4384669363498688 119
-2.1740214824676514 -0.7951487898826599 -0.36058175563812256 50
-2.189337730407715 -0.8003175854682922 -0.28151848912239075 50
-2.1740012168884277 -0.7942810654640198 -0.1991511732339859 50
-2.1700048446655273 -0.7923917770385742 -0.1186680942773819 50
-2.1727335453033447 -0.7929584383964539 -0.03930753841996193 50
-2.1594486236572266 -0.7876828908920288 0.6052420139312744 50
-2.1781375408172607 -0.794069230556488 0.5259875059127808 50
-2.1711602210998535 -0.7910962104797363 0.44132620096206665 50
-2.1798288822174072 -0.7938238978385925 0.360965371131897 50
-2.157809019088745 -0.7853783965110779 0.277252733707428 50
-2.1938319206237793 -0.7980560660362244 0.20089399814605713 50
-2.1710896492004395 -0.7893540859222412 0.11906429380178452 50
-2.1738321781158447 -0.7899216413497925 0.03970422223210335 50
-1.820444107055664 -0.6597105264663696 -0.5085796117782593 119
-2.1705482006073 -0.786156177520752 -0.5241362452507019 119
-2.172811985015869 -0.7865471243858337 -0.4413264989852905 119
-2.1907153129577637 -0.792595624923706 -0.36292824149131775 50
-2.2107858657836914 -0.7994207143783569 -0.2839558720588684 50
-2.1908137798309326 -0.7917664647102356 -0.20045851171016693 50
-2.1868464946746826 -0.7899011373519897 -0.11945052444934845 50
-2.1942970752716064 -0.7921594977378845 -0.039653100073337555 50
-2.184900999069214 -0.7883363962173462 0.6117083430290222 50
-2.194645643234253 -0.791419506072998 0.5293592214584351 50
-2.192378520965576 -0.7901695370674133 0.44513896107673645 50
-2.196525812149048 -0.7912311553955078 0.3633093237876892 50
-2.1745455265045166 -0.7828845977783203 0.2790807783603668 50
-2.2153513431549072 -0.7971389889717102 0.20263710618019104 50
-2.187927484512329 -0.7868399620056152 0.11984933912754059 50
-2.190690040588379 -0.7874016165733337 0.03996600955724716 50
-1.8272823095321655 -0.6549816131591797 -0.5098737478256226 119
-2.177865743637085 -0.7802177667617798 -0.5252610445022583 119
-2.194028377532959 -0.7855761051177979 -0.4451392590999603 119
-2.2074177265167236 -0.7899354696273804 -0.3652747869491577 50
-2.227581739425659 -0.7967127561569214 -0.28578394651412964 50
-2.21232533454895 -0.7908207774162292 -0.20220163464546204 50
-2.2083988189697266 -0.7889824509620667 -0.12049376219511032 50
-2.215881586074829 -0.7912197113037109 -0.03999866172671318 50
-2.210383653640747 -0.7888216376304626 0.6181745529174805 50
-2.215750217437744 -0.7903008460998535 0.5338548421859741 50
-2.2136166095733643 -0.7891043424606323 0.44895169138908386 50
-2.2178828716278076 -0.7901889085769653 0.3664345443248749 50
-2.1912906169891357 -0.7802836298942566 0.28090885281562805 50
-2.2321982383728027 -0.7944112420082092 0.20394442975521088 50
-2.2094786167144775 -0.7858911156654358 0.12089605629444122 50
-2.2122669219970703 -0.7864479422569275 0.04031505808234215 50
-1.8386616706848145 -0.6518267393112183 -0.5124619007110596 119
-2.1851680278778076 -0.7742379903793335 -0.5263857841491699 119
-2.2106375694274902 -0.7828279733657837 -0.4479987919330597 119
-2.224127769470215 -0.7871682643890381 -0.3676212728023529 50
-2.249063491821289 -0.7955519556999207 -0.2882213294506073 50
-2.2338571548461914 -0.7897343635559082 -0.20394474267959595 50
-2.229971170425415 -0.7879227995872498 -0.1215369924902916 50
-2.237485647201538 -0.7901386618614197 -0.040344223380088806 50
-2.231342077255249 -0.7875310778617859 0.6233475208282471 50
-2.2368738651275635 -0.7890444993972778 0.5383504629135132 50
-2.2395029067993164 -0.7895323634147644 0.4537176191806793 50
-2.2392592430114746 -0.7890071272850037 0.36955979466438293 50
-2.2080435752868652 -0.7775750160217285 0.2827368676662445 50
-2.253751516342163 -0.7932292222976685 0.20568755269050598 50
-2.231049060821533 -0.7848013639450073 0.12194277346134186 50
-2.2338638305664062 -0.7853533029556274 0.040664102882146835 50
-1.8500410318374634 -0.6486003398895264 -0.5150501132011414 119
-2.1924550533294678 -0.768216609954834 -0.5275105237960815 119
-2.231886148452759 -0.7815956473350525 -0.4518115520477295 119
-2.2408459186553955 -0.7842941284179688 -0.36996781826019287 50
-2.270564556121826 -0.7942509651184082 -0.29065871238708496 50
-2.2601096630096436 -0.790151059627533 -0.20612365007400513 50
-2.2515628337860107 -0.7867220640182495 -0.12258023023605347 50
-2.2591092586517334 -0.7889164090156555 -0.04068978503346443 50
-2.252317428588867 -0.7861036062240601 0.6285205483436584 50
-2.2580153942108154 -0.7876502275466919 0.5428460836410522 50
-2.2607839107513428 -0.7881733775138855 0.45753034949302673 50
-2.2606539726257324 -0.7876855731010437 0.372685045003891 50
-2.2294912338256836 -0.7763911485671997 0.28517425060272217 50
-2.2753233909606934 -0.7919063568115234 0.2074306607246399 50
-2.257354974746704 -0.7852109670639038 0.12325117737054825 50
-2.255479574203491 -0.7841173410415649 0.04101315140724182 50
-1.8614201545715332 -0.645302414894104 -0.5176383256912231 119
-2.1997265815734863 -0.7621538043022156 -0.5286352634429932 119
-2.257791519165039 -0.7818306088447571 -0.45657750964164734 119
-2.257570266723633 -0.7813127040863037 -0.37231430411338806 50
-2.292083740234375 -0.7928093671798706 -0.2930960953235626 50
-2.281684637069702 -0.788766622543335 -0.20786677300930023 50
-2.2731728553771973 -0.7853800654411316 -0.12362346053123474 50
-2.2807509899139404 -0.7875527143478394 -0.04103534296154976 50
-2.277876138687134 -0.7861150503158569 0.6349868178367615 50
-2.2791740894317627 -0.7861177921295166 0.5473417043685913 50
-2.2820825576782227 -0.7866753935813904 0.46134310960769653 50
-2.282066583633423 -0.7862243056297302 0.37581026554107666 50
-2.2603418827056885 -0.7782981991767883 0.28883031010627747 50
-2.2969133853912354 -0.7904424667358398 0.2091737687587738 50
-2.2789688110351562 -0.7838222980499268 0.12429789453744888 50
-2.28184175491333 -0.7843650579452515 0.04144946485757828 50
-1.8682299852371216 -0.6403669118881226 -0.5189324021339417 119
-2.2115914821624756 -0.7576283812522888 -0.5308848023414612 119
-2.2837250232696533 -0.7818940281867981 -0.4613434374332428 119
-2.274301290512085 -0.7782241106033325 -0.374660849571228 50
-2.31361985206604 -0.7912271022796631 -0.2955334782600403 50
-2.307990312576294 -0.7888520359992981 -0.21004565060138702 50
-2.2948012351989746 -0.7838967442512512 -0.12466669827699661 50
-2.3071417808532715 -0.78766268491745 -0.041467294096946716 50
-2.303461790084839 -0.7859574556350708 0.6414531469345093 50
-2.300349473953247 -0.7844473123550415 0.5518373250961304 50
-2.303398847579956 -0.785038411617279 0.4651558995246887 50
-2.308171033859253 -0.7862152457237244 0.37971681356430054 50
-2.286534547805786 -0.7784000039100647 0.29187706112861633 50
-2.3232362270355225 -0.7904418110847473 0.21135267615318298 50
-2.3053274154663086 -0.7838997840881348 0.12560628354549408 50
-2.303499221801758 -0.7828295826911926 0.041798509657382965 50
-1.8704538345336914 -0.6338416934013367 -0.5189324021339417 119
-2.218837022781372 -0.751466691493988 -0.5320096015930176 119
-2.314336061477661 -0.783359706401825 -0.4670626223087311 119
-2.2910377979278564 -0.7750279903411865 -0.3770073652267456 50
-2.3351728916168213 -0.7895041704177856 -0.29797086119651794 50
-2.3248863220214844 -0.7855742573738098 -0.21135300397872925 50
-2.316446304321289 -0.7822719216346741 -0.12570993602275848 50
-2.328824043273926 -0.7859992384910583 -0.04181285202503204 50
-2.329073429107666 -0.7856306433677673 0.6479193568229675 50
-2.3169240951538086 -0.781082034111023 0.5552090406417847 50
-2.3293817043304443 -0.7848290801048279 0.4699218273162842 50
-2.334303379058838 -0.786033570766449 0.3836233615875244 50
-2.3174588680267334 -0.7799112200737 0.295533150434494 50
-2.330702304840088 -0.7839152812957764 0.21178844571113586 50
-2.336447238922119 -0.7853936553001404 0.12717635929584503 50
-2.3299124240875244 -0.7827444672584534 0.04223481938242912 50
-1.8726550340652466 -0.6273086667060852 -0.5189324021339417 119
-2.2306861877441406 -0.746810257434845 -0.5342590808868408 119
-2.34032940864563 -0.783063530921936 -0.47182852029800415 119
-2.3077797889709473 -0.7717246413230896 -0.3793538808822632 50
-2.3379147052764893 -0.7813480496406555 -0.29797086119651794 50
-2.322890043258667 -0.7758761048316956 -0.21091720461845398 50
-2.3286354541778564 -0.7773433923721313 -0.12623155117034912 50
-2.322068929672241 -0.7747009992599487 -0.04164007306098938 50
-2.3455474376678467 -0.7820790410041809 0.6517991423606873 50
-2.328880548477173 -0.776070237159729 0.5574568510055542 50
-2.322793483734131 -0.7735912799835205 0.4680154621601105 50
-2.3276612758636475 -0.7747612595558167 0.3820607364177704 50
-2.334294319152832 -0.7765164971351624 0.29736119508743286 50
-2.3334243297576904 -0.7757748365402222 0.21178844571113586 50
-2.339174509048462 -0.7772331833839417 0.12717635929584503 50
-2.313652515411377 -0.768304705619812 0.04188577085733414 50
-1.874833345413208 -0.6207680702209473 -0.5189324021339417 119
-2.2379045486450195 -0.7405497431755066 -0.5353838205337524 119
-2.3477087020874023 -0.776430606842041 -0.4727817475795746 119
-2.3198375701904297 -0.7667639255523682 -0.3809182345867157 50
-2.3453402519226074 -0.7747392058372498 -0.29858022928237915 50
-2.3303141593933105 -0.769324541091919 -0.21135300397872925 50
-2.3218512535095215 -0.7660811543464661 -0.12570993602275848 50
-2.324759006500244 -0.7665907740592957 -0.04164007306098938 50
-2.3436758518218994 -0.7723751068115234 0.6505058407783508 50
-2.336203098297119 -0.7694602608680725 0.558580756187439 50
-2.33014178276062 -0.7670132517814636 0.4689686596393585 50
-2.335042715072632 -0.7681748270988464 0.382842093706131 50
-2.3228471279144287 -0.7637134790420532 0.295533150434494 50
-2.33611798286438 -0.7676249146461487 0.21178844571113586 50
-2.3371293544769287 -0.7675052881240845 0.12691469490528107 50
-2.311570405960083 -0.7586649060249329 0.041798509657382965 50
-1.8723987340927124 -0.6127179265022278 -0.5176383256912231 119
-2.24047589302063 -0.7327334880828857 -0.5353838205337524 119
-2.355069875717163 -0.7697556614875793 -0.47373491525650024 119
-2.3318886756896973 -0.7617283463478088 -0.3824825882911682 50
-2.352747678756714 -0.7680876851081848 -0.29918956756591797 50
-2.3329851627349854 -0.7611854672431946 -0.21135300397872925 50
-2.315016746520996 -0.7548757791519165 -0.12518832087516785 50
-2.327420711517334 -0.7584710717201233 -0.04164007306098938 50
-2.346357822418213 -0.7641894221305847 0.6505058407783508 50
-2.3435075283050537 -0.7628087401390076 0.5597046613693237 50
-2.3328051567077637 -0.7588748931884766 0.4689686596393585 50
-2.3330132961273193 -0.7584923505783081 0.3820607364177704 50
-2.3254988193511963 -0.7556005716323853 0.295533150434494 50
-2.3387835025787354 -0.7594656944274902 0.21178844571113586 50
-2.3302958011627197 -0.7562599778175354 0.12639133632183075 50
-2.318959951400757 -0.7521337270736694 0.04188577085733414 50
-1.8745262622833252 -0.6061782836914062 -0.5176383256912231 119
-2.2476558685302734 -0.7264063954353333 -0.5365086197853088 119
-2.3624136447906494 -0.7630389332771301 -0.4746881127357483 119
-2.3439323902130127 -0.7566180229187012 -0.38404691219329834 50
-2.360137701034546 -0.7613941431045532 -0.2997989356517792 50
-2.335628032684326 -0.7530372142791748 -0.21135300397872925 50
-2.331895351409912 -0.751384437084198 -0.1259707510471344 50
-2.334812879562378 -0.7518746852874756 -0.04172646626830101 50
-2.3536086082458496 -0.7574741244316101 0.6517991423606873 50
-2.346156120300293 -0.7546237111091614 0.5597046613693237 50
-2.3401126861572266 -0.7522293329238892 0.4699218273162842 50
-2.359156370162964 -0.7578965425491333 0.38596731424331665 50
-2.323397159576416 -0.7459613680839539 0.2949237823486328 50
-2.374619722366333 -0.7619500160217285 0.214838907122612 50
-2.3376758098602295 -0.7496457695960999 0.12665300071239471 50
-2.331092596054077 -0.7470859885215759 0.04206029698252678 50
-1.8766307830810547 -0.5996312499046326 -0.5176383256912231 119
-2.2501778602600098 -0.71855628490448 -0.5365086197853088 119
-2.3697383403778076 -0.7562801837921143 -0.47564128041267395 119
-2.370084047317505 -0.7559346556663513 -0.3879578113555908 50
-2.3958792686462402 -0.7637013792991638 -0.3040643334388733 50
-2.399940252304077 -0.7645344734191895 -0.21701814234256744 50
-2.3345038890838623 -0.7432400584220886 -0.1259707510471344 50
-2.3755345344543457 -0.755846381187439 -0.04241758584976196 50
-2.370046615600586 -0.7536447048187256 0.6556788682937622 50
-2.3766350746154785 -0.7552830576896667 0.5664480924606323 50
-2.380148410797119 -0.7559422254562378 0.4775473177433014 50
-2.4088590145111084 -0.7645979523658752 0.3937804102897644 50
-2.3449084758758545 -0.743848979473114 0.29736119508743286 50
-2.391509532928467 -0.7581722736358643 0.21614624559879303 50
-2.402157783508301 -0.7610867619514465 0.13005484640598297 50
-2.4004106521606445 -0.7600722312927246 0.04328196495771408 50
-1.8787124156951904 -0.5930769443511963 -0.5176383256912231 119
-2.2526721954345703 -0.7106972336769104 -0.5365086197853088 119
-2.3910884857177734 -0.7539074420928955 -0.47945404052734375 119
-2.405679225921631 -0.7580463290214539 -0.39343297481536865 50
-2.4079976081848145 -0.758314847946167 -0.3052830398082733 50
-2.4215993881225586 -0.7621337175369263 -0.21876125037670135 50
-2.3942418098449707 -0.7530645132064819 -0.12910045683383942 50
-2.4020044803619385 -0.7550454139709473 -0.04284954071044922 50
-2.3957018852233887 -0.7526048421859741 0.6621451377868652 50
-2.402498483657837 -0.7542792558670044 0.5720675587654114 50
-2.410871744155884 -0.7564458250999451 0.4832664430141449 50
-2.4444994926452637 -0.7665284276008606 0.3992495536804199 50
-2.399582862854004 -0.7519838213920593 0.30406397581100464 50
-2.422661066055298 -0.7587517499923706 0.2187609225511551 50
-2.419095277786255 -0.7571715116500854 0.13083988428115845 50
-2.4221341609954834 -0.7576584219932556 0.04363101348280907 50
-1.8807711601257324 -0.5865153670310974 -0.5176383256912231 119
-2.2551393508911133 -0.7028296589851379 -0.5365086197853088 119
-2.4124503135681152 -0.7513947486877441 -0.48326680064201355 119
-2.4507482051849365 -0.7628539800643921 -0.4004725515842438 0
-2.4390621185302734 -0.7587496042251587 -0.308939129114151 50
-2.4527833461761475 -0.7625484466552734 -0.22137592732906342 50
-2.4254658222198486 -0.7535915374755859 -0.13066530227661133 50
-2.433271884918213 -0.7555511593818665 -0.04336788132786751 50
-2.4213788509368896 -0.7513949871063232 0.6686114072799683 50
-2.4376907348632812 -0.7559904456138611 0.5799349546432495 50
-2.432250499725342 -0.7538379430770874 0.4870792031288147 50
-2.4613125324249268 -0.7623744606971741 0.40159350633621216 50
-2.430637836456299 -0.7524082660675049 0.3077200651168823 50
-2.444328784942627 -0.7561788558959961 0.220504030585289 50
-2.450345993041992 -0.7575717568397522 0.1324099600315094 50
-2.439093589782715 -0.7536264657974243 0.04389279708266258 50
-1.8828070163726807 -0.5799466967582703 -0.5176383256912231 119
-2.252922773361206 -0.6935201287269592 -0.5353838205337524 119
-2.443206787109375 -0.7516286969184875 -0.48898595571517944 119
-2.467557430267334 -0.7586486339569092 -0.40281909704208374 50
-2.4606714248657227 -0.7560614347457886 -0.31137651205062866 50
-2.4506685733795166 -0.7525198459625244 -0.22094014286994934 50
-2.4424023628234863 -0.749515175819397 -0.13144773244857788 50
-2.455012321472168 -0.7529160380363464 -0.043713439255952835 50
nan nan nan 0
-2.463606834411621 -0.7546111345291138 0.5855544805526733 50
nan nan nan 0
nan nan nan 0
-2.452232837677002 -0.7497230768203735 0.31015744805336 50
-2.4802985191345215 -0.7578302025794983 0.22355449199676514 50
-2.467301607131958 -0.7533883452415466 0.13319499790668488 50
nan nan nan 0
-1.8848198652267456 -0.5733709335327148 -0.5176383256912231 119
-2.250668525695801 -0.684234619140625 -0.5342590808868408 119
-2.4833860397338867 -0.7545105814933777 -0.49661147594451904 119
-2.4749157428741455 -0.7514652609825134 -0.4036012589931488 50
nan nan nan 0
nan nan nan 0
-2.4688963890075684 -0.7482259273529053 -0.13275177776813507 50
nan nan nan 0
nan nan nan 0
nan nan nan 0
nan nan nan 0
nan nan nan 0
nan nan nan 0
nan nan nan 0
nan nan nan 0
-3.114422559738159 -0.9385207295417786 0.056109484285116196 10
-1.8868099451065063 -0.5667881965637207 -0.5176383256912231 119
-2.2343788146972656 -0.6707710027694702 -0.5297600626945496 119
-2.5236148834228516 -0.7571209073066711 -0.5042369961738586 119
-2.501175880432129 -0.7499130964279175 -0.4075121283531189 50
nan nan nan 0
nan nan nan 0
nan nan nan 0
nan nan nan 0
-3.155646800994873 -0.9431387782096863 0.8716520071029663 10
-3.127040147781372 -0.9339944124221802 0.7440250515937805 10
-3.15490460395813 -0.9417174458503723 0.6319637894630432 10
-3.1837692260742188 -0.9497281312942505 0.5195713639259338 10
-3.137500524520874 -0.9353297352790833 0.3972940444946289 10
-3.1395156383514404 -0.9353339076042175 0.2832561731338501 10
-3.1376919746398926 -0.9341943860054016 0.1695684939622879 10
-3.189554214477539 -0.9490295052528381 0.05741841346025467 10
-1.8887767791748047 -0.5601985454559326 -0.5176383256912231 119
-2.222693920135498 -0.6588140726089478 -0.5263857841491699 119
-2.5685977935791016 -0.7608535885810852 -0.5128157138824463 119
-2.7026615142822266 -0.8000519275665283 -0.440363347530365 119
nan nan nan 0
nan nan nan 0
nan nan nan 0
-3.23469614982605 -0.955091118812561 -0.057622265070676804 10
nan nan nan 0
nan nan nan 0
-3.2335028648376465 -0.9528985023498535 0.6472148895263672 10
-3.2391762733459473 -0.9539560079574585 0.5281657576560974 10
-3.20263671875 -0.9425874352455139 0.4052155315876007 10
-3.2574470043182373 -0.958101212978363 0.29371485114097595 10
-3.2415339946746826 -0.9528061747550964 0.17506377398967743 10
-3.245609760284424 -0.9533888697624207 0.058378297835588455 10
-1.8954524993896484 -0.5546283721923828 -0.5189324021339417 119
-2.2063894271850586 -0.6451935768127441 -0.5218867659568787 119
-2.5949254035949707 -0.7583178877830505 -0.517581582069397 119
-2.966299295425415 -0.8662829995155334 -0.4833828806877136 119
-3.3048107624053955 -0.9645164608955383 -0.4180122911930084 11
-3.302647829055786 -0.963259756565094 -0.29763731360435486 11
-3.2485103607177734 -0.9468547105789185 -0.17474202811717987 10
-3.300572156906128 -0.9614042639732361 -0.058745332062244415 15
-3.2736117839813232 -0.9529314041137695 0.902690052986145 15
-3.278665065765381 -0.9537816643714905 0.7788661122322083 15
-3.288818359375 -0.956112802028656 0.6576998829841614 15
-3.185741424560547 -0.9255436658859253 0.518790066242218 10
-3.263261079788208 -0.947447657585144 0.4125277101993561 10
-3.323124647140503 -0.964199423789978 0.29937997460365295 15
-3.2977561950683594 -0.9562147259712219 0.17794224619865417 15
-3.311504602432251 -0.9595747590065002 0.059512700885534286 15
-1.8973770141601562 -0.5480086207389832 -0.5189324021339417 119
-2.217989683151245 -0.6401900053024292 -0.5241362452507019 119
-2.6117050647735596 -0.7533363699913025 -0.5204411745071411 119
-3.1733498573303223 -0.9147407412528992 -0.5170162916183472 119
-3.317695140838623 -0.9557220935821533 -0.41923099756240845 11
-3.315563201904297 -0.9544813632965088 -0.298508882522583 11
-3.3093783855438232 -0.9520754814147949 -0.1778717339038849 15
-3.3231260776519775 -0.9554026126861572 -0.05909089371562004 15
-3.3233389854431152 -0.9548357725143433 0.9156225919723511 15
-3.3100714683532715 -0.9503985047340393 0.7856095433235168 15
-3.311007499694824 -0.9500417709350586 0.6615126729011536 15
-3.2744033336639404 -0.938920259475708 0.5328536629676819 15
-3.3047144412994385 -0.9469876289367676 0.4174024760723114 15
-3.321681261062622 -0.95122230052948 0.2989441752433777 15
-3.3202755451202393 -0.9501927495002747 0.1789889633655548 15
-3.3004143238067627 -0.9438857436180115 0.05925091728568077 15
-1.9039231538772583 -0.5427061915397644 -0.5202265381813049 119
-2.224896192550659 -0.6337785124778748 -0.5252610445022583 119
-2.619039297103882 -0.74555903673172 -0.5213943719863892 119
-3.228773355484009 -0.9185221791267395 -0.5256202220916748 11
-3.3305580615997314 -0.9468495845794678 -0.42044970393180847 11
-3.2901265621185303 -0.9347347021102905 -0.29589420557022095 11
-3.3126816749572754 -0.9405177235603333 -0.1778717339038849 15
-3.2927751541137695 -0.9342449903488159 -0.05848616361618042 15
-3.322005033493042 -0.9419118165969849 0.9143292903900146 15
-3.318056583404541 -0.940166711807251 0.7867334485054016 15
-3.3143036365509033 -0.938478410243988 0.6615126729011536 15
-3.277660846710205 -0.9274847507476807 0.5328536629676819 15
-3.3032243251800537 -0.9340957999229431 0.4167931377887726 15
-3.3058085441589355 -0.9342035055160522 0.2972010672092438 15
-3.3091564178466797 -0.9345260262489319 0.17820392549037933 15
-3.289255142211914 -0.9282858967781067 0.05898912996053696 15
-1.9058058261871338 -0.5360569357872009 -0.5202265381813049 119
-2.227094888687134 -0.6260083317756653 -0.5252610445022583 119
-2.6263513565063477 -0.737739622592926 -0.5223475694656372 119
-3.2129414081573486 -0.9019073247909546 -0.5224915146827698 119
-3.324286460876465 -0.9325372576713562 -0.41923099756240845 11
-3.2885735034942627 -0.9218997955322266 -0.2954584062099457 11
-3.2967121601104736 -0.9235607981681824 -0.1768285036087036 15
-3.2912018299102783 -0.9213975667953491 -0.05839977413415909 15
-3.2973649501800537 -0.9225024580955505 0.90656977891922 15
-3.3025496006011963 -0.9233314990997314 0.7822378277778625 15
-3.303377389907837 -0.922941267490387 0.6586531400680542 15
-3.2808783054351807 -0.916037917137146 0.5328536629676819 15
-3.2969043254852295 -0.9198922514915466 0.41557443141937256 15
-3.2994534969329834 -0.9199827909469604 0.296329528093338 15
-3.3123984336853027 -0.9229692220687866 0.17820392549037933 15
-3.2924752235412598 -0.9167985320091248 0.05898912996053696 15
-1.907665491104126 -0.5294011831283569 -0.5202265381813049 119
-2.22926664352417 -0.6182305216789246 -0.5252610445022583 119
-2.6336405277252197 -0.729878306388855 -0.5233007073402405 119
-3.22558856010437 -0.8933227062225342 -0.5240558981895447 119
-3.327521324157715 -0.9209275841712952 -0.41923099756240845 11
-3.286970853805542 -0.9090871214866638 -0.2950226366519928 11
-3.2951033115386963 -0.9107173681259155 -0.1765677034854889 15
-3.289579391479492 -0.9085726141929626 -0.058313384652137756 15
-3.300565004348755 -0.9109868407249451 0.90656977891922 15
-3.301055669784546 -0.9105022549629211 0.7811139225959778 15
-3.301847219467163 -0.910100519657135 0.6576998829841614 15
-3.3269076347351074 -0.9163832664489746 0.5398854613304138 15
-3.2953107357025146 -0.9070613384246826 0.41496509313583374 15
-3.273829221725464 -0.9005336165428162 0.29371485114097595 15
-3.3011562824249268 -0.9074307680130005 0.17741888761520386 15
-3.290834903717041 -0.9039759039878845 0.058901868760585785 15
-1.9095017910003662 -0.5227389335632324 -0.5202265381813049 119
-2.2314109802246094 -0.6104451417922974 -0.5252610445022583 119
-2.645641326904297 -0.7232694625854492 -0.5252071022987366 119
-3.15722918510437 -0.8625358939170837 -0.512323260307312 119
-3.3259284496307373 -0.9079997539520264 -0.41862165927886963 11
-3.285318613052368 -0.8962969183921814 -0.2945868670940399 15
-3.2934446334838867 -0.8978962898254395 -0.17630688846111298 15
-3.2830841541290283 -0.894456148147583 -0.05814060568809509 15
-3.2944045066833496 -0.8969226479530334 0.9039832949638367 15
-3.2995128631591797 -0.8976948857307434 0.7799900770187378 15
-3.2955312728881836 -0.8959938287734985 0.6557935476303101 15
-3.315788507461548 -0.9008800387382507 0.5375415086746216 15
-3.2936673164367676 -0.8942525386810303 0.4143557548522949 15
-3.2913742065429688 -0.8930132985115051 0.295022189617157 15
-3.2994847297668457 -0.8945954442024231 0.1771572083234787 15
-3.289144992828369 -0.8911758065223694 0.058814603835344315 15
-1.9113149642944336 -0.5160703659057617 -0.5202265381813049 119
-2.2335283756256104 -0.602652370929718 -0.5252610445022583 119
-2.6481499671936035 -0.7140300869941711 -0.5252071022987366 119
-3.169757604598999 -0.85407954454422 -0.5138876438140869 119
-3.3242852687835693 -0.8950941562652588 -0.4180122911930084 11
-3.2884273529052734 -0.8848235607147217 -0.2945868670940399 15
-3.2917370796203613 -0.8850980997085571 -0.17604607343673706 15
-3.281358242034912 -0.8816932439804077 -0.05805421248078346 15
-3.2928507328033447 -0.8841650485992432 0.902690052986145 15
-3.2979204654693604 -0.8849093317985535 0.7788661122322083 15
-3.293898105621338 -0.8832137584686279 0.654840350151062 15
-3.3046021461486816 -0.885465681552887 0.5351975560188293 15
-3.291975259780884 -0.8814665079116821 0.4137464165687561 15
-3.299283027648926 -0.8828062415122986 0.29545795917510986 15
-3.2929399013519287 -0.8804931640625 0.17663384974002838 15
-3.2874059677124023 -0.8783987164497375 0.05872734636068344 15
-1.9131046533584595 -0.5093954801559448 -0.5202265381813049 119
-2.2356183528900146 -0.5948522090911865 -0.5252610445022583 119
-2.6458828449249268 -0.703520655632019 -0.5242539644241333 119
-3.1584010124206543 -0.8392053842544556 -0.5115411281585693 119
-3.3177967071533203 -0.8809376358985901 -0.4167936146259308 15
-3.2866814136505127 -0.8720620274543762 -0.29415109753608704 15
-3.28515362739563 -0.8710429072380066 -0.17552445828914642 15
-3.279583692550659 -0.8689534664154053 -0.05796782299876213 15
-3.291247844696045 -0.8714292645454407 0.9013968110084534 15
-3.2962796688079834 -0.8721458911895752 0.7777422666549683 15
-3.292215347290039 -0.870455801486969 0.653887152671814 15
-3.298123598098755 -0.8714019656181335 0.5336349606513977 15
-3.2902333736419678 -0.8687030673027039 0.4131370484828949 15
-3.3071608543395996 -0.8725548982620239 0.29589375853538513 15
-3.2911648750305176 -0.8677202463150024 0.17637217044830322 15
-3.2856180667877197 -0.8656444549560547 0.05864008143544197 15
-1.914871096611023 -0.5027143955230713 -0.5202265381813049 119
-2.2376811504364014 -0.5870448350906372 -0.5252610445022583 119
-2.648322582244873 -0.6942805647850037 -0.5242539644241333 119
-3.0466575622558594 -0.7981392741203308 -0.49276894330978394 119
-3.3160505294799805 -0.868094265460968 -0.41618427634239197 15
-3.289705514907837 -0.860584020614624 -0.29415109753608704 15
-3.2881743907928467 -0.859570324420929 -0.17552445828914642 15
-3.2825968265533447 -0.8575002551078796 -0.05796782299876213 15
-3.2895965576171875 -0.8587155342102051 0.9001035690307617 15
-3.2945895195007324 -0.8594046831130981 0.7766183018684387 15
-3.2904844284057617 -0.8577204942703247 0.6529340147972107 15
-3.296365737915039 -0.8586391806602478 0.5328536629676819 15
-3.288443088531494 -0.8559626936912537 0.4125277101993561 15
-3.3101863861083984 -0.861005425453186 0.29589375853538513 15
-3.289341688156128 -0.8549705743789673 0.17611049115657806 15
-3.283780813217163 -0.8529134392738342 0.0585528202354908 15
-1.916614294052124 -0.4960272014141083 -0.5202265381813049 119
-2.2397167682647705 -0.5792303085327148 -0.5252610445022583 119
-2.6412253379821777 -0.6825757026672363 -0.5223475694656372 119
-2.9298856258392334 -0.7566291689872742 -0.47321462631225586 119
-3.3142552375793457 -0.8552737832069397 -0.41557490825653076 15
-3.2878661155700684 -0.8478517532348633 -0.29371529817581177 15
-3.2863192558288574 -0.8468411564826965 -0.1752636432647705 15
-3.280728578567505 -0.844789981842041 -0.0578814335167408 15
-3.2878963947296143 -0.8460237979888916 0.8988102674484253 15
-3.2975692749023438 -0.8478991389274597 0.7766183018684387 15
-3.2934584617614746 -0.8462293744087219 0.6529340147972107 15
-3.2945597171783447 -0.8458993434906006 0.5320723652839661 15
-3.2914111614227295 -0.8444786071777344 0.4125277101993561 15
-3.308346748352051 -0.848208487033844 0.29545795917510986 15
-3.287468910217285 -0.8422442674636841 0.1758487969636917 15
-3.277052164077759 -0.8389659523963928 0.058378297835588455 15
-1.9183340072631836 -0.4893339276313782 -0.5202265381813049 119
-2.241724967956543 -0.5714086890220642 -0.5252610445022583 119
-2.64359188079834 -0.6733519434928894 -0.5223475694656372 119
-2.913365602493286 -0.741524875164032 -0.4700859487056732 119
-3.312411069869995 -0.8424763679504395 -0.41496556997299194 15
-3.2908055782318115 -0.8363698124885559 -0.29371529817581177 15
-3.2844159603118896 -0.8341355919837952 -0.1750028431415558 15
-3.2788119316101074 -0.8321032524108887 -0.05779504403471947 15
-3.2861480712890625 -0.8333545327186584 0.8975170850753784 15
-3.295785903930664 -0.8351864814758301 0.775494396686554 15
-3.2916338443756104 -0.8335229754447937 0.6519807577133179 15
-3.2927045822143555 -0.8331825733184814 0.5312910079956055 15
-3.289527416229248 -0.8317677974700928 0.4119183421134949 15
-3.3064582347869873 -0.8354348540306091 0.295022189617157 15
-3.2855477333068848 -0.8295413851737976 0.17558713257312775 15
-3.275113344192505 -0.8262988924980164 0.058291032910346985 15
-1.9200304746627808 -0.48263469338417053 -0.5202265381813049 119
-2.243705987930298 -0.5635800957679749 -0.5252610445022583 119
-2.6506869792938232 -0.6653149127960205 -0.5233007073402405 119
-2.9350967407226562 -0.7361564040184021 -0.47321462631225586 119
-3.3105175495147705 -0.8297022581100464 -0.4143562316894531 15
-3.2888734340667725 -0.8236676454544067 -0.2932795286178589 15
-3.282463788986206 -0.8214535713195801 -0.17474202811717987 15
-3.276846408843994 -0.8194401264190674 -0.05770865082740784 15
-3.289036989212036 -0.8218786716461182 0.8975170850753784 15
-3.293954610824585 -0.8224967122077942 0.7743704915046692 15
-3.2897613048553467 -0.8208397030830383 0.6510276198387146 15
-3.2908010482788086 -0.8204890489578247 0.5305097103118896 15
-3.287595510482788 -0.8190804123878479 0.41130903363227844 15
-3.304521083831787 -0.8226847052574158 0.2945864200592041 15
-3.288423538208008 -0.8180676698684692 0.17558713257312775 15
-3.2731261253356934 -0.8136555552482605 0.05820377543568611 15
-1.9170153141021729 -0.47476857900619507 -0.5189324021339417 119
-2.245659589767456 -0.5557447075843811 -0.5252610445022583 119
-2.662522792816162 -0.6584147810935974 -0.5252071022987366 119
-2.9568252563476562 -0.7306452393531799 -0.4763433039188385 119
-3.3085758686065674 -0.8169517517089844 -0.4137468934059143 15
-3.2868926525115967 -0.8109890818595886 -0.2928437292575836 15
-3.280463218688965 -0.8087953925132751 -0.17448122799396515 15
-3.2748327255249023 -0.806800901889801 -0.057622265070676804 15
-3.2871956825256348 -0.8092381954193115 0.896223783493042 15
-3.29207444190979 -0.809829831123352 0.7732465863227844 15
-3.2878401279449463 -0.8081796765327454 0.6500744223594666 15
-3.288848876953125 -0.8078190088272095 0.5297284126281738 15
-3.2856147289276123 -0.8064165711402893 0.41069966554641724 15
-3.3073723316192627 -0.8111447691917419 0.2945864200592041 15
-3.2864089012145996 -0.8053953647613525 0.1753254383802414 15
-3.2759463787078857 -0.8022252321243286 0.05820377543568611 15
-1.9233530759811401 -0.4692187011241913 -0.5202265381813049 119
-2.2475857734680176 -0.5479024648666382 -0.5252610445022583 119
-2.6695735454559326 -0.6502785086631775 -0.5261602997779846 119
-3.002542734146118 -0.7308309674263 -0.4833828806877136 119
-3.3114073276519775 -0.8053976893424988 -0.4137468934059143 15
-3.2848634719848633 -0.7983344793319702 -0.29240795969963074 15
-3.278414011001587 -0.7961611151695251 -0.17422041296958923 15
-3.2776291370391846 -0.7953647375106812 -0.057622265070676804 15
-3.285306930541992 -0.7966206669807434 0.8949306011199951 15
-3.2901461124420166 -0.7971861362457275 0.7721226811408997 15
-3.2858707904815674 -0.7955430746078491 0.6491212248802185 15
-3.2916486263275146 -0.7963338494300842 0.5297284126281738 15
-3.288409471511841 -0.7949427366256714 0.41069966554641724 15
-3.305341958999634 -0.7984253764152527 0.2941506505012512 15
-3.2892003059387207 -0.7939187288284302 0.1753254383802414 15
-3.273866653442383 -0.7896129488945007 0.05811651051044464 15
-1.9296751022338867 -0.463630348443985 -0.5215205550193787 119
-2.2494845390319824 -0.5400536060333252 -0.5252610445022583 119
-2.6765999794006348 -0.6421009302139282 -0.5271134972572327 119
-3.043494701385498 -0.7295551300048828 -0.4896402657032013 119
-3.3093719482421875 -0.7926777601242065 -0.4131375253200531 15
-3.282785654067993 -0.7857038378715515 -0.29197219014167786 15
-3.2763171195983887 -0.7835510969161987 -0.1739596128463745 15
-3.2755229473114014 -0.7827568054199219 -0.05753587186336517 15
-3.283369779586792 -0.7840262055397034 0.8936372995376587 15
-3.2881698608398438 -0.784565806388855 0.7709987759590149 15
-3.283853054046631 -0.7829300761222839 0.6481680274009705 15
-3.289604425430298 -0.7836945652961731 0.528947114944458 15
-3.2863364219665527 -0.7823099493980408 0.4100903272628784 15
-3.3081088066101074 -0.7868826985359192 0.2941506505012512 15
-3.2870938777923584 -0.7812778949737549 0.17506377398967743 15
-3.2766029834747314 -0.7781802415847778 0.05811651051044464 15
-1.9359816312789917 -0.45800358057022095 -0.5228146910667419 119
-2.246614694595337 -0.5310773849487305 -0.5241362452507019 119
-2.6836020946502686 -0.6338823437690735 -0.5280666947364807 119
-3.089280366897583 -0.7291366457939148 -0.4966798424720764 119
-3.3121190071105957 -0.7811210751533508 -0.4131375253200531 15
-3.280660390853882 -0.773097574710846 -0.291536420583725 15
-3.274172067642212 -0.7709653973579407 -0.1736987978219986 15
-3.273369073867798 -0.7701733708381653 -0.05744947865605354 15
-3.2860865592956543 -0.7725602984428406 0.8936372995376587 15
-3.2861456871032715 -0.7719689607620239 0.7698748707771301 15
-3.2865660190582275 -0.7714625597000122 0.6481680274009705 15
-3.2923200130462646 -0.7722069025039673 0.528947114944458 15
-3.2842156887054443 -0.7697013020515442 0.4094809591770172 15
-3.305985689163208 -0.7741947174072266 0.29371485114097595 15
-3.2849392890930176 -0.768661379814148 0.17480207979679108 15
-3.2744312286376953 -0.76559978723526 0.05802924558520317 15
-1.9375685453414917 -0.45124298334121704 -0.5228146910667419 119
-2.2437098026275635 -0.5221278071403503 -0.5230115056037903 119
-2.6905789375305176 -0.6256225109100342 -0.529019832611084 119
-3.130289316177368 -0.7272895574569702 -0.5029371976852417 119
-3.3099913597106934 -0.7684325575828552 -0.4125281870365143 15
-3.278486967086792 -0.7605156302452087 -0.2911006212234497 15
-3.2768430709838867 -0.7595316767692566 -0.1736987978219986 15
-3.271167278289795 -0.7576144933700562 -0.05736309289932251 15
-3.284057378768921 -0.7599959969520569 0.8923439979553223 15
-3.288820266723633 -0.7604935169219971 0.7698748707771301 15
-3.284456729888916 -0.758880615234375 0.6472148895263672 15
-3.2901833057403564 -0.7595988512039185 0.5281657576560974 15
-3.286882162094116 -0.7582325339317322 0.4094809591770172 15
-3.30381441116333 -0.7615312337875366 0.29327908158302307 15
-3.2827367782592773 -0.7560694813728333 0.1745404154062271 15
-3.272212028503418 -0.753044068813324 0.057941984385252 15
-1.9391319751739502 -0.444476842880249 -0.5228146910667419 119
-2.245518684387207 -0.5142925977706909 -0.5230115056037903 119
-2.69274640083313 -0.616226851940155 -0.529019832611084 119
-3.1761364936828613 -0.7262659072875977 -0.5099768042564392 119
-3.3126535415649414 -0.7568739056587219 -0.4125281870365143 15
-3.2762656211853027 -0.7479583621025085 -0.2906648516654968 15
-3.2746059894561768 -0.746978223323822 -0.17343798279762268 15
-3.2689175605773926 -0.7450803518295288 -0.05727669969201088 15
-3.2819812297821045 -0.7474554181098938 0.8910508155822754 15
-3.2867040634155273 -0.7479276657104492 0.7687509655952454 15
-3.282299280166626 -0.7463228106498718 0.6462616324424744 15
-3.287998914718628 -0.7470152378082275 0.5273844599723816 15
-3.2846696376800537 -0.7456559538841248 0.4088716506958008 15
-3.3015949726104736 -0.7488923072814941 0.2928432822227478 15
-3.2804861068725586 -0.7435022592544556 0.17427872121334076 15
-3.274820566177368 -0.7416173219680786 0.057941984385252 15
-1.9360365867614746 -0.43630480766296387 -0.5215205550193787 119
-2.2473886013031006 -0.506058931350708 -0.5230115056037903 119
-2.6949870586395264 -0.6063532829284668 -0.529019832611084 119
-3.2221407890319824 -0.7243683934211731 -0.5170162916183472 119
