# .PCD v0.7 - Point Cloud Data file format
VERSION 0.7
FIELDS x y z intensity
SIZE 4 4 4 4
TYPE F F F F
COUNT 1 1 1 1
WIDTH 778
HEIGHT 1
VIEWPOINT 0 0 0 1 0 0 0
POINTS 778
DATA ascii
-0.8457170128822327 2.2345852851867676 0.20568755269050598 44
-0.8420602679252625 2.2260966300964355 0.12272781878709793 44
-0.837378203868866 2.2148871421813965 0.040664102882146835 44
-0.6967987418174744 1.8479243516921997 -0.5189324021339417 119
-0.7866339087486267 2.0872724056243896 -0.5061401724815369 119
-0.8387657403945923 2.226778268814087 -0.45467114448547363 119
-0.834742546081543 2.2172701358795166 -0.3691856265068054 44
-0.841888427734375 2.2374353408813477 -0.2888306677341461 44
-0.8375282883644104 2.227027177810669 -0.2048163115978241 44
-0.8356468081474304 2.2232015132904053 -0.12205860763788223 44
-0.8309819102287292 2.211962938308716 -0.04017144441604614 44
-0.8334665894508362 2.2197535037994385 0.6246408224105835 44
-0.8316801190376282 2.2161710262298584 0.5372265577316284 44
-0.8339320421218872 2.22335147857666 0.4537176191806793 44
-0.8351355791091919 2.2277424335479736 0.37034109234809875 44
-0.8335399031639099 2.2246670722961426 0.287002295255661 44
-0.8361649513244629 2.2328593730926514 0.2052517831325531 44
-0.8325342535972595 2.224346160888672 0.12246613204479218 44
-0.8278838396072388 2.2131166458129883 0.04057684540748596 44
-0.6903440356254578 1.8503453731536865 -0.5189324021339417 119
-0.7793431878089905 2.09000563621521 -0.5061401724815369 119
-0.8309877514839172 2.229692220687866 -0.45467114448547363 119
-0.8252739310264587 2.2155425548553467 -0.36840346455574036 44
-0.832341730594635 2.2357096672058105 -0.2882213294506073 44
-0.8280124664306641 2.225268840789795 -0.20438054203987122 44
-0.8261407613754272 2.2214250564575195 -0.12179780751466751 44
-0.821513831615448 2.2101640701293945 -0.04008505120873451 44
-0.8240311145782471 2.2181217670440674 0.6233475208282471 44
-0.822243332862854 2.2144935131073 0.5361026525497437 44
-0.8244583606719971 2.221647262573242 0.45276445150375366 44
-0.8273541927337646 2.2306439876556396 0.37034109234809875 44
-0.8240441679954529 2.222909688949585 0.2863929271697998 44
-0.828365683555603 2.235764503479004 0.2052517831325531 44
-0.8247647881507874 2.227238655090332 0.12246613204479218 44
-0.8201598525047302 2.2159907817840576 0.04057684540748596 44
-0.6822085976600647 1.8482130765914917 -0.5176383256912231 119
-0.7720429301261902 2.0927133560180664 -0.5061401724815369 119
-0.8215014934539795 2.2279739379882812 -0.4537179470062256 119
-0.8175352215766907 2.218409776687622 -0.36840346455574036 44
-0.822817325592041 2.2339446544647217 -0.2876119613647461 44
-0.8185189962387085 2.223471164703369 -0.20394474267959595 44
-0.8166573643684387 2.219609260559082 -0.1215369924902916 44
-0.8137938976287842 2.2130181789398193 -0.04008505120873451 44
-0.8146172761917114 2.216451406478882 0.6220543384552002 44
-0.8128284215927124 2.2127768993377686 0.5349787473678589 44
-0.8166983723640442 2.2245113849639893 0.45276445150375366 44
-0.8178616166114807 2.228882312774658 0.36955979466438293 44
-0.8145711421966553 2.221113681793213 0.2857836186885834 44
-0.8188421130180359 2.2339656352996826 0.20481598377227783 44
-0.8152677416801453 2.2254157066345215 0.12220446020364761 44
-0.8107006549835205 2.2141456604003906 0.04048958048224449 44
-0.6757528781890869 1.8505833148956299 -0.5176383256912231 119
-0.7647333145141602 2.095395565032959 -0.5061401724815369 119
-0.8120375871658325 2.226217031478882 -0.4527647793292999 119
-0.8080950379371643 2.2166101932525635 -0.3676212728023529 44
-0.8150143027305603 2.2368032932281494 -0.2876119613647461 44
-0.8090483546257019 2.221634864807129 -0.20350897312164307 44
-0.8071967959403992 2.217754364013672 -0.12127619236707687 44
-0.8043550252914429 2.2111475467681885 -0.03999866172671318 44
-0.805225133895874 2.214742422103882 0.6207610368728638 44
-0.8050994873046875 2.2156007289886475 0.5349787473678589 44
-0.807252824306488 2.2227354049682617 0.4518112540245056 44
-0.8083912134170532 2.227081060409546 0.3687784671783447 44
-0.8034279942512512 2.2146129608154297 0.28456491231918335 44
-0.809341311454773 2.2321276664733887 0.20438022911548615 44
-0.8057934045791626 2.2235536575317383 0.12194277346134186 44
-0.8012645244598389 2.21226167678833 0.04040231928229332 44
-0.6692890524864197 1.8529307842254639 -0.5176383256912231 119
-0.7574143409729004 2.0980522632598877 -0.5061401724815369 119
-0.8042616248130798 2.2290380001068115 -0.4527647793292999 119
-0.8003526329994202 2.2194175720214844 -0.3676212728023529 44
-0.8055188059806824 2.2349658012390137 -0.2870026230812073 44
-0.7996003031730652 2.2197587490081787 -0.203073188662529 44
-0.7994504570960999 2.2205581665039062 -0.12127619236707687 44
-0.7966318130493164 2.2139415740966797 -0.03999866172671318 44
-0.7974893450737 2.2175395488739014 0.6207610368728638 44
-0.7957127094268799 2.2138125896453857 0.5338548421859741 44
-0.7978297472000122 2.2209205627441406 0.45085808634757996 44
-0.8006123304367065 2.229889392852783 0.3687784671783447 44
-0.7940164804458618 2.2127325534820557 0.28395554423332214 44
-0.8015447854995728 2.2349393367767334 0.20438022911548615 44
-0.7980268001556396 2.2263526916503906 0.12194277346134186 44
-0.791851282119751 2.210338592529297 0.04031505808234215 44
-0.6628170609474182 1.8552558422088623 -0.5176383256912231 119
-0.7500861883163452 2.1006832122802734 -0.5061401724815369 119
-0.794826090335846 2.2272088527679443 -0.4518115520477295 119
-0.790941596031189 2.2175467014312744 -0.36683914065361023 44
-0.7977123856544495 2.2377638816833496 -0.2870026230812073 44
-0.7901753783226013 2.2178444862365723 -0.2026374191045761 44
-0.7900193929672241 2.2186315059661865 -0.12101537734270096 44
-0.787222683429718 2.21199893951416 -0.03991227224469185 44
-0.7881251573562622 2.215759038925171 0.6194678544998169 44
-0.7879801392555237 2.21657657623291 0.5338548421859741 44
-0.7884290814399719 2.219066619873047 0.4499048590660095 44
-0.7911711931228638 2.2280168533325195 0.3679971694946289 44
-0.7846280336380005 2.2108142375946045 0.2833462357521057 44
-0.7920732498168945 2.2330288887023926 0.20394442975521088 44
-0.7885821461677551 2.2244186401367188 0.1216811016201973 44
-0.7841309309005737 2.2130892276763916 0.04031505808234215 44
-0.6547279357910156 1.8530043363571167 -0.5163442492485046 119
-0.7427488565444946 2.1032888889312744 -0.5061401724815369 119
-0.785413384437561 2.225341558456421 -0.45085838437080383 119
-0.7831960916519165 2.2202939987182617 -0.36683914065361023 44
-0.7882461547851562 2.235854387283325 -0.28639328479766846 44
-0.7807735204696655 2.2158913612365723 -0.20220163464546204 44
-0.7806115746498108 2.2166659832000732 -0.12075457721948624 44
-0.7794964909553528 2.214733362197876 -0.03991227224469185 44
-0.7803859710693359 2.218496799468994 0.6194678544998169 44
-0.7786221504211426 2.214717388153076 0.5327309370040894 44
-0.7790512442588806 2.217174530029297 0.44895169138908386 44
-0.7817527055740356 2.226104974746704 0.3672158420085907 44
-0.7752624154090881 2.2088565826416016 0.2827368676662445 44
-0.7826250791549683 2.2310800552368164 0.203508660197258 44
-0.779160737991333 2.2224457263946533 0.12141941487789154 44
-0.7747480273246765 2.211095094680786 0.040227796882390976 44
-0.6482557654380798 1.855278491973877 -0.5163442492485046 119
-0.7354024648666382 2.1058685779571533 -0.5061401724815369 119
-0.777640700340271 2.228069543838501 -0.45085838437080383 119
-0.7738144993782043 2.218351364135742 -0.3660569489002228 44
-0.7804367542266846 2.2385921478271484 -0.28639328479766846 44
-0.7713949680328369 2.213899850845337 -0.20176586508750916 44
-0.7728692293167114 2.219377279281616 -0.12075457721948624 44
-0.7701177000999451 2.212719440460205 -0.03982588276267052 44
-0.7710503935813904 2.2166454792022705 0.6181745529174805 44
-0.7692868113517761 2.212820291519165 0.5316070318222046 44
-0.7696961760520935 2.2152438163757324 0.4479984939098358 44
-0.7723573446273804 2.2241551876068115 0.3664345443248749 44
-0.7675473690032959 2.2115492820739746 0.2827368676662445 44
-0.7732000350952148 2.2290923595428467 0.20307287573814392 44
-0.7697627544403076 2.2204344272613525 0.12115773558616638 44
-0.7653884291648865 2.209062099456787 0.040140531957149506 44
-0.6417756676673889 1.8575299978256226 -0.5163442492485046 119
-0.7280471324920654 2.1084227561950684 -0.5061401724815369 119
-0.7682573199272156 2.226130723953247 -0.4499051868915558 119
-0.7644560933113098 2.2163703441619873 -0.3652747869491577 44
-0.7710006833076477 2.2366111278533936 -0.28578394651412964 44
-0.7636623382568359 2.216578960418701 -0.20176586508750916 44
-0.7634918093681335 2.2173404693603516 -0.12049376219511032 44
-0.7607623338699341 2.2106668949127197 -0.03973948955535889 44
-0.7617373466491699 2.214756488800049 0.6168813109397888 44
-0.7599741220474243 2.2108843326568604 0.5304831266403198 44
-0.7603641152381897 2.213275194168091 0.44704532623291016 44
-0.7629851698875427 2.2221667766571045 0.36565321683883667 44
-0.7582122087478638 2.2095210552215576 0.2821275293827057 44
-0.7637984752655029 2.2270662784576416 0.20263710618019104 44
-0.7620072960853577 2.2231078147888184 0.12115773558616638 44
-0.7576727271080017 2.2117204666137695 0.040140531957149506 44
-0.6352878212928772 1.859758973121643 -0.5163442492485046 119
-0.7206829190254211 2.1109511852264404 -0.5061401724815369 119
-0.7604819536209106 2.2287988662719727 -0.4499051868915558 119
-0.7567148804664612 2.2190253734588623 -0.3652747869491577 44
-0.7615877389907837 2.234591245651245 -0.28517457842826843 44
-0.7543143033981323 2.2145161628723145 -0.20133008062839508 44
-0.7541379928588867 2.2152652740478516 -0.120232954621315 44
-0.7530410289764404 2.2133090496063232 -0.03973948955535889 44
-0.7524468302726746 2.2128288745880127 0.6155880689620972 44
-0.7522520422935486 2.2135236263275146 0.5304831266403198 44
-0.7510551810264587 2.211268424987793 0.4460921287536621 44
-0.7536362409591675 2.220139980316162 0.36487194895744324 44
-0.7489004731178284 2.2074546813964844 0.2815181612968445 44
-0.7544204592704773 2.225001573562622 0.20220132172107697 44
-0.7526400089263916 2.221025228500366 0.12089605629444122 44
-0.7483440041542053 2.2096164226531982 0.040053267031908035 44
-0.6272468566894531 1.8573893308639526 -0.5150501132011414 119
-0.7148678302764893 2.118069887161255 -0.5072649121284485 119
-0.751128613948822 2.2267889976501465 -0.4489520192146301 119
-0.7473867535591125 2.2169735431671143 -0.36449259519577026 44
-0.752198338508606 2.2325332164764404 -0.2845652401447296 44
-0.746579647064209 2.2171356678009033 -0.20133008062839508 44
-0.746400773525238 2.2178843021392822 -0.120232954621315 44
-0.7453105449676514 2.2159242630004883 -0.03973948955535889 44
-0.7431791424751282 2.2108640670776367 0.6142948269844055 44
-0.7429693341255188 2.211517810821533 0.5293592214584351 44
-0.7417694926261902 2.209223508834839 0.44513896107673645 44
-0.744310736656189 2.2180752754211426 0.36409062147140503 44
-0.741190493106842 2.210055351257324 0.2815181612968445 44
-0.7466491460800171 2.227621555328369 0.20220132172107697 44
-0.7448825836181641 2.2236387729644775 0.12089605629444122 44
-0.7390393614768982 2.207474708557129 0.03996600955724716 44
-0.6207596063613892 1.859567642211914 -0.5150501132011414 119
-0.7074699997901917 2.1205523014068604 -0.5072649121284485 119
-0.7433510422706604 2.2293972969055176 -0.4489520192146301 119
-0.7380822896957397 2.21488356590271 -0.3637104332447052 44
-0.742832601070404 2.2304365634918213 -0.2839558720588684 44
-0.7372627258300781 2.2150020599365234 -0.2008943110704422 44
-0.7370781898498535 2.21573805809021 -0.11997213959693909 44
-0.7359937429428101 2.2137680053710938 -0.039653100073337555 44
-0.7339343428611755 2.2088613510131836 0.6130015254020691 44
-0.7352451682090759 2.214097738265991 0.5293592214584351 44
-0.7325073480606079 2.2071409225463867 0.444185733795166 44
-0.735008955001831 2.215972661972046 0.3633093237876892 44
-0.7319099307060242 2.207918643951416 0.28090885281562805 44
-0.737302303314209 2.2254858016967773 0.20176555216312408 44
-0.7355465888977051 2.2214853763580322 0.12063437700271606 44
-0.7313293814659119 2.210041046142578 0.03996600955724716 44
-0.6127514243125916 1.857136845588684 -0.5137560367584229 119
-0.7000636458396912 2.123008966445923 -0.5072649121284485 119
-0.7340282201766968 2.2273168563842773 -0.4479987919330597 119
-0.7303463816642761 2.2174465656280518 -0.3637104332447052 44
-0.73504239320755 2.233016014099121 -0.2839558720588684 44
-0.7279698848724365 2.2128305435180664 -0.20045851171016693 44
-0.7277798056602478 2.2135541439056396 -0.11971132457256317 44
-0.7282617688179016 2.2163236141204834 -0.039653100073337555 44
-0.7247125506401062 2.2068209648132324 0.6117083430290222 44
-0.727512001991272 2.2166507244110107 0.5293592214584351 44
-0.7247985005378723 2.209684371948242 0.444185733795166 44
-0.7272693514823914 2.218524694442749 0.3633093237876892 44
-0.7241984009742737 2.2104599475860596 0.28090885281562805 44
-0.7279794812202454 2.2233123779296875 0.20132976770401 44
-0.7262347936630249 2.2192938327789307 0.1203726977109909 44
-0.7220563888549805 2.2078285217285156 0.03987874463200569 44
-0.606265127658844 1.8592643737792969 -0.5137560367584229 119
-0.692648708820343 2.1254396438598633 -0.5072649121284485 119
-0.7247288823127747 2.22519850730896 -0.4470456540584564 119
-0.7210730910301208 2.2152864933013916 -0.36292824149131775 44
-0.7257081270217896 2.230849027633667 -0.283346563577652 44
-0.7202411890029907 2.215358018875122 -0.20045851171016693 44
-0.7185056805610657 2.211332321166992 -0.11945052444934845 44
-0.7189769744873047 2.214097738265991 -0.03956671059131622 44
-0.7170048952102661 2.2093372344970703 0.6117083430290222 44
-0.7182669043540955 2.2145421504974365 0.5282353162765503 44
-0.715567409992218 2.2075321674346924 0.44323256611824036 44
-0.7179986834526062 2.216351270675659 0.362527996301651 44
-0.7149493098258972 2.2082526683807373 0.28029948472976685 44
-0.7202141880989075 2.225839853286743 0.20132976770401 44
-0.7169472575187683 2.217064380645752 0.12011101096868515 44
-0.7143452763557434 2.2103354930877686 0.03987874463200569 44
-0.5982901453971863 1.8567723035812378 -0.5124619007110596 119
-0.6852253079414368 2.1278445720672607 -0.5072649121284485 119
-0.7154533863067627 2.2230424880981445 -0.446092426776886 119
-0.7118238210678101 2.2130889892578125 -0.3621461093425751 44
-0.7179165482521057 2.2333688735961914 -0.283346563577652 44
-0.7109802961349487 2.213116407394409 -0.20002272725105286 44
-0.7092558741569519 2.2090725898742676 -0.11918970942497253 44
-0.7112439274787903 2.2165937423706055 -0.03956671059131622 44
-0.7078136205673218 2.2072272300720215 0.6104150414466858 44
-0.7105323672294617 2.217036008834839 0.5282353162765503 44
-0.7078573107719421 2.2100164890289307 0.44323256611824036 44
-0.7087523341178894 2.2141408920288086 0.3617466986179352 44
-0.7057245969772339 2.206008195877075 0.27969011664390564 44
-0.7109233736991882 2.2235960960388184 0.20089399814605713 44
-0.7076841592788696 2.214797258377075 0.11984933912754059 44
-0.7051047086715698 2.2080535888671875 0.03979148343205452 44
-0.5918051600456238 1.8588494062423706 -0.5124619007110596 119
-0.6777935028076172 2.130223512649536 -0.5072649121284485 119
-0.7062017917633057 2.22084903717041 -0.4451392590999603 119
-0.7025985717773438 2.2108535766601562 -0.3613639175891876 44
-0.7086139917373657 2.231131076812744 -0.28273719549179077 44
-0.7032507061958313 2.2155847549438477 -0.20002272725105286 44
-0.7000306248664856 2.206775426864624 -0.11892890930175781 44
-0.7019914984703064 2.2142975330352783 -0.03948031738400459 44
-0.7001046538352966 2.2096846103668213 0.6104150414466858 44
-0.7013183832168579 2.214858055114746 0.5271114110946655 44
-0.6986576914787292 2.207793951034546 0.4422793686389923 44
-0.7010191679000854 2.2166013717651367 0.3617466986179352 44
-0.6980199217796326 2.208458423614502 0.27969011664390564 44
-0.7031572461128235 2.2260642051696777 0.20089399814605713 44
-0.6984455585479736 2.2124924659729004 0.11958765238523483 44
-0.6958886981010437 2.2057337760925293 0.03970422223210335 44
-0.5838638544082642 1.8562967777252197 -0.5111678242683411 119
-0.6688926815986633 2.1279289722442627 -0.5061401724815369 119
-0.6969742178916931 2.2186174392700195 -0.4441860616207123 119
-0.694877028465271 2.2132925987243652 -0.3613639175891876 44
-0.6993358135223389 2.228855848312378 -0.28212785720825195 44
-0.6940222978591919 2.213273525238037 -0.19958695769309998 44
-0.6923233270645142 2.2092056274414062 -0.11892890930175781 44
-0.6927637457847595 2.2119638919830322 -0.03939393162727356 44
-0.690944492816925 2.207505941390991 0.6091217994689941 44
-0.6935828328132629 2.217292547225952 0.5271114110946655 44
-0.6909467577934265 2.210219144821167 0.4422793686389923 44
-0.6918047070503235 2.2143208980560303 0.360965371131897 44
-0.6888275742530823 2.206144332885742 0.2790807783603668 44
-0.6938987970352173 2.223750114440918 0.20045821368694305 44
-0.689231812953949 2.2101502418518066 0.11932597309350967 44
-0.6881849765777588 2.2081494331359863 0.03970422223210335 44
-0.5770562291145325 1.858424186706543 -0.5111678242683411 119
-0.6610888838768005 2.130366325378418 -0.5061401724815369 119
-0.6888378858566284 2.2211570739746094 -0.4441860616207123 119
-0.6852982640266418 2.2111074924468994 -0.36058175563812256 44
-0.6896936297416687 2.226663589477539 -0.28151848912239075 44
-0.6859056353569031 2.2158021926879883 -0.19958695769309998 44
-0.6827458143234253 2.206958055496216 -0.1186680942773819 44
-0.684651792049408 2.2144880294799805 -0.03939393162727356 44
-0.6828489303588867 2.2100234031677246 0.6091217994689941 44
-0.6840139627456665 2.2151646614074707 0.5259875059127808 44
-0.6813940405845642 2.2080469131469727 0.44132620096206665 44
-0.683684229850769 2.216841459274292 0.360965371131897 44
-0.6792752742767334 2.203911304473877 0.2784714102745056 44
-0.6857436895370483 2.226278305053711 0.20045821368694305 44
-0.6796575784683228 2.2078893184661865 0.11906429380178452 44
-0.6786171197891235 2.205878734588623 0.039616961032152176 44
-0.5705656409263611 1.8604271411895752 -0.5111678242683411 119
-0.6522207856178284 2.128002882003784 -0.5050153732299805 119
-0.6796429753303528 2.218855142593384 -0.4432328939437866 119
-0.6775758862495422 2.2134861946105957 -0.36058175563812256 44
-0.6819169521331787 2.229057550430298 -0.28151848912239075 44
-0.6767105460166931 2.2134196758270264 -0.1991511732339859 44
-0.6750379204750061 2.2093279361724854 -0.1186680942773819 44
-0.6754576563835144 2.212082862854004 -0.03930753841996193 44
-0.6751303672790527 2.2123935222625732 0.6091217994689941 44
-0.6748561859130859 2.212878704071045 0.524863600730896 44
-0.6736823916435242 2.21041202545166 0.44132620096206665 44
-0.674502968788147 2.2144904136657715 0.36018407344818115 44
-0.671578049659729 2.2062690258026123 0.2784714102745056 44
-0.6765186786651611 2.223893165588379 0.20002241432666779 44
-0.6719464063644409 2.2102484703063965 0.11906429380178452 44
-0.6694533228874207 2.2034525871276855 0.039529696106910706 44
-0.5640680193901062 1.8624075651168823 -0.5111678242683411 119
-0.6447887420654297 2.1302664279937744 -0.5050153732299805 119
-0.6704724431037903 2.2165160179138184 -0.4422796666622162 119
-0.6684161424636841 2.2111105918884277 -0.3597995638847351 44
-0.6726967096328735 2.2266736030578613 -0.28090915083885193 44
-0.6689801216125488 2.215768337249756 -0.1991511732339859 44
-0.6658794283866882 2.20689058303833 -0.11840728670358658 44
-0.6662886738777161 2.2096409797668457 -0.0392211489379406 44
-0.6660099029541016 2.2101120948791504 0.6078285574913025 44
-0.6657227277755737 2.2105555534362793 0.5237396955490112 44
-0.6645478010177612 2.208050012588501 0.4403730034828186 44
-0.6667687892913818 2.2168314456939697 0.36018407344818115 44
-0.6624441742897034 2.2038474082946777 0.2778621017932892 44
-0.6687517166137695 2.226241111755371 0.20002241432666779 44
-0.6627914309501648 2.2077982425689697 0.11880261451005936 44
-0.6617641448974609 2.2057740688323975 0.039529696106910706 44
-0.5589474439620972 1.8689923286437988 -0.5124619007110596 119
-0.6373487710952759 2.1325042247772217 -0.5050153732299805 119
-0.6627312898635864 2.2188429832458496 -0.4422796666622162 119
-0.660693883895874 2.213430404663086 -0.3597995638847351 44
-0.6649200916290283 2.229008436203003 -0.28090915083885193 44
-0.6598185300827026 2.2133164405822754 -0.19871540367603302 44
-0.6567462682723999 2.204416036605835 -0.11814647167921066 44
-0.6557183861732483 2.2023704051971436 -0.039048369973897934 44
-0.6582911014556885 2.212423324584961 0.6078285574913025 44
-0.6580024361610413 2.2128660678863525 0.5237396955490112 44
-0.6568362712860107 2.2103562355041504 0.4403730034828186 44
-0.6576206088066101 2.2144110202789307 0.35940274596214294 44
-0.6547472476959229 2.206146240234375 0.2778621017932892 44
-0.6595602631568909 2.2237865924835205 0.1995866447687149 44
-0.6550807952880859 2.2100982666015625 0.11880261451005936 44
-0.652640700340271 2.203277349472046 0.03944243863224983 44
-0.5524200201034546 1.8709319829940796 -0.5124619007110596 119
-0.6299010515213013 2.134716033935547 -0.5050153732299805 119
-0.6535937190055847 2.216434955596924 -0.4413264989852905 119
-0.6515675783157349 2.2109861373901367 -0.35901737213134766 44
-0.6571353077888489 2.2313156127929688 -0.28090915083885193 44
-0.6520885825157166 2.215606212615967 -0.19871540367603302 44
-0.6490474343299866 2.206695079803467 -0.11814647167921066 44
-0.6466168761253357 2.1998496055603027 -0.038961976766586304 44
-0.6492031216621399 2.210073947906494 0.6065353155136108 44
-0.6489018201828003 2.210474729537964 0.5226157903671265 44
-0.6477349996566772 2.207926034927368 0.43941983580589294 44
-0.6498869061470032 2.216693162918091 0.35940274596214294 44
-0.6456469893455505 2.20365571975708 0.277252733707428 44
-0.6503941416740417 2.22129487991333 0.19915086030960083 44
-0.6459598541259766 2.2075791358947754 0.1185409352183342 44
-0.6449458599090576 2.2055418491363525 0.03944243863224983 44
-0.549940288066864 1.8867590427398682 -0.5163442492485046 119
-0.6224456429481506 2.13690185546875 -0.5050153732299805 119
-0.6444810628890991 2.2139902114868164 -0.4403733015060425 119
-0.6424663662910461 2.208505153656006 -0.3582352101802826 44
-0.6479571461677551 2.228830337524414 -0.2802998125553131 44
-0.6429610252380371 2.213085651397705 -0.19827960431575775 44
-0.6399484276771545 2.2041521072387695 -0.11788567155599594 44
-0.6333616971969604 2.1828882694244385 -0.03861641883850098 44
-0.6414846181869507 2.2123265266418457 0.6065353155136108 44
-0.6411818861961365 2.212726354598999 0.5226157903671265 44
-0.6386587619781494 2.205458879470825 0.4384666085243225 44
-0.64077228307724 2.2142038345336914 0.35862141847610474 44
-0.6365721225738525 2.2011287212371826 0.27664339542388916 44
-0.6426364183425903 2.2235517501831055 0.19915086030960083 44
-0.6382499933242798 2.209820508956909 0.1185409352183342 44
-0.6358568072319031 2.202976703643799 0.03935517370700836 44
-0.5433509349822998 1.8886672258377075 -0.5163442492485046 119
-0.6149827241897583 2.139061450958252 -0.5050153732299805 119
-0.6367489099502563 2.21622633934021 -0.4403733015060425 119
-0.634753406047821 2.2107343673706055 -0.3582352101802826 44
-0.6401731371879578 2.2310783863067627 -0.2802998125553131 44
-0.6352320313453674 2.2153165340423584 -0.19827960431575775 44
-0.6308751106262207 2.2015724182128906 -0.11762485653162003 44
-0.6298671364784241 2.1995043754577637 -0.03887559100985527 44
-0.6324292421340942 2.2099087238311768 0.6052420139312744 44
-0.6321144104003906 2.210266590118408 0.5214918851852417 44
-0.6309563517570496 2.207674741744995 0.4384666085243225 44
-0.6330393552780151 2.2164270877838135 0.35862141847610474 44
-0.6288848519325256 2.2033371925354004 0.27664339542388916 44
-0.6335045695304871 2.220991611480713 0.19871509075164795 44
-0.6291636824607849 2.207233428955078 0.11827925592660904 44
-0.6267935037612915 2.2003748416900635 0.03926791250705719 44
-0.5459884405136108 1.9230743646621704 -0.5254029035568237 119
-0.6075122356414795 2.141195297241211 -0.5050153732299805 119
-0.6276700496673584 2.2137134075164795 -0.4394201338291168 119
-0.6256862878799438 2.2081851959228516 -0.35745301842689514 44
-0.6310292482376099 2.228524684906006 -0.2796904444694519 44
-0.6261391043663025 2.2127277851104736 -0.19784384965896606 44
-0.6218276619911194 2.1989564895629883 -0.1173640564084053 44
-0.6289831399917603 2.225743532180786 -0.03930753841996193 44
-0.6233988404273987 2.2074549198150635 0.6039488315582275 44
-0.6243953108787537 2.2124598026275635 0.5214918851852417 44
-0.6219138503074646 2.205139398574829 0.43751341104507446 44
-0.6252987384796143 2.218623399734497 0.35862141847610474 44
-0.6198445558547974 2.200742244720459 0.27603402733802795 44
-0.6257480382919312 2.223189353942871 0.19871509075164795 44
-0.621455192565918 2.209415912628174 0.11827925592660904 44
-0.6191089749336243 2.202549457550049 0.03926791250705719 44
-0.5304827094078064 1.8923218250274658 -0.5163442492485046 119
-0.6020976305007935 2.1477842330932617 -0.5061401724815369 119
-0.620712399482727 2.21567440032959 -0.4394201338291168 119
-0.6174145936965942 2.2053842544555664 -0.35667088627815247 44
-0.6240250468254089 2.2304959297180176 -0.2796904444694519 44
-0.6191845536231995 2.214684009552002 -0.19784384965896606 44
-0.6135727763175964 2.19608998298645 -0.11710324138402939 44
-0.6300541162490845 2.2565994262695312 -0.03982588276267052 44
-0.6151627898216248 2.2047502994537354 0.6026555299758911 44
-0.6161330342292786 2.209717273712158 0.5203679800033569 44
-0.6149832010269165 2.2070822715759277 0.43751341104507446 44
-0.617000937461853 2.2158195972442627 0.3578401207923889 44
-0.6115972995758057 2.1978976726531982 0.2754247188568115 44
-0.6187605857849121 2.225144386291504 0.19871509075164795 44
-0.6131741404533386 2.2065465450286865 0.11801756918430328 44
-0.6108486652374268 2.1996665000915527 0.03918064758181572 44
-0.5254928469657898 1.8987252712249756 -0.5176383256912231 119
-0.594596803188324 2.1498730182647705 -0.5061401724815369 119
-0.6116669178009033 2.2130963802337646 -0.4384669363498688 119
-0.6097126007080078 2.207526206970215 -0.35667088627815247 44
-0.6149149537086487 2.227876901626587 -0.2790811061859131 44
-0.6101256608963013 2.2120301723480225 -0.1974080502986908 44
-0.6045765280723572 2.1934049129486084 -0.11684243381023407 44
-0.6235008239746094 2.2636044025421143 -0.03991227224469185 44
-0.6074630618095398 2.2068841457366943 0.6026555299758911 44
-0.6084159016609192 2.2118546962738037 0.5203679800033569 44
-0.6059743762016296 2.2044830322265625 0.4365602433681488 44
-0.6092625260353088 2.2179596424102783 0.3578401207923889 44
-0.6026076674461365 2.1952333450317383 0.2748153507709503 44
-0.609671950340271 2.222486972808838 0.19827930629253387 44
-0.6054681539535522 2.2086734771728516 0.11801756918430328 44
-0.601845920085907 2.1969637870788574 0.039093390107154846 44
-0.5172589421272278 1.8959791660308838 -0.5163442492485046 119
-0.5879944562911987 2.156738042831421 -0.5072649121284485 119
-0.6022611856460571 2.210587739944458 -0.43751370906829834 119
-0.6003201603889465 2.2049808502197266 -0.355888694524765 44
-0.6054424047470093 2.2253267765045166 -0.2784717381000519 44
-0.6020140647888184 2.2142515182495117 -0.1974080502986908 44
-0.597842276096344 2.2004244327545166 -0.11710324138402939 44
-0.6165100932121277 2.2706992626190186 -0.03999866172671318 44
-0.5981056094169617 2.204434394836426 0.6013622879981995 44
-0.6003050208091736 2.2140698432922363 0.5203679800033569 44
-0.5978904962539673 2.2066893577575684 0.4365602433681488 44
-0.5998384952545166 2.2154109477996826 0.3570587933063507 44
-0.5932616591453552 2.1926369667053223 0.2742060124874115 44
-0.6015219688415527 2.2247066497802734 0.19827930629253387 44
-0.5986713171005249 2.2156982421875 0.11827925592660904 44
-0.5924863815307617 2.1943283081054688 0.039006125181913376 44
-0.5081278681755066 1.8884458541870117 -0.5137560367584229 119
-0.5804625153541565 2.1587772369384766 -0.5072649121284485 119
-0.594541072845459 2.212676525115967 -0.43751370906829834 119
-0.5913390517234802 2.202293634414673 -0.35510653257369995 44
-0.5976707935333252 2.227426767349243 -0.2784717381000519 44
-0.5942811965942383 2.216339349746704 -0.1974080502986908 44
-0.5914500951766968 2.2073209285736084 -0.1173640564084053 44
-0.6047008037567139 2.258349895477295 -0.03973948955535889 44
-0.5904070138931274 2.2065088748931885 0.6013622879981995 44
-0.5913142561912537 2.211444854736328 0.5192440748214722 44
-0.5889169573783875 2.2040207386016846 0.43560701608657837 44
-0.5908275842666626 2.2127199172973633 0.3562775254249573 44
-0.5856043100357056 2.1946945190429688 0.2742060124874115 44
-0.5924693942070007 2.221980094909668 0.197843536734581 44
-0.5909333825111389 2.2177743911743164 0.11827925592660904 44
-0.5835368633270264 2.1915526390075684 0.038918863981962204 44
-0.5061540603637695 1.9089685678482056 -0.5189324021339417 119
-0.5725463032722473 2.1608903408050537 -0.5072649121284485 119
-0.5851709842681885 2.2100961208343506 -0.4365605413913727 119
-0.5832632780075073 2.2044460773468018 -0.35510653257369995 44
-0.5882343649864197 2.224804639816284 -0.27786242961883545 44
-0.584881603717804 2.213686943054199 -0.19697228074073792 44
-0.585905134677887 2.2191293239593506 -0.11788567155599594 44
-0.5964195132255554 2.2605509757995605 -0.03973948955535889 44
-0.5823158025741577 2.208657741546631 0.6013622879981995 44
-0.5819637179374695 2.20888614654541 0.5181202292442322 44
-0.5795852541923523 2.201417922973633 0.4346538782119751 44
-0.5814570188522339 2.2100942134857178 0.35549619793891907 44
-0.576294481754303 2.192026376724243 0.2735966444015503 44
-0.5843214988708496 2.2241368293762207 0.197843536734581 44
-0.5828008651733398 2.2199254035949707 0.11827925592660904 44
-0.5742319226264954 2.188840866088867 0.03883160278201103 44
-0.48849406838417053 1.8686702251434326 -0.5072855353355408 119
-0.5637685656547546 2.1581623554229736 -0.5061401724815369 119
-0.576213002204895 2.207376003265381 -0.43560734391212463 119
-0.5743182897567749 2.201690196990967 -0.3543243408203125 44
-0.5792129635810852 2.2220420837402344 -0.27725306153297424 44
-0.577150821685791 2.215715169906616 -0.19697228074073792 44
-0.580670952796936 2.230825424194336 -0.11840728670358658 44
-0.5872665643692017 2.2577807903289795 -0.039653100073337555 44
-0.5733875632286072 2.2060024738311768 0.6000690460205078 44
-0.5742496848106384 2.210904359817505 0.5181202292442322 44
-0.5718973278999329 2.203427791595459 0.4346538782119751 44
-0.5724989771842957 2.2073302268981934 0.35471490025520325 44
-0.56863933801651 2.1940245628356934 0.2735966444015503 44
-0.5753052830696106 2.2213406562805176 0.19740775227546692 44
-0.5725463032722473 2.212278366088867 0.11775589734315872 44
-0.5665879249572754 2.1908321380615234 0.03883160278201103 44
-0.4916096031665802 1.9077788591384888 -0.5176383256912231 119
-0.5562317371368408 2.1601171493530273 -0.5061401724815369 119
-0.568504273891449 2.209373950958252 -0.43560734391212463 119
-0.5666294693946838 2.203681468963623 -0.3543243408203125 44
-0.5702180862426758 2.2192437648773193 -0.2766437232494354 44
-0.5681743025779724 2.2128918170928955 -0.19653649628162384 44
-0.57660311460495 2.2473483085632324 -0.11918970942497253 44
-0.5781403183937073 2.254974365234375 -0.03956671059131622 44
-0.5656837224960327 2.2079906463623047 0.6000690460205078 44
-0.5653203725814819 2.2081754207611084 0.5169962644577026 44
-0.562985897064209 2.200655460357666 0.43370065093040466 44
-0.5647904872894287 2.209315061569214 0.35471490025520325 44
-0.5597490668296814 2.191187858581543 0.27298733592033386 44
-0.5663159489631653 2.2185091972351074 0.19697198271751404 44
-0.5635863542556763 2.209425210952759 0.11749421060085297 44
-0.5577022433280945 2.1879522800445557 0.03874434158205986 44
-0.47900301218032837 1.886078119277954 -0.5111678242683411 119
-0.5474897027015686 2.157323122024536 -0.5050153732299805 119
-0.5595821738243103 2.206587076187134 -0.434654176235199 119
-0.5577206611633301 2.2008588314056396 -0.35354217886924744 44
-0.5612497925758362 2.216409921646118 -0.2760343551635742 44
-0.5604463815689087 2.2148616313934326 -0.19653649628162384 44
-0.5663068890571594 2.2396657466888428 -0.1186680942773819 44
-0.5702654719352722 2.256978750228882 -0.03956671059131622 44
-0.5567906498908997 2.2052690982818604 0.5987758040428162 44
-0.5564170479774475 2.205410957336426 0.5158723592758179 44
-0.555300772190094 2.2026071548461914 0.43370065093040466 44
-0.5558686256408691 2.206484079360962 0.35393357276916504 44
-0.552096962928772 2.1931285858154297 0.27298733592033386 44
-0.5573533177375793 2.215641975402832 0.19653619825839996 44
-0.5534361004829407 2.2016940116882324 0.11697085201740265 44
-0.5500614643096924 2.1898856163024902 0.03874434158205986 44
nan nan nan 0
-0.5399559140205383 2.1592209339141846 -0.5050153732299805 119
-0.5506863594055176 2.2037651538848877 -0.43370094895362854 119
-0.5500348210334778 2.2027924060821533 -0.35354217886924744 44
-0.5535096526145935 2.218355417251587 -0.2760343551635742 44
-0.5515066385269165 2.2119715213775635 -0.19610072672367096 44
-0.5560712814331055 2.231938600540161 -0.11814647167921066 44
-0.5611759424209595 2.2541046142578125 -0.03948031738400459 44
-0.5490894317626953 2.2071993350982666 0.5987758040428162 44
-0.5475400686264038 2.2026119232177734 0.5147484540939331 44
-0.5464255809783936 2.199768543243408 0.432747483253479 44
-0.546973466873169 2.203618049621582 0.3531522750854492 44
-0.543243408203125 2.190225601196289 0.27237796783447266 44
-0.5496158599853516 2.217574119567871 0.19653619825839996 44
-0.5445470213890076 2.198765754699707 0.11670918017625809 44
-0.5424140095710754 2.1917922496795654 0.03874434158205986 44
-0.46466803550720215 1.884687066078186 -0.5098737478256226 119
-0.532415509223938 2.161092758178711 -0.5050153732299805 119
-0.5429904460906982 2.205673933029175 -0.43370094895362854 119
-0.5423423051834106 2.2046988010406494 -0.35354217886924744 44
-0.5445781350135803 2.2154548168182373 -0.2754250168800354 44
-0.5437820553779602 2.2138829231262207 -0.19610072672367096 44
-0.544706404209137 2.219318151473999 -0.1173640564084053 44
-0.5521134734153748 2.251194477081299 -0.03939393162727356 44
-0.5402318239212036 2.204411029815674 0.5974825024604797 44
-0.5398481488227844 2.204509735107422 0.5147484540939331 44
-0.5375770330429077 2.196894884109497 0.43179428577423096 44
-0.5392780900001526 2.2055139541625977 0.3531522750854492 44
-0.5355948209762573 2.192108392715454 0.27237796783447266 44
-0.5406904220581055 2.2146403789520264 0.19610042870044708 44
-0.5368686318397522 2.200653314590454 0.11670918017625809 44
-0.5335758328437805 2.188815116882324 0.03865707665681839 44
-0.44896844029426575 1.8487516641616821 -0.4995209574699402 119
-0.523719847202301 2.1582038402557373 -0.5038906931877136 119
-0.5341312885284424 2.2027859687805176 -0.4327477812767029 119
-0.5346431732177734 2.206578493118286 -0.35354217886924744 44
-0.5368414521217346 2.2173421382904053 -0.2754250168800354 44
-0.5360508561134338 2.2157676219940186 -0.19610072672367096 44
-0.5334364175796509 2.206645965576172 -0.11658161878585815 44
-0.5430781245231628 2.248248338699341 -0.03930753841996193 44
-0.5314005017280579 2.2015886306762695 0.5961893200874329 44
-0.5310073494911194 2.2016444206237793 0.5136245489120483 44
-0.5299051403999329 2.198758125305176 0.43179428577423096 44
-0.5315761566162109 2.207382917404175 0.3531522750854492 44
-0.5279396772384644 2.193964719772339 0.27237796783447266 44
-0.5317921042442322 2.2116713523864746 0.19566462934017181 44
-0.5291836261749268 2.2025139331817627 0.11670918017625809 44
-0.5259321928024292 2.190664291381836 0.03865707665681839 44
-0.45037585496902466 1.8831877708435059 -0.5085796117782593 119
-0.5173154473304749 2.164757013320923 -0.5050153732299805 119
-0.5264388918876648 2.204637289047241 -0.4327477812767029 119
-0.525791347026825 2.203627586364746 -0.35275998711586 44
-0.5290982127189636 2.219202756881714 -0.2754250168800354 44
-0.527158796787262 2.212779998779297 -0.19566494226455688 44
-0.53266841173172 2.2376394271850586 -0.11814647167921066 44
-0.5329131484031677 2.240403175354004 -0.039134759455919266 44
-0.5237122774124146 2.20343017578125 0.5961893200874329 44
-0.5233189463615417 2.203484535217285 0.5136245489120483 44
-0.521093487739563 2.1958186626434326 0.4308411180973053 44
-0.5227282047271729 2.2044193744659424 0.352370947599411 44
-0.5191339254379272 2.190965175628662 0.27176862955093384 44
-0.5240686535835266 2.2135140895843506 0.19566462934017181 44
-0.5203426480293274 2.199488639831543 0.11644749343395233 44
-0.5171321034431458 2.187621831893921 0.038569819182157516 44
nan nan nan 0
-0.5097558498382568 2.1665496826171875 -0.5050153732299805 119
-0.5187400579452515 2.2064614295959473 -0.4327477812767029 119
-0.5180960297584534 2.2054495811462402 -0.35275998711586 44
-0.5202143788337708 2.2162044048309326 -0.2748156785964966 44
-0.5194315314292908 2.214606523513794 -0.19566494226455688 44
-0.5282724499702454 2.2540695667266846 -0.11892890930175781 44
-0.5228096842765808 2.2325143814086914 -0.038961976766586304 44
-0.514917254447937 2.2005419731140137 0.5948960185050964 44
-0.5145149230957031 2.2005538940429688 0.5125006437301636 44
-0.5134254693984985 2.1976242065429688 0.4308411180973053 44
-0.5150300860404968 2.206230640411377 0.352370947599411 44
-0.511482834815979 2.1927640438079834 0.27176862955093384 44
-0.5152082443237305 2.2104787826538086 0.19522887468338013 44
-0.5126618146896362 2.201291561126709 0.11644749343395233 44
-0.5094926953315735 2.189413547515869 0.038569819182157516 44
nan nan nan 0
-0.5021900534629822 2.1683156490325928 -0.5050153732299805 119
-0.5099282264709473 2.2034764289855957 -0.43179458379745483 119
-0.5092818140983582 2.2024331092834473 -0.3519778251647949 44
-0.5124752521514893 2.2180068492889404 -0.2748156785964966 44
-0.5116979479789734 2.2164063453674316 -0.19566494226455688 44
-0.5226458311080933 2.2656304836273193 -0.11945052444934845 44
-0.5138907432556152 2.229454755783081 -0.03887559100985527 44
-0.5072327852249146 2.2023260593414307 0.5948960185050964 44
-0.5068304538726807 2.202336311340332 0.5125006437301636 44
-0.5057511925697327 2.1994030475616455 0.4308411180973053 44
-0.5073257684707642 2.208014965057373 0.352370947599411 44
-0.5027150511741638 2.1896989345550537 0.27115926146507263 44
-0.5074890851974487 2.212263822555542 0.19522887468338013 44
-0.5049747824668884 2.2030675411224365 0.11644749343395233 44
-0.5007310509681702 2.1863057613372803 0.038482554256916046 44
nan nan nan 0
-0.49461814761161804 2.170055389404297 -0.5050153732299805 119
-0.5022335648536682 2.2052431106567383 -0.43179458379745483 119
-0.5004950165748596 2.1993820667266846 -0.35119566321372986 44
-0.5036295652389526 2.2149431705474854 -0.27420634031295776 44
-0.5028546452522278 2.2133219242095947 -0.195229172706604 44
-0.5136287212371826 2.2625718116760254 -0.11918970942497253 44
-0.5049994587898254 2.2263593673706055 -0.03878919780254364 44
-0.49847450852394104 2.1993725299835205 0.59360271692276 44
-0.4980636537075043 2.199340343475342 0.5113767385482788 44
-0.49807077646255493 2.201154947280884 0.4308411180973053 44
-0.49852627515792847 2.204955577850342 0.3515896499156952 44
-0.4950684905052185 2.1914403438568115 0.27115926146507263 44
-0.49976375699043274 2.214021921157837 0.19522887468338013 44
-0.49618303775787354 2.199946165084839 0.11618582159280777 44
-0.49309641122817993 2.188040256500244 0.038482554256916046 44
-0.42615386843681335 1.8987172842025757 -0.5111678242683411 119
-0.4859742522239685 2.167015314102173 -0.5038906931877136 119
-0.4945327639579773 2.2069826126098633 -0.43179458379745483 119
-0.4917357563972473 2.1962966918945312 -0.3504135012626648 44
-0.4958948791027069 2.2166876792907715 -0.27420634031295776 44
-0.4951256215572357 2.2150635719299316 -0.195229172706604 44
-0.5035509467124939 2.2546045780181885 -0.1186680942773819 44
-0.49504727125167847 2.2183499336242676 -0.03861641883850098 44
-0.49079424142837524 2.201099157333374 0.59360271692276 44
-0.4903835356235504 2.2010655403137207 0.5113767385482788 44
-0.48931771516799927 2.198089122772217 0.42988792061805725 44
-0.49082648754119873 2.2066824436187744 0.3515896499156952 44
-0.486339271068573 2.1883106231689453 0.2705499529838562 44
-0.49203231930732727 2.2157528400421143 0.19522887468338013 44
-0.4885007441043854 2.201664924621582 0.11618582159280777 44
-0.4854556918144226 2.1897482872009277 0.038482554256916046 44
-0.4195235073566437 1.9001933336257935 -0.5111678242683411 119
-0.4773574471473694 2.163940668106079 -0.5027658939361572 119
-0.48576948046684265 2.20390248298645 -0.4308414161205292 119
-0.48406627774238586 2.197999954223633 -0.3504135012626648 44
-0.48815420269966125 2.218405246734619 -0.27420634031295776 44
-0.48632097244262695 2.211913585662842 -0.19479337334632874 44
-0.4935351312160492 2.2465949058532715 -0.11814647167921066 44
-0.48622897267341614 2.215181589126587 -0.038530029356479645 44
-0.4820733368396759 2.1980812549591064 0.5923095345497131 44
-0.4816545248031616 2.198004961013794 0.510252833366394 44
-0.4816420078277588 2.1997838020324707 0.42988792061805725 44
-0.4820652902126312 2.2035577297210693 0.350808322429657 44
-0.47763791680336 2.1851468086242676 0.269940584897995 44
-0.4832321107387543 2.212590456008911 0.19479307532310486 44
-0.4797479510307312 2.1984782218933105 0.11592413485050201 44
-0.4778091013431549 2.191429376602173 0.038482554256916046 44
-0.4139128029346466 1.9063658714294434 -0.5124619007110596 119
-0.4687681496143341 2.1608328819274902 -0.5016411542892456 119
-0.47807347774505615 2.205584764480591 -0.4308414161205292 0
-0.47534552216529846 2.194849729537964 -0.34963130950927734 44
-0.47935789823532104 2.215245008468628 -0.27359697222709656 44
-0.4785970151424408 2.2135977745056152 -0.19479337334632874 44
-0.4835813343524933 2.2385427951812744 -0.11762485653162003 44
-0.477438747882843 2.2119786739349365 -0.038443636149168015 44
-0.4733794629573822 2.1950292587280273 0.5910162329673767 44
-0.473979115486145 2.1996726989746094 0.510252833366394 44
-0.4729273319244385 2.1966536045074463 0.4289347529411316 44
-0.47333192825317383 2.2003989219665527 0.35002702474594116 44
-0.47000744938850403 2.186800718307495 0.269940584897995 44
-0.4755057692527771 2.214263916015625 0.19479307532310486 44
-0.47207093238830566 2.2001395225524902 0.11592413485050201 44
-0.4691087603569031 2.1881957054138184 0.038395293056964874 44
-0.40390053391456604 1.8936998844146729 -0.5085796117782593 119
-0.46084514260292053 2.16253662109375 -0.5016411542892456 119
-0.46896418929100037 2.2025210857391357 -0.42988821864128113 0
-0.46729782223701477 2.1965770721435547 -0.34963130950927734 44
-0.47123539447784424 2.216987133026123 -0.27359697222709656 44
-0.4704805612564087 2.215337038040161 -0.19479337334632874 44
-0.47433701157569885 2.2354156970977783 -0.1173640564084053 44
-0.46829143166542053 2.2088232040405273 -0.03835725039243698 44
-0.465331107378006 2.196749448776245 0.5910162329673767 44
-0.46490490436553955 2.1966285705566406 0.5091289281845093 44
-0.4648730456829071 2.1983721256256104 0.4289347529411316 44
-0.46526384353637695 2.2021191120147705 0.35002702474594116 44
-0.46198925375938416 2.1885087490081787 0.269940584897995 44
-0.4663589894771576 2.211118221282959 0.19435730576515198 44
-0.4640038311481476 2.201854944229126 0.11592413485050201 44
-0.4610854685306549 2.1899003982543945 0.038395293056964874 44
-0.399269700050354 1.9045519828796387 -0.5111678242683411 119
-0.45329368114471436 2.1641321182250977 -0.5016411542892456 119
-0.46127307415008545 2.2041447162628174 -0.42988821864128113 0
-0.4586167335510254 2.1933610439300537 -0.3488491475582123 44
-0.4624789357185364 2.2137606143951416 -0.27298763394355774 44
-0.4617270231246948 2.212090015411377 -0.19435760378837585 44
-0.46551164984703064 2.2321698665618896 -0.11710324138402939 44
-0.45955854654312134 2.205549955368042 -0.03827085718512535 44
-0.45667576789855957 2.193631887435913 0.5897230505943298 44
-0.45723438262939453 2.198237895965576 0.5091289281845093 44
-0.45619770884513855 2.1951756477355957 0.42798152565956116 44
-0.45657017827033997 2.1988942623138428 0.34924569725990295 44
-0.4533390700817108 2.185248851776123 0.2693312466144562 44
-0.45863789319992065 2.2127325534820557 0.19435730576515198 44
-0.45631512999534607 2.203461170196533 0.11592413485050201 44
-0.4534319341182709 2.191498041152954 0.038395293056964874 44
-0.39359357953071594 1.910664439201355 -0.5124619007110596 119
-0.44573670625686646 2.165701150894165 -0.5016411542892456 119
-0.4525877833366394 2.2009339332580566 -0.42893505096435547 0
-0.450957715511322 2.194948434829712 -0.3488491475582123 44
-0.45474866032600403 2.2153615951538086 -0.27298763394355774 44
-0.4540025591850281 2.213688373565674 -0.19435760378837585 44
-0.45671483874320984 2.2288897037506104 -0.11684243381023407 44
-0.45185694098472595 2.2071406841278076 -0.03827085718512535 44
-0.4490157961845398 2.1952126026153564 0.5897230505943298 44
-0.44858285784721375 2.195047378540039 0.5080050230026245 44
-0.4485323429107666 2.1967546939849854 0.42798152565956116 44
-0.448891818523407 2.200474500656128 0.34924569725990295 44
-0.44570836424827576 2.1868178844451904 0.2693312466144562 44
-0.4499173164367676 2.209439277648926 0.1939215213060379 44
-0.4476253092288971 2.2001476287841797 0.11566246300935745 44
-0.4457859694957733 2.193066120147705 0.038395293056964874 44
-0.3869217038154602 1.9120267629623413 -0.5124619007110596 119
-0.4381742775440216 2.167243719100952 -0.5016411542892456 119
-0.44490233063697815 2.202500343322754 -0.42893505096435547 0
-0.44329315423965454 2.19650936126709 -0.3488491475582123 44
-0.44701284170150757 2.216935396194458 -0.27298763394355774 44
-0.4462725818157196 2.215259552001953 -0.19435760378837585 44
-0.4489317834377289 2.2304704189300537 -0.11684243381023407 44
-0.4431643486022949 2.203803777694702 -0.03818446770310402 44
-0.4413503408432007 2.1967668533325195 0.5897230505943298 44
-0.4409179985523224 2.1965999603271484 0.5080050230026245 44
-0.4398964047431946 2.1934947967529297 0.4270283579826355 44
-0.44120800495147705 2.2020280361175537 0.34924569725990295 44
-0.43709805607795715 2.1834940910339355 0.26872187852859497 44
-0.4422021806240082 2.210996389389038 0.1939215213060379 44
-0.4399426579475403 2.2016968727111816 0.11566246300935745 44
-0.4371492564678192 2.1897060871124268 0.038308028131723404 44
-0.3811865746974945 1.918102741241455 -0.5137560367584229 119
-0.430606484413147 2.168760299682617 -0.5016411542892456 119
-0.43721145391464233 2.204040050506592 -0.42893505096435547 0
-0.4346631169319153 2.1931989192962646 -0.34806695580482483 44
-0.43927156925201416 2.218482255935669 -0.27298763394355774 44
-0.4385371506214142 2.216804027557373 -0.19435760378837585 44
-0.44017505645751953 2.2271251678466797 -0.11658161878585815 44
-0.43450042605400085 2.200432538986206 -0.03809807822108269 44
-0.43274471163749695 2.1935553550720215 0.5884297490119934 44
-0.43230557441711426 2.193345546722412 0.5068811178207397 44
-0.43223699927330017 2.195016860961914 0.4270283579826355 44
-0.43256548047065735 2.198709011077881 0.3484644293785095 44
-0.4294736087322235 2.1850063800811768 0.26872187852859497 44
-0.43352192640304565 2.20763897895813 0.19348575174808502 44
-0.4312933087348938 2.19831919670105 0.1154007762670517 44
-0.42950308322906494 2.191218614578247 0.038308028131723404 44
-0.37448880076408386 1.919421672821045 -0.5137560367584229 119
-0.4230334758758545 2.170250177383423 -0.5016411542892456 119
-0.4285770356655121 2.200734853744507 -0.42798182368278503 0
-0.42700478434562683 2.1947028636932373 -0.34806695580482483 44
-0.4305780231952667 2.215130567550659 -0.27237826585769653 44
-0.42984679341316223 2.2134311199188232 -0.19392181932926178 44
-0.43239825963974 2.2286481857299805 -0.11658161878585815 44
