# .PCD v0.7 - Point Cloud Data file format
VERSION 0.7
FIELDS x y z intensity
SIZE 4 4 4 4
TYPE F F F F
COUNT 1 1 1 1
WIDTH 783
HEIGHT 1
VIEWPOINT 0 0 0 1 0 0 0
POINTS 783
DATA ascii
-6.362120151519775 1.5874335765838623 1.03132963180542 30
-6.469812870025635 1.6155040264129639 0.8140871524810791 30
-6.440020561218262 1.609259009361267 0.5774068236351013 30
-6.455388069152832 1.6142961978912354 0.3467257022857666 30
-6.356241703033447 1.590681552886963 0.11370242387056351 30
-1.8873258829116821 0.47406333684921265 -0.5111678242683411 119
-2.1821844577789307 0.5485315322875977 -0.5106391906738281 119
-2.5932180881500244 0.6523335576057434 -0.5118624567985535 119
-3.1978495121002197 0.8050243258476257 -0.5162341594696045 119
-4.156478404998779 1.0471203327178955 -0.5216013789176941 119
-5.852223873138428 1.4754070043563843 -0.5246784090995789 119
-6.360063076019287 1.6046192646026611 -0.3406165540218353 30
-6.309291362762451 1.5929811000823975 -0.11178891360759735 30
-6.3634033203125 1.6078248023986816 1.7471836805343628 30
-6.352257251739502 1.606188178062439 1.502660870552063 30
-6.313319206237793 1.5975149869918823 1.2572553157806396 30
-6.25121545791626 1.5829612016677856 1.0141408443450928 30
-6.343867778778076 1.6076011657714844 0.7988535165786743 30
-6.31365966796875 1.601119041442871 0.5665123462677002 30
-6.323880672454834 1.6048856973648071 0.3399220108985901 30
-6.248897075653076 1.5870171785354614 0.1118699163198471 30
-1.8856595754623413 0.4806484282016754 -0.5111678242683411 119
-2.184976816177368 0.5573495626449585 -0.5117639303207397 119
-2.5909252166748047 0.6613816022872925 -0.5118624567985535 119
-3.223728895187378 0.8235157132148743 -0.5209271907806396 119
-4.152798175811768 1.0616227388381958 -0.5216013789176941 119
-5.832561016082764 1.4921225309371948 -0.5233710408210754 119
-6.243167877197266 1.5983275175094604 -0.33461794257164 30
-6.201992988586426 1.5889395475387573 -0.10997471958398819 30
-6.240789413452148 1.6000399589538574 1.7148524522781372 30
-6.233351707458496 1.5992926359176636 1.4756872653961182 30
-6.184098243713379 1.587805986404419 1.2324724197387695 30
-6.13563871383667 1.576505184173584 0.996170699596405 30
-6.242089748382568 1.6050183773040771 0.7866665720939636 30
-6.192260265350342 1.5933581590652466 0.556053638458252 30
-6.211860656738281 1.5995577573776245 0.3341650664806366 30
-6.136815071105957 1.5813754796981812 0.10995015501976013 30
-1.8839701414108276 0.4872276484966278 -0.5111678242683411 119
-2.1971676349639893 0.568635106086731 -0.5151382088661194 119
-2.5838491916656494 0.6691909432411194 -0.5109092593193054 119
-3.187371253967285 0.8260907530784607 -0.515451967716217 119
-4.14426326751709 1.0748664140701294 -0.5209920406341553 119
-5.8176751136779785 1.5099701881408691 -0.5224995017051697 119
-6.1263957023620605 1.5912396907806396 -0.3286193311214447 30
-6.080284595489502 1.5803959369659424 -0.10790135711431503 30
-6.127656936645508 1.5938507318496704 1.685107707977295 30
-6.109857559204102 1.5903594493865967 1.447589635848999 30
-6.078772068023682 1.583401083946228 1.2124555110931396 30
-6.020183086395264 1.5692617893218994 0.9782004952430725 30
-6.111595630645752 1.5942293405532837 0.7708235383033752 30
-6.070993900299072 1.5847697257995605 0.5455949306488037 30
-6.095125675201416 1.5922056436538696 0.32814642786979675 30
-6.020013809204102 1.573706865310669 0.10794312506914139 30
-1.8822579383850098 0.49380096793174744 -0.5111678242683411 119
-2.209305763244629 0.5800125002861023 -0.518512487411499 119
-2.5814976692199707 0.6782062649726868 -0.5109092593193054 119
-3.179692029953003 0.8359560370445251 -0.5146698355674744 119
-4.140486240386963 1.089326024055481 -0.5209920406341553 119
-5.7834672927856445 1.522659420967102 -0.5198847651481628 119
-6.024234771728516 1.5871726274490356 -0.32340314984321594 30
-5.968381881713867 1.5735712051391602 -0.10600077360868454 30
-6.014644145965576 1.5868911743164062 1.655362844467163 30
-6.000635147094727 1.5843154191970825 1.4228636026382446 30
-5.97355318069458 1.5782803297042847 1.1924384832382202 30
-5.9191789627075195 1.5650193691253662 0.962574303150177 30
-6.005243301391602 1.5888959169387817 0.7580272555351257 30
-5.964308738708496 1.5791791677474976 0.5364435911178589 30
-5.973692417144775 1.5827795267105103 0.32186612486839294 30
-5.90817403793335 1.5665234327316284 0.10602336376905441 30
-1.8805229663848877 0.5003682971000671 -0.5111678242683411 119
-2.1743128299713135 0.5789461731910706 -0.5106391906738281 119
-2.5791146755218506 0.6872132420539856 -0.5109092593193054 119
-3.1672112941741943 0.8445054292678833 -0.5131054520606995 119
-4.136658668518066 1.1037724018096924 -0.5209920406341553 119
-5.754055976867676 1.536413550376892 -0.5177059173583984 119
-5.902883529663086 1.5772563219070435 -0.3171437382698059 30
-5.86143159866333 1.5672764778137207 -0.10418657213449478 30
-5.90175724029541 1.5791627168655396 1.6256181001663208 30
-5.900942802429199 1.580048680305481 1.4003856182098389 30
-5.8731865882873535 1.5737152099609375 1.1733747720718384 30
-5.823048114776611 1.5613698959350586 0.9477294683456421 30
-5.903797149658203 1.5841262340545654 0.7458403706550598 30
-5.862548351287842 1.5741550922393799 0.5277280211448669 30
-5.8716888427734375 1.5777082443237305 0.3166325092315674 30
-5.801286220550537 1.559876799583435 0.10419085621833801 30
-1.8787647485733032 0.5069294571876526 -0.5111678242683411 119
-2.139354705810547 0.5776426196098328 -0.5027658939361572 119
-2.5719616413116455 0.6949315071105957 -0.5099561214447021 119
-3.1642439365386963 0.8555560111999512 -0.5131054520606995 119
-4.1327805519104 1.1182053089141846 -0.5209920406341553 119
-5.7198100090026855 1.548678994178772 -0.5150912404060364 119
-5.805772304534912 1.573041319847107 -0.31218835711479187 30
-5.754598617553711 1.5602543354034424 -0.10237237811088562 30
-5.807643890380859 1.575724720954895 1.6010463237762451 30
-5.801354885101318 1.5751055479049683 1.377907395362854 30
-5.777662754058838 1.5697557926177979 1.1552642583847046 30
-5.722250938415527 1.555773138999939 0.9321032166481018 30
-5.807246685028076 1.5799705982208252 0.7342627644538879 30
-5.765703201293945 1.5697487592697144 0.5194482207298279 30
-5.769794940948486 1.571944236755371 0.3113989233970642 30
-5.699342250823975 1.5538185834884644 0.10244561731815338 30
-1.8769837617874146 0.513484537601471 -0.5111678242683411 119
-2.156121253967285 0.5902522802352905 -0.5072649121284485 119
-2.5695202350616455 0.7039051055908203 -0.5099561214447021 119
-3.156475305557251 0.8652903437614441 -0.512323260307312 119
-4.128851890563965 1.132624626159668 -0.5209920406341553 119
-5.613500595092773 1.5409460067749023 -0.5059398412704468 119
-5.713579177856445 1.569490909576416 -0.30749380588531494 30
-5.667169570922852 1.557806134223938 -0.10090374946594238 30
-5.708969593048096 1.5703681707382202 1.5751811265945435 30
-5.706572532653809 1.5707799196243286 1.3565531969070435 30
-5.6822381019592285 1.5651487112045288 1.1371536254882812 30
-5.626325607299805 1.5508043766021729 0.9172583222389221 30
-5.706014156341553 1.573840856552124 0.7220758199691772 30
-5.668961048126221 1.5646854639053345 0.5111684203147888 30
-5.672826766967773 1.5668179988861084 0.3064270317554474 30
-5.602331161499023 1.5483996868133545 0.10078764706850052 30
-1.8751800060272217 0.5200332403182983 -0.5111678242683411 119
-2.1634364128112793 0.600380539894104 -0.5095144510269165 119
-2.567047595977783 0.712870180606842 -0.5099561214447021 119
-3.153435707092285 0.8763031959533691 -0.512323260307312 119
-4.124873161315918 1.1470301151275635 -0.5209920406341553 119
-5.526510238647461 1.537831425666809 -0.49853160977363586 119
-5.616672039031982 1.563976526260376 -0.3025384247303009 30
-5.575013160705566 1.5534249544143677 -0.09934873133897781 30
-5.610406398773193 1.5643422603607178 1.549316167831421 30
-5.611891269683838 1.5658119916915894 1.3351991176605225 30
-5.586917877197266 1.5598949193954468 1.1190431118011475 30
-5.535262107849121 1.5465140342712402 0.9031947255134583 30
-5.609676361083984 1.5683603286743164 0.7104982733726501 30
-5.572325706481934 1.5589665174484253 0.5028886198997498 30
-5.580774307250977 1.5623804330825806 0.30171677470207214 30
-5.5102410316467285 1.5436712503433228 0.09921692311763763 30
-1.8732613325119019 0.5269026756286621 -0.5111678242683411 119
-2.1659111976623535 0.6096258759498596 -0.5106391906738281 119
-2.5644173622131348 0.7222740054130554 -0.5099561214447021 119
-3.14544939994812 0.8865156173706055 -0.5115411281585693 119
-4.120641708374023 1.1621408462524414 -0.5209920406341553 119
-5.439343452453613 1.5350779294967651 -0.49112334847450256 119
-5.524407863616943 1.5601255893707275 -0.29784390330314636 30
-5.482686996459961 1.5493767261505127 -0.09779370576143265 30
-5.516330718994141 1.559923768043518 1.5247443914413452 30
-5.517042636871338 1.5611653327941895 1.3138447999954224 30
-5.491433620452881 1.554953932762146 1.1009324789047241 30
-5.444030284881592 1.5425574779510498 0.8891311883926392 30
-5.508399963378906 1.5618352890014648 0.6983113288879395 30
-5.480321407318115 1.5549074411392212 0.49504461884498596 30
-5.488550186157227 1.5582772493362427 0.2970065176486969 30
-5.422794818878174 1.5406310558319092 0.09773346781730652 30
-1.8714107275009155 0.5334383845329285 -0.5111678242683411 119
-2.168454885482788 0.6185188889503479 -0.5117639303207397 119
-2.561880588531494 0.7312211394309998 -0.5099561214447021 119
-3.137587308883667 0.8961336016654968 -0.5107589364051819 119
-4.116559982299805 1.176517367362976 -0.5209920406341553 119
-5.3525390625 1.5307722091674805 -0.48371508717536926 119
-5.432519435882568 1.5546715259552002 -0.29314932227134705 30
-5.390736103057861 1.5437320470809937 -0.09623868018388748 30
-5.422634601593018 1.5538909435272217 1.50017249584198 30
-5.422576904296875 1.5548983812332153 1.2924907207489014 30
-5.396331310272217 1.5483920574188232 1.0828218460083008 30
-5.3531694412231445 1.5370187759399414 0.8750675916671753 30
-5.417058944702148 1.5563862323760986 0.6873430609703064 30
-5.388692855834961 1.5492545366287231 0.4872005879878998 30
-5.39670467376709 1.5525776147842407 0.29229632019996643 30
-5.33571195602417 1.536046028137207 0.0962500125169754 30
-1.8648972511291504 0.5386274456977844 -0.5098737478256226 119
-2.1662826538085938 0.6260844469070435 -0.5117639303207397 119
-2.5640275478363037 0.7415229082107544 -0.5109092593193054 119
-3.1344401836395264 0.9070804715156555 -0.5107589364051819 119
-4.112427711486816 1.1908797025680542 -0.5209920406341553 119
-5.26583194732666 1.5258795022964478 -0.47630685567855835 119
-5.340737342834473 1.5485951900482178 -0.28845474123954773 30
-5.298892498016357 1.5374644994735718 -0.09468366205692291 30
-5.329049587249756 1.5472230911254883 1.4756008386611938 30
-5.328222751617432 1.547991394996643 1.2711364030838013 30
-5.30134391784668 1.5411856174468994 1.064711332321167 30
-5.267158031463623 1.5322444438934326 0.8617852926254272 30
-5.325823783874512 1.5503188371658325 0.6763747930526733 30
-5.301955223083496 1.544374704360962 0.47979238629341125 30
-5.309759616851807 1.547653317451477 0.28784775733947754 30
-5.24873161315918 1.5308592319488525 0.09476655721664429 30
-1.8630057573318481 0.5451338291168213 -0.5098737478256226 119
-2.1594085693359375 0.6322734355926514 -0.5106391906738281 119
-2.556713342666626 0.74908846616745 -0.5099561214447021 119
-3.1312549114227295 0.9180161356925964 -0.5107589364051819 119
-4.108245849609375 1.2052274942398071 -0.5209920406341553 119
-5.179226398468018 1.5204005241394043 -0.46889862418174744 119
-5.253856182098389 1.543304681777954 -0.2840209901332855 30
-5.211955547332764 1.5319846868515015 -0.09321502596139908 30
-5.2402119636535645 1.5412840843200684 1.452322244644165 30
-5.2386579513549805 1.5418205261230469 1.250906229019165 30
-5.2158894538879395 1.5361086130142212 1.0485070943832397 30
-5.185982704162598 1.5282845497131348 0.8492843508720398 30
-5.23469877243042 1.5436339378356934 0.6654065847396851 30
-5.215317249298096 1.5389081239700317 0.47238415479660034 30
-5.222916126251221 1.5421414375305176 0.28339919447898865 30
-5.1666460037231445 1.5265071392059326 0.09337037056684494 30
-1.8610914945602417 0.5516335964202881 -0.5098737478256226 119
-2.152517557144165 0.6384219527244568 -0.5095144510269165 119
-2.5540828704833984 0.7580084800720215 -0.5099561214447021 119
-3.1280312538146973 0.9289407134056091 -0.5107589364051819 119
-4.104013919830322 1.2195605039596558 -0.5209920406341553 119
-5.09749698638916 1.515755295753479 -0.461926132440567 119
-5.171863555908203 1.5388507843017578 -0.27984803915023804 30
-5.13470458984375 1.528770089149475 -0.09191916882991791 30
-5.156109809875488 1.5361229181289673 1.4303369522094727 30
-5.153871536254883 1.5364353656768799 1.231799840927124 30
-5.130536079406738 1.5304539203643799 1.032302975654602 30
-5.100168228149414 1.5223643779754639 0.8360020518302917 30
-5.148440837860107 1.5377521514892578 0.6550477147102356 30
-5.133554935455322 1.534281849861145 0.46541163325309753 30
-5.140960216522217 1.5374727249145508 0.2792123258113861 30
-5.0894455909729 1.5230343341827393 0.09206144511699677 30
-1.8591547012329102 0.55812668800354 -0.5098737478256226 119
-2.150275945663452 0.6459317803382874 -0.5095144510269165 119
-2.5467209815979004 0.7655063271522522 -0.5090028643608093 119
-3.124769687652588 0.9398539066314697 -0.5107589364051819 119
-4.099731922149658 1.2338788509368896 -0.5209920406341553 119
-5.015864849090576 1.5105582475662231 -0.454953670501709 119
-5.094748020172119 1.535284399986267 -0.27593591809272766 30
-5.057541370391846 1.5250352621078491 -0.09062331914901733 30
-5.072109222412109 1.5303938388824463 1.4083516597747803 30
-5.073851108551025 1.5318855047225952 1.2138173580169678 30
-5.049985885620117 1.525641918182373 1.0170519351959229 30
-5.019186496734619 1.5172933340072632 0.8235011100769043 30
-5.067038536071777 1.532724142074585 0.645298182964325 30
-5.056657791137695 1.5305473804473877 0.45887497067451477 30
-5.059101581573486 1.5322511196136475 0.27502545714378357 30
-5.012332916259766 1.5190411806106567 0.0907525047659874 30
-1.8571951389312744 0.5646129250526428 -0.5098737478256226 119
-2.1433472633361816 0.6520158648490906 -0.5083897113800049 119
-2.5440332889556885 0.7743913531303406 -0.5090028643608093 119
-3.1261940002441406 0.9521945118904114 -0.5115411281585693 119
-4.095399856567383 1.2481820583343506 -0.5209920406341553 119
-4.94386100769043 1.5077162981033325 -0.4488527774810791 119
-5.017720699310303 1.5311983823776245 -0.2720237672328949 30
-4.980467796325684 1.5207806825637817 -0.08932746946811676 30
-4.992831707000732 1.5255085229873657 1.3876596689224243 30
-4.993926525115967 1.5267961025238037 1.195834755897522 30
-4.974225044250488 1.5217220783233643 1.0027540922164917 30
-4.9430251121521 1.5131207704544067 0.8117814064025879 30
-4.990480899810791 1.5286004543304443 0.6361579298973083 30
-4.979849815368652 1.5262948274612427 0.452338308095932 30
-4.98211669921875 1.5279409885406494 0.271100252866745 30
-4.940090179443359 1.5159953832626343 0.0895308405160904 30
-1.855212926864624 0.5710923075675964 -0.5098737478256226 119
-2.1410582065582275 0.6594935655593872 -0.5083897113800049 119
-2.5413146018981934 0.783267080783844 -0.5090028643608093 119
-3.1228508949279785 0.9631011486053467 -0.5115411281585693 119
-4.091017723083496 1.262470006942749 -0.5209920406341553 119
-4.871938228607178 1.5043901205062866 -0.44275185465812683 119
-4.945556163787842 1.5280678272247314 -0.26837247610092163 30
-4.908262252807617 1.5174832344055176 -0.08811800181865692 30
-4.918264389038086 1.52151620388031 1.3682608604431152 30
-4.9187541007995605 1.5226082801818848 1.17897629737854 30
-4.9032440185546875 1.518744945526123 0.9894095063209534 30
-4.866954803466797 1.508435606956482 0.8000617623329163 30
-4.9140143394470215 1.523961067199707 0.6270177364349365 30
-4.903133392333984 1.5215249061584473 0.44580161571502686 30
-4.909992694854736 1.5245929956436157 0.2674367129802704 30
-4.867930889129639 1.5124638080596924 0.08830916881561279 30
-1.8532081842422485 0.5775647759437561 -0.5098737478256226 119
-2.134092092514038 0.6655128002166748 -0.5072649121284485 119
-2.538564920425415 0.792133092880249 -0.5090028643608093 119
-3.1241841316223145 0.9754679799079895 -0.512323260307312 119
-4.086585998535156 1.276742696762085 -0.5209920406341553 119
-4.800099849700928 1.5005804300308228 -0.43665093183517456 119
-4.868709564208984 1.5229616165161133 -0.26446032524108887 30
-4.831369876861572 1.512207269668579 -0.08682215213775635 30
-4.848396301269531 1.5184656381607056 1.3501553535461426 30
-4.848321437835693 1.519371509552002 1.1632416248321533 30
-4.82766056060791 1.513822078704834 0.9751116037368774 30
-4.795691013336182 1.5047167539596558 0.7891234159469604 30
-4.842376232147217 1.5202932357788086 0.6184868812561035 30
-4.831264972686768 1.5177310705184937 0.439700722694397 30
-4.837954521179199 1.5207602977752686 0.26377320289611816 30
-4.795856475830078 1.5084471702575684 0.08708749711513519 30
-1.8465749025344849 0.5825770497322083 -0.5085796117782593 119
-2.131756067276001 0.6729580760002136 -0.5072649121284485 119
-2.5357844829559326 0.8009895086288452 -0.5090028643608093 119
-3.116051435470581 0.984879195690155 -0.5115411281585693 119
-4.082104682922363 1.2909998893737793 -0.5209920406341553 119
-4.733097553253174 1.4977904558181763 -0.43098577857017517 0
-4.796720504760742 1.5188450813293457 -0.2608090043067932 30
-4.759341239929199 1.5079231262207031 -0.08561268448829651 30
-4.774005889892578 1.513486385345459 1.3307565450668335 30
-4.77797269821167 1.5156617164611816 1.1475069522857666 30
-4.7568511962890625 1.5098756551742554 0.9617670178413391 30
-4.729219436645508 1.5020134449005127 0.7789663672447205 30
-4.775554656982422 1.517647385597229 0.6105653643608093 30
-4.759482383728027 1.5134543180465698 0.4335998296737671 30
-4.770761013031006 1.5179576873779297 0.2603713870048523 30
-4.723871231079102 1.503946304321289 0.08586584031581879 30
-1.8445299863815308 0.589019238948822 -0.5085796117782593 119
-2.1293938159942627 0.680395245552063 -0.5072649121284485 119
-2.532973051071167 0.8098361492156982 -0.5090028643608093 119
-3.1078908443450928 0.9942454695701599 -0.5107589364051819 119
-4.077572822570801 1.3052411079406738 -0.5209920406341553 119
-4.661430835723877 1.4930322170257568 -0.4248849153518677 30
-4.724820137023926 1.514244794845581 -0.25715768337249756 30
-4.692162036895752 1.5046814680099487 -0.0844896137714386 30
-4.704308986663818 1.5094823837280273 1.3126510381698608 30
-4.703070640563965 1.5099903345108032 1.1306483745574951 30
-4.686129093170166 1.5054532289505005 0.948422372341156 30
-4.662827014923096 1.4988651275634766 0.7688093781471252 30
-4.708811283111572 1.5145535469055176 0.6026438474655151 30
-4.692531585693359 1.5102211236953735 0.4279347062110901 30
-4.698894023895264 1.5131739377975464 0.2567078471183777 30
-4.651976108551025 1.4989612102508545 0.08464416861534119 30
-1.8424627780914307 0.5954542756080627 -0.5085796117782593 119
-2.122370719909668 0.6863250732421875 -0.5061401724815369 119
-2.530130624771118 0.8186729550361633 -0.5090028643608093 119
-3.099703073501587 1.003566861152649 -0.5099768042564392 119
-4.0777130126953125 1.3209959268569946 -0.5216013789176941 119
-4.594592571258545 1.4893277883529663 -0.4192197620868683 30
-4.657760143280029 1.5107018947601318 -0.2537671625614166 30
-4.625064849853516 1.500989556312561 -0.08336653560400009 30
-4.63469934463501 1.5050103664398193 1.2945455312728882 30
-4.632901191711426 1.5053203105926514 1.1149137020111084 30
-4.615495681762695 1.5005557537078857 0.9350776672363281 30
-4.596513748168945 1.4952715635299683 0.7586523294448853 30
-4.642148494720459 1.5110127925872803 0.5947223901748657 30
-4.625661849975586 1.5065393447875977 0.4222695529460907 30
-4.631867408752441 1.509454607963562 0.25330600142478943 30
-4.584927082061768 1.4950428009033203 0.08350975811481476 30
-1.8357826471328735 0.6003807783126831 -0.5072855353355408 119
-2.119961977005005 0.6937293410301208 -0.5061401724815369 119
-2.5272576808929443 0.8274998068809509 -0.5090028643608093 119
-3.0914878845214844 1.012843132019043 -0.5091946125030518 119
-4.073077201843262 1.3352216482162476 -0.5216013789176941 119
-4.532571792602539 1.4867277145385742 -0.41399043798446655 30
-4.586040019989014 1.5051524639129639 -0.25011584162712097 30
-4.562801361083984 1.4984076023101807 -0.08232985436916351 30
-4.569767475128174 1.5015789270401 1.2777332067489624 30
-4.562821865081787 1.5001790523529053 1.0991790294647217 30
-4.554279804229736 1.4982515573501587 0.9236394166946411 30
-4.5302839279174805 1.4912335872650146 0.7484952807426453 30
-4.575569152832031 1.5070253610610962 0.5868008732795715 30
-4.5636067390441895 1.503968358039856 0.41704022884368896 30
-4.569666385650635 1.5068495273590088 0.2501658499240875 30
-4.517963409423828 1.4906748533248901 0.08237535506486893 30
-1.833675742149353 0.6067851781845093 -0.5072855353355408 119
-2.117527484893799 0.7011252045631409 -0.5061401724815369 119
-2.5243537425994873 0.8363165259361267 -0.5090028643608093 119
-3.0879337787628174 1.0236282348632812 -0.5091946125030518 119
-4.068391799926758 1.3494312763214111 -0.5216013789176941 119
-4.465898036956787 1.4821441173553467 -0.40832528471946716 30
-4.523892879486084 1.5022680759429932 -0.24698610603809357 30
-4.495867729187012 1.4938329458236694 -0.0812067836523056 30
-4.504916191101074 1.4977126121520996 1.2609210014343262 30
-4.502081871032715 1.497642993927002 1.0856921672821045 30
-4.493136882781982 1.4955382347106934 0.9122011661529541 30
-4.46882438659668 1.4883123636245728 0.7391195893287659 30
-4.513782024383545 1.5041604042053223 0.5794887542724609 30
-4.49690055847168 1.4994070529937744 0.41137510538101196 30
-4.502804279327393 1.5022486448287964 0.24676401913166046 30
-4.4558281898498535 1.4874407052993774 0.08132820576429367 30
-1.8361263275146484 0.6147155165672302 -0.5085796117782593 119
-2.11506724357605 0.7085124850273132 -0.5061401724815369 119
-2.521419048309326 0.8451231122016907 -0.5090028643608093 119
-3.0796597003936768 1.0328307151794434 -0.5084124207496643 119
-4.068361282348633 1.3652031421661377 -0.5222107172012329 119
-4.40403413772583 1.478698968887329 -0.40309593081474304 30
-4.461822509765625 1.4989686012268066 -0.24385640025138855 30
-4.433762073516846 1.4904025793075562 -0.08017010241746902 30
-4.444726467132568 1.4949517250061035 1.2454019784927368 30
-4.436798095703125 1.4931471347808838 1.0710813999176025 30
-4.427417755126953 1.4908504486083984 0.899809718132019 30
-4.407441139221191 1.4849802255630493 0.7297438979148865 30
-4.447369575500488 1.4992976188659668 0.5715672373771667 30
-4.435003280639648 1.4959907531738281 0.40614575147628784 30
-4.440761566162109 1.4987963438034058 0.24362385272979736 30
-4.398508071899414 1.4853906631469727 0.08036833256483078 30
-1.8339693546295166 0.6211209893226624 -0.5085796117782593 119
-2.112581253051758 0.7158911228179932 -0.5061401724815369 119
-2.513805389404297 0.8523432612419128 -0.508049726486206 119
-3.076035737991333 1.0435744524002075 -0.5084124207496643 119
-4.063570976257324 1.3793959617614746 -0.5222107172012329 119
-4.346965312957764 1.4764418601989746 -0.3983023464679718 30
-4.399831295013428 1.4952541589736938 -0.24072670936584473 30
-4.376468181610107 1.4881664514541626 -0.07921981066465378 30
-4.380039215087891 1.4902336597442627 1.228589653968811 30
-4.376213550567627 1.4897842407226562 1.0575945377349854 30
-4.3664326667785645 1.4873050451278687 0.888371467590332 30
-4.341461658477783 1.479645013809204 0.7195868492126465 30
-4.385742664337158 1.495591163635254 0.5642550587654114 30
-4.373185157775879 1.4921609163284302 0.4009164273738861 30
-4.378798007965088 1.494929313659668 0.24048370122909546 30
-4.336525917053223 1.4813427925109863 0.07932118326425552 30
-1.8317900896072388 0.6275189518928528 -0.5085796117782593 119
-2.114677906036377 0.7248406410217285 -0.5072649121284485 119
-2.506171941757202 0.8595205545425415 -0.507096529006958 119
-3.0677030086517334 1.0527024269104004 -0.5076302289962769 119
-4.0587310791015625 1.3935720920562744 -0.5222107172012329 119
-4.285256862640381 1.4721862077713013 -0.3930729925632477 30
-4.3426432609558105 1.492748737335205 -0.23785781860351562 30
-4.314517498016357 1.4839228391647339 -0.0781831294298172 30
-4.320006847381592 1.4866540431976318 1.2130706310272217 30
-4.315707206726074 1.4860167503356934 1.0441076755523682 30
-4.305527210235596 1.4833521842956543 0.876933217048645 30
-4.284911155700684 1.4770861864089966 0.7109923958778381 30
-4.324197292327881 1.4914730787277222 0.5569428205490112 30
-4.311448097229004 1.4879180192947388 0.395687073469162 30
-4.32163667678833 1.4922780990600586 0.2376052290201187 30
-4.279351711273193 1.4785131216049194 0.07836129516363144 30
-1.8341519832611084 0.6354904174804688 -0.5098737478256226 119
-2.1167380809783936 0.7338137030601501 -0.5083897113800049 119
-2.5031564235687256 0.8682634830474854 -0.507096529006958 119
-3.064009666442871 1.0634043216705322 -0.5076302289962769 119
-4.049153804779053 1.4061033725738525 -0.5216013789176941 119
-4.228335857391357 1.469152808189392 -0.38827943801879883 30
-4.285527229309082 1.4898624420166016 -0.23498892784118652 30
-4.25737190246582 1.4809072017669678 -0.07723283767700195 30
-4.260053634643555 1.4826736450195312 1.1975516080856323 30
-4.255281925201416 1.481845498085022 1.030620813369751 30
-4.24470329284668 1.4789923429489136 0.865494966506958 30
-4.228433132171631 1.4741510152816772 0.7023980021476746 30
-4.267420768737793 1.4885785579681396 0.5502400398254395 30
-4.25449800491333 1.4849038124084473 0.39089351892471313 30
-4.264548301696777 1.4892464876174927 0.23472677171230316 30
-4.226970672607422 1.4769517183303833 0.07748868316411972 30
-1.8318103551864624 0.6422086358070374 -0.5098737478256226 119
-2.11863112449646 0.7431795001029968 -0.5095144510269165 119
-2.4999570846557617 0.877432107925415 -0.507096529006958 119
-3.060091495513916 1.07462739944458 -0.5076302289962769 119
-4.043972969055176 1.4209349155426025 -0.5216013789176941 119
-4.175931930541992 1.4681203365325928 -0.38392162322998047 30
-4.232934951782227 1.4889906644821167 -0.23238082230091095 30
-4.204759120941162 1.4799041748046875 -0.07636893540620804 30
-4.195367336273193 1.477421760559082 1.1807392835617065 30
-4.194680213928223 1.478002667427063 1.0171339511871338 30
-4.1883344650268555 1.4765886068344116 0.8550099730491638 30
-4.17177152633667 1.471567988395691 0.693803608417511 30
-4.210458278656006 1.4860408306121826 0.5435372591018677 30
-4.197362422943115 1.4822427034378052 0.3860999345779419 30
-4.207273483276367 1.4865686893463135 0.23184826970100403 30
-4.169682025909424 1.474104881286621 0.07652879506349564 30
-1.8295575380325317 0.6485989689826965 -0.5098737478256226 119
-2.1160242557525635 0.7505704164505005 -0.5095144510269165 119
-2.4922537803649902 0.8845117092132568 -0.50614333152771 119
-3.056321620941162 1.0853025913238525 -0.5076302289962769 119
-4.029635906219482 1.4317193031311035 -0.5203827023506165 119
-4.119156360626221 1.464335560798645 -0.3791280686855316 30
-4.175962448120117 1.4853507280349731 -0.22951193153858185 30
-4.147758483886719 1.4761343002319336 -0.0754186362028122 30
-4.140134334564209 1.4742350578308105 1.166513442993164 30
-4.139010906219482 1.4746490716934204 1.0047709941864014 30
-4.132297515869141 1.4730702638626099 0.8445248007774353 30
-4.12009334564209 1.4695302248001099 0.6859904527664185 30
-4.1538310050964355 1.4823808670043945 0.5368344187736511 30
-4.145254135131836 1.4801356792449951 0.3817421793937683 30
-4.150336265563965 1.4827669858932495 0.22896979749202728 30
-4.117434024810791 1.4718296527862549 0.07565618306398392 30
-1.8272823095321655 0.6549813747406006 -0.5098737478256226 119
-2.1179773807525635 0.7595968842506409 -0.5106391906738281 119
-2.4937705993652344 0.8948636054992676 -0.507096529006958 119
-3.0571627616882324 1.0976333618164062 -0.5084124207496643 119
-4.024613857269287 1.4457767009735107 -0.5203827023506165 119
-4.067146301269531 1.4618571996688843 -0.37477025389671326 30
-4.1237664222717285 1.4830210208892822 -0.22690382599830627 30
-4.095540523529053 1.473677635192871 -0.07455474138259888 30
-4.084975719451904 1.4706813097000122 1.1522877216339111 30
-4.0834174156188965 1.4709254503250122 0.9924080967903137 30
-4.080955505371094 1.4708434343338013 0.8349930047988892 30
-4.063836097717285 1.4654746055603027 0.6773960590362549 30
-4.097281455993652 1.4783437252044678 0.5301316380500793 30
-4.088526248931885 1.4759913682937622 0.3769485652446747 30
-4.098172664642334 1.4802824258804321 0.2263529896736145 30
-4.065256595611572 1.4691948890686035 0.074783556163311 30
-1.8249849081039429 0.6613557934761047 -0.5098737478256226 119
-2.1153130531311035 0.7669853568077087 -0.5106391906738281 119
-2.495246171951294 0.905237078666687 -0.508049726486206 119
-3.0533127784729004 1.1082981824874878 -0.5084124207496643 119
-4.005548477172852 1.4547340869903564 -0.5185546875 119
-4.015203952789307 1.4590339660644531 -0.3704124689102173 30
-4.0716376304626465 1.4803452491760254 -0.2242957353591919 30
-4.038692951202393 1.4691654443740845 -0.07360444217920303 30
-4.034431457519531 1.4684126377105713 1.139355182647705 30
-4.032478332519531 1.4684988260269165 0.9811689853668213 30
-4.029679298400879 1.468276023864746 0.8254610896110535 30
-4.012296676635742 1.4627357721328735 0.6695829629898071 30
-4.045473575592041 1.475630760192871 0.5240381360054016 30
-4.036558628082275 1.4731773138046265 0.3725908100605011 30
-4.046078681945801 1.4774521589279175 0.2237362116575241 30
-4.008451461791992 1.4645051956176758 0.07382367551326752 30
-1.8226652145385742 0.6677221059799194 -0.5098737478256226 119
-2.108048439025879 0.7726877927780151 -0.5095144510269165 119
-2.4966790676116943 0.9156314730644226 -0.5090028643608093 119
-3.0494253635406494 1.1189494132995605 -0.5084124207496643 119
-3.9957876205444336 1.4669969081878662 -0.5179452896118164 119
-3.9680073261260986 1.4575835466384888 -0.3664904534816742 30
-4.024265766143799 1.47904634475708 -0.22194847464561462 30
-3.986619234085083 1.465999960899353 -0.07274054735898972 30
-3.9839534759521484 1.4658091068267822 1.1264227628707886 30
-3.9861788749694824 1.46741783618927 0.9710538387298584 30
-3.978470802307129 1.4653688669204712 0.8159291744232178 30
-3.960827350616455 1.4596554040908813 0.6617698669433594 30
-3.9937353134155273 1.4725745916366577 0.5179446935653687 30
-3.9846603870391846 1.4700185060501099 0.3682330250740051 30
-3.9940545558929443 1.4742761850357056 0.22111940383911133 30
-3.956418514251709 1.4611687660217285 0.0729510560631752 30
-1.8203233480453491 0.6740803718566895 -0.5098737478256226 119
-2.1053383350372314 0.7800415754318237 -0.5095144510269165 119
-2.5026721954345703 0.9277531504631042 -0.5109092593193054 119
-3.0455009937286377 1.1295870542526245 -0.5084124207496643 119
-3.972031593322754 1.474029302597046 -0.5155079364776611 119
-3.9162001609802246 1.454087734222412 -0.36213263869285583 30
-3.972271680831909 1.4756962060928345 -0.21934036910533905 30
-3.934617519378662 1.462489128112793 -0.0718766450881958 30
-3.9335429668426514 1.4628711938858032 1.113490104675293 30
-3.935371160507202 1.4643328189849854 0.9598148465156555 30
-3.927333116531372 1.4621224403381348 0.8063973188400269 30
-3.909428596496582 1.4562336206436157 0.6539567708969116 30
-3.9420676231384277 1.469175100326538 0.5118511915206909 30
-3.9328339099884033 1.4665154218673706 0.36387521028518677 30
-3.9467804431915283 1.4725006818771362 0.2187642902135849 30
-3.904458522796631 1.4574872255325317 0.07207843661308289 30
-1.8179593086242676 0.6804303526878357 -0.5098737478256226 119
-2.0980405807495117 0.7856773138046265 -0.5083897113800049 119
-2.4994184970855713 0.9364833831787109 -0.5109092593193054 119
-3.041539430618286 1.1402109861373901 -0.5084124207496643 119
-3.9064559936523438 1.4652281999588013 -0.5075863599777222 119
-3.8691301345825195 1.4519984722137451 -0.3582106828689575 30
-3.9203505516052246 1.4720009565353394 -0.21673227846622467 30
-3.8826897144317627 1.4586334228515625 -0.07101274281740189 30
-3.883202314376831 1.459599494934082 1.1005576848983765 30
-3.889193534851074 1.4626260995864868 0.9496996402740479 30
-3.8762667179107666 1.4585368633270264 0.7968654036521912 30
-3.858102321624756 1.4524708986282349 0.6461436152458191 30
-3.895117998123169 1.4671825170516968 0.5063670873641968 30
-3.8810815811157227 1.462669014930725 0.3595174551010132 30
-3.8948962688446045 1.4686517715454102 0.2161474972963333 30
-3.8525726795196533 1.4534608125686646 0.07120581716299057 30
-1.8155730962753296 0.6867720484733582 -0.5098737478256226 119
-2.095285177230835 0.7929960489273071 -0.5083897113800049 119
-2.4869537353515625 0.9417259097099304 -0.5090028643608093 119
-3.042158842086792 1.1525706052780151 -0.5091946125030518 119
-3.8595528602600098 1.4630237817764282 -0.502102255821228 119
-3.822122812271118 1.4495983123779297 -0.35428863763809204 30
-3.868504762649536 1.4679617881774902 -0.21412420272827148 30
-3.830836534500122 1.4544329643249512 -0.07014884054660797 30
-3.8374483585357666 1.457709550857544 1.0889184474945068 30
-3.838521957397461 1.4588838815689087 0.9384605884552002 30
-3.829861640930176 1.4563575983047485 0.7882866859436035 30
-3.8114662170410156 1.4501240253448486 0.6391118168830872 30
-3.8435921669006348 1.4631147384643555 0.5002736449241638 30
-3.834059715270996 1.4602521657943726 0.3555954396724701 30
-3.8477530479431152 1.4662364721298218 0.21379238367080688 30
-3.805434226989746 1.4508711099624634 0.07042045146226883 30
-1.8131648302078247 0.6931053996086121 -0.5098737478256226 119
-2.0925042629241943 0.8003051280975342 -0.5083897113800049 119
-2.47906756401062 0.9486472606658936 -0.508049726486206 119
-3.0473411083221436 1.1667141914367676 -0.5107589364051819 119
-3.8080787658691406 1.4587346315383911 -0.4960087537765503 119
-3.775179624557495 1.4468878507614136 -0.35036662220954895 30
-3.8167355060577393 1.463578701019287 -0.2115160971879959 30
-3.78372859954834 1.4516793489456177 -0.06937132775783539 30
-3.787245750427246 1.4537872076034546 1.0759857892990112 30
-3.7924728393554688 1.4565532207489014 0.9283455014228821 30
-3.778938055038452 1.452111840248108 0.7787548899650574 30
-3.7602853775024414 1.4456974267959595 0.6312987804412842 30
-3.7967751026153564 1.4604870080947876 0.4947895109653473 30
-3.7871015071868896 1.4575248956680298 0.351673424243927 30
-3.8006751537323 1.463510513305664 0.21143725514411926 30
-3.758362054824829 1.4479703903198242 0.06963510066270828 30
-1.8107342720031738 0.6994303464889526 -0.5098737478256226 119
-2.085153579711914 0.8058481216430664 -0.5072649121284485 119
-2.475740909576416 0.9572950005531311 -0.508049726486206 119
-3.0478556156158447 1.1791261434555054 -0.5115411281585693 119
-3.7613108158111572 1.4558959007263184 -0.49052467942237854 119
-3.728302478790283 1.443867564201355 -0.34644460678100586 30
-3.7603886127471924 1.4570484161376953 -0.2086472064256668 30
-3.7320261001586914 1.446807861328125 -0.06850742548704147 30
-3.7416207790374756 1.451278805732727 1.0643465518951416 30
-3.741945266723633 1.4521559476852417 0.9171064496040344 30
-3.7326667308807373 1.4493048191070557 0.7701761722564697 30
-3.713785171508789 1.442719578742981 0.6242669224739075 30
-3.7500228881835938 1.4575504064559937 0.48930537700653076 30
-3.7402102947235107 1.4544878005981445 0.3477514088153839 30
-3.7536630630493164 1.460473656654358 0.20908214151859283 30
-3.716014862060547 1.4465724229812622 0.06893699616193771 30
-1.8127808570861816 0.7075026631355286 -0.5111678242683411 119
-2.0823278427124023 0.8131218552589417 -0.5072649121284485 119
-2.4769558906555176 0.9677172303199768 -0.5090028643608093 119
-3.052920341491699 1.1933537721633911 -0.5131054520606995 119
-3.714609146118164 1.4527482986450195 -0.485040545463562 119
-3.686131477355957 1.4423527717590332 -0.34295839071273804 30
-3.7134335041046143 1.4537831544876099 -0.20629991590976715 30
-3.685058832168579 1.4434165954589844 -0.06772991269826889 30
-3.6915640830993652 1.446707844734192 1.051414132118225 30
-3.696030855178833 1.449202537536621 0.9069912433624268 30
-3.6864612102508545 1.4461926221847534 0.7615974545478821 30
-3.671949625015259 1.441239356994629 0.6180164813995361 30
-3.703338623046875 1.4543055295944214 0.4838212728500366 30
-3.6933863162994385 1.451141357421875 0.3438293933868408 30
-3.706719160079956 1.4571267366409302 0.2067270129919052 30
-3.669071912765503 1.4430668354034424 0.06815164536237717 30
-1.8103002309799194 0.7138261198997498 -0.5111678242683411 119
-2.079476833343506 0.8203855156898499 -0.5072649121284485 119
-2.473562717437744 0.9763574600219727 -0.5090028643608093 119
-3.048736095428467 1.2040032148361206 -0.5131054520606995 119
-3.672591209411621 1.4511163234710693 -0.4801657497882843 119
-3.6393849849700928 1.4387303590774536 -0.33903634548187256 30
-3.6665472984313965 1.4502081871032715 -0.2039526402950287 30
-3.6428098678588867 1.4415547847747803 -0.06703878939151764 30
-3.6460750102996826 1.4435830116271973 1.039774775505066 30
-3.6501834392547607 1.4459465742111206 0.8968761563301086 30
-3.6403236389160156 1.442775845527649 0.7530187368392944 30
-3.6255786418914795 1.4376641511917114 0.6109846830368042 30
-3.6567230224609375 1.4507524967193604 0.4783371686935425 30
-3.646631956100464 1.4474859237670898 0.33990737795829773 30
-3.6598451137542725 1.4534701108932495 0.20437189936637878 30
-3.626844882965088 1.4410972595214844 0.0674535483121872 30
-1.8076717853546143 0.7204564213752747 -0.5111678242683411 119
-2.0719308853149414 0.8261972665786743 -0.5061401724815369 119
-2.4745266437530518 0.9872357845306396 -0.5099561214447021 119
-3.0443029403686523 1.2151693105697632 -0.5131054520606995 119
-3.634986639022827 1.4516832828521729 -0.4759003221988678 119
-3.5970842838287354 1.4372743368148804 -0.33555012941360474 30
-3.6241159439086914 1.448809027671814 -0.20186616480350494 30
-3.600368022918701 1.4400440454483032 -0.06634767353534698 30
-3.600402355194092 1.4407868385314941 1.0281355381011963 30
-3.604152202606201 1.4430173635482788 0.8867610096931458 30
-3.598560333251953 1.4415072202682495 0.7453932166099548 30
-3.5836119651794434 1.436245083808899 0.6047341823577881 30
-3.6099252700805664 1.4475221633911133 0.47285303473472595 30
-3.6043195724487305 1.4460047483444214 0.3364211618900299 30
-3.6174230575561523 1.451994776725769 0.20227846503257751 30
-3.584425687789917 1.4394762516021729 0.06675545126199722 30
-1.8051458597183228 0.7267619371414185 -0.5111678242683411 119
-2.0690343379974365 0.8334246277809143 -0.5061401724815369 119
-2.46651291847229 0.9940328001976013 -0.5090028643608093 119
-3.0400424003601074 1.2257884740829468 -0.5131054520606995 119
-3.59307861328125 1.4495097398757935 -0.4710255563259125 119
-3.555093765258789 1.4349074363708496 -0.3320638835430145 30
-3.5819971561431885 1.4464932680130005 -0.1997796893119812 30
-3.5628726482391357 1.4394936561584473 -0.06574293971061707 30
-3.5550506114959717 1.4370551109313965 1.016496181488037 30
-3.562960386276245 1.4409759044647217 0.8777697682380676 30
-3.5571072101593018 1.439331293106079 0.73776775598526 30
-3.5419554710388184 1.4339197874069214 0.5984837412834167 30
-3.56345272064209 1.443346619606018 0.4673689007759094 30
-3.56231951713562 1.4436115026474 0.3329349458217621 30
-3.5706870555877686 1.447727918624878 0.1999233514070511 30
-3.542315721511841 1.436951994895935 0.06605735421180725 30
-1.802597999572754 0.7330586910247803 -0.5111678242683411 119
-2.0615994930267334 0.8388056755065918 -0.5050153732299805 119
-2.4630279541015625 1.002636432647705 -0.5090028643608093 119
-3.040318727493286 1.238255500793457 -0.5138876438140869 119
-3.55582594871521 1.4489339590072632 -0.4667600989341736 119
-3.5177764892578125 1.434145450592041 -0.3290134370326996 30
-3.5399389266967773 1.4439013004302979 -0.19769322872161865 30
-3.52079701423645 1.4368103742599487 -0.06505181640386581 30
-3.518712282180786 1.436676025390625 1.0074435472488403 30
-3.52182674407959 1.4386646747589111 0.8687785267829895 30
-3.515713691711426 1.4368836879730225 0.7301422357559204 30
-3.500359058380127 1.4313212633132935 0.5922332406044006 30
-3.521646738052368 1.4407434463500977 0.4624941349029541 30
-3.5203804969787598 1.4409427642822266 0.3294486999511719 30
-3.528646230697632 1.4450451135635376 0.19782990217208862 30
-3.500272750854492 1.4341390132904053 0.06535925716161728 30
-1.8000280857086182 0.739346444606781 -0.5111678242683411 119
-2.058659076690674 0.8459969162940979 -0.5050153732299805 119
-2.4549736976623535 1.0093615055084229 -0.508049726486206 119
-3.035978078842163 1.2488607168197632 -0.5138876438140869 119
-3.5140323638916016 1.4462273120880127 -0.46188533306121826 119
-3.475902795791626 1.431244134902954 -0.3255271911621094 30
-3.5025599002838135 1.442935585975647 -0.19586755335330963 30
-3.4834060668945312 1.4357560873031616 -0.06444709002971649 30
-3.4779551029205322 1.4342195987701416 0.9970974922180176 30
-3.4762489795684814 1.4342259168624878 0.8586633801460266 30
-3.4743807315826416 1.4341647624969482 0.7225167155265808 30
-3.458824634552002 1.4284499883651733 0.5859827399253845 30
-3.47990345954895 1.4378663301467896 0.4576193690299988 30
-3.478504180908203 1.4379990100860596 0.32596248388290405 30
-3.486668348312378 1.4420864582061768 0.19573646783828735 30
-3.462909698486328 1.4329679012298584 0.06474842131137848 30
-1.7974363565444946 0.7456252574920654 -0.5111678242683411 119
-2.0556933879852295 0.8531777858734131 -0.5050153732299805 119
-2.4605014324188232 1.0216894149780273 -0.5099561214447021 119
-3.036160707473755 1.2613452672958374 -0.5146698355674744 119
-3.476884365081787 1.445151448249817 -0.45761987566947937 119
-3.4386911392211914 1.4299806356430054 -0.32247674465179443 30
-3.460620880126953 1.4398084878921509 -0.19378109276294708 30
-3.4414501190185547 1.4325370788574219 -0.06375596672296524 30
-3.4417169094085693 1.4333529472351074 0.9880447387695312 30
-3.4397406578063965 1.433234453201294 0.8507960438728333 30
-3.43764066696167 1.4330636262893677 0.7158443927764893 30
-3.4219110012054443 1.4272074699401855 0.580513596534729 30
-3.438223123550415 1.4347155094146729 0.45274460315704346 30
-3.4412882328033447 1.436699628829956 0.3229120373725891 30
-3.444753646850586 1.4388525485992432 0.1936430186033249 30
-3.420985460281372 1.4296259880065918 0.06405032426118851 30
-1.7948226928710938 0.7518948912620544 -0.5111678242683411 119
-2.0527029037475586 0.8603482842445374 -0.5050153732299805 119
-2.4569199085235596 1.0302718877792358 -0.5099561214447021 119
-3.0362932682037354 1.2738462686538696 -0.515451967716217 119
-3.435210943222046 1.441913366317749 -0.45274510979652405 119
-3.40153169631958 1.428475022315979 -0.3194262981414795 30
-3.4233503341674805 1.438340663909912 -0.19195541739463806 30
-3.4041683673858643 1.4309803247451782 -0.06315123289823532 30
-3.401075601577759 1.430378794670105 0.9776986837387085 30
-3.4032819271087646 1.4320058822631836 0.8429287075996399 30
-3.3964269161224365 1.4298192262649536 0.7082188725471497 30
-3.3850488662719727 1.4257248640060425 0.5750443935394287 30
-3.401181221008301 1.4332184791564941 0.44847914576530457 30
-3.4041237831115723 1.435158133506775 0.3198615610599518 30
-3.407505989074707 1.4372845888137817 0.19181127846240997 30
-3.379127025604248 1.426008939743042 0.06335222721099854 30
-1.792187213897705 0.7581554055213928 -0.5111678242683411 119
-2.045200824737549 0.8656095862388611 -0.5038906931877136 119
-2.462348461151123 1.042669653892517 -0.5118624567985535 119
-3.0363752841949463 1.2863636016845703 -0.5162341594696045 119
-3.3936030864715576 1.4384020566940308 -0.4478703439235687 119
-3.36442494392395 1.4267274141311646 -0.31637582182884216 30
-3.3815360069274902 1.4346801042556763 -0.1898689568042755 30
-3.362337827682495 1.42722749710083 -0.06246011331677437 30
-3.364942789077759 1.4290263652801514 0.9686459302902222 30
-3.3668737411499023 1.4305400848388672 0.8350613713264465 30
-3.359795570373535 1.428224802017212 0.7015465497970581 30
-3.352783679962158 1.4259352684020996 0.570356547832489 30
-3.364192247390747 1.4314806461334229 0.44421374797821045 30
-3.3670129776000977 1.4333748817443848 0.31681114435195923 30
-3.3703112602233887 1.435473918914795 0.18997950851917267 30
-3.341935396194458 1.4240772724151611 0.06274139881134033 30
-1.789529800415039 0.764406681060791 -0.5111678242683411 119
-2.0421667098999023 0.8727433681488037 -0.5038906931877136 119
-2.458693742752075 1.0512584447860718 -0.5118624567985535 119
-3.036406993865967 1.2988969087600708 -0.5170162916183472 119
-3.356624126434326 1.436570644378662 -0.44360488653182983 0
-3.3273723125457764 1.4247385263442993 -0.3133253753185272 30
-3.344379186630249 1.4327116012573242 -0.18804329633712769 30
-3.32057523727417 1.4232001304626465 -0.06176899001002312 30
-3.3244223594665527 1.425535798072815 0.9582998752593994 30
-3.3305180072784424 1.4288378953933716 0.8271940350532532 30
-3.3232169151306152 1.4263924360275269 0.6948742866516113 30
-3.316020965576172 1.423989176750183 0.5648874044418335 30
-3.322697162628174 1.427543044090271 0.4393389821052551 30
-3.3253798484802246 1.4293831586837769 0.313324898481369 30
-3.3331711292266846 1.4334216117858887 0.18814775347709656 30
-3.300205945968628 1.4199274778366089 0.06204329803586006 30
-1.7912853956222534 0.7725613713264465 -0.5124619007110596 119
-2.0391077995300293 0.8798665404319763 -0.5038906931877136 119
-2.450502872467041 1.0578891038894653 -0.5109092593193054 119
-3.0363881587982178 1.311446189880371 -0.5177984833717346 119
-3.319700002670288 1.4344990253448486 -0.4393394887447357 119
-3.2858026027679443 1.4205318689346313 -0.309839129447937 30
-3.30269455909729 1.4285190105438232 -0.18595680594444275 30
-3.283470630645752 1.4208842515945435 -0.061164259910583496 30
-3.2883999347686768 1.423698902130127 0.9492471218109131 30
-3.294215679168701 1.4268995523452759 0.8193266987800598 30
-3.2866923809051514 1.4243221282958984 0.6882019639015198 30
-3.2793128490448 1.4218039512634277 0.5594182014465332 30
-3.281270980834961 1.4233334064483643 0.4344641864299774 30
-3.2883853912353516 1.4271013736724854 0.3102744519710541 30
-3.291506767272949 1.4291387796401978 0.1860543191432953 30
-3.258547306060791 1.415503978729248 0.06134520471096039 30
-1.7885777950286865 0.7788093686103821 -0.5124619007110596 119
-2.0360240936279297 0.8869789242744446 -0.5038906931877136 119
-2.4467952251434326 1.066436529159546 -0.5109092593193054 119
-3.03631854057312 1.3240110874176025 -0.5185806751251221 119
-3.2828314304351807 1.4321869611740112 -0.4350740313529968 0
-3.2443034648895264 1.4160525798797607 -0.3063529133796692 30
-3.261080503463745 1.4240529537200928 -0.1838703453540802 30
-3.2464230060577393 1.4183269739151 -0.06055952608585358 30
-3.2480056285858154 1.4196935892105103 0.9389011263847351 30
-3.257967472076416 1.4247252941131592 0.8114593625068665 30
-3.2457265853881836 1.4200470447540283 0.6805764436721802 30
-3.188370943069458 1.3956162929534912 0.5445733070373535 30
-3.239915132522583 1.4188522100448608 0.4295894205570221 30
-3.256010055541992 1.4265778064727783 0.307659775018692 30
-3.254486560821533 1.4265875816345215 0.18422256410121918 30
-3.2169597148895264 1.4108071327209473 0.060647107660770416 30
-1.7902697324752808 0.786991536617279 -0.5137560367584229 119
-2.0284557342529297 0.8921191692352295 -0.5027658939361572 119
-2.438565254211426 1.0729941129684448 -0.5099561214447021 119
-3.0316784381866455 1.3346017599105835 -0.5185806751251221 119
-3.241478204727173 1.4276350736618042 -0.4301992654800415 0
-3.1983180046081543 1.4092925786972046 -0.3024308979511261 30
-3.219538688659668 1.4193142652511597 -0.18178386986255646 30
-3.2094337940216064 1.4155285358428955 -0.059954799711704254 30
-3.203261613845825 1.413474202156067 0.9272618889808655 30
-3.2262322902679443 1.4242831468582153 0.8047159314155579 30
