# .PCD v0.7 - Point Cloud Data file format
VERSION 0.7
FIELDS x y z intensity
SIZE 4 4 4 4
TYPE F F F F
COUNT 1 1 1 1
WIDTH 778
HEIGHT 1
VIEWPOINT 0 0 0 1 0 0 0
POINTS 778
DATA ascii
-1.7344735860824585 0.8822335600852966 -0.5111678242683411 119
-1.9662836790084839 1.0005748271942139 -0.5005163550376892 119
-2.3523635864257812 1.1975547075271606 -0.5051901340484619 119
-2.744838237762451 1.3979612588882446 -0.4818185567855835 119
-2.8375184535980225 1.4457875490188599 -0.38632622361183167 30
-2.78544282913208 1.4198660850524902 -0.2701832056045532 30
-2.7608067989349365 1.4079152345657349 -0.15987591445446014 30
-2.7549641132354736 1.4055415391921997 -0.05278440937399864 30
-2.757171869277954 1.4072743654251099 0.8186286687850952 30
-2.7763729095458984 1.4176855087280273 0.7103078961372375 30
-2.7571918964385986 1.4084980487823486 0.5938363075256348 30
-2.7473561763763428 1.4040781259536743 0.4820684790611267 30
-2.7427046298980713 1.402304768562317 0.37352949380874634 30
-2.8144993782043457 1.4396320581436157 0.2732332646846771 30
-2.7677035331726074 1.4163051843643188 0.16093306243419647 30
-2.726290702819824 1.3957136869430542 0.05279352515935898 30
-1.7313834428787231 0.8882825970649719 -0.5111678242683411 119
-1.9627790451049805 1.0074323415756226 -0.5005163550376892 119
-2.3525354862213135 1.208000898361206 -0.50614333152771 119
-2.717978000640869 1.3962510824203491 -0.477907657623291 119
-2.810384750366211 1.4443413019180298 -0.3832795321941376 30
-2.7583208084106445 1.4181926250457764 -0.26800432801246643 30
-2.7336745262145996 1.4061239957809448 -0.15857186913490295 30
-2.7278151512145996 1.403712272644043 -0.05235246196389198 30
-2.730771780014038 1.405836582183838 0.8121623992919922 30
-2.749750852584839 1.4162144660949707 0.7046884298324585 30
-2.730442762374878 1.406873106956482 0.5890703797340393 30
-2.724879264831543 1.4046084880828857 0.47894322872161865 30
-2.7201499938964844 1.4027715921401978 0.3710921108722687 30
-2.7873241901397705 1.4380289316177368 0.27105435729026794 30
-2.740557909011841 1.4145071506500244 0.15962466597557068 30
-2.6991922855377197 1.3937534093856812 0.05235721915960312 30
-1.7282721996307373 0.8943208456039429 -0.5111678242683411 119
-1.9592504501342773 1.0142775774002075 -0.5005163550376892 119
-2.348304510116577 1.216205358505249 -0.50614333152771 119
-2.6911635398864746 1.3943705558776855 -0.4739968180656433 119
-2.7832958698272705 1.442723274230957 -0.3802327811717987 30
-2.735666275024414 1.4186402559280396 -0.26626119017601013 30
-2.7065882682800293 1.4041606187820435 -0.15726782381534576 30
-2.7007124423980713 1.4017106294631958 -0.05192050710320473 30
-2.7044155597686768 1.4042317867279053 0.8056961894035339 30
-2.723172903060913 1.4145747423171997 0.6990688443183899 30
-2.7037386894226074 1.4050787687301636 0.5843043923377991 30
-2.6980509757995605 1.4027211666107178 0.4750366806983948 30
-2.693222761154175 1.4008080959320068 0.3680454194545746 30
-2.764613151550293 1.438552975654602 0.26931124925613403 30
-2.7178876399993896 1.4148424863815308 0.15857794880867004 30
-2.6721408367156982 1.3916209936141968 0.05192090570926666 30
-1.724982738494873 0.9006492495536804 -0.5111678242683411 119
-1.9555197954177856 1.0214518308639526 -0.5005163550376892 119
-2.3481810092926025 1.2270773649215698 -0.507096529006958 119
-2.6641523838043213 1.3927850723266602 -0.4700859487056732 119
-2.760399103164673 1.44371497631073 -0.37779536843299866 30
-2.7083816528320312 1.4171115159988403 -0.26408231258392334 30
-2.679304838180542 1.4024932384490967 -0.15596379339694977 30
-2.6689844131469727 1.3976844549179077 -0.05140216648578644 30
-2.67785906791687 1.4029275178909302 0.7992298603057861 30
-2.6963939666748047 1.4132376909255981 0.6934493780136108 30
-2.6724884510040283 1.4013030529022217 0.5785852670669556 30
-2.675398111343384 1.4034240245819092 0.4719114601612091 30
-2.6660985946655273 1.3991392850875854 0.3649986684322357 30
-2.7416813373565674 1.439414620399475 0.2675681412220001 30
-2.6905813217163086 1.4131855964660645 0.15726953744888306 30
-2.644895076751709 1.3897786140441895 0.051484595984220505 30
-1.7218284606933594 0.9066650867462158 -0.5111678242683411 119
-1.9519422054290771 1.0282716751098633 -0.5005163550376892 119
-2.3482258319854736 1.2375551462173462 -0.508049726486206 119
-2.641800880432129 1.3928632736206055 -0.4669572412967682 119
-2.7333950996398926 1.441765308380127 -0.37474867701530457 30
-2.681391954421997 1.4149338006973267 -0.26190340518951416 30
-2.6523146629333496 1.4001818895339966 -0.15465973317623138 30
-2.641986131668091 1.3953191041946411 -0.05097021907567978 30
-2.6515934467315674 1.4009850025177002 0.7927635908126831 30
-2.669907569885254 1.411257266998291 0.6878297924995422 30
-2.645885944366455 1.3991509675979614 0.5738193392753601 30
-2.648656129837036 1.4012073278427124 0.46800488233566284 30
-2.6392672061920166 1.3968300819396973 0.36195194721221924 30
-2.714630126953125 1.4373223781585693 0.26538923382759094 30
-2.6635701656341553 1.4108827114105225 0.15596114099025726 30
-2.622354745864868 1.3896448612213135 0.05113554745912552 30
-1.7186530828475952 0.9126698970794678 -0.5111678242683411 119
-1.9483411312103271 1.0350788831710815 -0.5005163550376892 119
-2.3438916206359863 1.2457443475723267 -0.508049726486206 119
-2.6151208877563477 1.3904842138290405 -0.4630464017391205 119
-2.7064385414123535 1.439644694328308 -0.3717019259929657 30
-2.654451370239258 1.4125852584838867 -0.25972452759742737 30
-2.6297807693481445 1.4000457525253296 -0.1536165028810501 30
-2.615037441253662 1.39278244972229 -0.05053826421499252 30
-2.6253745555877686 1.3988761901855469 0.7862973809242249 30
-2.643467903137207 1.4091094732284546 0.6822102665901184 30
-2.619331121444702 1.3968302011489868 0.5690534114837646 30
-2.621962547302246 1.398821473121643 0.46409836411476135 30
-2.6124844551086426 1.3943504095077515 0.35890519618988037 30
-2.692020893096924 1.437404990196228 0.26364612579345703 30
-2.636608123779297 1.408408761024475 0.15465274453163147 30
-2.5954456329345703 1.3870031833648682 0.05069923773407936 30
-1.7154567241668701 0.918663501739502 -0.5111678242683411 119
-1.9447160959243774 1.041873574256897 -0.5005163550376892 119
-2.3438549041748047 1.2562370300292969 -0.5090028643608093 119
-2.5884900093078613 1.3879358768463135 -0.4591355323791504 119
-2.683903694152832 1.439699411392212 -0.36926451325416565 30
-2.631948471069336 1.4124212265014648 -0.25798138976097107 30
-2.6028811931610107 1.3974076509475708 -0.15231245756149292 30
-2.5881388187408447 1.3900747299194336 -0.050106313079595566 30
-2.5992023944854736 1.3966015577316284 0.779831051826477 30
-2.617076873779297 1.406794548034668 0.6765908002853394 30
-2.5971479415893555 1.396666169166565 0.5652406811714172 30
-2.595318078994751 1.3962661027908325 0.4601917862892151 30
-2.5857512950897217 1.3917012214660645 0.3558584451675415 30
-2.6650588512420654 1.4349861145019531 0.26146721839904785 30
-2.60969614982605 1.405763864517212 0.15334433317184448 30
-2.5729846954345703 1.3865680694580078 0.050350189208984375 30
-1.7164891958236694 0.9269408583641052 -0.5124619007110596 119
-1.9410673379898071 1.0486555099487305 -0.5005163550376892 119
-2.343773365020752 1.2667447328567505 -0.5099561214447021 119
-2.561908721923828 1.385218620300293 -0.4552246630191803 119
-2.657036542892456 1.4372533559799194 -0.36621779203414917 30
-2.6050987243652344 1.409746766090393 -0.2558025121688843 30
-2.580423593521118 1.396976113319397 -0.15126921236515045 30
-2.5656867027282715 1.3895771503448486 -0.04976075142621994 30
-2.5773255825042725 1.3964624404907227 0.7746580839157104 30
-2.5950169563293457 1.4066340923309326 0.6720951795578003 30
-2.574997901916504 1.3963643312454224 0.561427891254425 30
-2.5730648040771484 1.3958971500396729 0.45706653594970703 30
-2.5634305477142334 1.391249656677246 0.35342106223106384 30
-2.6381468772888184 1.432396650314331 0.25928834080696106 30
-2.5872225761413574 1.4053316116333008 0.15229761600494385 30
-2.5505588054656982 1.3859931230545044 0.05000114440917969 30
-1.7132431268692017 0.9329268932342529 -0.5124619007110596 119
-1.9373950958251953 1.055424690246582 -0.5005163550376892 119
-2.3393373489379883 1.2749183177947998 -0.5099561214447021 119
-2.5397143363952637 1.3846968412399292 -0.45209595561027527 0
-2.6345765590667725 1.4370139837265015 -0.3637803792953491 30
-2.582672357559204 1.4092881679534912 -0.254059374332428 30
-2.5536181926727295 1.3940125703811646 -0.14996518194675446 30
-2.5432703495025635 1.3889399766921997 -0.04941519349813461 30
-2.555481195449829 1.3961875438690186 0.7694850564002991 30
-2.572990655899048 1.4063371419906616 0.6675995588302612 30
-2.552881956100464 1.3959249258041382 0.5576151609420776 30
-2.546513080596924 1.3930197954177856 0.45315998792648315 30
-2.5367913246154785 1.3882770538330078 0.35037434101104736 30
-2.61128568649292 1.4296369552612305 0.25710946321487427 30
-2.5604047775268555 1.402361273765564 0.15098923444747925 30
-2.5281684398651123 1.3852787017822266 0.0496520958840847 30
-1.709976077079773 0.9389015436172485 -0.5124619007110596 119
-1.9336992502212524 1.0621811151504517 -0.5005163550376892 119
-2.3348729610443115 1.283076286315918 -0.5099561214447021 119
-2.5218827724456787 1.3864165544509888 -0.4497494697570801 0
-2.607801914215088 1.4342437982559204 -0.36073365807533264 30
-2.56028151512146 1.408690333366394 -0.25231626629829407 30
-2.5312392711639404 1.3932867050170898 -0.14892195165157318 30
-2.5165107250213623 1.3857518434524536 -0.048983242362737656 30
-2.529439926147461 1.393446922302246 0.7630188465118408 30
-2.5467309951782227 1.4035519361495972 0.6619800329208374 30
-2.5265023708343506 1.392978310585022 0.5528491735458374 30
-2.5243375301361084 1.3923592567443848 0.4500347375869751 30
-2.514549493789673 1.3875330686569214 0.3479369580745697 30
-2.5844759941101074 1.426707148551941 0.2549305558204651 30
-2.538010358810425 1.401634693145752 0.1499425172805786 30
-2.50581431388855 1.3844250440597534 0.049303047358989716 30
-1.7066882848739624 0.944864809513092 -0.5124619007110596 119
-1.929979681968689 1.0689245462417603 -0.5005163550376892 119
-2.3303799629211426 1.2912187576293945 -0.5099561214447021 119
-2.5127084255218506 1.3928167819976807 -0.4489672780036926 0
-2.5854194164276123 1.4337109327316284 -0.3582962453365326 30
-2.5335702896118164 1.4055370092391968 -0.2501373589038849 30
-2.508897066116333 1.3924217224121094 -0.1478787064552307 30
-2.4941749572753906 1.3848206996917725 -0.04863768070936203 30
-2.507671356201172 1.392886757850647 0.7578457593917847 30
-2.5247814655303955 1.4029673337936401 0.6574844121932983 30
-2.5044643878936768 1.392249584197998 0.54903644323349 30
-2.4978818893432617 1.3891611099243164 0.4461282193660736 30
-2.4923439025878906 1.3866509199142456 0.34549957513809204 30
-2.5577189922332764 1.4236078262329102 0.2527516484260559 30
-2.5112900733947754 1.3983399868011475 0.14863410592079163 30
-2.4791297912597656 1.3809993267059326 0.04886673390865326 30
-1.70337975025177 0.9508164525032043 -0.5124619007110596 119
-1.926236629486084 1.0756548643112183 -0.5005163550376892 119
-2.3258585929870605 1.2993454933166504 -0.5099561214447021 119
-2.499209403991699 1.3967607021331787 -0.4474029242992401 0
-2.5630722045898438 1.4330395460128784 -0.35585886240005493 30
-2.5112600326538086 1.4046461582183838 -0.24839425086975098 30
-2.482234001159668 1.3889796733856201 -0.14657466113567352 30
-2.471876859664917 1.383750557899475 -0.048292119055986404 30
-2.4817240238189697 1.3898319005966187 0.7513795495033264 30
-2.4986166954040527 1.3998652696609497 0.6518648266792297 30
-2.4781811237335205 1.3889844417572021 0.5442705154418945 30
-2.4714791774749756 1.3857951164245605 0.44222164154052734 30
-2.470175266265869 1.3856306076049805 0.343062162399292 30
-2.5353589057922363 1.4227768182754517 0.251008540391922 30
-2.4889779090881348 1.39732027053833 0.147587388753891 30
-2.4568583965301514 1.379852294921875 0.04851768910884857 30
-1.6958414316177368 0.954387903213501 -0.5111678242683411 119
-1.922470211982727 1.0823721885681152 -0.5005163550376892 119
-2.3170320987701416 1.3050475120544434 -0.5090028643608093 119
-2.4857139587402344 1.4006274938583374 -0.4458385705947876 0
-2.540761709213257 1.4322296380996704 -0.35342147946357727 30
-2.4803097248077393 1.3987233638763428 -0.24577957391738892 30
-2.459975242614746 1.387821912765503 -0.14553143084049225 30
-2.445263385772705 1.380084753036499 -0.047860171645879745 30
-2.45162296295166 1.384238362312317 0.7436200380325317 30
-2.4725046157836914 1.3965978622436523 0.6462453603744507 30
-2.451951503753662 1.3855527639389038 0.5395045876502991 30
-2.4451310634613037 1.3822617530822754 0.43831509351730347 30
-2.4480443000793457 1.3844726085662842 0.34062477946281433 30
-2.5130362510681152 1.4218071699142456 0.2492654174566269 30
-2.4667036533355713 1.3961619138717651 0.14654067158699036 30
-2.4302754402160645 1.3761036396026611 0.048081375658512115 30
-1.6924997568130493 0.9603016376495361 -0.5111678242683411 119
-1.9186803102493286 1.0890761613845825 -0.5005163550376892 119
-2.312462568283081 1.3131275177001953 -0.5090028643608093 119
-2.4593400955200195 1.397099256515503 -0.4419277310371399 0
-2.5184881687164307 1.431281566619873 -0.3509840965270996 30
-2.449431896209717 1.3926019668579102 -0.24316489696502686 30
-2.4334144592285156 1.3840572834014893 -0.14422737061977386 30
-2.418705463409424 1.3762500286102295 -0.04742821678519249 30
-2.425788640975952 1.3808408975601196 0.7371537685394287 30
-2.446445941925049 1.3931652307510376 0.6406258344650269 30
-2.4257760047912598 1.3819550275802612 0.5347386002540588 30
-2.4145472049713135 1.376116394996643 0.4336272180080414 30
-2.421640634536743 1.3807190656661987 0.33757805824279785 30
-2.490751266479492 1.4206992387771606 0.24752230942249298 30
-2.4444680213928223 1.3948651552200317 0.14549395442008972 30
-2.3994076251983643 1.3697079420089722 0.047557804733514786 30
-1.68913733959198 0.9662036895751953 -0.5111678242683411 119
-1.9148670434951782 1.0957670211791992 -0.5005163550376892 119
-2.303605318069458 1.3187530040740967 -0.508049726486206 119
-2.433021068572998 1.3934041261672974 -0.4380168616771698 0
-2.4919466972351074 1.4277286529541016 -0.34793737530708313 30
-2.4143056869506836 1.3838049173355103 -0.24011443555355072 30
-2.4069101810455322 1.3801244497299194 -0.14292334020137787 30
-2.3878679275512695 1.369759202003479 -0.0469098761677742 30
-2.4000084400177 1.377280354499817 0.7306875586509705 30
-2.4204418659210205 1.3895679712295532 0.635006308555603 30
-2.399656057357788 1.3781917095184326 0.5299726724624634 30
-2.3883185386657715 1.3722347021102905 0.4297206997871399 30
-2.390990734100342 1.374325156211853 0.33392199873924255 30
-2.4685051441192627 1.4194531440734863 0.24577918648719788 30
-2.4179437160491943 1.390940546989441 0.14418554306030273 30
-2.3729469776153564 1.3656072616577148 0.04712149500846863 30
-1.6815705299377441 0.9696813821792603 -0.5098737478256226 119
-1.9110304117202759 1.1024444103240967 -0.5005163550376892 119
-2.294736623764038 1.324332594871521 -0.507096529006958 119
-2.4024815559387207 1.3870731592178345 -0.43332383036613464 0
-2.4568657875061035 1.4190436601638794 -0.34367191791534424 30
-2.3749582767486572 1.3722881078720093 -0.2366282045841217 30
-2.3804633617401123 1.3760231733322144 -0.14161927998065948 30
-2.3571057319641113 1.3630702495574951 -0.04639153555035591 30
-2.3742830753326416 1.3735567331314087 0.7242212295532227 30
-2.3902759552001953 1.3833656311035156 0.6282628178596497 30
-2.373591899871826 1.374263048171997 0.5252067446708679 30
-2.35787296295166 1.3657115697860718 0.4250328242778778 30
-2.36041522026062 1.3677341938018799 0.33026590943336487 30
-2.4247515201568604 1.4055790901184082 0.24185717105865479 30
-2.3871572017669678 1.3843430280685425 0.14261546730995178 30
-2.3378963470458984 1.3563213348388672 0.04651065915822983 30
-1.678175449371338 0.9755452871322632 -0.5098737478256226 119
-1.9071705341339111 1.1091084480285645 -0.5005163550376892 119
-2.2858574390411377 1.3298665285110474 -0.50614333152771 119
-2.376284122467041 1.3830301761627197 -0.42941296100616455 0
-2.4132988452911377 1.4051371812820435 -0.3381877839565277 30
-2.3486335277557373 1.368034839630127 -0.23444931209087372 30
-2.3540749549865723 1.3717546463012695 -0.1403152495622635 30
-2.3221004009246826 1.3536655902862549 -0.04578680172562599 30
-2.3486130237579346 1.3696703910827637 0.7177549600601196 30
-2.3601832389831543 1.3769700527191162 0.6215193867683411 30
-2.3475849628448486 1.3701692819595337 0.5204408168792725 30
-2.327502727508545 1.3589928150177002 0.4203449785709381 30
-2.325629711151123 1.3584434986114502 0.32600048184394836 30
-2.3768248558044434 1.3889042139053345 0.23749940097332 30
-2.3521361351013184 1.3750278949737549 0.14078372716903687 30
-2.311570405960083 1.3518550395965576 0.04607434943318367 30
-1.6789268255233765 0.9838390946388245 -0.5111678242683411 119
-1.903287410736084 1.115759015083313 -0.5005163550376892 119
-2.2769672870635986 1.3353544473648071 -0.5051901340484619 119
-2.350144863128662 1.378821611404419 -0.42550209164619446 0
-2.3741395473480225 1.3934561014175415 -0.3333130180835724 30
-2.309481382369995 1.356048345565796 -0.2309630662202835 30
-2.3320505619049072 1.3698475360870361 -0.13927200436592102 30
-2.3001205921173096 1.3516318798065186 -0.045441243797540665 30
-2.3229992389678955 1.365621566772461 0.7112887501716614 30
-2.321765184402466 1.3654415607452393 0.6125282049179077 30
-2.3216357231140137 1.3659106492996216 0.515674889087677 30
-2.305720329284668 1.3570888042449951 0.41721969842910767 30
-2.3037679195404053 1.3564811944961548 0.3235630989074707 30
-2.316169261932373 1.3643279075622559 0.2318342626094818 30
-2.3215112686157227 1.3680200576782227 0.13921363651752472 30
-2.2982242107391357 1.3548380136489868 0.04589982330799103 30
-1.6754823923110962 0.9896935820579529 -0.5111678242683411 119
-1.9035755395889282 1.124874472618103 -0.5016411542892456 119
-2.2680671215057373 1.340796709060669 -0.5042369961738586 119
-2.324063777923584 1.3744473457336426 -0.42159122228622437 30
-2.3265490531921387 1.3764652013778687 -0.32721954584121704 30
-2.29616117477417 1.3590277433395386 -0.23009151220321655 30
-2.3100688457489014 1.367803692817688 -0.13822877407073975 30
-2.2910873889923096 1.357104778289795 -0.04535485431551933 30
-2.305752754211426 1.366335391998291 0.7074089646339417 30
-2.296030044555664 1.3611154556274414 0.6069086790084839 30
-2.299966812133789 1.3639917373657227 0.5118620991706848 30
-2.2924742698669434 1.3600894212722778 0.41565707325935364 30
-2.2904834747314453 1.359448790550232 0.3223443925380707 30
-2.3028271198272705 1.3673185110092163 0.23096270859241486 30
-2.3038430213928223 1.3684654235839844 0.13842859864234924 30
-2.280587911605835 1.3551907539367676 0.04563803970813751 30
-1.6720175743103027 0.9955360889434814 -0.5111678242683411 119
-1.8996373414993286 1.1315124034881592 -0.5016411542892456 119
-2.267589569091797 1.3512178659439087 -0.5051901340484619 119
-2.3022842407226562 1.3724366426467896 -0.4184625446796417 30
-2.31746768951416 1.3820360898971558 -0.32661017775535583 30
-2.2785706520080566 1.3593785762786865 -0.22878417372703552 30
-2.2881295680999756 1.365623116493225 -0.13718552887439728 30
-2.2777514457702637 1.3599681854248047 -0.04518207535147667 30
-2.2843830585479736 1.3644686937332153 0.7022359371185303 30
-2.282900333404541 1.3641237020492554 0.6046608686447144 30
-2.2783396244049072 1.3619381189346313 0.5080493688583374 30
-2.2749974727630615 1.3604793548583984 0.4133131802082062 30
-2.2772066593170166 1.3623402118682861 0.32112571597099304 30
-2.2937662601470947 1.3727904558181763 0.23052693903446198 30
-2.2862000465393066 1.3688042163848877 0.13764356076717377 30
-2.262977123260498 1.3554366827011108 0.0453762523829937 30
-1.6685322523117065 1.0013664960861206 -0.5111678242683411 119
-1.8956761360168457 1.138136386871338 -0.5016411542892456 119
-2.2670669555664062 1.3616524934768677 -0.50614333152771 119
-2.284780263900757 1.3728342056274414 -0.41611599922180176 30
-2.2956154346466064 1.3798900842666626 -0.3241727948188782 30
-2.2652745246887207 1.3621902465820312 -0.22791261970996857 30
-2.2662341594696045 1.3633060455322266 -0.136142298579216 30
-2.2644236087799072 1.3627550601959229 -0.04500929266214371 30
-2.267193078994751 1.3649609088897705 0.6983562111854553 30
-2.269777536392212 1.3670568466186523 0.6024129986763 30
-2.2609591484069824 1.36228346824646 0.5051897764205933 30
-2.2575457096099854 1.3607637882232666 0.41096922755241394 30
-2.259687662124634 1.3625926971435547 0.3192976713180542 30
-2.2719004154205322 1.370497703552246 0.22878383100032806 30
-2.268583059310913 1.3690365552902222 0.1368585228919983 30
-2.2453927993774414 1.3555763959884644 0.04511446878314018 30
-1.6650266647338867 1.007184624671936 -0.5111678242683411 119
-1.895859718322754 1.1472688913345337 -0.5027658939361572 119
-2.266498565673828 1.37209951877594 -0.507096529006958 119
-2.2630774974823 1.3705682754516602 -0.4129873216152191 30
-2.2738070487976074 1.3776086568832397 -0.3217354118824005 30
-2.243467092514038 1.3597623109817505 -0.22616951167583466 30
-2.248652696609497 1.363442063331604 -0.13535988330841064 30
-2.2468297481536865 1.3628729581832886 -0.04475012049078941 30
-2.2458982467651367 1.3628442287445068 0.693183183670044 30
-2.252497673034668 1.367386817932129 0.5990413427352905 30
-2.2394089698791504 1.3599762916564941 0.5013770461082458 30
-2.240119695663452 1.3609431982040405 0.4086253046989441 30
-2.2421951293945312 1.3627398014068604 0.31746962666511536 30
-2.2543342113494873 1.3706564903259277 0.22747647762298584 30
-2.2509925365448 1.3691627979278564 0.13607348501682281 30
-2.223564386367798 1.3530113697052002 0.0447654202580452 30
-1.6656244993209839 1.0155047178268433 -0.5124619007110596 119
-1.891843318939209 1.1538797616958618 -0.5027658939361572 119
-2.257505416870117 1.377446174621582 -0.50614333152771 119
-2.2414188385009766 1.3681676387786865 -0.4098586142063141 30
-2.252042293548584 1.3751918077468872 -0.31929802894592285 30
-2.225955009460449 1.359795093536377 -0.22486215829849243 30
-2.226837396621704 1.3608680963516235 -0.13431663811206818 30
-2.2292628288269043 1.3628846406936646 -0.04449095204472542 30
-2.228766441345215 1.3631155490875244 0.689303457736969 30
-2.235243082046509 1.3676129579544067 0.5956695675849915 30
-2.2220892906188965 1.360097885131836 0.4985174834728241 30
-2.218508720397949 1.3584386110305786 0.4055000841617584 30
-2.22472882270813 1.362781286239624 0.3156415820121765 30
-2.236795425415039 1.3707096576690674 0.226169154047966 30
-2.233428955078125 1.36918306350708 0.13528844714164734 30
-2.2017807960510254 1.350310206413269 0.04441636800765991 30
-1.6620694398880005 1.0213124752044678 -0.5124619007110596 119
-1.8919545412063599 1.1630278825759888 -0.5038906931877136 119
-2.252683639526367 1.3853179216384888 -0.50614333152771 119
-2.224010705947876 1.368220329284668 -0.4075121283531189 30
-2.234549045562744 1.3752411603927612 -0.3174700140953064 30
-2.208470344543457 1.3597227334976196 -0.2235548347234726 30
-2.2093191146850586 1.3607769012451172 -0.13353420794010162 30
-2.2117233276367188 1.3627902269363403 -0.044231779873371124 30
-2.2075483798980713 1.36074960231781 0.6841304302215576 30
-2.2138679027557373 1.3651782274246216 0.5911740064620972 30
-2.2047958374023438 1.3601151704788208 0.49565789103507996 30
-2.2011451721191406 1.3583935499191284 0.4031561315059662 30
-2.207289934158325 1.3627177476882935 0.31381356716156006 30
-2.21928334236145 1.370656967163086 0.22486181557178497 30
-2.2116448879241943 1.3664727210998535 0.1342417299747467 30
-2.1842968463897705 1.350102424621582 0.044154584407806396 30
-1.6543883085250854 1.0245652198791504 -0.5111678242683411 119
-1.8878833055496216 1.169624924659729 -0.5038906931877136 119
-2.218630313873291 1.375072717666626 -0.4994710087776184 119
-2.202432632446289 1.3655658960342407 -0.40438342094421387 30
-2.2128655910491943 1.3725694417953491 -0.31503260135650635 30
-2.1910133361816406 1.3595446348190308 -0.22224748134613037 30
-2.187586545944214 1.3579471111297607 -0.13249097764492035 30
-2.189964771270752 1.3599529266357422 -0.0438862219452858 30
-2.1863746643066406 1.3582524061203003 0.678957462310791 30
-2.1966750621795654 1.3651827573776245 0.5878022909164429 30
-2.183361291885376 1.3574368953704834 0.49184516072273254 30
-2.183809280395508 1.3582439422607422 0.40081220865249634 30
-2.1856648921966553 1.3599270582199097 0.31137615442276 30
-2.197570323944092 1.36786687374115 0.22311870753765106 30
-2.194145679473877 1.3662666082382202 0.13345667719841003 30
-2.166837453842163 1.349794626235962 0.04389279708266258 30
-1.6547186374664307 1.0331798791885376 -0.5124619007110596 119
-1.8835837841033936 1.1765364408493042 -0.5038906931877136 119
-2.2010881900787354 1.3753923177719116 -0.49661147594451904 119
-2.1806626319885254 1.3631582260131836 -0.4012547433376312 30
-2.1951968669891357 1.372776746749878 -0.3132045567035675 30
-2.1733474731445312 1.3596407175064087 -0.22094014286994934 30
-2.1698966026306152 1.3580089807510376 -0.1317085474729538 30
-2.1722536087036133 1.3600118160247803 -0.0436270497739315 30
-2.1691019535064697 1.3585654497146606 0.6750776767730713 30
-2.175142288208008 1.3628774881362915 0.5833066701889038 30
-2.1658947467803955 1.357609748840332 0.4889856278896332 30
-2.166264295578003 1.3583680391311646 0.3984682559967041 30
-2.16805362701416 1.3600174188613892 0.30954810976982117 30
-2.179885149002075 1.3679693937301636 0.22181135416030884 30
-2.172207832336426 1.3636800050735474 0.1324099600315094 30
-2.1491782665252686 1.3497453927993774 0.04363101348280907 30
-1.6470143795013428 1.0363774299621582 -0.5111678242683411 119
-1.8794653415679932 1.1831042766571045 -0.5038906931877136 119
-2.1796600818634033 1.3726049661636353 -0.49279871582984924 119
-2.163355827331543 1.3628649711608887 -0.39890819787979126 30
-2.1777961254119873 1.3724929094314575 -0.31137651205062866 30
-2.1559479236602783 1.3592495918273926 -0.2196328192949295 30
-2.152472972869873 1.357583999633789 -0.13092611730098724 30
-2.1548092365264893 1.3595831394195557 -0.04336788132786751 30
-2.1480090618133545 1.3558168411254883 0.6699046492576599 30
-2.158013105392456 1.3626580238342285 0.5799349546432495 30
-2.1445438861846924 1.354676604270935 0.4851728081703186 30
-2.144810199737549 1.3553683757781982 0.39534303545951843 30
-2.1465139389038086 1.3569695949554443 0.3071107268333435 30
-2.1624674797058105 1.3675833940505981 0.220504030585289 30
-2.154775619506836 1.3632452487945557 0.13162492215633392 30
-2.131777286529541 1.3492242097854614 0.04336922615766525 30
-1.643386721611023 1.0421202182769775 -0.5111678242683411 119
-1.8753242492675781 1.1896575689315796 -0.5038906931877136 119
-2.1624228954315186 1.3723150491714478 -0.4899391233921051 119
-2.1419084072113037 1.3598206043243408 -0.3957795202732086 30
-2.1562347412109375 1.3694440126419067 -0.308939129114151 30
-2.138577461242676 1.3587533235549927 -0.21832546591758728 30
-2.1350791454315186 1.3570539951324463 -0.1301436871290207 30
-2.1373939514160156 1.3590492010116577 -0.043108709156513214 30
-2.131037712097168 1.3555299043655396 0.666024923324585 30
-2.1409122943878174 1.3623359203338623 0.5765632390975952 30
-2.127380609512329 1.354246973991394 0.48231327533721924 30
-2.1275689601898193 1.354888677597046 0.3929990828037262 30
-2.1292073726654053 1.3564544916152954 0.30528268218040466 30
-2.1450791358947754 1.367092251777649 0.21919669210910797 30
-2.137373208999634 1.3627057075500488 0.13083988428115845 30
-2.1144134998321533 1.3485866785049438 0.04310744255781174 30
-1.6397390365600586 1.0478503704071045 -0.5111678242683411 119
-1.8711600303649902 1.1961965560913086 -0.5038906931877136 119
-2.145214319229126 1.3719216585159302 -0.48707953095436096 119
-2.124668836593628 1.3593045473098755 -0.39343297481536865 30
-2.138901710510254 1.3689367771148682 -0.30711108446121216 30
-2.117042303085327 1.3554670810699463 -0.21658234298229218 30
-2.1177151203155518 1.3564190864562988 -0.12936127185821533 30
-2.120009422302246 1.3584104776382446 -0.04284954071044922 30
-2.1140942573547363 1.3551409244537354 0.6621451377868652 30
-2.1197385787963867 1.3592809438705444 0.5720675587654114 30
-2.110246181488037 1.353713870048523 0.4794536828994751 30
-2.1103577613830566 1.3543051481246948 0.39065515995025635 30
-2.111931085586548 1.3558354377746582 0.3034546673297882 30
-2.127721071243286 1.3664968013763428 0.21788936853408813 30
-2.1200008392333984 1.3620613813400269 0.13005484640598297 30
-2.0928711891174316 1.3451472520828247 0.04275839403271675 30
-1.6360714435577393 1.0535677671432495 -0.5111678242683411 119
-1.862877368927002 1.2000821828842163 -0.5027658939361572 119
-2.128035306930542 1.3714247941970825 -0.4842199981212616 119
-2.10745906829834 1.3586851358413696 -0.39108648896217346 30
-2.121598482131958 1.368325114250183 -0.3052830398082733 30
-2.0997416973114014 1.3547474145889282 -0.21527501940727234 30
-2.100381851196289 1.3556797504425049 -0.12857884168624878 30
-2.0984554290771484 1.3549553155899048 -0.04250397905707359 30
-2.097179889678955 1.3546502590179443 0.6582653522491455 30
-2.1027047634124756 1.3587392568588257 0.5686959028244019 30
-2.093142032623291 1.3530778884887695 0.47659415006637573 30
-2.0931763648986816 1.3536180257797241 0.3883112370967865 30
-2.0988521575927734 1.357807993888855 0.3022359609603882 30
-2.1103930473327637 1.365796685218811 0.2165820151567459 30
-2.1026594638824463 1.3613125085830688 0.1292698085308075 30
-2.075575113296509 1.3442915678024292 0.04249660670757294 30
-1.6323838233947754 1.059272289276123 -0.5111678242683411 119
-1.8586770296096802 1.2065776586532593 -0.5027658939361572 119
-2.1108856201171875 1.3708250522613525 -0.48136040568351746 119
-2.0902798175811768 1.3579620122909546 -0.3887399435043335 30
-2.104326009750366 1.3676096200942993 -0.30345502495765686 30
-2.0824718475341797 1.3539235591888428 -0.2139676809310913 30
-2.0830793380737305 1.354835867881775 -0.12779641151428223 30
-2.081141710281372 1.3540924787521362 -0.0422448068857193 30
-2.0802950859069824 1.3540583848953247 0.6543856263160706 30
-2.085700511932373 1.3580951690673828 0.5653241872787476 30
-2.0760679244995117 1.3523390293121338 0.473734587430954 30
-2.0760257244110107 1.352827548980713 0.38596731424331665 30
-2.081627368927002 1.3569955825805664 0.30040791630744934 30
-2.0930962562561035 1.364992618560791 0.21527469158172607 30
-2.0853490829467773 1.3604590892791748 0.12848477065563202 30
-2.058310031890869 1.3433314561843872 0.04223481938242912 30
-1.6286762952804565 1.064963936805725 -0.5111678242683411 119
-1.8544540405273438 1.2130582332611084 -0.5027658939361572 119
-2.0896592140197754 1.3674345016479492 -0.47754764556884766 119
-2.073131561279297 1.3571357727050781 -0.3863934576511383 30
-2.091235876083374 1.369508981704712 -0.30223631858825684 30
-2.0652337074279785 1.3529958724975586 -0.21266034245491028 30
-2.0658090114593506 1.353887915611267 -0.12701398134231567 30
-2.0638599395751953 1.3531256914138794 -0.041985634714365005 30
-2.0674784183502197 1.3560138940811157 0.6517991423606873 30
-2.0687267780303955 1.3573492765426636 0.5619524717330933 30
-2.0590250492095947 1.351497769355774 0.4708750247955322 30
-2.058906316757202 1.3519340753555298 0.3836233615875244 30
-2.064434289932251 1.3560796976089478 0.2985799014568329 30
-2.0758306980133057 1.364084243774414 0.21396735310554504 30
-2.0638978481292725 1.356758713722229 0.12743805348873138 30
-2.0410778522491455 1.342267632484436 0.04197303578257561 30
-1.6209160089492798 1.0679852962493896 -0.5098737478256226 119
-1.8502081632614136 1.2195240259170532 -0.5027658939361572 119
-2.072580575942993 1.366614818572998 -0.4746881127357483 119
-2.0560142993927 1.3562064170837402 -0.38404691219329834 30
-2.0740160942077637 1.3686003684997559 -0.300408273935318 30
-2.048027515411377 1.3519642353057861 -0.21135300397872925 30
-2.048570394515991 1.3528358936309814 -0.12623155117034912 30
-2.0466105937957764 1.3520548343658447 -0.04172646626830101 30
-2.0506441593170166 1.3552336692810059 0.6479193568229675 30
-2.0558481216430664 1.359188437461853 0.5597046613693237 30
-2.046107053756714 1.3532615900039673 0.4689686596393585 30
-2.041818618774414 1.3509376049041748 0.38127946853637695 30
-2.0472729206085205 1.3550602197647095 0.29675182700157166 30
-2.0585973262786865 1.3630722761154175 0.212660014629364 30
-2.046660900115967 1.3556827306747437 0.12665300071239471 30
-2.0238778591156006 1.341099739074707 0.04171124845743179 30
-1.6171780824661255 1.0736368894577026 -0.5098737478256226 119
-1.8499985933303833 1.2286704778671265 -0.5038906931877136 119
-2.0514445304870605 1.3629761934280396 -0.4708753526210785 0
-2.0430421829223633 1.357907772064209 -0.3824825882911682 30
-2.056828498840332 1.3675885200500488 -0.29858022928237915 30
-2.030853748321533 1.3508291244506836 -0.21004565060138702 30
-2.031364679336548 1.3516802787780762 -0.12544913589954376 30
-2.0293939113616943 1.3508800268173218 -0.041467294096946716 30
-2.0338406562805176 1.3543524742126465 0.6440396308898926 30
-2.038926839828491 1.358253002166748 0.5563329458236694 30
-2.0291173458099365 1.3522297143936157 0.4661090672016144 30
-2.0247631072998047 1.3498382568359375 0.3789355158805847 30
-2.0342729091644287 1.3566912412643433 0.295533150434494 30
-2.041396379470825 1.3619567155838013 0.21135267615318298 30
-2.0294570922851562 1.3545030355453491 0.12586797773838043 30
-2.010868787765503 1.342604398727417 0.04153672233223915 30
-1.6134206056594849 1.079275369644165 -0.5098737478256226 119
-1.845698356628418 1.2351207733154297 -0.5038906931877136 119
-2.034438133239746 1.361937403678894 -0.46801578998565674 0
-2.02597975730896 1.356787085533142 -0.38013604283332825 30
-2.039673089981079 1.3664731979370117 -0.2967521846294403 30
-2.0137133598327637 1.34959077835083 -0.2087383270263672 30
-2.0141921043395996 1.3504210710525513 -0.12466669827699661 30
-2.016362190246582 1.352386236190796 -0.041294511407613754 30
-2.017068386077881 1.3533705472946167 0.6401598453521729 30
-2.0220375061035156 1.357216238975525 0.5529612302780151 30
-2.012160062789917 1.3510960340499878 0.46324947476387024 30
-2.007740020751953 1.348636507987976 0.3765915632247925 30
-2.017167329788208 1.3554799556732178 0.2937051057815552 30
-2.02422833442688 1.3607375621795654 0.21004533767700195 30
-2.016429901123047 1.356006383895874 0.12534461915493011 30
-1.993726134300232 1.3412439823150635 0.041274938732385635 30
-1.6096433401107788 1.0849006175994873 -0.5098737478256226 119
-1.8413758277893066 1.24155592918396 -0.5038906931877136 119
-2.0174641609191895 1.360796570777893 -0.465156227350235 0
-2.0130441188812256 1.3583263158798218 -0.37857168912887573 30
-2.0225508213043213 1.3652549982070923 -0.29492413997650146 30
-1.9966059923171997 1.348249077796936 -0.20743097364902496 30
-1.9970532655715942 1.3490586280822754 -0.12388427555561066 30
-1.9992029666900635 1.351019024848938 -0.04103534296154976 30
-2.000328302383423 1.3522881269454956 0.6362801194190979 30
-2.0051801204681396 1.3560781478881836 0.5495895147323608 30
-1.9952356815338135 1.349860429763794 0.4603899419307709 30
-1.9907505512237549 1.3473325967788696 0.37424764037132263 30
-2.0000953674316406 1.354166030883789 0.29187706112861633 30
-2.007094144821167 1.3594155311584473 0.20873799920082092 30
-1.9992831945419312 1.3546342849731445 0.12455956637859344 30
-1.9807559251785278 1.3425853252410889 0.04110041633248329 30
-1.6058465242385864 1.090512752532959 -0.5098737478256226 119
-1.8370307683944702 1.2479759454727173 -0.5038906931877136 119
-2.000523090362549 1.3595539331436157 -0.46229663491249084 0
-1.9960383176803589 1.3570153713226318 -0.37622520327568054 30
-2.005462169647217 1.3639339208602905 -0.2930960953235626 30
-1.9836512804031372 1.3496066331863403 -0.206559419631958 30
-1.9840762615203857 1.3504024744033813 -0.12336266040802002 30
-1.9862103462219238 1.3523622751235962 -0.040862563997507095 30
-1.9836201667785645 1.3511054515838623 0.6324003338813782 30
-1.9883556365966797 1.3548389673233032 0.5462177991867065 30
-1.9824002981185913 1.351287841796875 0.45848357677459717 30
-1.9778748750686646 1.3487087488174438 0.372685045003891 30
-1.9830570220947266 1.3527495861053467 0.2900490164756775 30
-1.994107961654663 1.3607980012893677 0.20786644518375397 30
-1.9862948656082153 1.3559744358062744 0.12403620779514313 30
-1.967800498008728 1.3438526391983032 0.04092589020729065 30
-1.6018388271331787 1.096391201019287 -0.5098737478256226 119
-1.8324443101882935 1.2547005414962769 -0.5038906931877136 119
-1.983378529548645 1.358555793762207 -0.4594370722770691 0
-1.9788298606872559 1.3559476137161255 -0.3738786578178406 30
-1.9881694316864014 1.3628573417663574 -0.2912680506706238 30
-1.9663677215576172 1.3484171628952026 -0.20525209605693817 30
-1.9667609930038452 1.349191665649414 -0.12258023023605347 30
-1.968874216079712 1.3511466979980469 -0.0406033918261528 30
-1.9667093753814697 1.3501659631729126 0.6285205483436584 30
-1.975344181060791 1.3566012382507324 0.543969988822937 30
-1.9652974605560303 1.3502063751220703 0.455623984336853 30
-1.9607082605361938 1.3475573062896729 0.37034109234809875 30
-1.9658174514770508 1.3515739440917969 0.28822100162506104 30
-1.9767950773239136 1.359629511833191 0.20655910670757294 30
-1.9730844497680664 1.357584834098816 0.12351284921169281 30
-1.950507640838623 1.3425524234771729 0.040664102882146835 30
-1.5980019569396973 1.1019760370254517 -0.5098737478256226 119
-1.8280534744262695 1.2610894441604614 -0.5038906931877136 119
-1.9665048122406006 1.357107162475586 -0.45657750964164734 30
-1.9618924856185913 1.3544297218322754 -0.3715321719646454 30
-1.9711495637893677 1.3613286018371582 -0.28944000601768494 30
-1.9534528255462646 1.349610447883606 -0.20438054203987122 30
-1.9538242816925049 1.3503708839416504 -0.12205860763788223 30
-1.9559214115142822 1.3523248434066772 -0.04043061286211014 30
-1.9540396928787231 1.3515279293060303 0.6259340643882751 30
-1.958577275276184 1.355171799659729 0.5405982732772827 30
-1.952500820159912 1.3514713048934937 0.4537176191806793 30
-1.9478720426559448 1.348770260810852 0.3687784671783447 30
-1.9529285430908203 1.3527759313583374 0.287002295255661 30
-1.9638487100601196 1.3608475923538208 0.20568755269050598 30
-1.9560229778289795 1.355929970741272 0.12272781878709793 30
-1.937589406967163 1.3436607122421265 0.04048958048224449 30
-1.594145655632019 1.1075472831726074 -0.5098737478256226 119
-1.82364022731781 1.2674628496170044 -0.5038906931877136 119
-1.9496657848358154 1.3555575609207153 -0.4537179470062256 30
-1.9449900388717651 1.3528101444244385 -0.3691856265068054 30
-1.9582382440567017 1.3625320196151733 -0.2882213294506073 30
-1.9364652633666992 1.347884178161621 -0.203073188662529 30
-1.9368056058883667 1.3486229181289673 -0.12127619236707687 30
-1.9388829469680786 1.350571870803833 -0.04017144441604614 30
-1.937422275543213 1.3500566482543945 0.6220543384552002 30
-1.9458415508270264 1.3564280271530151 0.5383504629135132 30
-1.935693383216858 1.3498560190200806 0.45085808634757996 30
-1.9350512027740479 1.3499102592468262 0.3672158420085907 30
-1.9359853267669678 1.3510642051696777 0.28517425060272217 30
-1.9509183168411255 1.3619918823242188 0.20481598377227783 30
-1.943090796470642 1.3570317029953003 0.12220446020364761 30
-1.9205968379974365 1.3418210744857788 0.040227796882390976 30
-1.590269923210144 1.1131051778793335 -0.5098737478256226 119
-1.8192050457000732 1.2738208770751953 -0.5038906931877136 119
-1.9368817806243896 1.3567228317260742 -0.4518115520477295 30
-1.9321672916412354 1.3539232015609741 -0.3676212728023529 30
-1.9412788152694702 1.3608132600784302 -0.28639328479766846 30
-1.9195142984390259 1.3460562229156494 -0.20176586508750916 30
-1.9239109754562378 1.3496403694152832 -0.12075457721948624 30
-1.9259724617004395 1.3515881299972534 -0.03999866172671318 30
-1.924791932106018 1.351261019706726 0.6194678544998169 30
-1.929133653640747 1.3548117876052856 0.5349787473678589 30
-1.922937273979187 1.3509613275527954 0.44895169138908386 30
-1.918205976486206 1.3481374979019165 0.36487194895744324 30
-1.9231377840042114 1.3521052598953247 0.28395554423332214 30
-1.933929681777954 1.3601970672607422 0.203508660197258 30
-1.926090955734253 1.3551863431930542 0.12141941487789154 30
-1.9036368131637573 1.339884638786316 0.03996600955724716 30
-1.5863747596740723 1.1186493635177612 -0.5098737478256226 119
-1.8147473335266113 1.2801631689071655 -0.5038906931877136 119
-1.9241137504577637 1.3578157424926758 -0.4499051868915558 30
-1.9153263568878174 1.352115273475647 -0.3652747869491577 30
-1.928409457206726 1.3618556261062622 -0.28517457842826843 30
-1.9066674709320068 1.347000241279602 -0.2008943110704422 30
-1.9110329151153564 1.3505841493606567 -0.120232954621315 30
-1.9089962244033813 1.3496445417404175 -0.03973948955535889 30
-1.908233404159546 1.3496047258377075 0.6155880689620972 30
-1.9164382219314575 1.3559095859527588 0.5327309370040894 30
-1.9061906337738037 1.3491586446762085 0.4460921287536621 30
-1.9054274559020996 1.349117636680603 0.3633093237876892 30
-1.9103069305419922 1.3530731201171875 0.2827368676662445 30
-1.9210416078567505 1.361180067062378 0.20263710618019104 30
-1.9132016897201538 1.3561265468597412 0.12089605629444122 30
-1.886713981628418 1.337846279144287 0.03970422223210335 30
-1.57852303981781 1.1213830709457397 -0.5085796117782593 119
-1.8102678060531616 1.2864900827407837 -0.5038906931877136 119
-1.9073610305786133 1.3559918403625488 -0.4470456540584564 30
-1.9025459289550781 1.353068470954895 -0.3637104332447052 30
-1.9155563116073608 1.36282479763031 -0.2839558720588684 30
-1.8897796869277954 1.3449828624725342 -0.19958695769309998 30
-1.8941041231155396 1.348558783531189 -0.11945052444934845 30
-1.8961294889450073 1.3504995107650757 -0.03956671059131622 30
-1.8956438302993774 1.3506524562835693 0.6130015254020691 30
-1.8997914791107178 1.35410737991333 0.5293592214584351 30
-1.8934768438339233 1.3501050472259521 0.444185733795166 30
-1.8886446952819824 1.3471568822860718 0.360965371131897 30
-1.89749276638031 1.3539679050445557 0.2815181612968445 30
-1.9081703424453735 1.3620896339416504 0.20176555216312408 30
-1.8962657451629639 1.3540915250778198 0.12011101096868515 30
-1.8738967180252075 1.3386120796203613 0.039529696106910706 30
-1.574599027633667 1.1268863677978516 -0.5085796117782593 119
-1.805765986442566 1.2928012609481812 -0.5038906931877136 119
-1.8946354389190674 1.3569257259368896 -0.4451392590999603 30
-1.8857678174972534 1.351072907447815 -0.3613639175891876 30
-1.9027202129364014 1.3637211322784424 -0.28273719549179077 30
-1.8769770860671997 1.3457664251327515 -0.19871540367603302 30
-1.8812702894210815 1.349341630935669 -0.11892890930175781 30
-1.8832802772521973 1.3512812852859497 -0.03939393162727356 30
-1.8830702304840088 1.3516284227371216 0.6104150414466858 30
-1.88713800907135 1.355047345161438 0.5271114110946655 30
-1.8767932653427124 1.3481159210205078 0.44132620096206665 30
-1.8759098052978516 1.347977638244629 0.35940274596214294 30
-1.8806660175323486 1.3518931865692139 0.27969011664390564 30
-1.895316243171692 1.3629261255264282 0.20089399814605713 30
-1.8834208250045776 1.3548707962036133 0.11958765238523483 30
-1.857039451599121 1.336384892463684 0.03926791250705719 30
-1.5706558227539062 1.1323758363723755 -0.5085796117782593 119
-1.8012423515319824 1.299096703529358 -0.5038906931877136 119
-1.8779460191726685 1.3549153804779053 -0.4422796666622162 30
-1.8730313777923584 1.3518667221069336 -0.3597995638847351 30
-1.8899012804031372 1.3645445108413696 -0.28151848912239075 30
-1.8641924858093262 1.3464771509170532 -0.19784384965896606 30
-1.864406943321228 1.3471273183822632 -0.11814647167921066 30
-1.8663967847824097 1.3490608930587769 -0.039134759455919266 30
-1.866599202156067 1.3497031927108765 0.6065353155136108 30
-1.8705538511276245 1.353060007095337 0.5237396955490112 30
-1.8641231060028076 1.348904013633728 0.43941983580589294 30
-1.8591915369033813 1.3458300828933716 0.3570587933063507 30
-1.8678964376449585 1.3526281118392944 0.2784714102745056 30
-1.8784458637237549 1.3607672452926636 0.1995866447687149 30
-1.8665506839752197 1.352647066116333 0.11880261451005936 30
-1.8442682027816772 1.336990475654602 0.039093390107154846 30
-1.5666935443878174 1.137851595878601 -0.5085796117782593 119
-1.796696662902832 1.3053762912750244 -0.5038906931877136 119
-1.8612936735153198 1.352805256843567 -0.4394201338291168 30
-1.8563183546066284 1.3496841192245483 -0.35745301842689514 30
-1.8730862140655518 1.3623756170272827 -0.2796904444694519 30
-1.8514258861541748 1.347115159034729 -0.19697228074073792 30
-1.8516192436218262 1.347750186920166 -0.11762485653162003 30
-1.8535934686660767 1.3496822118759155 -0.038961976766586304 30
-1.8540685176849365 1.3505232334136963 0.6039488315582275 30
-1.8579442501068115 1.353842854499817 0.5214918851852417 30
-1.8514703512191772 1.3496202230453491 0.43751341104507446 30
-1.8465018272399902 1.3464919328689575 0.35549619793891907 30
-1.8511356115341187 1.3503659963607788 0.27664339542388916 30
-1.8656373023986816 1.3614437580108643 0.19871509075164795 30
-1.8537520170211792 1.3532662391662598 0.11827925592660904 30
-1.8315155506134033 1.3375234603881836 0.038918863981962204 30
-1.5627120733261108 1.1433134078979492 -0.5085796117782593 119
-1.7960602045059204 1.3145172595977783 -0.5050153732299805 119
-1.8486396074295044 1.3534948825836182 -0.43751370906829834 30
-1.8396433591842651 1.3474016189575195 -0.35510653257369995 30
-1.860312819480896 1.3630393743515015 -0.2784717381000519 30
-1.8386772871017456 1.3476804494857788 -0.19610072672367096 30
-1.8348233699798584 1.3453480005264282 -0.11684243381023407 30
-1.8408088684082031 1.3502308130264282 -0.03878919780254364 30
-1.837660789489746 1.3484150171279907 0.6000690460205078 30
-1.8414247035980225 1.3516712188720703 0.5181202292442322 30
-1.8388354778289795 1.3502646684646606 0.43560701608657837 30
-1.8298500776290894 1.3441582918167114 0.3531522750854492 30
-1.8384126424789429 1.3509421348571777 0.2754247188568115 30
-1.848833680152893 1.3590970039367676 0.19740775227546692 30
-1.8369489908218384 1.3508543968200684 0.11749421060085297 30
-1.8187814950942993 1.3379836082458496 0.03874434158205986 30
-1.562599539756775 1.151626706123352 -0.5098737478256226 119
-1.7914608716964722 1.3207786083221436 -0.5050153732299805 119
-1.8320531845092773 1.3511995077133179 -0.434654176235199 30
-1.8230072259902954 1.3450191020965576 -0.35275998711586 30
-1.847557783126831 1.3636306524276733 -0.27725306153297424 30
-1.8259477615356445 1.3481732606887817 -0.195229172706604 30
-1.8220833539962769 1.3458112478256226 -0.11632081866264343 30
-1.8240222930908203 1.3477355241775513 -0.038530029356479645 30
-1.8251746892929077 1.3490796089172363 0.5974825024604797 30
-1.8288601636886597 1.3522974252700806 0.5158723592758179 30
-1.8222728967666626 1.3479185104370117 0.432747483253479 30
-1.8172070980072021 1.3446621894836426 0.3515896499156952 30
-1.8217191696166992 1.348493218421936 0.2735966444015503 30
-1.8320696353912354 1.3566498756408691 0.19610042870044708 30
-1.8241981267929077 1.3513140678405762 0.11697085201740265 30
-1.806066870689392 1.3383711576461792 0.038569819182157516 30
-1.558570146560669 1.1570740938186646 -0.5098737478256226 119
-1.786839485168457 1.3270238637924194 -0.5050153732299805 119
-1.8194457292556763 1.3517321348190308 -0.4327477812767029 30
-1.8064104318618774 1.3425370454788208 -0.3504135012626648 30
-1.830838918685913 1.361188530921936 -0.2754250168800354 30
-1.813237190246582 1.3485937118530273 -0.19435760378837585 30
-1.8093624114990234 1.3462023735046387 -0.1157992035150528 30
-1.8112859725952148 1.348124623298645 -0.03835725039243698 30
-1.8088324069976807 1.3467891216278076 0.59360271692276 30
-1.8163141012191772 1.3528525829315186 0.5136245489120483 30
