# .PCD v0.7 - Point Cloud Data file format
VERSION 0.7
FIELDS x y z intensity
SIZE 4 4 4 4
TYPE F F F F
COUNT 1 1 1 1
WIDTH 776
HEIGHT 1
VIEWPOINT 0 0 0 1 0 0 0
POINTS 776
DATA ascii
-1.5015686750411987 -7.569608688354492 -0.13269534707069397 111
-0.9790931940078735 -4.931230545043945 1.3359296321868896 114
-1.026435375213623 -5.164951324462891 1.2059500217437744 114
-1.0741863250732422 -5.400300979614258 1.0618517398834229 114
-1.1280015707015991 -5.665679454803467 0.9078826308250427 114
-1.128656029701233 -5.663804531097412 0.7044047713279724 114
-1.5098482370376587 -7.569805145263672 0.671970784664154 111
-1.5119119882583618 -7.57326078414917 0.4027251601219177 111
-1.5111522674560547 -7.56257963180542 0.1339472085237503 111
-0.3763137459754944 -1.8747507333755493 -0.502109169960022 119
-0.4336065948009491 -2.1582248210906982 -0.4993916451931 119
-1.52190101146698 -7.568239212036133 -1.4917407035827637 111
-1.5227844715118408 -7.565800189971924 -1.2162789106369019 111
-1.5276436805725098 -7.58310079574585 -0.945097804069519 111
-1.524714469909668 -7.561742782592773 -0.6715360283851624 111
-1.525808334350586 -7.560357093811035 -0.4008634388446808 111
-1.5289722681045532 -7.5692219734191895 -0.1327817291021347 111
-0.996300458908081 -4.927783012390137 1.3359296321868896 114
-1.0444581508636475 -5.161336898803711 1.2059500217437744 114
-1.09400475025177 -5.4013285636901855 1.062804937362671 114
-1.1487528085708618 -5.666548252105713 0.9086639285087585 114
-1.1494063138961792 -5.664694309234619 0.7050141096115112 114
-1.537253975868225 -7.569369316101074 0.6724065542221069 111
-1.5393329858779907 -7.572829723358154 0.4029868543148041 111
-1.537541389465332 -7.5572590827941895 0.1339472085237503 111
-0.3828555643558502 -1.8734257221221924 -0.502109169960022 119
-0.4411375820636749 -2.156698226928711 -0.4993916451931 119
-1.5492942333221436 -7.567689418792725 -1.4926939010620117 111
-1.5501761436462402 -7.565276622772217 -1.217061161994934 111
-1.5551015138626099 -7.582583427429199 -0.9457071423530579 111
-1.5511006116867065 -7.556375026702881 -0.6715360283851624 111
-1.5531946420669556 -7.559876441955566 -0.4011242687702179 111
-1.5563913583755493 -7.568735599517822 -0.13286812603473663 111
-1.0134955644607544 -4.924274921417236 1.3359296321868896 114
-1.0624682903289795 -5.157660007476807 1.2059500217437744 114
-1.1128522157669067 -5.397476673126221 1.062804937362671 114
-1.1685258150100708 -5.662503719329834 0.9086639285087585 114
-1.1691728830337524 -5.660647869110107 0.7050141096115112 114
-1.563666582107544 -7.563957214355469 0.6724065542221069 111
-1.5657577514648438 -7.567410469055176 0.4029868543148041 111
-1.5649254322052002 -7.556741237640381 0.13403446972370148 111
-0.3903762102127075 -1.876806378364563 -0.5034032464027405 119
-0.4486631751060486 -2.1551451683044434 -0.4993916451931 119
-1.5767022371292114 -7.56704044342041 -1.4936470985412598 111
-1.5775827169418335 -7.5646538734436035 -1.2178432941436768 111
-1.5815601348876953 -7.577108860015869 -0.9457071423530579 111
-1.578486442565918 -7.555789947509766 -0.6719717979431152 111
-1.5795739889144897 -7.554409027099609 -0.4011242687702179 111
-1.583825707435608 -7.568149089813232 -0.13295450806617737 111
-1.0316685438156128 -4.925434589385986 1.3372228145599365 114
-1.0814651250839233 -5.158688545227051 1.2070739269256592 114
-1.132694125175476 -5.39836311340332 1.063758134841919 114
-1.189299464225769 -5.6632232666015625 0.9094452261924744 114
-1.1899458169937134 -5.661388397216797 0.70562344789505 114
-1.5910855531692505 -7.563327312469482 0.6728423237800598 111
-1.593192219734192 -7.5667853355407715 0.40324851870536804 111
-1.5923248529434204 -7.556124687194824 0.13412173092365265 111
-0.3969251215457916 -1.8754321336746216 -0.5034032464027405 119
-0.4561832845211029 -2.1535658836364746 -0.4993916451931 119
-1.6031064987182617 -7.561490535736084 -1.4936470985412598 111
-1.6050037145614624 -7.563932418823242 -1.218625545501709 111
-1.610061526298523 -7.58125114440918 -0.9469258785247803 111
-1.6058870553970337 -7.555106163024902 -0.6724075675010681 111
-1.6069730520248413 -7.553732872009277 -0.40138503909111023 111
-1.6112749576568604 -7.567464351654053 -0.1330409049987793 111
-1.048855185508728 -4.9218034744262695 1.3372228145599365 114
-1.0994656085968018 -5.154881954193115 1.2070739269256592 114
-1.1515309810638428 -5.394376277923584 1.063758134841919 114
-1.209060549736023 -5.659037113189697 0.9094452261924744 114
-1.2097004652023315 -5.657200336456299 0.70562344789505 114
-1.6185193061828613 -7.56259822845459 0.6732780933380127 111
-1.6195954084396362 -7.561177730560303 0.40324851870536804 111
-1.6186909675598145 -7.550520420074463 0.13412173092365265 111
-0.40245264768600464 -1.8693138360977173 -0.502109169960022 119
-0.4636978507041931 -2.1519603729248047 -0.4993916451931 119
-1.6315606832504272 -7.565443992614746 -1.4955534934997559 111
-1.6303550004959106 -7.5534563064575195 -1.2178432941436768 111
-1.6365151405334473 -7.575584888458252 -0.9469258785247803 111
-1.633302092552185 -7.554323196411133 -0.672843337059021 111
-1.6343867778778076 -7.552958011627197 -0.40164586901664734 111
-1.6376805305480957 -7.561793804168701 -0.1330409049987793 111
-1.0670521259307861 -4.922832012176514 1.3385159969329834 114
-1.11745285987854 -5.151012420654297 1.2070739269256592 114
-1.1713954210281372 -5.395120620727539 1.064711332321167 114
-1.2298555374145508 -5.659608364105225 0.9102265238761902 114
-1.2304950952529907 -5.657792568206787 0.7062328457832336 114
-1.6459673643112183 -7.561769962310791 0.6737139225006104 111
-1.6481046676635742 -7.565235137939453 0.40377187728881836 111
-1.6471672058105469 -7.554592609405518 0.134296253323555 111
-0.40794235467910767 -1.8631798028945923 -0.5008150935173035 119
-0.47120678424835205 -2.1503286361694336 -0.4993916451931 119
-1.6590105295181274 -7.564497470855713 -1.496506690979004 111
-1.6598879098892212 -7.562190055847168 -1.2201898097991943 111
-1.6661434173583984 -7.584367275238037 -0.9487538933753967 111
-1.660731315612793 -7.553440570831299 -0.6732791662216187 111
-1.6607416868209839 -7.547206878662109 -0.40164586901664734 111
-1.6651413440704346 -7.560913562774658 -0.13312730193138123 111
-1.084229588508606 -4.919076919555664 1.3385159969329834 114
-1.136475920677185 -5.1518378257751465 1.208197832107544 114
-1.1902207136154175 -5.3909993171691895 1.064711332321167 114
-1.2496037483215332 -5.655280590057373 0.9102265238761902 114
-1.251308560371399 -5.658308029174805 0.7068421244621277 114
-1.6734291315078735 -7.5608415603637695 0.6741496324539185 111
-1.6745022535324097 -7.559436321258545 0.40377187728881836 111
-1.6756917238235474 -7.558558464050293 0.13447079062461853 111
-0.41339415311813354 -1.8570301532745361 -0.4995209574699402 119
-0.4787099361419678 -2.1486709117889404 -0.4993916451931 119
-1.6843372583389282 -7.553869724273682 -1.4955534934997559 111
-1.686274766921997 -7.556349754333496 -1.2201898097991943 111
-1.680708646774292 -7.525228500366211 -0.942051112651825 111
-1.6740487813949585 -7.489264965057373 -0.6680498123168945 111
-1.6892563104629517 -7.5511088371276855 -0.40216749906539917 111
-1.6926161050796509 -7.559934139251709 -0.13321368396282196 111
-1.101393699645996 -4.915262699127197 1.3385159969329834 114
-1.1544522047042847 -5.147839546203613 1.208197832107544 114
-1.2101062536239624 -5.391600131988525 1.065664529800415 114
-1.2704191207885742 -5.655703067779541 0.9110078811645508 114
-1.272140622138977 -5.658748149871826 0.7074515223503113 114
-1.7019978761672974 -7.564672946929932 0.675021231174469 111
-1.7019762992858887 -7.558416366577148 0.4040335714817047 111
-1.6899760961532593 -7.499016761779785 0.13351090252399445 111
-0.42168012261390686 -1.8650705814361572 -0.502109169960022 119
-0.4854578375816345 -2.147156238555908 -0.4993916451931 119
-1.6820622682571411 -7.4336466789245605 -1.4726769924163818 111
-1.6827367544174194 -7.430602550506592 -1.2006354331970215 111
-1.6878869533538818 -7.447310924530029 -0.9329108595848083 111
-1.6854485273361206 -7.430535316467285 -0.6632562279701233 111
-1.6997058391571045 -7.487332820892334 -0.39903774857521057 111
-1.6897759437561035 -7.437577724456787 -0.1311403214931488 111
-1.1179008483886719 -4.916488170623779 1.3398092985153198 114
-1.171700119972229 -5.148938179016113 1.2093217372894287 114
-1.2270385026931763 -5.387772083282471 1.065664529800415 114
-1.2881807088851929 -5.651684284210205 0.9110078811645508 114
-1.2899118661880493 -5.654723644256592 0.7074515223503113 114
-1.6969305276870728 -7.4330315589904785 0.663690984249115 111
-1.6967967748641968 -7.426471710205078 0.3972298800945282 111
-1.705725908279419 -7.459556579589844 0.13290005922317505 111
-0.42786261439323425 -1.8636620044708252 -0.502109169960022 119
-0.49294987320899963 -2.1454484462738037 -0.4993916451931 119
-1.7101999521255493 -7.437295913696289 -1.4745832681655884 111
-1.709771752357483 -7.429496765136719 -1.2014176845550537 111
-1.7149865627288818 -7.446209907531738 -0.9335201978683472 111
-1.7124943733215332 -7.4294610023498535 -0.6636919975280762 111
-1.7213414907455444 -7.461892604827881 -0.3979945182800293 111
-1.7168523073196411 -7.4365057945251465 -0.13122670352458954 111
-1.1350557804107666 -4.912555694580078 1.3398092985153198 114
-1.1907637119293213 -5.149563312530518 1.2104456424713135 114
-1.246944546699524 -5.388237953186035 1.066617727279663 114
-1.3090152740478516 -5.65196418762207 0.9117891788482666 114
-1.3107632398605347 -5.6550211906433105 0.7080608606338501 114
-1.7239919900894165 -7.431914806365967 0.6641267538070679 111
-1.7238388061523438 -7.42536735534668 0.39749157428741455 111
-1.724966049194336 -7.42434024810791 0.13237649202346802 111
-0.4357883334159851 -1.8667844533920288 -0.5034032464027405 119
-0.5008100271224976 -2.143627405166626 -0.4993916451931 119
-1.7385650873184204 -7.435757637023926 -1.4755364656448364 111
-1.7381160259246826 -7.427988529205322 -1.2021998167037964 111
-1.7445298433303833 -7.449538230895996 -0.9347388744354248 111
-1.7408499717712402 -7.427984237670898 -0.664127767086029 111
-1.7395577430725098 -7.4166436195373535 -0.39590805768966675 111
-1.7440969944000244 -7.430163383483887 -0.13122670352458954 111
-1.1541582345962524 -4.913064956665039 1.3411026000976562 114
-1.209629774093628 -5.145164489746094 1.2104456424713135 114
-1.2666850090026855 -5.383631706237793 1.066617727279663 114
-1.330853819847107 -5.65193510055542 0.9125704169273376 114
-1.3314812183380127 -5.650178909301758 0.7080608606338501 114
-1.7523630857467651 -7.430394649505615 0.6645625233650208 111
-1.7521897554397583 -7.423859596252441 0.3977532684803009 111
-1.7521660327911377 -7.417968273162842 0.13237649202346802 111
-0.4434162974357605 -1.8699512481689453 -0.504697322845459 119
-0.508289635181427 -2.1418662071228027 -0.4993916451931 119
-1.7656444311141968 -7.434419631958008 -1.4764896631240845 111
-1.7663177251815796 -7.431485652923584 -1.2037642002105713 111
-1.770522952079773 -7.443403244018555 -0.9347388744354248 111
-1.76907479763031 -7.431553363800049 -0.6649993062019348 111
-1.7677503824234009 -7.42024040222168 -0.3964296877384186 111
-1.7723413705825806 -7.433755874633789 -0.1313994973897934 111
-1.172421932220459 -4.9137043952941895 1.3423959016799927 114
-1.228713870048523 -5.145649433135986 1.2115695476531982 114
-1.2866106033325195 -5.383951663970947 1.0675709247589111 114
-1.3505746126174927 -5.647254943847656 0.9125704169273376 114
-1.3523510694503784 -5.650323390960693 0.7086701989173889 114
-1.7782893180847168 -7.424232482910156 0.6645625233650208 111
-1.7804207801818848 -7.427408695220947 0.39827659726142883 111
-1.7780488729476929 -7.411806583404541 0.13237649202346802 111
-0.449940949678421 -1.868391990661621 -0.504697322845459 119
-0.5157630443572998 -2.1400787830352783 -0.4993916451931 119
-1.790433645248413 -7.423439025878906 -1.4755364656448364 110
-1.7910890579223633 -7.420474052429199 -1.2029820680618286 111
-1.7941640615463257 -7.427529811859131 -0.9335201978683472 111
-1.7809603214263916 -7.367234230041504 -0.6597699522972107 110
-1.7936409711837769 -7.414024829864502 -0.3964296877384186 111
-1.7947499752044678 -7.412946701049805 -0.1311403214931488 111
-1.1895668506622314 -4.909581661224365 1.3423959016799927 114
-1.2466681003570557 -5.141328811645508 1.2115695476531982 114
-1.3065537214279175 -5.384197235107422 1.0685241222381592 114
-1.371444582939148 -5.647305965423584 0.9133517742156982 114
-1.3720661401748657 -5.645568370819092 0.7086701989173889 114
-1.8018395900726318 -7.408299922943115 0.663690984249115 111
-1.7992513179779053 -7.392039775848389 0.39670655131340027 111
-1.7778805494308472 -7.298696041107178 0.13045673072338104 110
-0.4553129971027374 -1.8621186017990112 -0.5034032464027405 119
-0.5232301354408264 -2.138265609741211 -0.4993916451931 119
-1.7859811782836914 -7.293190956115723 -1.4507535696029663 110
-1.7852427959442139 -7.284671306610107 -1.1818633079528809 110
-1.7905277013778687 -7.300724506378174 -0.9182865023612976 110
-1.7698601484298706 -7.2110137939453125 -0.6462608575820923 110
-1.801644206047058 -7.334982395172119 -0.3925175368785858 110
-1.7836216688156128 -7.25614070892334 -0.12846222519874573 110
-1.2078508138656616 -4.910089015960693 1.34368896484375 114
-1.2646070718765259 -5.136945724487305 1.2115695476531982 114
-1.3253400325775146 -5.379603862762451 1.0685241222381592 114
-1.3923312425613403 -5.647279262542725 0.9141330718994141 114
-1.3929531574249268 -5.645562171936035 0.7092795372009277 114
-1.7906732559204102 -7.252057075500488 0.6501818299293518 110
-1.7915050983428955 -7.249988555908203 0.38937950134277344 110
-1.775744080543518 -7.1808247566223145 0.1284496933221817 110
-0.46181023120880127 -1.860517978668213 -0.5034032464027405 119
-0.5306909084320068 -2.1364259719848633 -0.4993916451931 119
-1.7830100059509277 -7.1725921630859375 -1.4278770685195923 110
-1.7832392454147339 -7.16817045211792 -1.1638734340667725 110
-1.7872271537780762 -7.178852558135986 -0.9036622047424316 110
-1.7673245668411255 -7.093626976013184 -0.6362378597259521 110
-1.789790391921997 -7.178458213806152 -0.38443246483802795 110
-1.7702105045318604 -7.0946526527404785 -0.12569773197174072 110
-1.2249829769134521 -4.9058427810668945 1.34368896484375 114
-1.282530665397644 -5.132500648498535 1.2115695476531982 114
-1.3453010320663452 -5.379706382751465 1.0694772005081177 114
-1.4120354652404785 -5.6423845291137695 0.9141330718994141 114
-1.4138569831848145 -5.645479679107666 0.7098888754844666 114
-1.7869148254394531 -7.129805088043213 0.6397231221199036 110
-1.788862705230713 -7.132298469543457 0.3833608627319336 110
-1.7630709409713745 -7.024269104003906 0.12574458122253418 110
-0.46830183267593384 -1.8588945865631104 -0.5034032464027405 119
-0.5369541645050049 -2.129836320877075 -0.49826687574386597 119
-1.7756166458129883 -7.037827014923096 -1.4021409749984741 110
-1.775609016418457 -7.032621383666992 -1.1427546739578247 110
-1.7806665897369385 -7.047470569610596 -0.8878191709518433 110
-1.7591075897216797 -6.957032203674316 -0.6244718432426453 110
-1.7878897190093994 -7.065672874450684 -0.37869465351104736 110
-1.7691936492919922 -6.986658573150635 -0.12388354539871216 110
-1.2432864904403687 -4.906219005584717 1.3449822664260864 114
-1.3016363382339478 -5.132715225219727 1.212693452835083 114
-1.365278959274292 -5.379734992980957 1.0704303979873657 114
-1.4329379796981812 -5.642208099365234 0.9149144291877747 114
-1.4347772598266602 -5.645319938659668 0.7104982733726501 114
-1.7798696756362915 -6.9980149269104 0.6283929347991943 110
-1.7841895818710327 -7.009878158569336 0.3770805597305298 110
-1.7579642534255981 -6.9018025398254395 0.12365029752254486 110
-0.47478774189949036 -1.8572485446929932 -0.5034032464027405 119
-0.5443853735923767 -2.1279489994049072 -0.49826687574386597 119
-1.7697393894195557 -6.912712574005127 -1.378311276435852 110
-1.7695056200027466 -6.9067816734313965 -1.1232004165649414 110
-1.770745873451233 -6.906609058380127 -0.8707574605941772 110
-1.752434492111206 -6.830231666564941 -0.6135773658752441 110
-1.779015302658081 -6.928808212280273 -0.37165284156799316 110
-1.7637121677398682 -6.864232540130615 -0.1218101754784584 110
-1.2616076469421387 -4.906527042388916 1.3462755680084229 114
-1.3195449113845825 -5.128139972686768 1.212693452835083 114
-1.384049415588379 -5.374936580657959 1.0704303979873657 114
-1.4526243209838867 -5.637171745300293 0.9149144291877747 114
-1.4557136297225952 -5.645082950592041 0.711107611656189 0
-1.7719266414642334 -6.86636209487915 0.6170626878738403 110
-1.7761867046356201 -6.8779096603393555 0.37027686834335327 110
-1.7507739067077637 -6.774618625640869 0.12146874517202377 110
-0.48126786947250366 -1.8555799722671509 -0.5034032464027405 119
-0.5518099665641785 -2.126035690307617 -0.49826687574386597 119
-1.7617766857147217 -6.782975196838379 -1.353528380393982 110
-1.7625458240509033 -6.78107213973999 -1.1036460399627686 110
-1.7598639726638794 -6.765903949737549 -0.8536956906318665 110
-1.7448980808258057 -6.703564643859863 -0.602682888507843 110
-1.7704660892486572 -6.796925067901611 -0.3648717999458313 110
-1.757398009300232 -6.741931915283203 -0.11973681300878525 110
-1.2787269353866577 -4.902093410491943 1.3462755680084229 114
-1.338667869567871 -5.128216743469238 1.2138173580169678 114
-1.4040436744689941 -5.374821662902832 1.0713835954666138 114
-1.4735418558120728 -5.636844158172607 0.9156956672668457 114
-1.476665735244751 -5.644767761230469 0.711716890335083 0
-1.7656092643737793 -6.744488716125488 0.6066039800643921 110
-1.7685502767562866 -6.750913143157959 0.3637348711490631 110
-1.7465205192565918 -6.662077903747559 0.1195489764213562 110
-0.4877420961856842 -1.8538886308670044 -0.5034032464027405 119
-0.5592278838157654 -2.124096632003784 -0.49826687574386597 119
-1.7554311752319336 -6.662872314453125 -1.330651879310608 110
-1.7534713745117188 -6.650722026824951 -1.083309531211853 110
-1.7543517351150513 -6.649353504180908 -0.8396807312965393 110
-1.7364990711212158 -6.577033996582031 -0.5917884111404419 110
-1.7635693550109863 -6.674842834472656 -0.35861238837242126 110
-1.7502518892288208 -6.619760036468506 -0.11766345053911209 110
-1.2970662117004395 -4.90226936340332 1.3475688695907593 114
-1.3565605878829956 -5.1235127449035645 1.2138173580169678 114
-1.4227967262268066 -5.369887828826904 1.0713835954666138 114
-1.4944747686386108 -5.636440277099609 0.9164770245552063 114
-1.497633457183838 -5.644376277923584 0.7123262882232666 0
-1.7584631443023682 -6.622744560241699 0.5961452722549438 110
-1.76133131980896 -6.628881931304932 0.3574545681476593 110
-1.7402184009552002 -6.544819355010986 0.11754194647073746 110
-0.4954555034637451 -1.8568413257598877 -0.504697322845459 119
-0.5666389465332031 -2.122131824493408 -0.49826687574386597 119
-1.748268723487854 -6.542896747589111 -1.3077752590179443 110
-1.7460600137710571 -6.530060768127441 -1.0645374059677124 110
-1.749330759048462 -6.537719249725342 -0.8262750506401062 110
-1.7298150062561035 -6.460268020629883 -0.5817654728889465 110
-1.7558419704437256 -6.552892208099365 -0.35235294699668884 110
-1.742274522781372 -6.497722148895264 -0.11559008806943893 110
-1.3141703605651855 -4.897712230682373 1.3475688695907593 114
-1.3757001161575317 -5.1234517097473145 1.214941143989563 114
-1.4428061246871948 -5.36962890625 1.0723369121551514 114
-1.5141404867172241 -5.631189346313477 0.9164770245552063 114
-1.5186163187026978 -5.643906593322754 0.7129356265068054 0
-1.7517842054367065 -6.505943775177002 0.5861223936080933 110
-1.7532825469970703 -6.506985187530518 0.3511742651462555 110
-1.734420895576477 -6.432514190673828 0.11562218517065048 110
-0.5019341111183167 -1.8551005125045776 -0.504697322845459 119
-0.5740431547164917 -2.120140790939331 -0.49826687574386597 119
-1.7415745258331299 -6.427792072296143 -1.2858519554138184 110
-1.739120602607727 -6.414299964904785 -1.0465474128723145 110
-1.7435518503189087 -6.426202774047852 -0.8128694295883179 110
-1.724947452545166 -6.353244781494141 -0.5726140737533569 110
-1.7512128353118896 -6.445534706115723 -0.34687596559524536 110
-1.7360901832580566 -6.385469436645508 -0.11368949711322784 110
-1.3325263261795044 -4.897754669189453 1.3488620519638062 114
-1.3948558568954468 -5.123319149017334 1.2160651683807373 114
-1.462830901145935 -5.369295120239258 1.0732899904251099 114
-1.535086989402771 -5.630634784698486 0.9172583222389221 114
-1.539614200592041 -5.6433587074279785 0.7135449647903442 0
-1.7456231117248535 -6.394076824188232 0.5765352249145508 110
-1.749667763710022 -6.404491901397705 0.34594064950942993 110
-1.7291792631149292 -6.325153350830078 0.11378968507051468 110
-0.5084065198898315 -1.8533371686935425 -0.504697322845459 119
-0.5814403295516968 -2.11812424659729 -0.49826687574386597 119
-1.7340980768203735 -6.312815189361572 -1.2639285326004028 110
-1.7300853729248047 -6.2939066886901855 -1.0277752876281738 110
-1.7370163202285767 -6.314807415008545 -0.7994638085365295 110
-1.7180324792861938 -6.241533279418945 -0.5630269646644592 110
-1.7458558082580566 -6.338291168212891 -0.3413989841938019 110
-1.7304720878601074 -6.278160572052002 -0.11187530308961868 110
-1.3496146202087402 -4.893073558807373 1.3488620519638062 114
-1.4127309322357178 -5.118419170379639 1.2160651683807373 114
-1.4815644025802612 -5.364156246185303 1.0732899904251099 114
-1.5560476779937744 -5.630002021789551 0.9180396795272827 114
-1.56062650680542 -5.642733097076416 0.7141543030738831 0
-1.7387027740478516 -6.282332897186279 0.5669480562210083 110
-1.7440266609191895 -6.297292709350586 0.3404453694820404 110
-1.7232095003128052 -6.217907905578613 0.11195718497037888 110
-0.5148727893829346 -1.8515510559082031 -0.504697322845459 119
-0.5888304114341736 -2.116081714630127 -0.49826687574386597 119
-1.7284740209579468 -6.207427024841309 -1.2439115047454834 110
-1.7255336046218872 -6.192684650421143 -1.0121318101882935 110
-1.729724407196045 -6.203537464141846 -0.7860581278800964 110
-1.713036060333252 -6.139543533325195 -0.5543113350868225 110
-1.739772081375122 -6.23116397857666 -0.3359220027923584 110
-1.7254718542099 -6.175785064697266 -0.11014750599861145 110
-1.3666863441467285 -4.888332843780518 1.3488620519638062 114
-1.4319015741348267 -5.118148326873779 1.217189073562622 114
-1.5016030073165894 -5.363678932189941 1.074243187904358 114
-1.5770227909088135 -5.62929105758667 0.9188209176063538 114
-1.580313801765442 -5.637250900268555 0.7141543030738831 0
-1.7310242652893066 -6.170716762542725 0.5573610067367554 110
-1.737658977508545 -6.190212726593018 0.3349500894546509 110
-1.7178645133972168 -6.115595817565918 0.11021194607019424 110
-0.5213328003883362 -1.8497425317764282 -0.504697322845459 119
-0.5962133407592773 -2.114013433456421 -0.49826687574386597 119
-1.7234687805175781 -6.106880187988281 -1.2248477935791016 110
-1.721638798713684 -6.096325397491455 -0.9972705245018005 110
-1.7257261276245117 -6.106723308563232 -0.7744805812835693 110
-1.7087042331695557 -6.042459011077881 -0.5460315942764282 110
-1.7329617738723755 -6.124157428741455 -0.3304450213909149 110
-1.7197781801223755 -6.073521614074707 -0.10841970145702362 110
-1.3850581645965576 -4.888179302215576 1.3501553535461426 114
-1.4510877132415771 -5.117806434631348 1.2183129787445068 114
-1.5216562747955322 -5.363126277923584 1.075196385383606 114
-1.5980119705200195 -5.62850284576416 0.9196022152900696 114
-1.6013381481170654 -5.636474132537842 0.7147636413574219 0
-1.72667396068573 -6.073605060577393 0.5490811467170715 110
-1.731931209564209 -6.088057518005371 0.3297165036201477 110
-1.7118263244628906 -6.013397216796875 0.10846669971942902 110
-0.5277864336967468 -1.8479114770889282 -0.504697322845459 119
-0.6018825173377991 -2.1073403358459473 -0.49714213609695435 119
-1.7167346477508545 -6.006744861602783 -1.2057840824127197 110
-1.7160451412200928 -6.000369071960449 -0.9824092388153076 110
-1.717293620109558 -6.000771999359131 -0.761684238910675 110
-1.7040494680404663 -5.95056676864624 -0.5381875038146973 110
-1.7271264791488647 -6.027176856994629 -0.3254896402359009 110
-1.713727593421936 -5.9764790534973145 -0.10677828639745712 110
-1.4012603759765625 -4.883559226989746 1.3501553535461426 114
-1.4680509567260742 -5.112966060638428 1.2183129787445068 114
-1.540788173675537 -5.362768650054932 1.076149582862854 114
-1.6193971633911133 -5.632665634155273 0.921164870262146 114
-1.6213926076889038 -5.635902404785156 0.7153730392456055 0
-1.720624327659607 -5.976901531219482 0.5408014059066772 110
-1.724467158317566 -5.9863200187683105 0.32448291778564453 110
-1.7054489850997925 -5.916418552398682 0.10680872201919556 110
-0.533911406993866 -1.8461511135101318 -0.504697322845459 119
-0.6092348098754883 -2.105226516723633 -0.49714213609695435 119
-1.7117516994476318 -5.91113805770874 -1.1876734495162964 110
-1.7122395038604736 -5.908962726593018 -0.9683301448822021 110
-1.7147345542907715 -5.9137115478515625 -0.7513253688812256 110
-1.7012150287628174 -5.863259792327881 -0.530779242515564 110
-1.7217026948928833 -5.9300031661987305 -0.32053425908088684 110
-1.7080786228179932 -5.879246234893799 -0.10513687133789062 110
-1.4196468591690063 -4.883276462554932 1.3514485359191895 114
-1.4872504472732544 -5.112488746643066 1.219436764717102 114
-1.5608701705932617 -5.362070560455322 1.077102780342102 114
-1.640430212020874 -5.631720066070557 0.9219462275505066 114
-1.6424446105957031 -5.634973049163818 0.7159823775291443 110
-1.716373324394226 -5.884787559509277 0.5329573750495911 110
-1.7187737226486206 -5.889194011688232 0.3195109963417053 110
-1.7008647918701172 -5.8240509033203125 0.10523800551891327 110
-0.5403524041175842 -1.8442761898040771 -0.504697322845459 119
-0.6148427128791809 -2.0985190868377686 -0.49601736664772034 119
-1.7064882516860962 -5.820648193359375 -1.170516014099121 110
-1.7081917524337769 -5.822693824768066 -0.9550331830978394 110
-1.7105721235275269 -5.827042579650879 -0.7409664392471313 110
-1.6953798532485962 -5.7715630531311035 -0.5229352712631226 110
-1.716011643409729 -5.83803129196167 -0.3158397078514099 110
-1.7021738290786743 -5.787220001220703 -0.10358184576034546 110
-1.4371963739395142 -4.883174896240234 1.3527418375015259 114
-1.5055721998214722 -5.112202167510986 1.2205607891082764 114
-1.580030083656311 -5.361572265625 1.07805597782135 114
-1.6604933738708496 -5.630986213684082 0.9227274656295776 114
-1.662526249885559 -5.6342549324035645 0.7165916562080383 110
-1.7104895114898682 -5.793076038360596 0.5251133441925049 110
-1.712827444076538 -5.797268867492676 0.31480076909065247 110
-1.6960736513137817 -5.736878871917725 0.10375455021858215 110
-0.546465277671814 -1.8424742221832275 -0.504697322845459 119
-0.6221641898155212 -2.096360206604004 -0.49601736664772034 119
-1.700246810913086 -5.72525691986084 -1.1524055004119873 110
-1.7045921087265015 -5.736220359802246 -0.9417362809181213 110
-1.7082704305648804 -5.7449259757995605 -0.7312169075012207 110
-1.6913673877716064 -5.684449672698975 -0.5155270099639893 110
-1.7107328176498413 -5.745865345001221 -0.3111451268196106 110
-1.6980987787246704 -5.699793338775635 -0.10211320966482162 110
-1.454233169555664 -4.878128528594971 1.3527418375015259 114
-1.5248007774353027 -5.111584186553955 1.2216846942901611 114
-1.6001399755477905 -5.360727787017822 1.0790091753005981 114
-1.6787257194519043 -5.620423793792725 0.9219462275505066 114
-1.68360435962677 -5.633172035217285 0.7172010540962219 110
-1.7050114870071411 -5.701171398162842 0.5172693133354187 110
-1.7087178230285645 -5.709933757781982 0.3103522062301636 110
-1.6902755498886108 -5.644719123840332 0.10218383371829987 110
-0.5521447658538818 -1.8357373476028442 -0.5034032464027405 119
-0.6316131949424744 -2.098621129989624 -0.49714213609695435 119
-1.6981561183929443 -5.638790130615234 -1.13620126247406 110
-1.7023817300796509 -5.64924955368042 -0.9284393191337585 110
-1.707392930984497 -5.662302017211914 -0.7214673161506653 110
-1.6887215375900269 -5.596846580505371 -0.508118748664856 110
-1.7082483768463135 -5.657992839813232 -0.3067113757133484 110
-1.696839451789856 -5.616661071777344 -0.10073097050189972 110
-1.4743504524230957 -4.877131462097168 1.3540350198745728 114
-1.5444164276123047 -5.105691909790039 1.2216846942901611 114
-1.6221338510513306 -5.3592424392700195 1.0799623727798462 114
-1.6845473051071167 -5.561944007873535 0.9133517742156982 114
-1.7066612243652344 -5.631415367126465 0.7178103923797607 110
-1.703762173652649 -5.618317127227783 0.5102968811988831 110
-1.7059823274612427 -5.622104644775391 0.3059036433696747 110
-1.687245488166809 -5.55686616897583 0.10070037841796875 110
-0.5585493445396423 -1.833798885345459 -0.5034032464027405 119
-0.638934850692749 -2.0964035987854004 -0.49714213609695435 119
-1.6934888362884521 -5.55301570892334 -1.1199970245361328 110
-1.697587251663208 -5.56297492980957 -0.9151423573493958 110
-1.7025096416473389 -5.575618743896484 -0.7111084461212158 110
-1.6820496320724487 -5.505173683166504 -0.5002747178077698 110
-1.7031704187393188 -5.570820331573486 -0.30227765440940857 110
-1.6915727853775024 -5.5294342041015625 -0.09926233440637589 110
-1.4913657903671265 -4.871955394744873 1.3540350198745728 114
-1.563656210899353 -5.104928493499756 1.222808599472046 114
-1.6408312320709229 -5.353547096252441 1.0799623727798462 114
-1.6851274967193604 -5.494650363922119 0.9031947255134583 110
-1.703013300895691 -5.549514293670654 0.7080608606338501 110
-1.6999695301055908 -5.536150932312012 0.5033244490623474 110
-1.700665831565857 -5.534975528717041 0.3014550805091858 110
-1.681663155555725 -5.4697065353393555 0.09921692311763763 110
-0.5649470686912537 -1.8318380117416382 -0.5034032464027405 119
-0.6476852893829346 -2.098815441131592 -0.49826687574386597 119
-1.6896917819976807 -5.472033500671387 -1.1047461032867432 110
-1.6922117471694946 -5.476803302764893 -0.901845395565033 110
-1.6985079050064087 -5.493780612945557 -0.7013588547706604 110
-1.6777026653289795 -5.423132419586182 -0.49330225586891174 110
-1.6989812850952148 -5.488523006439209 -0.2981046736240387 110
-1.6871974468231201 -5.447089195251465 -0.09788009524345398 110
-1.5097930431365967 -4.871333599090576 1.3553283214569092 114
-1.582909107208252 -5.104092121124268 1.2239323854446411 114
-1.6609632968902588 -5.352475166320801 1.0809155702590942 114
-1.6808652877807617 -5.413271427154541 0.8906937837600708 110
-1.6988146305084229 -5.467708110809326 0.6983113288879395 110
-1.6971030235290527 -5.458836555480957 0.4967877268791199 110
-1.6962454319000244 -5.452721118927002 0.29726821184158325 110
-1.6769664287567139 -5.387431621551514 0.09782073646783829 110
-0.5713379383087158 -1.8298547267913818 -0.5034032464027405 119
-0.6564604640007019 -2.1011922359466553 -0.4993916451931 119
-1.6853501796722412 -5.391146183013916 -1.0894949436187744 110
-1.6877295970916748 -5.395451068878174 -0.8893306851387024 110
-1.6939557790756226 -5.4120402336120605 -0.691609263420105 110
-1.6742924451828003 -5.345944404602051 -0.486765593290329 110
-1.6942389011383057 -5.406323432922363 -0.2939317524433136 110
-1.6822680234909058 -5.364842891693115 -0.09649785608053207 110
-1.5282338857650757 -4.870642185211182 1.3566216230392456 114
-1.6021755933761597 -5.103184223175049 1.2250564098358154 114
-1.6781656742095947 -5.341961860656738 1.0799623727798462 114
-1.6775367259979248 -5.3367018699646 0.8789741396903992 110
-1.6910876035690308 -5.37653112411499 0.6873430609703064 110
-1.6922224760055542 -5.376859664916992 0.48981526494026184 110
-1.6927717924118042 -5.37532901763916 0.29334303736686707 110
-1.673224925994873 -5.310023307800293 0.09651179611682892 110
-0.576266348361969 -1.8232442140579224 -0.502109169960022 119
-0.6637910008430481 -2.0988879203796387 -0.4993916451931 119
-1.680464744567871 -5.310357570648193 -1.0742439031600952 110
-1.6827008724212646 -5.3141984939575195 -0.876815915107727 110
-1.6888543367385864 -5.330399036407471 -0.6818597316741943 110
-1.6703639030456543 -5.268845558166504 -0.48022887110710144 110
-1.690453290939331 -5.32898473739624 -0.29001960158348083 110
-1.6767853498458862 -5.282698631286621 -0.09511560946702957 110
-1.5452262163162231 -4.8652777671813965 1.3566216230392456 114
-1.6229305267333984 -5.106846809387207 1.227304220199585 114
-1.680440902709961 -5.284617900848389 1.0694772005081177 114
-1.6736942529678345 -5.260222434997559 0.8672544360160828 110
-1.6857564449310303 -5.294933795928955 0.6775935292243958 110
-1.6883026361465454 -5.2997307777404785 0.4832786023616791 110
-1.688778281211853 -5.2980265617370605 0.2894178330898285 110
-1.6689635515213013 -5.232707977294922 0.09520287066698074 110
-0.5826271176338196 -1.8212215900421143 -0.502109169960022 119
-0.6696281433105469 -2.0919179916381836 -0.49826687574386597 119
-1.6765334606170654 -5.234343528747559 -1.0599461793899536 110
-1.6771254539489746 -5.233047008514404 -0.8643011450767517 110
-1.6832034587860107 -5.248859882354736 -0.6721101999282837 110
-1.6659181118011475 -5.1918416023254395 -0.4736922085285187 110
-1.6846224069595337 -5.24698543548584 -0.28584668040275574 110
-1.672278881072998 -5.205417633056641 -0.0938197523355484 110
-1.5636779069900513 -4.864452362060547 1.357914924621582 114
-1.6422386169433594 -5.105788707733154 1.2284280061721802 114
-1.6748182773590088 -5.203963756561279 1.054226279258728 110
-1.667824625968933 -5.179133892059326 0.8547534942626953 110
-1.679876446723938 -5.21343994140625 0.6678439974784851 110
-1.685393214225769 -5.22743558883667 0.4771776795387268 110
-1.684266448020935 -5.22081995010376 0.2854926288127899 110
-1.6657187938690186 -5.160244464874268 0.09398119896650314 110
-0.5886633396148682 -1.8192795515060425 -0.502109169960022 119
-0.676196813583374 -2.08980393409729 -0.49826687574386597 119
-1.6702913045883179 -5.159005165100098 -1.045648217201233 110
-1.6707277297973633 -5.157281398773193 -0.852568507194519 110
-1.6752007007598877 -5.1680121421813965 -0.6623606085777283 110
-1.6607062816619873 -5.1202497482299805 -0.467591255903244 110
-1.6779779195785522 -5.170426368713379 -0.281934529542923 110
-1.6654635667800903 -5.1288161277771 -0.09252390265464783 110
-1.5789523124694824 -4.859516143798828 1.357914924621582 114
-1.6567645072937012 -5.09597110748291 1.227304220199585 114
-1.6744564771652222 -5.14733362197876 1.043741226196289 110
-1.6626874208450317 -5.108124256134033 0.8438152074813843 110
-1.6731938123703003 -5.137355327606201 0.6587037444114685 110
-1.6786575317382812 -5.151077747344971 0.47064101696014404 110
-1.6774406433105469 -5.144295692443848 0.28156745433807373 110
-1.6602129936218262 -5.088449478149414 0.09275953471660614 110
-0.5946930050849915 -1.8173174858093262 -0.502109169960022 119
-0.6804554462432861 -2.0781710147857666 -0.49601736664772034 119
-1.6668953895568848 -5.0878424644470215 -1.0323036909103394 110
-1.6656445264816284 -5.081027030944824 -0.8408359289169312 110
-1.671575665473938 -5.0961151123046875 -0.6538297533988953 110
-1.656823754310608 -5.048165798187256 -0.4614903926849365 110
-1.6726475954055786 -5.09337854385376 -0.2780224084854126 110
-1.6615077257156372 -5.056479454040527 -0.09131443500518799 110
-1.5974140167236328 -4.858563423156738 1.359208106994629 114
-1.6699750423431396 -5.076272487640381 1.2239323854446411 114
-1.6678593158721924 -5.066861629486084 1.0284901857376099 110
-1.6588786840438843 -5.036619186401367 0.8328768014907837 110
-1.6693696975708008 -5.065496444702148 0.6501729488372803 110
-1.6732298135757446 -5.074229717254639 0.4641043245792389 110
-1.6734843254089355 -5.072024822235107 0.2779039144515991 110
-1.656023383140564 -5.016161918640137 0.09153786301612854 110
-0.5998309254646301 -1.8105409145355225 -0.5008150935173035 119
-0.6896007657051086 -2.080287456512451 -0.49714213609695435 119
-1.6638988256454468 -5.016477108001709 -1.0189589262008667 110
-1.6624785661697388 -5.0092692375183105 -0.8298854827880859 110
-1.6683465242385864 -5.024016857147217 -0.6452988982200623 110
-1.6548973321914673 -4.980609893798828 -0.45582523941993713 110
-1.669250726699829 -5.020878791809082 -0.27437105774879456 110
-1.659515380859375 -4.988687992095947 -0.09019136428833008 110
-1.615211009979248 -4.852675914764404 1.359208106994629 114
-1.6670167446136475 -5.005403995513916 1.208197832107544 0
-1.6646946668624878 -4.995522975921631 1.0151455402374268 110
-1.6570199728012085 -4.969600200653076 0.8227197527885437 110
-1.6659362316131592 -4.993436336517334 0.6416420340538025 110
-1.6697361469268799 -5.001918315887451 0.4580034613609314 110
-1.6699169874191284 -4.99955415725708 0.2742404043674469 110
-1.6537972688674927 -4.948419570922852 0.09040345996618271 110
-0.606147289276123 -1.8084360361099243 -0.5008150935173035 119
-0.6984071135520935 -2.082486629486084 -0.49826687574386597 119
-1.659538745880127 -4.945492267608643 -1.0056143999099731 110
-1.6595195531845093 -4.942574977874756 -0.8197172284126282 110
-1.6653276681900024 -4.957005977630615 -0.6373773813247681 110
-1.6500537395477295 -4.908703327178955 -0.44972431659698486 110
-1.6660730838775635 -4.95349645614624 -0.2709805369377136 110
-1.6561896800994873 -4.921268939971924 -0.08906829357147217 110
-1.6352226734161377 -4.8561625480651855 1.3617945909500122 114
-1.664255976676941 -4.939533233642578 1.193587064743042 110
-1.660170555114746 -4.924566268920898 1.0018008947372437 110
-1.652258276939392 -4.898272514343262 0.8117814064025879 110
-1.6611380577087402 -4.921760559082031 0.6331111788749695 110
-1.6648743152618408 -4.929990768432617 0.4519025385379791 110
-1.6649808883666992 -4.927469253540039 0.2705768942832947 110
-1.6486438512802124 -4.87631368637085 0.08918178826570511 110
-0.609354555606842 -1.79716157913208 -0.4982268810272217 119
-0.7056721448898315 -2.080035924911499 -0.49826687574386597 119
-1.6562812328338623 -4.879248142242432 -0.9932229518890381 110
-1.656115174293518 -4.875962257385254 -0.8095489740371704 110
-1.6602648496627808 -4.885379791259766 -0.6288465261459351 110
-1.6463321447372437 -4.84160852432251 -0.44405919313430786 110
-1.662446141242981 -4.886199474334717 -0.2675900459289551 110
-1.6524139642715454 -4.8539347648620605 -0.08794521540403366 110
-1.6521639823913574 -4.8504252433776855 1.3617945909500122 114
-1.6626276969909668 -4.878355026245117 1.1801002025604248 110
-1.655171275138855 -4.853702545166016 0.9884562492370605 110
-1.6486142873764038 -4.831713676452637 0.8016244173049927 110
-1.6542569398880005 -4.845484256744385 0.6239709854125977 110
-1.6595312356948853 -4.85815954208374 0.44580161571502686 110
-1.6611772775650024 -4.860205173492432 0.2671750485897064 110
-1.6446256637573242 -4.8090362548828125 0.08804738521575928 110
-0.6250248551368713 -1.8224340677261353 -0.5059914588928223 119
-0.719253659248352 -2.09599232673645 -0.5027658939361572 119
-1.652581810951233 -4.813086986541748 -0.9808314442634583 110
-1.652266263961792 -4.80943489074707 -0.7993807196617126 110
-1.6547222137451172 -4.813849449157715 -0.6203156113624573 110
-1.6421623229980469 -4.774600028991699 -0.43839403986930847 110
-1.658369541168213 -4.8189873695373535 -0.26419952511787415 110
-1.6498161554336548 -4.791414737701416 -0.08690853416919708 110
-1.6533524990081787 -4.798964023590088 1.3488620519638062 114
-1.659004807472229 -4.812642574310303 1.1654894351959229 110
-1.6512984037399292 -4.787574291229248 0.9760648012161255 110
-1.6445256471633911 -4.76524019241333 0.7914673686027527 110
-1.6501033306121826 -4.778697967529297 0.6160494685173035 110
-1.6537072658538818 -4.786426544189453 0.439700722694397 110
-1.6569244861602783 -4.793027877807617 0.26377320289611816 110
-1.6401578187942505 -4.741846561431885 0.08691298216581345 110
-0.634867250919342 -1.829256296157837 -0.5085796117782593 119
-0.715743899345398 -2.061126470565796 -0.4948926270008087 119
-1.6508800983428955 -4.7513604164123535 -0.9693931937217712 110
-1.6488014459609985 -4.7427077293396 -0.7892125248908997 110
-1.6511590480804443 -4.746818542480469 -0.6123941540718079 110
-1.6383665800094604 -4.707394123077393 -0.43272891640663147 110
-1.6546735763549805 -4.7515764236450195 -0.2608090043067932 110
-1.6459826231002808 -4.723963737487793 -0.08578546345233917 110
-1.6502609252929688 -4.733583450317383 1.33204984664917 110
-1.6573768854141235 -4.751327037811279 1.1520025730133057 110
-1.649425745010376 -4.7258806228637695 0.9646265506744385 110
-1.6424416303634644 -4.703231334686279 0.7820916771888733 110
-1.6463264226913452 -4.711712837219238 0.6081279516220093 110
-1.649869441986084 -4.719208240509033 0.43403559923171997 110
-1.6546968221664429 -4.730365753173828 0.26063305139541626 110
-1.6377085447311401 -4.679180145263672 0.08586584031581879 110
-0.638049840927124 -1.8179149627685547 -0.5059914588928223 119
-0.73261958360672 -2.086195468902588 -0.5016411542892456 119
-1.6479301452636719 -4.690000057220459 -0.9579549431800842 110
-1.6456913948059082 -4.681015968322754 -0.7798264026641846 110
-1.6479568481445312 -4.684846878051758 -0.6050819158554077 110
-1.6349446773529053 -4.645265102386475 -0.42749956250190735 110
-1.6513471603393555 -4.689255237579346 -0.2576793134212494 110
-1.6425256729125977 -4.6616082191467285 -0.0847487822175026 110
-1.6571388244628906 -4.700463771820068 1.3242902755737305 110
-1.654503583908081 -4.690377712249756 1.1385157108306885 110
-1.6463090181350708 -4.664552211761475 0.9531883001327515 110
-1.639115333557129 -4.64158821105957 0.7727158665657043 110
-1.6445767879486084 -4.654466152191162 0.6014251708984375 110
-1.644749641418457 -4.652370452880859 0.42837047576904297 110
-1.6495524644851685 -4.663365840911865 0.257231205701828 110
-1.632354736328125 -4.612165927886963 0.08473142981529236 110
nan nan nan 0
-0.7424272298812866 -2.093066692352295 -0.5038906931877136 119
-1.642956018447876 -4.629292011260986 -0.9465165734291077 110
-1.6405584812164307 -4.619977951049805 -0.7704403400421143 110
-1.6427288055419922 -4.623530864715576 -0.5977697968482971 110
-1.6278406381607056 -4.579093933105469 -0.42183440923690796 110
-1.644317388534546 -4.6228861808776855 -0.25428879261016846 110
-1.6353719234466553 -4.595196723937988 -0.08362570405006409 110
-1.6492151021957397 -4.631534576416016 1.3061846494674683 110
-1.651244044303894 -4.63467264175415 1.126152753829956 110
-1.641177773475647 -4.603877067565918 0.9417500495910645 110
-1.6337800025939941 -4.580596923828125 0.763340175151825 110
-1.6408427953720093 -4.597862720489502 0.5947223901748657 110
-1.640932559967041 -4.595580101013184 0.42357689142227173 110
-1.6440359354019165 -4.6017351150512695 0.2540910542011261 110
-1.6266369819641113 -4.550527572631836 0.0836842879652977 110
nan nan nan 0
nan nan nan 0
-1.639211654663086 -4.568089962005615 -0.9350783228874207 110
-1.6366498470306396 -4.558448314666748 -0.761054277420044 110
-1.6420799493789673 -4.57106351852417 -0.5916763544082642 110
-1.6252820491790771 -4.521822929382324 -0.4170408546924591 110
-1.640167236328125 -4.56073522567749 -0.25115907192230225 110
-1.6310909986495972 -4.533012390136719 -0.08258902281522751 110
-1.649011492729187 -4.580306529998779 1.2932522296905518 110
-1.6475982666015625 -4.573875904083252 1.1126658916473389 110
-1.6372675895690918 -4.542709827423096 0.9303117990493774 110
-1.6296555995941162 -4.51911735534668 0.7539644837379456 110
-1.6366703510284424 -4.536088466644287 0.5874102115631104 110
-1.638359546661377 -4.538289546966553 0.4187833368778229 110
-1.6397337913513184 -4.539614677429199 0.2509509027004242 110
-1.6238203048706055 -4.493103504180908 0.08272439986467361 110
nan nan nan 0
nan nan nan 0
-1.6375218629837036 -4.511300563812256 -0.9245932698249817 110
-1.6331167221069336 -4.4967169761657715 -0.7516682147979736 110
-1.6401785612106323 -4.513706207275391 -0.5849734544754028 110
-1.623123049736023 -4.4643425941467285 -0.41224730014801025 110
-1.6380956172943115 -4.503076553344727 -0.24829016625881195 110
-1.6288859844207764 -4.475327968597412 -0.08163873851299286 110
-1.6459558010101318 -4.519772529602051 1.2777332067489624 110
-1.6443361043930054 -4.512874603271484 1.0991790294647217 110
-1.6337323188781738 -4.481341361999512 0.9188734889030457 110
-1.6275924444198608 -4.462079048156738 0.745370090007782 110
-1.6311665773391724 -4.469454288482666 0.5794887542724609 110
-1.634480357170105 -4.476108551025391 0.41355398297309875 110
-1.6357991695404053 -4.477294445037842 0.2478107362985611 110
-1.6213970184326172 -4.435473442077637 0.08176451921463013 110
nan nan nan 0
nan nan nan 0
-1.6329694986343384 -4.450262069702148 -0.9131550192832947 110
-1.630081295967102 -4.439994812011719 -0.7430643439292908 110
-1.6371015310287476 -4.456711769104004 -0.578270673751831 110
-1.6197954416275024 -4.407222270965576 -0.407453715801239 110
-1.6331244707107544 -4.441094875335693 -0.24516046047210693 110
-1.6237832307815552 -4.413313865661621 -0.08060205727815628 110
-1.6433688402175903 -4.464141845703125 1.26350736618042 110
-1.6398720741271973 -4.452246189117432 1.0856921672821045 110
-1.6306955814361572 -4.42495059967041 0.9083884358406067 110
-1.6226558685302734 -4.4007673263549805 0.7359943389892578 110
-1.626145601272583 -4.40786075592041 0.5721765160560608 110
-1.63112211227417 -4.418975353240967 0.4087604582309723 110
-1.6323895454406738 -4.420033931732178 0.24493226408958435 110
-1.6178092956542969 -4.378203868865967 0.08080463856458664 110
nan nan nan 0
nan nan nan 0
-1.6297181844711304 -4.393913269042969 -0.9026699066162109 110
-1.6266698837280273 -4.38334846496582 -0.7344603538513184 110
-1.635373830795288 -4.404445648193359 -0.5721771717071533 110
-1.616089105606079 -4.350180149078369 -0.40266016125679016 110
-1.6294804811477661 -4.383883476257324 -0.24229156970977783 110
-1.6200100183486938 -4.356076240539551 -0.07965176552534103 110
-1.6404138803482056 -4.408585071563721 1.249281644821167 110
-1.6367050409317017 -4.396270275115967 1.073329210281372 110
-1.627285361289978 -4.368636131286621 0.8979033827781677 110
-1.6190359592437744 -4.34417200088501 0.7273998856544495 110
-1.618981122970581 -4.341708660125732 0.5642550587654114 110
-1.627384901046753 -4.36191987991333 0.40396684408187866 110
-1.6286003589630127 -4.362852573394775 0.2420537918806076 110
-1.6138417720794678 -4.321013927459717 0.07984475046396255 110
nan nan nan 0
nan nan nan 0
-1.6243705749511719 -4.333045959472656 -0.8912316560745239 110
-1.6228834390640259 -4.326780796051025 -0.7258564829826355 110
-1.6315580606460571 -4.347600936889648 -0.5654743909835815 110
-1.6120045185089111 -4.293218612670898 -0.3978665769100189 110
-1.6254571676254272 -4.326752185821533 -0.23942264914512634 110
-1.6176161766052246 -4.303598880767822 -0.07878786325454712 110
-1.6370912790298462 -4.353104114532471 1.235055923461914 110
-1.6331671476364136 -4.3403706550598145 1.0609662532806396 110
-1.6235017776489258 -4.312399864196777 0.887418270111084 110
-1.6150411367416382 -4.287656784057617 0.7188054919242859 110
-1.6183751821517944 -4.294236183166504 0.5587709546089172 110
-1.6232694387435913 -4.304945468902588 0.3991732895374298 110
-1.6261945962905884 -4.310423851013184 0.23943698406219482 110
-1.6112604141235352 -4.268583297729492 0.07897213846445084 110
nan nan nan 0
-0.7881860136985779 -2.0814781188964844 -0.5050153732299805 119
-1.6203573942184448 -4.27686071395874 -0.880746603012085 110
-1.6204720735549927 -4.274911403656006 -0.7180347442626953 110
-1.6273654699325562 -4.290837287902832 -0.558771550655365 110
-1.609309196472168 -4.24099588394165 -0.39350879192352295 110
-1.622827410697937 -4.274371147155762 -0.23681457340717316 110
-1.6131007671356201 -4.246518611907959 -0.07783757150173187 110
-1.6334013938903809 -4.29770040512085 1.2208300828933716 110
-1.6309913396835327 -4.289104461669922 1.049727201461792 110
-1.619346022605896 -4.256244659423828 0.876933217048645 110
-1.6141854524612427 -4.240453243255615 0.711773693561554 110
-1.6192243099212646 -4.251458644866943 0.5538961887359619 110
-1.6205500364303589 -4.2527079582214355 0.39481550455093384 110
-1.6234430074691772 -4.258066177368164 0.23682020604610443 110
