# .PCD v0.7 - Point Cloud Data file format
VERSION 0.7
FIELDS x y z intensity
SIZE 4 4 4 4
TYPE F F F F
COUNT 1 1 1 1
WIDTH 773
HEIGHT 1
VIEWPOINT 0 0 0 1 0 0 0
POINTS 773
DATA ascii
1.0746463537216187 -1.9267995357513428 -0.5005163550376892 119
1.2925355434417725 -2.3184173107147217 -0.508049726486206 119
1.6100664138793945 -2.88915753364563 -0.5177984833717346 119
1.7139896154403687 -3.0769035816192627 -0.42776188254356384 115
1.8263027667999268 -3.2798712253570557 -0.3250914216041565 116
1.8228785991668701 -3.275066375732422 -0.19378109276294708 116
1.9508850574493408 -3.506488561630249 -0.06868020445108414 109
1.9575895071029663 -3.519984722137451 1.0682263374328613 109
1.957337498664856 -3.5209782123565674 0.920478105545044 109
1.9568413496017456 -3.5215330123901367 0.7749421000480652 109
1.9585864543914795 -3.526122808456421 0.632080078125 109
1.9554108381271362 -3.5218536853790283 0.48991474509239197 109
1.957079291343689 -3.52630877494812 0.3494945168495178 109
1.953933596611023 -3.5220892429351807 0.20908214151859283 109
1.9532545804977417 -3.5223145484924316 0.06963510066270828 109
0.935213029384613 -1.6899501085281372 -0.5072855353355408 119
1.0679140090942383 -1.9305390119552612 -0.5005163550376892 119
1.2891849279403687 -2.33150577545166 -0.5099561214447021 119
1.5999715328216553 -2.8947601318359375 -0.5177984833717346 119
1.698439121246338 -3.0741801261901855 -0.4265431761741638 115
1.8244746923446655 -3.3036670684814453 -0.3268345594406128 116
1.809022307395935 -3.2770378589630127 -0.19352027773857117 116
1.9482942819595337 -3.530785083770752 -0.06902576982975006 109
1.9546213150024414 -3.543713331222534 1.0733994245529175 109
1.9544442892074585 -3.5448553562164307 0.924973726272583 109
1.956382393836975 -3.549835443496704 0.7797079682350159 109
1.955797791481018 -3.5502402782440186 0.6352053284645081 109
1.9526807069778442 -3.546046495437622 0.49235212802886963 109
1.9543659687042236 -3.5505733489990234 0.35123762488365173 109
1.951255202293396 -3.546386957168579 0.21012885868549347 109
1.950584053993225 -3.5466325283050537 0.06998414546251297 109
0.9269846081733704 -1.6889705657958984 -0.5059914588928223 119
1.0611686706542969 -1.9342550039291382 -0.5005163550376892 119
1.2786784172058105 -2.3316879272460938 -0.5090028643608093 119
1.5874834060668945 -2.8959968090057373 -0.5170162916183472 119
1.6853129863739014 -3.075737714767456 -0.425933837890625 115
1.8248952627182007 -3.3318586349487305 -0.3290134370326996 116
1.7927764654159546 -3.2745730876922607 -0.19299866259098053 116
1.9455575942993164 -3.5551064014434814 -0.06937132775783539 109
1.953829050064087 -3.5717008113861084 1.079865574836731 109
1.95374596118927 -3.5730299949645996 0.9305932521820068 109
1.9533956050872803 -3.573870897293091 0.7835208177566528 109
1.9552322626113892 -3.5787153244018555 0.6391118168830872 109
1.9521840810775757 -3.5746185779571533 0.4953988790512085 109
1.9538933038711548 -3.579233407974243 0.3534165322780609 109
1.9508229494094849 -3.575092315673828 0.21143725514411926 109
1.9477676153182983 -3.5709753036499023 0.07033319026231766 109
0.9210833311080933 -1.6921961307525635 -0.5059914588928223 119
1.0544103384017944 -1.937947392463684 -0.5005163550376892 119
1.2705316543579102 -2.336137056350708 -0.5090028643608093 119
1.5773648023605347 -2.9015204906463623 -0.5170162916183472 119
1.6698273420333862 -3.072880744934082 -0.424715131521225 115
1.8084988594055176 -3.3294546604156494 -0.32814186811447144 116
1.7789528369903564 -3.276423215866089 -0.19273784756660461 116
1.9379056692123413 -3.5706639289855957 -0.06954411417245865 0
1.9528652429580688 -3.5997262001037598 1.086331844329834 109
1.9505517482757568 -3.596959114074707 0.9350888729095459 109
1.9526035785675049 -3.602243423461914 0.7882866859436035 109
1.9544917345046997 -3.607229471206665 0.643018364906311 109
1.9515116214752197 -3.6032302379608154 0.4984455704689026 109
1.9508728981018066 -3.60355281829834 0.3551596403121948 109
1.9478371143341064 -3.5994455814361572 0.2124839723110199 109
1.94718337059021 -3.599738359451294 0.07076950371265411 109
0.9151708483695984 -1.6954009532928467 -0.5059914588928223 119
1.049952745437622 -1.9459038972854614 -0.5016411542892456 119
1.262369155883789 -2.340557813644409 -0.5090028643608093 119
1.5648834705352783 -2.9026618003845215 -0.5162341594696045 119
1.6543822288513184 -3.069953203201294 -0.42349642515182495 115
1.7897793054580688 -3.322591543197632 -0.3268345594406128 116
1.762770652770996 -3.273820400238037 -0.19221623241901398 116
1.923060655593872 -3.573004722595215 -0.06945771723985672 116
1.9517295360565186 -3.6277878284454346 1.092798113822937 109
1.9495218992233276 -3.6252009868621826 0.9407084584236145 109
1.9516372680664062 -3.6306533813476562 0.7930526733398438 109
1.9512385129928589 -3.6314313411712646 0.6461436152458191 109
1.9483150243759155 -3.6275088787078857 0.5008829832077026 109
1.950062870979309 -3.6322834491729736 0.357338547706604 109
1.947066068649292 -3.628221035003662 0.21379238367080688 109
1.9440587759017944 -3.6241352558135986 0.0711185485124588 109
0.9092472195625305 -1.6985851526260376 -0.5059914588928223 119
1.0431538820266724 -1.9495569467544556 -0.5016411542892456 119
1.2541913986206055 -2.344949960708618 -0.5090028643608093 119
1.5524134635925293 -2.9037516117095947 -0.515451967716217 119
1.6413171291351318 -3.0713326930999756 -0.4228871166706085 115
1.7711299657821655 -3.315638303756714 -0.3255271911621094 116
1.7466285228729248 -3.271144390106201 -0.19169461727142334 116
1.9058687686920166 -3.5708746910095215 -0.06928493827581406 116
1.9481480121612549 -3.6516239643096924 1.0979710817337036 109
1.9483184814453125 -3.6534786224365234 0.9463279843330383 109
1.9504964351654053 -3.6591007709503174 0.7978186011314392 109
1.9501622915267944 -3.660012722015381 0.650050163269043 109
1.9473052024841309 -3.6561882495880127 0.5039296746253967 109
1.94907546043396 -3.6610517501831055 0.3595174551010132 109
1.9484633207321167 -3.661442518234253 0.21536244451999664 109
1.9431352615356445 -3.6529674530029297 0.07155486196279526 109
0.9033125042915344 -1.7017486095428467 -0.5059914588928223 119
1.038625717163086 -1.9574897289276123 -0.5027658939361572 119
1.2459983825683594 -2.349313735961914 -0.5090028643608093 119
1.5399550199508667 -2.904789686203003 -0.5146698355674744 119
1.6259385347366333 -3.068272829055786 -0.4216684103012085 115
1.7525508403778076 -3.308595895767212 -0.32421988248825073 116
1.7328628301620483 -3.272808313369751 -0.19143380224704742 116
1.8887155055999756 -3.5686686038970947 -0.06911215931177139 116
1.9466824531555176 -3.67974853515625 1.1044374704360962 109
1.9469411373138428 -3.6817920207977295 0.9519475102424622 109
1.9491803646087646 -3.6875839233398438 0.8025845885276794 109
1.948910117149353 -3.6886305809020996 0.6539567708969116 109
1.9438014030456543 -3.6805169582366943 0.5063670873641968 109
1.9455857276916504 -3.685452699661255 0.3612605631351471 109
1.9473220109939575 -3.6903018951416016 0.21667084097862244 109
1.9420340061187744 -3.681837320327759 0.07199117541313171 109
0.8973668217658997 -1.7048914432525635 -0.5059914588928223 119
1.0317864418029785 -1.9611034393310547 -0.5027658939361572 119
1.2400747537612915 -2.3579931259155273 -0.5099561214447021 119
1.5321037769317627 -2.9145185947418213 -0.515451967716217 119
1.6129100322723389 -3.0695369243621826 -0.4210590422153473 115
1.736358642578125 -3.3058738708496094 -0.3233482837677002 116
1.7191071510314941 -3.274416208267212 -0.1911730021238327 116
1.8716007471084595 -3.5663862228393555 -0.06893938034772873 116
1.9450440406799316 -3.70790696144104 1.1109037399291992 109
1.9453895092010498 -3.710139513015747 0.9575669765472412 109
1.9454107284545898 -3.7117550373077393 0.8063973188400269 109
1.9451899528503418 -3.712909698486328 0.6570820212364197 109
1.9424536228179932 -3.709261417388916 0.5094138383865356 109
1.9442590475082397 -3.7142863273620605 0.3634394705295563 109
1.9460029602050781 -3.7191975116729736 0.21797925233840942 109
1.9384377002716064 -3.706313371658325 0.0723402202129364 109
0.8914101719856262 -1.7080135345458984 -0.5059914588928223 119
1.0249346494674683 -1.9646929502487183 -0.5027658939361572 119
1.2318363189697266 -2.36230731010437 -0.5099561214447021 119
1.521920919418335 -2.919848918914795 -0.515451967716217 119
1.5975993871688843 -3.066345691680908 -0.41984036564826965 115
1.7202069759368896 -3.3030788898468018 -0.32247674465179443 116
1.705361008644104 -3.275967836380005 -0.1909121870994568 116
1.8545252084732056 -3.564028263092041 -0.06876660138368607 116
1.9432324171066284 -3.736098051071167 1.1173698902130127 109
1.9436640739440918 -3.7385215759277344 0.963186502456665 109
1.9437593221664429 -3.740299940109253 0.8111633062362671 109
1.9436004161834717 -3.7415900230407715 0.6609885692596436 109
1.9409286975860596 -3.7380411624908447 0.5124605894088745 109
1.9427546262741089 -3.7431552410125732 0.3656183183193207 109
1.9445055723190308 -3.7481284141540527 0.21928764879703522 109
1.936995506286621 -3.7352473735809326 0.07277653366327286 109
0.8857412934303284 -1.7109601497650146 -0.5059914588928223 119
1.0184139013290405 -1.968080997467041 -0.5027658939361572 119
1.2262507677078247 -2.3707387447357178 -0.5109092593193054 119
1.5122299194335938 -2.924879550933838 -0.515451967716217 119
1.5851436853408813 -3.0672178268432617 -0.41923099756240845 115
1.7069580554962158 -3.30433988571167 -0.32204097509384155 116
1.6944881677627563 -3.2816050052642822 -0.1909121870994568 116
1.8381104469299316 -3.5612735748291016 -0.0685938149690628 116
1.9419045448303223 -3.7639827728271484 1.1238361597061157 109
1.9424211978912354 -3.766597270965576 0.9688060879707336 109
1.9425896406173706 -3.768538475036621 0.8159291744232178 109
1.9424922466278076 -3.7699649333953857 0.6648951172828674 109
1.9398837089538574 -3.76651668548584 0.5155073404312134 109
1.9417306184768677 -3.7717196941375732 0.36779722571372986 109
1.9434890747070312 -3.7767550945281982 0.22059603035449982 109
1.936031699180603 -3.7638778686523438 0.07321283966302872 109
0.8797635436058044 -1.7140415906906128 -0.5059914588928223 119
1.0115376710891724 -1.9716240167617798 -0.5027658939361572 119
1.2179679870605469 -2.375004768371582 -0.5109092593193054 119
1.5020109415054321 -2.930140495300293 -0.515451967716217 119
1.5699012279510498 -3.063899040222168 -0.4180122911930084 115
1.6908721923828125 -3.3014116287231445 -0.3211694061756134 116
1.680747628211975 -3.283055543899536 -0.19065138697624207 116
1.821113109588623 -3.5587668418884277 -0.06842103600502014 116
1.939751386642456 -3.792238235473633 1.1303024291992188 109
1.940351128578186 -3.795044183731079 0.9744256138801575 109
1.9405914545059204 -3.797149181365967 0.8206951022148132 109
1.9405540227890015 -3.7987120151519775 0.6688016057014465 109
1.9380087852478027 -3.7953646183013916 0.5185540318489075 109
1.9398752450942993 -3.8006575107574463 0.36997613310813904 109
1.94163978099823 -3.8057548999786377 0.2219044417142868 109
1.9342372417449951 -3.7928805351257324 0.07364914566278458 109
0.873775064945221 -1.71710205078125 -0.5059914588928223 119
1.0024406909942627 -1.970800757408142 -0.5016411542892456 119
1.2096701860427856 -2.379241943359375 -0.5109092593193054 119
1.4917737245559692 -2.935365676879883 -0.515451967716217 119
1.5569491386413574 -3.0649359226226807 -0.417402982711792 115
1.6770826578140259 -3.302852153778076 -0.32073360681533813 116
1.6692774295806885 -3.288902521133423 -0.19065138697624207 116
1.804155945777893 -3.556185483932495 -0.06824825704097748 116
1.9396089315414429 -3.824831962585449 1.1380620002746582 109
1.9381060600280762 -3.8235228061676025 0.9800451397895813 109
1.9384171962738037 -3.8257923126220703 0.8254610896110535 109
1.940670132637024 -3.831897497177124 0.673489511013031 109
1.9359558820724487 -3.824244976043701 0.5216007232666016 109
1.9378411769866943 -3.829627513885498 0.3721550405025482 109
1.939611554145813 -3.834787368774414 0.2232128381729126 109
1.9367753267288208 -3.8308396339416504 0.07425998896360397 116
0.8677759170532227 -1.7201416492462158 -0.5059914588928223 119
0.9955552220344543 -1.9742878675460815 -0.5016411542892456 119
1.1991485357284546 -2.3790667057037354 -0.5099561214447021 119
1.481518268585205 -2.9405550956726074 -0.515451967716217 119
1.5417766571044922 -3.0614869594573975 -0.41618427634239197 115
1.6610640287399292 -3.299787998199463 -0.3198620676994324 116
1.6532981395721436 -3.2857885360717773 -0.19012977182865143 116
1.7872391939163208 -3.5535292625427246 -0.06807547062635422 116
1.937092661857605 -3.8531551361083984 1.1445281505584717 109
1.935685396194458 -3.8520309925079346 0.9856646060943604 109
1.9360662698745728 -3.8544657230377197 0.8302270174026489 109
1.9383621215820312 -3.8607163429260254 0.6773960590362549 109
1.9337248802185059 -3.853156805038452 0.5246474742889404 109
1.9356285333633423 -3.8586297035217285 0.374333918094635 109
1.9374041557312012 -3.863852024078369 0.22452124953269958 109
1.9301114082336426 -3.850984811782837 0.07452177256345749 116
0.8617662191390991 -1.7231602668762207 -0.5059914588928223 119
0.9886575937271118 -1.9777508974075317 -0.5016411542892456 119
1.1908366680145264 -2.3832380771636963 -0.5099561214447021 119
1.4712448120117188 -2.9457085132598877 -0.515451967716217 119
1.5288640260696411 -3.0624101161956787 -0.41557490825653076 115
1.6473115682601929 -3.301109552383423 -0.3194262981414795 116
1.6373610496520996 -3.2826032638549805 -0.1896081417798996 116
1.7703627347946167 -3.550798177719116 -0.06790269166231155 116
1.9365569353103638 -3.8858301639556885 1.1522877216339111 109
1.935261845588684 -3.884929895401001 0.9924080967903137 109
1.9357266426086426 -3.8875627517700195 0.8359460830688477 109
1.9380767345428467 -3.8939857482910156 0.6820839047431946 109
1.931315541267395 -3.8820996284484863 0.5276942253112793 109
1.9332363605499268 -3.887662172317505 0.3765127956867218 109
1.9350173473358154 -3.8929476737976074 0.22582964599132538 109
1.907759666442871 -3.8397908210754395 0.0741727277636528 116
0.8557460308074951 -1.726157784461975 -0.5059914588928223 119
0.9817479848861694 -1.9811899662017822 -0.5016411542892456 119
1.180331826210022 -2.3829822540283203 -0.5090028643608093 119
1.4609534740447998 -2.9508261680603027 -0.515451967716217 119
1.5137624740600586 -3.0588324069976807 -0.4143562316894531 115
1.631361484527588 -3.297910451889038 -0.31855472922325134 116
1.623679518699646 -3.283822774887085 -0.18934732675552368 116
1.7557424306869507 -3.5524744987487793 -0.06781630218029022 116
1.9336771965026855 -3.914217710494995 1.1587539911270142 109
1.9324748516082764 -3.913503885269165 0.9980276226997375 109
1.9330066442489624 -3.9163026809692383 0.8407120704650879 109
1.935397744178772 -3.9228718280792236 0.6859904527664185 109
1.9287275075912476 -3.911072254180908 0.5307409763336182 109
1.9328678846359253 -3.9211931228637695 0.37912747263908386 109
1.932450771331787 -3.9220728874206543 0.22713802754878998 109
1.8899269104003906 -3.837456703186035 0.07399819791316986 116
0.8497154116630554 -1.729134440422058 -0.5059914588928223 119
0.9748263359069824 -1.984604835510254 -0.5016411542892456 119
1.1720064878463745 -2.387087821960449 -0.5090028643608093 119
1.4506442546844482 -2.9559080600738525 -0.515451967716217 119
1.5008904933929443 -3.0596425533294678 -0.4137468934059143 115
1.6154539585113525 -3.294640302658081 -0.3176831901073456 116
1.6078120470046997 -3.280503034591675 -0.18882571160793304 116
1.738932490348816 -3.549602508544922 -0.06764352321624756 116
1.9306226968765259 -3.9426324367523193 1.1652202606201172 109
1.931653380393982 -3.946481466293335 1.0047709941864014 109
1.9301098585128784 -3.945071220397949 0.8454779982566833 109
1.9347100257873535 -3.9562230110168457 0.6906783580780029 109
1.9281398057937622 -3.9445321559906006 0.5343970060348511 109
1.934475064277649 -3.9592435359954834 0.3821779191493988 109
1.9297044277191162 -3.951227903366089 0.22844643890857697 109
1.8721340894699097 -3.835045337677002 0.07382367551326752 116
0.8436744213104248 -1.732089877128601 -0.5059914588928223 119
0.9678927659988403 -1.9879956245422363 -0.5016411542892456 119
1.163666844367981 -2.3911643028259277 -0.5090028643608093 119
1.4403173923492432 -2.960953712463379 -0.515451967716217 119
1.488031029701233 -3.0603995323181152 -0.4131375253200531 115
1.6017664670944214 -3.295779228210449 -0.3172473907470703 116
1.5941693782806396 -3.281604290008545 -0.18856491148471832 116
1.7243478298187256 -3.5511538982391357 -0.06755713373422623 116
1.9273930788040161 -3.9710729122161865 1.1716865301132202 109
1.9284991025924683 -3.9751176834106445 1.0103905200958252 109
1.929176926612854 -3.978282928466797 0.8511971235275269 109
1.9316587448120117 -3.9851720333099365 0.694584846496582 109
1.9251782894134521 -3.97356915473938 0.5374437570571899 109
1.9336689710617065 -3.9928698539733887 0.38479259610176086 109
1.9289535284042358 -3.98490571975708 0.2300165295600891 109
1.8543809652328491 -3.8325564861297607 0.07364914566278458 116
0.8397228121757507 -1.7393736839294434 -0.5072855353355408 119
0.9609475135803223 -1.9913619756698608 -0.5016411542892456 119
1.153180718421936 -2.3907909393310547 -0.508049726486206 119
1.4299730062484741 -2.965963363647461 -0.515451967716217 119
1.4730302095413208 -3.056633949279785 -0.41191884875297546 115
1.5859289169311523 -3.292375087738037 -0.31637582182884216 116
1.5783723592758179 -3.278151035308838 -0.18804329633712769 116
1.7076054811477661 -3.548142194747925 -0.06738435477018356 116
1.9260822534561157 -4.003891468048096 1.1794461011886597 109
1.9272793531417847 -4.008170127868652 1.0171339511871338 109
1.925909399986267 -4.0071120262146 0.8559630513191223 109
1.9305675029754639 -4.018599987030029 0.6992727518081665 109
1.9241856336593628 -4.007107257843018 0.5410999059677124 109
1.9326515197753906 -4.026537895202637 0.38740724325180054 109
1.9258309602737427 -4.014123916625977 0.2313249260187149 109
1.8366683721542358 -3.829990863800049 0.07347463071346283 116
0.8336461186408997 -1.742294192314148 -0.5072855353355408 119
0.9539905190467834 -1.9947041273117065 -0.5016411542892456 119
1.1448283195495605 -2.394801616668701 -0.508049726486206 119
1.4196110963821411 -2.9709367752075195 -0.515451967716217 119
1.4602128267288208 -3.057278871536255 -0.41130951046943665 115
1.5722808837890625 -3.293396234512329 -0.3159400522708893 116
1.5647695064544678 -3.2791342735290527 -0.18778248131275177 116
1.693057656288147 -3.5495688915252686 -0.06729796528816223 116
1.9224871397018433 -4.032388687133789 1.1859123706817627 109
1.9258519411087036 -4.041262149810791 1.0238773822784424 109
1.9245749711990356 -4.040398120880127 0.8616822361946106 109
1.9292662143707275 -4.05206823348999 0.703960657119751 109
1.9208495616912842 -4.036205291748047 0.5441465377807617 109
1.9314223527908325 -4.060247421264648 0.390021950006485 109
1.9246718883514404 -4.047877788543701 0.23289498686790466 109
1.8189961910247803 -3.827348232269287 0.07330010086297989 116
0.8275593519210815 -1.7451934814453125 -0.5072855353355408 119
0.9470219016075134 -1.9980220794677734 -0.5016411542892456 119
1.1364619731903076 -2.3987832069396973 -0.508049726486206 119
1.4092319011688232 -2.9758739471435547 -0.515451967716217 119
1.447408676147461 -3.0578715801239014 -0.41070014238357544 115
1.556514859199524 -3.2898595333099365 -0.3150685131549835 116
1.5490443706512451 -3.2755484580993652 -0.18726086616516113 116
1.6763839721679688 -3.546417474746704 -0.06712518632411957 116
1.9207794666290283 -4.065276622772217 1.1936718225479126 109
1.9242171049118042 -4.074392795562744 1.030620813369751 109
1.923031210899353 -4.073723316192627 0.8674013018608093 109
1.927754521369934 -4.085576057434082 0.7086484432220459 109
1.9194506406784058 -4.069817543029785 0.5478026866912842 109
1.9299815893173218 -4.093997955322266 0.39263662695884705 109
1.9211721420288086 -4.077155590057373 0.23420339822769165 109
1.8013648986816406 -3.824629068374634 0.07312557846307755 116
0.8214624524116516 -1.7480716705322266 -0.5072855353355408 119
0.940041720867157 -2.0013155937194824 -0.5016411542892456 119
1.1280816793441772 -2.402735710144043 -0.508049726486206 119
1.39883553981781 -2.9807751178741455 -0.515451967716217 119
1.4325108528137207 -3.053919553756714 -0.4094814360141754 115
1.5429069995880127 -3.2907629013061523 -0.31463271379470825 116
1.5333633422851562 -3.271893262863159 -0.1867392510175705 116
1.661873698234558 -3.547720432281494 -0.06703878939151764 116
1.9188657999038696 -4.098201274871826 1.201431393623352 109
1.92237389087677 -4.107560157775879 1.0373642444610596 109
1.9233580827713013 -4.111531734466553 0.8740736842155457 109
1.926032543182373 -4.119122505187988 0.7133363485336304 109
1.9157389402389526 -4.098972320556641 0.550849437713623 109
1.928328275680542 -4.127786636352539 0.3952512741088867 109
1.9196040630340576 -4.110982894897461 0.2357734888792038 109
1.7837746143341064 -3.8218331336975098 0.0729510560631752 116
0.813316822052002 -1.7465503215789795 -0.5059914588928223 119
0.9330500960350037 -2.004584789276123 -0.5016411542892456 119
1.1217581033706665 -2.41110897064209 -0.5090028643608093 119
1.3884222507476807 -2.985639810562134 -0.515451967716217 119
1.4197502136230469 -3.05440092086792 -0.408872127532959 115
1.527213215827942 -3.2870941162109375 -0.3137611448764801 116
1.5198297500610352 -3.2726969718933105 -0.18647843599319458 116
1.6452699899673462 -3.5444304943084717 -0.06686601042747498 116
1.9167451858520508 -4.131161689758301 1.209190845489502 109
1.9203227758407593 -4.140765190124512 1.0441076755523682 109
1.9213796854019165 -4.14493989944458 0.8797927498817444 109
1.924099326133728 -4.152705669403076 0.7180241942405701 109
1.9139324426651 -4.132653713226318 0.554505467414856 109
1.9264624118804932 -4.161613464355469 0.39786598086357117 109
1.9178228378295898 -4.144847869873047 0.23734354972839355 109
1.7662261724472046 -3.8189616203308105 0.07277653366327286 116
0.8072152137756348 -1.7493786811828613 -0.5059914588928223 119
0.926047146320343 -2.0078296661376953 -0.5016411542892456 119
1.1153897047042847 -2.4194672107696533 -0.5099561214447021 119
1.3779919147491455 -2.9904680252075195 -0.515451967716217 115
1.4070035219192505 -3.054830551147461 -0.4082627594470978 115
1.5136468410491943 -3.2878806591033936 -0.3133253753185272 116
1.50422203540802 -3.2689101696014404 -0.18595680594444275 116
1.6307986974716187 -3.5456106662750244 -0.06677962094545364 116
1.9164355993270874 -4.168546199798584 1.2182435989379883 109
1.9180629253387451 -4.174005031585693 1.0508511066436768 109
1.9191917181015015 -4.1783833503723145 0.8855119347572327 109
1.9219553470611572 -4.186326503753662 0.7227120995521545 109
1.9098442792892456 -4.161861896514893 0.5575522184371948 109
1.9243837594985962 -4.195477485656738 0.40048062801361084 109
1.9012619256973267 -4.146977424621582 0.2370818704366684 0
1.7487192153930664 -3.816014051437378 0.07260200381278992 116
0.799095630645752 -1.7477933168411255 -0.504697322845459 119
0.919032871723175 -2.011049747467041 -0.5016411542892456 119
1.1089768409729004 -2.4278106689453125 -0.5109092593193054 119
1.3675448894500732 -2.995260000228882 -0.515451967716217 115
1.3942712545394897 -3.055208683013916 -0.40765342116355896 115
1.5000935792922974 -3.2886123657226562 -0.31288960576057434 116
1.490730881690979 -3.2695977687835693 -0.18569600582122803 116
1.614266037940979 -3.5421831607818604 -0.06660684198141098 116
1.9138858318328857 -4.201581954956055 1.2260030508041382 109
1.915594458580017 -4.207279205322266 1.0575945377349854 109
1.9167932271957397 -4.2118611335754395 0.8912310004234314 109
1.9195996522903442 -4.219981670379639 0.7273998856544495 109
1.907629370689392 -4.1956095695495605 0.5612083077430725 109
1.9220919609069824 -4.229377269744873 0.4030953049659729 109
1.8847098350524902 -4.149043560028076 0.23682020604610443 116
1.735388159751892 -3.8220949172973633 0.07260200381278992 116
0.7929898500442505 -1.7505720853805542 -0.504697322845459 119
0.9120073914527893 -2.0142455101013184 -0.5016411542892456 119
1.100495457649231 -2.431666851043701 -0.5109092593193054 119
1.3570810556411743 -3.0000152587890625 -0.515451967716217 115
1.3815534114837646 -3.055534839630127 -0.40704405307769775 115
1.4865539073944092 -3.289289951324463 -0.31245383620262146 116
1.4751977920532227 -3.2656807899475098 -0.1851743906736374 116
1.5998343229293823 -3.5432398319244385 -0.06652045249938965 116
1.9131155014038086 -4.239053249359131 1.235055923461914 109
1.9149203300476074 -4.245028495788574 1.0654618740081787 109
1.9162020683288574 -4.249848365783691 0.8979033827781677 109
1.9170324802398682 -4.253671646118164 0.7320877909660339 109
1.9052021503448486 -4.229391574859619 0.5648643374443054 109
1.9195868968963623 -4.263311386108398 0.40570998191833496 109
1.866117000579834 -4.146490097045898 0.23629683256149292 116
1.7220360040664673 -3.8281290531158447 0.07260200381278992 116
0.7891585826873779 -1.7575980424880981 -0.5059914588928223 119
0.905674934387207 -2.0171008110046387 -0.5016411542892456 119
1.0968700647354126 -2.444068193435669 -0.5128157138824463 119
1.3456283807754517 -2.999758243560791 -0.5146698355674744 115
1.3678866624832153 -3.0508034229278564 -0.4058253765106201 115
1.4741759300231934 -3.289398431777954 -0.3120180368423462 116
1.4628896713256836 -3.265742063522339 -0.18491357564926147 116
1.5866520404815674 -3.5436859130859375 -0.06643406301736832 116
1.9116262197494507 -4.271493434906006 1.242815375328064 109
1.9135111570358276 -4.277707576751709 1.0722053050994873 109
1.9148616790771484 -4.282731533050537 0.9036225080490112 109
1.9157496690750122 -4.2867255210876465 0.7367756366729736 109
1.9040501117706299 -4.262543201446533 0.5685204863548279 109
1.9183683395385742 -4.2966108322143555 0.408324658870697 109
1.8469765186309814 -4.13865327835083 0.23551179468631744 116
1.7100011110305786 -3.8335204124450684 0.07260200381278992 116
0.7833259105682373 -1.7602052688598633 -0.5059914588928223 119
0.8986284136772156 -2.020249843597412 -0.5016411542892456 119
1.086337924003601 -2.443397045135498 -0.5118624567985535 119
1.3351490497589111 -3.00443696975708 -0.5146698355674744 115
1.3552143573760986 -3.0510239601135254 -0.4052160084247589 115
1.4606634378433228 -3.289971351623535 -0.3115822374820709 116
1.4474304914474487 -3.2617006301879883 -0.18439196050167084 116
1.5722455978393555 -3.54463267326355 -0.06634767353534698 116
1.9104070663452148 -4.309047222137451 1.2518681287765503 109
1.9123846292495728 -4.315540790557861 1.0800726413726807 109
1.9118272066116333 -4.316316604614258 0.9093416333198547 109
1.9147692918777466 -4.324997425079346 0.7422448396682739 109
1.9032169580459595 -4.300931453704834 0.5727858543395996 109
1.9154473543167114 -4.330611705780029 0.4109393060207367 109
1.8284807205200195 -4.135941505432129 0.23498842120170593 116
1.6986299753189087 -3.844038724899292 0.07268927246332169 116
0.7788165807723999 -1.7674840688705444 -0.5072855353355408 119
0.8912177681922913 -2.0235300064086914 -0.5016411542892456 119
1.0773751735687256 -2.4473624229431152 -0.5118624567985535 119
1.324128270149231 -3.009310245513916 -0.5146698355674744 115
1.3420249223709106 -3.0514278411865234 -0.4046066701412201 115
1.4465909004211426 -3.290743112564087 -0.31114646792411804 116
1.4334574937820435 -3.2624125480651855 -0.18413116037845612 116
1.555222749710083 -3.5412168502807617 -0.06617489457130432 116
1.9081902503967285 -4.346978664398193 1.2609210014343262 109
1.9082996845245361 -4.349290370941162 1.0868160724639893 109
1.9097933769226074 -4.35476016998291 0.9160139560699463 109
1.9108004570007324 -4.359124660491943 0.7469326257705688 109
1.8993901014328003 -4.335151672363281 0.5764420032501221 109
1.9115508794784546 -4.3649797439575195 0.41355398297309875 109
1.8113075494766235 -4.138041973114014 0.23472677171230316 116
1.6805216073989868 -3.841078519821167 0.07251474261283875 116
0.7726420760154724 -1.7701919078826904 -0.5072855353355408 119
0.8822007179260254 -2.022162914276123 -0.5005163550376892 119
1.0688257217407227 -2.45110821723938 -0.5118624567985535 119
1.3136157989501953 -3.013914108276367 -0.5146698355674744 115
1.329383134841919 -3.051544189453125 -0.4039973020553589 115
1.433106541633606 -3.291205883026123 -0.31071069836616516 116
1.4200681447982788 -3.262817859649658 -0.1838703453540802 116
1.5408580303192139 -3.5420398712158203 -0.06608849763870239 116
1.9064861536026 -4.384617805480957 1.269973635673523 109
1.9066996574401855 -4.387202739715576 1.0946834087371826 109
1.906314492225647 -4.388411521911621 0.9217330813407898 109
1.9093410968780518 -4.3974785804748535 0.7524018883705139 109
1.898076057434082 -4.373622894287109 0.5807073712348938 109
1.9081954956054688 -4.399043083190918 0.4161686897277832 109
1.792879343032837 -4.135176658630371 0.23420339822769165 116
1.6651159524917603 -3.842334747314453 0.07242748886346817 116
0.76645827293396 -1.7728780508041382 -0.5072855353355408 119
0.87513667345047 -2.0252301692962646 -0.5005163550376892 119
1.0602632761001587 -2.4548239707946777 -0.5118624567985535 119
1.3011298179626465 -3.013946771621704 -0.5138876438140869 115
1.3167569637298584 -3.0516092777252197 -0.40338799357414246 115
1.4196369647979736 -3.291614532470703 -0.3102749288082123 116
1.4066935777664185 -3.263169765472412 -0.18360954523086548 116
1.5245280265808105 -3.5382144451141357 -0.06591571867465973 116
1.9045422077178955 -4.422297477722168 1.2790263891220093 109
1.9048583507537842 -4.425157070159912 1.102550745010376 109
1.9045636653900146 -4.426599979400635 0.9284054040908813 109
1.9076366424560547 -4.4358744621276855 0.7578710317611694 109
1.89651620388031 -4.412137031555176 0.5849727988243103 109
1.9085581302642822 -4.442288875579834 0.419654905796051 109
1.7764638662338257 -4.136821746826172 0.2339417040348053 116
1.6477497816085815 -3.838935375213623 0.07225295901298523 116
0.7602651119232178 -1.7755427360534668 -0.5072855353355408 119
0.8680620193481445 -2.0282723903656006 -0.5005163550376892 119
1.0516878366470337 -2.458510160446167 -0.5118624567985535 119
1.290601372718811 -3.018470287322998 -0.5138876438140869 115
1.3041465282440186 -3.051623582839966 -0.40277862548828125 115
1.4042249917984009 -3.287388563156128 -0.30940335988998413 116
1.3913731575012207 -3.258875846862793 -0.18308793008327484 116
1.5102059841156006 -3.53891658782959 -0.0658293291926384 116
1.9023586511611938 -4.460017204284668 1.2880792617797852 109
1.9027751684188843 -4.463151931762695 1.1104180812835693 109
1.90256929397583 -4.4648284912109375 0.9350776672363281 109
1.9056873321533203 -4.474311351776123 0.763340175151825 109
1.8927668333053589 -4.446127891540527 0.588628888130188 109
1.8813387155532837 -4.421424388885498 0.41704022884368896 109
1.7600585222244263 -4.138402462005615 0.23368002474308014 116
1.6304278373718262 -3.8354623317718506 0.07207843661308289 116
0.7521771788597107 -1.7737394571304321 -0.5059914588928223 119
0.8609766960144043 -2.031290292739868 -0.5005163550376892 119
1.0430996417999268 -2.4621663093566895 -0.5118624567985535 119
1.2800570726394653 -3.0229568481445312 -0.5138876438140869 115
1.289617896080017 -3.0470168590545654 -0.4015599191188812 115
1.3908008337020874 -3.2876830101013184 -0.30896756052970886 116
1.3780444860458374 -3.2591137886047363 -0.18282711505889893 116
1.493951439857483 -3.534956693649292 -0.06565655022859573 116
1.8999346494674683 -4.497774600982666 1.2971320152282715 109
1.9004493951797485 -4.501184940338135 1.1182854175567627 109
1.902239441871643 -4.507619857788086 0.9427031874656677 109
1.903493046760559 -4.512789249420166 0.7688093781471252 109
1.890730857849121 -4.484718322753906 0.5928943157196045 109
1.8658936023712158 -4.427964687347412 0.41704022884368896 109
1.743664026260376 -4.139919757843018 0.23341836035251617 116
1.615090012550354 -3.8365228176116943 0.07199117541313171 116
0.7459810972213745 -1.7763543128967285 -0.5059914588928223 119
0.8538809418678284 -2.034283399581909 -0.5005163550376892 119
1.034498691558838 -2.465792417526245 -0.5118624567985535 119
1.2675873041152954 -3.022852659225464 -0.5131054520606995 115
1.2770557403564453 -3.0469229221343994 -0.4009505808353424 115
1.3754669427871704 -3.283329486846924 -0.3080960214138031 116
1.3647310733795166 -3.25929856300354 -0.182566300034523 116
1.4777427911758423 -3.530926465988159 -0.06548377126455307 116
1.89726984500885 -4.535569190979004 1.3061846494674683 109
1.897881269454956 -4.5392560958862305 1.126152753829956 109
1.899741291999817 -4.545933723449707 0.949375569820404 109
1.9010528326034546 -4.551305294036865 0.7742785215377808 109
1.8884484767913818 -4.523348808288574 0.5971598029136658 109
1.8427528142929077 -4.41606330871582 0.41529712080955505 109
1.725358247756958 -4.136764049530029 0.23289498686790466 116
1.5997644662857056 -3.837522268295288 0.07190390676259995 116
0.7379214763641357 -1.7744879722595215 -0.504697322845459 119
0.847130298614502 -2.0371036529541016 -0.5005163550376892 119
1.0263161659240723 -2.4692094326019287 -0.5118624567985535 119
1.2575562000274658 -3.0270392894744873 -0.5131054520606995 115
1.2631384134292603 -3.0419745445251465 -0.39973190426826477 115
1.3626621961593628 -3.2832722663879395 -0.3076602518558502 116
1.3520022630691528 -3.2591938972473145 -0.1823054850101471 116
1.4641109704971313 -3.531189441680908 -0.06539738178253174 116
1.895162582397461 -4.5730695724487305 1.3152375221252441 109
1.8958693742752075 -4.577033042907715 1.1340200901031494 109
1.8996762037277222 -4.588489055633545 0.9570010900497437 109
1.9010562896728516 -4.594090461730957 0.7805290222167969 109
1.8867154121398926 -4.56168794631958 0.6014251708984375 109
1.8242928981781006 -4.4129438400268555 0.4144255816936493 116
1.709723949432373 -4.137848377227783 0.2326333075761795 116
1.585121750831604 -3.8381855487823486 0.07181664556264877 116
0.7320329546928406 -1.7769252061843872 -0.504697322845459 119
0.8400143384933472 -2.040048360824585 -0.5005163550376892 119
1.0195587873458862 -2.477315902709961 -0.5128157138824463 119
1.2451035976409912 -3.026843547821045 -0.512323260307312 115
1.2487380504608154 -3.0371854305267334 -0.39851319789886475 115
1.3474065065383911 -3.278794527053833 -0.30678868293762207 116
1.3387200832366943 -3.259274959564209 -0.18204468488693237 116
1.4479787349700928 -3.527029275894165 -0.06522459536790848 116
1.893856167793274 -4.615403652191162 1.325583577156067 109
1.8946709632873535 -4.61968469619751 1.1430113315582275 109
1.8966796398162842 -4.626882553100586 0.9636733531951904 109
1.8981149196624756 -4.632687568664551 0.7859981656074524 109
1.8877071142196655 -4.609578609466553 0.6069093346595764 109
1.8032170534133911 -4.405455112457275 0.4131182134151459 116
1.69148850440979 -4.134548187255859 0.23210996389389038 116
1.5698221921920776 -3.8390679359436035 0.0717293918132782 116
0.7258259057998657 -1.7794697284698486 -0.504697322845459 119
0.8332446217536926 -2.0428225994110107 -0.5005163550376892 119
1.015044093132019 -2.4897732734680176 -0.5147220492362976 119
1.2350592613220215 -3.0309557914733887 -0.512323260307312 115
1.2330435514450073 -3.0275208950042725 -0.3966851532459259 115
1.3346482515335083 -3.2786312103271484 -0.3063529133796692 116
1.3241411447525024 -3.254446029663086 -0.18152306973934174 116
1.4343914985656738 -3.5271806716918945 -0.06513821333646774 116
1.8912711143493652 -4.652978897094727 1.3346363306045532 109
1.8921772241592407 -4.657538414001465 1.150878667831421 109
1.8960987329483032 -4.669528007507324 0.97129887342453 109
1.8975995779037476 -4.675564765930176 0.7922486662864685 109
1.881738305091858 -4.6388068199157715 0.6099560856819153 109
1.7848550081253052 -4.402178764343262 0.4122466742992401 116
1.6758933067321777 -4.135507583618164 0.23184826970100403 116
1.5533292293548584 -3.8349857330322266 0.07155486196279526 116
0.7199209928512573 -1.7818669080734253 -0.504697322845459 119
0.8261088132858276 -2.0457186698913574 -0.5005163550376892 119
1.0100212097167969 -2.5024044513702393 -0.5166284441947937 119
1.2226243019104004 -3.0306687355041504 -0.5115411281585693 115
1.2187564373016357 -3.0226011276245117 -0.3954664468765259 115
1.3213337659835815 -3.2786502838134766 -0.3059171438217163 116
1.310907244682312 -3.2544169425964355 -0.18126225471496582 116
1.420203447341919 -3.5275285243988037 -0.06505181640386581 116
1.889441967010498 -4.69539737701416 1.3449822664260864 109
1.8904521465301514 -4.7002763748168945 1.159869909286499 109
1.8926029205322266 -4.7079973220825195 0.9779712557792664 109
1.895997166633606 -4.718820095062256 0.7984991073608398 109
1.8821792602539062 -4.686793804168701 0.6154401302337646 109
1.7676222324371338 -4.403759479522705 0.41181087493896484 116
1.657729148864746 -4.132063865661621 0.2313249260187149 116
1.5380724668502808 -3.8357439041137695 0.07146760076284409 116
0.7115924954414368 -1.7800089120864868 -0.5034032464027405 119
0.818605363368988 -2.0487329959869385 -0.5005163550376892 119
1.0044833421707153 -2.5152060985565186 -0.5185348391532898 119
1.21150803565979 -3.0351295471191406 -0.5115411281585693 115
1.2039918899536133 -3.017829179763794 -0.39424777030944824 115
1.3074631690979004 -3.2788443565368652 -0.30548134446144104 116
1.2971217632293701 -3.254561185836792 -0.1810014545917511 116
1.4054148197174072 -3.5280659198760986 -0.06496542692184448 116
1.8865126371383667 -4.738189220428467 1.3553283214569092 109
1.8876231908798218 -4.743387699127197 1.1688611507415771 109
1.889846920967102 -4.7513885498046875 0.9855967164039612 109
1.893284559249878 -4.762451648712158 0.8047496676445007 109
1.8649886846542358 -4.693661212921143 0.6154401302337646 116
1.7477928400039673 -4.400949954986572 0.4109393060207367 116
1.638888955116272 -4.1288299560546875 0.2308015525341034 116
1.520316243171692 -3.832061767578125 0.07129307836294174 116
0.7053747773170471 -1.7824819087982178 -0.5034032464027405 119
0.8114489316940308 -2.0515778064727783 -0.5005163550376892 119
0.9920886158943176 -2.5095677375793457 -0.5166284441947937 119
1.2009061574935913 -3.039340019226074 -0.5115411281585693 115
1.1898045539855957 -3.0127816200256348 -0.3930290639400482 115
1.2941811084747314 -3.2787551879882812 -0.30504557490348816 116
1.2820883989334106 -3.24977970123291 -0.18047983944416046 116
1.3912570476531982 -3.528299331665039 -0.06487903743982315 116
1.8841291666030884 -4.780693054199219 1.365674376487732 109
1.8853390216827393 -4.7862114906311035 1.1778523921966553 109
1.8858364820480347 -4.789926052093506 0.9922690391540527 109
1.8911161422729492 -4.8057966232299805 0.8110001683235168 109
1.8413276672363281 -4.681669235229492 0.6130027770996094 116
1.7305978536605835 -4.402388572692871 0.4105035662651062 116
1.6226404905319214 -4.129878044128418 0.23053987324237823 116
1.5051032304763794 -3.8326921463012695 0.07120581716299057 116
0.6988368630409241 -1.7850552797317505 -0.5034032464027405 119
0.8039240837097168 -2.0545382499694824 -0.5005163550376892 119
0.9757329821586609 -2.4949026107788086 -0.5128157138824463 119
1.1861624717712402 -3.034522294998169 -0.5099768042564392 115
1.1769483089447021 -3.012500047683716 -0.3924197256565094 115
1.278531551361084 -3.2741971015930176 -0.30417400598526 116
1.2683533430099487 -3.2498056888580322 -0.18021902441978455 116
1.3764991760253906 -3.528717517852783 -0.06479264795780182 116
1.8806301355361938 -4.823566436767578 1.3760203123092651 109
1.8819360733032227 -4.829406261444092 1.1868436336517334 109
1.8825186491012573 -4.833394527435303 0.9998944997787476 109
1.8878214359283447 -4.849512577056885 0.8172506093978882 109
1.8205571174621582 -4.679136753082275 0.6117841005325317 116
1.7126452922821045 -4.404059886932373 0.41006776690483093 116
1.6056842803955078 -4.131144046783447 0.23027820885181427 116
1.4874249696731567 -3.8288626670837402 0.07103128731250763 116
0.6926016211509705 -1.787483811378479 -0.5034032464027405 119
0.7967475056648254 -2.0573318004608154 -0.5005163550376892 119
0.972333550453186 -2.5120253562927246 -0.5156752467155457 119
1.1719990968704224 -3.029432535171509 -0.5084124207496643 115
1.1646356582641602 -3.011960983276367 -0.3918103873729706 115
1.2652992010116577 -3.273993968963623 -0.30373823642730713 116
1.2552025318145752 -3.2495553493499756 -0.17995820939540863 116
1.3623727560043335 -3.528837203979492 -0.06470625847578049 116
1.8776909112930298 -4.866149425506592 1.386366367340088 109
1.879091739654541 -4.872311592102051 1.195834755897522 109
1.8797584772109985 -4.876575469970703 1.0075199604034424 109
1.8850857019424438 -4.892940044403076 0.8235011100769043 109
1.8024293184280396 -4.6808319091796875 0.6111747026443481 116
1.6954727172851562 -4.405362606048584 0.40963196754455566 116
1.5876686573028564 -4.127403259277344 0.22975483536720276 116
1.4722505807876587 -3.8293681144714355 0.07094403356313705 116
0.6866703033447266 -1.7897707223892212 -0.5034032464027405 119
0.7920254468917847 -2.06437349319458 -0.5016411542892456 119
0.9714664220809937 -2.5333991050720215 -0.5194879770278931 119
1.157173991203308 -3.0192654132843018 -0.5060659050941467 115
1.1533923149108887 -3.0109708309173584 -0.39120104908943176 115
1.253226399421692 -3.273301362991333 -0.30330246686935425 116
1.243203043937683 -3.24881911277771 -0.1796974092721939 116
1.3477081060409546 -3.523761034011841 -0.06453347951173782 116
1.8761909008026123 -4.908116340637207 1.3967124223709106 109
1.8776863813400269 -4.914599895477295 1.2048259973526 109
1.8784369230270386 -4.919139862060547 1.0151455402374268 109
1.8837926387786865 -4.935749053955078 0.8297516107559204 109
1.7841777801513672 -4.677197456359863 0.6099560856819153 116
1.6780756711959839 -4.4013590812683105 0.4087604582309723 116
1.5729162693023682 -4.127704620361328 0.2294931560754776 116
1.456660509109497 -3.8246281147003174 0.07076950371265411 116
0.6790164113044739 -1.7875231504440308 -0.502109169960022 119
0.7848145961761475 -2.0671257972717285 -0.5016411542892456 119
0.9661000370979309 -2.5459530353546143 -0.5213943719863892 119
1.1413739919662476 -3.0094337463378906 -0.5037193894386292 115
1.1411160230636597 -3.010338068008423 -0.39059168100357056 115
1.2400280237197876 -3.2729976177215576 -0.302866667509079 116
1.2300868034362793 -3.248469352722168 -0.179436594247818 116
1.3336302042007446 -3.523768424987793 -0.06444709002971649 116
1.8727174997329712 -4.950775623321533 1.4070584774017334 109
1.8743034601211548 -4.957582473754883 1.2138173580169678 109
1.875133991241455 -4.962397575378418 1.0227710008621216 109
1.8805110454559326 -4.979255676269531 0.8360020518302917 109
1.76433527469635 -4.674111366271973 0.6087373495101929 116
1.660943627357483 -4.402529239654541 0.408324658870697 116
1.554974913597107 -4.123826503753662 0.22896979749202728 116
1.4415380954742432 -3.8250114917755127 0.07068223506212234 116
0.6724601984024048 -1.7899998426437378 -0.502109169960022 119
0.7772330045700073 -2.069988250732422 -0.5016411542892456 119
0.9705584645271301 -2.5862395763397217 -0.529019832611084 119
1.1251332759857178 -2.999725341796875 -0.5013728737831116 115
1.1300749778747559 -3.014500141143799 -0.39059168100357056 115
1.2262760400772095 -3.2728564739227295 -0.3024308979511261 116
1.216421127319336 -3.2482800483703613 -0.17917577922344208 116
1.318953514099121 -3.5239505767822266 -0.06436069309711456 116
1.8697893619537354 -4.998318672180176 1.4186975955963135 109
1.8697704076766968 -5.000927448272705 1.222808599472046 109
1.870678424835205 -5.006019592285156 1.0303964614868164 109
1.8777997493743896 -5.02775239944458 0.8430338501930237 109
1.7437208890914917 -4.671247482299805 0.6075186133384705 116
1.6430550813674927 -4.403920650482178 0.40788885951042175 116
1.5381053686141968 -4.124819278717041 0.22870811820030212 116
1.4240174293518066 -3.8209004402160645 0.0705077201128006 116
0.6662079095840454 -1.792336344718933 -0.502109169960022 119
0.7700026035308838 -2.0726888179779053 -0.5016411542892456 119
0.9495654702186584 -2.5574023723602295 -0.5223475694656372 119
1.1129372119903564 -2.999004364013672 -0.5005906820297241 115
1.1178195476531982 -3.0137734413146973 -0.38998231291770935 115
1.213112711906433 -3.272446632385254 -0.30199509859085083 116
1.2033404111862183 -3.24782395362854 -0.17891496419906616 116
1.3049085140228271 -3.5238449573516846 -0.06427431106567383 116
1.867418646812439 -5.045581340789795 1.4303369522094727 109
1.867514967918396 -5.048548221588135 1.2329236268997192 109
1.8685113191604614 -5.053952693939209 1.0389752388000488 109
1.873932123184204 -5.071336269378662 0.8492843508720398 109
1.7239658832550049 -4.667994976043701 0.6062999367713928 116
1.624222993850708 -4.4002838134765625 0.407017320394516 116
1.520241379737854 -4.120794296264648 0.228184774518013 116
1.4089417457580566 -3.8211569786071777 0.07042045146226883 116
0.6616142392158508 -1.79918372631073 -0.5034032464027405 119
0.7627629041671753 -2.075363874435425 -0.5016411542892456 119
0.9423251748085022 -2.5653085708618164 -0.5233007073402405 119
1.1007598638534546 -2.9982352256774902 -0.49980852007865906 115
1.1055831909179688 -3.01299786567688 -0.38937297463417053 115
1.1999675035476685 -3.2719850540161133 -0.30155932903289795 116
1.1902775764465332 -3.247316598892212 -0.17865416407585144 116
1.2908803224563599 -3.523684024810791 -0.0641879141330719 116
1.8647404909133911 -5.092887878417969 1.4419761896133423 109
1.8649498224258423 -5.096214294433594 1.2430387735366821 109
1.8643460273742676 -5.097321033477783 1.0466006994247437 109
1.8714786767959595 -5.119592189788818 0.8563161492347717 109
1.7042549848556519 -4.664661884307861 0.6050812602043152 116
1.6054362058639526 -4.396568775177002 0.40614575147628784 116
1.5024241209030151 -4.116694450378418 0.2276614010334015 116
1.3938816785812378 -3.8213553428649902 0.07033319026231766 116
0.6553299427032471 -1.8014822006225586 -0.5034032464027405 119
0.7538490891456604 -2.073435068130493 -0.5005163550376892 119
0.9316884279251099 -2.563969135284424 -0.5223475694656372 119
1.0886015892028809 -2.997417449951172 -0.4990263283252716 115
1.0916725397109985 -3.0075089931488037 -0.3881542980670929 115
1.1868400573730469 -3.2714712619781494 -0.30112355947494507 116
1.177233099937439 -3.2467575073242188 -0.17839334905147552 116
1.276869297027588 -3.5234687328338623 -0.06410152465105057 116
1.8617546558380127 -5.140236854553223 1.4536155462265015 109
1.8637325763702393 -5.148504257202148 1.2542779445648193 109
1.8615708351135254 -5.1453375816345215 1.055179476737976 109
1.8687108755111694 -5.167891979217529 0.8633479475975037 109
1.6862752437591553 -4.665915489196777 0.6044719219207764 116
1.588387370109558 -4.3974609375 0.40570998191833496 116
1.4863494634628296 -4.117217063903809 0.22739972174167633 116
1.3788377046585083 -3.821495532989502 0.07024593651294708 116
0.6490375995635986 -1.8037587404251099 -0.5034032464027405 119
0.7466068863868713 -2.0760538578033447 -0.5005163550376892 119
0.9227328300476074 -2.5672056674957275 -0.5223475694656372 119
1.0764625072479248 -2.996551513671875 -0.49824416637420654 115
1.0794906616210938 -3.0066304206848145 -0.3875449299812317 115
1.173730731010437 -3.2709054946899414 -0.3006877601146698 116
1.164206862449646 -3.2461469173431396 -0.1781325489282608 116
1.2628754377365112 -3.523198366165161 -0.06401513516902924 116
1.858460783958435 -5.187625885009766 1.465254783630371 109
1.8605308532714844 -5.196260929107666 1.2643930912017822 109
1.8584827184677124 -5.193396091461182 1.063758134841919 109
1.8623021841049194 -5.206934452056885 0.8688170909881592 0
1.6666367053985596 -4.662426471710205 0.603253185749054 116
1.5696762800216675 -4.3935980796813965 0.4048384428024292 116
1.4686106443405151 -4.11297607421875 0.226876363158226 116
1.36380934715271 -3.8215765953063965 0.07015866786241531 116
0.6427373886108398 -1.8060133457183838 -0.5034032464027405 119
0.7393555641174316 -2.0786473751068115 -0.5005163550376892 119
0.9154101014137268 -2.575035810470581 -0.5233007073402405 119
1.0659960508346558 -3.000290870666504 -0.49824416637420654 115
1.0673284530639648 -3.005704164505005 -0.38693559169769287 115
1.1623060703277588 -3.2749829292297363 -0.3006877601146698 116
