# .PCD v0.7 - Point Cloud Data file format
VERSION 0.7
FIELDS x y z intensity
SIZE 4 4 4 4
TYPE F F F F
COUNT 1 1 1 1
WIDTH 788
HEIGHT 1
VIEWPOINT 0 0 0 1 0 0 0
POINTS 788
DATA ascii
-1.9604727029800415 2.212796211242676 -0.3582962453365326 10
-1.9407787322998047 2.191337823867798 -0.25275203585624695 10
-1.9351649284362793 2.185767889022827 -0.1504867970943451 10
-1.9304745197296143 2.181236743927002 -0.04967436566948891 10
-1.9327592849731445 2.184586524963379 0.7707783579826355 10
-1.9328986406326294 2.1855125427246094 0.6642277836799622 10
-1.9239521026611328 2.176162004470825 0.5566619634628296 10
-1.9352810382843018 2.189746141433716 0.4562852084636688 10
-1.9278088808059692 2.182058811187744 0.352811723947525 10
-1.9410146474838257 2.1977791786193848 0.2531874477863312 10
-1.9353982210159302 2.1921911239624023 0.1512508988380432 10
-1.9274213314056396 2.1839234828948975 0.05017566680908203 10
-1.2672169208526611 1.4383870363235474 -0.5034032464027405 119
-1.4581350088119507 1.6556761264801025 -0.5005163550376892 119
-1.6988425254821777 1.9296722412109375 -0.4918454885482788 119
-1.946951150894165 2.212270975112915 -0.4606998860836029 10
-1.956014633178711 2.2233519554138184 -0.3589056134223938 10
-1.9396965503692627 2.2055797576904297 -0.2536236047744751 10
-1.934117078781128 2.20000958442688 -0.15100841224193573 10
-1.9294490814208984 2.195472478866577 -0.04984714463353157 10
-1.9314972162246704 2.1985766887664795 0.7733648419380188 10
-1.9316879510879517 2.1995677947998047 0.6664755940437317 10
-1.9228205680847168 2.190241813659668 0.5585682988166809 10
-1.934140682220459 2.2039120197296143 0.45784783363342285 10
-1.9267261028289795 2.1962361335754395 0.35403043031692505 10
-1.9398994445800781 2.212031126022339 0.25405898690223694 10
-1.9343174695968628 2.206442356109619 0.15177425742149353 10
-1.9296709299087524 2.2019174098968506 0.05043745040893555 10
-1.262188196182251 1.442801594734192 -0.5034032464027405 119
-1.4523468017578125 1.6607558727264404 -0.5005163550376892 119
-1.6920963525772095 1.9355905055999756 -0.4918454885482788 119
-1.9457162618637085 2.2264907360076904 -0.46226420998573303 10
-1.954771876335144 2.2376410961151123 -0.3601243197917938 10
-1.9385385513305664 2.2198405265808105 -0.25449514389038086 10
-1.9329930543899536 2.2142703533172607 -0.15153002738952637 10
-1.931634783744812 2.213494300842285 -0.050106313079595566 10
-1.9301611185073853 2.2125847339630127 0.7759513854980469 10
-1.9336045980453491 2.217313289642334 0.6698473691940308 10
-1.921614170074463 2.2043399810791016 0.560474693775177 10
-1.9329248666763306 2.2180964946746826 0.4594104588031769 10
-1.9255675077438354 2.210432291030884 0.3552491366863251 10
-1.9419795274734497 2.230058193206787 0.25536632537841797 10
-1.9331605434417725 2.2207133769989014 0.15229761600494385 10
-1.9318181276321411 2.219953775405884 0.05069923773407936 10
-1.2571442127227783 1.4471986293792725 -0.5034032464027405 119
-1.4465408325195312 1.6658153533935547 -0.5005163550376892 119
-1.685329556465149 1.9414852857589722 -0.4918454885482788 119
-1.94764244556427 2.2444589138031006 -0.464610755443573 10
-1.9534529447555542 2.251948595046997 -0.36134299635887146 10
-1.9373043775558472 2.2341203689575195 -0.255366712808609 10
-1.931793212890625 2.228550434112549 -0.152051642537117 10
-1.9304441213607788 2.2277796268463135 -0.05027909204363823 10
-1.9287505149841309 2.2266101837158203 0.7785378694534302 10
-1.9322314262390137 2.231415271759033 0.6720951795578003 10
-1.923545002937317 2.222167730331421 0.5633342862129211 10
-1.9348652362823486 2.2360339164733887 0.4617544114589691 10
-1.9243332147598267 2.224647283554077 0.3564678132534027 10
-1.9406992197036743 2.244358539581299 0.25623786449432373 10
-1.9351928234100342 2.2387802600860596 0.15308266878128052 10
-1.930594563484192 2.2342488765716553 0.050873763859272 10
-1.2520849704742432 1.4515780210494995 -0.5034032464027405 119
-1.4375358819961548 1.6671651601791382 -0.4993916451931 119
-1.6785422563552856 1.9473564624786377 -0.4918454885482788 119
-1.9462432861328125 2.258726119995117 -0.4661751091480255 10
-1.9520578384399414 2.2662739753723145 -0.3625617027282715 10
-1.9359941482543945 2.248418092727661 -0.25623828172683716 10
-1.933774471282959 2.2466330528259277 -0.15283407270908356 10
-1.9324381351470947 2.245873212814331 -0.05053826421499252 10
-1.9304150342941284 2.244314193725586 0.7824175953865051 44
-1.9307833909988403 2.245535135269165 0.6743429899215698 44
-1.9253746271133423 2.24003529548645 0.5661938786506653 10
-1.9367038011550903 2.254011392593384 0.46409836411476135 10
-1.9262566566467285 2.2426445484161377 0.35829582810401917 10
-1.9393428564071655 2.2586777210235596 0.25710946321487427 10
-1.9338703155517578 2.2530994415283203 0.15360602736473083 10
-1.9358052015304565 2.256150484085083 0.05122280865907669 10
-1.247010350227356 1.4559398889541626 -0.5034032464027405 119
-1.4317076206207275 1.6721729040145874 -0.4993916451931 119
-1.6717344522476196 1.9532036781311035 -0.4918454885482788 119
-1.9479784965515137 2.2767632007598877 -0.4685215950012207 0
-1.9505865573883057 2.2806169986724854 -0.3637803792953491 0
-1.9313710927963257 2.25894832611084 -0.25667405128479004 10
-1.9324088096618652 2.2609610557556152 -0.1533556878566742 10
-1.937576413154602 2.267808437347412 -0.05088382586836815 0
-1.9288426637649536 2.2583842277526855 0.7850040793418884 44
-1.9292603731155396 2.259671688079834 0.6765908002853394 44
-1.9271026849746704 2.2579426765441895 0.5690534114837646 44
-1.938439965248108 2.272029161453247 0.4664422571659088 0
-1.924857497215271 2.2569069862365723 0.3595145642757416 10
-1.9346781969070435 2.269223690032959 0.25754523277282715 10
-1.9389491081237793 2.2750370502471924 0.15465274453163147 10
-1.9311600923538208 2.2666993141174316 0.05131006985902786 0
-1.2419204711914062 1.460283875465393 -0.5034032464027405 119
-1.4258619546890259 1.6771602630615234 -0.4993916451931 119
-1.6649062633514404 1.9590272903442383 -0.4918454885482788 119
-1.9400192499160767 2.2835490703582764 -0.4685215950012207 0
-1.9458262920379639 2.2911946773529053 -0.3643897473812103 0
-1.9234739542007446 2.265676259994507 -0.25667405128479004 0
-1.9341974258422852 2.27911376953125 -0.15413811802864075 0
-1.9231802225112915 2.2669336795806885 -0.050711046904325485 0
-1.9303194284439087 2.276154041290283 0.7888838648796082 44
-1.9245113134384155 2.270108461380005 0.6777146458625793 44
-1.9319027662277222 2.2796337604522705 0.5728661417961121 44
-1.9304972887039185 2.2787816524505615 0.4664422571659088 44
-1.9265892505645752 2.2749736309051514 0.36134257912635803 44
-1.9267454147338867 2.275963068008423 0.25754523277282715 44
-1.9309959411621094 2.2817914485931396 0.15465274453163147 10
-1.913549780845642 2.261976480484009 0.05104828625917435 0
-1.2365599870681763 1.4648258686065674 -0.5034032464027405 119
-1.4197052717208862 1.6823750734329224 -0.4993916451931 119
-1.65771484375 1.965116262435913 -0.4918454885482788 119
-1.9220860004425049 2.2793185710906982 -0.4661751091480255 0
-1.931018352508545 2.290722370147705 -0.3631710708141327 0
-1.9151568412780762 2.2727110385894775 -0.25667405128479004 0
-1.9129633903503418 2.2709121704101562 -0.15309488773345947 0
-1.9116383790969849 2.2701432704925537 -0.050624653697013855 44
-1.915743112564087 2.2758238315582275 0.7862973809242249 44
-1.9161778688430786 2.277146816253662 0.6777146458625793 44
-1.9108960628509521 2.271674633026123 0.5690534114837646 44
-1.9157754182815552 2.278282403945923 0.4648796319961548 44
-1.9054648876190186 2.2668240070343018 0.35890519618988037 44
-1.9151864051818848 2.2791965007781982 0.25710946321487427 44
-1.91298508644104 2.27738356590271 0.1538676917552948 44
-1.898816704750061 2.261317729949951 0.050873763859272 44
-1.231439232826233 1.4691333770751953 -0.5034032464027405 119
-1.413824200630188 1.687320590019226 -0.4993916451931 119
-1.6508452892303467 1.970890760421753 -0.4918454885482788 119
-1.9077770709991455 2.2784409523010254 -0.464610755443573 0
-1.9166399240493774 2.2898378372192383 -0.36195236444473267 0
-1.9040154218673706 2.275561809539795 -0.25623828172683716 44
-1.8986176252365112 2.2699155807495117 -0.15257327258586884 44
-1.8972889184951782 2.269131660461426 -0.05045187473297119 44
-1.901592493057251 2.27508544921875 0.7837108373641968 44
-1.9050939083099365 2.280082941055298 0.6765908002853394 44
-1.8966621160507202 2.2707972526550293 0.5671470165252686 44
-1.9014806747436523 2.277373790740967 0.46331703662872314 44
-1.8911806344985962 2.265841484069824 0.35768651962280273 44
-1.9072188138961792 2.285867929458618 0.25710946321487427 44
-1.898627519607544 2.2763783931732178 0.15334433317184448 44
-1.8845038414001465 2.260256767272949 0.05069923773407936 44
-1.2263034582138062 1.4734230041503906 -0.5034032464027405 119
-1.4079257249832153 1.6922454833984375 -0.4993916451931 119
-1.6470940113067627 1.9804151058197021 -0.49279871582984924 119
-1.8903406858444214 2.2736942768096924 -0.46226420998573303 119
-1.9022910594940186 2.2888808250427246 -0.36073365807533264 44
-1.8960607051849365 2.2821943759918213 -0.25623828172683716 44
-1.8874925374984741 2.272688150405884 -0.15231245756149292 44
-1.886163353919983 2.2718944549560547 -0.05036548525094986 44
-1.8905547857284546 2.2779927253723145 0.7824175953865051 44
-1.894012212753296 2.2829694747924805 0.6754668354988098 44
-1.885590672492981 2.273625612258911 0.5661938786506653 44
-1.887215495109558 2.276393413543701 0.4617544114589691 44
-1.8769265413284302 2.264787197113037 0.3564678132534027 44
-1.8960500955581665 2.288675308227539 0.256673663854599 44
-1.887485146522522 2.279146432876587 0.15308266878128052 44
-1.8702318668365479 2.25911545753479 0.05052471533417702 44
-1.218076229095459 1.4739717245101929 -0.502109169960022 119
-1.3989070653915405 1.6933934688568115 -0.49826687574386597 119
-1.6401711702346802 1.9861525297164917 -0.49279871582984924 119
-1.876104712486267 2.2726621627807617 -0.4606998860836029 119
-1.8911311626434326 2.2916793823242188 -0.3601243197917938 44
-1.8817435503005981 2.281114339828491 -0.255366712808609 44
-1.8731943368911743 2.2715582847595215 -0.1517908275127411 44
-1.8718615770339966 2.270749092102051 -0.050192706286907196 44
-1.879520058631897 2.280850648880005 0.7811243534088135 44
-1.8798363208770752 2.28204607963562 0.6732190251350403 44
-1.8714025020599365 2.272615671157837 0.5642874836921692 44
-1.8761193752288818 2.2791545391082764 0.4609731137752533 44
-1.8627028465270996 2.2636606693267822 0.3552491366863251 44
-1.884885311126709 2.291433095932007 0.25623786449432373 44
-1.8763465881347656 2.2818644046783447 0.15282097458839417 44
-1.85916006565094 2.261767864227295 0.05043745040893555 44
-1.2129237651824951 1.4782146215438843 -0.502109169960022 119
-1.3932839632034302 1.6980230808258057 -0.49826687574386597 119
-1.6335759162902832 1.9915804862976074 -0.49279871582984924 119
-1.8622956275939941 2.271233320236206 -0.4591355323791504 119
-1.8772292137145996 2.2902615070343018 -0.3589056134223938 44
-1.8710119724273682 2.283489227294922 -0.25493094325065613 44
-1.8624873161315918 2.2738945484161377 -0.15153002738952637 44
-1.8579871654510498 2.2692081928253174 -0.050019923597574234 44
-1.8688870668411255 2.2833333015441895 0.779831051826477 44
-1.869173288345337 2.284496545791626 0.6720951795578003 44
-1.8607484102249146 2.2750096321105957 0.5633342862129211 44
-1.8622990846633911 2.277716636657715 0.4594104588031769 44
-1.8520452976226807 2.2659823894500732 0.35463976860046387 44
-1.8709733486175537 2.28995680809021 0.25536632537841797 44
-1.8624522686004639 2.280339479446411 0.15229761600494385 44
-1.8453259468078613 2.2601754665374756 0.0502629280090332 44
-1.2080150842666626 1.4822287559509277 -0.502109169960022 119
-1.3842711448669434 1.6990994215011597 -0.49714213609695435 119
-1.629713535308838 2.0010764598846436 -0.4937518835067749 119
-1.8512380123138428 2.273890495300293 -0.45835334062576294 119
-1.8629581928253174 2.289102077484131 -0.35768693685531616 44
-1.8567428588867188 2.282278537750244 -0.254059374332428 44
-1.8513882160186768 2.276508092880249 -0.15126921236515045 44
-1.843747615814209 2.2679214477539062 -0.04984714463353157 44
-1.8578592538833618 2.286094903945923 0.7785378694534302 44
-1.855043649673462 2.283444404602051 0.6698473691940308 44
-1.8497017621994019 2.2776811122894287 0.5623810887336731 44
-1.8512245416641235 2.280369281768799 0.45862916111946106 44
-1.8378697633743286 2.264726400375366 0.35342106223106384 44
-1.859830617904663 2.2926056385040283 0.2549305558204651 44
-1.851336121559143 2.2829484939575195 0.15203595161437988 44
-1.8311291933059692 2.258836507797241 0.05008840188384056 44
-1.2028337717056274 1.486436367034912 -0.502109169960022 119
-1.3786290884017944 1.703680396080017 -0.49714213609695435 119
-1.6230686902999878 2.0064697265625 -0.4937518835067749 119
-1.8374769687652588 2.272336721420288 -0.4567889869213104 119
-1.8491175174713135 2.287548542022705 -0.35646823048591614 44
-1.8429033756256104 2.280674695968628 -0.2531878352165222 44
-1.83755362033844 2.2748663425445557 -0.15074759721755981 44
-1.8299353122711182 2.2662441730499268 -0.04967436566948891 44
-1.8472343683242798 2.288484811782837 0.7772445678710938 44
-1.8413422107696533 2.2819998264312744 0.6675995588302612 44
-1.8359752893447876 2.2761614322662354 0.560474693775177 44
-1.8374525308609009 2.278806686401367 0.45706653594970703 44
-1.827235221862793 2.2669448852539062 0.352811723947525 44
-1.845967411994934 2.2910029888153076 0.25405898690223694 44
-1.8374912738800049 2.2812981605529785 0.15151259303092957 44
-1.8173578977584839 2.257108449935913 0.04991387948393822 44
-1.1978979110717773 1.4904170036315918 -0.502109169960022 119
-1.372673749923706 1.7084823846817017 -0.49714213609695435 119
-1.616054892539978 2.0121231079101562 -0.4937518835067749 119
-1.8295339345932007 2.2787365913391113 -0.4567889869213104 119
-1.8349084854125977 2.286248207092285 -0.3552495241165161 44
-1.8286970853805542 2.2793235778808594 -0.25231626629829407 44
-1.8233537673950195 2.2734763622283936 -0.15022598206996918 44
-1.815759301185608 2.264816999435425 -0.049501582980155945 44
-1.8362144231796265 2.2911503314971924 0.7759513854980469 44
-1.8272727727890015 2.280808925628662 0.6653517484664917 44
-1.8218823671340942 2.2748939990997314 0.5585682988166809 44
-1.82331383228302 2.277495861053467 0.4555039405822754 44
-1.813109278678894 2.2655599117279053 0.3515930473804474 44
-1.8317360877990723 2.289654016494751 0.2531874477863312 44
-1.8232797384262085 2.2798993587493896 0.15098923444747925 44
-1.8063464164733887 2.259533405303955 0.049826618283987045 44
-1.1921663284301758 1.4950056076049805 -0.502109169960022 119
-1.3661036491394043 1.7137404680252075 -0.49714213609695435 119
-1.6083171367645264 2.018313407897949 -0.4937518835067749 119
-1.8146169185638428 2.278019666671753 -0.4552246630191803 119
-1.8199337720870972 2.2855124473571777 -0.3540308475494385 44
-1.8168292045593262 2.2824313640594482 -0.2518804669380188 44
-1.8083926439285278 2.272646427154541 -0.14970436692237854 44
-1.8008254766464233 2.2639474868774414 -0.04932880401611328 44
-1.8213915824890137 2.290623188018799 0.7733648419380188 44
-1.812438726425171 2.2801804542541504 0.6631039381027222 44
-1.8070268630981445 2.2741870880126953 0.5566619634628296 44
-1.8084121942520142 2.2767460346221924 0.45394131541252136 44
-1.8013107776641846 2.26861834526062 0.3509836792945862 44
-1.816737413406372 2.288867473602295 0.252315878868103 44
-1.808305263519287 2.2790603637695312 0.15046587586402893 44
-1.7914440631866455 2.2586193084716797 0.0496520958840847 44
-1.1869405508041382 1.4991579055786133 -0.502109169960022 119
-1.3601131439208984 1.718498706817627 -0.49714213609695435 119
-1.6043075323104858 2.0277645587921143 -0.49470508098602295 119
-1.8035906553268433 2.280466318130493 -0.45444250106811523 119
-1.8057888746261597 2.284065008163452 -0.35281214118003845 44
-1.8026741743087769 2.2809436321258545 -0.25100892782211304 44
-1.7942579984664917 2.271109104156494 -0.1491827517747879 44
-1.7867149114608765 2.262373208999634 -0.04915602505207062 44
-1.810391902923584 2.2931759357452393 0.7720715999603271 44
-1.7984315156936646 2.278844118118286 0.6608560681343079 44
-1.7929974794387817 2.2727737426757812 0.5547555685043335 44
-1.7943376302719116 2.275289297103882 0.45237869024276733 44
-1.7872360944747925 2.2670977115631104 0.34976500272750854 44
-1.805653691291809 2.291282892227173 0.25188007950782776 44
-1.794158935546875 2.2775142192840576 0.1499425172805786 44
-1.777357816696167 2.257007598876953 0.04947756975889206 44
-1.181700348854065 1.5032919645309448 -0.502109169960022 119
-1.3541061878204346 1.723235845565796 -0.49714213609695435 119
-1.597219467163086 2.0333523750305176 -0.49470508098602295 119
-1.7925693988800049 2.2828640937805176 -0.4536603093147278 119
-1.7916767597198486 2.2825472354888916 -0.3515934646129608 44
-1.7916264533996582 2.283303737640381 -0.25057315826416016 44
-1.780156135559082 2.269500970840454 -0.14866113662719727 44
-1.7757220268249512 2.264662027359009 -0.04906963184475899 44
-1.7964171171188354 2.2918787002563477 0.7694850564002991 44
-1.7844561338424683 2.277437686920166 0.6586082577705383 44
-1.7790000438690186 2.2712905406951904 0.5528491735458374 44
-1.7833398580551147 2.2776501178741455 0.4515973627567291 44
-1.7731940746307373 2.2655067443847656 0.3485462963581085 44
-1.791506052017212 2.2897260189056396 0.251008540391922 44
-1.7800458669662476 2.2758970260620117 0.1494191586971283 44
-1.7633155584335327 2.255317211151123 0.049303047358989716 44
-1.1764456033706665 1.5074076652526855 -0.502109169960022 119
-1.3480826616287231 1.7279521226882935 -0.49714213609695435 119
-1.5901120901107788 2.0389151573181152 -0.49470508098602295 119
-1.7785170078277588 2.281317710876465 -0.45209595561027527 119
-1.7806475162506104 2.2848727703094482 -0.3509840965270996 44
-1.7775230407714844 2.2816848754882812 -0.249701589345932 44
-1.7660874128341675 2.267822027206421 -0.14813950657844543 44
-1.7616642713546753 2.2629568576812744 -0.048896852880716324 44
-1.7824734449386597 2.2905123233795166 0.7668985724449158 44
-1.7705127000808716 2.2759618759155273 0.6563604474067688 44
-1.7680479288101196 2.2736120223999023 0.5518960356712341 44
-1.7693164348602295 2.2760629653930664 0.4500347375869751 44
-1.7591848373413086 2.2638449668884277 0.3473276197910309 44
-1.7773913145065308 2.2880983352661133 0.25013697147369385 44
-1.7659657001495361 2.2742090225219727 0.14889580011367798 44
-1.7493011951446533 2.2535603046417236 0.049128517508506775 44
-1.1682186126708984 1.5076874494552612 -0.5008150935173035 119
-1.3450260162353516 1.7364987134933472 -0.49826687574386597 119
-1.582985281944275 2.0444533824920654 -0.49470508098602295 119
-1.7644975185394287 2.2797014713287354 -0.45053160190582275 119
-1.7665873765945435 2.283224582672119 -0.3497653901576996 44
-1.7634531259536743 2.279995918273926 -0.24883003532886505 44
-1.7520520687103271 2.2660725116729736 -0.1476178914308548 44
-1.7476398944854736 2.261181354522705 -0.04872407019138336 44
-1.7715142965316772 2.292898416519165 0.7656053304672241 44
-1.756601095199585 2.274416446685791 0.6541126370429993 44
-1.7541016340255737 2.2719993591308594 0.549989640712738 44
-1.755326271057129 2.2744061946868896 0.44847211241722107 44
-1.745208978652954 2.262113332748413 0.34610891342163086 44
-1.7663516998291016 2.290344476699829 0.24970120191574097 44
-1.7519193887710571 2.2724509239196777 0.14837244153022766 44
-1.735320806503296 2.2517333030700684 0.04895399510860443 44
-1.1629486083984375 1.5117560625076294 -0.5008150935173035 119
-1.338956356048584 1.7411831617355347 -0.49826687574386597 119
-1.5758391618728638 2.04996657371521 -0.49470508098602295 119
-1.7505110502243042 2.278015375137329 -0.4489672780036926 119
-1.7525602579116821 2.281506061553955 -0.34854671359062195 44
-1.7524499893188477 2.28218674659729 -0.24839425086975098 44
-1.741091012954712 2.2682137489318848 -0.14735709130764008 44
-1.7336496114730835 2.25933575630188 -0.0485512912273407 44
-1.7576208114624023 2.2914035320281982 0.7630188465118408 44
-1.7427221536636353 2.272801637649536 0.6518648266792297 44
-1.740188479423523 2.270317554473877 0.5480833053588867 44
-1.7413688898086548 2.272679090499878 0.44690951704978943 44
-1.7312668561935425 2.2603118419647217 0.3448902368545532 44
-1.7522900104522705 2.2885866165161133 0.248829647898674 44
-1.7379066944122314 2.2706220149993896 0.14784908294677734 44
-1.7244126796722412 2.2538065910339355 0.04886673390865326 44
-1.1574000120162964 1.5160083770751953 -0.5008150935173035 119
-1.3355213403701782 1.749951958656311 -0.4993916451931 119
-1.5683149099349976 2.0557284355163574 -0.49470508098602295 119
-1.7361605167388916 2.276562213897705 -0.4474029242992401 119
-1.7411775588989258 2.2839674949645996 -0.34793737530708313 44
-1.7380353212356567 2.2806711196899414 -0.24752268195152283 44
-1.726714015007019 2.2666358947753906 -0.14683546125888824 44
-1.7223281860351562 2.261697292327881 -0.04846489802002907 44
-1.7433594465255737 2.2901439666748047 0.7604323029518127 44
-1.7314298152923584 2.275296688079834 0.6507409811019897 44
-1.7259122133255005 2.2688674926757812 0.5461769104003906 44
-1.7270487546920776 2.271184206008911 0.4453468918800354 44
-1.7169642448425293 2.2587404251098633 0.3436715304851532 44
-1.7378629446029663 2.287061929702759 0.24795809388160706 44
-1.7265524864196777 2.273000478744507 0.147587388753891 44
-1.7100937366485596 2.2521486282348633 0.048692211508750916 44
-1.1521010398864746 1.5200392007827759 -0.5008150935173035 119
-1.3294047117233276 1.7546031475067139 -0.4993916451931 119
-1.5611295700073242 2.061190366744995 -0.49470508098602295 119
-1.7252224683761597 2.2786715030670166 -0.44662076234817505 119
-1.7272045612335205 2.2821173667907715 -0.3467186689376831 44
-1.724053144454956 2.2787797451019287 -0.24665112793445587 44
-1.7157797813415527 2.268667221069336 -0.14657466113567352 44
-1.7083930969238281 2.2597198486328125 -0.048292119055986404 44
-1.7295305728912354 2.2885091304779053 0.7578457593917847 44
-1.7176035642623901 2.2735519409179688 0.6484931707382202 44
-1.7150239944458008 2.270961284637451 0.5452237129211426 44
-1.7131593227386475 2.269315481185913 0.44378426671028137 44
-1.7060800790786743 2.260758399963379 0.343062162399292 44
-1.7238695621490479 2.2851614952087402 0.2470865398645401 44
-1.7125948667526245 2.2710399627685547 0.14706403017044067 44
-1.6992071866989136 2.2541160583496094 0.048604946583509445 44
-1.1467880010604858 1.5240514278411865 -0.5008150935173035 119
-1.3232718706130981 1.759232997894287 -0.4993916451931 119
-1.5539251565933228 2.066627264022827 -0.49470508098602295 119
-1.7113234996795654 2.2767844200134277 -0.4450564384460449 119
-1.7132657766342163 2.2801971435546875 -0.34549999237060547 44
-1.7130968570709229 2.280801296234131 -0.246215358376503 44
-1.7018542289733887 2.2666563987731934 -0.14605304598808289 44
-1.6944929361343384 2.2576727867126465 -0.04811934009194374 44
-1.7157344818115234 2.2868053913116455 0.7552592754364014 44
-1.703810453414917 2.271738290786743 0.6462453603744507 44
-1.701197624206543 2.2690796852111816 0.5433173179626465 44
-1.6993039846420288 2.267378330230713 0.44222164154052734 44
-1.6922268867492676 2.258756637573242 0.34184348583221436 44
-1.7099108695983887 2.283191204071045 0.24621498584747314 44
-1.6986722946166992 2.269010066986084 0.14654067158699036 44
-1.6853431463241577 2.2520246505737305 0.0484304241836071 44
-1.1443514823913574 1.531914472579956 -0.502109169960022 119
-1.3171229362487793 1.7638412714004517 -0.4993916451931 119
-1.5467019081115723 2.0720388889312744 -0.49470508098602295 119
-1.6974586248397827 2.2748284339904785 -0.4434920847415924 119
-1.7023286819458008 2.2821857929229736 -0.34489062428474426 44
-1.6991699934005737 2.278780698776245 -0.24534378945827484 44
-1.6909475326538086 2.2685797214508057 -0.14579223096370697 44
-1.6836150884628296 2.2595653533935547 -0.04803295060992241 44
-1.701971411705017 2.285033702850342 0.7526727914810181 44
-1.6929606199264526 2.27376389503479 0.6451213955879211 44
-1.6874055862426758 2.2671291828155518 0.5414109230041504 44
-1.6884310245513916 2.269333839416504 0.4414403438568115 44
-1.6784086227416992 2.256685733795166 0.34062477946281433 44
-1.6989586353302002 2.2851486206054688 0.24577918648719788 44
-1.6877633333206177 2.270918130874634 0.1462789922952652 44
-1.6744905710220337 2.2538812160491943 0.04834316298365593 44
-1.1418739557266235 1.5397789478302002 -0.5034032464027405 119
-1.3109580278396606 1.768428087234497 -0.4993916451931 119
-1.5423818826675415 2.0813684463500977 -0.4956582486629486 119
-1.6865681409835815 2.2767715454101562 -0.44270989298820496 119
-1.6884453296661377 2.280137300491333 -0.34367191791534424 44
-1.6852781772613525 2.276691198348999 -0.2444722205400467 44
-1.6770784854888916 2.2664408683776855 -0.14527061581611633 44
-1.669771432876587 2.257390022277832 -0.047860171645879745 44
-1.688241720199585 2.283193826675415 0.75008624792099 44
-1.6792213916778564 2.2718238830566406 0.6428735852241516 44
-1.6765648126602173 2.2690582275390625 0.5404577851295471 44
-1.674631118774414 2.2672688961029053 0.4398776888847351 44
-1.66757333278656 2.258538246154785 0.3400154411792755 44
-1.6850557327270508 2.2830498218536377 0.24490763247013092 44
-1.6738970279693604 2.2687597274780273 0.14575563371181488 44
-1.6606782674789429 2.2516658306121826 0.048168640583753586 44
-1.1393555402755737 1.547644853591919 -0.504697322845459 119
-1.3047771453857422 1.7729934453964233 -0.4993916451931 119
-1.5351070165634155 2.0867397785186768 -0.4956582486629486 119
-1.6727590560913086 2.2746877670288086 -0.44114553928375244 119
-1.6745970249176025 2.278020143508911 -0.3424532413482666 44
-1.6714218854904175 2.2745325565338135 -0.24360066652297974 44
-1.6632447242736816 2.264232873916626 -0.1447489857673645 44
-1.6589224338531494 2.2591750621795654 -0.047773778438568115 44
-1.6774036884307861 2.285179376602173 0.7487930655479431 44
-1.6683988571166992 2.2737436294555664 0.6417497396469116 44
-1.6628280878067017 2.2669811248779297 0.538551390171051 44
-1.6637864112854004 2.269117832183838 0.4390964210033417 44
-1.6538118124008179 2.256340265274048 0.3387967646121979 44
-1.6711883544921875 2.2808823585510254 0.24403607845306396 44
-1.6630170345306396 2.2705609798431396 0.14549395442008972 44
-1.6498548984527588 2.253415107727051 0.048081375658512115 44
-1.1339462995529175 1.5516124963760376 -0.504697322845459 119
-1.298580288887024 1.7775371074676514 -0.4993916451931 119
-1.5278136730194092 2.092085599899292 -0.4956582486629486 119
-1.6589850187301636 2.2725353240966797 -0.4395812153816223 119
-1.660784363746643 2.275834321975708 -0.3412345349788666 44
-1.6576011180877686 2.2723047733306885 -0.24272911250591278 44
-1.6494470834732056 2.261955976486206 -0.14422737061977386 44
-1.6451367139816284 2.2568724155426025 -0.04760099574923515 44
-1.6637279987335205 2.2832138538360596 0.746206521987915 44
-1.654714822769165 2.2716774940490723 0.6395019292831421 44
-1.6520154476165771 2.268803596496582 0.537598192691803 44
-1.6529490947723389 2.270918846130371 0.43831509351730347 44
-1.640086054801941 2.25407338142395 0.33757805824279785 44
-1.660286545753479 2.2826735973358154 0.2436002939939499 44
-1.649208664894104 2.268275022506714 0.1449705958366394 44
-1.6361006498336792 2.251072645187378 0.04790685325860977 44
-1.131359338760376 1.559470534324646 -0.5059914588928223 119
-1.2923675775527954 1.7820591926574707 -0.4993916451931 119
-1.5233826637268066 2.1013801097869873 -0.49661147594451904 119
-1.6481443643569946 2.2743139266967773 -0.43879902362823486 119
-1.649918556213379 2.2775983810424805 -0.34062519669532776 44
-1.6467379331588745 2.274042844772339 -0.2422933429479599 44
-1.6386133432388306 2.263655185699463 -0.14396657049655914 44
-1.6343179941177368 2.2585511207580566 -0.04751460999250412 44
-1.6529170274734497 2.2850937843322754 0.7449132800102234 44
-1.6439203023910522 2.273491621017456 0.6383780241012573 44
-1.6383352279663086 2.2666006088256836 0.5356917977333069 44
-1.639227271080017 2.2686688899993896 0.43675246834754944 44
-1.6293020248413086 2.2557616233825684 0.33696871995925903 44
-1.6464768648147583 2.280378580093384 0.24272873997688293 44
-1.6383585929870605 2.2699689865112305 0.14470891654491425 44
-1.6253079175949097 2.252715826034546 0.0478195920586586 44
-1.1259088516235352 1.5634101629257202 -0.5059914588928223 119
-1.2861391305923462 1.7865595817565918 -0.4993916451931 119
-1.5131711959838867 2.102700710296631 -0.4956582486629486 119
-1.634427785873413 2.2720351219177246 -0.43723466992378235 119
-1.636163353919983 2.275285482406616 -0.33940649032592773 44
-1.6329753398895264 2.271688461303711 -0.24142178893089294 44
-1.6248743534088135 2.26125168800354 -0.1434449553489685 44
-1.620591163635254 2.2561216354370117 -0.047341831028461456 44
-1.6392966508865356 2.283003330230713 0.7423267960548401 44
-1.630292296409607 2.2712998390197754 0.6361302137374878 44
-1.6246904134750366 2.264329671859741 0.5337854623794556 44
-1.628420114517212 2.2703640460968018 0.4359711706638336 44
-1.6156344413757324 2.253368616104126 0.335750013589859 44
-1.6327035427093506 2.278014898300171 0.24185717105865479 44
-1.6246088743209839 2.2675564289093018 0.14418554306030273 44
-1.6116129159927368 2.250246524810791 0.047645069658756256 44
-1.120444655418396 1.5673308372497559 -0.5059914588928223 119
-1.2798950672149658 1.7910382747650146 -0.4993916451931 119
-1.5029690265655518 2.103976011276245 -0.49470508098602295 119
-1.6207470893859863 2.269688606262207 -0.43567031621932983 119
-1.6253280639648438 2.2769436836242676 -0.3387971520423889 44
-1.6221425533294678 2.273320198059082 -0.24098598957061768 44
-1.611172080039978 2.258779525756836 -0.14292334020137787 44
-1.6069012880325317 2.2536239624023438 -0.047169048339128494 44
-1.628514051437378 2.284778594970703 0.7410335540771484 44
-1.6166996955871582 2.269041061401367 0.6338824033737183 44
-1.6110814809799194 2.261991262435913 0.5318790674209595 44
-1.6147563457489014 2.267988443374634 0.4344085454940796 44
-1.6048815250396729 2.2549514770507812 0.3351406753063202 44
-1.6218544244766235 2.279641628265381 0.2414214164018631 44
-1.6137899160385132 2.2691445350646973 0.14392387866973877 44
-1.5979548692703247 2.2477097511291504 0.047470543533563614 44
-1.1121718883514404 1.567293643951416 -0.504697322845459 119
-1.276453971862793 1.7994683980941772 -0.5005163550376892 119
-1.489937424659729 2.1012017726898193 -0.49279871582984924 119
-1.607102870941162 2.2672743797302246 -0.4341059923171997 119
-1.6145007610321045 2.2785539627075195 -0.3381877839565277 44
-1.6084392070770264 2.270839214324951 -0.24011443555355072 44
-1.6003921031951904 2.260314702987671 -0.14266252517700195 44
-1.5961365699768066 2.255138635635376 -0.047082655131816864 44
-1.6149497032165527 2.2825639247894287 0.7384470701217651 44
-1.6059561967849731 2.270692825317383 0.6327584385871887 44
-1.6003423929214478 2.2635934352874756 0.5309258699417114 44
-1.603979468345642 2.269577980041504 0.4336272180080414 44
-1.591273307800293 2.2524333000183105 0.33392199873924255 44
-1.608140468597412 2.2771518230438232 0.24054984748363495 44
-1.600100040435791 2.266605854034424 0.14340052008628845 44
-1.5843342542648315 2.2451045513153076 0.04729602113366127 44
-1.1150376796722412 1.5830116271972656 -0.5085796117782593 119
-1.2729697227478027 1.8078967332839966 -0.5016411542892456 119
-1.4797687530517578 2.1023759841918945 -0.4918454885482788 119
-1.5963371992111206 2.268831729888916 -0.43332383036613464 119
-1.6008273363113403 2.276057243347168 -0.3369691073894501 44
-1.5976380109786987 2.2723653316497803 -0.23967866599559784 44
-1.5867503881454468 2.2577168941497803 -0.14214091002941132 44
-1.5825072526931763 2.2525150775909424 -0.0469098761677742 44
-1.604196310043335 2.2842342853546143 0.7371537685394287 44
-1.592421293258667 2.2683095932006836 0.6305106282234192 44
-1.5867921113967896 2.2611303329467773 0.5290194749832153 44
-1.5903749465942383 2.2670772075653076 0.43206459283828735 44
-1.577702522277832 2.249847650527954 0.33270329236984253 44
-1.5973228216171265 2.278672456741333 0.24011406302452087 44
-1.58931303024292 2.2680881023406982 0.1431388258934021 44
-1.5707515478134155 2.242431879043579 0.04712149500846863 44
-1.0901334285736084 1.5591872930526733 -0.4995209574699402 119
-1.272233009338379 1.8203155994415283 -0.5038906931877136 119
-1.463987946510315 2.0954580307006836 -0.48898595571517944 119
-1.5827524662017822 2.2662923336029053 -0.43175947666168213 119
-1.5900319814682007 2.277562379837036 -0.33635976910591125 44
-1.5839952230453491 2.269759178161621 -0.23880711197853088 44
-1.5731459856033325 2.255051374435425 -0.14161927998065948 44
-1.5689157247543335 2.249824285507202 -0.04673709720373154 44
-1.5934510231018066 2.285858154296875 0.7358605265617371 44
-1.578922986984253 2.265859842300415 0.6282628178596497 44
-1.5760843753814697 2.2626280784606934 0.5280663371086121 44
-1.57962965965271 2.268561840057373 0.4312833249568939 44
-1.5670043230056763 2.251267910003662 0.3320939540863037 44
-1.5836691856384277 2.276057004928589 0.23924250900745392 44
-1.575683832168579 2.2654237747192383 0.14261546730995178 44
-1.5600603818893433 2.2437965869903564 0.047034233808517456 44
-1.095698595046997 1.5788540840148926 -0.504697322845459 119
-1.265871286392212 1.8247454166412354 -0.5038906931877136 119
-1.4510703086853027 2.0924885272979736 -0.48707953095436096 119
-1.5720186233520508 2.267744779586792 -0.4309772849082947 119
-1.5764188766479492 2.2749404907226562 -0.33514106273651123 44
-1.5732260942459106 2.271179437637329 -0.23837131261825562 44
-1.562422513961792 2.2564241886138916 -0.14135847985744476 44
-1.558207631111145 2.251176595687866 -0.046650707721710205 44
-1.5827139616012573 2.2874343395233154 0.7345672845840454 44
-1.568232536315918 2.267350673675537 0.6271389722824097 44
-1.5625940561294556 2.2600414752960205 0.526159942150116 44
-1.5660855770111084 2.265936851501465 0.4297206997871399 44
-1.5534944534301758 2.2485580444335938 0.3308752477169037 44
-1.5700535774230957 2.273374319076538 0.23837095499038696 44
-1.5649298429489136 2.266801118850708 0.14235380291938782 44
-1.5465396642684937 2.240999460220337 0.046859707683324814 44
-1.087165355682373 1.5788816213607788 -0.5034032464027405 119
-1.2564122676849365 1.8253597021102905 -0.5027658939361572 119
-1.4461734294891357 2.101836681365967 -0.4880327582359314 119
-1.5580991506576538 2.2653534412384033 -0.42941296100616455 119
-1.56244695186615 2.272524118423462 -0.3339223861694336 44
-1.5592488050460815 2.2687206268310547 -0.23749975860118866 44
-1.5484868288040161 2.2539045810699463 -0.14083686470985413 44
-1.544285774230957 2.2486305236816406 -0.04647792875766754 44
-1.568852424621582 2.2852563858032227 0.7319807410240173 44
-1.5543984174728394 2.2650492191314697 0.6248911619186401 44
-1.5515234470367432 2.2617058753967285 0.5252067446708679 44
-1.5549769401550293 2.2675883769989014 0.4289393723011017 44
-1.5424368381500244 2.250143527984619 0.33026590943336487 44
-1.558895230293274 2.2750046253204346 0.23793518543243408 44
-1.5509676933288574 2.2642829418182373 0.1418304443359375 44
-1.532666802406311 2.238402843475342 0.04668518528342247 44
nan nan nan 0
-1.2472848892211914 1.825711727142334 -0.5016411542892456 119
-1.4471321105957031 2.1190316677093506 -0.49089235067367554 119
-1.5473977327346802 2.26669979095459 -0.4286307990550995 119
-1.548910140991211 2.269765853881836 -0.33270367980003357 44
-1.5485132932662964 2.2700350284576416 -0.23706398904323578 44
-1.5377966165542603 2.2551705837249756 -0.1405760496854782 44
-1.5307955741882324 2.2457454204559326 -0.04630514234304428 44
-1.5554264783859253 2.28273606300354 0.729394257068634 44
-1.5437395572662354 2.26643443107605 0.6237671971321106 44
-1.5408567190170288 2.2630507946014404 0.5242535471916199 44
-1.541494607925415 2.2648372650146484 0.42737674713134766 44
-1.5289897918701172 2.247307777404785 0.32904723286628723 44
-1.545342206954956 2.2721948623657227 0.23706363141536713 44
-1.5402470827102661 2.2655534744262695 0.14156875014305115 44
-1.5220340490341187 2.2396044731140137 0.046597920358181 44
nan nan nan 0
-1.2409043312072754 1.8300544023513794 -0.5016411542892456 119
-1.4424805641174316 2.1281330585479736 -0.4918454885482788 119
-1.5339360237121582 2.2639107704162598 -0.427066445350647 119
-1.5354117155075073 2.2669408321380615 -0.33148500323295593 44
-1.5349947214126587 2.2671773433685303 -0.23619243502616882 44
-1.524317979812622 2.2522544860839844 -0.14005443453788757 44
-1.51734459400177 2.2427940368652344 -0.04613236337900162 44
-1.5420372486114502 2.2801499366760254 0.7268077731132507 44
-1.5303616523742676 2.2637367248535156 0.6215193867683411 44
-1.5274513959884644 2.260282039642334 0.5223472118377686 44
-1.5308150053024292 2.2661120891571045 0.42659544944763184 44
-1.518358588218689 2.248518228530884 0.328437864780426 44
-1.5346144437789917 2.273446798324585 0.23662783205509186 44
-1.5295367240905762 2.266777515411377 0.14130708575248718 44
-1.5086158514022827 2.23661470413208 0.046423397958278656 44
nan nan nan 0
-1.234508752822876 1.8343747854232788 -0.5016411542892456 119
-1.4405224323272705 2.1413004398345947 -0.4937518835067749 119
-1.523268222808838 2.265153169631958 -0.4262842535972595 119
-1.5247206687927246 2.2681679725646973 -0.3308756351470947 44
-1.5242931842803955 2.2683873176574707 -0.23575665056705475 44
-1.513662576675415 2.2534165382385254 -0.13979361951351166 44
-1.506719708442688 2.243926525115967 -0.046045973896980286 44
-1.5313769578933716 2.281508445739746 0.7255144715309143 44
-1.5170211791992188 2.2609734535217285 0.6192715764045715 44
-1.5168181657791138 2.261523723602295 0.5213940143585205 44
-1.5173951387405396 2.263237714767456 0.4250328242778778 44
-1.5049748420715332 2.2455594539642334 0.327219158411026 44
-1.5211247205734253 2.2705135345458984 0.2357562780380249 44
-1.5160579681396484 2.2638051509857178 0.14078372716903687 44
-1.4952372312545776 2.233558416366577 0.046248871833086014 44
nan nan nan 0
-1.2253919839859009 1.8346214294433594 -0.5005163550376892 119
-1.4303137063980103 2.1422338485717773 -0.49279871582984924 119
-1.5098689794540405 2.2622413635253906 -0.424719899892807 119
-1.511285424232483 2.2652199268341064 -0.3296569287776947 44
-1.5108386278152466 2.265406370162964 -0.2348850816488266 44
-1.5002479553222656 2.2503774166107178 -0.13927200436592102 44
-1.493332862854004 2.240852117538452 -0.04587319493293762 44
-1.5180481672286987 2.2788007259368896 0.722927987575531 44
-1.5037188529968262 2.2581446170806885 0.6170238256454468 44
-1.5061949491500854 2.262718677520752 0.5204408168792725 44
-1.5040141344070435 2.2602977752685547 0.42347022891044617 44
-1.4943784475326538 2.2466671466827393 0.3266098201274872 44
-1.5104320049285889 2.2716617584228516 0.23532050848007202 44
-1.505382776260376 2.264925003051758 0.1405220329761505 44
-1.4846652746200562 2.234600305557251 0.04616161435842514 44
-1.008730411529541 1.521139144897461 -0.4788154363632202 119
-1.2189804315567017 1.8388876914978027 -0.5005163550376892 119
-1.422827124595642 2.1472134590148926 -0.49279871582984924 119
-1.4992358684539795 2.263381004333496 -0.42393776774406433 119
-1.5006293058395386 2.266343593597412 -0.32904762029647827 44
-1.50017249584198 2.2665131092071533 -0.23444931209087372 44
-1.4896284341812134 2.251436471939087 -0.1390112042427063 44
-1.4827438592910767 2.2418811321258545 -0.04578680172562599 44
-1.504757285118103 2.2760281562805176 0.7203414440155029 44
-1.4931412935256958 2.259315252304077 0.615899920463562 44
-1.495581865310669 2.263867139816284 0.5194876194000244 44
-1.4933935403823853 2.2614126205444336 0.42268890142440796 44
-1.481058955192566 2.243586301803589 0.32539111375808716 44
-1.4997496604919434 2.2727625370025635 0.23488472402095795 44
-1.4919686317443848 2.2618298530578613 0.1399986743927002 44
-1.471351981163025 2.231421947479248 0.0459870882332325 44
-1.0140348672866821 1.5407884120941162 -0.4839918315410614 119
-1.2125540971755981 1.8431315422058105 -0.5005163550376892 119
-1.4126265048980713 2.1480660438537598 -0.4918454885482788 119
-1.4859007596969604 2.260347366333008 -0.4223734140396118 119
-1.4899836778640747 2.2674202919006348 -0.32843825221061707 44
-1.4895169734954834 2.2675724029541016 -0.23401352763175964 44
-1.4762791395187378 2.248274803161621 -0.13848958909511566 44
-1.4721660614013672 2.242863893508911 -0.04570041596889496 44
-1.494153618812561 2.277228593826294 0.719048261642456 44
-1.4825736284255981 2.26043963432312 0.6147760152816772 44
-1.484979271888733 2.2649693489074707 0.5185344219207764 44
-1.4800763130187988 2.2583508491516113 0.42112627625465393 44
-1.47049880027771 2.244591474533081 0.32478177547454834 44
-1.4863495826721191 2.2696502208709717 0.234013170003891 44
-1.4813295602798462 2.2628462314605713 0.13973699510097504 44
-1.4608163833618164 2.232361078262329 0.04589982330799103 44
nan nan nan 0
-1.2061131000518799 1.8473528623580933 -0.5005163550376892 119
-1.410485029220581 2.1612045764923096 -0.4937518835067749 119
-1.475303053855896 2.2613842487335205 -0.42159122228622437 119
-1.479349136352539 2.268450975418091 -0.32782891392707825 44
-1.4788724184036255 2.268585205078125 -0.23357774317264557 44
-1.4656962156295776 2.2492308616638184 -0.13822877407073975 44
-1.461599349975586 2.243799924850464 -0.04561402276158333 44
-1.4835600852966309 2.2783827781677246 0.7177549600601196 44
-1.472016453742981 2.2615177631378174 0.6136521100997925 44
-1.4717103242874146 2.261910915374756 0.516628086566925 44
-1.4667991399765015 2.2552237510681152 0.4195636510848999 44
-1.4599496126174927 2.2455499172210693 0.3241724371910095 44
-1.4757035970687866 2.270648241043091 0.23357738554477692 44
-1.4679814577102661 2.259629011154175 0.13921363651752472 44
-1.4502923488616943 2.2332539558410645 0.045812565833330154 44
nan nan nan 0
-1.1996572017669678 1.8515517711639404 -0.5005163550376892 119
-1.408268690109253 2.174354314804077 -0.4956582486629486 119
-1.4647166728973389 2.2623746395111084 -0.4208090603351593 119
-1.4660288095474243 2.265268087387085 -0.32661017775535583 44
-1.4682390689849854 2.2695517539978027 -0.2331419736146927 44
-1.4551244974136353 2.250140428543091 -0.13796795904636383 44
-1.4510442018508911 2.24468994140625 -0.045527633279561996 44
-1.472976565361023 2.2794909477233887 0.716461718082428 44
-1.4641132354736328 2.2666423320770264 0.6136521100997925 44
-1.4611432552337646 2.2629106044769287 0.515674889087677 44
-1.4562397003173828 2.2561802864074707 0.4187823235988617 44
-1.4467213153839111 2.2422921657562256 0.3229537308216095 44
-1.4623690843582153 2.26741361618042 0.23270581662654877 44
-1.4546736478805542 2.2563462257385254 0.1386902779340744 44
-1.4424880743026733 2.2383029460906982 0.045812565833330154 44
nan nan nan 0
-1.1931867599487305 1.855728030204773 -0.5005163550376892 119
-1.4033241271972656 2.1833860874176025 -0.49661147594451904 119
-1.4514714479446411 2.2591638565063477 -0.4192446768283844 119
-1.4554308652877808 2.2661960124969482 -0.3260008692741394 44
-1.4549262523651123 2.266279935836792 -0.23227041959762573 44
-1.4418675899505615 2.2468016147613525 -0.1374463438987732 44
-1.4378013610839844 2.241325855255127 -0.04535485431551933 44
-1.4624035358428955 2.280552864074707 0.7151684761047363 44
-1.4535629749298096 2.2676374912261963 0.6125282049179077 44
-1.4479392766952515 2.2597320079803467 0.5137684941291809 44
-1.4456915855407715 2.257091522216797 0.4180010259151459 44
-1.4362093210220337 2.2431490421295166 0.3223443925380707 44
-1.4517604112625122 2.2683093547821045 0.23227006196975708 44
-1.444097876548767 2.257204294204712 0.13842859864234924 44
-1.4319725036621094 2.239112615585327 0.045725300908088684 44
nan nan nan 0
-1.1863771677017212 1.86008882522583 -0.5005163550376892 119
-1.3953121900558472 2.1885147094726562 -0.49661147594451904 119
-1.4405275583267212 2.2603042125701904 -0.4184625446796417 119
-1.4444485902786255 2.267329692840576 -0.3253915011882782 44
-1.4439343214035034 2.2673957347869873 -0.23183462023735046 44
-1.4309415817260742 2.247859001159668 -0.13718552887439728 44
-1.426892876625061 2.2423627376556396 -0.0452684611082077 44
-1.4514429569244385 2.281822443008423 0.7138752341270447 44
-1.4426277875900269 2.26883864402771 0.611404299736023 44
-1.4370142221450806 2.2608814239501953 0.5128152966499329 44
-1.4347609281539917 2.258206605911255 0.41721969842910767 44
-1.4226570129394531 2.2400195598602295 0.32112571597099304 44
-1.438097596168518 2.265204906463623 0.23139849305152893 44
-1.4304641485214233 2.2540502548217773 0.13790524005889893 44
-1.4184002876281738 2.235903263092041 0.04555077850818634 44
nan nan nan 0
-1.174666166305542 1.8559855222702026 -0.49826687574386597 119
-1.3876643180847168 2.1933720111846924 -0.49661147594451904 119
-1.429989218711853 2.2611448764801025 -0.4176803529262543 119
-1.4338735342025757 2.2681632041931152 -0.3247821629047394 44
-1.4306892156600952 2.26400089263916 -0.2309630662202835 44
-1.4204195737838745 2.2486188411712646 -0.13692472875118256 44
-1.413718581199646 2.2388756275177 -0.04509568214416504 44
-1.4383131265640259 2.2787065505981445 0.7112887501716614 44
-1.432099461555481 2.269739866256714 0.6102803945541382 44
-1.4238766431808472 2.257580518722534 0.5109089016914368 44
-1.4242357015609741 2.259023427963257 0.41643840074539185 44
-1.4095373153686523 2.236575126647949 0.319907009601593 44
-1.4275267124176025 2.2659964561462402 0.23096270859241486 44
-1.4172660112380981 2.250579595565796 0.1373818814754486 44
-1.407918095588684 2.2366135120391846 0.04546351730823517 44
nan nan nan 0
-1.165589451789856 1.8559490442276 -0.49714213609695435 119
-1.3799996376037598 2.198202610015869 -0.49661147594451904 119
-1.416837453842163 2.2577567100524902 -0.41611599922180176 119
-1.4206730127334595 2.2647464275360107 -0.32356348633766174 44
-1.4201315641403198 2.264761209487915 -0.23052729666233063 44
-1.409909963607788 2.2493324279785156 -0.13666391372680664 44
-1.403240442276001 2.239560604095459 -0.04500929266214371 44
-1.4277864694595337 2.2796199321746826 0.709995448589325 44
-1.4189971685409546 2.2664661407470703 0.6080325841903687 44
-1.4133837223052979 2.258376359939575 0.5099557638168335 44
-1.4137223958969116 2.2597944736480713 0.41565707325935364 44
-1.3990901708602905 2.237273693084717 0.3192976713180542 44
-1.4169679880142212 2.266741991043091 0.23052693903446198 44
-1.4067553281784058 2.2512786388397217 0.13712020218372345 44
-1.3948109149932861 2.2330307960510254 0.045288994908332825 44
nan nan nan 0
-1.1565271615982056 1.855871558189392 -0.49601736664772034 119
-1.3697227239608765 2.1988399028778076 -0.4956582486629486 119
-1.4063374996185303 2.2584965229034424 -0.4153338372707367 119
-1.410136342048645 2.2654783725738525 -0.32295411825180054 44
-1.4069545269012451 2.2612462043762207 -0.22965574264526367 44
-1.396775484085083 2.245760202407837 -0.136142298579216 44
-1.3901352882385254 2.2359540462493896 -0.044836513698101044 44
-1.4147213697433472 2.276385545730591 0.7074089646339417 44
-1.4059350490570068 2.2631285190582275 0.6057847738265991 44
-1.402902603149414 2.259126663208008 0.5090025067329407 44
-1.4006162881851196 2.2563235759735107 0.4140944480895996 44
-1.386038899421692 2.233710289001465 0.3180789649486542 44
-1.4037960767745972 2.2632086277008057 0.22965538501739502 44
-1.3962571620941162 2.251931667327881 0.1368585228919983 44
-1.3843741416931152 2.2336366176605225 0.045201729983091354 44
nan nan nan 0
-1.1372309923171997 1.8391790390014648 -0.49039360880851746 119
-1.3620389699935913 2.2036077976226807 -0.4956582486629486 119
-1.3958497047424316 2.259190559387207 -0.41455164551734924 119
-1.3996120691299438 2.266164541244507 -0.3223447799682617 44
-1.396436095237732 2.2619051933288574 -0.2292199432849884 44
-1.386305570602417 2.246372938156128 -0.13588149845600128 44
-1.3796972036361694 2.2365379333496094 -0.04475012049078941 44
