# .PCD v0.7 - Point Cloud Data file format
VERSION 0.7
FIELDS x y z intensity
SIZE 4 4 4 4
TYPE F F F F
COUNT 1 1 1 1
WIDTH 771
HEIGHT 1
VIEWPOINT 0 0 0 1 0 0 0
POINTS 771
DATA ascii
-1.8215441703796387 -2.8714020252227783 0.6529340147972107 110
-1.8278651237487793 -2.8802547454833984 0.5336349606513977 110
-1.8239097595214844 -2.8729138374328613 0.4131370484828949 110
-1.8337128162384033 -2.8872413635253906 0.29589375853538513 110
-1.8386496305465698 -2.8938980102539062 0.17768056690692902 110
-1.822601318359375 -2.8675336837768555 0.05864008143544197 110
-1.0089540481567383 -1.584350824356079 -0.4930504858493805 119
-1.1566088199615479 -1.8155122995376587 -0.48814404010772705 119
-1.3791019916534424 -2.1639232635498047 -0.49089235067367554 119
-1.8364983797073364 -2.8805058002471924 -0.5350062847137451 110
-1.8405975103378296 -2.885824203491211 -0.41557490825653076 110
-1.8263596296310425 -2.862398862838745 -0.29371529817581177 110
-1.8339771032333374 -2.8732316493988037 -0.17604607343673706 110
-1.8232277631759644 -2.8552916049957275 -0.0578814335167408 110
-1.827628254890442 -2.8610825538635254 0.8988102674484253 110
-1.830800175666809 -2.864945411682129 0.775494396686554 110
-1.8209810256958008 -2.8484842777252197 0.6491212248802185 110
-1.8246040344238281 -2.8530542850494385 0.5297284126281738 110
-1.8232290744781494 -2.8498079776763916 0.41069966554641724 110
-1.83303964138031 -2.864041566848755 0.2941506505012512 110
-1.837970495223999 -2.8706419467926025 0.17663384974002838 110
-1.8191180229187012 -2.8401055335998535 0.05820377543568611 110
-1.0118699073791504 -1.5767546892166138 -0.491756409406662 119
-1.1629390716552734 -1.8114639520645142 -0.48814404010772705 119
-1.3919520378112793 -2.167356014251709 -0.49279871582984924 119
-1.8331950902938843 -2.8533036708831787 -0.5310954451560974 110
-1.8399267196655273 -2.862682580947876 -0.4131375253200531 110
-1.8255647420883179 -2.839247465133667 -0.29197219014167786 110
-1.833190679550171 -2.8500144481658936 -0.1750028431415558 110
-1.8223624229431152 -2.8320934772491455 -0.05753587186336517 110
-1.827147364616394 -2.8384408950805664 0.8936372995376587 110
-1.8302383422851562 -2.8421525955200195 0.7709987759590149 110
-1.8176223039627075 -2.821479320526123 0.644355297088623 110
-1.8238508701324463 -2.8300628662109375 0.5266031622886658 110
-1.8197203874588013 -2.8225715160369873 0.40765294432640076 110
-1.8322272300720215 -2.8408823013305664 0.2924075126647949 110
-1.8371517658233643 -2.847426176071167 0.17558713257312775 110
-1.8181763887405396 -2.81693696975708 0.05785472318530083 110
-1.0173676013946533 -1.5732131004333496 -0.491756409406662 119
-1.1692551374435425 -1.8073934316635132 -0.48814404010772705 119
-1.402175784111023 -2.16660475730896 -0.4937518835067749 119
-1.83240807056427 -2.8303050994873047 -0.5279667377471924 110
-1.8391169309616089 -2.83958101272583 -0.41070014238357544 110
-1.824630618095398 -2.8161370754241943 -0.29022908210754395 110
-1.8295488357543945 -2.8226478099823 -0.1736987978219986 110
-1.8186379671096802 -2.804741859436035 -0.05710391700267792 110
-1.8265304565429688 -2.8158373832702637 0.8884642720222473 110
-1.8295398950576782 -2.8193986415863037 0.7665031552314758 110
-1.8167699575424194 -2.798649787902832 0.6405425071716309 110
-1.8229596614837646 -2.807111978530884 0.5234779119491577 110
-1.8187472820281982 -2.799555778503418 0.4052155315876007 110
-1.831275463104248 -2.817763328552246 0.290664404630661 110
-1.8361932039260864 -2.824251413345337 0.1745404154062271 110
-1.8143699169158936 -2.789619207382202 0.05741841346025467 110
-1.0228530168533325 -1.5696521997451782 -0.491756409406662 119
-1.1728965044021606 -1.7992197275161743 -0.4870193302631378 119
-1.4124113321304321 -2.1658084392547607 -0.49470508098602295 119
-1.831483244895935 -2.807347297668457 -0.5248380899429321 110
-1.8381683826446533 -2.8165199756622314 -0.4082627594470978 110
-1.8235576152801514 -2.793067693710327 -0.28848594427108765 110
-1.8284685611724854 -2.7995223999023438 -0.17265556752681732 110
-1.8174793720245361 -2.7816362380981445 -0.05675835907459259 110
-1.8257784843444824 -2.7932732105255127 0.8832913041114807 110
-1.8260387182235718 -2.792606830596924 0.760883629322052 110
-1.8157802820205688 -2.7758607864379883 0.6367297768592834 110
-1.8219304084777832 -2.7842018604278564 0.5203526616096497 110
-1.8176358938217163 -2.776581287384033 0.40277814865112305 110
-1.8301845788955688 -2.7946858406066895 0.2889212667942047 110
-1.8350954055786133 -2.8011178970336914 0.17349368333816528 110
-1.8131349086761475 -2.7665436267852783 0.05706936493515968 110
-1.03097665309906 -1.570109248161316 -0.4930504858493805 119
-1.17649507522583 -1.791042685508728 -0.4858945310115814 119
-1.428049087524414 -2.173170566558838 -0.4975646436214447 119
-1.8277077674865723 -2.780303955078125 -0.5209271907806396 110
-1.8370814323425293 -2.7935009002685547 -0.4058253765106201 110
-1.8223457336425781 -2.770040273666382 -0.28674283623695374 110
-1.827249526977539 -2.7764389514923096 -0.17161232233047485 110
-1.8161816596984863 -2.758573055267334 -0.056412797421216965 110
-1.824891209602356 -2.7707486152648926 0.8781182765960693 110
-1.8250534534454346 -2.76994252204895 0.7563880681991577 110
-1.8146541118621826 -2.753113031387329 0.632917046546936 110
-1.8207638263702393 -2.7613332271575928 0.5172274708747864 110
-1.8163865804672241 -2.7536492347717285 0.4003407657146454 110
-1.828955054283142 -2.771650791168213 0.2871781587600708 110
-1.8311078548431396 -2.773859739303589 0.1721852868795395 110
-1.811761498451233 -2.743511199951172 0.056720320135354996 110
-1.036450982093811 -1.5665009021759033 -0.4930504858493805 119
-1.1827397346496582 -1.7869250774383545 -0.4858945310115814 119
-1.4383361339569092 -2.1722652912139893 -0.49851784110069275 119
-1.8264930248260498 -2.7574386596679688 -0.5177984833717346 110
-1.8358560800552368 -2.7705235481262207 -0.40338799357414246 110
-1.820995569229126 -2.747055768966675 -0.2849997282028198 110
-1.8258918523788452 -2.7533981800079346 -0.17056909203529358 110
-1.814745306968689 -2.7355527877807617 -0.05606723576784134 110
-1.8211983442306519 -2.7442402839660645 0.8716520071029663 110
-1.821237325668335 -2.743259906768799 0.7507684826850891 110
-1.8133912086486816 -2.730407238006592 0.6291042566299438 110
-1.8194595575332642 -2.738507032394409 0.5141022205352783 110
-1.8149993419647217 -2.730759620666504 0.3979033827781677 110
-1.8275872468948364 -2.7486581802368164 0.2854350507259369 110
-1.8297178745269775 -2.750821352005005 0.17113856971263885 110
-1.8130186796188354 -2.724684238433838 0.05645852908492088 110
-1.0419129133224487 -1.5628734827041626 -0.4930504858493805 119
-1.1889700889587402 -1.7827855348587036 -0.4858945310115814 119
-1.4540820121765137 -2.1794803142547607 -0.5013774037361145 119
-1.8251413106918335 -2.7346158027648926 -0.5146698355674744 110
-1.8344930410385132 -2.747588872909546 -0.4009505808353424 110
-1.819507360458374 -2.7241146564483643 -0.2832565903663635 110
-1.8243955373764038 -2.7304012775421143 -0.1695258617401123 110
-1.8131704330444336 -2.7125766277313232 -0.05572167783975601 110
-1.8200273513793945 -2.721806526184082 0.8664789795875549 110
-1.8199665546417236 -2.7206878662109375 0.74627286195755 110
-1.8119920492172241 -2.7077436447143555 0.6252915263175964 110
-1.8180184364318848 -2.715723752975464 0.5109769701957703 110
-1.813474416732788 -2.707913637161255 0.39546599984169006 110
-1.828853964805603 -2.7298479080200195 0.28412771224975586 110
-1.828189730644226 -2.7278265953063965 0.17009185254573822 110
-1.81138277053833 -2.7017292976379395 0.056109484285116196 110
-1.047361969947815 -1.5592269897460938 -0.4930504858493805 119
-1.195185899734497 -1.7786245346069336 -0.4858945310115814 119
nan nan nan 0
-1.8236523866653442 -2.711836099624634 -0.5115411281585693 110
-1.832992434501648 -2.724698066711426 -0.39851319789886475 110
-1.8178812265396118 -2.7012174129486084 -0.2815134823322296 110
-1.8227611780166626 -2.7074484825134277 -0.16848261654376984 110
-1.8142502307891846 -2.693791627883911 -0.05546250939369202 110
-1.8187222480773926 -2.6994147300720215 0.8613060116767883 110
-1.8185606002807617 -2.6981582641601562 0.741777241230011 110
-1.8104569911956787 -2.6851236820220947 0.621478796005249 110
-1.816440463066101 -2.692984104156494 0.5078517198562622 110
-1.811812400817871 -2.6851115226745605 0.3930286169052124 110
-1.827224612236023 -2.7069334983825684 0.28238460421562195 110
-1.8265231847763062 -2.704876184463501 0.16904513537883759 110
-1.8096086978912354 -2.6788196563720703 0.05576043576002121 110
-1.0527982711791992 -1.5555615425109863 -0.4930504858493805 119
-1.2013872861862183 -1.7744417190551758 -0.4858945310115814 119
-1.4885295629501343 -2.197723150253296 -0.508049726486206 119
-1.8164868354797363 -2.6809237003326416 -0.5068480968475342 110
-1.8341388702392578 -2.7059590816497803 -0.3966851532459259 110
-1.8161174058914185 -2.6783649921417236 -0.2797703742980957 110
-1.8209890127182007 -2.6845405101776123 -0.16743938624858856 110
-1.8124136924743652 -2.6708948612213135 -0.05511694401502609 110
-1.8145705461502075 -2.6730692386627197 0.8548396825790405 110
-1.8170192241668701 -2.6756715774536133 0.7372816205024719 110
-1.8115441799163818 -2.666607618331909 0.6186192035675049 110
-1.8175020217895508 -2.674373149871826 0.50550776720047 110
-1.8100135326385498 -2.6623547077178955 0.39059123396873474 110
-1.8254579305648804 -2.6840641498565674 0.28064149618148804 110
-1.8247190713882446 -2.6819708347320557 0.16799841821193695 110
-1.8105100393295288 -2.660088062286377 0.055498648434877396 110
-1.0582218170166016 -1.5518771409988403 -0.4930504858493805 119
-1.2103192806243896 -1.7742618322372437 -0.4870193302631378 119
nan nan nan 0
-1.8119120597839355 -2.6541733741760254 -0.5029371976852417 110
-1.8323781490325928 -2.683147430419922 -0.39424777030944824 110
-1.8142163753509521 -2.655557632446289 -0.2780272364616394 110
-1.8218964338302612 -2.6658003330230713 -0.166656956076622 110
-1.8104397058486938 -2.6480445861816406 -0.05477138236165047 110
-1.812983751296997 -2.6507725715637207 0.8496667146682739 110
-1.8153436183929443 -2.653228998184204 0.7327860593795776 110
-1.809752106666565 -2.644066333770752 0.6148064732551575 110
-1.8156658411026 -2.6517133712768555 0.5023825168609619 110
-1.810882329940796 -2.6437370777130127 0.3887631595134735 110
-1.8235535621643066 -2.6612398624420166 0.27889835834503174 110
-1.8227771520614624 -2.659111261367798 0.16695168614387512 110
-1.808475375175476 -2.6372601985931396 0.05514959990978241 110
-1.0636324882507324 -1.5481737852096558 -0.4930504858493805 119
-1.2192646265029907 -1.7740412950515747 -0.48814404010772705 119
nan nan nan 0
-1.8015756607055664 -2.619349956512451 -0.4974619746208191 110
-1.8304805755615234 -2.6603810787200928 -0.3918103873729706 110
-1.8150029182434082 -2.6369001865386963 -0.2767198979854584 110
-1.8198635578155518 -2.642974376678467 -0.16561371088027954 110
-1.8083282709121704 -2.6252405643463135 -0.05442582443356514 110
-1.8140039443969727 -2.6324965953826904 0.845786988735199 110
-1.8135333061218262 -2.630831003189087 0.7282904386520386 110
-1.807824730873108 -2.621570348739624 0.6109936833381653 110
-1.8136934041976929 -2.629098653793335 0.49925729632377625 110
-1.8088246583938599 -2.6210618019104004 0.38632577657699585 110
-1.8243424892425537 -2.642561435699463 0.2775910496711731 110
-1.8206981420516968 -2.636298179626465 0.1659049689769745 110
-1.8063032627105713 -2.6144790649414062 0.054800551384687424 110
-1.0690300464630127 -1.5444514751434326 -0.4930504858493805 119
-1.225449800491333 -1.7697744369506836 -0.48814404010772705 119
-1.592514157295227 -2.299025297164917 -0.5356922149658203 119
-1.8191461563110352 -2.625222682952881 -0.49980852007865906 110
-1.8312740325927734 -2.6417393684387207 -0.38998231291770935 110
-1.8128424882888794 -2.614176034927368 -0.27497678995132446 110
-1.817693829536438 -2.620195150375366 -0.16457048058509827 110
-1.8089302778244019 -2.606590986251831 -0.054166655987501144 110
-1.812164545059204 -2.610278844833374 0.8406139612197876 110
-1.8143682479858398 -2.6124794483184814 0.7249186635017395 110
-1.8057626485824585 -2.5991199016571045 0.6071809530258179 110
-1.8115856647491455 -2.6065304279327393 0.4961320757865906 110
-1.8066306114196777 -2.598433256149292 0.3838883936405182 110
-1.8221790790557861 -2.6198205947875977 0.2758479416370392 110
-1.8184821605682373 -2.613532304763794 0.16485825181007385 110
-1.8068506717681885 -2.595848798751831 0.05453876778483391 110
-1.0771772861480713 -1.5446721315383911 -0.4943445920944214 119
-1.2340985536575317 -1.7696971893310547 -0.48926883935928345 119
-1.5860878229141235 -2.273603916168213 -0.5309262275695801 119
-1.8193631172180176 -2.6070263385772705 -0.4974619746208191 110
-1.8286609649658203 -2.619375228881836 -0.3875449299812317 110
-1.8129454851150513 -2.5958988666534424 -0.27366945147514343 110
-1.817793607711792 -2.6018733978271484 -0.1637880504131317 110
-1.8061085939407349 -2.5841875076293945 -0.05382109433412552 110
-1.8097405433654785 -2.5884218215942383 0.835440993309021 110
-1.8146443367004395 -2.5944712162017822 0.72154700756073 110
-1.8059298992156982 -2.581052541732788 0.6043213605880737 110
-1.8117233514785767 -2.5883710384368896 0.49378812313079834 110
-1.806697964668274 -2.5802323818206787 0.38206037878990173 110
-1.81942617893219 -2.597445011138916 0.2741048038005829 110
-1.8185429573059082 -2.5952200889587402 0.16407321393489838 110
-1.8039705753326416 -2.5734682083129883 0.05418971925973892 110
-1.0822937488555908 -1.5410915613174438 -0.4943445920944214 119
-1.2402684688568115 -1.7653785943984985 -0.48926883935928345 119
-1.6165931224822998 -2.3001794815063477 -0.5385518074035645 119
-1.8256118297576904 -2.5966198444366455 -0.4966798424720764 110
-1.8292280435562134 -2.6007983684539795 -0.38571691513061523 110
-1.8133971691131592 -2.577333927154541 -0.2723621129989624 110
-1.815368890762329 -2.579179525375366 -0.16274482011795044 110
-1.806483507156372 -2.5656042098999023 -0.053561922162771225 110
-1.8076393604278564 -2.5662941932678223 0.8302679657936096 110
-1.8124641180038452 -2.572190284729004 0.7170513272285461 110
-1.8036168813705444 -2.558685779571533 0.6005086302757263 110
-1.8093632459640503 -2.565886974334717 0.4906628727912903 110
-1.804250955581665 -2.5576891899108887 0.3796229958534241 110
-1.8198659420013428 -2.578869104385376 0.27279746532440186 110
-1.8160723447799683 -2.572539806365967 0.16302649676799774 110
-1.804291009902954 -2.5549044609069824 0.05392793193459511 110
-1.0876665115356445 -1.537304162979126 -0.4943445920944214 119
-1.246115803718567 -1.7612558603286743 -0.48926883935928345 119
-1.5930203199386597 -2.2507362365722656 -0.5280666947364807 119
-1.8256515264511108 -2.578460216522217 -0.49433329701423645 110
-1.8263689279556274 -2.578519344329834 -0.3832795321941376 110
-1.810415267944336 -2.5550496578216553 -0.2706190049648285 110
-1.8152494430541992 -2.560924530029297 -0.1619623899459839 110
-1.8034147024154663 -2.543287515640259 -0.0532163605093956 110
-1.8077564239501953 -2.5484676361083984 0.8263881802558899 110
-1.8097059726715088 -2.5502727031707764 0.7125557065010071 110
-1.8035683631896973 -2.5406837463378906 0.597649097442627 110
-1.8092838525772095 -2.54779314994812 0.4883189797401428 110
-1.8041002750396729 -2.5395545959472656 0.37779495120048523 110
-1.816866397857666 -2.55657958984375 0.27105435729026794 110
-1.8159135580062866 -2.5542948246002197 0.16224145889282227 110
-1.8040614128112793 -2.5366854667663574 0.05366614833474159 110
-1.0927584171295166 -1.5336889028549194 -0.4943445920944214 119
-1.252256155014038 -1.7568954229354858 -0.48926883935928345 119
-1.6008670330047607 -2.245162010192871 -0.5280666947364807 119
-1.8260374069213867 -2.5600104331970215 -0.49198681116104126 110
-1.8238282203674316 -2.555969476699829 -0.3808421194553375 110
-1.8106410503387451 -2.5365521907806396 -0.26931166648864746 110
-1.8125710487365723 -2.538318634033203 -0.1609191596508026 110
-1.8035634756088257 -2.524772882461548 -0.052957188338041306 110
-1.8054087162017822 -2.526423454284668 0.8212151527404785 110
-1.8100969791412354 -2.5320496559143066 0.7091840505599976 110
-1.801005482673645 -2.5184030532836914 0.5938363075256348 110
-1.8095459938049316 -2.529412269592285 0.4859750270843506 110
-1.8042893409729004 -2.521134614944458 0.3759669065475464 110
-1.8170807361602783 -2.538071870803833 0.2697470188140869 110
-1.8131893873214722 -2.531702756881714 0.16119474172592163 110
-1.8012585639953613 -2.5141172409057617 0.05331709608435631 110
-1.0983723402023315 -1.529673457145691 -0.4943445920944214 119
-1.2586870193481445 -1.7522939443588257 -0.48926883935928345 119
-1.6119493246078491 -2.243265151977539 -0.529019832611084 119
-1.8267606496810913 -2.5412707328796387 -0.4896402657032013 110
-1.8244919776916504 -2.537179946899414 -0.3790140748023987 110
-1.8082910776138306 -2.5137250423431396 -0.26756852865219116 110
-1.810195803642273 -2.515446424484253 -0.15987591445446014 110
-1.8011220693588257 -2.5019166469573975 -0.05261162668466568 110
-1.806188702583313 -2.5080313682556152 0.8173353672027588 110
-1.810821533203125 -2.5135393142700195 0.7058122754096985 110
-1.8016144037246704 -2.4998390674591064 0.5909767150878906 110
-1.8072519302368164 -2.5067389011383057 0.48284977674484253 110
-1.801905870437622 -2.498404026031494 0.37352949380874634 110
-1.8147135972976685 -2.515237331390381 0.268003910779953 110
-1.8136898279190063 -2.5128939151763916 0.16040968894958496 110
-1.8016817569732666 -2.4953386783599854 0.05305531248450279 110
-1.100874662399292 -1.5219168663024902 -0.4930504858493805 119
-1.2619400024414062 -1.7439427375793457 -0.48814404010772705 119
-1.5996233224868774 -2.2097933292388916 -0.5223475694656372 119
-1.8240344524383545 -2.5188794136047363 -0.48651158809661865 110
-1.8216913938522339 -2.5147197246551514 -0.376576691865921 110
-1.808286190032959 -2.49529767036438 -0.26626119017601013 110
-1.8101732730865479 -2.4969847202301025 -0.15909349918365479 110
-1.8010395765304565 -2.483473300933838 -0.05235246196389198 110
-1.803587555885315 -2.4860737323760986 0.8121623992919922 110
-1.8081378936767578 -2.4914307594299316 0.7013166546821594 110
-1.8016786575317383 -2.481619358062744 0.5881171822547913 110
-1.8072847127914429 -2.4884274005889893 0.48050588369369507 110
-1.801864743232727 -2.4800543785095215 0.3717014789581299 110
-1.814697027206421 -2.496799945831299 0.266696572303772 110
-1.8136416673660278 -2.494432210922241 0.15962466597557068 110
-1.801559329032898 -2.476905584335327 0.05279352515935898 110
-1.1061803102493286 -1.5180648565292358 -0.4930504858493805 119
-1.2680199146270752 -1.7395269870758057 -0.48814404010772705 119
-1.5870836973190308 -2.1764349937438965 -0.5156752467155457 119
-1.8240846395492554 -2.500527858734131 -0.4841650724411011 110
-1.8216822147369385 -2.49631929397583 -0.37474867701530457 110
-1.8052376508712769 -2.4728784561157227 -0.2645180821418762 110
-1.8070991039276123 -2.4745211601257324 -0.15805025398731232 110
-1.7979013919830322 -2.461024284362793 -0.05200690031051636 110
-1.8037052154541016 -2.468064308166504 0.8082826733589172 110
-1.8081974983215332 -2.4733049869537354 0.6979449987411499 110
-1.7987401485443115 -2.459467887878418 0.5843043923377991 110
-1.8072117567062378 -2.470146417617798 0.47816193103790283 110
-1.7987867593765259 -2.457730770111084 0.3692640960216522 110
-1.814573884010315 -2.478393316268921 0.26538923382759094 110
-1.8105361461639404 -2.471973180770874 0.15857794880867004 110
-1.7983757257461548 -2.4544715881347656 0.05244447663426399 110
-1.1114726066589355 -1.514194369316101 -0.4930504858493805 119
-1.274084210395813 -1.7350902557373047 -0.48814404010772705 119
-1.577236294746399 -2.1471474170684814 -0.5099561214447021 119
-1.8240290880203247 -2.4822068214416504 -0.4818185567855835 110
-1.8186272382736206 -2.4739506244659424 -0.37231123447418213 110
-1.8050062656402588 -2.454523801803589 -0.2632107436656952 110
-1.8068491220474243 -2.45613169670105 -0.15726782381534576 110
-1.7975914478302002 -2.4426538944244385 -0.051747728139162064 110
-1.8008557558059692 -2.446195363998413 0.8031096458435059 110
-1.808152437210083 -2.4552090167999268 0.6945732235908508 110
-1.7985804080963135 -2.441318988800049 0.5814448595046997 110
-1.8070331811904907 -2.4518964290618896 0.4758179783821106 110
-1.7985198497772217 -2.439453363418579 0.3674360513687134 110
-1.8143446445465088 -2.4600186347961426 0.2640818953514099 110
-1.810260534286499 -2.4535841941833496 0.15779289603233337 110
-1.7980260848999023 -2.43611216545105 0.05218269303441048 110
-1.1167513132095337 -1.5103052854537964 -0.4930504858493805 119
-1.285927653312683 -1.7384660243988037 -0.49039360880851746 119
-1.5642848014831543 -2.1140098571777344 -0.5032837390899658 119
-1.823867678642273 -2.463916540145874 -0.47947201132774353 110
-1.8154385089874268 -2.451634407043457 -0.36987385153770447 110
-1.8046683073043823 -2.4362006187438965 -0.26190340518951416 110
-1.8035204410552979 -2.433762788772583 -0.1562245935201645 110
-1.7971755266189575 -2.424316167831421 -0.05148855969309807 110
-1.8007525205612183 -2.428255558013916 0.7992298603057861 110
-1.805100679397583 -2.4332308769226074 0.6900776028633118 110
-1.7953910827636719 -2.419260263442993 0.5776321291923523 110
-1.8067495822906494 -2.433677911758423 0.47347405552864075 110
-1.7981476783752441 -2.421208143234253 0.3656080365180969 110
-1.811038613319397 -2.4376771450042725 0.262338787317276 110
-1.809878945350647 -2.435227870941162 0.1570078730583191 110
-1.7975705862045288 -2.417785167694092 0.05192090570926666 110
-1.1220165491104126 -1.5063979625701904 -0.4930504858493805 119
-1.2978098392486572 -1.7417799234390259 -0.4926431179046631 119
-1.5599212646484375 -2.0927951335906982 -0.4994710087776184 119
-1.8236013650894165 -2.4456582069396973 -0.47712549567222595 110
-1.8121161460876465 -2.429370403289795 -0.3674364686012268 110
-1.8042246103286743 -2.417910099029541 -0.26059606671333313 110
-1.8030441999435425 -2.4154486656188965 -0.15544216334819794 110
-1.796653389930725 -2.4060111045837402 -0.051229387521743774 110
-1.7976558208465576 -2.406477212905884 0.7940568923950195 110
-1.8048338890075684 -2.4152069091796875 0.6867058873176575 110
-1.7950084209442139 -2.401184558868408 0.5747725367546082 110
-1.8063608407974243 -2.4154913425445557 0.4711301326751709 110
-1.7946971654891968 -2.3990213871002197 0.3631706237792969 110
-1.8105833530426025 -2.4193766117095947 0.26103144884109497 110
-1.8093910217285156 -2.4169039726257324 0.15622282028198242 110
-1.7970088720321655 -2.399491310119629 0.05165912210941315 110
-1.1272679567337036 -1.502472162246704 -0.4930504858493805 119
-1.3097307682037354 -1.7450320720672607 -0.4948926270008087 119
-1.5731109380722046 -2.0951874256134033 -0.5013774037361145 119
-1.8232297897338867 -2.427431583404541 -0.4747789800167084 110
-1.796736478805542 -2.391289472579956 -0.3625617027282715 110
-1.8036755323410034 -2.3996524810791016 -0.2592887282371521 110
-1.8024622201919556 -2.397167444229126 -0.15465973317623138 110
-1.7960255146026611 -2.3877391815185547 -0.05097021907567978 110
-1.7973331212997437 -2.3886096477508545 0.7901771068572998 110
-1.804463505744934 -2.397214651107788 0.683334231376648 110
-1.794521689414978 -2.383141279220581 0.5719130039215088 110
-1.8028956651687622 -2.393392562866211 0.46800488233566284 110
-1.794100284576416 -2.3808517456054688 0.36134257912635803 110
-1.8100227117538452 -2.4011096954345703 0.25972411036491394 110
-1.8087977170944214 -2.398613452911377 0.15543778240680695 110
-1.7963416576385498 -2.3812308311462402 0.05139733478426933 110
-1.1354176998138428 -1.5023812055587769 -0.4943445920944214 119
-1.3275662660598755 -1.755994439125061 -0.4993916451931 119
-1.5774542093276978 -2.085768461227417 -0.5004242062568665 119
-1.8227530717849731 -2.409237861633301 -0.4724324643611908 110
-1.8260371685028076 -2.412703275680542 -0.366827130317688 110
-1.80302095413208 -2.3814287185668945 -0.25798138976097107 110
-1.8017747402191162 -2.378919839859009 -0.15387731790542603 110
-1.7952923774719238 -2.3695013523101807 -0.050711046904325485 110
-1.7939902544021606 -2.366924524307251 0.7850040793418884 110
-1.8010458946228027 -2.3753721714019775 0.6788386106491089 110
-1.7939307689666748 -2.365130662918091 0.5690534114837646 110
-1.802283763885498 -2.375282049179077 0.465660959482193 110
-1.7933987379074097 -2.36271595954895 0.3595145642757416 110
-1.8093565702438354 -2.382875680923462 0.2584167718887329 110
-1.808098554611206 -2.3803563117980957 0.15465274453163147 110
-1.7925443649291992 -2.3590242862701416 0.05104828625917435 110
-1.1377296447753906 -1.4945658445358276 -0.4930504858493805 119
-1.3100749254226685 -1.7203421592712402 -0.49039360880851746 119
-1.5847253799438477 -2.080249547958374 -0.5004242062568665 119
-1.822171926498413 -2.3910768032073975 -0.4700859487056732 110
-1.8404655456542969 -2.414207696914673 -0.368045836687088 110
-1.7992405891418457 -2.3592774868011475 -0.25623828172683716 110
-1.8040106296539307 -2.3646762371063232 -0.1533556878566742 110
-1.7944533824920654 -2.351297616958618 -0.05045187473297119 110
-1.7934489250183105 -2.3491311073303223 0.7811243534088135 110
-1.8004549741744995 -2.357454776763916 0.6754668354988098 110
-1.7902565002441406 -2.3432531356811523 0.5652406811714172 110
-1.8015674352645874 -2.3572049140930176 0.46331703662872314 110
-1.7925925254821777 -2.344613790512085 0.35768651962280273 110
-1.8055592775344849 -2.360719680786133 0.256673663854599 110
-1.807294249534607 -2.362133502960205 0.1538676917552948 110
-1.7916523218154907 -2.3408429622650146 0.05078649893403053 110
-1.1664499044418335 -1.521246314048767 -0.5034032464027405 119
-1.339793086051941 -1.7466835975646973 -0.4993916451931 119
-1.588989019393921 -2.0708110332489014 -0.4994710087776184 119
-1.8214861154556274 -2.3729496002197266 -0.46773943305015564 110
-1.8458589315414429 -2.4038326740264893 -0.3674364686012268 110
-1.798362374305725 -2.341132402420044 -0.25493094325065613 110
-1.803126573562622 -2.346486806869507 -0.15257327258586884 110
-1.7935097217559814 -2.3331289291381836 -0.050192706286907196 110
-1.7928050756454468 -2.3313701152801514 0.7772445678710938 110
-1.799761176109314 -2.339570999145508 0.6720951795578003 110
-1.789444923400879 -2.325320243835449 0.5623810887336731 110
-1.8007469177246094 -2.3391621112823486 0.4609731137752533 110
-1.78865385055542 -2.3226144313812256 0.3552491366863251 110
-1.8046692609786987 -2.3425650596618652 0.25536632537841797 110
-1.8063849210739136 -2.3439457416534424 0.15308266878128052 110
-1.7906556129455566 -2.322697162628174 0.05052471533417702 110
-1.1569923162460327 -1.4980536699295044 -0.4969327747821808 119
nan nan nan 0
-1.5962079763412476 -2.0652520656585693 -0.4994710087776184 119
-1.8206961154937744 -2.354856252670288 -0.46539291739463806 110
-1.8512024879455566 -2.393449306488037 -0.366827130317688 110
-1.7973792552947998 -2.3230223655700684 -0.2536236047744751 110
-1.8021376132965088 -2.3283326625823975 -0.1517908275127411 110
-1.7924610376358032 -2.314995765686035 -0.0499335341155529 110
-1.7920595407485962 -2.313642740249634 0.7733648419380188 110
-1.7989646196365356 -2.321720600128174 0.6687234044075012 110
-1.788529634475708 -2.3074214458465576 0.5595215559005737 110
-1.799822449684143 -2.3211538791656494 0.45862916111946106 110
-1.7876251935958862 -2.3045928478240967 0.35342106223106384 110
-1.8036746978759766 -2.324445962905884 0.25405898690223694 110
-1.8053706884384155 -2.3257932662963867 0.15229761600494385 110
-1.7895538806915283 -2.30458664894104 0.0502629280090332 110
nan nan nan 0
nan nan nan 0
-1.6034072637557983 -2.0596675872802734 -0.4994710087776184 119
-1.8198022842407227 -2.3367977142333984 -0.4630464017391205 110
-1.8473461866378784 -2.3713128566741943 -0.3643897473812103 110
-1.7962918281555176 -2.304947853088379 -0.25231626629829407 110
-1.8010443449020386 -2.3102142810821533 -0.15100841224193573 110
-1.791307806968689 -2.296898365020752 -0.04967436566948891 110
-1.7912120819091797 -2.2959492206573486 0.7694850564002991 110
-1.798065423965454 -2.3039045333862305 0.6653517484664917 110
-1.7875115871429443 -2.289557695388794 0.5566619634628296 110
-1.7987942695617676 -2.303180456161499 0.4562852084636688 110
-1.7864928245544434 -2.286606788635254 0.3515930473804474 110
-1.805643081665039 -2.3102867603302 0.2531874477863312 110
-1.8042519092559814 -2.3076765537261963 0.15151259303092957 110
-1.7883479595184326 -2.2865123748779297 0.05000114440917969 110
nan nan nan 0
nan nan nan 0
-1.6105870008468628 -2.054058074951172 -0.4994710087776184 119
-1.818804383277893 -2.3187737464904785 -0.4606998860836029 110
-1.8464215993881226 -2.3531370162963867 -0.3625617027282715 110
-1.7951000928878784 -2.2869091033935547 -0.25100892782211304 110
-1.7998460531234741 -2.2921316623687744 -0.15022598206996918 110
-1.7900500297546387 -2.278837203979492 -0.04941519349813461 110
-1.7902631759643555 -2.278289794921875 0.7656053304672241 110
-1.7970638275146484 -2.286123037338257 0.6619800329208374 110
-1.786391019821167 -2.2717294692993164 0.5538024306297302 110
-1.7976628541946411 -2.285242795944214 0.45394131541252136 110
-1.7852567434310913 -2.2686567306518555 0.34976500272750854 110
-1.8044534921646118 -2.2922282218933105 0.25188007950782776 110
-1.8061177730560303 -2.2935187816619873 0.15098923444747925 110
-1.7901312112808228 -2.272401809692383 0.049826618283987045 110
nan nan nan 0
-1.354993462562561 -1.7163352966308594 -0.49601736664772034 119
-1.6207892894744873 -2.0522754192352295 -0.5004242062568665 119
-1.817703127861023 -2.300785779953003 -0.45835334062576294 110
-1.8453930616378784 -2.3349969387054443 -0.36073365807533264 110
-1.793804407119751 -2.268907308578491 -0.249701589345932 110
-1.7985440492630005 -2.2740862369537354 -0.14944356679916382 110
-1.7886883020401 -2.2608132362365723 -0.04915602505207062 110
-1.7892125844955444 -2.260664939880371 0.7617255449295044 110
-1.7959600687026978 -2.2683768272399902 0.6586082577705383 110
-1.7851676940917969 -2.253937005996704 0.5509428381919861 110
-1.7964282035827637 -2.267341375350952 0.4515973627567291 110
-1.7869998216629028 -2.2546329498291016 0.3485462963581085 110
-1.8031600713729858 -2.2742066383361816 0.2505727708339691 110
-1.8048042058944702 -2.2754640579223633 0.15020418167114258 110
-1.788730502128601 -2.2543904781341553 0.04956483095884323 110
nan nan nan 0
nan nan nan 0
-1.6340543031692505 -2.054287910461426 -0.5023306012153625 119
-1.8195732831954956 -2.28669810295105 -0.4567889869213104 110
-1.8442602157592773 -2.316892623901367 -0.3589056134223938 110
-1.7924052476882935 -2.2509422302246094 -0.24839425086975098 110
-1.797137975692749 -2.256077527999878 -0.14866113662719727 110
-1.7872223854064941 -2.242826461791992 -0.048896852880716324 110
-1.7880610227584839 -2.243075370788574 0.7578457593917847 110
-1.7947545051574707 -2.250666379928589 0.6552366018295288 110
-1.7869027853012085 -2.2400176525115967 0.54903644323349 110
-1.795090675354004 -2.249476432800293 0.4492534399032593 110
-1.7886666059494019 -2.240624189376831 0.3473276197910309 110
-1.8017628192901611 -2.2562217712402344 0.2492654174566269 110
-1.8033865690231323 -2.2574470043182373 0.1494191586971283 110
-1.7872260808944702 -2.236417055130005 0.049303047358989716 110
nan nan nan 0
-1.369988203048706 -1.7106367349624634 -0.49714213609695435 119
-1.6442838907241821 -2.0524020195007324 -0.5032837390899658 119
-1.8182793855667114 -2.2687721252441406 -0.45444250106811523 110
-1.8430235385894775 -2.2988247871398926 -0.35707756876945496 110
-1.7940188646316528 -2.236900568008423 -0.24752268195152283 110
-1.7956281900405884 -2.2381067276000977 -0.1478787064552307 110
-1.785652995109558 -2.2248778343200684 -0.04863768070936203 110
-1.7868086099624634 -2.2255218029022217 0.7539660334587097 110
-1.793447494506836 -2.23299241065979 0.6518648266792297 110
-1.7854883670806885 -2.222287893295288 0.5461769104003906 110
-1.7936502695083618 -2.2316486835479736 0.44690951704978943 110
-1.787148118019104 -2.222764253616333 0.34549957513809204 110
-1.8002623319625854 -2.2382750511169434 0.24795809388160706 110
-1.8018652200698853 -2.2394673824310303 0.14863410592079163 110
-1.7887524366378784 -2.2223756313323975 0.049128517508506775 110
nan nan nan 0
-1.382068395614624 -1.713428258895874 -0.4993916451931 119
-1.6606848239898682 -2.0581095218658447 -0.50614333152771 119
-1.8168820142745972 -2.250882863998413 -0.45209595561027527 110
-1.8448013067245483 -2.2846553325653076 -0.35585886240005493 110
-1.792426586151123 -2.2190005779266357 -0.246215358376503 110
-1.797153115272522 -2.224057674407959 -0.14735709130764008 110
-1.783980131149292 -2.206967353820801 -0.048378512263298035 110
-1.7854554653167725 -2.2080042362213135 0.75008624792099 110
-1.792038917541504 -2.2153549194335938 0.6484931707382202 110
-1.7839720249176025 -2.2045950889587402 0.5433173179626465 110
-1.7921074628829956 -2.2138586044311523 0.4445655941963196 110
-1.7855265140533447 -2.204941987991333 0.3436715304851532 110
-1.7986584901809692 -2.2203660011291504 0.24665075540542603 110
-1.8002405166625977 -2.2215261459350586 0.14784908294677734 110
-1.7870546579360962 -2.2044677734375 0.04886673390865326 110
-1.1962922811508179 -1.4730877876281738 -0.4982268810272217 119
-1.3788251876831055 -1.6972492933273315 -0.49601736664772034 119
-1.6492856740951538 -2.0294456481933594 -0.5004242062568665 119
-1.815382480621338 -2.2330315113067627 -0.4497494697570801 110
-1.8433715105056763 -2.266651153564453 -0.3540308475494385 110
-1.7938743829727173 -2.2050023078918457 -0.24534378945827484 110
-1.7954503297805786 -2.2061526775360107 -0.14657466113567352 110
-1.782204270362854 -2.189095973968506 -0.04811934009194374 110
-1.7840020656585693 -2.190523386001587 0.746206521987915 110
-1.7905290126800537 -2.197754383087158 0.6451213955879211 110
-1.7823539972305298 -2.1869404315948486 0.5404577851295471 110
-1.7904622554779053 -2.196106195449829 0.44222164154052734 110
-1.7838025093078613 -2.1871583461761475 0.34184348583221436 110
-1.7969515323638916 -2.202495574951172 0.2453434020280838 110
-1.798512578010559 -2.2036235332489014 0.14706403017044067 110
-1.785253643989563 -2.186598777770996 0.048604946583509445 110
-1.170850157737732 -1.4315185546875 -0.4852859377861023 119
-1.3785711526870728 -1.684884786605835 -0.4937678575515747 119
-1.6501420736312866 -2.016079902648926 -0.49851784110069275 119
-1.8169089555740356 -2.219038963317871 -0.44818511605262756 110
-1.8418383598327637 -2.248685121536255 -0.35220277309417725 110
-1.792089819908142 -2.187168836593628 -0.2440364509820938 110
-1.7936443090438843 -2.188286542892456 -0.14579223096370697 110
-1.7834950685501099 -2.1751298904418945 -0.04794655740261078 110
-1.782448410987854 -2.1730797290802 0.7423267960548401 110
-1.7889184951782227 -2.1801917552948 0.6417497396469116 110
-1.7806345224380493 -2.169323682785034 0.537598192691803 110
-1.791849136352539 -2.1822094917297363 0.4406590163707733 110
-1.781976342201233 -2.1694138050079346 0.3400154411792755 110
-1.7983043193817139 -2.1885128021240234 0.24447184801101685 110
-1.7966817617416382 -2.185760498046875 0.1462789922952652 110
-1.7865248918533325 -2.172631025314331 0.0484304241836071 110
-1.2034763097763062 -1.460972547531128 -0.4969327747821808 119
-1.384443998336792 -1.6800624132156372 -0.4937678575515747 119
-1.6509252786636353 -2.002732753753662 -0.49661147594451904 119
-1.8152179718017578 -2.2012529373168945 -0.4458385705947876 110
-1.8402024507522583 -2.230757474899292 -0.3503747582435608 110
-1.7933731079101562 -2.1732163429260254 -0.24316489696502686 110
-1.7917356491088867 -2.1704602241516113 -0.14500980079174042 110
-1.7815269231796265 -2.1573266983032227 -0.04768738895654678 110
-1.7807948589324951 -2.1556737422943115 0.7384470701217651 110
-1.787207007408142 -2.1626667976379395 0.6383780241012573 110
-1.7819414138793945 -2.155529022216797 0.5356917977333069 110
-1.7900136709213257 -2.1645240783691406 0.43831509351730347 110
-1.7800480127334595 -2.1517088413238525 0.33818739652633667 110
-1.7964056730270386 -2.170710325241089 0.243164524435997 110
-1.7979322671890259 -2.171783208847046 0.14575563371181488 110
-1.784532070159912 -2.1548306941986084 0.048168640583753586 110
nan nan nan 0
-1.3871889114379883 -1.6714707612991333 -0.4926431179046631 119
-1.6516355276107788 -1.9894047975540161 -0.49470508098602295 119
-1.8134253025054932 -2.1835060119628906 -0.4434920847415924 110
-1.8384639024734497 -2.2128684520721436 -0.34854671359062195 110
-1.7913968563079834 -2.1554508209228516 -0.24185754358768463 110
-1.789724588394165 -2.1526741981506348 -0.14422737061977386 110
-1.7826532125473022 -2.1434075832366943 -0.04751460999250412 110
-1.7790414094924927 -2.1383056640625 0.7345672845840454 110
-1.788511872291565 -2.148925542831421 0.6361302137374878 110
-1.780032992362976 -2.13797926902771 0.5328322649002075 110
-1.788076639175415 -2.146878242492676 0.4359711706638336 110
-1.7780181169509888 -2.1340436935424805 0.3363593816757202 110
-1.7944049835205078 -2.1529476642608643 0.24185717105865479 110
-1.7959098815917969 -2.153988838195801 0.1449705958366394 110
-1.7824368476867676 -2.137070894241333 0.04790685325860977 110
nan nan nan 0
-1.3930150270462036 -1.6666184663772583 -0.4926431179046631 119
-1.671163558959961 -1.9986894130706787 -0.49851784110069275 119
-1.8115308284759521 -2.1657986640930176 -0.44114553928375244 110
-1.8366233110427856 -2.195019483566284 -0.3467186689376831 110
-1.7893187999725342 -2.137725830078125 -0.2405502200126648 110
-1.7908166646957397 -2.1387569904327393 -0.14370575547218323 110
-1.7804938554763794 -2.1256747245788574 -0.047255437821149826 110
-1.7802908420562744 -2.124678611755371 0.7319807410240173 110
-1.7866127490997314 -2.131467819213867 0.6327584385871887 110
-1.7780241966247559 -2.120469570159912 0.5299726724624634 110
-1.7892122268676758 -2.133056402206421 0.4344085454940796 110
-1.7790765762329102 -2.1202211380004883 0.3351406753063202 110
-1.7955043315887451 -2.13904070854187 0.24098561704158783 110
-1.7937850952148438 -2.136235237121582 0.14418554306030273 110
-1.7802393436431885 -2.119352340698242 0.047645069658756256 110
nan nan nan 0
-1.3956866264343262 -1.6580184698104858 -0.4915183484554291 119
-1.6812915802001953 -1.9965980052947998 -0.4994710087776184 119
-1.8127164840698242 -2.1519079208374023 -0.4395812153816223 110
-1.8378781080245972 -2.1810050010681152 -0.34549999237060547 110
-1.7903493642807007 -2.1238503456115723 -0.23967866599559784 110
-1.7886148691177368 -2.121041774749756 -0.14292334020137787 110
-1.7814561128616333 -2.111804246902466 -0.047082655131816864 110
-1.7783517837524414 -2.107377767562866 0.7281009554862976 110
-1.784613847732544 -2.1140499114990234 0.6293867826461792 110
-1.7790815830230713 -2.106750249862671 0.5280663371086121 110
-1.7870861291885376 -2.1154797077178955 0.43206459283828735 110
-1.7768568992614746 -2.1026265621185303 0.33331263065338135 110
-1.7933132648468018 -2.1213486194610596 0.239678293466568 110
-1.7915586233139038 -2.118523120880127 0.14340052008628845 110
-1.7779399156570435 -2.101675033569336 0.047383278608322144 110
nan nan nan 0
-1.401465654373169 -1.6531366109848022 -0.4915183484554291 119
-1.694599986076355 -1.998203992843628 -0.5013774037361145 119
-1.810632586479187 -2.1342697143554688 -0.43723466992378235 110
-1.8358464241027832 -2.163224697113037 -0.34367191791534424 110
-1.7880809307098389 -2.106196403503418 -0.23837131261825562 110
-1.7863110303878784 -2.103367328643799 -0.14214091002941132 110
-1.7791064977645874 -2.0941431522369385 -0.04682349041104317 110
-1.779441475868225 -2.093796730041504 0.7255144715309143 110
-1.7856709957122803 -2.100383758544922 0.6271389722824097 110
-1.776884913444519 -2.0893101692199707 0.5252067446708679 110
-1.784859299659729 -2.097944498062134 0.4297206997871399 110
-1.7777526378631592 -2.0888524055480957 0.3320939540863037 110
-1.7942492961883545 -2.1074905395507812 0.23880673944950104 110
-1.7892301082611084 -2.1008522510528564 0.14261546730995178 110
-1.7787811756134033 -2.0878450870513916 0.0472087562084198 110
nan nan nan 0
-1.4066520929336548 -1.6487255096435547 -0.4915183484554291 119
-1.7008692026138306 -1.9928703308105469 -0.5013774037361145 119
-1.8077090978622437 -2.1173036098480225 -0.43488818407058716 110
-1.836187481880188 -2.149899482727051 -0.3424532413482666 110
-1.7849825620651245 -2.089207887649536 -0.23706398904323578 110
-1.7864218950271606 -2.090153694152832 -0.14161927998065948 110
-1.775930404663086 -2.077144145965576 -0.046564314514398575 110
-1.7765926122665405 -2.0771849155426025 0.7216347455978394 110
-1.7827584743499756 -2.0836575031280518 0.6237671971321106 110
-1.7770566940307617 -2.0762598514556885 0.5233003497123718 110
-1.785017490386963 -2.0848240852355957 0.42815807461738586 110
-1.7746213674545288 -2.0719497203826904 0.33026590943336487 110
-1.7911388874053955 -2.090496063232422 0.23749940097332 110
-1.7893226146697998 -2.0876386165618896 0.14209210872650146 110
-1.7755695581436157 -2.070861339569092 0.046946972608566284 110
nan nan nan 0
-1.4123986959457397 -1.6438053846359253 -0.4915183484554291 119
-1.711014747619629 -1.9906433820724487 -0.5023306012153625 119
-1.8054295778274536 -2.0997469425201416 -0.4325416386127472 110
-1.8339720964431763 -2.1321895122528076 -0.34062519669532776 110
-1.785766839981079 -2.0754127502441406 -0.23619243502616882 110
-1.7839349508285522 -2.07255220413208 -0.14083686470985413 110
-1.7766460180282593 -2.0633556842803955 -0.04639153555035591 110
-1.7775282859802246 -2.0636515617370605 0.719048261642456 110
-1.7836605310440063 -2.070040225982666 0.6215193867683411 110
-1.7746797800064087 -2.0588905811309814 0.5204408168792725 110
-1.782608985900879 -2.0673599243164062 0.42581412196159363 110
-1.7753602266311646 -2.0582268238067627 0.32904723286628723 110
-1.7919169664382935 -2.076688528060913 0.23662783205509186 110
-1.786811113357544 -2.070040702819824 0.14130708575248718 110
-1.7762526273727417 -2.0570828914642334 0.046772442758083344 110
-1.2388118505477905 -1.4311327934265137 -0.4969327747821808 119
-1.421889305114746 -1.6420531272888184 -0.4926431179046631 119
-1.718645453453064 -1.9840588569641113 -0.5023306012153625 119
-1.8070107698440552 -2.0853347778320312 -0.4309772849082947 110
-1.8291430473327637 -2.1101319789886475 -0.3381877839565277 110
-1.7839330434799194 -2.057251214981079 -0.2348850816488266 110
-1.7853361368179321 -2.0581436157226562 -0.1403152495622635 110
-1.7747262716293335 -2.0451910495758057 -0.04613236337900162 110
-1.7759406566619873 -2.0458691120147705 0.7151684761047363 110
-1.7820125818252563 -2.052140474319458 0.6181477308273315 110
-1.776134729385376 -2.0446505546569824 0.5185344219207764 110
-1.7840549945831299 -2.053044319152832 0.4242514967918396 110
-1.7734824419021606 -2.04015851020813 0.327219158411026 110
-1.7900724411010742 -2.0585172176361084 0.23532050848007202 110
-1.7881920337677002 -2.0556299686431885 0.14078372716903687 110
-1.774293065071106 -2.038933753967285 0.04651065915822983 110
-1.2437999248504639 -1.4267997741699219 -0.4969327747821808 119
-1.4308143854141235 -1.6407514810562134 -0.4937678575515747 119
-1.7255607843399048 -1.978047490119934 -0.5023306012153625 119
-1.8077846765518188 -2.071572780609131 -0.42941296100616455 110
-1.8201793432235718 -2.0850415229797363 -0.33514106273651123 110
-1.7845505475997925 -2.0435080528259277 -0.23401352763175964 110
-1.7826542854309082 -2.0406177043914795 -0.13953281939029694 110
-1.7752749919891357 -2.0314548015594482 -0.045959584414958954 110
-1.773534893989563 -2.0287487506866455 0.7112887501716614 110
-1.7827504873275757 -2.0385725498199463 0.615899920463562 110
-1.773565649986267 -2.027355432510376 0.515674889087677 110
-1.7847058773040771 -2.0393714904785156 0.42268890142440796 110
-1.7740553617477417 -2.026487350463867 0.32600048184394836 110
-1.7906838655471802 -2.0447616577148438 0.23444895446300507 110
-1.78877592086792 -2.0418641567230225 0.14026035368442535 110
-1.7748146057128906 -2.0252039432525635 0.046336136758327484 110
-1.2392139434814453 -1.411561131477356 -0.4930504858493805 119
-1.439747929573059 -1.6394078731536865 -0.4948926270008087 119
-1.7324548959732056 -1.9720121622085571 -0.5023306012153625 119
-1.805224895477295 -2.054121255874634 -0.427066445350647 110
-1.8143396377563477 -2.0637662410736084 -0.33270367980003357 110
-1.785094141960144 -2.0297858715057373 -0.2331419736146927 110
-1.783170461654663 -2.0268847942352295 -0.1390112042427063 110
-1.775749683380127 -2.017739772796631 -0.04578680172562599 110
-1.771031141281128 -2.0116701126098633 0.7074089646339417 110
-1.78341543674469 -2.0250244140625 0.6136521100997925 110
-1.7741425037384033 -2.0137863159179688 0.5137684941291809 110
-1.7820180654525757 -2.0220141410827637 0.4203449785709381 110
-1.7712724208831787 -2.0091145038604736 0.3241724371910095 110
-1.7879266738891602 -2.0272915363311768 0.23314161598682404 110
-1.7892858982086182 -2.028118848800659 0.13973699510097504 110
-1.775252103805542 -2.0115044116973877 0.04616161435842514 110
-1.2601282596588135 -1.4253182411193848 -0.4995209574699402 119
-1.4486891031265259 -1.6380213499069214 -0.49601736664772034 119
-1.7393279075622559 -1.965952754020691 -0.5023306012153625 119
-1.8058381080627441 -2.0404112339019775 -0.42550209164619446 110
-1.805083990097046 -2.038841962814331 -0.3296569287776947 110
-1.7822610139846802 -2.0123558044433594 -0.23183462023735046 110
-1.7836122512817383 -2.0131733417510986 -0.13848958909511566 110
-1.7761503458023071 -2.0040462017059326 -0.04561402276158333 110
-1.7716339826583862 -1.998247742652893 0.7048224806785583 110
-1.7807748317718506 -2.0078516006469727 0.6102803945541382 110
-1.7713884115219116 -1.9965662956237793 0.5109089016914368 110
-1.7825087308883667 -2.0083940029144287 0.4187823235988617 110
-1.7716851234436035 -1.995497226715088 0.3229537308216095 110
-1.788376808166504 -2.01358962059021 0.23227006196975708 110
-1.7897217273712158 -2.0143954753875732 0.13921363651752472 110
-1.7722992897033691 -1.9940850734710693 0.04589982330799103 110
-1.258672833442688 -1.4136968851089478 -0.4969327747821808 119
-1.4543980360031128 -1.6329543590545654 -0.49601736664772034 119
-1.7429146766662598 -1.9562047719955444 -0.5013774037361145 119
-1.8063777685165405 -2.026721954345703 -0.42393776774406433 110
-1.7989792823791504 -2.017711639404297 -0.32721954584121704 110
-1.7826437950134277 -1.998687744140625 -0.2309630662202835 110
-1.7806559801101685 -1.9957576990127563 -0.13770714402198792 110
-1.7764772176742554 -1.9903748035430908 -0.045441243797540665 110
-1.7689483165740967 -1.9812431335449219 0.7009427547454834 110
-1.78128182888031 -1.9943561553955078 0.6080325841903687 110
-1.7718064785003662 -1.9830505847930908 0.5090025067329407 110
-1.7796354293823242 -1.991113305091858 0.41643840074539185 110
-1.772024393081665 -1.9819014072418213 0.32173505425453186 110
-1.7887535095214844 -1.9999096393585205 0.23139849305152893 110
-1.7867542505264282 -1.996972680091858 0.13842859864234924 110
-1.7725809812545776 -1.9804363250732422 0.045725300908088684 110
-1.2668241262435913 -1.4128904342651367 -0.4982268810272217 119
-1.4633424282073975 -1.6314946413040161 -0.49714213609695435 119
-1.7464544773101807 -1.946455478668213 -0.5004242062568665 119
-1.8068441152572632 -2.0130538940429688 -0.4223734140396118 110
-1.7993801832199097 -2.0040342807769775 -0.3260008692741394 110
-1.782952904701233 -1.9850417375564575 -0.23009151220321655 110
-1.7809371948242188 -1.982101559638977 -0.13718552887439728 110
-1.7767302989959717 -1.976725459098816 -0.0452684611082077 110
-1.7693947553634644 -1.967873215675354 0.6983562111854553 110
-1.7784582376480103 -1.9772592782974243 0.6046608686447144 110
-1.7688686847686768 -1.9659076929092407 0.5061429738998413 110
-1.779966950416565 -1.9775477647781372 0.4148758053779602 110
-1.7722901105880737 -1.9683277606964111 0.32051634788513184 110
