# .PCD v0.7 - Point Cloud Data file format
VERSION 0.7
FIELDS x y z intensity
SIZE 4 4 4 4
TYPE F F F F
COUNT 1 1 1 1
WIDTH 762
HEIGHT 1
VIEWPOINT 0 0 0 1 0 0 0
POINTS 762
DATA ascii
-1.6722371578216553 -0.8348403573036194 -0.3555395007133484 50
-1.6736042499542236 -0.8351579308509827 -0.29018616676330566 50
-1.6906957626342773 -0.8433184027671814 -0.22728659212589264 50
-1.6657289266586304 -0.830501914024353 -0.1594952493906021 50
-1.652000904083252 -0.8232974410057068 -0.09441285580396652 40
-1.6675326824188232 -0.8306745886802673 -0.031532421708106995 50
-1.6642112731933594 -0.8286575675010681 0.4875560998916626 40
-1.6698726415634155 -0.831112802028656 0.42146435379981995 40
-1.6690068244934082 -0.8303184509277344 0.35458606481552124 40
-1.6748141050338745 -0.8328428864479065 0.2898661196231842 50
-1.6607633829116821 -0.8254943490028381 0.22302088141441345 40
-1.6802691221237183 -0.8348242044448853 0.16080233454704285 50
-1.6710220575332642 -0.8298662304878235 0.09577479213476181 50
-1.664207935333252 -0.8261201977729797 0.03176337853074074 50
-1.6961616277694702 -0.8401379585266113 -0.4969327747821808 119
-1.6759096384048462 -0.8297425508499146 -0.4229082465171814 0
-1.6707420349121094 -0.8268210291862488 -0.35458630323410034 50
-1.6765092611312866 -0.8293108940124512 -0.29018616676330566 50
-1.6936291456222534 -0.837411642074585 -0.22728659212589264 50
-1.6730830669403076 -0.8268892765045166 -0.1599310338497162 50
-1.6593413352966309 -0.819737434387207 -0.09467366337776184 40
-1.6749045848846436 -0.8270622491836548 -0.031618811190128326 50
-1.6670936346054077 -0.8228432536125183 0.4875560998916626 40
-1.6771327257156372 -0.8274344205856323 0.4225882589817047 50
-1.671894907951355 -0.8244875073432922 0.35458606481552124 50
-1.6821407079696655 -0.8291751742362976 0.2906474471092224 50
-1.6636348962783813 -0.8196921944618225 0.22302088141441345 40
-1.6831729412078857 -0.8289538621902466 0.16080233454704285 50
-1.6783884763717651 -0.8262335062026978 0.09603647142648697 50
-1.6715672016143799 -0.8225131630897522 0.03185063973069191 50
-1.699083924293518 -0.8342121243476868 -0.4969327747821808 119
-1.6831693649291992 -0.826033890247345 -0.424032986164093 0
-1.6780246496200562 -0.8231456875801086 -0.3555395007133484 50
-1.6793938875198364 -0.8234537243843079 -0.29018616676330566 50
-1.700998306274414 -0.8336787819862366 -0.22789593040943146 50
-1.6804323196411133 -0.8232353925704956 -0.16036680340766907 50
-1.6666771173477173 -0.8161361217498779 -0.09493447840213776 50
-1.6822717189788818 -0.8234084844589233 -0.03170520067214966 50
-1.6742942333221436 -0.8191416263580322 0.48884934186935425 50
-1.684387445449829 -0.8237154483795166 0.4237121641635895 50
-1.6791725158691406 -0.8208019733428955 0.3555392324924469 50
-1.6894621849060059 -0.8254664540290833 0.2914287745952606 50
-1.670945167541504 -0.8160578608512878 0.22363023459911346 50
-1.695008635520935 -0.8274435997009277 0.161673903465271 50
-1.6857497692108154 -0.8225594162940979 0.09629815071821213 50
-1.6834145784378052 -0.8210563659667969 0.032025162130594254 50
-1.7019855976104736 -0.8282761573791504 -0.4969327747821808 119
-1.6948045492172241 -0.8244156837463379 -0.42628249526023865 0
-1.6853020191192627 -0.8194295167922974 -0.35649266839027405 50
-1.6866998672485352 -0.8197452425956726 -0.2909683585166931 50
-1.7128256559371948 -0.8320730924606323 -0.2291146218776703 50
-1.6967377662658691 -0.8238917589187622 -0.1616741418838501 50
-1.6784998178482056 -0.8146738409996033 -0.0954560935497284 50
-1.6941313743591309 -0.8218954801559448 -0.03187798336148262 50
-1.6858351230621338 -0.8175070881843567 0.49143585562705994 50
-1.6916368007659912 -0.8199558854103088 0.42483606934547424 50
-1.6908615827560425 -0.8192157745361328 0.357445627450943 50
-1.7056676149368286 -0.8260216116905212 0.29377269744873047 50
-1.6827174425125122 -0.8145447969436646 0.2248489260673523 50
-1.706853985786438 -0.8258607387542725 0.16254545748233795 50
-1.6976007223129272 -0.8210179805755615 0.09682150930166245 50
-1.6952722072601318 -0.819526731967926 0.032199688255786896 50
-1.7048662900924683 -0.8223300576210022 -0.4969327747821808 119
-1.7064487934112549 -0.8227262496948242 -0.4285320043563843 0
-1.6969952583312988 -0.8178033828735352 -0.35839906334877014 50
-1.7028985023498535 -0.8202820420265198 -0.2933148741722107 50
-1.7246625423431396 -0.830394983291626 -0.23033331334590912 50
-1.7085797786712646 -0.8222841024398804 -0.16254571080207825 50
-1.6903325319290161 -0.8131389617919922 -0.09597770869731903 50
-1.7060009241104126 -0.8203096389770508 -0.032050762325525284 50
-1.6973847150802612 -0.8158019185066223 0.4940223693847656 50
-1.703271746635437 -0.8182653784751892 0.4270838797092438 50
-1.7025601863861084 -0.8175578713417053 0.3593519926071167 50
-1.7174450159072876 -0.8243366479873657 0.2953353226184845 50
-1.6944992542266846 -0.8129593133926392 0.22606761753559113 50
-1.718708872795105 -0.8242052793502808 0.1634170264005661 50
-1.7094616889953613 -0.8194038271903992 0.09734487533569336 50
-1.707139492034912 -0.8179243206977844 0.03237421065568924 50
-1.7077264785766602 -0.8163739442825317 -0.4969327747821808 119
-1.7181018590927124 -0.8209654688835144 -0.4307815134525299 0
-1.70869779586792 -0.8161056637763977 -0.36030542850494385 50
-1.7146646976470947 -0.8185880184173584 -0.2948791980743408 50
-1.7409874200820923 -0.8307815790176392 -0.23216135799884796 50
-1.7249270677566528 -0.8227481245994568 -0.16385304927825928 50
-1.7066820859909058 -0.8136801719665527 -0.09676013886928558 50
-1.7178800106048584 -0.8186509609222412 -0.032223545014858246 50
-1.7133034467697144 -0.8161030411720276 0.4979020953178406 50
-1.71491539478302 -0.8165037035942078 0.4293316900730133 50
-1.71869957447052 -0.817937433719635 0.36221155524253845 50
-1.7336912155151367 -0.8247010111808777 0.29767924547195435 50
-1.7107726335525513 -0.8134326338768005 0.22789566218852997 50
-1.7305729389190674 -0.8224769830703735 0.16428858041763306 50
-1.7213318347930908 -0.8177167773246765 0.09786823391914368 50
-1.719016194343567 -0.8162490725517273 0.03254873678088188 50
-1.7105656862258911 -0.8104078769683838 -0.4969327747821808 119
-1.7297632694244385 -0.8191334009170532 -0.43303102254867554 0
-1.7204089164733887 -0.8143360018730164 -0.36221182346343994 50
-1.7264395952224731 -0.8168218731880188 -0.29644355177879333 50
-1.7528494596481323 -0.8289426565170288 -0.2333800494670868 50
-1.7367948293685913 -0.8209792971611023 -0.16472460329532623 50
-1.7185413837432861 -0.8119840025901794 -0.09728176146745682 50
-1.72976815700531 -0.8169191479682922 -0.03239632397890091 50
-1.724877119064331 -0.8142411112785339 0.5004886388778687 50
-1.730973720550537 -0.816749632358551 0.4327034056186676 50
-1.7304229736328125 -0.8161206245422363 0.36411792039871216 50
-1.7454936504364014 -0.8228560090065002 0.2992418706417084 50
-1.722580075263977 -0.8116866946220398 0.2291143536567688 50
-1.746951937675476 -0.8227982521057129 0.1655959188938141 50
-1.737728238105774 -0.8180834650993347 0.09865327179431915 50
-1.735425353050232 -0.8166292905807495 0.032810524106025696 50
-1.7133841514587402 -0.8044319748878479 -0.4969327747821808 119
-1.7458430528640747 -0.8192995190620422 -0.4364053010940552 0
-1.7321282625198364 -0.8124945759773254 -0.36411818861961365 50
-1.7426944971084595 -0.8170797824859619 -0.2987900674343109 50
-1.7647199630737305 -0.8270309567451477 -0.23459874093532562 50
-1.748671293258667 -0.8191376328468323 -0.16559617221355438 50
-1.7304093837738037 -0.8102148771286011 -0.09780337661504745 50
-1.7461929321289062 -0.8172335028648376 -0.0326554961502552 50
-1.7408332824707031 -0.8143548369407654 0.5043683648109436 50
-1.7426409721374512 -0.8148297667503357 0.43495121598243713 50
-1.7466011047363281 -0.816309928894043 0.3669774830341339 50
-1.7617783546447754 -0.8230288028717041 0.3015857934951782 50
-1.7388927936553955 -0.8119679689407349 0.23094239830970764 50
-1.7588404417037964 -0.8209084868431091 0.16646747291088104 50
-1.74962317943573 -0.8162346482276917 0.09917663782835007 50
-1.7473270893096924 -0.8147921562194824 0.03298504650592804 50
-1.716181755065918 -0.7984462380409241 -0.4969327747821808 119
-1.757527470588684 -0.8173090219497681 -0.4386548101902008 119
-1.7438558340072632 -0.8105810880661011 -0.36602455377578735 50
-1.754493236541748 -0.8151533007621765 -0.3003544211387634 50
-1.7810990810394287 -0.8271366953849792 -0.23642678558826447 50
-1.7605558633804321 -0.8172229528427124 -0.16646772623062134 50
-1.7422858476638794 -0.8083726763725281 -0.09832499921321869 50
-1.7581055164337158 -0.8153397440910339 -0.03282827511429787 50
-1.7524291276931763 -0.8123356699943542 0.5069548487663269 50
-1.758736491203308 -0.8148865103721619 0.43832293152809143 50
-1.758347511291504 -0.8143335580825806 0.36888387799263 50
-1.7736040353775024 -0.8210232853889465 0.30314841866493225 50
-1.7507245540618896 -0.8100610971450806 0.23216108977794647 50
-1.7707370519638062 -0.8189457058906555 0.167339026927948 50
-1.7660586833953857 -0.8164078593254089 0.09996167570352554 50
-1.763775110244751 -0.8149786591529846 0.033246833831071854 50
-1.7189583778381348 -0.7924507856369019 -0.4969327747821808 119
-1.7736436128616333 -0.8172857761383057 -0.44202908873558044 119
-1.7600492238998413 -0.8106490969657898 -0.3688841164112091 50
-1.7662997245788574 -0.8131543397903442 -0.30191877484321594 50
-1.792992115020752 -0.8250634670257568 -0.2376454770565033 50
-1.7769736051559448 -0.8173165917396545 -0.16777506470680237 50
-1.7541704177856445 -0.8064574003219604 -0.09884661436080933 50
-1.7700260877609253 -0.8133726716041565 -0.03300105407834053 50
-1.7640321254730225 -0.8102455139160156 0.509541392326355 50
-1.77042555809021 -0.8128079771995544 0.4405707120895386 50
-1.7745624780654907 -0.8143321871757507 0.37174344062805176 50
-1.7899258136749268 -0.8210041522979736 0.3054923415184021 50
-1.7670750617980957 -0.8101497292518616 0.23398913443088531 50
-1.7826411724090576 -0.8169097900390625 0.16821058094501495 50
-1.7779768705368042 -0.8143969178199768 0.10048503428697586 50
-1.7757002115249634 -0.8129791617393494 0.0334213562309742 50
-1.7217140197753906 -0.786445677280426 -0.4969327747821808 119
-1.7853492498397827 -0.8151364326477051 -0.4442785978317261 119
-1.7717986106872559 -0.8085759282112122 -0.3707905113697052 50
-1.7781137228012085 -0.8110828995704651 -0.30348309874534607 50
-1.8048923015594482 -0.8229174017906189 -0.23886416852474213 50
-1.7888805866241455 -0.8152400255203247 -0.16864661872386932 50
-1.766062617301941 -0.8044690489768982 -0.09936822950839996 50
-1.7865040302276611 -0.8134039044380188 -0.033260226249694824 50
-1.7800378799438477 -0.8100847601890564 0.5134211778640747 50
-1.786556363105774 -0.8126749396324158 0.44394242763519287 50
-1.7907986640930176 -0.8142274618148804 0.3746030032634735 50
-1.801772952079773 -0.8188377618789673 0.30705496668815613 50
-1.7789291143417358 -0.8080815076828003 0.23520782589912415 50
-1.7990881204605103 -0.816860020160675 0.16951791942119598 50
-1.7944492101669312 -0.8143760561943054 0.10127007216215134 50
-1.7921853065490723 -0.8129714131355286 0.03368314355611801 50
-1.7244486808776855 -0.7804309725761414 -0.4969327747821808 119
-1.8015004396438599 -0.8149232864379883 -0.4476528763771057 119
-1.7880275249481201 -0.808452844619751 -0.37365007400512695 50
-1.7944345474243164 -0.8109726309776306 -0.30582961440086365 50
-1.8167991638183594 -0.8206982016563416 -0.24008287489414215 50
-1.805334448814392 -0.815139889717102 -0.16995395720005035 50
-1.7825136184692383 -0.8044614195823669 -0.10015065968036652 50
-1.7984464168548584 -0.8112742304801941 -0.03343300521373749 50
-1.7916606664657593 -0.8078368306159973 0.516007661819458 50
-1.798265814781189 -0.8104374408721924 0.4461902678012848 50
-1.8025802373886108 -0.8120033740997314 0.3765093684196472 50
-1.8181296586990356 -0.8186261057853699 0.309398889541626 50
-1.79079008102417 -0.8059404492378235 0.23642651736736298 50
-1.8110134601593018 -0.8146618008613586 0.17038947343826294 50
-1.8063889741897583 -0.812202513217926 0.10179343074560165 50
-1.804132103919983 -0.8108091950416565 0.033857665956020355 50
-1.727162480354309 -0.7744067907333374 -0.4969327747821808 119
-1.813225507736206 -0.8126147985458374 -0.44990238547325134 119
-1.7997974157333374 -0.8062196373939514 -0.37555643916130066 50
-1.8062690496444702 -0.8087400794029236 -0.30739396810531616 50
-1.833242416381836 -0.8204330801963806 -0.241910919547081 50
-1.8172625303268433 -0.812900960445404 -0.1708255112171173 50
-1.7944273948669434 -0.8023104071617126 -0.10067227482795715 50
-1.81496000289917 -0.81111079454422 -0.03369217738509178 50
-1.8076993227005005 -0.807487428188324 0.519887387752533 50
-1.8144302368164062 -0.8101142644882202 0.4495619833469391 50
-1.8188503980636597 -0.8117071390151978 0.37936896085739136 50
-1.8299964666366577 -0.8162984251976013 0.31096151471138 50
-1.8071902990341187 -0.8057471513748169 0.23825454711914062 50
-1.8274950981140137 -0.814417839050293 0.17169681191444397 50
-1.8228964805603027 -0.8119872212409973 0.10257846862077713 50
-1.8160853385925293 -0.8085734248161316 0.0340321883559227 50
-1.7298551797866821 -0.7683731317520142 -0.4969327747821808 119
-1.8294092416763306 -0.8122110962867737 -0.4532766342163086 119
-1.8160600662231445 -0.8059050440788269 -0.3784160315990448 50
-1.8226239681243896 -0.808437168598175 -0.30974048376083374 50
-1.8451687097549438 -0.8180516958236694 -0.24312961101531982 50
-1.8291966915130615 -0.810588538646698 -0.17169708013534546 50
-1.8109132051467896 -0.8021082878112793 -0.10145469754934311 50
-1.8269227743148804 -0.8088180422782898 -0.033864956349134445 50
-1.8237571716308594 -0.8070358633995056 0.5237671136856079 50
-1.8306137323379517 -0.8096880316734314 0.452933669090271 50
-1.830651044845581 -0.8093225359916687 0.38127532601356506 50
-1.8463863134384155 -0.815893828868866 0.31330543756484985 50
-1.8190711736679077 -0.8034440875053406 0.23947323858737946 50
-1.8439968824386597 -0.8140687346458435 0.173004150390625 50
-1.8348561525344849 -0.8096506595611572 0.10310182720422745 50
-1.832619071006775 -0.808281421661377 0.03429397568106651 50
-1.7325267791748047 -0.7623301148414612 -0.4969327747821808 119
-1.841152310371399 -0.8097430467605591 -0.4555261433124542 119
-1.8323420286178589 -0.8054866194725037 -0.38127559423446655 50
-1.838998556137085 -0.80802983045578 -0.3120870292186737 50
-1.8616445064544678 -0.8175925016403198 -0.24495765566825867 50
-1.8456977605819702 -0.810204803943634 -0.1730044186115265 50
-1.827419400215149 -0.8018007874488831 -0.10223712772130966 50
-1.8434699773788452 -0.8084595203399658 -0.03412412852048874 50
-1.8354101181030273 -0.8045428991317749 0.526353657245636 50
-1.8468166589736938 -0.8091586828231812 0.4563054144382477 50
-1.84695303440094 -0.8088342547416687 0.38413485884666443 50
-1.8627955913543701 -0.8153846859931946 0.3156493902206421 50
-1.8355045318603516 -0.803057074546814 0.2413012832403183 50
-1.8559547662734985 -0.811618447303772 0.17387570440769196 50
-1.8468215465545654 -0.8072404861450195 0.10362518578767776 50
-1.844591498374939 -0.8058823347091675 0.03446849808096886 50
-1.7351772785186768 -0.7562777996063232 -0.4969327747821808 119
-1.857366919517517 -0.8091486096382141 -0.45890042185783386 119
-1.8486429452896118 -0.8049641251564026 -0.3841351270675659 50
-1.855392336845398 -0.807517945766449 -0.3144335448741913 50
-1.8781393766403198 -0.8170281648635864 -0.24678568542003632 50
-1.8576503992080688 -0.8077294826507568 -0.17387597262859344 50
-1.8439452648162842 -0.8013877272605896 -0.10301955044269562 50
-1.8554515838623047 -0.8060033917427063 -0.0342969074845314 50
-1.8514981269836426 -0.8039019703865051 0.5302334427833557 50
-1.8630377054214478 -0.8085259199142456 0.4596771001815796 50
-1.8587710857391357 -0.8062887191772461 0.3860412538051605 50
-1.8746925592422485 -0.8128063678741455 0.31721198558807373 50
-1.8519572019577026 -0.8025650978088379 0.24312932789325714 50
-1.8724881410598755 -0.8110742568969727 0.17518304288387299 50
-1.8633744716644287 -0.806740403175354 0.10441023111343384 50
-1.8611576557159424 -0.8053950071334839 0.03473028913140297 50
-1.7378065586090088 -0.7502163052558899 -0.4969327747821808 119
-1.8735997676849365 -0.8084507584571838 -0.4622747302055359 119
-1.8649625778198242 -0.8043377995491028 -0.38699471950531006 50
-1.8718048334121704 -0.8069013357162476 -0.3167800307273865 50
-1.8946528434753418 -0.8163586258888245 -0.24861374497413635 50
-1.8741828203201294 -0.8071507811546326 -0.17518331110477448 50
-1.8604904413223267 -0.8008689880371094 -0.10380198806524277 50
-1.8720303773880005 -0.8054492473602295 -0.034556079655885696 50
-1.8676038980484009 -0.8031584620475769 0.5341131687164307 50
-1.8792768716812134 -0.8077897429466248 0.4630488157272339 50
-1.8751033544540405 -0.8056080937385559 0.3889008164405823 50
-1.8911317586898804 -0.8121035099029541 0.3195559084415436 50
-1.863867998123169 -0.8000103831291199 0.24434801936149597 50
-1.889040470123291 -0.8104245662689209 0.17649036645889282 50
-1.8799463510513306 -0.8061345219612122 0.10519526898860931 50
-1.8777424097061157 -0.8048015832901001 0.034992072731256485 50
-1.7404147386550903 -0.7441456913948059 -0.4969327747821808 119
-1.8898500204086304 -0.8076493740081787 -0.46564894914627075 119
-1.8813000917434692 -0.803607165813446 -0.3898542523384094 50
-1.8882354497909546 -0.806179940700531 -0.31912657618522644 50
-1.9111844301223755 -0.8155837059020996 -0.2504417896270752 50
-1.8907334804534912 -0.806466281414032 -0.1764906346797943 50
-1.87705397605896 -0.8002443313598633 -0.10458440333604813 50
-1.8886277675628662 -0.804789125919342 -0.03481524810194969 50
-1.883726954460144 -0.8023122549057007 0.5379928946495056 50
-1.895533561706543 -0.8069500923156738 0.46642056107521057 50
-1.8914533853530884 -0.8048232197761536 0.3917604088783264 50
-1.9075891971588135 -0.8112958669662476 0.3218998610973358 50
-1.880350947380066 -0.7993239760398865 0.24617606401443481 50
-1.9010263681411743 -0.8077212572097778 0.17736192047595978 50
-1.8919405937194824 -0.803471028804779 0.10571862757205963 50
-1.8943458795547485 -0.8041023015975952 0.0352538600564003 50
-1.7430015802383423 -0.7380659580230713 -0.4969327747821808 119
-1.9016309976577759 -0.80484539270401 -0.4678984582424164 119
-1.8931348323822021 -0.8008599877357483 -0.3917606770992279 50
-1.9001351594924927 -0.803430438041687 -0.32069090008735657 50
-1.9277334213256836 -0.8147031664848328 -0.25226983428001404 50
-1.9118906259536743 -0.8076143860816956 -0.17823375761508942 50
-1.8936361074447632 -0.7995139360427856 -0.10536684095859528 50
-1.9052432775497437 -0.8040227890014648 -0.035074420273303986 50
-1.8998665809631348 -0.8013632297515869 0.5418726801872253 50
-1.9118068218231201 -0.8060065507888794 0.4697922468185425 50
-1.9078205823898315 -0.80393385887146 0.3946199417114258 50
-1.9240636825561523 -0.8103830814361572 0.32424381375312805 50
-1.8968513011932373 -0.7985319495201111 0.24800409376621246 50
-1.9176077842712402 -0.806876003742218 0.178669273853302 50
-1.9085414409637451 -0.802669107913971 0.10650365799665451 50
-1.9109668731689453 -0.8032966256141663 0.035515643656253815 50
-1.7455673217773438 -0.7319772839546204 -0.4969327747821808 119
-1.9179081916809082 -0.8038522601127625 -0.4712727665901184 119
-1.909500002861023 -0.7999362945556641 -0.39462023973464966 50
-1.9165937900543213 -0.802514910697937 -0.32303744554519653 50
-1.9442994594573975 -0.8137169480323792 -0.2540978789329529 50
-1.9284836053848267 -0.8067023754119873 -0.17954111099243164 50
-1.9056289196014404 -0.7967512607574463 -0.10588845610618591 50
-1.9218761920928955 -0.8031502366065979 -0.03533358871936798 50
-1.9204789400100708 -0.8021726608276367 0.5470457077026367 50
-1.9280966520309448 -0.8049592971801758 0.47316399216651917 50
-1.9242045879364014 -0.8029400110244751 0.3974795341491699 50
-1.9405546188354492 -0.8093650341033936 0.3265877068042755 50
-1.9133691787719727 -0.7976345419883728 0.2498321384191513 50
-1.934206247329712 -0.8059247732162476 0.17997661232948303 50
-1.9251599311828613 -0.8017611503601074 0.10728870332241058 50
-1.9322208166122437 -0.8043060302734375 0.0358646959066391 50
-1.7481117248535156 -0.7258796095848083 -0.4969327747821808 119
-1.9252021312713623 -0.7990200519561768 -0.47239747643470764 119
-1.9258817434310913 -0.7989081740379333 -0.3974798023700714 50
-1.933069109916687 -0.8014941811561584 -0.3253839612007141 50
-1.9608818292617798 -0.8126249313354492 -0.25592589378356934 50
-1.949695110321045 -0.8075903058052063 -0.18128421902656555 50
-1.9222385883331299 -0.795824408531189 -0.10667087882757187 50
-1.9385260343551636 -0.8021712899208069 -0.035592760890722275 50
-1.9366568326950073 -0.8010019063949585 0.5509254336357117 50
-1.9444020986557007 -0.8038079738616943 0.4765356779098511 50
-1.9406044483184814 -0.8018414378166199 0.4003390669822693 50
-1.957062005996704 -0.8082417249679565 0.32893165946006775 50
-1.9299036264419556 -0.7966315150260925 0.25166019797325134 50
-1.9554253816604614 -0.8067669868469238 0.18171973526477814 50
-1.9464111328125 -0.8026503324508667 0.10833542048931122 50
-1.9488826990127563 -0.8032715916633606 0.036126479506492615 50
-1.7551016807556152 -0.7216097116470337 -0.4982268810272217 119
-1.932485818862915 -0.7941468358039856 -0.47352227568626404 119
-1.9422792196273804 -0.7977752089500427 -0.40033936500549316 0
-1.9495604038238525 -0.8003682494163513 -0.3277304768562317 50
-1.9820715188980103 -0.8133110404014587 -0.258363276720047 50
-1.9663276672363281 -0.8064498901367188 -0.18259157240390778 50
-1.9434854984283447 -0.7966853976249695 -0.10771412402391434 50
-1.9551925659179688 -0.801085889339447 -0.03585193306207657 50
-1.9573194980621338 -0.8015583753585815 0.556098461151123 50
-1.9652317762374878 -0.8043980598449707 0.48103129863739014 50
-1.9615627527236938 -0.802496612071991 0.4041518270969391 50
-1.9781559705734253 -0.8088821172714233 0.3320569097995758 50
-1.9510481357574463 -0.7974001169204712 0.254097580909729 50
-1.9720629453659058 -0.8055872321128845 0.18302705883979797 50
-1.963069200515747 -0.8015135526657104 0.10912046581506729 50
-1.9655606746673584 -0.8021305799484253 0.03638826683163643 50
-1.7576099634170532 -0.7154788374900818 -0.4982268810272217 119
-1.9352459907531738 -0.7873963713645935 -0.47352227568626404 119
-1.9586924314498901 -0.7965375781059265 -0.4031989574432373 0
-1.9660670757293701 -0.7991368174552917 -0.33007699251174927 50
-1.9986919164657593 -0.8119910955429077 -0.2601913511753082 50
-1.9875907897949219 -0.8070770502090454 -0.1843346804380417 50
-1.9601343870162964 -0.7955296635627747 -0.10849654674530029 50
-1.976507544517517 -0.8017730116844177 -0.036197494715452194 50
-1.9780091047286987 -0.8019801378250122 0.5612714290618896 50
-1.9815738201141357 -0.8030228018760681 0.4844030439853668 50
-1.9780001640319824 -0.80117267370224 0.4070114195346832 50
-1.99927818775177 -0.8093850016593933 0.3351821303367615 50
-1.967620849609375 -0.7961692214012146 0.25592559576034546 50
-1.9933334589004517 -0.8061685562133789 0.18477016687393188 50
-1.9843720197677612 -0.8021413683891296 0.11016718298196793 50
-1.986889362335205 -0.8027555346488953 0.036737315356731415 50
-1.760096788406372 -0.7093393206596375 -0.4982268810272217 119
-1.9425017833709717 -0.7824565768241882 -0.47464698553085327 119
-1.9796736240386963 -0.7970281839370728 -0.4070116877555847 0
-1.9825890064239502 -0.797799825668335 -0.33242350816726685 50
-2.0199310779571533 -0.8124168515205383 -0.2626287341117859 50
-2.004260540008545 -0.8057076334953308 -0.18564200401306152 50
-1.9814321994781494 -0.796129047870636 -0.10953977704048157 50
-2.0024898052215576 -0.8041840195655823 -0.03662944212555885 50
-1.9987258911132812 -0.8022674322128296 0.5664445161819458 50
-2.0024516582489014 -0.8033571243286133 0.4888986349105835 50
-1.9990074634552002 -0.8015702962875366 0.41082414984703064 50
-2.0250117778778076 -0.8115874528884888 0.33908867835998535 50
-1.988815426826477 -0.7966777682304382 0.2583629786968231 50
-2.014631748199463 -0.8066112399101257 0.1865132749080658 50
-2.0057027339935303 -0.8026301264762878 0.11121390759944916 50
-2.008246421813965 -0.803241491317749 0.0370863638818264 50
-1.7625620365142822 -0.7031911015510559 -0.4982268810272217 119
-1.9452213048934937 -0.7756712436676025 -0.47464698553085327 119
-2.0006818771362305 -0.7973818778991699 -0.4108244478702545 0
-1.9991252422332764 -0.7963570952415466 -0.3347700238227844 50
-2.0411975383758545 -0.8127039670944214 -0.26506611704826355 50
-2.020944595336914 -0.8042316436767578 -0.18694935739040375 50
-2.0027577877044678 -0.7965893745422363 -0.11058301478624344 50
-2.023866891860962 -0.8045763969421387 -0.03697500377893448 50
-2.019468069076538 -0.8024195432662964 0.5716174840927124 50
-2.0188279151916504 -0.8017572164535522 0.4922703802585602 50
-2.0200414657592773 -0.8018310070037842 0.41463690996170044 50
-2.0370137691497803 -0.808156430721283 0.34065133333206177 50
-2.010037422180176 -0.7970479726791382 0.2608003616333008 50
-2.035957098007202 -0.8069148063659668 0.1882563978433609 50
-2.031702995300293 -0.8048185110092163 0.11252229660749435 50
-2.0296308994293213 -0.803587794303894 0.03743540868163109 50
-1.7651276588439941 -0.6967262625694275 -0.4982268810272217 119
-1.9524486064910889 -0.7706651091575623 -0.47577178478240967 119
-2.0262820720672607 -0.799399733543396 -0.41559040546417236 0
-2.0156753063201904 -0.7948086857795715 -0.337116539478302 50
-2.057873249053955 -0.8110328912734985 -0.2668941617012024 50
-2.03764271736145 -0.8026489019393921 -0.18825668096542358 50
-2.0241105556488037 -0.7969104051589966 -0.11162624508142471 50
-2.045271396636963 -0.8048293590545654 -0.037320561707019806 50
-2.040235757827759 -0.8024365901947021 0.5767905116081238 50
-2.0397515296936035 -0.8018351197242737 0.49676600098609924 50
-2.0365331172943115 -0.8001595735549927 0.4174965023994446 50
-2.0398223400115967 -0.8010410070419312 0.34065133333206177 50
-2.0312857627868652 -0.7972794771194458 0.26323774456977844 50
-2.0526723861694336 -0.8052603602409363 0.18956373631954193 50
-2.0484459400177 -0.8031898140907288 0.11330734193325043 50
-2.0417323112487793 -0.8001463413238525 0.03760993480682373 50
-1.7719264030456543 -0.6926273107528687 -0.4995209574699402 119
-1.9596645832061768 -0.7656179666519165 -0.4768964946269989 119
-2.0382041931152344 -0.7958924770355225 -0.41749680042266846 0
-2.036839246749878 -0.7949498295783997 -0.34024524688720703 50
-2.0653152465820312 -0.805648148059845 -0.2675034999847412 50
-2.0404319763183594 -0.7955313920974731 -0.18825668096542358 50
-2.0454893112182617 -0.7970919013023376 -0.11266948282718658 50
-2.043410062789917 -0.7958707809448242 -0.03723417595028877 50
-2.034022569656372 -0.7918057441711426 0.5742040276527405 50
-2.037997245788574 -0.7929434180259705 0.4956420660018921 50
-2.0301647186279297 -0.7894879579544067 0.4155901074409485 50
-2.0426058769226074 -0.7939158082008362 0.34065133333206177 50
-2.038682460784912 -0.7919812202453613 0.26384711265563965 50
-2.0554707050323486 -0.7980902194976807 0.18956373631954193 50
-2.051237106323242 -0.7960345149040222 0.11330734193325043 50
-2.0305302143096924 -0.7875909209251404 0.037348147481679916 50
-1.7743333578109741 -0.6864379048347473 -0.4995209574699402 119
-1.9803674221038818 -0.7661464810371399 -0.48139551281929016 119
-2.0591442584991455 -0.7962098717689514 -0.42130953073501587 0
-2.034857749938965 -0.7864107489585876 -0.3394630551338196 50
-2.0633459091186523 -0.7970067262649536 -0.2668941617012024 50
-2.0337653160095215 -0.785172700881958 -0.18738512694835663 50
-2.0434632301330566 -0.7885069251060486 -0.11240868270397186 50
-2.0367090702056885 -0.7854923605918884 -0.03706139326095581 50
-2.032130241394043 -0.7833190560340881 0.572910726070404 50
-2.036069393157959 -0.7844294309616089 0.4945181906223297 50
-2.028191089630127 -0.7809876203536987 0.41463690996170044 50
-2.0406181812286377 -0.7853639125823975 0.33987000584602356 50
-2.032033920288086 -0.7816529870033264 0.262628436088562 50
-2.0534567832946777 -0.7894821763038635 0.18912795186042786 50
-2.044543981552124 -0.7856459617614746 0.11278398334980011 50
-2.023797035217285 -0.7772683501243591 0.037173621356487274 50
-1.7765998840332031 -0.6805502772331238 -0.4995209574699402 119
-1.9966790676116943 -0.7644549012184143 -0.4847698211669922 119
-2.0527429580688477 -0.7855088710784912 -0.41940316557884216 0
-2.037590503692627 -0.7793029546737671 -0.3394630551338196 50
-2.0614800453186035 -0.7880274653434753 -0.2662848234176636 50
-2.0318410396575928 -0.7762911319732666 -0.18694935739040375 50
-2.0368738174438477 -0.7778066396713257 -0.11188706010580063 50
-2.0347678661346436 -0.7765955328941345 -0.03697500377893448 50
-2.025826930999756 -0.7727780938148499 0.5703242421150208 50
-2.038795232772827 -0.7773174047470093 0.4945181906223297 50
-2.026318073272705 -0.7721552848815918 0.4136837124824524 50
-2.0433473587036133 -0.7782360911369324 0.33987000584602356 50
-2.030111789703369 -0.772789478302002 0.2620190680027008 50
-2.051544666290283 -0.7805383801460266 0.18869218230247498 50
-2.0426065921783447 -0.7767295837402344 0.11252229660749435 50
-2.0171518325805664 -0.7666471600532532 0.03699909895658493 50
-1.7745660543441772 -0.6723229885101318 -0.4982268810272217 119
-2.0222485065460205 -0.7657579779624939 -0.49039360880851746 119
-2.046427011489868 -0.7745051980018616 -0.41749680042266846 0
-2.040432929992676 -0.7718295454978943 -0.3394630551338196 50
-2.055070161819458 -0.7769563794136047 -0.26506611704826355 50
-2.030013084411621 -0.767078161239624 -0.18651357293128967 50
-2.0350399017333984 -0.7685717344284058 -0.11162624508142471 50
-2.0282464027404785 -0.765601634979248 -0.03680222108960152 50
-2.0196077823638916 -0.7619380950927734 0.5677376985549927 50
-2.037071943283081 -0.7681207060813904 0.49339425563812256 50
-2.019948720932007 -0.7612614631652832 0.4117773175239563 50
-2.0461859703063965 -0.7707415819168091 0.33987000584602356 50
-2.0282862186431885 -0.7635951042175293 0.261409729719162 50
-2.054391860961914 -0.7730138301849365 0.18869218230247498 50
-2.0407662391662598 -0.7674802541732788 0.11226062476634979 50
-2.0152688026428223 -0.7574898600578308 0.03691183775663376 50
-1.7769020795822144 -0.6661245822906494 -0.4982268810272217 119
-2.0294711589813232 -0.760403573513031 -0.4915183484554291 119
-2.0399250984191895 -0.7639145851135254 -0.41559040546417236 0
-2.038489818572998 -0.7629714608192444 -0.3386808931827545 50
-2.05312180519104 -0.768039345741272 -0.26445674896240234 50
-2.028012990951538 -0.7582431435585022 -0.1860778033733368 50
-2.0330328941345215 -0.7597156167030334 -0.11136544495820999 50
-2.0262234210968018 -0.7567679286003113 -0.03671583533287048 50
-2.0222551822662354 -0.7548837065696716 0.5677376985549927 50
-2.039740562438965 -0.7610052824020386 0.49339425563812256 50
-2.0317914485931396 -0.7576355934143066 0.4136837124824524 50
-2.048863649368286 -0.763594388961792 0.33987000584602356 50
-2.0309391021728516 -0.7565103769302368 0.261409729719162 50
-2.0524094104766846 -0.7640999555587769 0.1882563978433609 50
-2.0434327125549316 -0.7603520154953003 0.11226062476634979 50
-2.0272719860076904 -0.7539358139038086 0.0370863638818264 50
-1.7792164087295532 -0.659917950630188 -0.4982268810272217 119
-2.0275449752807617 -0.751621425151825 -0.49039360880851746 119
-2.0379765033721924 -0.7550838589668274 -0.4146372079849243 0
-2.0411407947540283 -0.755851149559021 -0.3386808931827545 50
-2.051136016845703 -0.7591453790664673 -0.2638474106788635 50
-2.0353188514709473 -0.7528874278068542 -0.18651357293128967 50
-2.030989170074463 -0.7508828639984131 -0.11110462993383408 50
-2.024163246154785 -0.747957706451416 -0.03662944212555885 50
-2.0384700298309326 -0.752839982509613 0.5716174840927124 50
-2.042384624481201 -0.7538805603981018 0.49339425563812256 50
-2.034423828125 -0.75053870677948 0.4136837124824524 50
-2.0515167713165283 -0.7564378976821899 0.33987000584602356 50
-2.0289108753204346 -0.7477004528045654 0.2608003616333008 50
-2.0503902435302734 -0.7552095651626587 0.18782062828540802 50
-2.041388750076294 -0.751489520072937 0.11199893802404404 50
-2.0298914909362793 -0.7468547224998474 0.0370863638818264 50
-1.7769750356674194 -0.6520395874977112 -0.4969327747821808 119
-2.030156373977661 -0.7445394396781921 -0.49039360880851746 119
-2.040599822998047 -0.7479653358459473 -0.4146372079849243 0
-2.0391294956207275 -0.747022807598114 -0.33789870142936707 50
-2.0491130352020264 -0.7502745389938354 -0.2632380723953247 50
-2.0379345417022705 -0.7457782626152039 -0.18651357293128967 50
-2.0382871627807617 -0.7455039620399475 -0.11136544495820999 50
-2.0455429553985596 -0.7477530241012573 -0.03697500377893448 50
-2.0410854816436768 -0.7457197904586792 0.5716174840927124 50
-2.054156541824341 -0.7500889301300049 0.4956420660018921 50
-2.0370311737060547 -0.7434326410293579 0.4136837124824524 50
-2.0541446208953857 -0.7492721080780029 0.33987000584602356 50
-2.0408337116241455 -0.744013249874115 0.2620190680027008 50
-2.06705379486084 -0.7531634569168091 0.18912795186042786 50
-2.0533828735351562 -0.7477762699127197 0.11252229660749435 50
-2.046579122543335 -0.7448940277099609 0.037348147481679916 50
-1.7792402505874634 -0.6458327770233154 -0.4969327747821808 119
-2.032742977142334 -0.7374482750892639 -0.49039360880851746 119
-2.0431981086730957 -0.740837812423706 -0.4146372079849243 0
-2.0510106086730957 -0.7432654500007629 -0.3394630551338196 50
-2.065717935562134 -0.7481874227523804 -0.26506611704826355 50
-2.0592596530914307 -0.7454416751861572 -0.18825668096542358 50
-2.040877103805542 -0.738384485244751 -0.11136544495820999 50
-2.052842140197754 -0.7423081994056702 -0.03706139326095581 50
-2.075472354888916 -0.7500817775726318 0.5806702375411987 50
-2.0842559337615967 -0.7528449296951294 0.5023854970932007 50
-2.0719306468963623 -0.7479842305183411 0.42035603523254395 50
-2.084620237350464 -0.7521539926528931 0.34455785155296326 50
-2.0480868816375732 -0.7385683655738831 0.262628436088562 50
-2.093100070953369 -0.7543879151344299 0.19130685925483704 50
-2.0841667652130127 -0.7507572770118713 0.1140923872590065 50
-2.0726852416992188 -0.7462127208709717 0.037784457206726074 50
-1.7769383192062378 -0.6379861831665039 -0.4956386983394623 119
-2.0353047847747803 -0.7303481698036194 -0.49039360880851746 119
-2.0550119876861572 -0.7370151877403259 -0.416543573141098 119
-2.058241367340088 -0.7377679347991943 -0.34024524688720703 50
-2.096348762512207 -0.7510144710540771 -0.26872220635414124 50
-2.085296392440796 -0.7466443181037903 -0.19043558835983276 50
-2.0716495513916016 -0.7413501143455505 -0.1129302978515625 50
-2.0836641788482666 -0.7452394366264343 -0.0375797376036644 50
-2.1053659915924072 -0.7525869011878967 0.5884297490119934 50
-2.109811544418335 -0.7537606954574585 0.5080050230026245 50
-2.0976414680480957 -0.7490000128746033 0.4251219928264618 50
-2.1104893684387207 -0.7531722784042358 0.3484644293785095 50
-2.074023962020874 -0.7397507429122925 0.2656751573085785 50
-2.114487409591675 -0.7537670135498047 0.19304996728897095 50
-2.1102921962738037 -0.7518564462661743 0.1154007762670517 50
-2.098825216293335 -0.7473582029342651 0.03822077065706253 50
-1.7791544198989868 -0.6317795515060425 -0.4956386983394623 119
-2.033250331878662 -0.7216097116470337 -0.48926883935928345 119
-2.05757212638855 -0.7298373579978943 -0.416543573141098 119
-2.07942271232605 -0.7371792793273926 -0.3433739244937897 50
-2.117668628692627 -0.7503219842910767 -0.2711595892906189 50
-2.106671094894409 -0.74601149559021 -0.19217871129512787 50
-2.093053102493286 -0.7407780289649963 -0.11397353559732437 50
-2.109818458557129 -0.7462973594665527 -0.038011688739061356 50
-2.1353025436401367 -0.7548924088478088 0.5961893200874329 50
-2.1353983879089355 -0.7545070648193359 0.5136245489120483 50
-2.1280124187469482 -0.7514795660972595 0.4308411180973053 50
-2.1363906860351562 -0.7540189623832703 0.352370947599411 50
-2.099993944168091 -0.740760862827301 0.26872187852859497 50
-2.1358962059020996 -0.7530060410499573 0.19479307532310486 50
-2.1317412853240967 -0.7511230111122131 0.11644749343395233 50
-2.124998092651367 -0.7483301162719727 0.03865707665681839 50
-1.7813489437103271 -0.6255653500556946 -0.4956386983394623 119
-2.035756826400757 -0.7145079374313354 -0.48926883935928345 119
-2.1156866550445557 -0.742146909236908 -0.42798182368278503 119
-2.1239264011383057 -0.7446209788322449 -0.3504135012626648 50
-2.143692970275879 -0.7511307597160339 -0.27420634031295776 50
-2.132767677307129 -0.7468847632408142 -0.19435760378837585 50
-2.1191904544830322 -0.7417148351669312 -0.11527758091688156 50
-2.13600492477417 -0.7471814751625061 -0.038443636149168015 50
-2.1607205867767334 -0.7554038763046265 0.6026555299758911 50
-2.156416654586792 -0.7534768581390381 0.5181202292442322 50
-2.149158000946045 -0.7505197525024414 0.4346538782119751 50
-2.157660722732544 -0.7530665397644043 0.35549619793891907 50
-2.121310234069824 -0.7399641871452332 0.27115926146507263 50
-2.1620283126831055 -0.75374436378479 0.19697198271751404 50
-2.157925844192505 -0.7518917322158813 0.11775589734315872 50
-2.146481990814209 -0.7474842667579651 0.039006125181913376 50
-1.7835217714309692 -0.6193434596061707 -0.4956386983394623 119
-2.038238525390625 -0.7073974609375 -0.48926883935928345 119
-2.155362367630005 -0.7476253509521484 -0.43560734391212463 119
-2.154508590698242 -0.7469080090522766 -0.35510653257369995 50
-2.1697475910186768 -0.7517668008804321 -0.27725306153297424 50
-2.154188632965088 -0.7459548711776733 -0.19610072672367096 50
-2.145359516143799 -0.7424781918525696 -0.11658161878585815 50
-2.157498598098755 -0.7462576627731323 -0.03878919780254364 50
-2.18160343170166 -0.7541689872741699 0.6078285574913025 50
-2.182058095932007 -0.753899872303009 0.5237396955490112 50
-2.174962282180786 -0.7510234713554382 0.43941983580589294 50
-2.1836185455322266 -0.7535858750343323 0.35940274596214294 50
-2.1473379135131836 -0.7406457662582397 0.2742060124874115 50
-2.1834824085235596 -0.7526860237121582 0.19871509075164795 50
-2.1794204711914062 -0.750860333442688 0.11880261451005936 50
-2.167985677719116 -0.7464974522590637 0.03935517370700836 50
-1.7856727838516235 -0.613114058971405 -0.4956386983394623 119
-2.0406951904296875 -0.7002784013748169 -0.48926883935928345 119
-2.1858160495758057 -0.7496511340141296 -0.4413264989852905 119
-2.1898040771484375 -0.7505918145179749 -0.36058175563812256 50
-2.19113826751709 -0.7506216764450073 -0.2796904444694519 50
-2.175629138946533 -0.7448844909667969 -0.19784384965896606 50
-2.166835069656372 -0.7414511442184448 -0.11762485653162003 50
-2.183741807937622 -0.7468105554580688 -0.0392211489379406 50
-2.2070741653442383 -0.7543597221374512 0.6142948269844055 50
-2.2031185626983643 -0.7525782585144043 0.5282353162765503 50
-2.1961510181427 -0.7497701644897461 0.44323256611824036 50
-2.2049314975738525 -0.752338171005249 0.362527996301651 50
-2.1733956336975098 -0.7411544919013977 0.277252733707428 50
-2.209670066833496 -0.7530940175056458 0.20089399814605713 50
-2.200934410095215 -0.7496880292892456 0.11984933912754059 50
-2.1895081996917725 -0.745369553565979 0.03970422223210335 50
-1.7878021001815796 -0.6068771481513977 -0.4956386983394623 119
-2.0431272983551025 -0.6931507587432861 -0.48926883935928345 119
-2.2116611003875732 -0.7498971223831177 -0.446092426776886 119
-2.215796709060669 -0.7508681416511536 -0.36449259519577026 50
-2.2125470638275146 -0.7493364214897156 -0.28212785720825195 50
-2.201805830001831 -0.7452703714370728 -0.20002272725105286 50
-2.1883296966552734 -0.740283191204071 -0.1186680942773819 50
-2.2052788734436035 -0.7455880045890808 -0.03956671059131622 50
-2.227996587753296 -0.7528353929519653 0.6194678544998169 50
-2.224195718765259 -0.7511186003684998 0.5327309370040894 50
-2.2173569202423096 -0.7483780384063721 0.44704532623291016 50
-2.2309420108795166 -0.7525293827056885 0.3664345443248749 50
-2.204185724258423 -0.7430756688117981 0.28090885281562805 50
-2.231166362762451 -0.7517377138137817 0.20263710618019104 50
-2.222466230392456 -0.7483745217323303 0.12089605629444122 50
-2.215787410736084 -0.7456949949264526 0.040140531957149506 50
-1.785330891609192 -0.5990963578224182 -0.4943445920944214 119
-2.045534372329712 -0.686014711856842 -0.48926883935928345 119
-2.2328808307647705 -0.7484118342399597 -0.4499051868915558 119
-2.2371349334716797 -0.7494034767150879 -0.3676212728023529 50
-2.2386791706085205 -0.7494862079620361 -0.28517457842826843 50
-2.2232885360717773 -0.7439021468162537 -0.20176586508750916 50
-2.2145776748657227 -0.7405577301979065 -0.11997213959693909 50
-2.2315754890441895 -0.7458087801933289 -0.03999866172671318 50
-2.25351619720459 -0.7527043223381042 0.6259340643882751 50
-2.2452893257141113 -0.7495208978652954 0.5372265577316284 50
-2.238579750061035 -0.7468469142913818 0.45085808634757996 50
-2.2522952556610107 -0.750985860824585 0.36955979466438293 50
-2.23030686378479 -0.7432218194007874 0.28395554423332214 50
-2.2574055194854736 -0.7518142461776733 0.20481598377227783 50
-2.2487528324127197 -0.7484966516494751 0.12220446020364761 50
-2.237351417541504 -0.7442679405212402 0.04048958048224449 50
-1.7874112129211426 -0.592860758304596 -0.4943445920944214 119
-2.0479164123535156 -0.6788702607154846 -0.48926883935928345 119
-2.2587761878967285 -0.7483311891555786 -0.45467114448547363 119
-2.2631778717041016 -0.7493512034416199 -0.3715321719646454 50
-2.260127544403076 -0.74790358543396 -0.2876119613647461 50
-2.2495169639587402 -0.7439567446708679 -0.20394474267959595 50
-2.2361128330230713 -0.7390908598899841 -0.12101537734270096 50
-2.253153085708618 -0.7442868947982788 -0.040344223380088806 50
-2.2744758129119873 -0.7508901953697205 0.6311070919036865 50
-2.2710258960723877 -0.749311625957489 0.5428460836410522 50
-2.2644801139831543 -0.7467137575149536 0.455623984336853 50
-2.273664712905884 -0.7493023872375488 0.372685045003891 50
-2.261169672012329 -0.7447470426559448 0.28761163353919983 50
-2.2789411544799805 -0.7501594424247742 0.20655910670757294 50
-2.270324230194092 -0.7468838691711426 0.12325117737054825 50
-2.25893235206604 -0.7426993250846863 0.04083862900733948 50
-1.789469838142395 -0.5866179466247559 -0.4943445920944214 119
-2.050273895263672 -0.6717175841331482 -0.48926883935928345 119
-2.2800328731536865 -0.7465512752532959 -0.45848390460014343 119
-2.289247512817383 -0.749126136302948 -0.3754430115222931 50
-2.286309003829956 -0.747722864151001 -0.29065871238708496 50
-2.271038055419922 -0.7422898411750793 -0.20568786561489105 50
-2.257664680480957 -0.7374826073646545 -0.12205860763788223 50
-2.274747133255005 -0.7426233291625977 -0.04068978503346443 50
-2.3000407218933105 -0.7504366636276245 0.6375733613967896 50
-2.2921555042266846 -0.7474212646484375 0.5473417043685913 50
-2.2857396602630615 -0.7448878884315491 0.4594367444515228 50
-2.2997450828552246 -0.749008059501648 0.3765915632247925 50
-2.28735089302063 -0.7445297837257385 0.2906583845615387 50
-2.300492286682129 -0.7483633160591125 0.20830221474170685 50
-2.2919113636016846 -0.7451295852661133 0.12429789453744888 50
-2.2757749557495117 -0.7394442558288574 0.04110041633248329 50
-1.7915065288543701 -0.580367922782898 -0.4943445920944214 119
-2.0526061058044434 -0.6645566821098328 -0.48926883935928345 119
-2.3106443881988525 -0.7476543188095093 -0.46420302987098694 119
-2.315342903137207 -0.7487281560897827 -0.3793538808822632 50
-2.3077940940856934 -0.7458421587944031 -0.2930960953235626 50
-2.2973148822784424 -0.742012619972229 -0.20786677300930023 50
-2.2744805812835693 -0.734199047088623 -0.12284104526042938 50
-2.2915985584259033 -0.73928302526474 -0.04094895347952843 50
-2.3210337162017822 -0.7483318448066711 0.6427463293075562 50
-2.317937135696411 -0.7468867897987366 0.5529612302780151 50
-2.307013988494873 -0.7429227232933044 0.46324947476387024 50
-2.321150064468384 -0.7470278143882751 0.37971681356430054 50
-2.3135573863983154 -0.7441386580467224 0.2937051057815552 50
-2.3220584392547607 -0.7464258074760437 0.21004533767700195 50
-2.313513994216919 -0.7432336211204529 0.12534461915493011 50
-2.306901693344116 -0.7406652569770813 0.04162398725748062 50
-1.7981212139129639 -0.5755832195281982 -0.4956386983394623 119
-2.054913282394409 -0.6573877334594727 -0.48926883935928345 119
-2.3412911891937256 -0.7485525012016296 -0.46992215514183044 119
-2.341463088989258 -0.7481569647789001 -0.38326478004455566 50
-2.3340210914611816 -0.7453301548957825 -0.2961428165435791 50
-2.328361749649048 -0.7430752515792847 -0.2104814499616623 50
-2.310328960418701 -0.7368758916854858 -0.12466669827699661 50
-2.317981004714966 -0.7388708591461182 -0.041380904614925385 50
-2.351243734359741 -0.7490214705467224 0.6505058407783508 50
-2.3483846187591553 -0.7476592659950256 0.5597046613693237 50
-2.3376569747924805 -0.7437945008277893 0.4689686596393585 50
-2.347275495529175 -0.7464037537574768 0.3836233615875244 50
-2.335059404373169 -0.7420704960823059 0.29614248871803284 50
-2.3531336784362793 -0.7473623156547546 0.212660014629364 50
-2.344649076461792 -0.744217038154602 0.12691469490528107 50
-2.328533887863159 -0.7386546730995178 0.04197303578257561 50
-1.800119400024414 -0.5693031549453735 -0.4956386983394623 119
-2.0571954250335693 -0.6502106785774231 -0.48926883935928345 119
-2.371971845626831 -0.7492457032203674 -0.47564128041267395 119
-2.3581883907318115 -0.7444391846656799 -0.38561126589775085 50
-2.3602724075317383 -0.744644045829773 -0.29918956756591797 50
-2.364194631576538 -0.7454278469085693 -0.21353191137313843 50
-2.3366990089416504 -0.7363101840019226 -0.1259707510471344 50
-2.3586931228637695 -0.7427881956100464 -0.04207202419638634 50
-2.4045217037200928 -0.7567590475082397 0.6647316217422485 50
-2.4021031856536865 -0.7555370926856995 0.5720675587654114 50
-2.3917453289031982 -0.7518205642700195 0.4794536828994751 50
-2.4158284664154053 -0.7589275240898132 0.3945617079734802 50
-2.361309766769409 -0.7413478493690491 0.2991892099380493 50
-2.408005952835083 -0.7555466890335083 0.21745356917381287 50
-2.385347843170166 -0.7479801177978516 0.12900812923908234 50
-2.3978846073150635 -0.7514516711235046 0.04319470375776291 50
-1.7974858283996582 -0.5615758299827576 -0.4943445920944214 119
-2.059452533721924 -0.6430257558822632 -0.48926883935928345 119
-2.4073712825775146 -0.7511958479881287 -0.4823136329650879 119
-2.3984885215759277 -0.7479647397994995 -0.3918686509132385 50
-2.405499219894409 -0.7496902942657471 -0.3046737015247345 50
-2.428605556488037 -0.7564265131950378 -0.21919701993465424 50
-2.39646577835083 -0.7459573149681091 -0.12910045683383942 50
-2.4233286380767822 -0.7538551688194275 -0.043195098638534546 50
-2.4532699584960938 -0.7626997232437134 0.6776641607284546 50
-2.4512526988983154 -0.7616034746170044 0.5833066701889038 50
-2.4365432262420654 -0.7565668821334839 0.48803240060806274 50
-2.4750633239746094 -0.7680541276931763 0.4039374589920044 50
-2.434983730316162 -0.7551509141921997 0.30832943320274353 50
-2.458205461502075 -0.7618823051452637 0.22181135416030884 50
-2.449949026107788 -0.7588546276092529 0.1324099600315094 50
-2.4625768661499023 -0.7622950673103333 0.04432911053299904 50
-1.7949168682098389 -0.5535606741905212 -0.4930504858493805 119
-2.061795473098755 -0.6354731917381287 -0.48926883935928345 119
-2.4335625171661377 -0.7495916485786438 -0.48707953095436096 119
-2.4625723361968994 -0.7580568790435791 -0.4020369052886963 50
-2.4793810844421387 -0.7627573609352112 -0.3138139247894287 50
-2.4837329387664795 -0.7636217474937439 -0.22399060428142548 50
-2.4516866207122803 -0.7533007264137268 -0.1319693624973297 50
-2.478644371032715 -0.7611103653907776 -0.04414539039134979 50
-2.5068395137786865 -0.7692893743515015 0.6918899416923523 50
-2.509922504425049 -0.7697561979293823 0.596793532371521 50
-2.4909207820892334 -0.7634530067443848 0.4985174834728241 50
-2.5250821113586426 -0.7734411954879761 0.41175055503845215 50
