# .PCD v0.7 - Point Cloud Data file format
VERSION 0.7
FIELDS x y z intensity
SIZE 4 4 4 4
TYPE F F F F
COUNT 1 1 1 1
WIDTH 779
HEIGHT 1
VIEWPOINT 0 0 0 1 0 0 0
POINTS 779
DATA ascii
-3.090219259262085 1.421341896057129 0.5320723652839661 30
-3.0688467025756836 1.4121603965759277 0.4100903272628784 30
-3.14762020111084 1.4490747451782227 0.29981574416160583 30
-3.096017360687256 1.4259730577468872 0.17663384974002838 30
-3.05863881111145 1.4094042778015137 0.05811651051044464 30
-1.7401872873306274 0.8040792942047119 -0.5034032464027405 119
-2.0070207118988037 0.9277986884117126 -0.5016411542892456 119
-2.35573410987854 1.089499831199646 -0.49661147594451904 119
-2.871770143508911 1.3287689685821533 -0.4951154887676239 119
-3.1376922130584717 1.452476143836975 -0.41984036564826965 0
-3.0900866985321045 1.4310939311981201 -0.2945868670940399 30
-3.0520272254943848 1.4141145944595337 -0.1736987978219986 30
-3.0509064197540283 1.414242148399353 -0.05744947865605354 30
-3.0886757373809814 1.4324049949645996 0.9013968110084534 30
-3.0797457695007324 1.4289168119430542 0.7743704915046692 30
-3.0620858669281006 1.421372652053833 0.6481680274009705 30
-3.058114528656006 1.420177936553955 0.5273844599723816 30
-3.0366461277008057 1.4108524322509766 0.4064342677593231 30
-3.115186929702759 1.4480043649673462 0.2972010672092438 30
-3.0636048316955566 1.4246782064437866 0.17506377398967743 30
-3.0262563228607178 1.4079524278640747 0.05759293958544731 30
-1.7417471408843994 0.8121898770332336 -0.504697322845459 119
-2.003769874572754 0.9347988963127136 -0.5016411542892456 119
-2.351916551589966 1.097716212272644 -0.49661147594451904 119
-2.8626394271850586 1.336695671081543 -0.49433329701423645 119
-3.1011290550231934 1.4487165212631226 -0.41557490825653076 0
-3.057997703552246 1.4292175769805908 -0.29197219014167786 30
-3.0154101848602295 1.4099547863006592 -0.17187312245368958 30
-3.0187814235687256 1.4121732711791992 -0.056931138038635254 30
-3.0574100017547607 1.4308940172195435 0.8936372995376587 30
-3.0438528060913086 1.4251967668533325 0.7665031552314758 30
-3.0259921550750732 1.4174779653549194 0.6414957642555237 30
-3.0218353271484375 1.4161739349365234 0.5219153165817261 30
-3.0092360973358154 1.4109100103378296 0.40338751673698425 30
-3.0785470008850098 1.44406259059906 0.2941506505012512 30
-3.031491994857788 1.4226359128952026 0.17349368333816528 30
-2.994168519973755 1.4057656526565552 0.05706936493515968 30
-1.7432714700698853 0.8203211426734924 -0.5059914588928223 119
-2.0004944801330566 0.9417876601219177 -0.5016411542892456 119
-2.3480706214904785 1.1059192419052124 -0.49661147594451904 119
-2.8579561710357666 1.3466800451278687 -0.49433329701423645 119
-3.069119691848755 1.4468356370925903 -0.41191884875297546 30
-3.0304648876190186 1.4292597770690918 -0.2897932827472687 30
-2.9788599014282227 1.4055569171905518 -0.17004747688770294 30
-2.9821879863739014 1.4077636003494263 -0.05632640793919563 30
-3.0261929035186768 1.4291824102401733 0.885877788066864 30
-3.0124287605285645 1.4233250617980957 0.7597597241401672 30
-2.994400978088379 1.4154465198516846 0.6357766389846802 30
-2.985621929168701 1.41193425655365 0.5164461135864258 30
-2.977376937866211 1.4086710214614868 0.39973142743110657 30
-3.0464751720428467 1.4420138597488403 0.29153597354888916 30
-2.9949188232421875 1.4182500839233398 0.17166192829608917 30
-2.9531033039093018 1.3990795612335205 0.05637127161026001 30
-1.7403974533081055 0.8264012336730957 -0.5059914588928223 119
-1.9971950054168701 0.9487649202346802 -0.5016411542892456 119
-2.34419584274292 1.1141088008880615 -0.49661147594451904 119
-2.8532378673553467 1.3566479682922363 -0.49433329701423645 119
-3.037161111831665 1.444749116897583 -0.4082627594470978 0
-2.9714858531951904 1.4141440391540527 -0.28456392884254456 30
-2.9423775672912598 1.400921106338501 -0.16822180151939392 30
-2.9411487579345703 1.4009658098220825 -0.05563528835773468 30
-2.9906649589538574 1.4251924753189087 0.8768249750137329 30
-2.9766573905944824 1.4191548824310303 0.7518924474716187 30
-2.954000473022461 1.4089856147766113 0.6281510591506958 30
-2.9494755268096924 1.4074593782424927 0.5109769701957703 30
-2.941091775894165 1.4040888547897339 0.39546599984169006 30
-3.0144550800323486 1.4397588968276978 0.2889212667942047 30
-2.9584131240844727 1.4136264324188232 0.16983017325401306 30
-2.9166290760040283 1.394286036491394 0.05576043576002121 30
-1.7418575286865234 0.8345581293106079 -0.5072855353355408 119
-1.9938709735870361 0.955730676651001 -0.5016411542892456 119
-2.3402926921844482 1.1222847700119019 -0.49661147594451904 119
-2.848484992980957 1.3665993213653564 -0.49433329701423645 119
-3.000781297683716 1.4403098821640015 -0.4039973020553589 30
-2.921630382537842 1.4029465913772583 -0.2802061438560486 30
-2.901463508605957 1.393885850906372 -0.16613534092903137 30
-2.9046995639801025 1.3960645198822021 -0.05503055453300476 30
-2.9508492946624756 1.4188792705535889 0.8664789795875549 30
-2.932171583175659 1.4105284214019775 0.741777241230011 30
-2.913681983947754 1.402260184288025 0.620525598526001 30
-2.908947229385376 1.4006068706512451 0.5047264695167542 30
-2.900404214859009 1.3971171379089355 0.39059123396873474 30
-2.969027042388916 1.4308110475540161 0.284999281167984 30
-2.9174787998199463 1.4065968990325928 0.1677367389202118 30
-2.8757219314575195 1.3870832920074463 0.05506233870983124 30
-1.738933801651001 0.8406332731246948 -0.5072855353355408 119
-1.9861366748809814 0.9605634808540344 -0.5005163550376892 119
-2.3363609313964844 1.1304470300674438 -0.49661147594451904 119
-2.848142623901367 1.3786858320236206 -0.4951154887676239 119
-2.960003137588501 1.4334713220596313 -0.39912253618240356 30
-2.871889591217041 1.3914185762405396 -0.2758483588695526 30
-2.8651278018951416 1.388759970664978 -0.16430966556072235 30
-2.868320941925049 1.3909260034561157 -0.05442582443356514 30
-2.9067695140838623 1.410197377204895 0.8548396825790405 30
-2.8921656608581543 1.4037361145019531 0.7327860593795776 30
-2.8734469413757324 1.395270586013794 0.6129000782966614 30
-2.864060878753662 1.3913307189941406 0.4976946711540222 30
-2.859801769256592 1.3898786306381226 0.3857164680957794 30
-2.9147396087646484 1.4172077178955078 0.28020569682121277 30
-2.8766305446624756 1.3992990255355835 0.16564328968524933 30
-2.8304057121276855 1.3774245977401733 0.054276980459690094 30
-1.7316479682922363 0.8445810079574585 -0.5059914588928223 119
-1.982771635055542 0.967490553855896 -0.5005163550376892 119
-2.3324005603790283 1.1385955810546875 -0.49661147594451904 119
-2.8433125019073486 1.388619303703308 -0.4951154887676239 119
-2.919309616088867 1.4263659715652466 -0.39424777030944824 30
-2.835690498352051 1.3861229419708252 -0.2727978825569153 30
-2.842320442199707 1.3899784088134766 -0.16326643526554108 30
-2.8365044593811035 1.3877477645874023 -0.05390748381614685 30
-2.867124557495117 1.403348684310913 0.8444936871528625 30
-2.843492031097412 1.3923966884613037 0.72154700756073 30
-2.824481248855591 1.38369882106781 0.6033682227134705 30
-2.819275379180908 1.3817585706710815 0.4906628727912903 30
-2.8192853927612305 1.3823739290237427 0.3808417022228241 30
-2.851639747619629 1.3988556861877441 0.27454057335853577 30
-2.8313863277435303 1.389533519744873 0.1632881760597229 30
-2.8121178150177 1.3806864023208618 0.05401519685983658 30
-1.724355936050415 0.8484881520271301 -0.504697322845459 119
-1.9793823957443237 0.974405825138092 -0.5005163550376892 119
-2.332815170288086 1.148898720741272 -0.4975646436214447 119
-2.8340182304382324 1.3963531255722046 -0.49433329701423645 119
-2.874251127243042 1.4167999029159546 -0.3887636363506317 30
-2.8129653930664062 1.3872007131576538 -0.27105477452278137 30
-2.819539785385132 1.391054630279541 -0.1622232049703598 30
-2.8092286586761475 1.3865772485733032 -0.05347553268074989 30
-2.823232889175415 1.3941023349761963 0.8328544497489929 30
-2.8167736530303955 1.391524314880371 0.7159274220466614 30
-2.8064332008361816 1.3870254755020142 0.6005086302757263 30
-2.8055808544158936 1.3872135877609253 0.48910024762153625 30
-2.805546283721924 1.3878058195114136 0.3796229958534241 30
-2.824418783187866 1.3977549076080322 0.272361695766449 30
-2.8130946159362793 1.3927621841430664 0.16250313818454742 30
-2.7893619537353516 1.3816183805465698 0.05366614833474159 30
-1.7212344408035278 0.8548025488853455 -0.504697322845459 119
-1.9757976531982422 0.9816541075706482 -0.5005163550376892 119
-2.3285884857177734 1.157441258430481 -0.4975646436214447 119
-2.81561541557312 1.4001342058181763 -0.49198681116104126 119
-2.8334929943084717 1.409641146659851 -0.383888840675354 30
-2.790025472640991 1.3886239528656006 -0.26931166648864746 30
-2.7920737266540527 1.3902515172958374 -0.1609191596508026 30
-2.7817535400390625 1.3857187032699585 -0.053043581545352936 30
-2.8008127212524414 1.3958231210708618 0.8276814222335815 30
-2.7985739707946777 1.3953171968460083 0.7125557065010071 30
-2.783761978149414 1.3885389566421509 0.5966958403587341 30
-2.782802104949951 1.3886667490005493 0.4859750270843506 30
-2.7826805114746094 1.389212727546692 0.3771856129169464 30
-2.805908441543579 1.4014207124710083 0.27105435729026794 30
-2.790104627609253 1.3941359519958496 0.1614564210176468 30
-2.766392707824707 1.382891297340393 0.05331709608435631 30
-1.713922142982483 0.8586422801017761 -0.5034032464027405 119
-1.9767146110534668 0.9907279014587402 -0.5016411542892456 119
-2.3245341777801514 1.1655625104904175 -0.4975646436214447 119
-2.775397539138794 1.3922396898269653 -0.4857294261455536 119
-2.79750657081604 1.4039415121078491 -0.3796234428882599 30
-2.767355442047119 1.389414668083191 -0.26756852865219116 30
-2.7693557739257812 1.3910242319107056 -0.15987591445446014 30
-2.7545647621154785 1.3841968774795532 -0.05261162668466568 30
-2.7743475437164307 1.3947445154190063 0.8212151527404785 30
-2.771923542022705 1.3941320180892944 0.706936240196228 30
-2.761359691619873 1.38942289352417 0.5928831100463867 30
-2.7558817863464355 1.387269377708435 0.4820684790611267 30
-2.764516830444336 1.3922209739685059 0.37535756826400757 30
-2.7743098735809326 1.3977597951889038 0.2684396803379059 30
-2.767385959625244 1.3948770761489868 0.16040968894958496 30
-2.739229679107666 1.3812847137451172 0.05288079008460045 30
-1.7152249813079834 0.8667980432510376 -0.504697322845459 119
-1.977591872215271 0.9998199343681335 -0.5027658939361572 119
-2.320451259613037 1.173669457435608 -0.4975646436214447 119
-2.748488664627075 1.3907705545425415 -0.4818185567855835 119
-2.7748782634735107 1.404732346534729 -0.3771860599517822 30
-2.7402708530426025 1.387813925743103 -0.265389621257782 30
-2.742213010787964 1.3893989324569702 -0.15857186913490295 30
-2.7274205684661865 1.3825023174285889 -0.05217967927455902 30
-2.7522313594818115 1.395682454109192 0.8160421848297119 30
-2.7496607303619385 1.3949822187423706 0.702440619468689 30
-2.738985776901245 1.3901677131652832 0.5890703797340393 30
-2.7290053367614746 1.3857011795043945 0.47816193103790283 30
-2.7375173568725586 1.3906242847442627 0.3723108172416687 30
-2.7516520023345947 1.3984087705612183 0.266696572303772 30
-2.7402455806732178 1.3932137489318848 0.15910130739212036 30
-2.712111711502075 1.3795055150985718 0.05244447663426399 30
-1.71649169921875 0.8749734163284302 -0.5059914588928223 119
-1.9740898609161377 1.0067169666290283 -0.5027658939361572 119
-2.316340208053589 1.1817622184753418 -0.4975646436214447 119
-2.7172253131866455 1.3868855237960815 -0.47712549567222595 119
-2.7478582859039307 1.403125286102295 -0.37413930892944336 30
-2.713231325149536 1.3860410451889038 -0.2632107436656952 30
-2.7195615768432617 1.3898733854293823 -0.15752863883972168 30
-2.700322151184082 1.380635142326355 -0.051747728139162064 30
-2.721543073654175 1.3920843601226807 0.8082826733589172 30
-2.7230889797210693 1.3934746980667114 0.6968210339546204 30
-2.712271213531494 1.3885363340377808 0.5843043923377991 30
-2.7065694332122803 1.3862136602401733 0.4750366806983948 30
-2.714979648590088 1.391119360923767 0.36987343430519104 30
-2.724591016769409 1.3966444730758667 0.2645176649093628 30
-2.7131507396698 1.3913780450820923 0.15779289603233337 30
-2.685039758682251 1.3775540590286255 0.05200817063450813 30
-1.7134270668029785 0.8809597492218018 -0.5059914588928223 119
-1.9748961925506592 1.015830159187317 -0.5038906931877136 119
-2.3122012615203857 1.18984055519104 -0.4975646436214447 119
-2.6948049068450928 1.3873203992843628 -0.4739968180656433 119
-2.7252962589263916 1.4036195278167725 -0.3717019259929657 30
-2.6862375736236572 1.3840962648391724 -0.261031836271286 30
-2.69250226020813 1.3879189491271973 -0.1562245935201645 30
-2.6732704639434814 1.3785959482192993 -0.051315777003765106 30
-2.6952056884765625 1.3905034065246582 0.8018164038658142 30
-2.696561336517334 1.3917988538742065 0.6912015676498413 30
-2.6856019496917725 1.3867359161376953 0.5795384645462036 30
-2.6797754764556885 1.38431978225708 0.4711301326751709 30
-2.688063383102417 1.3891955614089966 0.36682671308517456 30
-2.6975765228271484 1.394708514213562 0.262338787317276 30
-2.6861023902893066 1.3893704414367676 0.15648449957370758 30
-2.6580147743225098 1.3754303455352783 0.05157185718417168 30
-1.710341453552246 0.8869353532791138 -0.5059914588928223 119
-1.9713382720947266 1.0227177143096924 -0.5038906931877136 119
-2.3080337047576904 1.1979044675827026 -0.4975646436214447 119
-2.672414541244507 1.38761568069458 -0.47086814045906067 119
-2.698359966278076 1.4016854763031006 -0.36865517497062683 30
-2.663710832595825 1.384277105331421 -0.2592887282371521 30
-2.665489912033081 1.38579261302948 -0.1549205482006073 30
-2.6507010459899902 1.378691554069519 -0.05097021907567978 30
-2.664628267288208 1.386526346206665 0.7940568923950195 30
-2.670078754425049 1.389954686164856 0.6855820417404175 30
-2.658978223800659 1.3847659826278687 0.5747725367546082 30
-2.6530282497406006 1.382256031036377 0.467223584651947 30
-2.66119384765625 1.3871010541915894 0.3637799620628357 30
-2.6706085205078125 1.3926011323928833 0.2601598799228668 30
-2.6591012477874756 1.3871909379959106 0.1551761031150818 30
-2.635469436645508 1.3754479885101318 0.05122280865907669 30
-1.7072350978851318 0.8929001688957214 -0.5059914588928223 119
-1.972072720527649 1.0318511724472046 -0.5050153732299805 119
-2.3038382530212402 1.2059537172317505 -0.4975646436214447 119
-2.650054931640625 1.3877716064453125 -0.46773943305015564 119
-2.6758666038513184 1.4018837213516235 -0.36621779203414917 30
-2.6368041038513184 1.3820053339004517 -0.2571098506450653 30
-2.6385254859924316 1.3834948539733887 -0.1536165028810501 30
-2.62373685836792 1.3763242959976196 -0.05053826421499252 30
-2.6383886337280273 1.3845973014831543 0.7875905632972717 30
-2.6436421871185303 1.387942910194397 0.6799624562263489 30
-2.636746644973755 1.384909749031067 0.5709598064422607 30
-2.6263279914855957 1.380022406578064 0.46331703662872314 30
-2.6387646198272705 1.3871451616287231 0.36134257912635803 30
-2.643688917160034 1.3903225660324097 0.25798100233078003 30
-2.6365673542022705 1.3871649503707886 0.15412938594818115 30
-2.6085329055786133 1.3729966878890991 0.05078649893403053 30
-1.7041078805923462 0.89885413646698 -0.5059914588928223 119
-1.968458890914917 1.0387287139892578 -0.5050153732299805 119
-2.299614667892456 1.213988184928894 -0.4975646436214447 119
-2.6277272701263428 1.3877884149551392 -0.464610755443573 119
-2.6534054279327393 1.401942253112793 -0.3637803792953491 30
-2.614349126815796 1.3818902969360352 -0.255366712808609 30
-2.6160240173339844 1.3833599090576172 -0.15257327258586884 30
-2.601240634918213 1.376123309135437 -0.050192706286907196 30
-2.6121950149536133 1.3825021982192993 0.7811243534088135 30
-2.62155818939209 1.3880434036254883 0.6754668354988098 30
-2.6102094650268555 1.3826178312301636 0.5661938786506653 30
-2.6040396690368652 1.3799318075180054 0.4601917862892151 30
-2.611983299255371 1.3847252130508423 0.35829582810401917 30
-2.621217727661133 1.3902069330215454 0.25623786449432373 30
-2.6140663623809814 1.3869986534118652 0.15308266878128052 30
-2.586061477661133 1.372718095779419 0.05043745040893555 30
-1.6966959238052368 0.9025289416313171 -0.504697322845459 119
-1.9648211002349854 1.0455936193466187 -0.5050153732299805 119
-2.2996957302093506 1.2243146896362305 -0.49851784110069275 119
-2.6010730266571045 1.3853449821472168 -0.4606998860836029 119
-2.626596450805664 1.3995273113250732 -0.36073365807533264 30
-2.5875320434570312 1.379292607307434 -0.2531878352165222 30
-2.5935556888580322 1.3830848932266235 -0.15153002738952637 30
-2.578778028488159 1.3757823705673218 -0.04984714463353157 30
-2.5903098583221436 1.38251531124115 0.7759513854980469 30
-2.5952086448669434 1.3857120275497437 0.6698473691940308 30
-2.5837204456329346 1.3801575899124146 0.561427891254425 30
-2.58178448677063 1.3797026872634888 0.45706653594970703 30
-2.589627504348755 1.3844751119613647 0.3558584451675415 30
-2.5987801551818848 1.3899515867233276 0.2544947564601898 30
-2.587196111679077 1.3843367099761963 0.15177425742149353 30
-2.563624143600464 1.3722995519638062 0.05008840188384056 30
-1.6935352087020874 0.9084460139274597 -0.504697322845459 119
-1.961159348487854 1.0524457693099976 -0.5050153732299805 119
-2.295408010482788 1.2323346138000488 -0.49851784110069275 119
-2.5788190364837646 1.3850691318511963 -0.4575711786746979 119
-2.6042087078094482 1.3992915153503418 -0.3582962453365326 30
-2.565152645111084 1.378882884979248 -0.2514446973800659 30
-2.5711216926574707 1.3826701641082764 -0.1504867970943451 30
-2.5519471168518066 1.3729327917099 -0.04941519349813461 30
-2.5642030239105225 1.380103588104248 0.7694850564002991 30
-2.5731964111328125 1.3855233192443848 0.6653517484664917 30
-2.5616023540496826 1.3798571825027466 0.5576151609420776 30
-2.555215358734131 1.376992106437683 0.45315998792648315 30
-2.567305564880371 1.384085774421692 0.35342106223106384 30
-2.580760955810547 1.3919212818145752 0.2531874477863312 30
-2.5647711753845215 1.3838751316070557 0.1507275402545929 30
-2.5412216186523438 1.3717411756515503 0.049739353358745575 30
-1.6988496780395508 0.9189476370811462 -0.5072855353355408 119
-1.957473635673523 1.059285044670105 -0.5050153732299805 119
-2.29109263420105 1.2403396368026733 -0.49851784110069275 119
-2.556598663330078 1.3846549987792969 -0.45444250106811523 119
-2.577491521835327 1.396552324295044 -0.3552495241165161 30
-2.53842830657959 1.3759602308273315 -0.24926580488681793 30
-2.548722267150879 1.3821156024932861 -0.14944356679916382 30
-2.529561996459961 1.372296690940857 -0.04906963184475899 30
-2.5423901081085205 1.3798304796218872 0.7643120884895325 30
-2.551217794418335 1.3851979970932007 0.6608560681343079 30
-2.5352046489715576 1.377076506614685 0.5528491735458374 30
-2.53303599357605 1.3764710426330566 0.4500347375869751 30
-2.545018196105957 1.3835577964782715 0.3509836792945862 30
-2.5583837032318115 1.391402244567871 0.2514443099498749 30
-2.5423810482025146 1.3832740783691406 0.14968082308769226 30
-2.514463424682617 1.3686532974243164 0.049303047358989716 30
-1.7041114568710327 0.929497480392456 -0.5098737478256226 119
-1.9537640810012817 1.066111445426941 -0.5050153732299805 119
-2.2867488861083984 1.2483294010162354 -0.49851784110069275 119
-2.530078649520874 1.3817356824874878 -0.45053160190582275 119
-2.555180311203003 1.3960233926773071 -0.35281214118003845 30
-2.516127109527588 1.375256896018982 -0.24752268195152283 30
-2.526358127593994 1.3814215660095215 -0.14840032160282135 30
-2.5028269290924072 1.3691221475601196 -0.04863768070936203 30
-2.5206105709075928 1.3794219493865967 0.7591390609741211 30
-2.52927303314209 1.3847362995147705 0.6563604474067688 30
-2.513162612915039 1.3764863014221191 0.54903644323349 30
-2.5108916759490967 1.3758121728897095 0.44690951704978943 30
-2.52276611328125 1.382891297340393 0.3485462963581085 30
-2.536041736602783 1.3907440900802612 0.24970120191574097 30
-2.520026445388794 1.3825336694717407 0.14863410592079163 30
-2.492140054702759 1.3678005933761597 0.04895399510860443 30
-1.7093201875686646 0.940095067024231 -0.5124619007110596 119
-1.95003080368042 1.0729248523712158 -0.5050153732299805 119
-2.2823774814605713 1.2563040256500244 -0.49851784110069275 119
-2.5079362392425537 1.3810302019119263 -0.4474029242992401 119
-2.532904624938965 1.3953557014465332 -0.3503747582435608 30
-2.4938621520996094 1.3744148015975952 -0.24577957391738892 30
-2.504030227661133 1.3805885314941406 -0.14735709130764008 30
-2.480522394180298 1.3681920766830444 -0.048292119055986404 30
-2.4988651275634766 1.3788783550262451 0.7539660334587097 30
-2.5073628425598145 1.3841384649276733 0.6518648266792297 30
-2.4911561012268066 1.3757591247558594 0.5452237129211426 30
-2.4887828826904297 1.3750154972076416 0.44378426671028137 30
-2.500549793243408 1.382086157798767 0.34610891342163086 30
-2.51373553276062 1.3899469375610352 0.24795809388160706 30
-2.497708320617676 1.3816540241241455 0.147587388753891 30
-2.4698538780212402 1.3668088912963867 0.048604946583509445 30
-1.7060283422470093 0.9460560083389282 -0.5124619007110596 119
-1.946273684501648 1.0797252655029297 -0.5050153732299805 119
-2.2779784202575684 1.264263391494751 -0.49851784110069275 119
-2.4858298301696777 1.3801872730255127 -0.44427424669265747 119
-2.510664939880371 1.3945496082305908 -0.34793737530708313 30
-2.4716336727142334 1.3734341859817505 -0.2440364509820938 30
-2.481738805770874 1.3796162605285645 -0.1463138461112976 30
-2.4582550525665283 1.3671233654022217 -0.04794655740261078 30
-2.47715425491333 1.378199815750122 0.7487930655479431 30
-2.485487699508667 1.3834044933319092 0.6473692059516907 30
-2.4691853523254395 1.3748950958251953 0.5414109230041504 30
-2.4667108058929443 1.3740813732147217 0.4406590163707733 30
-2.478370189666748 1.3811429738998413 0.3436715304851532 30
-2.4871156215667725 1.3865857124328613 0.24577918648719788 30
-2.4754271507263184 1.3806356191635132 0.14654067158699036 30
-2.4476051330566406 1.3656785488128662 0.04825589805841446 30
-1.6985000371932983 0.9496484398841858 -0.5111678242683411 119
-1.9382412433624268 1.0841343402862549 -0.5038906931877136 119
-2.2735512256622314 1.2722073793411255 -0.49851784110069275 119
-2.4594509601593018 1.376794695854187 -0.440363347530365 119
-2.488461971282959 1.393605351448059 -0.34549999237060547 30
-2.4494426250457764 1.3723150491714478 -0.2422933429479599 30
-2.4594852924346924 1.3785057067871094 -0.14527061581611633 30
-2.436025619506836 1.3659157752990723 -0.04760099574923515 30
-2.4554789066314697 1.3773866891860962 0.7436200380325317 30
-2.463648557662964 1.3825348615646362 0.6428735852241516 30
-2.451531171798706 1.3762975931167603 0.538551390171051 30
-2.4446754455566406 1.3730099201202393 0.43753379583358765 30
-2.4562277793884277 1.3800619840621948 0.34123414754867554 30
-2.4648923873901367 1.3854963779449463 0.24403607845306396 30
-2.453183889389038 1.3794786930084229 0.14549395442008972 30
-2.4253947734832764 1.3644095659255981 0.04790685325860977 30
-1.6909675598144531 0.9531999230384827 -0.5098737478256226 119
-1.9344450235366821 1.0908933877944946 -0.5038906931877136 119
-2.269096612930298 1.2801357507705688 -0.49851784110069275 119
-2.437427282333374 1.3756622076034546 -0.43723466992378235 30
-2.4662961959838867 1.3925232887268066 -0.3430625796318054 30
-2.4272894859313965 1.3710579872131348 -0.2405502200126648 30
-2.437269926071167 1.3772565126419067 -0.14422737061977386 30
-2.413835048675537 1.364569902420044 -0.047255437821149826 30
-2.4338395595550537 1.3764392137527466 0.7384470701217651 30
-2.4418461322784424 1.3815298080444336 0.6383780241012573 30
-2.4296257495880127 1.3751755952835083 0.5347386002540588 30
-2.422677993774414 1.371801733970642 0.4344085454940796 30
-2.4341230392456055 1.3788434267044067 0.3387967646121979 30
-2.442707061767578 1.3842689990997314 0.24229297041893005 30
-2.430979013442993 1.378183364868164 0.1444472372531891 30
-2.4032230377197266 1.3630021810531616 0.047557804733514786 30
-1.6832640171051025 0.9570042490959167 -0.5085796117782593 119
-1.930433750152588 1.0979760885238647 -0.5038906931877136 119
-2.2643895149230957 1.2884438037872314 -0.49851784110069275 119
-2.4152016639709473 1.3748143911361694 -0.4341059923171997 30
-2.4439258575439453 1.3917300701141357 -0.34062519669532776 30
-2.409264326095581 1.3725483417510986 -0.23924288153648376 30
-2.419191598892212 1.378763198852539 -0.1434449553489685 30
-2.3957889080047607 1.3659794330596924 -0.04699626937508583 30
-2.411996841430664 1.3757784366607666 0.7332740426063538 30
-2.41983962059021 1.3808118104934692 0.6338824033737183 30
-2.4075186252593994 1.374338150024414 0.5309258699417114 30
-2.404768466949463 1.3733247518539429 0.43206459283828735 30
-2.4118168354034424 1.3779082298278809 0.3363593816757202 30
-2.420319080352783 1.3833261728286743 0.24054984748363495 30
-2.412907361984253 1.3796486854553223 0.14366218447685242 30
-2.3808536529541016 1.3618723154067993 0.0472087562084198 30
-1.6841033697128296 0.9652757048606873 -0.5098737478256226 119
-1.9265892505645752 1.104707956314087 -0.5038906931877136 119
-2.259878158569336 1.2963401079177856 -0.49851784110069275 119
-2.3932547569274902 1.373404622077942 -0.4309772849082947 30
-2.421837329864502 1.390368938446045 -0.3381877839565277 30
-2.387181282043457 1.3710272312164307 -0.23749975860118866 30
-2.3970460891723633 1.3772492408752441 -0.14240172505378723 30
-2.373668909072876 1.3643686771392822 -0.046650707721710205 30
-2.3904316425323486 1.374558925628662 0.7281009554862976 30
-2.3981125354766846 1.3795325756072998 0.6293867826461792 30
-2.3856899738311768 1.3729406595230103 0.527113139629364 30
-2.382840156555176 1.3718541860580444 0.4289393723011017 30
-2.3940908908843994 1.3788880109786987 0.33453133702278137 30
-2.398212432861328 1.381819248199463 0.23880673944950104 30
-2.390773296356201 1.3780887126922607 0.14261546730995178 30
-2.3587586879730225 1.3601912260055542 0.046859707683324814 30
-1.689087152481079 0.9759810566902161 -0.5124619007110596 119
-1.9227215051651 1.1114262342453003 -0.5038906931877136 119
-2.2553393840789795 1.3042206764221191 -0.49851784110069275 119
-2.371347427368164 1.3718583583831787 -0.42784860730171204 30
-2.3997881412506104 1.3888707160949707 -0.33575040102005005 30
-2.3694491386413574 1.3718644380569458 -0.23619243502616882 30
-2.374941110610962 1.375597596168518 -0.14135847985744476 30
-2.3515894412994385 1.362620234489441 -0.04630514234304428 30
-2.3730835914611816 1.375628113746643 0.7242212295532227 30
-2.380638360977173 1.3805627822875977 0.6260150074958801 30
-2.363900661468506 1.3714076280593872 0.5233003497123718 30
-2.365222930908203 1.3727266788482666 0.42659544944763184 30
-2.372095823287964 1.3772690296173096 0.3320939540863037 30
-2.376145839691162 1.380174994468689 0.23706363141536713 30
-2.3729965686798096 1.3788998126983643 0.1418304443359375 30
-2.336711883544922 1.3583611249923706 0.04651065915822983 30
-1.6898434162139893 0.9843020439147949 -0.5137560367584229 119
-1.918830156326294 1.1181310415267944 -0.5038906931877136 119
-2.2507729530334473 1.3120853900909424 -0.49851784110069275 119
-2.349480390548706 1.3701761960983276 -0.424719899892807 30
-2.377779483795166 1.3872358798980713 -0.3333130180835724 30
-2.3474388122558594 1.3700839281082153 -0.23444931209087372 30
-2.352876901626587 1.37380850315094 -0.1403152495622635 30
-2.3295516967773438 1.360734462738037 -0.045959584414958954 30
-2.3515868186950684 1.37415611743927 0.719048261642456 30
-2.358980655670166 1.3790291547775269 0.6215193867683411 30
-2.346388578414917 1.3722174167633057 0.5204408168792725 30
-2.3433663845062256 1.3709989786148071 0.42347022891044617 30
-2.350141763687134 1.3755135536193848 0.32965657114982605 30
-2.3584184646606445 1.3809105157852173 0.2357562780380249 30
-2.350935220718384 1.377079963684082 0.14078372716903687 30
-2.3190159797668457 1.358926773071289 0.046248871833086014 30
-1.6907352209091187 0.9923449754714966 -0.5150501132011414 119
-1.9153079986572266 1.124153733253479 -0.5038906931877136 119
-2.2466397285461426 1.3191498517990112 -0.49851784110069275 119
-2.328131675720215 1.367545485496521 -0.42159122228622437 30
-2.356294870376587 1.3846418857574463 -0.3308756351470947 30
-2.3259470462799072 1.3673545122146606 -0.23270617425441742 30
-2.3313329219818115 1.3710683584213257 -0.13927200436592102 30
-2.3123390674591064 1.3604410886764526 -0.04570041596889496 30
-2.330608606338501 1.3717375993728638 0.7138752341270447 30
-2.337843179702759 1.3765450716018677 0.6170238256454468 30
-2.3251495361328125 1.3696175813674927 0.516628086566925 30
-2.322028636932373 1.3683249950408936 0.4203449785709381 30
-2.3287084102630615 1.3728089332580566 0.327219158411026 30
-2.336906909942627 1.3781917095184326 0.234013170003891 30
-2.329395294189453 1.374309778213501 0.13973699510097504 30
-2.2975144386291504 1.3560410737991333 0.04589982330799103 30
-1.6915923357009888 1.000404715538025 -0.5163442492485046 119
-1.9113723039627075 1.130832552909851 -0.5038906931877136 119
-2.2420215606689453 1.326984167098999 -0.49851784110069275 119
-2.3063461780548096 1.3655996322631836 -0.4184625446796417 30
-2.3343677520751953 1.3827414512634277 -0.32843825221061707 30
-2.30830454826355 1.3678474426269531 -0.23139885067939758 30
-2.309352159500122 1.3690129518508911 -0.13822877407073975 30
-2.2946763038635254 1.3608542680740356 -0.045441243797540665 30
-2.3091907501220703 1.370007038116455 0.7087022662162781 30
-2.316265344619751 1.3747507333755493 0.6125282049179077 30
-2.3034727573394775 1.3677018880844116 0.5128152966499329 30
-2.2960078716278076 1.3638114929199219 0.41643840074539185 30
-2.3068368434906006 1.37078857421875 0.32478177547454834 30
-2.314955711364746 1.3761597871780396 0.23227006196975708 30
-2.31170916557312 1.374776005744934 0.13895195722579956 30
-2.2798781394958496 1.356384515762329 0.04563803970813751 30
-1.6877385377883911 1.006892442703247 -0.5163442492485046 119
-1.9070160388946533 1.1381633281707764 -0.5038906931877136 119
-2.241123914718628 1.3380991220474243 -0.4994710087776184 119
-2.2883663177490234 1.3668478727340698 -0.41611599922180176 30
-2.303480386734009 1.3764210939407349 -0.3247821629047394 30
-2.2902092933654785 1.3690335750579834 -0.23009151220321655 30
-2.2869372367858887 1.3676193952560425 -0.13718552887439728 30
-2.280853748321533 1.3645219802856445 -0.0452684611082077 30
-2.291480302810669 1.3714224100112915 0.7048224806785583 30
-2.290069103240967 1.371120810508728 0.6069086790084839 30
-2.285571813583374 1.3689700365066528 0.5099557638168335 30
-2.2738094329833984 1.3624640703201294 0.4133131802082062 30
-2.2845301628112793 1.3694298267364502 0.3223443925380707 30
-2.292567491531372 1.3747917413711548 0.23052693903446198 30
-2.2892863750457764 1.373367428779602 0.13790524005889893 30
-2.2746529579162598 1.365128755569458 0.04563803970813751 30
-1.6883525848388672 1.0152665376663208 -0.5176383256912231 119
-1.9030314683914185 1.144813060760498 -0.5038906931877136 119
-2.2364392280578613 1.3459138870239258 -0.4994710087776184 119
-2.2878122329711914 1.3773746490478516 -0.4168981909751892 30
-2.307164192199707 1.3895742893218994 -0.3260008692741394 30
-2.276883602142334 1.3718782663345337 -0.2292199432849884 30
-2.2778728008270264 1.3730162382125854 -0.13692472875118256 30
-2.2760767936706543 1.3724753856658936 -0.0452684611082077 30
-2.2784078121185303 1.3744232654571533 0.7022359371185303 30
-2.2769267559051514 1.374071717262268 0.6046608686447144 30
-2.2639715671539307 1.3667926788330078 0.5061429738998413 30
-2.2690396308898926 1.370392918586731 0.4133131802082062 30
-2.271240711212158 1.3722633123397827 0.32112571597099304 30
-2.279229164123535 1.377632737159729 0.22965538501739502 30
-2.280205726623535 1.3787665367126465 0.13764356076717377 30
-2.2698705196380615 1.3730661869049072 0.04563803970813751 30
-1.684798240661621 1.0211539268493652 -0.5176383256912231 119
-1.8990237712860107 1.1514489650726318 -0.5038906931877136 119
-2.2317276000976562 1.3537123203277588 -0.4994710087776184 119
-2.2829904556274414 1.385352373123169 -0.4168981909751892 0
-2.302299737930298 1.3976192474365234 -0.3260008692741394 30
-2.2805960178375244 1.384988784790039 -0.23009151220321655 30
-2.268798828125 1.3783665895462036 -0.13666391372680664 30
-2.2755441665649414 1.3830084800720215 -0.04535485431551933 30
-2.2735962867736816 1.3823679685592651 0.7022359371185303 30
-2.263791084289551 1.3769475221633911 0.6024129986763 30
-2.2633798122406006 1.3772386312484741 0.5070961713790894 30
-2.268460512161255 1.3808727264404297 0.4140944480895996 30
-2.262197971343994 1.3776017427444458 0.32051634788513184 30
-2.2786598205566406 1.3881717920303345 0.2300911545753479 30
-2.275379180908203 1.3867175579071045 0.13764356076717377 30
-2.2693355083465576 1.3835777044296265 0.045725300908088684 30
-1.6812235116958618 1.0270286798477173 -0.5176383256912231 119
-1.8949929475784302 1.1580708026885986 -0.5038906931877136 119
-2.2269885540008545 1.3614943027496338 -0.4994710087776184 119
-2.282353401184082 1.3958895206451416 -0.4176803529262543 0
-2.301640033721924 1.4082372188568115 -0.32661017775535583 30
-2.279995918273926 1.3955415487289429 -0.23052729666233063 30
-2.2682318687438965 1.3888851404190063 -0.13692472875118256 30
-2.274965763092041 1.393554449081421 -0.045441243797540665 30
-2.2687571048736572 1.3902958631515503 0.7022359371185303 30
-2.263124704360962 1.387387752532959 0.6035369634628296 10
-2.262742757797241 1.3876969814300537 0.5080493688583374 30
-2.267836093902588 1.3913652896881104 0.4148758053779602 30
-2.257375478744507 1.3854899406433105 0.32051634788513184 0
-2.278045177459717 1.3987236022949219 0.23052693903446198 30
-2.2747793197631836 1.397265076637268 0.13790524005889893 30
-2.2644920349121094 1.3914905786514282 0.045725300908088684 30
-1.6776282787322998 1.032891035079956 -0.5176383256912231 119
-1.8909389972686768 1.1646784543991089 -0.5038906931877136 119
-2.2222225666046143 1.3692595958709717 -0.4994710087776184 119
-2.2816710472106934 1.4064394235610962 -0.4184625446796417 119
-2.29671049118042 1.4162629842758179 -0.32661017775535583 30
-2.2835891246795654 1.408721923828125 -0.23139885067939758 30
-2.2676191329956055 1.3994166851043701 -0.13718552887439728 30
-2.274341344833374 1.4041132926940918 -0.045527633279561996 30
-2.2679996490478516 1.400744915008545 0.7035292387008667 10
-2.2624127864837646 1.3978397846221924 0.6046608686447144 10
-2.2620599269866943 1.3981674909591675 0.5090025067329407 10
-2.2671658992767334 1.4018703699111938 0.41565707325935364 10
-2.2567460536956787 1.3959718942642212 0.32112571597099304 10
-2.2773845195770264 1.409287929534912 0.23096270859241486 10
-2.269888162612915 1.405197024345398 0.13790524005889893 10
-2.263871431350708 1.4020190238952637 0.045812565833330154 30
-1.674012541770935 1.0387407541275024 -0.5176383256912231 119
-1.8910009860992432 1.1738413572311401 -0.5050153732299805 119
-2.2174293994903564 1.377008318901062 -0.4994710087776184 119
-2.276747703552246 1.4143953323364258 -0.4184625446796417 119
-2.2959680557250977 1.4268909692764282 -0.32721954584121704 30
-2.2828876972198486 1.4193143844604492 -0.23183462023735046 30
-2.27120041847229 1.4125977754592896 -0.13770714402198792 30
-2.269426107406616 1.4120436906814575 -0.045527633279561996 10
-2.263096332550049 1.4086532592773438 0.7035292387008667 10
-2.261655330657959 1.40830397605896 0.6057847738265991 10
-2.2613320350646973 1.408650279045105 0.5099557638168335 10
-2.262258529663086 1.409775733947754 0.41565707325935364 10
-2.256070852279663 1.4064664840698242 0.32173505425453186 10
-2.2766778469085693 1.4198647737503052 0.23139849305152893 10
-2.2692055702209473 1.4157549142837524 0.13816691935062408 10
-2.2589635848999023 1.4099128246307373 0.045812565833330154 10
-1.6703765392303467 1.0445778369903564 -0.5176383256912231 119
-1.8868919610977173 1.1804349422454834 -0.5050153732299805 119
-2.21260929107666 1.3847402334213257 -0.4994710087776184 119
-2.27598237991333 1.4249546527862549 -0.4192446768283844 119
-2.2951793670654297 1.4375309944152832 -0.32782891392707825 30
-2.2821404933929443 1.4299193620681763 -0.23227041959762573 10
-2.27048659324646 1.4231691360473633 -0.13796795904636383 10
-2.268718719482422 1.4226126670837402 -0.04561402276158333 10
-2.2622568607330322 1.419110894203186 0.7048224806785583 10
-2.260852336883545 1.418779730796814 0.6069086790084839 10
-2.2605578899383545 1.419144868850708 0.5109089016914368 10
-2.2615060806274414 1.420290470123291 0.41643840074539185 10
-2.25534987449646 1.4169729948043823 0.3223443925380707 10
-2.2759246826171875 1.4304537773132324 0.2318342626094818 10
-2.268476724624634 1.4263250827789307 0.13842859864234924 10
-2.2582600116729736 1.420451283454895 0.04589982330799103 10
-1.6667201519012451 1.0504021644592285 -0.5176383256912231 119
-1.882759928703308 1.1870142221450806 -0.5050153732299805 119
-2.2077620029449463 1.3924552202224731 -0.4994710087776184 119
-2.2751710414886475 1.435525894165039 -0.42002686858177185 0
-2.290147304534912 1.4455339908599854 -0.32782891392707825 10
-2.2813467979431152 1.4405360221862793 -0.23270617425441742 10
-2.269726514816284 1.4337525367736816 -0.13822877407073975 10
-2.267965316772461 1.4331939220428467 -0.04570041596889496 10
-2.2613720893859863 1.4295799732208252 0.70611572265625 10
-2.2641215324401855 1.4318711757659912 0.6091564893722534 10
-2.2597384452819824 1.4296513795852661 0.5118620991706848 10
-2.2607076168060303 1.4308171272277832 0.41721969842910767 10
-2.2587759494781494 1.4301468133926392 0.3235630989074707 10
-2.275125503540039 1.4410548210144043 0.23227006196975708 10
-2.2677018642425537 1.4369072914123535 0.1386902779340744 10
-2.2575106620788574 1.431001901626587 0.0459870882332325 10
-1.6630433797836304 1.0562137365341187 -0.5176383256912231 119
-1.8786051273345947 1.1935789585113525 -0.5050153732299805 119
-2.202888011932373 1.4001532793045044 -0.4994710087776184 119
-2.2784810066223145 1.4487584829330444 -0.42159122228622437 10
-2.2892746925354004 1.4561827182769775 -0.32843825221061707 10
-2.2805068492889404 1.451164722442627 -0.2331419736146927 10
-2.2689199447631836 1.4443480968475342 -0.13848958909511566 10
-2.267165422439575 1.4437872171401978 -0.04578680172562599 10
-2.260441541671753 1.440059781074524 0.7074089646339417 10
-2.2591097354888916 1.4397656917572021 0.6091564893722534 10
-2.2588729858398438 1.440169334411621 0.5128152966499329 10
-2.2598628997802734 1.4413553476333618 0.4180010259151459 10
-2.257953643798828 1.4406919479370117 0.3241724371910095 10
-2.274279832839966 1.4516675472259521 0.23270581662654877 10
-2.266880750656128 1.447501540184021 0.13895195722579956 10
-2.2567145824432373 1.441564679145813 0.04607434943318367 10
-1.6593462228775024 1.0620123147964478 -0.5176383256912231 119
-1.874427318572998 1.2001293897628784 -0.5050153732299805 119
-2.1979873180389404 1.4078342914581299 -0.4994710087776184 119
-2.2775683403015137 1.4593673944473267 -0.4223734140396118 10
-2.288355827331543 1.4668431282043457 -0.32904762029647827 10
-2.279620409011841 1.461804986000061 -0.23357774317264557 10
-2.2680671215057373 1.4549552202224731 -0.13875038921833038 10
-2.266319513320923 1.454392433166504 -0.04587319493293762 10
-2.2635297775268555 1.4531599283218384 0.709995448589325 10
-2.258169412612915 1.4502753019332886 0.6102803945541382 10
-2.2579615116119385 1.4506986141204834 0.5137684941291809 10
-2.25897216796875 1.4519050121307373 0.4187823235988617 10
-2.2570853233337402 1.4512490034103394 0.32478177547454834 10
-2.273388147354126 1.4622920751571655 0.23314161598682404 10
-2.2660131454467773 1.458107590675354 0.13921363651752472 10
-2.2558727264404297 1.4521392583847046 0.04616161435842514 10
-1.6515703201293945 1.0651804208755493 -0.5163442492485046 119
-1.8702266216278076 1.2066649198532104 -0.5050153732299805 119
-2.1930596828460693 1.41549813747406 -0.4994710087776184 119
-2.276609182357788 1.4699876308441162 -0.4231555759906769 10
-2.2873904705047607 1.477514624595642 -0.3296569287776947 10
-2.2786874771118164 1.4724568128585815 -0.23401352763175964 10
-2.262974500656128 1.4628633260726929 -0.13875038921833038 10
-2.2612287998199463 1.4622944593429565 -0.04587319493293762 10
-2.2624988555908203 1.463675856590271 0.7112887501716614 10
-2.257183790206909 1.4607962369918823 0.611404299736023 10
-2.2570042610168457 1.461238980293274 0.514721691608429 10
-2.258035659790039 1.4624662399291992 0.4195636510848999 10
-2.2561705112457275 1.4618172645568848 0.32539111375808716 10
-2.2724497318267822 1.4729279279708862 0.23357738554477692 10
-2.265099048614502 1.4687250852584839 0.13947531580924988 10
-2.25498366355896 1.462725281715393 0.046248871833086014 10
-1.6478421688079834 1.070939064025879 -0.5163442492485046 119
-1.866003155708313 1.2131860256195068 -0.5050153732299805 119
-2.1881051063537598 1.4231445789337158 -0.4994710087776184 119
-2.2756032943725586 1.4806187152862549 -0.42393776774406433 10
-2.2863783836364746 1.4881974458694458 -0.3302662968635559 10
-2.277708053588867 1.483120083808899 -0.23444931209087372 10
-2.262038469314575 1.473479151725769 -0.1390112042427063 10
-2.26029896736145 1.4729080200195312 -0.045959584414958954 10
-2.2614216804504395 1.4742019176483154 0.712581992149353 10
-2.260232448577881 1.4739888906478882 0.6136521100997925 10
-2.2601115703582764 1.4744722843170166 0.516628086566925 10
-2.2570526599884033 1.4730385541915894 0.4203449785709381 10
-2.2552096843719482 1.4723968505859375 0.32600048184394836 10
-2.2714645862579346 1.4835751056671143 0.234013170003891 10
-2.2641382217407227 1.4793537855148315 0.13973699510097504 10
-2.254049062728882 1.4733229875564575 0.046336136758327484 10
-1.6400535106658936 1.0740385055541992 -0.5150501132011414 119
-1.8617569208145142 1.2196922302246094 -0.5050153732299805 119
-2.183124303817749 1.4307739734649658 -0.4994710087776184 119
-2.2745509147644043 1.4912607669830322 -0.424719899892807 10
-2.2853193283081055 1.498890995979309 -0.3308756351470947 10
-2.276681423187256 1.4937942028045654 -0.2348850816488266 10
-2.2610554695129395 1.4841059446334839 -0.13927200436592102 10
-2.2593228816986084 1.4835331439971924 -0.046045973896980286 10
-2.26029896736145 1.4847387075424194 0.7138752341270447 10
-2.2591452598571777 1.4845452308654785 0.6147760152816772 10
-2.259052038192749 1.485048532485962 0.5175812244415283 10
-2.256023406982422 1.483621597290039 0.42112627625465393 10
-2.254202127456665 1.482987642288208 0.3266098201274872 10
-2.270432949066162 1.4942333698272705 0.23444895446300507 10
-2.2631311416625977 1.489993929862976 0.1399986743927002 10
-2.2530672550201416 1.4839318990707397 0.046423397958278656 10
-1.632263422012329 1.077096939086914 -0.5137560367584229 119
-1.8615541458129883 1.2288676500320435 -0.5061401724815369 119
-2.1781165599823 1.4383857250213623 -0.4994710087776184 119
-2.2734522819519043 1.5019135475158691 -0.42550209164619446 10
-2.288353681564331 1.5123316049575806 -0.33209434151649475 10
-2.2756083011627197 1.504479169845581 -0.23532088100910187 10
-2.260025978088379 1.494744062423706 -0.13953281939029694 10
-2.2582998275756836 1.494168996810913 -0.04613236337900162 10
-2.2591300010681152 1.4952852725982666 0.7151684761047363 10
-2.258011817932129 1.4951118230819702 0.615899920463562 10
-2.257946729660034 1.4956358671188354 0.5185344219207764 10
-2.2549476623535156 1.4942156076431274 0.42190760374069214 10
-2.253148317337036 1.4935894012451172 0.327219158411026 10
-2.2693543434143066 1.5049021244049072 0.23488472402095795 10
-2.2620773315429688 1.5006448030471802 0.14026035368442535 10
-2.2520394325256348 1.4945518970489502 0.04651065915822983 10
-1.6284936666488647 1.0827879905700684 -0.5137560367584229 119
-1.8572533130645752 1.2353581190109253 -0.5061401724815369 119
-2.1689960956573486 1.4432610273361206 -0.49851784110069275 119
-2.2723066806793213 1.512576699256897 -0.4262842535972595 10
-2.28719162940979 1.5230610370635986 -0.33270367980003357 10
-2.2786335945129395 1.5179362297058105 -0.23619243502616882 10
-2.2589495182037354 1.5053927898406982 -0.13979361951351166 10
-2.257230043411255 1.5048158168792725 -0.04621875658631325 10
-2.2579150199890137 1.505841851234436 0.716461718082428 10
-2.2568318843841553 1.5056886672973633 0.6170238256454468 10
-2.2567946910858154 1.5062329769134521 0.5194876194000244 10
-2.2538254261016846 1.5048199892044067 0.42268890142440796 10
-2.2561748027801514 1.5069580078125 0.328437864780426 10
-2.2682292461395264 1.5155820846557617 0.23532050848007202 10
-2.2609763145446777 1.511306643486023 0.1405220329761505 10
-2.250964403152466 1.5051827430725098 0.046597920358181 10
-1.624704122543335 1.088465929031372 -0.5137560367584229 119
-1.8569765090942383 1.244545817375183 -0.5072649121284485 119
-2.163945198059082 1.450823426246643 -0.49851784110069275 119
-2.2711143493652344 1.5232501029968262 -0.427066445350647 10
-2.285982131958008 1.533800482749939 -0.3333130180835724 10
-2.2774569988250732 1.5286568403244019 -0.2366282045841217 10
-2.257826566696167 1.516052484512329 -0.14005443453788757 10
-2.256113290786743 1.5154733657836914 -0.04630514234304428 10
-2.2566535472869873 1.516408085823059 0.7177549600601196 10
-2.2596490383148193 1.5189933776855469 0.6192715764045715 10
-2.255596160888672 1.5168405771255493 0.5204408168792725 10
-2.2526566982269287 1.5154348611831665 0.42347022891044617 10
-2.2550179958343506 1.5175951719284058 0.32904723286628723 10
-2.271188497543335 1.529053807258606 0.23619207739830017 10
-2.259828567504883 1.5219789743423462 0.14078372716903687 10
-2.249842643737793 1.515824317932129 0.04668518528342247 10
-1.6168917417526245 1.0914283990859985 -0.5124619007110596 119
-1.8526209592819214 1.2510201930999756 -0.5072649121284485 119
-2.158867597579956 1.458368182182312 -0.49851784110069275 119
-2.2698750495910645 1.533933401107788 -0.42784860730171204 10
-2.2847256660461426 1.5445500612258911 -0.3339223861694336 10
-2.276233196258545 1.539387822151184 -0.23706398904323578 10
-2.2566564083099365 1.5267223119735718 -0.1403152495622635 10
-2.2549498081207275 1.52614164352417 -0.04639153555035591 10
-2.2553460597991943 1.5269837379455566 0.719048261642456 10
-2.258366823196411 1.5296039581298828 0.6203955411911011 10
-2.2543511390686035 1.5274579524993896 0.5213940143585205 10
-2.2555289268493652 1.5288305282592773 0.4250328242778778 10
-2.253814458847046 1.528242588043213 0.32965657114982605 10
-2.2699592113494873 1.5397683382034302 0.23662783205509186 10
-2.258633613586426 1.5326615571975708 0.14104539155960083 10
-2.248673677444458 1.5264761447906494 0.046772442758083344 10
-1.6130720376968384 1.0970656871795654 -0.5124619007110596 119
-1.8522710800170898 1.2602200508117676 -0.5083897113800049 119
-2.1497058868408203 1.4631333351135254 -0.4975646436214447 119
-2.2685890197753906 1.5446269512176514 -0.4286307990550995 10
-2.283421754837036 1.5553096532821655 -0.3345317244529724 10
-2.2749619483947754 1.550128698348999 -0.23749975860118866 10
-2.255439281463623 1.5374027490615845 -0.1405760496854782 10
-2.253739356994629 1.5368201732635498 -0.04647792875766754 10
-2.2539920806884766 1.5375689268112183 0.7203414440155029 10
-2.257038116455078 1.5402240753173828 0.6215193867683411 10
-2.253059148788452 1.5380852222442627 0.5223472118377686 10
-2.2542567253112793 1.5394797325134277 0.42581412196159363 10
-2.252563953399658 1.5389001369476318 0.33026590943336487 10
-2.2686831951141357 1.5504931211471558 0.23706363141536713 10
-2.257392168045044 1.5433546304702759 0.14130708575248718 10
-2.2474582195281982 1.5371387004852295 0.046859707683324814 10
-1.605056643486023 1.100239872932434 -0.5111678242683411 119
-1.8476396799087524 1.2670005559921265 -0.5083897113800049 119
-2.1443288326263428 1.4710025787353516 -0.4975646436214447 119
-2.266984224319458 1.5557256937026978 -0.42941296100616455 10
-2.2817976474761963 1.5664772987365723 -0.33514106273651123 10
-2.2733709812164307 1.5612763166427612 -0.23793554306030273 10
