# .PCD v0.7 - Point Cloud Data file format
VERSION 0.7
FIELDS x y z intensity
SIZE 4 4 4 4
TYPE F F F F
COUNT 1 1 1 1
WIDTH 774
HEIGHT 1
VIEWPOINT 0 0 0 1 0 0 0
POINTS 774
DATA ascii
1.5406283140182495 -1.9811631441116333 0.3034546673297882 109
1.5519722700119019 -1.9964699745178223 0.21788936853408813 109
1.5492311716079712 -1.993661880493164 0.13031652569770813 109
1.5415434837341309 -1.9844833612442017 0.04319470375776291 109
1.2101768255233765 -1.5607130527496338 -0.5189324021339417 119
1.3844324350357056 -1.7860865592956543 -0.5128887295722961 119
1.5686670541763306 -2.024501085281372 -0.4899391233921051 119
1.55360746383667 -2.0057883262634277 -0.3957795202732086 109
1.560781717300415 -2.015777587890625 -0.3083297908306122 109
1.5538848638534546 -2.007593870162964 -0.21876125037670135 109
1.5420106649398804 -1.9929708242416382 -0.12962207198143005 109
1.5435054302215576 -1.9956225156784058 -0.04293592646718025 109
1.5448368787765503 -1.9980645179748535 0.666024923324585 109
1.545858383178711 -2.0001068115234375 0.5743153691291809 109
1.544832706451416 -1.9995008707046509 0.4832664430141449 109
1.5478287935256958 -2.0041017532348633 0.3945617079734802 109
1.5397690534591675 -1.9943854808807373 0.30467334389686584 109
1.551080346107483 -2.009761333465576 0.2187609225511551 109
1.548362374305725 -2.0069639682769775 0.13083988428115845 109
1.5407129526138306 -1.997769832611084 0.04336922615766525 109
1.2017755508422852 -1.5611008405685425 -0.5176383256912231 119
1.3811604976654053 -1.794769048690796 -0.5140134692192078 119
1.564583420753479 -2.0338549613952637 -0.49089235067367554 119
1.5526173114776611 -2.019028902053833 -0.39734387397766113 109
1.5597848892211914 -2.0290822982788086 -0.3095484673976898 109
1.5559723377227783 -2.0248541831970215 -0.2200685739517212 109
1.5411279201507568 -2.006260871887207 -0.1301436871290207 109
1.5426195859909058 -2.0089282989501953 -0.043108709156513214 109
1.5437347888946533 -2.0111074447631836 0.6686114072799683 109
1.5447990894317627 -2.013221263885498 0.5765632390975952 109
1.5438183546066284 -2.0126705169677734 0.4851728081703186 109
1.5468336343765259 -2.0173304080963135 0.39612433314323425 109
1.5388360023498535 -2.0076255798339844 0.30589205026626587 109
1.550114393234253 -2.023071050643921 0.21963247656822205 109
1.547419786453247 -2.020284652709961 0.13136324286460876 109
1.5398082733154297 -2.0110743045806885 0.043543748557567596 109
1.1963189840316772 -1.56528639793396 -0.5176383256912231 119
1.374887228012085 -1.7995792627334595 -0.5140134692192078 119
1.5634326934814453 -2.047105550765991 -0.49279871582984924 119
1.551553726196289 -2.0322868824005127 -0.39890819787979126 109
1.5587141513824463 -2.042404890060425 -0.31076717376708984 109
1.5549372434616089 -2.038193464279175 -0.22094014286994934 109
1.5401710271835327 -2.019568920135498 -0.13066530227661133 109
1.5416594743728638 -2.0222525596618652 -0.04328148812055588 109
1.5425604581832886 -2.0241668224334717 0.6711979508399963 109
1.5436670780181885 -2.0263524055480957 0.5788110494613647 109
1.5427308082580566 -2.0258569717407227 0.4870792031288147 109
1.5457651615142822 -2.030576705932617 0.3976869285106659 109
1.5378291606903076 -2.020883560180664 0.3071107268333435 109
1.5520899295806885 -2.040362596511841 0.22093980014324188 109
1.5464028120040894 -2.0336227416992188 0.13188660144805908 109
1.5388296842575073 -2.0243968963623047 0.04371827468276024 109
1.187928557395935 -1.5656051635742188 -0.5163442492485046 119
1.368597149848938 -1.8043674230575562 -0.5140134692192078 119
1.5592429637908936 -2.056461811065674 -0.4937518835067749 119
1.5533993244171143 -2.049497604370117 -0.4012547433376312 109
1.5575693845748901 -2.0557446479797363 -0.31198588013648987 109
1.5508204698562622 -2.047579526901245 -0.22137592732906342 109
1.5391401052474976 -2.0328946113586426 -0.13118691742420197 109
1.540624976158142 -2.0355939865112305 -0.04345426708459854 109
1.5413134098052979 -2.0372424125671387 0.6737844347953796 109
1.5424621105194092 -2.0395004749298096 0.5810588598251343 109
1.5415698289871216 -2.039060354232788 0.4889856278896332 109
1.5446230173110962 -2.043840169906616 0.3992495536804199 109
1.5367486476898193 -2.034158945083618 0.30832943320274353 109
1.550961971282959 -2.053717851638794 0.22181135416030884 109
1.545311689376831 -2.046978712081909 0.1324099600315094 109
1.540788173675537 -2.0417275428771973 0.04398006200790405 109
1.1824562549591064 -1.5697423219680786 -0.5163442492485046 119
1.3622902631759644 -1.809133768081665 -0.5140134692192078 119
1.555006980895996 -2.0658133029937744 -0.49470508098602295 119
1.54920494556427 -2.0588533878326416 -0.4020369052886963 109
1.5563503503799438 -2.069100856781006 -0.3132045567035675 109
1.5496505498886108 -2.0609424114227295 -0.22224748134613037 109
1.5380347967147827 -2.0462377071380615 -0.1317085474729538 109
1.5395160913467407 -2.04895281791687 -0.0436270497739315 109
1.5399940013885498 -2.0503339767456055 0.6763709187507629 109
1.5441092252731323 -2.0565602779388428 0.5844305753707886 109
1.5403355360031128 -2.0522801876068115 0.4908919930458069 109
1.5434070825576782 -2.0571203231811523 0.40081220865249634 109
1.5385715961456299 -2.0514211654663086 0.31015744805336 109
1.5497593879699707 -2.067089557647705 0.2226829081773758 109
1.5441458225250244 -2.0603513717651367 0.13293331861495972 109
1.5396467447280884 -2.0550954341888428 0.044154584407806396 109
1.1740772724151611 -1.5699926614761353 -0.5150501132011414 119
1.3530502319335938 -1.8099762201309204 -0.5128887295722961 119
1.5507243871688843 -2.075160264968872 -0.4956582486629486 119
1.550875186920166 -2.076117992401123 -0.40438342094421387 109
1.5550570487976074 -2.0824739933013916 -0.31442326307296753 109
1.5484061241149902 -2.07432222366333 -0.22311905026435852 109
1.5368549823760986 -2.0595974922180176 -0.13223016262054443 109
1.5383327007293701 -2.062328815460205 -0.04379982873797417 109
1.5386018753051758 -2.063441038131714 0.678957462310791 109
1.5427443981170654 -2.0697503089904785 0.5866783857345581 109
1.54196035861969 -2.0694520473480225 0.49375152587890625 109
1.5421169996261597 -2.0704164505004883 0.40237483382225037 109
1.5373289585113525 -2.0647401809692383 0.31137615442276 109
1.5484824180603027 -2.0804781913757324 0.22355449199676514 109
1.5429056882858276 -2.0737409591674805 0.13345667719841003 109
1.5384308099746704 -2.0684800148010254 0.04432911053299904 109
1.1685898303985596 -1.5740814208984375 -0.5150501132011414 119
1.3467239141464233 -1.8146882057189941 -0.5128887295722961 119
1.5463958978652954 -2.084502935409546 -0.49661147594451904 119
1.5495021343231201 -2.0894522666931152 -0.4059477746486664 109
1.5566447973251343 -2.0998497009277344 -0.31625130772590637 109
1.54708731174469 -2.0877184867858887 -0.22399060428142548 109
1.5356006622314453 -2.07297420501709 -0.13275177776813507 109
1.5400499105453491 -2.0797390937805176 -0.04405900090932846 109
1.5400103330612183 -2.0804450511932373 0.682837188243866 109
1.5413062572479248 -2.0829555988311768 0.5889261960983276 109
1.540565013885498 -2.082714080810547 0.49565789103507996 109
1.54075288772583 -2.083728790283203 0.4039374589920044 109
1.536012053489685 -2.078075647354126 0.31259486079216003 109
1.5471309423446655 -2.0938830375671387 0.2244260460138321 109
1.5415905714035034 -2.087146759033203 0.13398003578186035 109
1.5401091575622559 -2.085902690887451 0.044590894132852554 109
1.1602228879928589 -1.574263095855713 -0.5137560367584229 119
1.3403812646865845 -1.8193780183792114 -0.5128887295722961 119
1.542020559310913 -2.0938403606414795 -0.4975646436214447 119
1.5480546951293945 -2.102802038192749 -0.4075121283531189 109
1.5551884174346924 -2.113264560699463 -0.3174700140953064 109
1.5456933975219727 -2.101130485534668 -0.22486215829849243 109
1.5342715978622437 -2.086366891860962 -0.1332733929157257 109
1.5387026071548462 -2.093158006668091 -0.044231779873371124 109
1.5384589433670044 -2.0935919284820557 0.6854236721992493 109
1.5397945642471313 -2.0961763858795166 0.5911740064620972 109
1.5390956401824951 -2.095991373062134 0.49756428599357605 109
1.5422368049621582 -2.1010377407073975 0.40628135204315186 109
1.534620761871338 -2.0914270877838135 0.31381356716156006 109
1.5457043647766113 -2.1073031425476074 0.22529760003089905 109
1.5431532859802246 -2.104595422744751 0.13476508855819702 109
1.5387295484542847 -2.099330425262451 0.0447654202580452 109
1.1547205448150635 -1.5783034563064575 -0.5137560367584229 119
1.3368980884552002 -1.8279780149459839 -0.5140134692192078 119
1.5462895631790161 -2.1150596141815186 -0.5013774037361145 119
1.5465329885482788 -2.1161675453186035 -0.4090764820575714 109
1.5536572933197021 -2.126694917678833 -0.31868869066238403 109
1.5442249774932861 -2.114558458328247 -0.2257337123155594 109
1.532867670059204 -2.099776029586792 -0.13379502296447754 109
1.537280797958374 -2.106593132019043 -0.044404562562704086 109
1.5396809577941895 -2.1106555461883545 0.689303457736969 109
1.5382094383239746 -2.1094117164611816 0.5934218168258667 109
1.5375525951385498 -2.109283924102783 0.49947065114974976 109
1.540710210800171 -2.1143910884857178 0.4078439772129059 109
1.5360766649246216 -2.1088054180145264 0.3156415820121765 109
1.5442031621932983 -2.120739221572876 0.226169154047966 109
1.541674256324768 -2.1180431842803955 0.13528844714164734 109
1.537274718284607 -2.1127736568450928 0.04493994638323784 109
1.146366000175476 -1.5784167051315308 -0.5124619007110596 119
1.3333715200424194 -1.8365761041641235 -0.5151382088661194 119
1.547546148300171 -2.13236141204834 -0.5042369961738586 119
1.5449366569519043 -2.129547595977783 -0.41064080595970154 109
1.552051305770874 -2.1401402950286865 -0.31990739703178406 109
1.5456048250198364 -2.1320340633392334 -0.2270410656929016 109
1.5343185663223267 -2.1172430515289307 -0.1345774382352829 109
1.5357837677001953 -2.1200437545776367 -0.04457734152674675 109
1.5379695892333984 -2.1238410472869873 0.6918899416923523 109
1.5365504026412964 -2.1226611137390137 0.5956695675849915 109
1.5359350442886353 -2.1225907802581787 0.5013770461082458 109
1.5420036315917969 -2.131760835647583 0.4101879298686981 109
1.5345219373703003 -2.122197389602661 0.31686028838157654 109
1.5426267385482788 -2.134190320968628 0.22704072296619415 109
1.540120244026184 -2.1315059661865234 0.13581180572509766 109
1.5357447862625122 -2.126232385635376 0.04511446878314018 109
1.1408493518829346 -1.5824086666107178 -0.5124619007110596 119
1.3269524574279785 -1.8412193059921265 -0.5151382088661194 119
1.554438591003418 -2.1576623916625977 -0.5090028643608093 119
1.5461515188217163 -2.146949529647827 -0.4129873216152191 109
1.553269624710083 -2.157627582550049 -0.3217354118824005 109
1.543972373008728 -2.1455023288726807 -0.22791261970996857 109
1.5327504873275757 -2.130692958831787 -0.13509906828403473 109
1.5371302366256714 -2.1375679969787598 -0.044836513698101044 109
1.5361846685409546 -2.13703989982605 0.6944764256477356 109
1.5348176956176758 -2.135924816131592 0.597917377948761 109
1.5342434644699097 -2.1359121799468994 0.5032833814620972 109
1.5403140783309937 -2.145153284072876 0.41175055503845215 109
1.5328924655914307 -2.1356043815612793 0.3180789649486542 109
1.5409749746322632 -2.147655963897705 0.2279122769832611 109
1.5414009094238281 -2.149041175842285 0.13659684360027313 109
1.5341393947601318 -2.1397056579589844 0.045288994908332825 109
1.1353187561035156 -1.5863813161849976 -0.5124619007110596 119
1.3205174207687378 -1.8458399772644043 -0.5151382088661194 119
1.5411871671676636 -2.155090570449829 -0.507096529006958 119
1.5443918704986572 -2.1603686809539795 -0.41455164551734924 109
1.5514994859695435 -2.171111583709717 -0.32295411825180054 109
1.5422641038894653 -2.158984661102295 -0.22878417372703552 109
1.5340086221694946 -2.1482207775115967 -0.13588149845600128 109
1.5354682207107544 -2.1510584354400635 -0.04500929266214371 109
1.537131905555725 -2.154183864593506 0.6983562111854553 109
1.5358402729034424 -2.1531686782836914 0.6012891530990601 109
1.532477617263794 -2.149247646331787 0.5051897764205933 109
1.538549542427063 -2.158560276031494 0.4133131802082062 109
1.531187891960144 -2.1490254402160645 0.3192976713180542 109
1.5392482280731201 -2.1611361503601074 0.22878383100032806 109
1.5396819114685059 -2.162543773651123 0.13712020218372345 109
1.5324589014053345 -2.153193950653076 0.04546351730823517 109
1.1297744512557983 -1.5903346538543701 -0.5124619007110596 119
1.3112452030181885 -1.8464659452438354 -0.5140134692192078 119
1.5336551666259766 -2.160457134246826 -0.507096529006958 119
1.5425572395324707 -2.1738011837005615 -0.41611599922180176 109
1.5496540069580078 -2.1846096515655518 -0.3241727948188782 109
1.540480613708496 -2.1724812984466553 -0.22965574264526367 109
1.532275676727295 -2.1617095470428467 -0.13640311360359192 109
1.53662109375 -2.168642282485962 -0.0452684611082077 109
1.5351862907409668 -2.167419195175171 0.7009427547454834 109
1.5339456796646118 -2.166469097137451 0.6035369634628296 109
1.5334728956222534 -2.166602849960327 0.5080493688583374 109
1.5367100238800049 -2.171980619430542 0.4148758053779602 109
1.5294084548950195 -2.1624608039855957 0.32051634788513184 109
1.5374460220336914 -2.1746301651000977 0.22965538501739502 109
1.5378873348236084 -2.176060199737549 0.13764356076717377 109
1.5335869789123535 -2.17077898979187 0.045725300908088684 109
1.1242161989212036 -1.5942686796188354 -0.5124619007110596 119
1.3019851446151733 -1.8470498323440552 -0.5128887295722961 119
1.5261043310165405 -2.165797472000122 -0.507096529006958 119
1.5434914827346802 -2.191284656524658 -0.4184625446796417 109
1.5477330684661865 -2.1981215476989746 -0.3253915011882782 109
1.5386219024658203 -2.1859917640686035 -0.23052729666233063 109
1.5333402156829834 -2.1792960166931152 -0.13718552887439728 109
1.5347938537597656 -2.182171106338501 -0.045441243797540665 109
1.5331671237945557 -2.180666923522949 0.7035292387008667 109
1.5319768190383911 -2.1797823905944824 0.6057847738265991 109
1.5315438508987427 -2.1799750328063965 0.5099557638168335 109
1.5376341342926025 -2.189455986022949 0.41721969842910767 109
1.530405044555664 -2.179971694946289 0.3223443925380707 109
1.5384294986724854 -2.1922152042388916 0.23096270859241486 109
1.5360172986984253 -2.1895906925201416 0.13816691935062408 109
1.5317407846450806 -2.184305429458618 0.04589982330799103 109
1.1158747673034668 -1.5942264795303345 -0.5111678242683411 119
1.2955297231674194 -1.851583480834961 -0.5128887295722961 119
1.5185350179672241 -2.1711113452911377 -0.507096529006958 119
1.5414924621582031 -2.2047536373138428 -0.42002686858177185 109
1.5457366704940796 -2.2116458415985107 -0.32661017775535583 109
1.5395399332046509 -2.2035984992980957 -0.23183462023735046 109
1.5343008041381836 -2.196916103363037 -0.13796795904636383 109
1.532890796661377 -2.1957132816314697 -0.04561402276158333 109
1.531074047088623 -2.1939268112182617 0.70611572265625 109
1.5299336910247803 -2.193108320236206 0.6080325841903687 109
1.5295401811599731 -2.193359851837158 0.5118620991706848 109
1.5356303453445435 -2.2029125690460205 0.4187823235988617 109
1.5284608602523804 -2.193443775177002 0.3235630989074707 109
1.5364618301391602 -2.2057461738586426 0.2318342626094818 109
1.5340712070465088 -2.203134059906006 0.1386902779340744 109
1.5298190116882324 -2.197844982147217 0.04607434943318367 109
1.1130586862564087 -1.6020781993865967 -0.5124619007110596 119
1.286279559135437 -1.8520927429199219 -0.5117639303207397 119
1.5109471082687378 -2.176398754119873 -0.507096529006958 119
1.5422340631484985 -2.222292900085449 -0.4223734140396118 109
1.546493411064148 -2.2292609214782715 -0.32843825221061707 109
1.53751540184021 -2.2171454429626465 -0.23270617425441742 109
1.5323121547698975 -2.210465669631958 -0.13848958909511566 109
1.5309118032455444 -2.2092690467834473 -0.04578680172562599 109
1.5316569805145264 -2.2111690044403076 0.709995448589325 109
1.5305896997451782 -2.210452079772949 0.611404299736023 109
1.5302549600601196 -2.2107932567596436 0.514721691608429 109
1.5363613367080688 -2.2204432487487793 0.42112627625465393 109
1.529263973236084 -2.211010456085205 0.32539111375808716 109
1.5344182252883911 -2.219290018081665 0.23270581662654877 109
1.532049298286438 -2.2166907787323 0.13921363651752472 109
1.5278208255767822 -2.211397886276245 0.046248871833086014 109
1.0964925289154053 -1.5900499820709229 -0.5072855353355408 119
1.2770416736602783 -1.8525604009628296 -0.5106391906738281 119
1.5033408403396606 -2.181659698486328 -0.507096529006958 119
1.5400701761245728 -2.2357964515686035 -0.42393776774406433 109
1.544331431388855 -2.2428207397460938 -0.3296569287776947 109
1.5382392406463623 -2.2348077297210693 -0.23401352763175964 109
1.533077597618103 -2.2281415462493896 -0.13927200436592102 109
1.5288567543029785 -2.2228376865386963 -0.045959584414958954 109
1.5294018983840942 -2.224461555480957 0.712581992149353 109
1.528383493423462 -2.223811626434326 0.6136521100997925 109
1.5308667421340942 -2.228257894515991 0.5175812244415283 109
1.5341929197311401 -2.2339346408843994 0.42268890142440796 109
1.5299632549285889 -2.228609323501587 0.327219158411026 109
1.5351173877716064 -2.2369537353515625 0.234013170003891 109
1.5327759981155396 -2.234377384185791 0.1399986743927002 109
1.5257470607757568 -2.224963665008545 0.046423397958278656 109
1.0936634540557861 -1.5978533029556274 -0.5085796117782593 119
1.2623140811920166 -1.8449442386627197 -0.5072649121284485 119
1.4957163333892822 -2.186893939971924 -0.507096529006958 119
1.5406180620193481 -2.2533888816833496 -0.4262842535972595 109
1.5420936346054077 -2.256392240524292 -0.3308756351470947 109
1.536048412322998 -2.248389482498169 -0.2348850816488266 109
1.530922532081604 -2.2417261600494385 -0.13979361951351166 109
1.5267256498336792 -2.2364184856414795 -0.04613236337900162 109
1.527072548866272 -2.2377655506134033 0.7151684761047363 109
1.5288481712341309 -2.2412073612213135 0.6170238256454468 109
1.5286097526550293 -2.2416985034942627 0.5194876194000244 109
1.5319489240646362 -2.2474377155303955 0.4242514967918396 109
1.5305581092834473 -2.2462399005889893 0.32904723286628723 109
1.5329076051712036 -2.2505319118499756 0.23488472402095795 109
1.5305875539779663 -2.247968912124634 0.1405220329761505 109
1.5264098644256592 -2.2426741123199463 0.04668518528342247 109
1.0853652954101562 -1.5976661443710327 -0.5072855353355408 119
1.253129482269287 -1.8453091382980347 -0.5061401724815369 119
1.4880735874176025 -2.1921017169952393 -0.507096529006958 119
1.5382887125015259 -2.266925573348999 -0.42784860730171204 109
1.5397796630859375 -2.269975185394287 -0.33209434151649475 109
1.5365768671035767 -2.2661051750183105 -0.23619243502616882 109
1.5286914110183716 -2.2553231716156006 -0.1403152495622635 109
1.5245181322097778 -2.250011682510376 -0.04630514234304428 109
1.5273776054382324 -2.2550792694091797 0.719048261642456 109
1.5264785289764404 -2.2545993328094482 0.6192715764045715 109
1.5290287733078003 -2.2592151165008545 0.5223472118377686 109
1.5323965549468994 -2.265042781829834 0.42659544944763184 109
1.53104829788208 -2.263901472091675 0.3308752477169037 109
1.5334116220474243 -2.2682485580444336 0.23619207739830017 109
1.5283228158950806 -2.2615718841552734 0.14104539155960083 109
1.5241689682006836 -2.2562739849090576 0.046859707683324814 109
nan nan nan 0
1.2200829982757568 -1.808847427368164 -0.4948926270008087 119
1.4839236736297607 -2.200835704803467 -0.508049726486206 119
1.5366796255111694 -2.279937267303467 -0.42941296100616455 109
1.5381866693496704 -2.2830331325531006 -0.3333130180835724 109
1.5350152254104614 -2.279184103012085 -0.23706398904323578 109
1.5271756649017334 -2.2683985233306885 -0.14083686470985413 109
1.525815725326538 -2.2672324180603027 -0.046564314514398575 109
1.5256774425506592 -2.2678816318511963 0.7216347455978394 109
1.5248255729675293 -2.267469644546509 0.6215193867683411 109
1.5274003744125366 -2.2721545696258545 0.5242535471916199 109
1.533536434173584 -2.2821428775787354 0.4289393723011017 109
1.5294629335403442 -2.2769391536712646 0.3320939540863037 109
1.5318313837051392 -2.281325340270996 0.23706363141536713 109
1.5295586585998535 -2.2787997722625732 0.1418304443359375 109
1.5254294872283936 -2.273505210876465 0.04712149500846863 109
nan nan nan 0
1.235443115234375 -1.8454828262329102 -0.5038906931877136 119
1.4762322902679443 -2.2060019969940186 -0.508049726486206 119
1.5342034101486206 -2.293497085571289 -0.4309772849082947 109
1.5384838581085205 -2.300764799118042 -0.33514106273651123 109
1.5353538990020752 -2.2969512939453125 -0.23837131261825562 109
1.5275702476501465 -2.286170244216919 -0.14161927998065948 109
1.5262224674224854 -2.2850165367126465 -0.04682349041104317 109
1.5257974863052368 -2.2852437496185303 0.7255144715309143 109
1.5250153541564941 -2.284935712814331 0.6248911619186401 109
1.5276317596435547 -2.2897212505340576 0.527113139629364 109
1.5337814092636108 -2.2998082637786865 0.4312833249568939 109
1.529764175415039 -2.294651985168457 0.33392199873924255 109
1.5321452617645264 -2.299093008041382 0.23837095499038696 109
1.52713143825531 -2.292436122894287 0.14235380291938782 109
1.5257967710494995 -2.291299343109131 0.047383278608322144 109
1.0554927587509155 -1.58864426612854 -0.5008150935173035 119
1.2259752750396729 -1.8459399938583374 -0.5027658939361572 119
1.4708515405654907 -2.215487003326416 -0.5090028643608093 119
1.5312484502792358 -2.3073341846466064 -0.4325416386127472 109
1.541014552116394 -2.322929859161377 -0.3375784754753113 109
1.5324305295944214 -2.310865640640259 -0.23924288153648376 109
1.5246983766555786 -2.300077438354492 -0.14214091002941132 109
1.5288829803466797 -2.3072643280029297 -0.047169048339128494 109
1.525412917137146 -2.302900552749634 0.729394257068634 109
1.5246995687484741 -2.302696466445923 0.6282628178596497 109
1.5246473550796509 -2.3034908771514893 0.5290194749832153 109
1.536242127418518 -2.3218891620635986 0.4344085454940796 109
1.5268189907073975 -2.3085222244262695 0.3351406753063202 109
1.5319496393203735 -2.3171584606170654 0.239678293466568 109
1.5242247581481934 -2.306349039077759 0.14287716150283813 109
1.5256553888320923 -2.309390068054199 0.047645069658756256 109
1.0605754852294922 -1.6084470748901367 -0.5059914588928223 119
1.2222055196762085 -1.8542759418487549 -0.5038906931877136 119
1.46580970287323 -2.2247064113616943 -0.5099561214447021 119
1.5313342809677124 -2.325038194656372 -0.43488818407058716 109
1.5410834550857544 -2.3407297134399414 -0.33940649032592773 109
1.5325695276260376 -2.3286831378936768 -0.2405502200126648 109
1.5248934030532837 -2.3179001808166504 -0.14292334020137787 109
1.5290606021881104 -2.325118064880371 -0.04742821678519249 109
1.5253244638442993 -2.3203189373016357 0.7332740426063538 109
1.524679183959961 -2.3202195167541504 0.6316345930099487 109
1.5246819257736206 -2.32110595703125 0.5318790674209595 109
1.5362598896026611 -2.3396217823028564 0.43675246834754944 109
1.5269209146499634 -2.326284170150757 0.33696871995925903 109
1.529316782951355 -2.3308207988739014 0.24054984748363495 109
1.521641731262207 -2.3200061321258545 0.14340052008628845 109
1.5258079767227173 -2.3272438049316406 0.04790685325860977 109
1.041731834411621 -1.5919328927993774 -0.4995209574699402 119
1.213058352470398 -1.8544538021087646 -0.5027658939361572 119
1.4580351114273071 -2.229809284210205 -0.5099561214447021 119
1.5286128520965576 -2.338636875152588 -0.4364525079727173 109
1.5437614917755127 -2.362713098526001 -0.3418438732624054 109
1.5326029062271118 -2.346529245376587 -0.24185754358768463 109
1.524982213973999 -2.33575177192688 -0.14370575547218323 109
1.5263996124267578 -2.3388142585754395 -0.04760099574923515 109
1.525132656097412 -2.3377645015716553 0.7371537685394287 109
1.524554967880249 -2.337770462036133 0.635006308555603 109
1.5219312906265259 -2.3346378803253174 0.5337854623794556 109
1.53886878490448 -2.361520767211914 0.4398776888847351 109
1.5242087841033936 -2.339916467666626 0.33818739652633667 109
1.5266072750091553 -2.3444929122924805 0.2414214164018631 109
1.5217057466506958 -2.337857723236084 0.14418554306030273 109
1.5258543491363525 -2.3451266288757324 0.048168640583753586 109
1.0493205785751343 -1.6158119440078735 -0.5059914588928223 119
1.2039252519607544 -1.8545907735824585 -0.5016411542892456 119
1.4475709199905396 -2.2307679653167725 -0.5090028643608093 119
1.5285025835037231 -2.3563878536224365 -0.43879902362823486 109
1.5436047315597534 -2.3805794715881348 -0.34367191791534424 109
1.532530426979065 -2.3644044399261475 -0.24316489696502686 109
1.522249698638916 -2.3494415283203125 -0.14422737061977386 109
1.5263793468475342 -2.3567163944244385 -0.047860171645879745 109
1.5248377323150635 -2.3552370071411133 0.7410335540771484 109
1.5243265628814697 -2.3553483486175537 0.6383780241012573 109
1.5217705965042114 -2.352299213409424 0.5366449952125549 109
1.5359797477722168 -2.3751718997955322 0.4414403438568115 109
1.5214200019836426 -2.35355806350708 0.3394061028957367 109
1.5238207578659058 -2.3581748008728027 0.24229297041893005 109
1.5243725776672363 -2.3599321842193604 0.14523227512836456 109
1.5230827331542969 -2.3588383197784424 0.04834316298365593 109
nan nan nan 0
1.197444200515747 -1.8587819337844849 -0.5016411542892456 119
1.4397752285003662 -2.235807418823242 -0.5090028643608093 119
1.5282870531082153 -2.374166250228882 -0.44114553928375244 109
1.5433417558670044 -2.3984735012054443 -0.34549999237060547 109
1.5323512554168701 -2.3823068141937256 -0.2444722205400467 109
1.5194402933120728 -2.363140821456909 -0.1447489857673645 109
1.5262525081634521 -2.3746466636657715 -0.04811934009194374 109
1.5244390964508057 -2.3727355003356934 0.7449132800102234 109
1.521360993385315 -2.3688535690307617 0.6406258344650269 109
1.521505355834961 -2.369987964630127 0.5395045876502991 109
1.533014178276062 -2.388831853866577 0.44300296902656555 109
1.5212342739105225 -2.3713860511779785 0.34123414754867554 109
1.520957350730896 -2.3718655109405518 0.243164524435997 109
1.5242092609405518 -2.377849817276001 0.14601731300354004 109
1.5202337503433228 -2.372558832168579 0.04851768910884857 109
nan nan nan 0
1.190948486328125 -1.8629504442214966 -0.5016411542892456 119
1.429319143295288 -2.2366836071014404 -0.508049726486206 119
1.527965784072876 -2.391972064971924 -0.4434920847415924 109
1.5429728031158447 -2.4163942337036133 -0.3473280072212219 109
1.5293859243392944 -2.396038055419922 -0.24534378945827484 109
1.5192395448684692 -2.38105845451355 -0.14553143084049225 109
1.523330569267273 -2.3883893489837646 -0.048292119055986404 109
1.5239371061325073 -2.3902602195739746 0.7487930655479431 109
1.5209382772445679 -2.3864755630493164 0.6439975500106812 109
1.5184978246688843 -2.383563995361328 0.5414109230041504 109
1.5273188352584839 -2.398333787918091 0.44378426671028137 109
1.5182772874832153 -2.385054588317871 0.34245285391807556 109
1.5206910371780396 -2.3897669315338135 0.24447184801101685 109
1.5266191959381104 -2.400007963180542 0.14706403017044067 109
1.5199898481369019 -2.3905069828033447 0.04877947270870209 109
1.0452818870544434 -1.647100567817688 -0.5124619007110596 119
1.1870479583740234 -1.871209979057312 -0.5027658939361572 119
1.4188742637634277 -2.237514019012451 -0.507096529006958 119
1.5248950719833374 -2.4056332111358643 -0.4450564384460449 109
1.5398411750793457 -2.430149555206299 -0.34854671359062195 109
1.5290087461471558 -2.4139859676361084 -0.24665112793445587 109
1.5162609815597534 -2.394784450531006 -0.14605304598808289 109
1.5230051279067993 -2.406365394592285 -0.0485512912273407 109
1.5233310461044312 -2.4078099727630615 0.7526727914810181 109
1.5204110145568848 -2.404123067855835 0.6473692059516907 109
1.5180366039276123 -2.401296377182007 0.5442705154418945 109
1.521576166152954 -2.4078257083892822 0.4445655941963196 109
1.5178937911987305 -2.4029271602630615 0.3442808985710144 109
1.5203181505203247 -2.4076952934265137 0.24577918648719788 109
1.5262279510498047 -2.417989492416382 0.14784908294677734 109
1.5196391344070435 -2.408482313156128 0.0490412600338459 109
1.0369524955749512 -1.6466524600982666 -0.5111678242683411 119
1.1805089712142944 -1.8753421306610107 -0.5027658939361572 119
1.411055326461792 -2.242453098297119 -0.507096529006958 119
1.5243765115737915 -2.4234819412231445 -0.4474029242992401 109
1.5392736196517944 -2.4481136798858643 -0.3503747582435608 109
1.525874137878418 -2.4277429580688477 -0.24752268195152283 109
1.5132050514221191 -2.4085185527801514 -0.14657466113567352 109
1.522572636604309 -2.424367904663086 -0.04881046339869499 109
1.5226210355758667 -2.425384521484375 0.7565525770187378 109
1.519778847694397 -2.4217960834503174 0.6507409811019897 109
1.5174700021743774 -2.4190542697906494 0.5471300482749939 109
1.521032691001892 -2.4256742000579834 0.44690951704978943 109
1.5174038410186768 -2.420825719833374 0.34610891342163086 109
1.5198384523391724 -2.4256503582000732 0.2470865398645401 109
1.5230791568756104 -2.4317657947540283 0.14837244153022766 109
1.5191816091537476 -2.4264841079711914 0.049303047358989716 109
1.0337575674057007 -1.6543577909469604 -0.5124619007110596 119
1.1739556789398193 -1.8794513940811157 -0.5027658939361572 119
1.4032189846038818 -2.2473649978637695 -0.507096529006958 119
1.5237520933151245 -2.441356658935547 -0.4497494697570801 109
1.5385994911193848 -2.4661030769348145 -0.35220277309417725 109
1.5252981185913086 -2.4457337856292725 -0.24883003532886505 109
1.5127131938934326 -2.426497459411621 -0.14735709130764008 109
1.5193886756896973 -2.4381532669067383 -0.048983242362737656 109
1.519252896308899 -2.4388835430145264 0.7591390609741211 109
1.519041895866394 -2.4394936561584473 0.6541126370429993 109
1.5167979001998901 -2.436837673187256 0.549989640712738 109
1.520383358001709 -2.4435484409332275 0.4492534399032593 109
1.5168075561523438 -2.4387502670288086 0.3479369580745697 109
1.519251823425293 -2.443631172180176 0.24839386343955994 109
1.5198523998260498 -2.4455490112304688 0.14889580011367798 109
1.521254539489746 -2.448758363723755 0.0496520958840847 109
1.0076165199279785 -1.6251188516616821 -0.502109169960022 119
1.1673879623413086 -1.8835378885269165 -0.5027658939361572 119
1.3953657150268555 -2.2522494792938232 -0.507096529006958 119
1.5230212211608887 -2.4592559337615967 -0.45209595561027527 109
1.537818431854248 -2.4841177463531494 -0.3540308475494385 109
1.521993637084961 -2.4595141410827637 -0.249701589345932 109
1.51211416721344 -2.444502353668213 -0.14813950657844543 109
1.5187561511993408 -2.4561984539031982 -0.04924241080880165 109
1.5183485746383667 -2.4564971923828125 0.7630188465118408 109
1.5156389474868774 -2.453070878982544 0.6563604474067688 109
1.5185993909835815 -2.4588217735290527 0.5538024306297302 109
1.5196274518966675 -2.461447238922119 0.4515973627567291 109
1.5161043405532837 -2.4566996097564697 0.34976500272750854 109
1.5211732387542725 -2.465876340866089 0.25013697147369385 109
1.5165482759475708 -2.4593396186828613 0.1494191586971283 109
1.5205672979354858 -2.466820478439331 0.04991387948393822 109
0.9867536425590515 -1.6039451360702515 -0.4943445920944214 119
1.1608060598373413 -1.887601375579834 -0.5027658939361572 119
1.3900660276412964 -2.2612881660461426 -0.508049726486206 119
1.5195986032485962 -2.4729726314544678 -0.4536603093147278 0
1.5343327522277832 -2.4979279041290283 -0.3552495241165161 109
1.5212178230285645 -2.477545976638794 -0.25100892782211304 109
1.511407732963562 -2.4625327587127686 -0.14892195165157318 109
1.5154019594192505 -2.4700071811676025 -0.04941519349813461 109
1.5173393487930298 -2.4741337299346924 0.7668985724449158 109
1.514706015586853 -2.4708075523376465 0.6597322225570679 109
1.5177009105682373 -2.4766623973846436 0.5566619634628296 109
1.5187652111053467 -2.4793708324432373 0.45394131541252136 109
1.5152943134307861 -2.4746739864349365 0.3515930473804474 109
1.5203574895858765 -2.4839162826538086 0.2514443099498749 109
1.5157722234725952 -2.47739577293396 0.15020418167114258 109
1.5197724103927612 -2.484907865524292 0.05017566680908203 109
nan nan nan 0
1.154210090637207 -1.8916417360305786 -0.5027658939361572 119
1.3821641206741333 -2.2661266326904297 -0.508049726486206 119
1.5186693668365479 -2.4909114837646484 -0.45600685477256775 0
1.5333518981933594 -2.515981674194336 -0.35707756876945496 109
1.5177429914474487 -2.4913482666015625 -0.2518804669380188 109
1.5105937719345093 -2.4805872440338135 -0.14970436692237854 109
1.5145691633224487 -2.4880926609039307 -0.04967436566948891 109
1.5162259340286255 -2.491793632507324 0.7707783579826355 109
1.5136678218841553 -2.488567352294922 0.6631039381027222 109
1.5166963338851929 -2.4945271015167236 0.5595215559005737 109
1.5177961587905884 -2.4973175525665283 0.4562852084636688 109
1.5143768787384033 -2.4926722049713135 0.35342106223106384 109
1.522019624710083 -2.506237745285034 0.2531874477863312 109
1.5148884057998657 -2.495476484298706 0.15098923444747925 109
1.518869400024414 -2.503019332885742 0.05043745040893555 109
1.0005507469177246 -1.652105689048767 -0.5072855353355408 119
1.1476000547409058 -1.8956592082977295 -0.5027658939361572 119
1.374245524406433 -2.270937442779541 -0.508049726486206 119
1.517633318901062 -2.50887393951416 -0.45835334062576294 0
1.5322638750076294 -2.5340590476989746 -0.3589056134223938 109
1.5167672634124756 -2.5094199180603027 -0.2531878352165222 109
1.5096722841262817 -2.498666286468506 -0.1504867970943451 109
1.513628363609314 -2.506202459335327 -0.0499335341155529 109
1.5150073766708374 -2.5094754695892334 0.7746580839157104 109
1.5125236511230469 -2.506349802017212 0.6664755940437317 109
1.5130501985549927 -2.508211851119995 0.561427891254425 109
1.519270420074463 -2.519517421722412 0.4594104588031769 109
1.510790467262268 -2.506443738937378 0.35463976860046387 109
1.5209736824035645 -2.524334192276001 0.2544947564601898 109
1.5138965845108032 -2.513580799102783 0.15177425742149353 109
1.5152802467346191 -2.516871929168701 0.05061197280883789 109
nan nan nan 0
1.140975832939148 -1.8996535539627075 -0.5027658939361572 119
1.3663100004196167 -2.2757205963134766 -0.508049726486206 119
1.5164902210235596 -2.5268595218658447 -0.4606998860836029 0
1.531068205833435 -2.552159309387207 -0.36073365807533264 109
1.5156832933425903 -2.5275142192840576 -0.25449514389038086 109
1.508642554283142 -2.5167689323425293 -0.15126921236515045 109
1.5151489973068237 -2.5286240577697754 -0.05027909204363823 109
1.5136836767196655 -2.527179002761841 0.7785378694534302 109
1.511273741722107 -2.5241544246673584 0.6698473691940308 109
1.5118474960327148 -2.5261130332946777 0.5642874836921692 109
1.5180727243423462 -2.537519693374634 0.4617544114589691 109
1.5096735954284668 -2.524480104446411 0.3564678132534027 109
1.5172643661499023 -2.5381786823272705 0.25536632537841797 109
1.5127969980239868 -2.5317089557647705 0.1525593101978302 109
1.5141761302947998 -2.5350215435028076 0.050873763859272 109
0.9914656281471252 -1.6631990671157837 -0.5085796117782593 119
1.1343379020690918 -1.9036247730255127 -0.5027658939361572 119
1.3583579063415527 -2.2804760932922363 -0.508049726486206 119
1.5152400732040405 -2.544867753982544 -0.4630464017391205 0
1.527226448059082 -2.5660173892974854 -0.36195236444473267 109
1.517038345336914 -2.549912214279175 -0.25623828172683716 109
1.5075048208236694 -2.5348944664001465 -0.152051642537117 109
1.51397705078125 -2.5467894077301025 -0.05053826421499252 109
1.5122548341751099 -2.54490327835083 0.7824175953865051 109
1.509917974472046 -2.541980743408203 0.6732190251350403 109
1.5105382204055786 -2.5440361499786377 0.5671470165252686 109
1.5167677402496338 -2.555543899536133 0.46409836411476135 109
1.508448839187622 -2.5425384044647217 0.35829582810401917 109
1.5160175561904907 -2.556312322616577 0.256673663854599 109
1.5115891695022583 -2.5498595237731934 0.15334433317184448 109
1.5104151964187622 -2.5488932132720947 0.05104828625917435 109
0.983195424079895 -1.6624926328659058 -0.5072855353355408 119
1.1276861429214478 -1.9075727462768555 -0.5027658939361572 119
1.3503893613815308 -2.285203695297241 -0.508049726486206 119
1.5138825178146362 -2.562897205352783 -0.46539291739463806 0
1.5258296728134155 -2.5841526985168457 -0.3637803792953491 109
1.515723705291748 -2.568060874938965 -0.2575456202030182 109
1.5062589645385742 -2.5530428886413574 -0.15283407270908356 109
1.5126967430114746 -2.5649771690368652 -0.05079743266105652 109
1.5107208490371704 -2.5626487731933594 0.7862973809242249 109
1.5084561109542847 -2.559828519821167 0.6765908002853394 109
1.5091221332550049 -2.561980962753296 0.5700066089630127 109
1.5153552293777466 -2.573589563369751 0.4664422571659088 109
1.5071165561676025 -2.560619354248047 0.3601239025592804 109
1.514662504196167 -2.5744681358337402 0.25798100233078003 109
1.5102728605270386 -2.5680322647094727 0.15412938594818115 109
1.5091092586517334 -2.5670790672302246 0.05131006985902786 109
0.9850111603736877 -1.6782394647598267 -0.5111678242683411 119
1.1216877698898315 -1.911105990409851 -0.5027658939361572 119
1.3407195806503296 -2.285201072692871 -0.507096529006958 119
1.5133183002471924 -2.5804202556610107 -0.46773943305015564 0
1.525233268737793 -2.6017775535583496 -0.36560845375061035 109
1.5152033567428589 -2.585702419281006 -0.2588529586791992 109
1.5058021545410156 -2.5706875324249268 -0.1536165028810501 109
1.512209177017212 -2.5826590061187744 -0.05105660483241081 109
1.5099815130233765 -2.5798871517181396 0.7901771068572998 109
1.5077875852584839 -2.5771701335906982 0.6799624562263489 109
1.5084995031356812 -2.5794200897216797 0.5728661417961121 109
1.514739751815796 -2.59112811088562 0.46878620982170105 109
1.5090798139572144 -2.5824804306030273 0.36256128549575806 109
1.514103889465332 -2.5921168327331543 0.25928834080696106 109
1.512268304824829 -2.5900120735168457 0.1551761031150818 109
1.5060772895812988 -2.5804429054260254 0.051484595984220505 109
0.9648553133010864 -1.6564570665359497 -0.5034032464027405 119
1.1150099039077759 -1.91500985622406 -0.5027658939361572 119
1.3327345848083496 -2.2898671627044678 -0.507096529006958 119
1.5117520093917847 -2.5984928607940674 -0.4700859487056732 0
1.523626685142517 -2.6199557781219482 -0.3674364686012268 109
1.5136780738830566 -2.6038944721221924 -0.26016029715538025 109
1.5043456554412842 -2.5888800621032715 -0.15439893305301666 109
1.510717749595642 -2.600890874862671 -0.051315777003765106 109
1.5106675624847412 -2.6018497943878174 0.7953501343727112 109
1.5085645914077759 -2.5992727279663086 0.6844580769538879 109
1.5093384981155396 -2.601652145385742 0.5766789317131042 109
1.51559579372406 -2.6134886741638184 0.4719114601612091 109
1.507522702217102 -2.6006131172180176 0.3643893301486969 109
1.5125383138656616 -2.6103150844573975 0.2605956792831421 109
1.5107262134552002 -2.6082372665405273 0.15596114099025726 109
1.5045751333236694 -2.598663330078125 0.05174638330936432 109
0.9660241603851318 -1.6725287437438965 -0.5072855353355408 119
1.1079834699630737 -1.9190837144851685 -0.5027658939361572 119
1.3243328332901 -2.294736385345459 -0.507096529006958 119
1.509621024131775 -2.616849184036255 -0.4724324643611908 0
1.5214512348175049 -2.6384201049804688 -0.36926451325416565 109
1.5115867853164673 -2.622371196746826 -0.2614676356315613 109
1.5023252964019775 -2.6073555946350098 -0.15518134832382202 109
1.5086599588394165 -2.6194067001342773 -0.0515749454498291 109
1.5083504915237427 -2.6199262142181396 0.7992298603057861 109
1.5063180923461914 -2.61745285987854 0.6878297924995422 109
1.5071355104446411 -2.6199305057525635 0.5795384645462036 109
1.5133922100067139 -2.6318695545196533 0.47425535321235657 109
1.5078734159469604 -2.623331308364868 0.36682671308517456 109
1.512886643409729 -2.6331169605255127 0.262338787317276 109
1.5086166858673096 -2.626746416091919 0.15674617886543274 109
1.504996657371521 -2.621502637863159 0.052095428109169006 109
0.9577791690826416 -1.671700119972229 -0.5059914588928223 119
1.1012779474258423 -1.9229395389556885 -0.5027658939361572 119
1.3138761520385742 -2.2950856685638428 -0.50614333152771 119
1.5078356266021729 -2.6349616050720215 -0.4747789800167084 119
1.5220885276794434 -2.6609458923339844 -0.3717019259929657 109
1.509840726852417 -2.640603542327881 -0.2627749741077423 109
1.503125548362732 -2.6299240589141846 -0.1562245935201645 109
1.50694739818573 -2.6376793384552 -0.051834121346473694 109
1.5063817501068115 -2.6377580165863037 0.8031096458435059 109
1.5044184923171997 -2.6353883743286133 0.6912015676498413 109
1.5052788257598877 -2.6379644870758057 0.5823980569839478 109
1.511536717414856 -2.65000581741333 0.4765993058681488 109
1.506081223487854 -2.641512393951416 0.368654727935791 109
1.5110851526260376 -2.6513640880584717 0.26364612579345703 109
1.506853461265564 -2.645012140274048 0.1575312316417694 109
1.503258466720581 -2.639772891998291 0.05235721915960312 109
0.9543243050575256 -1.6792320013046265 -0.5072855353355408 119
1.094558835029602 -1.9267719984054565 -0.5027658939361572 119
1.3058568239212036 -2.2996580600738525 -0.50614333152771 119
1.5083798170089722 -2.657388210296631 -0.477907657623291 0
1.520137906074524 -2.679191827774048 -0.37352994084358215 109
1.507986068725586 -2.658855676651001 -0.26408231258392334 109
1.501323938369751 -2.648185968399048 -0.15700702369213104 109
1.5075900554656982 -2.660320997238159 -0.05217967927455902 109
1.5066871643066406 -2.6598100662231445 0.8082826733589172 109
1.504812479019165 -2.6575820446014404 0.6956971883773804 109
1.5057322978973389 -2.6602890491485596 0.5862108469009399 109
1.5095728635787964 -2.6681606769561768 0.47894322872161865 109
1.5041804313659668 -2.659712791442871 0.37048280239105225 109
1.5091747045516968 -2.669631004333496 0.26495346426963806 109
1.5074372291564941 -2.6676442623138428 0.15857794880867004 109
1.5038695335388184 -2.6624155044555664 0.052706263959407806 109
0.948456883430481 -1.6825529336929321 -0.5072855353355408 119
1.0878264904022217 -1.930580973625183 -0.5027658939361572 119
1.2954126596450806 -2.2999255657196045 -0.5051901340484619 119
1.506363034248352 -2.675546884536743 -0.480254203081131 119
1.520512342453003 -2.7017812728881836 -0.3759673535823822 109
1.5060222148895264 -2.677126884460449 -0.265389621257782 109
1.4994128942489624 -2.6664671897888184 -0.1577894389629364 109
1.5056432485580444 -2.6786413192749023 -0.052438847720623016 109
1.5044909715652466 -2.677685022354126 0.8121623992919922 109
1.5026838779449463 -2.6755621433258057 0.6990688443183899 109
1.503645420074463 -2.6783688068389893 0.5890703797340393 109
1.5075006484985352 -2.6863343715667725 0.4812871515750885 109
1.5021708011627197 -2.677931785583496 0.3723108172416687 109
1.5095911026000977 -2.692260980606079 0.266696572303772 109
1.5054399967193604 -2.6859567165374756 0.15936297178268433 109
1.5018972158432007 -2.6807327270507812 0.05296804755926132 109
0.9425778388977051 -1.6858534812927246 -0.5072855353355408 119
1.0810809135437012 -1.9343664646148682 -0.5027658939361572 119
1.2873765230178833 -2.3044333457946777 -0.5051901340484619 119
1.5066455602645874 -2.698035717010498 -0.4833828806877136 119
1.5183285474777222 -2.7200722694396973 -0.37779536843299866 109
1.5063759088516235 -2.6997663974761963 -0.2671327590942383 109
1.4998247623443604 -2.6891281604766846 -0.15883268415927887 109
1.5035871267318726 -2.6969802379608154 -0.05269801989197731 109
1.5021883249282837 -2.695577383041382 0.8160421848297119 109
1.5028189420700073 -2.6978161334991455 0.703564465045929 109
1.5038381814956665 -2.700754404067993 0.5928831100463867 109
1.5053198337554932 -2.704525947570801 0.48363110423088074 109
1.5000524520874023 -2.696169376373291 0.37413886189460754 109
1.5074468851089478 -2.710573434829712 0.268003910779953 109
1.505759358406067 -2.7086520195007324 0.16040968894958496 109
1.5022437572479248 -2.7034387588500977 0.05331709608435631 109
0.9366874098777771 -1.6891334056854248 -0.5072855353355408 119
1.0743221044540405 -1.9381284713745117 -0.5027658939361572 119
1.2817037105560303 -2.313206672668457 -0.50614333152771 119
1.504396677017212 -2.7162389755249023 -0.4857294261455536 119
1.5160356760025024 -2.7383809089660645 -0.3796234428882599 109
1.5041782855987549 -2.7180826663970947 -0.2684400975704193 109
1.4976797103881836 -2.7074549198150635 -0.15961511433124542 109
1.5014209747314453 -2.715337038040161 -0.052957188338041306 109
1.5021154880523682 -2.7177133560180664 0.8212151527404785 109
1.5004609823226929 -2.71583890914917 0.706936240196228 109
1.5015201568603516 -2.7188773155212402 0.5957427024841309 109
1.505416989326477 -2.727057933807373 0.4867563545703888 109
1.497824788093567 -2.7144246101379395 0.3759669065475464 109
1.507598876953125 -2.733264923095703 0.2697470188140869 109
1.5035276412963867 -2.7270092964172363 0.16119474172592163 109
1.5000367164611816 -2.7218010425567627 0.05357888340950012 109
0.9307855367660522 -1.6923927068710327 -0.5072855353355408 119
1.0675503015518188 -1.9418666362762451 -0.5027658939361572 119
1.2736213207244873 -2.317666530609131 -0.50614333152771 119
1.5020387172698975 -2.7344586849212646 -0.4880759119987488 119
1.5136332511901855 -2.756706476211548 -0.38145145773887634 109
1.5042674541473389 -2.7407827377319336 -0.2701832056045532 109
1.4954248666763306 -2.725799560546875 -0.16039754450321198 109
1.5015490055084229 -2.738095283508301 -0.05330275371670723 109
1.5019062757492065 -2.7398810386657715 0.8263881802558899 109
1.5003364086151123 -2.7381508350372314 0.7114318013191223 109
1.5014517307281494 -2.741321563720703 0.5995554327964783 109
1.5030033588409424 -2.7452917098999023 0.48910024762153625 109
1.4978704452514648 -2.7370500564575195 0.37840431928634644 109
1.5052201747894287 -2.751620292663574 0.27105435729026794 109
1.5035816431045532 -2.749764919281006 0.16224145889282227 109
1.5001174211502075 -2.744567632675171 0.05392793193459511 109
0.9248723387718201 -1.695631504058838 -0.5072855353355408 119
1.0584334135055542 -1.941304087638855 -0.5016411542892456 119
1.2655234336853027 -2.3220982551574707 -0.50614333152771 119
1.4995721578598022 -2.752695322036743 -0.49042245745658875 119
1.5134947299957275 -2.779407262802124 -0.383888840675354 109
1.504216194152832 -2.763516426086426 -0.2719263434410095 109
1.4954464435577393 -2.748547077178955 -0.16144077479839325 109
1.4991475343704224 -2.7564949989318848 -0.053561922162771225 109
1.499253749847412 -2.7578370571136475 0.8302679657936096 109
1.5000742673873901 -2.7604947090148926 0.7159274220466614 109
1.4989018440246582 -2.7594852447509766 0.6024149656295776 109
1.5028374195098877 -2.7678818702697754 0.4922254979610443 109
1.4954090118408203 -2.75534725189209 0.3802323341369629 109
1.505106806755066 -2.7743706703186035 0.27279746532440186 109
1.5011147260665894 -2.76816463470459 0.16302649676799774 109
1.4976751804351807 -2.762972593307495 0.05418971925973892 109
0.9189478158950806 -1.6988495588302612 -0.5072855353355408 119
1.0516505241394043 -1.9449868202209473 -0.5016411542892456 119
1.2574100494384766 -2.3265013694763184 -0.50614333152771 119
1.494648814201355 -2.7666027545928955 -0.49198681116104126 119
1.5108579397201538 -2.7977733612060547 -0.38571691513061523 109
1.504024624824524 -2.786282777786255 -0.27366945147514343 109
1.4929561614990234 -2.7669332027435303 -0.1622232049703598 109
1.4990090131759644 -2.7793116569519043 -0.05390748381614685 109
1.4987859725952148 -2.780059337615967 0.835440993309021 109
1.4996743202209473 -2.782869577407837 0.7204230427742004 109
1.4985712766647339 -2.7819855213165283 0.6062277555465698 109
1.50253164768219 -2.790504217147827 0.49535074830055237 109
1.4951900243759155 -2.7780303955078125 0.38266971707344055 109
1.502492904663086 -2.792766809463501 0.2741048038005829 109
1.4985374212265015 -2.7865803241729736 0.16381153464317322 109
1.4974894523620605 -2.785797119140625 0.05453876778483391 109
0.9130120873451233 -1.7020468711853027 -0.5072855353355408 119
1.0448548793792725 -1.9486459493637085 -0.5016411542892456 119
