# .PCD v0.7 - Point Cloud Data file format
VERSION 0.7
FIELDS x y z intensity
SIZE 4 4 4 4
TYPE F F F F
COUNT 1 1 1 1
WIDTH 765
HEIGHT 1
VIEWPOINT 0 0 0 1 0 0 0
POINTS 765
DATA ascii
1.9181110858917236 -1.0470912456512451 0.11252229660749435 101
1.8982893228530884 -1.03670072555542 0.0370863638818264 101
1.7282322645187378 -0.9457874298095703 -0.5176383256912231 119
1.8967206478118896 -1.0384241342544556 -0.49039360880851746 119
1.8889539241790771 -1.0346006155014038 -0.4108244478702545 0
1.89583420753479 -1.0387991666793823 -0.33633434772491455 101
1.930922508239746 -1.0584635734558105 -0.26567548513412476 101
1.8984053134918213 -1.041069746017456 -0.1860778033733368 101
1.9115535020828247 -1.0487141609191895 -0.11188706010580063 101
1.8961195945739746 -1.0406774282455444 -0.03671583533287048 101
1.9048025608062744 -1.0458755493164062 0.5716174840927124 101
1.9166947603225708 -1.0528407096862793 0.4956420660018921 101
1.9133172035217285 -1.0514202117919922 0.41654327511787415 101
1.907416582107544 -1.0486111640930176 0.33830738067626953 101
1.8990033864974976 -1.0444175004959106 0.261409729719162 101
1.9187698364257812 -1.0557249784469604 0.1882563978433609 101
1.9056960344314575 -1.0489649772644043 0.11199893802404404 101
1.877142071723938 -1.0336748361587524 0.036737315356731415 101
1.7249201536178589 -0.9518143534660339 -0.5176383256912231 119
1.8802887201309204 -1.0379750728607178 -0.4870193302631378 119
1.8681443929672241 -1.0316965579986572 -0.4070116877555847 0
1.8835514783859253 -1.040634274482727 -0.3347700238227844 101
1.9141855239868164 -1.0579952001571655 -0.2638474106788635 101
1.8816825151443481 -1.0404592752456665 -0.18477044999599457 101
1.8860348463058472 -1.0432956218719482 -0.11058301478624344 101
1.87497878074646 -1.037607192993164 -0.03637027367949486 101
1.8842382431030273 -1.0431609153747559 0.5664445161819458 101
1.9002220630645752 -1.052443265914917 0.4922703802585602 101
1.8924620151519775 -1.048577070236206 0.41273054480552673 101
1.8907864093780518 -1.0480799674987793 0.3359634280204773 101
1.877985954284668 -1.0414130687713623 0.2589723467826843 101
1.9020063877105713 -1.0551674365997314 0.18694907426834106 101
1.888925313949585 -1.0483416318893433 0.11121390759944916 101
1.8604103326797485 -1.0329407453536987 0.0364755280315876 101
1.7215873003005981 -0.9578296542167664 -0.5176383256912231 119
1.863883376121521 -1.0374242067337036 -0.4836450219154358 119
1.8516666889190674 -1.0310478210449219 -0.4041520953178406 0
1.8755934238433838 -1.044799566268921 -0.33398786187171936 101
1.8974756002426147 -1.0574229955673218 -0.2620193660259247 101
1.8606370687484741 -1.037319302558899 -0.18302734196186066 101
1.8649383783340454 -1.0401439666748047 -0.10953977704048157 101
1.8582484722137451 -1.0368380546569824 -0.036111101508140564 101
1.8637158870697021 -1.0403152704238892 0.5612714290618896 101
1.8837754726409912 -1.0519436597824097 0.4888986349105835 101
1.8759353160858154 -1.0479950904846191 0.4098709523677826 101
1.8741835355758667 -1.0474457740783691 0.33361950516700745 101
1.8613440990447998 -1.040696382522583 0.2571443021297455 101
1.8852698802947998 -1.0545055866241455 0.18564172089099884 101
1.8765395879745483 -1.0500524044036865 0.11069054901599884 101
1.8393445014953613 -1.029660701751709 0.036126479506492615 101
1.718233346939087 -0.963833212852478 -0.5176383256912231 119
1.8432564735412598 -1.034387230873108 -0.47914600372314453 119
1.8352166414260864 -1.030296802520752 -0.4012925624847412 0
1.8633233308792114 -1.0465036630630493 -0.33242350816726685 101
1.8807934522628784 -1.056747317314148 -0.2601913511753082 101
1.8439788818359375 -1.036486029624939 -0.18172000348567963 101
1.8438870906829834 -1.0368579626083374 -0.10849654674530029 101
1.8371893167495728 -1.0335137844085693 -0.03576553985476494 101
1.851655125617981 -1.0420770645141602 0.5586849451065063 101
1.8673555850982666 -1.0513421297073364 0.4855269193649292 101
1.8637125492095947 -1.0497194528579712 0.4079645872116089 101
1.8576080799102783 -1.046708345413208 0.3312755823135376 101
1.8404074907302856 -1.0374394655227661 0.2547069191932678 101
1.868561863899231 -1.0537400245666504 0.184334397315979 101
1.8598164319992065 -1.0492359399795532 0.10990550369024277 101
1.8226779699325562 -1.0287033319473267 0.0358646959066391 101
1.7148584127426147 -0.9698251485824585 -0.5176383256912231 119
1.826913833618164 -1.0336180925369263 -0.47577178478240967 119
1.8187943696975708 -1.029443383216858 -0.39843297004699707 0
1.8467668294906616 -1.0457016229629517 -0.33007699251174927 101
1.8641389608383179 -1.055967926979065 -0.258363276720047 101
1.8273489475250244 -1.0355490446090698 -0.1804126650094986 101
1.827225685119629 -1.0359004735946655 -0.10771412402391434 101
1.820525050163269 -1.0325216054916382 -0.03550637140870094 101
1.8354038000106812 -1.0413837432861328 0.5548052191734314 101
1.8509632349014282 -1.050639033317566 0.4821552336215973 101
1.847232460975647 -1.0489476919174194 0.40510502457618713 101
1.841060996055603 -1.045868158340454 0.32893165946006775 101
1.8238312005996704 -1.0365012884140015 0.252878874540329 101
1.8518818616867065 -1.052870512008667 0.18302705883979797 101
1.8474620580673218 -1.0507843494415283 0.10938214510679245 101
1.806040644645691 -1.0276423692703247 0.035602908581495285 101
1.7072670459747314 -0.9734131097793579 -0.5163442492485046 119
1.8105992078781128 -1.032747507095337 -0.47239747643470764 119
1.8066637516021729 -1.0309207439422607 -0.39652660489082336 0
1.8345277309417725 -1.0472450256347656 -0.32851263880729675 101
1.8518224954605103 -1.0575463771820068 -0.25714460015296936 101
1.81074857711792 -1.0345088243484497 -0.17910534143447876 101
1.8105932474136353 -1.0348392724990845 -0.10693169385194778 101
1.8038898706436157 -1.0314257144927979 -0.03524719923734665 101
1.8233728408813477 -1.0429880619049072 0.5522187352180481 101
1.8303700685501099 -1.0474145412445068 0.4776596128940582 101
1.8307807445526123 -1.048073649406433 0.4022454619407654 101
1.82454252243042 -1.044925332069397 0.3265877068042755 101
1.807283639907837 -1.0354599952697754 0.25105082988739014 101
1.835231065750122 -1.051897644996643 0.18171973526477814 101
1.830788254737854 -1.0497756004333496 0.10859710723161697 101
1.789433240890503 -1.0264776945114136 0.03534111753106117 101
1.7038589715957642 -0.979366660118103 -0.5163442492485046 119
1.7943129539489746 -1.031775712966919 -0.4690232574939728 119
1.7902905941009521 -1.0298784971237183 -0.393667072057724 0
1.8180203437805176 -1.0462526082992554 -0.3261661231517792 101
1.8352171182632446 -1.0565756559371948 -0.2553165555000305 101
1.794177532196045 -1.033365249633789 -0.17779798805713654 101
1.7983170747756958 -1.0361675024032593 -0.10641007125377655 101
1.7872846126556396 -1.030226230621338 -0.034988027065992355 101
1.8071688413619995 -1.042108178138733 0.5483389496803284 101
1.8140422105789185 -1.046493649482727 0.47428786754608154 101
1.8101063966751099 -1.0446442365646362 0.3984327018260956 101
1.8080531358718872 -1.0438799858093262 0.32424381375312805 101
1.7907658815383911 -1.0343159437179565 0.2492227852344513 101
1.8186097145080566 -1.0508214235305786 0.1804123818874359 101
1.8141440153121948 -1.0486633777618408 0.1078120619058609 101
1.7728561162948608 -1.0252097845077515 0.03507933393120766 101
1.6962511539459229 -0.982886791229248 -0.5150501132011414 119
1.7822706699371338 -1.0331461429595947 -0.46677374839782715 119
1.7781927585601807 -1.03119695186615 -0.3917606770992279 0
1.801542043685913 -1.045157790184021 -0.3238196074962616 101
1.818641185760498 -1.0555020570755005 -0.2534885108470917 101
1.7776366472244263 -1.032118558883667 -0.1764906346797943 101
1.7817360162734985 -1.0349146127700806 -0.10562764108181 101
1.7707103490829468 -1.028923749923706 -0.03472885861992836 101
1.790993571281433 -1.041128158569336 0.5444592237472534 101
1.7977434396743774 -1.0454716682434082 0.47091618180274963 101
1.7937214374542236 -1.0435516834259033 0.3955731689929962 101
1.7915934324264526 -1.0427322387695312 0.3218998610973358 101
1.7742785215377808 -1.033069372177124 0.24739475548267365 101
1.802018404006958 -1.0496420860290527 0.17910505831241608 101
1.797529935836792 -1.047447681427002 0.10702701658010483 101
1.7563097476959229 -1.023838758468628 0.03481755033135414 101
1.6886396408081055 -0.9863659143447876 -0.5137560367584229 119
1.766034483909607 -1.031987190246582 -0.4633994400501251 119
1.7618701457977295 -1.0299663543701172 -0.38890108466148376 0
1.785094141960144 -1.0439609289169312 -0.321473091840744 101
1.8020952939987183 -1.0543255805969238 -0.2516604959964752 101
1.7611268758773804 -1.0307693481445312 -0.17518331110477448 101
1.7651861906051636 -1.0335588455200195 -0.10484521836042404 101
1.754166841506958 -1.0275180339813232 -0.034469690173864365 101
1.7748469114303589 -1.0400476455688477 0.5405794382095337 101
1.7814737558364868 -1.0443487167358398 0.46754443645477295 101
1.777366042137146 -1.0423574447631836 0.3927135765552521 101
1.7751636505126953 -1.0414823293685913 0.3195559084415436 101
1.7621015310287476 -1.034232258796692 0.24617606401443481 101
1.785457730293274 -1.048359751701355 0.17779771983623505 101
1.7809467315673828 -1.0461291074752808 0.10624198615550995 101
1.7397948503494263 -1.022364854812622 0.03455576300621033 101
1.6851862668991089 -0.992254376411438 -0.5137560367584229 119
1.7498281002044678 -1.030727505683899 -0.4600251615047455 119
1.7455778121948242 -1.0286343097686768 -0.386041522026062 0
1.772930383682251 -1.0451695919036865 -0.3199087083339691 101
1.785579800605774 -1.0530465841293335 -0.24983243644237518 101
1.7489380836486816 -1.031848669052124 -0.17431175708770752 101
1.7486673593521118 -1.0321003198623657 -0.10406279563903809 101
1.7376549243927002 -1.026009440422058 -0.03421051800251007 101
1.758730173110962 -1.038867473602295 0.5366997122764587 101
1.7652342319488525 -1.043125033378601 0.46417275071144104 101
1.7610409259796143 -1.0410618782043457 0.38985398411750793 101
1.7587649822235107 -1.0401307344436646 0.31721198558807373 101
1.7456669807434082 -1.0327959060668945 0.24434801936149597 101
1.7732144594192505 -1.0495116710662842 0.1769261658191681 101
1.7643946409225464 -1.0447074174880981 0.10545694082975388 101
1.727612853050232 -1.0233359336853027 0.034381236881017685 101
1.6775590181350708 -0.9956657290458679 -0.5124619007110596 119
1.737841248512268 -1.0318547487258911 -0.45777565240859985 119
1.7335366010665894 -1.029707908630371 -0.3841351270675659 0
1.7565351724624634 -1.0437837839126587 -0.3175622224807739 101
1.7733614444732666 -1.0542012453079224 -0.24861374497413635 101
1.7324823141098022 -1.0303093194961548 -0.1730044186115265 101
1.7278891801834106 -1.0279860496520996 -0.10301955044269562 101
1.7211750745773315 -1.0243983268737793 -0.03395134583115578 101
1.7426432371139526 -1.0375875234603882 0.532819926738739 101
1.7490251064300537 -1.041800856590271 0.46080103516578674 101
1.7447469234466553 -1.0396651029586792 0.38699445128440857 101
1.742397427558899 -1.0386773347854614 0.3148680627346039 101
1.7335267066955566 -1.0337995290756226 0.24312932789325714 101
1.7567074298858643 -1.0480390787124634 0.17561881244182587 101
1.7478747367858887 -1.0431832075119019 0.104671910405159 101
1.7111531496047974 -1.0216717720031738 0.03411945328116417 101
1.674073338508606 -1.0015153884887695 -0.5124619007110596 119
1.721687912940979 -1.0304088592529297 -0.4544014036655426 119
1.7172982692718506 -1.028188943862915 -0.38127559423446655 101
1.7444076538085938 -1.0448336601257324 -0.3159978687763214 101
1.7568995952606201 -1.0527325868606567 -0.24678568542003632 101
1.7203307151794434 -1.0312285423278809 -0.17213284969329834 101
1.7114436626434326 -1.0263073444366455 -0.10223712772130966 101
1.7047277688980103 -1.0226846933364868 -0.03369217738509178 101
1.730728030204773 -1.0386934280395508 0.5302334427833557 101
1.7328464984893799 -1.04037606716156 0.45742928981781006 101
1.732691764831543 -1.0406947135925293 0.38508808612823486 101
1.7260617017745972 -1.0371224880218506 0.31252413988113403 101
1.7171471118927002 -1.032173991203308 0.2413012832403183 101
1.7402325868606567 -1.0464640855789185 0.17431148886680603 101
1.7313867807388306 -1.0415562391281128 0.10388687252998352 101
1.6947263479232788 -1.0199052095413208 0.033857665956020355 101
1.666431188583374 -1.0048589706420898 -0.5111678242683411 119
1.7055658102035522 -1.0288629531860352 -0.45102712512016296 119
1.7052940130233765 -1.0291050672531128 -0.37936922907829285 101
1.7322944402694702 -1.045811653137207 -0.3144335448741913 101
1.740470051765442 -1.0511620044708252 -0.24495765566825867 101
1.7039308547973633 -1.029499888420105 -0.1708255112171173 101
1.695030927658081 -1.0245264768600464 -0.10145469754934311 101
1.6925915479660034 -1.0234555006027222 -0.03351939469575882 101
1.7146940231323242 -1.0372289419174194 0.526353657245636 101
1.7166998386383057 -1.0388514995574951 0.45405760407447815 101
1.7164520025253296 -1.039110779762268 0.3822284936904907 101
1.7097581624984741 -1.0354663133621216 0.3101802170276642 101
1.7008001804351807 -1.0304468870162964 0.23947323858737946 101
1.723790168762207 -1.044787049293518 0.173004150390625 101
1.714931607246399 -1.0398272275924683 0.10310182720422745 101
1.6826070547103882 -1.0206291675567627 0.03368314355611801 101
1.66291344165802 -1.0106697082519531 -0.5111678242683411 119
1.689475655555725 -1.0272172689437866 -0.4476528763771057 119
1.6891107559204102 -1.0273993015289307 -0.3765096366405487 101
1.7159769535064697 -1.044150948524475 -0.3120870292186737 101
1.724073052406311 -1.0494896173477173 -0.24312961101531982 101
1.6875642538070679 -1.0276694297790527 -0.16951817274093628 101
1.6786516904830933 -1.0226436853408813 -0.10067227482795715 101
1.6762019395828247 -1.0215524435043335 -0.033260226249694824 101
1.6986916065216064 -1.0356652736663818 0.522473931312561 101
1.7047442197799683 -1.0397636890411377 0.4518097937107086 101
1.700244665145874 -1.0374263525009155 0.37936896085739136 101
1.697702407836914 -1.036281943321228 0.30861756205558777 101
1.6844863891601562 -1.0286184549331665 0.2376452088356018 101
1.707380771636963 -1.0430078506469727 0.17169681191444397 101
1.7027703523635864 -1.0405997037887573 0.10257846862077713 101
1.6662384271621704 -1.0186735391616821 0.0334213562309742 101
1.6593754291534424 -1.0164681673049927 -0.5111678242683411 119
1.6734178066253662 -1.0254716873168945 -0.4442785978317261 119
1.6729605197906494 -1.0255932807922363 -0.37365007400512695 101
1.703902244567871 -1.0449708700180054 -0.3105226755142212 101
1.707708716392517 -1.047715663909912 -0.24130156636238098 101
1.6754764318466187 -1.0283429622650146 -0.16864661872386932 101
1.6665616035461426 -1.0232717990875244 -0.10015065968036652 101
1.6641061305999756 -1.0221641063690186 -0.03308744728565216 101
1.6868360042572021 -1.0365312099456787 0.519887387752533 101
1.688652753829956 -1.0380536317825317 0.4484380781650543 101
1.6882508993148804 -1.0382126569747925 0.37746256589889526 101
1.6814559698104858 -1.0344386100769043 0.3062736392021179 101
1.6682062149047852 -1.0266886949539185 0.23581716418266296 101
1.6952465772628784 -1.0437384843826294 0.17082525789737701 101
1.6863733530044556 -1.0386812686920166 0.10179343074560165 101
1.6541600227355957 -1.0192385911941528 0.033246833831071854 101
1.6558171510696411 -1.0222543478012085 -0.5111678242683411 119
1.661538004875183 -1.0261867046356201 -0.44202908873558044 119
1.661019206047058 -1.0262668132781982 -0.37174367904663086 101
1.6876417398452759 -1.04312264919281 -0.3081761300563812 101
1.6913782358169556 -1.0458402633666992 -0.23947352170944214 101
1.6591686010360718 -1.0263241529464722 -0.1673392802476883 101
1.6544876098632812 -1.0238279104232788 -0.09962903708219528 101
1.652026653289795 -1.0227038860321045 -0.0329146645963192 101
1.6708890199661255 -1.034784197807312 0.516007661819458 101
1.676735758781433 -1.0388100147247314 0.4461902678012848 101
1.6721006631851196 -1.0363423824310303 0.3746030032634735 101
1.6652430295944214 -1.0324944257736206 0.30392971634864807 101
1.6519603729248047 -1.0246580839157104 0.23398913443088531 101
1.6788958311080933 -1.0417710542678833 0.16951791942119598 101
1.6742528676986694 -1.0392948389053345 0.10127007216215134 101
1.637851357460022 -1.0170944929122925 0.03298504650592804 101
1.6522388458251953 -1.0280280113220215 -0.5111678242683411 119
1.6455376148223877 -1.024256944656372 -0.4386548101902008 119
1.6449271440505981 -1.024275302886963 -0.3688841164112091 101
1.6714153289794922 -1.0411739349365234 -0.30582961440086365 101
1.6792935132980347 -1.046488642692566 -0.2382548302412033 101
1.6471221446990967 -1.0268393754959106 -0.16646772623062134 101
1.642430067062378 -1.0243123769760132 -0.09910742193460464 101
1.6399638652801514 -1.0231719017028809 -0.032741885632276535 101
1.6549746990203857 -1.0329384803771973 0.5121278762817383 101
1.6607013940811157 -1.0369155406951904 0.4428185224533081 101
1.6601471900939941 -1.036972165107727 0.3726966083049774 101
1.6532524824142456 -1.033066749572754 0.30236709117889404 101
1.6399571895599365 -1.0251569747924805 0.23277044296264648 101
1.6668027639389038 -1.0423431396484375 0.16864636540412903 101
1.6579158306121826 -1.037188172340393 0.10048503428697586 101
1.625815510749817 -1.0175012350082397 0.032810524106025696 101
1.6486401557922363 -1.0337891578674316 -0.5111678242683411 119
1.6336983442306519 -1.0248169898986816 -0.4364053010940552 119
1.6330267190933228 -1.0247929096221924 -0.3669777512550354 101
1.6552231311798096 -1.0391247272491455 -0.30348309874534607 101
1.663022518157959 -1.0444258451461792 -0.23642678558826447 101
1.6308748722076416 -1.0246330499649048 -0.1651603877544403 101
1.626162052154541 -1.0220681428909302 -0.09832499921321869 101
1.627918004989624 -1.0235681533813477 -0.03256910666823387 101
1.6390941143035889 -1.0309944152832031 0.5082480907440186 101
1.6447008848190308 -1.0349218845367432 0.4394468069076538 101
1.6440558433532715 -1.0349165201187134 0.36983704566955566 101
1.6370995044708252 -1.0309364795684814 0.3000231683254242 101
1.6237717866897583 -1.0229395627975464 0.23094239830970764 101
1.6505123376846313 -1.0401878356933594 0.167339026927948 101
1.6458377838134766 -1.0376431941986084 0.09996167570352554 101
1.609568476676941 -1.0151692628860474 0.03254873678088188 101
1.6450215578079224 -1.0395376682281494 -0.5111678242683411 119
1.6218749284744263 -1.0253068208694458 -0.43415579199790955 119
1.6169946193695068 -1.0226166248321533 -0.36411818861961365 101
1.6390656232833862 -1.0369752645492554 -0.3011365830898285 101
1.65097975730896 -1.0449163913726807 -0.23520809412002563 101
1.6188714504241943 -1.0249906778335571 -0.16428883373737335 101
1.6141481399536133 -1.0223947763442993 -0.09780337661504745 101
1.6116665601730347 -1.0212169885635376 -0.03230993449687958 101
1.6273266077041626 -1.0315380096435547 0.5056616067886353 101
1.628734827041626 -1.0328291654586792 0.4360751211643219 101
1.6321439743041992 -1.0353904962539673 0.36793068051338196 101
1.6209814548492432 -1.0287061929702759 0.29767924547195435 101
1.611811876296997 -1.0232815742492676 0.2297237068414688 101
1.6384620666503906 -1.0406020879745483 0.16646747291088104 101
1.629562258720398 -1.035348892211914 0.09917663782835007 101
1.5975767374038696 -1.0154181718826294 0.03237421065568924 101
1.637309193611145 -1.0426793098449707 -0.5098737478256226 119
1.610068440437317 -1.0257266759872437 -0.4319062829017639 119
1.6009976863861084 -1.020340919494629 -0.3612586259841919 101
1.6271077394485474 -1.037380576133728 -0.29957225918769836 101
1.6389540433883667 -1.0453356504440308 -0.2339894026517868 101
1.6026866436004639 -1.0225977897644043 -0.16298149526119232 101
1.59794282913208 -1.019963264465332 -0.0970209538936615 101
1.5996649265289307 -1.0214555263519287 -0.032137155532836914 101
1.6115050315856934 -1.0294119119644165 0.5017818808555603 101
1.6169089078903198 -1.0332612991333008 0.43382731080055237 101
1.6161134243011475 -1.033150315284729 0.3650711178779602 101
1.6090596914291382 -1.0290366411209106 0.2961166203022003 101
1.5956889390945435 -1.0208780765533447 0.22789566218852997 101
1.6264292001724243 -1.0409449338912964 0.1655959188938141 101
1.6175280809402466 -1.0356460809707642 0.09865327179431915 101
1.5813932418823242 -1.012899398803711 0.032112423330545425 101
1.6295949220657349 -1.0457797050476074 -0.5085796117782593 119
1.5982787609100342 -1.0260766744613647 -0.4296567738056183 0
1.5891664028167725 -1.0206183195114136 -0.3593522310256958 101
1.61101233959198 -1.0350457429885864 -0.2972257137298584 101
1.6269456148147583 -1.045683741569519 -0.23277071118354797 101
1.5907280445098877 -1.0227981805801392 -0.16210994124412537 101
1.5859736204147339 -1.0201324224472046 -0.09649933129549026 101
1.583477258682251 -1.0189175605773926 -0.03187798336148262 101
1.599779486656189 -1.0298024415969849 0.4991953670978546 101
1.6010037660598755 -1.030985713005066 0.43045559525489807 101
1.6001185178756714 -1.0308107137680054 0.36221155524253845 101
1.5930043458938599 -1.0266211032867432 0.29377269744873047 101
1.5837736129760742 -1.0210636854171753 0.22667697072029114 101
1.6102279424667358 -1.038516879081726 0.16428858041763306 101
1.6055119037628174 -1.035871982574463 0.09812991321086884 101
1.56944739818573 -1.0129913091659546 0.03193790093064308 101
1.6137681007385254 -1.0435938835144043 -0.504697322845459 119
1.5824158191680908 -1.0237107276916504 -0.42628249526023865 119
1.5732321739196777 -1.018159031867981 -0.35649266839027405 101
1.599098563194275 -1.0352951288223267 -0.29566138982772827 101
1.6107892990112305 -1.0432630777359009 -0.23094266653060913 101
1.574607253074646 -1.0202192068099976 -0.16080258786678314 101
1.5698330402374268 -1.0175148248672485 -0.09571690112352371 101
1.5715217590332031 -1.0189989805221558 -0.03170520067214966 101
1.5840190649032593 -1.027495265007019 0.4953156113624573 101
1.5892213582992554 -1.031263828277588 0.42820778489112854 101
1.588276743888855 -1.0310449600219727 0.36030519008636475 101
1.5811272859573364 -1.0267961025238037 0.29221007227897644 101
1.5718764066696167 -1.0211784839630127 0.2254582643508911 101
1.5982401371002197 -1.0387026071548462 0.1634170264005661 101
1.5893278121948242 -1.033305048942566 0.09734487533569336 101
1.5533294677734375 -1.0102863311767578 0.03167611360549927 101
1.5981581211090088 -1.0410313606262207 -0.5008150935173035 119
1.5710276365280151 -1.023358702659607 -0.424032986164093 0
1.5618013143539429 -1.0177370309829712 -0.35458630323410034 101
1.5875641107559204 -1.0349199771881104 -0.29409703612327576 101
1.5991902351379395 -1.0428966283798218 -0.2297239750623703 101
1.5630511045455933 -1.019717812538147 -0.1599310338497162 101
1.5582658052444458 -1.0169837474822998 -0.09519528597593307 101
1.5599404573440552 -1.0184649229049683 -0.031532421708106995 101
1.5726957321166992 -1.027184247970581 0.4927290976047516 101
1.5737378597259521 -1.0282566547393799 0.42483606934547424 101
1.5727043151855469 -1.0279730558395386 0.357445627450943 101
1.569627046585083 -1.0263527631759644 0.2906474471092224 101
1.5603543519973755 -1.0206782817840576 0.22423957288265228 101
1.586633324623108 -1.0382636785507202 0.16254545748233795 101
1.5777182579040527 -1.0328232049942017 0.09682150930166245 101
1.5417834520339966 -1.009683609008789 0.031501591205596924 101
1.5866211652755737 -1.0410264730453491 -0.4982268810272217 119
1.555227279663086 -1.020816445350647 -0.42065873742103577 0
1.5459305047988892 -1.015100359916687 -0.3517267107963562 101
1.571559190750122 -1.0323213338851929 -0.2917505204677582 101
1.5830978155136108 -1.0402964353561401 -0.22789593040943146 101
1.5511577129364014 -1.0196952819824219 -0.15905946493148804 101
1.542190670967102 -1.014186143875122 -0.09441285580396652 101
1.548022985458374 -1.0184087753295898 -0.03135964274406433 101
1.5569970607757568 -1.0247020721435547 0.48884934186935425 101
1.5620002746582031 -1.0283856391906738 0.4225882589817047 101
1.560908317565918 -1.0280570983886719 0.3555392324924469 101
1.5577868223190308 -1.0263911485671997 0.2890848219394684 101
1.5443512201309204 -1.0179252624511719 0.22241154313087463 101
1.5746827125549316 -1.0383118391036987 0.161673903465271 101
1.5615994930267334 -1.030076265335083 0.09603647142648697 101
1.5299042463302612 -1.0095524787902832 0.03132706880569458 101
1.5747382640838623 -1.041506290435791 -0.4956386983394623 119
1.5433493852615356 -1.021133303642273 -0.41840922832489014 0
1.5340137481689453 -1.0153415203094482 -0.3498203456401825 101
1.5595295429229736 -1.0326215028762817 -0.29018616676330566 101
1.5709995031356812 -1.040610671043396 -0.22667723894119263 101
1.5391056537628174 -1.0198711156845093 -0.15818791091442108 101
1.530139446258545 -1.0143141746520996 -0.09389124065637589 101
1.53178071975708 -1.01578688621521 -0.031100470572710037 101
1.5451815128326416 -1.025061845779419 0.48626285791397095 101
1.5501017570495605 -1.0287156105041504 0.4203404486179352 101
1.544862151145935 -1.0256267786026 0.35267966985702515 101
1.5416728258132935 -1.0238970518112183 0.28674089908599854 101
1.5323429107666016 -1.0180860757827759 0.2211928516626358 101
1.5584216117858887 -1.0358048677444458 0.16036656498908997 101
1.5453397035598755 -1.0274989604949951 0.09525143355131149 101
1.5178687572479248 -1.0096155405044556 0.031152544543147087 101
1.5630552768707275 -1.0416401624679565 -0.4930504858493805 119
1.5316681861877441 -1.0211094617843628 -0.4161596894264221 0
1.522293210029602 -1.015243411064148 -0.3479139804840088 101
1.5435912609100342 -1.0298367738723755 -0.2878396511077881 101
1.55497407913208 -1.0378230810165405 -0.2248491793870926 101
1.523108720779419 -1.0169398784637451 -0.15688057243824005 101
1.5182851552963257 -1.0141024589538574 -0.09336962550878525 101
1.5199121236801147 -1.0155729055404663 -0.030927689746022224 101
1.5295476913452148 -1.0223972797393799 0.4823831021785736 101
1.5343513488769531 -1.0259956121444702 0.4169687032699585 101
1.5331132411956787 -1.0255550146102905 0.35077327489852905 101
1.5298806428909302 -1.0237791538238525 0.2851782739162445 101
1.5205318927764893 -1.0179073810577393 0.21997416019439697 101
1.5465192794799805 -1.0356953144073486 0.159495010972023 101
1.5334471464157104 -1.027328610420227 0.09472807496786118 101
1.5060296058654785 -1.0093412399291992 0.030978020280599594 101
1.5513906478881836 -1.0417053699493408 -0.4904623031616211 119
1.5200060606002808 -1.0210165977478027 -0.4139101803302765 0
1.5105922222137451 -1.0150758028030396 -0.3460075855255127 101
1.5317901372909546 -1.0297083854675293 -0.28627529740333557 101
1.5431054830551147 -1.037705898284912 -0.22363048791885376 101
1.5112842321395874 -1.0166897773742676 -0.1560090184211731 101
1.5064510107040405 -1.0138202905654907 -0.09284800291061401 101
1.50391685962677 -1.0124963521957397 -0.03066851943731308 101
1.5179574489593506 -1.0223339796066284 0.47979655861854553 101
1.5226795673370361 -1.0259007215499878 0.41472092270851135 101
1.5213838815689087 -1.0254137516021729 0.34886690974235535 101
1.514013409614563 -1.0208303928375244 0.28283435106277466 101
1.5087409019470215 -1.0176584720611572 0.21875545382499695 101
1.5305078029632568 -1.032729148864746 0.15818767249584198 101
1.5174362659454346 -1.0242944955825806 0.0939430370926857 101
1.494210958480835 -1.0089967250823975 0.0308034960180521 101
1.5437448024749756 -1.0444079637527466 -0.4891682267189026 119
1.5083636045455933 -1.0208549499511719 -0.41166067123413086 0
1.4948465824127197 -1.0120872259140015 -0.34314802289009094 101
1.5159199237823486 -1.0267409086227417 -0.283928781747818 101
1.5271484851837158 -1.034734845161438 -0.22180244326591492 101
1.49947988986969 -1.0163695812225342 -0.15513746440410614 101
1.4946376085281372 -1.0134682655334473 -0.09232638776302338 101
1.4920990467071533 -1.0121270418167114 -0.030495740473270416 101
1.502389907836914 -1.0194904804229736 0.4759168028831482 101
1.511027216911316 -1.0257368087768555 0.4124731123447418 101
1.5056135654449463 -1.0224459171295166 0.3460073471069336 101
1.5022706985473633 -1.0205588340759277 0.28127172589302063 101
1.4969701766967773 -1.017339825630188 0.21753676235675812 101
1.5186551809310913 -1.032464623451233 0.15731611847877502 101
1.50559401512146 -1.023969054222107 0.09341967850923538 101
1.4824132919311523 -1.0085821151733398 0.030628971755504608 101
1.5321083068847656 -1.0443499088287354 -0.4865800142288208 0
1.496740698814392 -1.0206245183944702 -0.40941116213798523 0
1.483195185661316 -1.0117671489715576 -0.34124165773391724 101
1.5041683912277222 -1.0264588594436646 -0.2823644280433655 101
1.5153298377990723 -1.0344631671905518 -0.2205837517976761 101
1.4876962900161743 -1.015979528427124 -0.15426591038703918 101
1.4828450679779053 -1.0130460262298584 -0.09180477261543274 101
1.4761747121810913 -1.008866786956787 -0.03023657016456127 101
1.4908478260040283 -1.0192768573760986 0.4733303189277649 0
1.495373249053955 -1.0227537155151367 0.4091013967990875 101
1.4939336776733398 -1.0221519470214844 0.3441009819507599 101
1.4905483722686768 -1.0202176570892334 0.2797091007232666 101
1.4811254739761353 -1.0141477584838867 0.21570873260498047 101
1.5068233013153076 -1.0321297645568848 0.15644456446170807 101
1.4896537065505981 -1.0207511186599731 0.0926346406340599 101
1.4706368446350098 -1.0080974102020264 0.030454447492957115 101
1.520491123199463 -1.044223427772522 -0.4839918315410614 0
1.489153504371643 -1.0230841636657715 -0.4082863926887512 0
1.4715642929077148 -1.0113781690597534 -0.33933526277542114 101
1.492437481880188 -1.0261074304580688 -0.28080010414123535 101
1.503531813621521 -1.0341216325759888 -0.21936506032943726 101
1.4759339094161987 -1.0155194997787476 -0.15339434146881104 101
1.4710737466812134 -1.0125538110733032 -0.0912831500172615 101
1.4644089937210083 -1.0083431005477905 -0.03006378933787346 101
1.4793256521224976 -1.018994927406311 0.4707438051700592 0
1.4837703704833984 -1.022438406944275 0.406853586435318 0
1.4822742938995361 -1.0217890739440918 0.3421945869922638 0
1.478846788406372 -1.01980721950531 0.2781464755535126 0
1.4694064855575562 -1.013675570487976 0.21449004113674164 0
1.4909127950668335 -1.0288958549499512 0.15513722598552704 101
1.4819724559783936 -1.0231080055236816 0.09237296134233475 101
1.4588818550109863 -1.0075429677963257 0.03027992509305477 101
1.508893609046936 -1.044028401374817 -0.481403648853302 0
1.4775614738464355 -1.0227305889129639 -0.4060368835926056 0
1.4680249691009521 -1.0165085792541504 -0.33933526277542114 101
1.4807274341583252 -1.0256866216659546 -0.27923575043678284 101
1.4958338737487793 -1.0365371704101562 -0.21875572204589844 101
1.4723801612854004 -1.0206652879714966 -0.15339434146881104 101
1.463427186012268 -1.0148372650146484 -0.09102234244346619 101
1.452665090560913 -1.0077496767044067 -0.029891008511185646 101
1.46782386302948 -1.018645167350769 0.4681572914123535 0
1.476190209388733 -1.024833083152771 0.4057296812534332 108
1.4706356525421143 -1.0213572978973389 0.3402882218360901 108
1.4712222814559937 -1.0221452713012695 0.27736517786979675 108
1.4617840051651 -1.0159662961959839 0.21388068795204163 0
1.4832223653793335 -1.0312503576278687 0.15470144152641296 108
1.4742931127548218 -1.0254237651824951 0.09211128205060959 101
1.4512522220611572 -1.0097739696502686 0.03019266203045845 108
1.4973160028457642 -1.0437653064727783 -0.4788154363632202 119
1.4699863195419312 -1.0250952243804932 -0.40491214394569397 0
1.4644677639007568 -1.0216268301010132 -0.33933526277542114 101
1.473088264465332 -1.0280227661132812 -0.2784535884857178 101
1.4881373643875122 -1.0389113426208496 -0.21814636886119843 108
1.4688082933425903 -1.0257985591888428 -0.15339434146881104 101
1.4598758220672607 -1.0199394226074219 -0.09102234244346619 101
1.4573338031768799 -1.0185420513153076 -0.03006378933787346 0
1.4642592668533325 -1.023762583732605 0.4681572914123535 108
1.4686115980148315 -1.0271872282028198 0.40460577607154846 108
1.4630398750305176 -1.0236706733703613 0.33933502435684204 108
1.467645287513733 -1.0272746086120605 0.27736517786979675 108
1.4541634321212769 -1.0182162523269653 0.2132713496685028 108
1.4755340814590454 -1.0335638523101807 0.15426567196846008 108
1.4707046747207642 -1.0305637121200562 0.09211128205060959 108
1.4518122673034668 -1.0177031755447388 0.03027992509305477 108
1.485940933227539 -1.0431748628616333 -0.4762272238731384 119
1.4667586088180542 -1.0297082662582397 -0.40491214394569397 0
1.4652676582336426 -1.029043436050415 -0.3402884602546692 101
1.4698513746261597 -1.032645583152771 -0.2784535884857178 101
1.4848661422729492 -1.0435813665390015 -0.21814636886119843 108
1.4655784368515015 -1.0304079055786133 -0.15339434146881104 101
1.4566643238067627 -1.0245206356048584 -0.09102234244346619 0
1.4582154750823975 -1.0259920358657837 -0.03015017881989479 108
1.4649852514266968 -1.0311375856399536 0.46945056319236755 108
1.4653773307800293 -1.0317959785461426 0.40460577607154846 108
1.4598166942596436 -1.0282618999481201 0.33933502435684204 108
1.4644107818603516 -1.031880259513855 0.27736517786979675 108
1.4550137519836426 -1.0256386995315552 0.21388068795204163 108
1.472279667854309 -1.0381942987442017 0.15426567196846008 108
1.467459797859192 -1.0351788997650146 0.09211128205060959 108
1.4526923894882202 -1.0251415967941284 0.030367186293005943 108
1.478529930114746 -1.0453085899353027 -0.4749331474304199 119
1.4631553888320923 -1.03482186794281 -0.40491214394569397 0
1.465673565864563 -1.0369868278503418 -0.34124165773391724 108
1.4662377834320068 -1.0377700328826904 -0.2784535884857178 108
1.485264539718628 -1.0516258478164673 -0.21875572204589844 108
1.466037392616272 -1.0383965969085693 -0.1538301259279251 108
1.4530792236328125 -1.0295990705490112 -0.09102234244346619 108
1.4587037563323975 -1.0339668989181519 -0.03023657016456127 108
1.4613770246505737 -1.0362451076507568 0.46945056319236755 108
1.4617667198181152 -1.0369048118591309 0.40460577607154846 108
1.4602214097976685 -1.036191701889038 0.3402882218360901 108
1.464827060699463 -1.0398443937301636 0.2781464755535126 108
1.4554710388183594 -1.0335849523544312 0.21449004113674164 108
1.4727073907852173 -1.046211838722229 0.15470144152641296 108
1.4638373851776123 -1.0402950048446655 0.09211128205060959 108
1.4531798362731934 -1.0331028699874878 0.030454447492957115 108
1.4746886491775513 -1.0507206916809082 -0.4749331474304199 119
1.4633198976516724 -1.043005347251892 -0.4060368835926056 0
1.4658594131469727 -1.0452014207839966 -0.3421948254108429 108
1.4664448499679565 -1.0460048913955688 -0.27923575043678284 108
1.4814001321792603 -1.0570625066757202 -0.21875572204589844 108
1.462221622467041 -1.0437628030776978 -0.1538301259279251 108
1.4533593654632568 -1.037819743156433 -0.0912831500172615 108
1.4549041986465454 -1.039306402206421 -0.03023657016456127 108
1.4614988565444946 -1.0444023609161377 0.4707438051700592 108
1.4579564332962036 -1.0422555208206177 0.40460577607154846 108
1.456413745880127 -1.041536808013916 0.3402882218360901 108
1.4610060453414917 -1.0452063083648682 0.2781464755535126 108
1.4516730308532715 -1.0389125347137451 0.21449004113674164 108
1.4688628911972046 -1.0516026020050049 0.15470144152641296 108
1.4640741348266602 -1.048560619354248 0.09237296134233475 108
1.4534472227096558 -1.0413336753845215 0.030541710555553436 108
1.471011996269226 -1.0558619499206543 -0.4749331474304199 119
1.4596701860427856 -1.0481070280075073 -0.4060368835926056 0
1.4622019529342651 -1.050311803817749 -0.3421948254108429 108
1.4627846479415894 -1.0511174201965332 -0.27923575043678284 108
1.4817310571670532 -1.0651239156723022 -0.21936506032943726 108
1.4626133441925049 -1.0517685413360596 -0.15426591038703918 108
1.453781247138977 -1.045802354812622 -0.09154396504163742 108
1.4553253650665283 -1.0472986698150635 -0.030322959646582603 108
1.4578442573547363 -1.0494977235794067 0.4707438051700592 108
1.4582629203796387 -1.0501855611801147 0.4057296812534332 108
1.4567517042160034 -1.0494834184646606 0.34124141931533813 108
1.4613550901412964 -1.053187370300293 0.2789278030395508 108
1.4520632028579712 -1.0468757152557373 0.21509937942028046 108
1.469223141670227 -1.0596370697021484 0.15513722598552704 108
1.4644542932510376 -1.0565863847732544 0.0926346406340599 108
1.4498034715652466 -1.0464006662368774 0.030541710555553436 108
1.4712311029434204 -1.0638201236724854 -0.4762272238731384 119
1.4599502086639404 -1.0560511350631714 -0.4071616530418396 0
1.4625033140182495 -1.0582867860794067 -0.34314802289009094 108
1.4631069898605347 -1.0591126680374146 -0.2800179123878479 108
1.4820234775543213 -1.0732002258300781 -0.21997441351413727 108
1.4589329957962036 -1.0568675994873047 -0.15426591038703918 108
1.4501217603683472 -1.050870656967163 -0.09154396504163742 108
1.4557081460952759 -1.0553065538406372 -0.030409349128603935 108
1.4580819606781006 -1.0574156045913696 0.47203704714775085 108
1.4545881748199463 -1.055269479751587 0.4057296812534332 108
1.4570519924163818 -1.0574449300765991 0.3421945869922638 108
1.4576698541641235 -1.0582818984985352 0.2789278030395508 108
1.4524154663085938 -1.0548542737960815 0.21570873260498047 108
1.4695450067520142 -1.067686915397644 0.15557299554347992 108
1.4647963047027588 -1.0646274089813232 0.09289631992578506 108
1.4501855373382568 -1.054395079612732 0.030628971755504608 108
1.4714124202728271 -1.071792721748352 -0.4775213301181793 119
1.4601924419403076 -1.0640100240707397 -0.4082863926887512 0
1.4588003158569336 -1.0633854866027832 -0.34314802289009094 108
1.45940101146698 -1.064213514328003 -0.2800179123878479 108
1.4782682657241821 -1.078366994857788 -0.21997441351413727 108
1.4592584371566772 -1.0648900270462036 -0.15470167994499207 108
1.4504776000976562 -1.0588701963424683 -0.09180477261543274 108
1.4520156383514404 -1.060381531715393 -0.030409349128603935 108
1.4582818746566772 -1.0653479099273682 0.4733303189277649 108
1.4548293352127075 -1.0632151365280151 0.406853586435318 108
1.4573142528533936 -1.065421462059021 0.34314778447151184 108
1.4579532146453857 -1.0662790536880493 0.2797091007232666 108
1.4487245082855225 -1.0599178075790405 0.21570873260498047 108
1.4658092260360718 -1.072810173034668 0.15557299554347992 108
1.4610711336135864 -1.06973397731781 0.09289631992578506 108
1.4505293369293213 -1.062404751777649 0.03071623481810093 108
1.4715560674667358 -1.0797796249389648 -0.4788154363632202 119
1.4603967666625977 -1.0719833374023438 -0.40941116213798523 0
1.4590356349945068 -1.0713762044906616 -0.344101220369339 108
1.4596574306488037 -1.0722249746322632 -0.28080010414123535 108
1.4784940481185913 -1.0864592790603638 -0.2205837517976761 108
1.4595457315444946 -1.072927474975586 -0.15513746440410614 108
1.450795292854309 -1.066884994506836 -0.09206558018922806 108
1.4523323774337769 -1.0684059858322144 -0.030495740473270416 108
1.4545543193817139 -1.0704319477081299 0.4733303189277649 108
1.4511090517044067 -1.0682870149612427 0.406853586435318 108
1.457538366317749 -1.0734124183654785 0.3441009819507599 108
1.4581983089447021 -1.0742909908294678 0.2804903984069824 108
1.449010968208313 -1.0679126977920532 0.2163180708885193 108
1.466064453125 -1.0808759927749634 0.156008780002594 108
1.4613465070724487 -1.0777912139892578 0.09315799921751022 108
1.4508347511291504 -1.0704295635223389 0.0308034960180521 108
1.4716618061065674 -1.0877803564071655 -0.4801095128059387 119
1.4566459655761719 -1.077074646949768 -0.40941116213798523 0
1.455286979675293 -1.0764626264572144 -0.344101220369339 108
1.4598755836486816 -1.0802510976791382 -0.2815822660923004 108
1.4786814451217651 -1.0945662260055542 -0.2211931049823761 108
1.4557915925979614 -1.078015685081482 -0.15513746440410614 108
1.4510746002197266 -1.0749149322509766 -0.09232638776302338 108
1.4485939741134644 -1.0734690427780151 -0.030495740473270416 108
1.4546887874603271 -1.0783789157867432 0.47462356090545654 108
1.451284646987915 -1.0762479305267334 0.40797749161720276 108
1.453782558441162 -1.0784937143325806 0.3441009819507599 108
1.454439401626587 -1.0793745517730713 0.2804903984069824 108
1.4492590427398682 -1.0759222507476807 0.2169274240732193 108
1.4662814140319824 -1.0889567136764526 0.15644456446170807 108
1.4575754404067993 -1.0828857421875 0.09315799921751022 108
1.4470895528793335 -1.0754873752593994 0.0308034960180521 108
1.46785569190979 -1.0929107666015625 -0.4801095128059387 119
1.4567844867706299 -1.085062861442566 -0.41053590178489685 0
1.4554563760757446 -1.0844686031341553 -0.34505438804626465 108
1.4600553512573242 -1.0882916450500488 -0.2823644280433655 108
1.4748517274856567 -1.099721074104309 -0.2211931049823761 108
1.4560123682022095 -1.0860689878463745 -0.15557323396205902 108
1.4513155221939087 -1.082959771156311 -0.0925871953368187 108
1.448844313621521 -1.0815095901489258 -0.030582129955291748 108
1.454785704612732 -1.0863399505615234 0.4759168028831482 108
1.4514222145080566 -1.0842230319976807 0.4091013967990875 108
1.453940987586975 -1.0864999294281006 0.34505414962768555 108
1.4546184539794922 -1.0874018669128418 0.28127172589302063 108
1.449468731880188 -1.0839465856552124 0.21753676235675812 108
1.4664597511291504 -1.0970520973205566 0.15688033401966095 108
1.4577842950820923 -1.090958833694458 0.09341967850923538 108
1.4473284482955933 -1.0835282802581787 0.030890757218003273 108
1.4678956270217896 -1.1009258031845093 -0.481403648853302 119
1.4568850994110107 -1.0930651426315308 -0.41166067123413086 0
1.45558762550354 -1.0924888849258423 -0.3460075855255127 108
1.4562475681304932 -1.093381643295288 -0.2823644280433655 108
1.474972128868103 -1.1078429222106934 -0.22180244326591492 108
1.456194519996643 -1.0941368341445923 -0.1560090184211731 108
1.4475263357162476 -1.0880191326141357 -0.0925871953368187 108
1.4490561485290527 -1.0895648002624512 -0.03066851943731308 108
1.4548447132110596 -1.0943148136138916 0.47721007466316223 108
1.4476287364959717 -1.0892828702926636 0.4091013967990875 108
1.4501394033432007 -1.0915683507919312 0.34505414962768555 108
1.4547590017318726 -1.095443606376648 0.28205302357673645 108
1.4496402740478516 -1.0919857025146484 0.21814611554145813 108
1.4626214504241943 -1.1021642684936523 0.15688033401966095 108
1.4539672136306763 -1.0960407257080078 0.09341967850923538 108
1.4435374736785889 -1.088573694229126 0.030890757218003273 108
1.4678972959518433 -1.1089543104171753 -0.4826977550983429 119
1.4530606269836426 -1.0981439352035522 -0.41166067123413086 0
1.4556806087493896 -1.1005232334136963 -0.34696078300476074 108
1.456360936164856 -1.1014372110366821 -0.28314661979675293 108
1.4750536680221558 -1.1159790754318237 -0.22241179645061493 108
1.4523664712905884 -1.0992132425308228 -0.1560090184211731 108
1.4477005004882812 -1.0960793495178223 -0.09284800291061401 108
1.449229121208191 -1.0976346731185913 -0.03075491078197956 108
1.4510159492492676 -1.0993865728378296 0.47721007466316223 108
1.4477003812789917 -1.097272276878357 0.4102253019809723 108
1.4502315521240234 -1.099589228630066 0.3460073471069336 108
1.454861044883728 -1.1034992933273315 0.28283435106277466 108
1.4497731924057007 -1.1000388860702515 0.21875545382499695 108
1.4627327919006348 -1.1102746725082397 0.15731611847877502 108
1.4541090726852417 -1.1041288375854492 0.09368135780096054 108
1.4437098503112793 -1.0966298580169678 0.030978020280599594 108
1.4678608179092407 -1.116996169090271 -0.4839918315410614 119
1.4530950784683228 -1.1061604022979736 -0.4127854108810425 0
1.455735206604004 -1.1085715293884277 -0.3479139804840088 108
1.4564357995986938 -1.109506607055664 -0.283928781747818 108
1.4750964641571045 -1.1241291761398315 -0.22302114963531494 108
1.452481746673584 -1.1072959899902344 -0.15644480288028717 108
1.447835922241211 -1.1041539907455444 -0.09310881048440933 108
1.4493635892868042 -1.105718970298767 -0.030841300264000893 108
1.451008915901184 -1.1073750257492065 0.4785033166408539 108
1.447733998298645 -1.1052753925323486 0.41134920716285706 108
1.4502851963043213 -1.1076240539550781 0.34696054458618164 108
1.4549245834350586 -1.1115691661834717 0.2836156487464905 108
1.4498674869537354 -1.1081064939498901 0.21936480700969696 108
1.4628052711486816 -1.118398904800415 0.1577518880367279 108
1.4542121887207031 -1.1122313737869263 0.0939430370926857 108
1.4438434839248657 -1.1047004461288452 0.031065281480550766 108
1.4639527797698975 -1.1221131086349487 -0.4839918315410614 119
1.453091025352478 -1.1141903400421143 -0.4139101803302765 0
1.4557511806488037 -1.1166335344314575 -0.34886714816093445 108
1.4564719200134277 -1.1175901889801025 -0.28471094369888306 108
1.4711635112762451 -1.1292715072631836 -0.22302114963531494 108
1.4525583982467651 -1.1153929233551025 -0.15688057243824005 108
1.4439729452133179 -1.109201192855835 -0.09310881048440933 108
1.4454950094223022 -1.1107715368270874 -0.030841300264000893 108
1.4509638547897339 -1.1153767108917236 0.47979655861854553 108
1.4477291107177734 -1.1132922172546387 0.4124731123447418 108
1.4503004550933838 -1.1156724691390991 0.3479137122631073 108
1.4549493789672852 -1.1196529865264893 0.2843969464302063 108
1.449923038482666 -1.1161879301071167 0.21997416019439697 108
1.4628387689590454 -1.1265374422073364 0.15818767249584198 108
1.454276442527771 -1.1203479766845703 0.09420471638441086 108
1.4439384937286377 -1.1127853393554688 0.031152544543147087 108
1.4638497829437256 -1.130167841911316 -0.4852859377861023 119
1.4530487060546875 -1.1222337484359741 -0.4150349199771881 0
1.451844573020935 -1.1217081546783447 -0.34886714816093445 108
1.4564692974090576 -1.1256873607635498 -0.2854931354522705 108
1.4711387157440186 -1.1374354362487793 -0.22363048791885376 108
1.4525960683822632 -1.1235039234161377 -0.15731635689735413 108
1.44404137134552 -1.1172902584075928 -0.09336962550878525 108
1.4455622434616089 -1.1188703775405884 -0.030927689746022224 108
1.4470616579055786 -1.1204347610473633 0.47979655861854553 108
1.4476858377456665 -1.1213222742080688 0.4135970175266266 108
1.4463971853256226 -1.1207280158996582 0.3479137122631073 108
1.451032280921936 -1.1247249841690063 0.2843969464302063 108
1.4460179805755615 -1.1212422847747803 0.21997416019439697 108
1.458897352218628 -1.1316368579864502 0.15818767249584198 108
1.4503568410873413 -1.1254174709320068 0.09420471638441086 108
1.4400452375411987 -1.1178189516067505 0.031152544543147087 108
1.46390700340271 -1.1379799842834473 -0.4865800142288208 119
1.4533623456954956 -1.1297829151153564 -0.4161596894264221 0
1.4521881341934204 -1.1292768716812134 -0.3498203456401825 108
1.4568235874176025 -1.1332896947860718 -0.28627529740333557 108
1.4714746475219727 -1.1450992822647095 -0.22423984110355377 108
1.449059247970581 -1.1280617713928223 -0.15731635689735413 108
1.4405242204666138 -1.121821403503418 -0.09336962550878525 108
1.4420400857925415 -1.123406171798706 -0.030927689746022224 108
1.447344183921814 -1.1279443502426147 0.48108983039855957 108
1.4479984045028687 -1.128860354423523 0.41472092270851135 108
1.4467395544052124 -1.1282849311828613 0.34886690974235535 108
1.451385498046875 -1.1323156356811523 0.2851782739162445 108
1.4464006423950195 -1.1288329362869263 0.2205834984779358 108
1.4592612981796265 -1.1392797231674194 0.15862344205379486 108
1.4507492780685425 -1.1330418586730957 0.09446639567613602 108
1.4404658079147339 -1.1254152059555054 0.03123980574309826 108
1.4601253271102905 -1.142828345298767 -0.4865800142288208 119
1.453245759010315 -1.137852668762207 -0.41728442907333374 0
1.4482372999191284 -1.1343390941619873 -0.3498203456401825 108
1.452858805656433 -1.138368010520935 -0.28627529740333557 108
1.47137451171875 -1.1532902717590332 -0.2248491793870926 108
1.4490324258804321 -1.1361865997314453 -0.1577521413564682 108
1.440528392791748 -1.1299245357513428 -0.09363043308258057 108
1.4420429468154907 -1.131519079208374 -0.031014081090688705 108
1.447197437286377 -1.1359717845916748 0.4823831021785736 108
1.4478811025619507 -1.1369168758392334 0.4158448278903961 108
1.4466521739959717 -1.1363600492477417 0.3498201072216034 108
