# .PCD v0.7 - Point Cloud Data file format
VERSION 0.7
FIELDS x y z intensity
SIZE 4 4 4 4
TYPE F F F F
COUNT 1 1 1 1
WIDTH 763
HEIGHT 1
VIEWPOINT 0 0 0 1 0 0 0
POINTS 763
DATA ascii
1.2620893716812134 -1.128438115119934 0.028883730992674828 108
1.2768462896347046 -1.1436388492584229 -0.44905126094818115 119
1.2730443477630615 -1.1406340599060059 -0.38579127192497253 108
1.2785007953643799 -1.1459252834320068 -0.32599061727523804 108
1.2712676525115967 -1.1398423910140991 -0.2643744647502899 108
1.2919578552246094 -1.158800482749939 -0.2083968073129654 108
1.2667402029037476 -1.1365809440612793 -0.14555031061172485 108
1.262147307395935 -1.1328576803207397 -0.08658859133720398 108
1.2634468078613281 -1.1344223022460938 -0.028681546449661255 108
1.2573401927947998 -1.1293357610702515 0.4422922432422638 108
1.2606284618377686 -1.132686734199524 0.38212767243385315 108
1.2622976303100586 -1.134584903717041 0.3221776485443115 108
1.2660367488861084 -1.1383452415466309 0.2633015811443329 108
1.2608205080032349 -1.1340529918670654 0.20352178812026978 108
1.276260256767273 -1.1483434438705444 0.14685742557048798 108
1.2679755687713623 -1.1412895917892456 0.08740103989839554 108
1.2581427097320557 -1.1328368186950684 0.028883730992674828 108
1.2728463411331177 -1.1480889320373535 -0.44905126094818115 119
1.272672176361084 -1.1483346223831177 -0.38691604137420654 108
1.2781363725662231 -1.153669834136963 -0.3269438147544861 108
1.2709465026855469 -1.1475826501846313 -0.265156626701355 108
1.287904977798462 -1.1633031368255615 -0.2083968073129654 108
1.2664607763290405 -1.1443350315093994 -0.14598609507083893 108
1.2581852674484253 -1.1372565031051636 -0.08658859133720398 108
1.2594791650772095 -1.1388256549835205 -0.028681546449661255 108
1.2569724321365356 -1.1369577646255493 0.44358551502227783 108
1.260279655456543 -1.1403491497039795 0.3832515776157379 108
1.2619686126708984 -1.1422780752182007 0.3231308162212372 108
1.2657164335250854 -1.1460723876953125 0.2640828788280487 108
1.2605323791503906 -1.141778826713562 0.2041311413049698 108
1.275935173034668 -1.1561359167099 0.14729321002960205 108
1.263983964920044 -1.145708680152893 0.08740103989839554 108
1.25788414478302 -1.1405795812606812 0.028970992192626 108
1.2724061012268066 -1.1557722091674805 -0.45034533739089966 119
1.2686558961868286 -1.1527700424194336 -0.38691604137420654 108
1.2741014957427979 -1.1581242084503174 -0.3269438147544861 108
1.2669328451156616 -1.1520121097564697 -0.265156626701355 108
1.2875075340270996 -1.1711310148239136 -0.2090061455965042 108
1.2624585628509521 -1.1487488746643066 -0.14598609507083893 108
1.257900357246399 -1.1450026035308838 -0.0868493989109993 108
1.259192705154419 -1.1465808153152466 -0.028767935931682587 108
1.2565666437149048 -1.144590973854065 0.4448787569999695 108
1.2598925828933716 -1.1480227708816528 0.3843754827976227 108
1.2579736709594727 -1.1466761827468872 0.3231308162212372 108
1.2653573751449585 -1.1538110971450806 0.2648642063140869 108
1.260205626487732 -1.1495164632797241 0.2047404795885086 108
1.271891713142395 -1.1605827808380127 0.14729321002960205 108
1.263664722442627 -1.153480052947998 0.0876627191901207 108
1.2538950443267822 -1.1449635028839111 0.028970992192626 108
1.2683639526367188 -1.16020667552948 -0.45034533739089966 119
1.2682183980941772 -1.160480260848999 -0.38804078102111816 108
1.2736716270446777 -1.1658787727355957 -0.32789698243141174 108
1.2665460109710693 -1.1597625017166138 -0.26593878865242004 108
1.2834117412567139 -1.1756181716918945 -0.2090061455965042 108
1.262113332748413 -1.1565138101577759 -0.1464218646287918 108
1.2575767040252686 -1.1527605056762695 -0.08711020648479462 108
1.2551826238632202 -1.1509692668914795 -0.028767935931682587 108
1.252563714981079 -1.1489702463150024 0.4448787569999695 108
1.2594672441482544 -1.1557077169418335 0.38549938797950745 108
1.2575790882110596 -1.1543794870376587 0.32408401370048523 108
1.2613221406936646 -1.1582210063934326 0.2648642063140869 108
1.2598401308059692 -1.157265543937683 0.20534983277320862 108
1.2715003490447998 -1.168385624885559 0.14772897958755493 108
1.263306736946106 -1.1612632274627686 0.08792439848184586 108
1.2535706758499146 -1.1527173519134521 0.02905825525522232 108
1.2678585052490234 -1.167899250984192 -0.45163944363594055 119
1.264159917831421 -1.1649000644683838 -0.38804078102111816 108
1.2732032537460327 -1.1736444234848022 -0.3288501799106598 108
1.2624900341033936 -1.1641764640808105 -0.26593878865242004 108
1.2829481363296509 -1.1834558248519897 -0.20961549878120422 108
1.2617292404174805 -1.164290189743042 -0.14685764908790588 108
1.2535451650619507 -1.157143235206604 -0.08711020648479462 108
1.254830241203308 -1.1587352752685547 -0.02885432541370392 108
1.2520930767059326 -1.1566126346588135 0.44617199897766113 108
1.259003758430481 -1.1634036302566528 0.3866232931613922 108
1.2535420656204224 -1.1587623357772827 0.32408401370048523 108
1.2608973979949951 -1.165969729423523 0.26564550399780273 108
1.2557928562164307 -1.161656141281128 0.20534983277320862 108
1.2710700035095215 -1.1761999130249023 0.148164764046669 108
1.2592453956604004 -1.165665864944458 0.08792439848184586 108
1.2495393753051758 -1.1570860147476196 0.02905825525522232 108
1.2675200700759888 -1.175381064414978 -0.45293354988098145 119
1.2638617753982544 -1.1723991632461548 -0.38916558027267456 108
1.2693042755126953 -1.1778600215911865 -0.3288501799106598 108
1.2622419595718384 -1.1717164516448975 -0.2667209804058075 108
1.2790164947509766 -1.1877037286758423 -0.20961549878120422 108
1.2578613758087158 -1.1684678792953491 -0.14685764908790588 108
1.2533587217330933 -1.164692759513855 -0.08737101405858994 108
1.2546424865722656 -1.1662938594818115 -0.0289407167583704 108
1.251787781715393 -1.1640474796295166 0.44746530055999756 108
1.258705973625183 -1.1708904504776 0.387747198343277 108
1.2532857656478882 -1.1662564277648926 0.3250372111797333 108
1.26063871383667 -1.1735094785690308 0.26642683148384094 108
1.2555656433105469 -1.1691962480545044 0.20595917105674744 108
1.2708073854446411 -1.1838035583496094 0.1486005336046219 108
1.2590259313583374 -1.1732392311096191 0.08818608522415161 108
1.249352216720581 -1.1646322011947632 0.029145516455173492 108
1.2669392824172974 -1.1830947399139404 -0.45422762632369995 0
1.2633217573165894 -1.1801294088363647 -0.3902903199195862 108
1.2687712907791138 -1.1856348514556885 -0.3298034071922302 108
1.2581441402435303 -1.1761153936386108 -0.2667209804058075 108
1.2784875631332397 -1.195550799369812 -0.21022485196590424 108
1.2574125528335571 -1.1762542724609375 -0.14729343354701996 108
1.2529312372207642 -1.172472357749939 -0.08763182163238525 108
1.2542133331298828 -1.174082636833191 -0.02902710624039173 108
1.2477169036865234 -1.1684099435806274 0.44746530055999756 108
1.2581669092178345 -1.1786079406738281 0.38887113332748413 108
1.2527884244918823 -1.1739803552627563 0.32599037885665894 108
1.2565346956253052 -1.1779026985168457 0.26642683148384094 108
1.2550967931747437 -1.1769664287567139 0.20656852424144745 108
1.266667366027832 -1.1882323026657104 0.1486005336046219 108
1.2585639953613281 -1.1810437440872192 0.08844776451587677 108
1.2452794313430786 -1.168986201286316 0.029145516455173492 108
1.2663201093673706 -1.190818428993225 -0.45552173256874084 0
1.2591947317123413 -1.1845320463180542 -0.3902903199195862 108
1.2681994438171387 -1.193420171737671 -0.3307565748691559 108
1.257627010345459 -1.183885097503662 -0.26750314235687256 108
1.2779196500778198 -1.2034085988998413 -0.21083420515060425 108
1.2532989978790283 -1.1806362867355347 -0.14729343354701996 108
1.248831033706665 -1.176838755607605 -0.08763182163238525 108
1.2537450790405273 -1.1818827390670776 -0.029113495722413063 108
1.2471446990966797 -1.1760718822479248 0.4487585425376892 108
1.2575892210006714 -1.1863359212875366 0.3899950385093689 108
1.2522526979446411 -1.1817148923873901 0.326943576335907 108
1.2560065984725952 -1.1856718063354492 0.26720812916755676 108
1.2545889616012573 -1.1847476959228516 0.20717787742614746 108
1.2661327123641968 -1.196066975593567 0.14903631806373596 108
1.258062720298767 -1.188859224319458 0.08870944380760193 108
1.2448240518569946 -1.1767600774765015 0.029232779517769814 108
1.2621556520462036 -1.1952314376831055 -0.45552173256874084 0
1.2585890293121338 -1.1922707557678223 -0.3914150893688202 0
1.2640259265899658 -1.1978397369384766 -0.3307565748691559 108
1.257070779800415 -1.1916652917861938 -0.2682853043079376 108
1.273711085319519 -1.2078619003295898 -0.21083420515060425 108
1.2527837753295898 -1.188431978225708 -0.14772920310497284 108
1.2483373880386353 -1.184627890586853 -0.08789262920618057 108
1.2496118545532227 -1.1862518787384033 -0.029113495722413063 108
1.2465342283248901 -1.183743953704834 0.45005178451538086 108
1.2534403800964355 -1.1907185316085815 0.3899950385093689 108
1.2481200695037842 -1.1860787868499756 0.326943576335907 108
1.2554395198822021 -1.1934515237808228 0.2679894268512726 108
1.2540420293807983 -1.1925398111343384 0.20778721570968628 108
1.2655587196350098 -1.203912377357483 0.14947208762168884 108
1.2575223445892334 -1.196685552597046 0.08897112309932709 108
1.244329810142517 -1.1845451593399048 0.029320040717720985 108
1.2612611055374146 -1.2031831741333008 -0.45681580901145935 0
1.257735252380371 -1.2002391815185547 -0.3925398290157318 0
1.2631773948669434 -1.2058537006378174 -0.33170977234840393 108
1.2562661170959473 -1.1996753215789795 -0.2690674960613251 108
1.2728641033172607 -1.2159502506256104 -0.21144355833530426 108
1.2520205974578857 -1.196456789970398 -0.14816498756408691 108
1.2475965023040771 -1.1926456689834595 -0.08815344423055649 108
1.248868703842163 -1.1942791938781738 -0.029199887067079544 108
1.24567711353302 -1.191643476486206 0.4513450264930725 108
1.2525876760482788 -1.198672890663147 0.3911189138889313 108
1.2473101615905762 -1.1940397024154663 0.32789677381515503 108
1.2546237707138062 -1.2014607191085815 0.2687707543373108 108
1.2532464265823364 -1.2005610466003418 0.2083965688943863 108
1.2647340297698975 -1.211989164352417 0.14990787208080292 108
1.2567322254180908 -1.2047418355941772 0.08923280239105225 108
1.2435879707336426 -1.19255793094635 0.029407301917672157 108
1.2570533752441406 -1.207578420639038 -0.45681580901145935 0
1.25705087184906 -1.2079977989196777 -0.3936645984649658 0
1.258960485458374 -1.210255742073059 -0.33170977234840393 108
1.2520709037780762 -1.2040531635284424 -0.2690674960613251 108
1.2721883058547974 -1.22382652759552 -0.21205289661884308 108
1.2514257431030273 -1.2042738199234009 -0.148600772023201 108
1.243425726890564 -1.196993350982666 -0.08815344423055649 108
1.248293399810791 -1.202099084854126 -0.029286276549100876 108
1.2415099143981934 -1.1959843635559082 0.4513450264930725 108
1.2519041299819946 -1.206418752670288 0.39224281907081604 108
1.2466683387756348 -1.20179283618927 0.3288499414920807 108
1.2504222393035889 -1.205832839012146 0.2687707543373108 108
1.249048113822937 -1.2049283981323242 0.2083965688943863 108
1.2604957818984985 -1.216396450996399 0.14990787208080292 108
1.2561116218566895 -1.2125892639160156 0.0894944816827774 108
1.2430092096328735 -1.2003692388534546 0.02949456498026848 108
1.2565138339996338 -1.2150976657867432 -0.45810991525650024 0
1.2567516565322876 -1.2153277397155762 -0.39478933811187744 0
1.2586798667907715 -1.2176176309585571 -0.332662969827652 108
1.251830816268921 -1.2114149332046509 -0.26984965801239014 108
1.2719030380249023 -1.2312690019607544 -0.2126622498035431 108
1.2476361989974976 -1.208199381828308 -0.148600772023201 108
1.2432454824447632 -1.204367995262146 -0.0884142518043518 108
1.248100757598877 -1.2094937562942505 -0.029372666031122208 108
1.241214394569397 -1.2032406330108643 0.45263829827308655 108
1.25160551071167 -1.2137374877929688 0.3933667242527008 108
1.2428865432739258 -1.2057034969329834 0.3288499414920807 108
1.2501718997955322 -1.2131943702697754 0.2695520520210266 108
1.2488173246383667 -1.2123031616210938 0.2090059071779251 108
1.2602413892745972 -1.223820447921753 0.150343656539917 108
1.2558774948120117 -1.2200086116790771 0.08975616097450256 108
1.2428218126296997 -1.2077476978302002 0.02958182618021965 108
1.2524775266647339 -1.2192577123641968 -0.45810991525650024 119
1.25599205493927 -1.223106026649475 -0.39591410756111145 0
1.2544219493865967 -1.222003698348999 -0.332662969827652 108
1.2475944757461548 -1.2157771587371826 -0.26984965801239014 108
1.271150827407837 -1.2391654253005981 -0.2132715880870819 108
1.2469772100448608 -1.2160245180130005 -0.14903654158115387 108
1.2426081895828247 -1.2121870517730713 -0.08867505937814713 108
1.2474491596221924 -1.2173346281051636 -0.02945905737578869 108
1.2404628992080688 -1.210939645767212 0.4539315402507782 108
1.247361183166504 -1.2180991172790527 0.3933667242527008 108
1.2421815395355225 -1.2134644985198975 0.3298031687736511 108
1.2494617700576782 -1.2210026979446411 0.2703333795070648 108
1.2445780038833618 -1.2166550159454346 0.2090059071779251 108
1.2595231533050537 -1.2316948175430298 0.15077944099903107 108
1.2551804780960083 -1.2278766632080078 0.09001784026622772 108
1.2421714067459106 -1.215575098991394 0.02966908924281597 108
1.251448631286621 -1.2272216081619263 -0.45940402150154114 119
1.2549785375595093 -1.2311129570007324 -0.39703884720802307 0
1.2499346733093262 -1.226593255996704 -0.332662969827652 108
1.2466543912887573 -1.2238013744354248 -0.2706318497657776 108
1.270141363143921 -1.24729323387146 -0.21388094127178192 108
1.2460651397705078 -1.2240773439407349 -0.14947232604026794 108
1.2417182922363281 -1.2202330827713013 -0.08893586695194244 108
1.2465441226959229 -1.2254031896591187 -0.02954544685781002 108
1.2394599914550781 -1.2188645601272583 0.45522478222846985 108
1.2463613748550415 -1.2260793447494507 0.39449062943458557 108
1.2377256155014038 -1.2180092334747314 0.3298031687736511 108
1.2449780702590942 -1.225574016571045 0.2703333795070648 108
1.2436463832855225 -1.224690556526184 0.20961526036262512 108
1.258548617362976 -1.2397984266281128 0.15121521055698395 108
1.250671625137329 -1.2324689626693726 0.09001784026622772 108
1.2412681579589844 -1.2236292362213135 0.029756350442767143 108
1.250593662261963 -1.2349761724472046 -0.46069809794425964 119
1.2541393041610718 -1.2389099597930908 -0.3981636166572571 0
1.2456454038619995 -1.230948805809021 -0.332662969827652 108
1.245887041091919 -1.2316174507141113 -0.27141401171684265 108
1.2693085670471191 -1.2552088499069214 -0.21449029445648193 108
1.2453258037567139 -1.2319225072860718 -0.14990811049938202 108
1.2410005331039429 -1.2280722856521606 -0.08919667452573776 108
1.2458120584487915 -1.2332640886306763 -0.029631836339831352 108
1.2386295795440674 -1.2265821695327759 0.4565180540084839 108
1.242073893547058 -1.2304223775863647 0.39449062943458557 108
1.236952781677246 -1.2257771492004395 0.3307563364505768 108
1.2441997528076172 -1.233389139175415 0.271114706993103 108
1.2393639087677002 -1.2290241718292236 0.20961526036262512 108
1.2542132139205933 -1.244183897972107 0.15121521055698395 108
1.2499061822891235 -1.2403441667556763 0.09027951955795288 108
1.240537166595459 -1.2314766645431519 0.029843611642718315 108
1.2496998310089111 -1.2427394390106201 -0.46199220418930054 119
1.2532610893249512 -1.246716022491455 -0.3992883563041687 0
1.2448201179504395 -1.2387516498565674 -0.33361613750457764 108
1.2450802326202393 -1.2394429445266724 -0.2721962034702301 108
1.264919400215149 -1.2596319913864136 -0.21449029445648193 108
1.2410180568695068 -1.2362619638442993 -0.14990811049938202 108
1.2402430772781372 -1.2359212636947632 -0.08945748209953308 108
1.2450401782989502 -1.241134762763977 -0.029718227684497833 108
1.2377604246139526 -1.2343087196350098 0.45781129598617554 108
1.2412207126617432 -1.2381913661956787 0.39561453461647034 108
1.2361407279968262 -1.233554482460022 0.33170953392982483 108
1.2433820962905884 -1.2412137985229492 0.27189600467681885 108
1.2385778427124023 -1.2368496656417847 0.21022459864616394 108
1.2533864974975586 -1.2520745992660522 0.15165099501609802 108
1.249100923538208 -1.2482290267944336 0.09054120630025864 108
1.2397665977478027 -1.2393337488174438 0.029930874705314636 108
1.2487667798995972 -1.2505115270614624 -0.46328628063201904 119
1.248901605606079 -1.2510831356048584 -0.3992883563041687 0
1.2404886484146118 -1.2430893182754517 -0.33361613750457764 108
1.2442338466644287 -1.247277855873108 -0.27297836542129517 108
1.2640190124511719 -1.267553687095642 -0.21509963274002075 108
1.2402116060256958 -1.2441139221191406 -0.1503438800573349 108
1.2394458055496216 -1.2437797784805298 -0.089718297123909 108
1.240700125694275 -1.2454731464385986 -0.029718227684497833 108
1.2368525266647339 -1.24204421043396 0.4591045379638672 108
1.2403281927108765 -1.2459694147109985 0.3967384397983551 108
1.2352895736694336 -1.2413411140441895 0.3326627314090729 108
1.2425247430801392 -1.2490475177764893 0.27267730236053467 108
1.2377523183822632 -1.2446845769882202 0.21083396673202515 108
1.252519965171814 -1.259974718093872 0.1520867794752121 108
1.2447360754013062 -1.2525817155838013 0.09054120630025864 108
1.2354328632354736 -1.2436538934707642 0.029930874705314636 108
1.2477948665618896 -1.258292317390442 -0.46458038687705994 119
1.24795663356781 -1.258894920349121 -0.4004131257534027 0
1.2395968437194824 -1.2508983612060547 -0.3345693349838257 108
1.2433480024337769 -1.2551218271255493 -0.2737605571746826 108
1.2595866918563843 -1.2719582319259644 -0.21509963274002075 108
1.239365577697754 -1.2519755363464355 -0.15077966451644897 108
1.2386088371276855 -1.25164794921875 -0.08997910469770432 108
1.2398608922958374 -1.2533504962921143 -0.029804617166519165 108
1.2359055280685425 -1.2497882843017578 0.4603978097438812 108
1.239396572113037 -1.2537561655044556 0.39786234498023987 108
1.2343990802764893 -1.2491366863250732 0.33361589908599854 108
1.241627812385559 -1.2568905353546143 0.2734586298465729 108
1.2368872165679932 -1.2525287866592407 0.21144330501556396 108
1.2516134977340698 -1.2678837776184082 0.15252254903316498 108
1.2438634634017944 -1.2604730129241943 0.0908028855919838 108
1.2345950603485107 -1.2515177726745605 0.030018135905265808 108
1.24678373336792 -1.26608145236969 -0.46587449312210083 119
1.2469724416732788 -1.2667152881622314 -0.40153786540031433 0
1.2386654615402222 -1.2587159872055054 -0.33552253246307373 108
1.2389591932296753 -1.2594542503356934 -0.2737605571746826 108
1.258618712425232 -1.2798856496810913 -0.21570898592472076 108
1.238479733467102 -1.2598460912704468 -0.15121544897556305 108
1.2377320528030396 -1.2595252990722656 -0.09023991972208023 108
1.23898184299469 -1.2612372636795044 -0.029891008511185646 108
1.2315354347229004 -1.2540948390960693 0.4603978097438812 108
1.238425612449646 -1.2615517377853394 0.39898625016212463 108
1.233469009399414 -1.2569411993026733 0.3345690965652466 108
1.2406913042068481 -1.2647424936294556 0.2742399275302887 108
1.2359821796417236 -1.2603819370269775 0.21205265820026398 108
1.2506669759750366 -1.2758020162582397 0.15295833349227905 108
1.2429507970809937 -1.2683734893798828 0.09106456488370895 108
1.2337173223495483 -1.2593908309936523 0.03010539896786213 108
1.245733380317688 -1.273878812789917 -0.46716856956481934 119
1.2459487915039062 -1.2745441198349 -0.40266263484954834 0
1.2376946210861206 -1.2665425539016724 -0.3364757001399994 108
1.238006353378296 -1.2673038244247437 -0.2745427191257477 108
1.2576106786727905 -1.287821888923645 -0.21631832420825958 108
1.2375539541244507 -1.2677258253097534 -0.15165123343467712 108
1.2368152141571045 -1.2674115896224976 -0.09050072729587555 108
1.2345715761184692 -1.2655543088912964 -0.029891008511185646 108
1.2305222749710083 -1.2618439197540283 0.4616910517215729 108
1.2374153137207031 -1.2693555355072021 0.4001101553440094 108
1.2324994802474976 -1.2647544145584106 0.33552229404449463 108
1.2397150993347168 -1.272603154182434 0.2750212550163269 108
1.2350374460220337 -1.2682440280914307 0.2126619964838028 108
1.2496803998947144 -1.2837289571762085 0.15339410305023193 108
1.2419980764389038 -1.2762829065322876 0.09132624417543411 108
1.232799768447876 -1.2672730684280396 0.03019266203045845 108
1.2446438074111938 -1.2816842794418335 -0.46846267580986023 119
1.2448856830596924 -1.2823811769485474 -0.40378737449645996 119
1.2401025295257568 -1.2779000997543335 -0.3383820950984955 108
1.237013578414917 -1.2751623392105103 -0.27532488107681274 108
1.2565624713897705 -1.2957665920257568 -0.2169276773929596 108
1.2365881204605103 -1.2756143808364868 -0.15208700299263 108
1.2323837280273438 -1.2717212438583374 -0.09050072729587555 108
1.233625054359436 -1.273446798324585 -0.029977399855852127 108
1.229470133781433 -1.2696012258529663 0.4629842936992645 108
1.2363656759262085 -1.2771676778793335 0.40123406052589417 108
1.2314903736114502 -1.272576093673706 0.3364754617214203 108
1.2352653741836548 -1.2769228219985962 0.2750212550163269 108
1.2340527772903442 -1.2761149406433105 0.2132713496685028 108
1.2486536502838135 -1.291664481163025 0.153829887509346 108
1.2375354766845703 -1.28061044216156 0.09132624417543411 108
1.2283686399459839 -1.271568775177002 0.03019266203045845 108
1.2435146570205688 -1.2894974946975708 -0.46975675225257874 119
1.2437829971313477 -1.2902263402938843 -0.40491214394569397 119
1.242445945739746 -1.2892895936965942 -0.3402884602546692 108
1.2359811067581177 -1.2830290794372559 -0.2761070728302002 108
1.2554742097854614 -1.3037195205688477 -0.2175370156764984 108
1.2355822324752808 -1.2835114002227783 -0.15252278745174408 108
1.2313992977142334 -1.2796131372451782 -0.09076153486967087 108
1.2326381206512451 -1.2813481092453003 -0.03006378933787346 108
1.2283786535263062 -1.277366280555725 0.4642775356769562 108
1.2352763414382935 -1.2849880456924438 0.40235796570777893 108
1.2270408868789673 -1.2768670320510864 0.3364754617214203 108
1.2342219352722168 -1.2847883701324463 0.2758025527000427 108
1.2330281734466553 -1.283994197845459 0.21388068795204163 108
1.244137167930603 -1.2960152626037598 0.153829887509346 108
1.236514925956726 -1.288525104522705 0.09158792346715927 108
1.2273833751678467 -1.279456377029419 0.03027992509305477 108
1.2423462867736816 -1.297318458557129 -0.47105085849761963 119
1.2426406145095825 -1.298079252243042 -0.4060368835926056 119
1.2413314580917358 -1.2971649169921875 -0.34124165773391724 108
1.2349086999893188 -1.29090416431427 -0.27688923478126526 108
1.2543456554412842 -1.311680793762207 -0.21814636886119843 108
1.2345362901687622 -1.2914172410964966 -0.15295857191085815 108
1.230374813079834 -1.2875137329101562 -0.09102234244346619 108
1.2316111326217651 -1.2892578840255737 -0.03015017881989479 108
1.227247953414917 -1.2851394414901733 0.4655708074569702 108
1.234147548675537 -1.292816162109375 0.4034818708896637 108
1.225964903831482 -1.2846933603286743 0.33742865920066833 108
1.2331383228302002 -1.2926621437072754 0.27658385038375854 108
1.2319635152816772 -1.291882038116455 0.21449004113674164 108
1.2430425882339478 -1.3039555549621582 0.15426567196846008 108
1.2354543209075928 -1.2964482307434082 0.09184960275888443 108
1.2263579368591309 -1.2873526811599731 0.030367186293005943 108
1.2378102540969849 -1.3016471862792969 -0.47105085849761963 119
1.241458535194397 -1.30594003200531 -0.4071616530418396 119
1.2435582876205444 -1.3086060285568237 -0.34314802289009094 108
1.2337963581085205 -1.2987874746322632 -0.2776713967323303 108
1.2531768083572388 -1.3196498155593872 -0.21875572204589844 108
1.233450174331665 -1.2993309497833252 -0.15339434146881104 108
1.2258731126785278 -1.291800618171692 -0.09102234244346619 108
1.230543851852417 -1.2971760034561157 -0.03023657016456127 108
1.2260780334472656 -1.2929201126098633 0.46686404943466187 108
1.23297917842865 -1.300652027130127 0.40460577607154846 108
1.2248492240905762 -1.292527675628662 0.3383818566799164 108
1.2320150136947632 -1.300544023513794 0.27736517786979675 108
1.2308589220046997 -1.299777865409851 0.21509937942028046 108
1.2384834289550781 -1.3082866668701172 0.15426567196846008 108
1.2343531847000122 -1.3043794631958008 0.09211128205060959 108
1.2252923250198364 -1.295257329940796 0.030454447492957115 108
1.2365751266479492 -1.3094714879989624 -0.4723449647426605 119
1.240236759185791 -1.3138082027435303 -0.4082863926887512 119
1.2423514127731323 -1.3165086507797241 -0.344101220369339 108
1.232643961906433 -1.3066785335540771 -0.2784535884857178 108
1.2519675493240356 -1.3276268243789673 -0.21936506032943726 108
1.2323240041732788 -1.307253122329712 -0.1538301259279251 108
1.224780797958374 -1.2997058629989624 -0.0912831500172615 108
1.2294363975524902 -1.3051024675369263 -0.030322959646582603 108
1.2248685359954834 -1.300708293914795 0.4681572914123535 108
1.2284314632415771 -1.3049479722976685 0.40460577607154846 108
1.223693609237671 -1.3003696203231812 0.33933502435684204 108
1.230851650238037 -1.3084337711334229 0.2781464755535126 108
1.2263143062591553 -1.3040664196014404 0.21509937942028046 108
1.2373206615447998 -1.3162308931350708 0.15470144152641296 108
1.233211874961853 -1.3123189210891724 0.09237296134233475 108
1.2241863012313843 -1.3031702041625977 0.030541710555553436 108
1.2355302572250366 -1.3170872926712036 -0.47363904118537903 119
1.2394362688064575 -1.3212512731552124 -0.40941116213798523 119
1.2415668964385986 -1.3239854574203491 -0.34505438804626465 108
1.2319103479385376 -1.3141474723815918 -0.27923575043678284 108
1.2477904558181763 -1.3315534591674805 -0.21936506032943726 108
1.2316161394119263 -1.3147531747817993 -0.15426591038703918 108
1.2241045236587524 -1.3071917295455933 -0.09154396504163742 108
1.2287466526031494 -1.312608003616333 -0.030409349128603935 108
1.224076271057129 -1.3080763816833496 0.46945056319236755 108
1.227654218673706 -1.3123588562011719 0.4057296812534332 108
1.2229547500610352 -1.3077926635742188 0.3402882218360901 108
1.2301075458526611 -1.3159018754959106 0.2789278030395508 108
1.225599765777588 -1.311538577079773 0.21570873260498047 108
1.2365797758102417 -1.323751449584961 0.15513722598552704 108
1.23249089717865 -1.319836139678955 0.0926346406340599 108
1.223497748374939 -1.3106640577316284 0.030628971755504608 108
1.2344483137130737 -1.324710488319397 -0.4749331474304199 119
1.2381374835968018 -1.3291343450546265 -0.41053590178489685 119
1.240282654762268 -1.331903338432312 -0.3460075855255127 108
1.2306803464889526 -1.3220542669296265 -0.2800179123878479 108
1.2465157508850098 -1.3395339250564575 -0.21997441351413727 108
1.2304118871688843 -1.3226913213729858 -0.15470167994499207 108
1.2229344844818115 -1.3151133060455322 -0.09180477261543274 108
1.2241573333740234 -1.3168891668319702 -0.030409349128603935 108
1.2227905988693237 -1.3158793449401855 0.4707438051700592 108
1.226381540298462 -1.3202056884765625 0.406853586435318 108
1.2217222452163696 -1.3156503438949585 0.34124141931533813 108
1.2288665771484375 -1.3238071203231812 0.2797091007232666 108
1.224389910697937 -1.3194464445114136 0.2163180708885193 108
1.2353389263153076 -1.3317116498947144 0.15557299554347992 108
1.2312713861465454 -1.327791452407837 0.09289631992578506 108
1.2223138809204102 -1.3185932636260986 0.03071623481810093 108
1.2328643798828125 -1.3327714204788208 -0.4762272238731384 119
1.2365652322769165 -1.3372403383255005 -0.41166067123413086 119
1.2387244701385498 -1.3400444984436035 -0.34696078300476074 108
1.2291781902313232 -1.3301831483840942 -0.28080010414123535 108
1.2449650764465332 -1.3477391004562378 -0.2205837517976761 108
1.2289350032806396 -1.3308515548706055 -0.15513746440410614 108
1.221492886543274 -1.3232557773590088 -0.09206558018922806 108
1.222712755203247 -1.3250411748886108 -0.030495740473270416 108
1.2212342023849487 -1.3239023685455322 0.47203704714775085 108
1.224837303161621 -1.3282734155654907 0.40797749161720276 108
1.2202186584472656 -1.3237282037734985 0.3421945869922638 108
1.2306995391845703 -1.3355659246444702 0.28127172589302063 108
1.2229080200195312 -1.3275753259658813 0.2169274240732193 108
1.2338236570358276 -1.3398945331573486 0.156008780002594 108
1.2297781705856323 -1.335969090461731 0.09315799921751022 108
1.220857858657837 -1.3267431259155273 0.0308034960180521 108
1.2314717769622803 -1.3406236171722412 -0.4775213301181793 119
1.2351850271224976 -1.345137119293213 -0.4127854108810425 119
1.2373584508895874 -1.3479762077331543 -0.3479139804840088 108
1.2278664112091064 -1.3381043672561646 -0.2815822660923004 108
1.2436076402664185 -1.3557337522506714 -0.2211931049823761 108
1.2276482582092285 -1.3388044834136963 -0.15557323396205902 108
1.2202404737472534 -1.331192135810852 -0.09232638776302338 108
1.2214574813842773 -1.3329869508743286 -0.030582129955291748 108
1.2198679447174072 -1.3317188024520874 0.4733303189277649 108
1.2234835624694824 -1.3361340761184692 0.4091013967990875 108
1.218904733657837 -1.3316000699996948 0.34314778447151184 108
1.2293639183044434 -1.3434971570968628 0.28205302357673645 108
1.2216160297393799 -1.3354977369308472 0.21753676235675812 108
1.232500433921814 -1.3478691577911377 0.15644456446170807 108
1.225107192993164 -1.3402535915374756 0.09315799921751022 108
1.219591498374939 -1.3346872329711914 0.030890757218003273 108
1.230039358139038 -1.3484821319580078 -0.4788154363632202 119
1.2337646484375 -1.3530404567718506 -0.4139101803302765 119
1.2359520196914673 -1.3559144735336304 -0.34886714816093445 108
1.226514220237732 -1.3460325002670288 -0.2823644280433655 108
1.242209553718567 -1.363735318183899 -0.22180244326591492 108
1.2263211011886597 -1.3467644453048706 -0.1560090184211731 108
1.2155863046646118 -1.3354436159133911 -0.09232638776302338 108
1.2201616764068604 -1.3409401178359985 -0.03066851943731308 108
1.2184618711471558 -1.3395415544509888 0.47462356090545654 108
1.218812108039856 -1.3403966426849365 0.4091013967990875 108
1.21755051612854 -1.3394787311553955 0.3441009819507599 108
1.2279878854751587 -1.3514351844787598 0.28283435106277466 108
1.2202836275100708 -1.3434274196624756 0.21814611554145813 108
1.2311363220214844 -1.3558506965637207 0.15688033401966095 108
1.223777413368225 -1.3482191562652588 0.09341967850923538 108
1.2182844877243042 -1.342638373374939 0.030978020280599594 108
1.2285670042037964 -1.3563472032546997 -0.4801095128059387 119
1.2323040962219238 -1.360950231552124 -0.4150349199771881 119
1.2312114238739014 -1.3602205514907837 -0.34886714816093445 108
1.2251216173171997 -1.353967547416687 -0.28314661979675293 108
1.2407708168029785 -1.3717436790466309 -0.22241179645061493 108
1.2249531745910645 -1.354731559753418 -0.15644480288028717 108
1.2142655849456787 -1.3433828353881836 -0.0925871953368187 108
1.2188249826431274 -1.3489004373550415 -0.03075491078197956 108
1.2170159816741943 -1.3473708629608154 0.4759168028831482 108
1.2173908948898315 -1.3482589721679688 0.4102253019809723 108
1.2161561250686646 -1.3473641872406006 0.34505414962768555 108
1.2232630252838135 -1.3557133674621582 0.28283435106277466 108
1.2189106941223145 -1.351364016532898 0.21875545382499695 108
1.2297314405441284 -1.3638392686843872 0.15731611847877502 108
1.2224068641662598 -1.3561915159225464 0.09368135780096054 108
1.2169368267059326 -1.3505969047546387 0.031065281480550766 108
1.2270549535751343 -1.3642182350158691 -0.481403648853302 119
1.230803370475769 -1.368866205215454 -0.4161596894264221 119
1.2297370433807373 -1.3681604862213135 -0.3498203456401825 108
1.2236884832382202 -1.3619091510772705 -0.283928781747818 108
1.2392911911010742 -1.3797584772109985 -0.22302114963531494 108
1.2235445976257324 -1.3627053499221802 -0.15688057243824005 108
1.2129040956497192 -1.3513290882110596 -0.09284800291061401 108
1.2174477577209473 -1.3568676710128784 -0.030841300264000893 108
1.215530276298523 -1.3552063703536987 0.47721007466316223 108
1.215929627418518 -1.3561277389526367 0.41134920716285706 108
1.2147215604782104 -1.355256199836731 0.3460073471069336 108
1.2218189239501953 -1.363653302192688 0.2836156487464905 108
1.2174972295761108 -1.3593072891235352 0.21936480700969696 108
1.2316083908081055 -1.3755451440811157 0.15818767249584198 108
1.2209954261779785 -1.364170789718628 0.0939430370926857 108
1.2122150659561157 -1.3548364639282227 0.031065281480550766 108
1.225502610206604 -1.3720952272415161 -0.4826977550983429 119
1.229262351989746 -1.3767883777618408 -0.41728442907333374 119
1.228222131729126 -1.3761066198349 -0.35077354311943054 108
1.222214937210083 -1.3698571920394897 -0.28471094369888306 108
1.237770676612854 -1.3877795934677124 -0.22363048791885376 108
1.2220951318740845 -1.3706858158111572 -0.15731635689735413 108
1.211501955986023 -1.3592822551727295 -0.09310881048440933 108
1.2160297632217407 -1.3648416996002197 -0.030927689746022224 108
1.2140045166015625 -1.36304771900177 0.4785033166408539 108
1.214428186416626 -1.3640027046203613 0.4124731123447418 108
1.2165099382400513 -1.366821050643921 0.3479137122631073 108
1.2203341722488403 -1.371599555015564 0.2843969464302063 108
1.2160429954528809 -1.3672571182250977 0.21997416019439697 108
1.2301089763641357 -1.3835582733154297 0.15862344205379486 108
1.2195430994033813 -1.3721566200256348 0.09420471638441086 108
1.210798740386963 -1.3627970218658447 0.031152544543147087 108
1.2207056283950806 -1.3763647079467773 -0.4826977550983429 119
1.227681040763855 -1.384716272354126 -0.41840922832489014 119
1.2266666889190674 -1.3840588331222534 -0.3517267107963562 108
1.220700740814209 -1.3778116703033447 -0.2854931354522705 108
1.2362091541290283 -1.395806908607483 -0.22423984110355377 108
1.2173031568527222 -1.3749433755874634 -0.15731635689735413 108
1.2100590467453003 -1.3672419786453247 -0.09336962550878525 108
1.2145707607269287 -1.3728224039077759 -0.031014081090688705 108
1.2124390602111816 -1.3708950281143188 0.47979655861854553 108
1.2161136865615845 -1.3755335807800293 0.41472092270851135 108
1.2149817943572998 -1.3747369050979614 0.34886690974235535 108
1.2188087701797485 -1.3795521259307861 0.2851782739162445 108
1.214548110961914 -1.3752131462097168 0.2205834984779358 108
1.228568434715271 -1.3915777206420898 0.15905922651290894 108
1.2180500030517578 -1.380149006843567 0.09446639567613602 108
1.2093416452407837 -1.3707640171051025 0.03123980574309826 108
1.2190858125686646 -1.3842418193817139 -0.4839918315410614 119
1.2260593175888062 -1.3926500082015991 -0.41953396797180176 119
1.2250707149505615 -1.392016887664795 -0.35267990827560425 108
1.219145655632019 -1.3857719898223877 -0.28627529740333557 108
1.2346067428588867 -1.403840184211731 -0.2248491793870926 108
1.215785026550293 -1.382925033569336 -0.1577521413564682 108
1.2085752487182617 -1.3752082586288452 -0.09363043308258057 108
1.2130707502365112 -1.3808093070983887 -0.031100470572710037 108
1.2108335494995117 -1.3787480592727661 0.48108983039855957 108
1.2145190238952637 -1.3834315538406372 0.4158448278903961 108
1.2134132385253906 -1.3826587200164795 0.3498201072216034 108
1.2172425985336304 -1.3875105381011963 0.2859595715999603 108
1.2162846326828003 -1.3869068622589111 0.22180218994617462 108
1.2269871234893799 -1.399603247642517 0.159495010972023 108
1.2165158987045288 -1.3881474733352661 0.09472807496786118 108
1.2078436613082886 -1.3787373304367065 0.03132706880569458 108
1.2174257040023804 -1.3921242952346802 -0.4852859377861023 119
1.22439706325531 -1.400589108467102 -0.42065873742103577 119
1.2234339714050293 -1.3999804258346558 -0.3536331057548523 108
1.2175500392913818 -1.3937383890151978 -0.28705745935440063 108
1.23296320438385 -1.4118791818618774 -0.2254585325717926 108
1.2142258882522583 -1.3909128904342651 -0.15818791091442108 108
1.2070505619049072 -1.3831806182861328 -0.09389124065637589 108
1.2115298509597778 -1.3888026475906372 -0.03118686005473137 108
1.2091877460479736 -1.3866063356399536 0.4823831021785736 108
1.2160855531692505 -1.3950077295303345 0.41809263825416565 108
1.2118041515350342 -1.3905863761901855 0.35077327489852905 108
1.2156357765197754 -1.3954747915267944 0.28674089908599854 108
1.2146950960159302 -1.3948864936828613 0.22241154313087463 108
1.2253644466400146 -1.4076346158981323 0.1599307805299759 108
1.2149407863616943 -1.3961522579193115 0.09498975425958633 108
1.2063047885894775 -1.3867170810699463 0.03141433000564575 108
1.2157255411148071 -1.4000120162963867 -0.4865800142288208 119
1.2258878946304321 -1.4122127294540405 -0.4229082465171814 119
1.2249735593795776 -1.4116569757461548 -0.3555395007133484 108
1.2159135341644287 -1.4017103910446167 -0.2878396511077881 108
1.231278657913208 -1.4199237823486328 -0.22606787085533142 108
1.2126259803771973 -1.3989067077636719 -0.15862369537353516 108
1.2054848670959473 -1.3911590576171875 -0.0941520482301712 108
1.2099478244781494 -1.3968019485473633 -0.0312732495367527 108
1.2075018882751465 -1.394469976425171 0.48367634415626526 108
1.2143973112106323 -1.4029277563095093 0.4192165434360504 108
1.210154414176941 -1.398519515991211 0.3517264723777771 108
1.213988184928894 -1.403444766998291 0.28752219676971436 108
1.2130647897720337 -1.402872085571289 0.22302088141441345 108
1.223700761795044 -1.4156715869903564 0.16036656498908997 108
1.2133243083953857 -1.4041627645492554 0.09525143355131149 108
1.2047247886657715 -1.3947025537490845 0.031501591205596924 108
1.2139850854873657 -1.407904863357544 -0.4878741204738617 119
1.22413170337677 -1.4201734066009521 -0.424032986164093 119
1.2232425212860107 -1.419642686843872 -0.35649266839027405 108
1.2142362594604492 -1.409687876701355 -0.28862181305885315 108
1.2295528650283813 -1.427973985671997 -0.22667723894119263 108
1.2109848260879517 -1.406906008720398 -0.15905946493148804 108
1.2071349620819092 -1.4029284715652466 -0.09467366337776184 108
1.2050646543502808 -1.4010169506072998 -0.0312732495367527 108
1.2057758569717407 -1.4023387432098389 0.4849695861339569 108
1.212668538093567 -1.4108530282974243 0.4203404486179352 108
1.2052654027938843 -1.4027351140975952 0.3517264723777771 108
1.2122997045516968 -1.411420226097107 0.2883034944534302 108
1.2113932371139526 -1.4108631610870361 0.22363023459911346 108
1.225239872932434 -1.4274938106536865 0.16123811900615692 108
1.2149182558059692 -1.4159682989120483 0.09577479213476181 108
1.2063584327697754 -1.4064886569976807 0.03167611360549927 108
1.2090632915496826 -1.4121339321136475 -0.4878741204738617 119
1.219166874885559 -1.4244377613067627 -0.424032986164093 119
1.2214703559875488 -1.4276334047317505 -0.3574458658695221 108
1.2157278060913086 -1.4214237928390503 -0.29018616676330566 108
1.2277858257293701 -1.4360291957855225 -0.22728659212589264 108
1.2093026638031006 -1.4149110317230225 -0.1594952493906021 108
1.2054740190505981 -1.4109299182891846 -0.09493447840213776 108
1.2034136056900024 -1.4090163707733154 -0.03135964274406433 108
1.2040095329284668 -1.4102122783660889 0.48626285791397095 108
1.2108992338180542 -1.4187833070755005 0.42146435379981995 108
1.2035472393035889 -1.4106676578521729 0.35267966985702515 108
1.2105700969696045 -1.419400930404663 0.2890848219394684 108
1.2064610719680786 -1.4150830507278442 0.22363023459911346 108
1.2202496528625488 -1.4317619800567627 0.16123811900615692 108
1.21320641040802 -1.4240013360977173 0.09603647142648697 108
1.2046829462051392 -1.4144970178604126 0.03176337853074074 108
1.2103831768035889 -1.4237048625946045 -0.4904623031616211 119
1.2173421382904053 -1.4323971271514893 -0.425157755613327 119
1.2228354215621948 -1.439369797706604 -0.3593522310256958 108
1.2139556407928467 -1.4294230937957764 -0.2909683585166931 108
1.2291892766952515 -1.4478727579116821 -0.22850528359413147 108
1.207579255104065 -1.4229212999343872 -0.1599310338497162 108
1.2037718296051025 -1.418936848640442 -0.09519528597593307 108
1.2017213106155396 -1.4170211553573608 -0.03144603222608566 108
1.2053260803222656 -1.4217747449874878 0.48884934186935425 108
1.212239146232605 -1.4304351806640625 0.4237121641635895 108
1.2017884254455566 -1.4186053276062012 0.3536328375339508 108
1.2087998390197754 -1.4273866415023804 0.2898661196231842 108
1.2047206163406372 -1.4230735301971436 0.22423957288265228 108
1.2216798067092896 -1.443617343902588 0.16210968792438507 108
1.2114530801773071 -1.4320396184921265 0.09629815071821213 108
1.202966332435608 -1.4225108623504639 0.03185063973069191 108
1.2272136211395264 -1.4537545442581177 -0.4995209574699402 119
1.2154768705368042 -1.4403610229492188 -0.42628249526023865 119
1.22096848487854 -1.4473811388015747 -0.36030542850494385 108
1.2121422290802002 -1.4374271631240845 -0.2917505204677582 108
1.2273263931274414 -1.4559489488601685 -0.2291146218776703 108
1.2058147192001343 -1.4309368133544922 -0.16036680340766907 108
1.2020282745361328 -1.42694890499115 -0.0954560935497284 108
1.1999878883361816 -1.425031304359436 -0.031532421708106995 108
1.2034662961959839 -1.4296684265136719 0.4901426136493683 108
1.210375428199768 -1.4383858442306519 0.42483606934547424 108
1.203148603439331 -1.4303040504455566 0.3555392324924469 108
1.2069884538650513 -1.4353773593902588 0.2906474471092224 108
1.2029391527175903 -1.431069016456604 0.2248489260673523 108
1.2198375463485718 -1.4516862630844116 0.16254545748233795 108
1.2096586227416992 -1.4400830268859863 0.09655983000993729 108
1.2012081146240234 -1.4305297136306763 0.03193790093064308 108
1.2469515800476074 -1.487640142440796 -0.5098737478256226 119
1.2135705947875977 -1.448329210281372 -0.42740726470947266 119
1.2190604209899902 -1.455397129058838 -0.3612586259841919 108
1.2102876901626587 -1.445435881614685 -0.29253268241882324 108
1.2254220247268677 -1.4640299081802368 -0.2297239750623703 108
1.2040088176727295 -1.4389573335647583 -0.16080258786678314 108
1.2034471035003662 -1.4387961626052856 -0.09597770869731903 108
1.2014198303222656 -1.4368818998336792 -0.03170520067214966 108
1.2015659809112549 -1.4375663995742798 0.49143585562705994 108
1.2084710597991943 -1.446340799331665 0.425959974527359 108
1.201295018196106 -1.4382622241973877 0.35649242997169495 108
1.2051358222961426 -1.4433727264404297 0.2914287745952606 108
1.2011164426803589 -1.4390692710876465 0.2254582643508911 108
1.2179538011550903 -1.459760069847107 0.16298124194145203 108
1.2078224420547485 -1.4481310844421387 0.09682150930166245 108
1.2026102542877197 -1.44239342212677 0.032112423330545425 108
1.2417510747909546 -1.4919837713241577 -0.5098737478256226 119
1.2147393226623535 -1.4600468873977661 -0.4296567738056183 119
1.217111349105835 -1.4634171724319458 -0.36221182346343994 108
1.2083920240402222 -1.4534492492675781 -0.2933148741722107 108
1.2234761714935303 -1.4721150398254395 -0.23033331334590912 108
1.2021615505218506 -1.4469826221466064 -0.16123837232589722 108
1.201607584953308 -1.4468294382095337 -0.09623851627111435 108
1.1995902061462402 -1.4449132680892944 -0.03179159015417099 108
1.2027095556259155 -1.4491851329803467 0.4940223693847656 108
1.2065258026123047 -1.4542999267578125 0.4270838797092438 108
1.1994004249572754 -1.4462248086929321 0.357445627450943 108
1.2032421827316284 -1.451372504234314 0.29221007227897644 108
1.1992524862289429 -1.447074294090271 0.22606761753559113 108
1.2160284519195557 -1.4678382873535156 0.1634170264005661 108
1.2059450149536133 -1.4561840295791626 0.0970831885933876 108
1.2007559537887573 -1.450433373451233 0.032199688255786896 108
1.242688775062561 -1.5037550926208496 -0.5124619007110596 119
1.212738275527954 -1.4680341482162476 -0.4307815134525299 119
1.2151209115982056 -1.471441388130188 -0.3631649911403656 108
1.2064549922943115 -1.461466908454895 -0.29409703612327576 108
1.2214888334274292 -1.4802045822143555 -0.23094266653060913 108
1.2034426927566528 -1.4588547945022583 -0.16210994124412537 108
1.1997265815734863 -1.4548672437667847 -0.09649933129549026 108
1.2008990049362183 -1.456807017326355 -0.03196437284350395 108
1.2007150650024414 -1.4571019411087036 0.4953156113624573 108
1.2045396566390991 -1.4622631072998047 0.42820778489112854 108
1.197464942932129 -1.4541916847229004 0.35839879512786865 108
1.2013071775436401 -1.4593766927719116 0.29299136996269226 108
1.1973475217819214 -1.4550838470458984 0.22667697072029114 108
1.2140617370605469 -1.4759209156036377 0.16385279595851898 108
1.2040261030197144 -1.4642415046691895 0.09734487533569336 108
1.1988602876663208 -1.4584779739379883 0.03228694945573807 108
1.2343685626983643 -1.5043500661849976 -0.5111678242683411 119
1.2106961011886597 -1.4760252237319946 -0.4319062829017639 119
1.2130894660949707 -1.4794695377349854 -0.36411818861961365 108
1.2044767141342163 -1.4694886207580566 -0.2948791980743408 108
1.2194597721099854 -1.4882980585098267 -0.23155201971530914 108
1.2014992237091064 -1.466900110244751 -0.16254571080207825 108
1.1978042125701904 -1.4629095792770386 -0.09676013886928558 108
1.1989729404449463 -1.4648586511611938 -0.032050762325525284 108
1.19868004322052 -1.465022325515747 0.4966088533401489 108
1.2025126218795776 -1.4702301025390625 0.4293316900730133 108
1.1985952854156494 -1.465962529182434 0.36030519008636475 108
1.2024564743041992 -1.471208930015564 0.2945539951324463 108
1.1954008340835571 -1.4630975723266602 0.22728632390499115 108
1.2120531797409058 -1.484007477760315 0.16428858041763306 108
1.2052232027053833 -1.4761708974838257 0.09786823391914368 108
1.1969228982925415 -1.466526985168457 0.03237421065568924 108
1.2260593175888062 -1.5049052238464355 -0.5098737478256226 119
1.2086129188537598 -1.4840198755264282 -0.43303102254867554 119
1.2110165357589722 -1.4875013828277588 -0.3650713860988617 108
1.202457308769226 -1.4775145053863525 -0.29566138982772827 108
1.2173891067504883 -1.4963953495025635 -0.23216135799884796 108
1.1995142698287964 -1.474949598312378 -0.16298149526119232 108
1.1958402395248413 -1.4709563255310059 -0.0970209538936615 108
1.2001582384109497 -1.4767942428588867 -0.032223545014858246 108
1.1966042518615723 -1.4729464054107666 0.4979020953178406 108
1.2004445791244507 -1.4782007932662964 0.43045559525489807 108
1.1965643167495728 -1.4739481210708618 0.3612583577632904 108
1.2004255056381226 -1.4792319536209106 0.2953353226184845 108
1.1934130191802979 -1.4711155891418457 0.22789566218852997 108
1.2100028991699219 -1.4920979738235474 0.16472434997558594 108
1.2032074928283691 -1.4842476844787598 0.09812991321086884 108
1.1980915069580078 -1.478464126586914 0.03254873678088188 108
1.2177612781524658 -1.5054209232330322 -0.5085796117782593 119
1.2064886093139648 -1.4920179843902588 -0.43415579199790955 119
1.208902359008789 -1.4955366849899292 -0.36602455377578735 108
1.200396180152893 -1.485543966293335 -0.29644355177879333 108
1.2183951139450073 -1.5083569288253784 -0.2333800494670868 108
1.2006168365478516 -1.4868783950805664 -0.16385304927825928 108
1.1938345432281494 -1.4790070056915283 -0.09728176146745682 108
1.198135256767273 -1.4848653078079224 -0.03230993449687958 108
1.1944876909255981 -1.480873703956604 0.4991953670978546 108
1.1983356475830078 -1.4861748218536377 0.43157950043678284 108
1.194492220878601 -1.4819374084472656 0.36221155524253845 108
1.2014517784118652 -1.4911043643951416 0.29689791798591614 108
1.1913836002349854 -1.4791371822357178 0.22850501537322998 108
1.2079110145568848 -1.500192403793335 0.1651601344347 108
1.2042806148529053 -1.4962180852890015 0.09865327179431915 108
1.1960572004318237 -1.4865323305130005 0.032635997980833054 108
1.212762475013733 -1.509450912475586 -0.5085796117782593 119
1.2048468589782715 -1.4995988607406616 -0.43528053164482117 119
1.2072715759277344 -1.5031540393829346 -0.3669777512550354 108
1.198815107345581 -1.4931585788726807 -0.2972257137298584 108
1.216756820678711 -1.516047477722168 -0.2339894026517868 108
1.1990567445755005 -1.4945279359817505 -0.16428883373737335 108
1.1923062801361084 -1.4866454601287842 -0.09754256904125214 108
1.1965916156768799 -1.4925224781036377 -0.03239632397890091 108
1.1958703994750977 -1.4921565055847168 0.5017818808555603 108
1.1967068910598755 -1.493734359741211 0.4327034056186676 108
