# .PCD v0.7 - Point Cloud Data file format
VERSION 0.7
FIELDS x y z intensity
SIZE 4 4 4 4
TYPE F F F F
COUNT 1 1 1 1
WIDTH 798
HEIGHT 1
VIEWPOINT 0 0 0 1 0 0 0
POINTS 798
DATA ascii
0.8295962810516357 2.1038994789123535 -0.27298763394355774 44
0.8256509304046631 2.0928235054016113 -0.1934860497713089 44
0.8225083351135254 2.0837924480438232 -0.11501676589250565 44
0.8220176100730896 2.0814852714538574 -0.038011688739061356 44
nan nan nan 0
0.829034149646759 2.097109317779541 0.5113767385482788 44
0.82644122838974 2.0894837379455566 0.4289347529411316 44
0.8300017714500427 2.0974152088165283 0.350808322429657 44
0.8233985900878906 2.0796680450439453 0.269940584897995 44
0.8285723328590393 2.0916688442230225 0.19348575174808502 44
0.8272494077682495 2.0872652530670166 0.11566246300935745 44
0.8230777382850647 2.0756819248199463 0.038308028131723404 44
0.7423986196517944 1.8665142059326172 -0.5279910564422607 119
0.828353226184845 2.0815603733062744 -0.5083897113800049 119
0.8384424448013306 2.1058435440063477 -0.4327477812767029 0
0.8347357511520386 2.0954694747924805 -0.35119566321372986 44
0.8373018503189087 2.1008448600769043 -0.27298763394355774 44
0.8351607918739319 2.094409942626953 -0.19392181932926178 44
0.8301403522491455 2.080763816833496 -0.11501676589250565 44
0.8296411037445068 2.078458547592163 -0.038011688739061356 44
nan nan nan 0
nan nan nan 0
0.8340940475463867 2.0864405632019043 0.4289347529411316 44
0.8431857228279114 2.1081154346466064 0.3531522750854492 44
0.831015408039093 2.0766360759735107 0.269940584897995 44
0.8362331390380859 2.088618040084839 0.19348575174808502 44
0.834894061088562 2.084219217300415 0.11566246300935745 44
0.8325398564338684 2.07729172706604 0.038395293056964874 44
0.7435075640678406 1.8504669666290283 -0.5241087675094604 119
0.8374312520027161 2.0831761360168457 -0.5095144510269165 119
0.8457880616188049 2.1029040813446045 -0.4327477812767029 0
0.8438888192176819 2.0971245765686035 -0.3519778251647949 44
0.8446300625801086 2.0979092121124268 -0.27298763394355774 44
0.8424665927886963 2.0914816856384277 -0.19392181932926178 44
0.8392650485038757 2.0824849605560303 -0.11527758091688156 44
0.8368911743164062 2.075549602508545 -0.038011688739061356 44
0.8455070853233337 2.095863103866577 0.5948960185050964 44
0.8695487380027771 2.154374122619629 0.5271114110946655 44
nan nan nan 0
0.8560892939567566 2.118896007537842 0.35549619793891907 44
0.8382591605186462 2.0737226009368896 0.269940584897995 44
0.8435186743736267 2.085686206817627 0.19348575174808502 44
0.8421642780303955 2.0812923908233643 0.11566246300935745 44
0.8397859334945679 2.0743730068206787 0.038395293056964874 44
0.7463299632072449 1.8389102220535278 -0.5215205550193787 119
0.8428649306297302 2.0757267475128174 -0.5083897113800049 119
0.8531234264373779 2.0999388694763184 -0.4327477812767029 0
0.8512040376663208 2.0941660404205322 -0.3519778251647949 44
0.8538174629211426 2.0995452404022217 -0.27359697222709656 44
0.8497620820999146 2.0885281562805176 -0.19392181932926178 44
0.8465291261672974 2.079542636871338 -0.11527758091688156 44
0.8460167646408081 2.0772457122802734 -0.03809807822108269 44
0.8528178930282593 2.0928990840911865 0.5948960185050964 44
nan nan nan 0
nan nan nan 0
0.872810423374176 2.1387574672698975 0.35940274596214294 44
0.8454926609992981 2.070784091949463 0.269940584897995 44
0.8526774644851685 2.0873401165008545 0.1939215213060379 44
0.8513132333755493 2.0829617977142334 0.11592413485050201 44
0.8470216989517212 2.0714290142059326 0.038395293056964874 44
0.7454169988632202 1.8184189796447754 -0.5163442492485046 119
0.8501054048538208 2.0727717876434326 -0.5083897113800049 119
0.86044842004776 2.0969481468200684 -0.4327477812767029 0
0.858508825302124 2.091182231903076 -0.3519778251647949 44
0.8611410856246948 2.0965521335601807 -0.27359697222709656 44
0.8570472598075867 2.0855493545532227 -0.19392181932926178 44
0.8537828922271729 2.0765750408172607 -0.11527758091688156 44
0.8532626032829285 2.074280023574829 -0.03809807822108269 44
0.8490891456604004 2.063110828399658 0.5871365070343018 44
nan nan nan 0
0.8615058064460754 2.0912063121795654 0.43179428577423096 44
0.8708609938621521 2.112867832183838 0.35549619793891907 44
0.854607880115509 2.0724079608917236 0.2705499529838562 44
0.8618582487106323 2.0889554023742676 0.19435730576515198 44
0.8585789799690247 2.0799777507781982 0.11592413485050201 44
0.8561553955078125 2.07308030128479 0.038482554256916046 44
0.7591496706008911 1.8336551189422607 -0.5215205550193787 119
0.8573355674743652 2.069791793823242 -0.5083897113800049 119
0.8677628636360168 2.0939316749572754 -0.4327477812767029 0
0.8658032417297363 2.088172674179077 -0.3519778251647949 44
0.8703558444976807 2.0981175899505615 -0.27420634031295776 44
0.8643219470977783 2.082545042037964 -0.19392181932926178 44
0.8610263466835022 2.0735819339752197 -0.11527758091688156 44
0.8604979515075684 2.071288824081421 -0.03809807822108269 44
0.8562856316566467 2.0601344108581543 0.5871365070343018 44
nan nan nan 0
nan nan nan 0
0.8744352459907532 2.100696325302124 0.35393357276916504 44
0.8618366718292236 2.0694122314453125 0.2705499529838562 44
0.8691447377204895 2.0859341621398926 0.19435730576515198 44
0.8677555322647095 2.0815765857696533 0.11618582159280777 44
0.8633865714073181 2.0700790882110596 0.038482554256916046 44
0.7711347341537476 1.8443615436553955 -0.5254029035568237 119
0.864555299282074 2.066786527633667 -0.5083897113800049 119
0.8769615888595581 2.0954174995422363 -0.43370094895362854 0
0.8749943375587463 2.0896928310394287 -0.35275998711586 44
0.8795917630195618 2.0996437072753906 -0.2748156785964966 44
0.8735116124153137 2.084109306335449 -0.19435760378837585 44
0.8682592511177063 2.070564031600952 -0.11527758091688156 44
0.8696569800376892 2.072882652282715 -0.03818446770310402 44
0.8784261345863342 2.0927605628967285 0.5974825024604797 44
nan nan nan 0
0.8741828203201294 2.080615758895874 0.4308411180973053 44
0.8760214447975159 2.0839731693267822 0.3515896499156952 44
0.8690549731254578 2.0663912296295166 0.2705499529838562 44
0.876420795917511 2.082887649536133 0.19435730576515198 44
0.8750162720680237 2.0785350799560547 0.11618582159280777 44
0.870607316493988 2.0670528411865234 0.038482554256916046 44
0.7813251614570618 1.8505572080612183 -0.5279910564422607 119
0.8717644810676575 2.063755989074707 -0.5083897113800049 119
0.8842706084251404 2.09234356880188 -0.43370094895362854 0
0.8822833895683289 2.086625814437866 -0.35275998711586 44
0.8888490796089172 2.1011314392089844 -0.2754250168800354 44
0.8807812333106995 2.081047534942627 -0.19435760378837585 44
0.8754816055297852 2.0675203800201416 -0.11527758091688156 44
0.8768873810768127 2.0698342323303223 -0.03818446770310402 44
0.8913803696632385 2.1030220985412598 0.6013622879981995 44
0.8803859949111938 2.0760746002197266 0.5113767385482788 44
0.8833572864532471 2.0820701122283936 0.43179428577423096 44
0.8832905292510986 2.0809028148651123 0.3515896499156952 44
0.8762627840042114 2.063344955444336 0.2705499529838562 44
0.8856337666511536 2.084399938583374 0.19479307532310486 44
0.8842197060585022 2.0800628662109375 0.11644749343395233 44
0.8797739148139954 2.068601608276367 0.038569819182157516 44
0.7896740436553955 1.8522610664367676 -0.5292851328849792 119
0.8808743357658386 2.0651814937591553 -0.5095144510269165 119
0.8915688991546631 2.0892441272735596 -0.43370094895362854 119
0.8895617127418518 2.08353328704834 -0.35275998711586 44
0.8961779475212097 2.098015785217285 -0.2754250168800354 44
0.8899974226951599 2.082540512084961 -0.19479337334632874 44
0.8826932311058044 2.0644519329071045 -0.11527758091688156 44
0.8841071128845215 2.066760778427124 -0.03818446770310402 44
0.8930147886276245 2.0865769386291504 0.5974825024604797 44
0.8876274824142456 2.072988986968994 0.5113767385482788 44
0.8944852948188782 2.0879974365234375 0.43370065093040466 44
0.890548825263977 2.0778067111968994 0.3515896499156952 44
0.8834598660469055 2.0602738857269287 0.2705499529838562 44
0.8929042816162109 2.0812957286834717 0.19479307532310486 44
0.8914750814437866 2.0769636631011963 0.11644749343395233 44
0.8869892358779907 2.0655179023742676 0.038569819182157516 44
0.7980443835258484 1.8539296388626099 -0.5305792689323425 119
0.8900048732757568 2.0665688514709473 -0.5106391906738281 119
0.9007985591888428 2.0906269550323486 -0.434654176235199 0
0.8968292474746704 2.0804154872894287 -0.35275998711586 44
0.9054613709449768 2.0994317531585693 -0.2760343551635742 44
0.897261381149292 2.079421043395996 -0.19479337334632874 44
0.8918730616569519 2.0659422874450684 -0.11553838849067688 44
0.8913160562515259 2.063662052154541 -0.03818446770310402 44
0.8983770608901978 2.0790135860443115 0.5961893200874329 44
0.8967915177345276 2.074349880218506 0.5125006437301636 44
0.8959226012229919 2.07134747505188 0.4308411180973053 44
0.8977962732315063 2.074685573577881 0.3515896499156952 44
0.8926178812980652 2.0617315769195557 0.27115926146507263 44
0.9001639485359192 2.0781662464141846 0.19479307532310486 44
0.8987196683883667 2.0738391876220703 0.11644749343395233 44
0.8961824774742126 2.066995859146118 0.03865707665681839 44
0.8045109510421753 1.8511326313018799 -0.5305792689323425 119
0.8972131609916687 2.0634496212005615 -0.5106391906738281 119
0.9080906510353088 2.0874698162078857 -0.434654176235199 119
0.9060565829277039 2.081800699234009 -0.35354217886924744 44
0.9127841591835022 2.0962584018707275 -0.2760343551635742 44
0.9045144319534302 2.0762765407562256 -0.19479337334632874 44
0.8990791440010071 2.0628163814544678 -0.11553838849067688 44
0.9005122780799866 2.0651204586029053 -0.03827085718512535 44
0.9056287407875061 2.0758650302886963 0.5961893200874329 44
0.9079248309135437 2.0801374912261963 0.5147484540939331 44
0.9051117897033691 2.0727057456970215 0.43179428577423096 44
0.9070098996162415 2.076064348220825 0.352370947599411 44
0.8998092412948608 2.058603286743164 0.27115926146507263 44
0.907412588596344 2.0750114917755127 0.19479307532310486 44
0.9079546332359314 2.0752639770507812 0.11670918017625809 44
0.9033921957015991 2.063854932785034 0.03865707665681839 44
0.810967743396759 1.8483130931854248 -0.5305792689323425 119
0.906368613243103 2.0647659301757812 -0.5117639303207397 119
0.9153717756271362 2.084287405014038 -0.434654176235199 119
0.9133179187774658 2.078625202178955 -0.35354217886924744 44
0.9200959205627441 2.0930593013763428 -0.2760343551635742 44
0.9137617945671082 2.0776658058166504 -0.195229172706604 44
0.9082853198051453 2.0642359256744385 -0.1157992035150528 44
0.9077154397964478 2.061964511871338 -0.03827085718512535 44
0.9128693342208862 2.0726912021636963 0.5961893200874329 44
0.9151803255081177 2.076955556869507 0.5147484540939331 44
0.9123413562774658 2.069533586502075 0.43179428577423096 44
0.9142512083053589 2.072885751724243 0.352370947599411 44
0.9089931845664978 2.059990167617798 0.27176862955093384 44
0.9166619181632996 2.076388120651245 0.19522887468338013 44
0.9151931405067444 2.072082042694092 0.11670918017625809 44
0.9126116037368774 2.0652618408203125 0.03874434158205986 44
0.8174146413803101 1.8454710245132446 -0.5305792689323425 119
0.9155442714691162 2.0660438537597656 -0.5128887295722961 119
0.9226416945457458 2.0810792446136475 -0.434654176235199 119
0.9225704073905945 2.0799386501312256 -0.3543243408203125 44
0.9294094443321228 2.0943710803985596 -0.2766437232494354 44
0.9210086464881897 2.0744636058807373 -0.195229172706604 44
0.9175121188163757 2.0656158924102783 -0.11606000363826752 44
0.9169377088546753 2.063352108001709 -0.03835725039243698 44
0.9200988411903381 2.0694918632507324 0.5961893200874329 44
0.9244047403335571 2.078199625015259 0.5158723592758179 44
0.9215554594993591 2.0708205699920654 0.432747483253479 44
0.9214813709259033 2.0696816444396973 0.352370947599411 44
0.9161783456802368 2.056804656982422 0.27176862955093384 44
0.9259318113327026 2.077725410461426 0.19566462934017181 44
0.9244537353515625 2.0734353065490723 0.11697085201740265 44
0.9198150634765625 2.062063694000244 0.03874434158205986 44
0.8222009539604187 1.838053822517395 -0.5292851328849792 119
0.9231106042861938 2.0626742839813232 -0.5128887295722961 119
0.930263102054596 2.077683925628662 -0.434654176235199 119
0.9301875829696655 2.0765433311462402 -0.3543243408203125 44
0.9370794296264648 2.0909504890441895 -0.2766437232494354 44
0.9306434988975525 2.0756189823150635 -0.19566494226455688 44
0.9250768423080444 2.062239408493042 -0.11606000363826752 44
0.9265410304069519 2.0645384788513184 -0.038443636149168015 44
0.9296559691429138 2.07051157951355 0.5974825024604797 44
0.9320154786109924 2.0747976303100586 0.5158723592758179 44
0.9291391968727112 2.0674290657043457 0.432747483253479 44
0.9310863018035889 2.0707948207855225 0.3531522750854492 44
0.9257466793060303 2.0579588413238525 0.27237796783447266 44
0.9335408210754395 2.074317693710327 0.19566462934017181 44
0.9340970516204834 2.0745861530303955 0.1172325387597084 44
0.929419994354248 2.063236713409424 0.03883160278201103 44
0.8286119699478149 1.8351725339889526 -0.5292851328849792 119
0.9323105216026306 2.0638790130615234 -0.5140134692192078 119
0.9395312666893005 2.0788967609405518 -0.43560734391212463 0
0.9394649863243103 2.0777833461761475 -0.35510653257369995 44
0.9464179277420044 2.0921883583068848 -0.27725306153297424 44
0.9378831386566162 2.0723578929901123 -0.19566494226455688 44
0.9343293905258179 2.0635464191436768 -0.11632081866264343 44
0.9337419271469116 2.061291456222534 -0.038443636149168015 44
0.9368777871131897 2.067254066467285 0.5974825024604797 44
0.9392521381378174 2.0715315341949463 0.5158723592758179 44
0.938377857208252 2.068643093109131 0.43370065093040466 44
0.9383090138435364 2.0675320625305176 0.3531522750854492 44
0.9329246878623962 2.0547146797180176 0.27237796783447266 44
0.9428359270095825 2.0755815505981445 0.19610042870044708 44
0.9433988332748413 2.0758583545684814 0.11749421060085297 44
0.9366224408149719 2.059976816177368 0.03883160278201103 44
0.8330101370811462 1.8278745412826538 -0.5279910564422607 119
0.9415304064750671 2.065045118331909 -0.5151382088661194 119
0.9467822909355164 2.0756044387817383 -0.43560734391212463 119
0.9487622976303101 2.078984260559082 -0.355888694524765 44
0.9537152647972107 2.088871955871582 -0.27725306153297424 44
0.9471808671951294 2.0736019611358643 -0.19610072672367096 44
0.9415267705917358 2.060272455215454 -0.11632081866264343 44
0.9430103302001953 2.0625662803649902 -0.038530029356479645 44
0.9460972547531128 2.0683634281158447 0.5987758040428162 44
0.9485049247741699 2.0726706981658936 0.5169962644577026 44
0.9455930590629578 2.065354824066162 0.43370065093040466 44
0.9475768804550171 2.0687339305877686 0.35393357276916504 44
0.9421586990356445 2.055957317352295 0.27298733592033386 44
0.9500753283500671 2.072277545928955 0.19610042870044708 44
0.9506391882896423 2.0725526809692383 0.11749421060085297 44
0.945886492729187 2.061241626739502 0.038918863981962204 44
0.8434218168258667 1.8337310552597046 -0.5305792689323425 119
0.9507694244384766 2.066171646118164 -0.516262948513031 119
0.9560742974281311 2.0767455101013184 -0.4365605413913727 0
0.956013560295105 2.07565975189209 -0.355888694524765 44
0.963077962398529 2.0900375843048096 -0.27786242961883545 44
0.9544132947921753 2.0702831745147705 -0.19610072672367096 44
0.9508038759231567 2.0615074634552 -0.11658161878585815 44
0.9502042531967163 2.0592620372772217 -0.038530029356479645 44
0.9533113837242126 2.0650482177734375 0.5987758040428162 44
0.955734133720398 2.069347381591797 0.5169962644577026 44
0.9548555612564087 2.066497325897217 0.4346538782119751 44
0.954792320728302 2.0654137134552 0.35393357276916504 44
0.9493296146392822 2.0526559352874756 0.27298733592033386 44
0.9573031663894653 2.068948745727539 0.19610042870044708 44
0.9599655270576477 2.0737528800964355 0.11775589734315872 44
0.9530758261680603 2.057927370071411 0.038918863981962204 44
0.8559179902076721 1.843917965888977 -0.5344615578651428 119
0.9579759240150452 2.062840223312378 -0.516262948513031 119
0.9653857946395874 2.0778467655181885 -0.43751370906829834 0
0.9653347730636597 2.0767881870269775 -0.35667088627815247 44
0.9724602103233337 2.09116268157959 -0.2784717381000519 44
0.9616341590881348 2.066938877105713 -0.19610072672367096 44
0.9579941034317017 2.058176040649414 -0.11658161878585815 44
0.9573866128921509 2.0559327602386475 -0.038530029356479645 44
0.9605139493942261 2.0617079734802246 0.5987758040428162 44
0.96295166015625 2.0659985542297363 0.5169962644577026 44
0.9620631337165833 2.0631515979766846 0.4346538782119751 44
0.9640840888023376 2.0665438175201416 0.35471490025520325 44
0.9585878252983093 2.0538265705108643 0.2735966444015503 44
0.9666265845298767 2.0701074600219727 0.19653619825839996 44
0.967198371887207 2.07038950920105 0.11775589734315872 44
0.9602534770965576 2.0545878410339355 0.038918863981962204 44
0.8664466142654419 1.8496661186218262 -0.5370497703552246 119
0.9672382473945618 2.0638954639434814 -0.5173877477645874 119
0.9726329445838928 2.0744643211364746 -0.43751370906829834 119
0.972578227519989 2.073406219482422 -0.35667088627815247 44
0.9797537326812744 2.0877554416656494 -0.2784717381000519 44
0.9709600806236267 2.0680785179138184 -0.19653649628162384 44
0.9651726484298706 2.054819345474243 -0.11658161878585815 44
0.9645573496818542 2.0525782108306885 -0.038530029356479645 44
0.9697596430778503 2.062713384628296 0.6000690460205078 44
0.9722312092781067 2.067033290863037 0.5181202292442322 44
0.9713488221168518 2.0642218589782715 0.43560701608657837 44
0.9712917804718018 2.0631659030914307 0.35471490025520325 44
0.9657511711120605 2.0504679679870605 0.2735966444015503 44
0.9738467931747437 2.066720724105835 0.19653619825839996 44
0.9744195342063904 2.0670006275177 0.11775589734315872 44
0.967419445514679 2.0512235164642334 0.038918863981962204 44
0.8832177519798279 1.868462085723877 -0.5435202121734619 119
0.9744367003440857 2.0605063438415527 -0.5173877477645874 119
0.9819673895835876 2.075493335723877 -0.4384669363498688 0
0.9798098802566528 2.0699985027313232 -0.35667088627815247 44
0.9891594648361206 2.088808059692383 -0.2790811061859131 44
0.9781731963157654 2.064676523208618 -0.19653649628162384 44
0.9744781851768494 2.0559499263763428 -0.11684243381023407 44
0.9717163443565369 2.049198865890503 -0.038530029356479645 44
0.9769539833068848 2.0593156814575195 0.6000690460205078 44
0.9794405698776245 2.063627004623413 0.5181202292442322 44
0.9785483479499817 2.060818672180176 0.43560701608657837 44
0.980606734752655 2.0642237663269043 0.35549619793891907 44
0.9750331044197083 2.0515668392181396 0.2742060124874115 44
0.9810550212860107 2.0633087158203125 0.19653619825839996 44
0.9816287755966187 2.063586711883545 0.11775589734315872 44
0.9745736718177795 2.0478339195251465 0.038918863981962204 44
0.8876553773880005 1.8610087633132935 -0.5422261357307434 119
0.9795249700546265 2.0526955127716064 -0.516262948513031 119
0.9892062544822693 2.0720529556274414 -0.4384669363498688 119
0.9891578555107117 2.071021795272827 -0.35745301842689514 44
0.9964447617530823 2.0853426456451416 -0.2790811061859131 44
0.9853742718696594 2.0612494945526123 -0.19653649628162384 44
0.9816488027572632 2.0525357723236084 -0.11684243381023407 44
0.9788634181022644 2.0457944869995117 -0.038530029356479645 44
0.9841364026069641 2.0558929443359375 0.6000690460205078 44
0.9866380095481873 2.0601956844329834 0.5181202292442322 44
0.9857359528541565 2.0573902130126953 0.43560701608657837 44
0.9878063201904297 2.060788154602051 0.35549619793891907 44
0.9821884036064148 2.0481510162353516 0.2742060124874115 44
0.9882513284683228 2.0598716735839844 0.19653619825839996 44
0.9888260960578918 2.060147523880005 0.11775589734315872 44
0.9817160367965698 2.044419527053833 0.038918863981962204 44
0.892051637172699 1.8535468578338623 -0.5409319996833801 119
0.9866843223571777 2.0492637157440186 -0.516262948513031 119
0.9985631108283997 2.073009490966797 -0.4394201338291168 119
0.9963811039924622 2.067556381225586 -0.35745301842689514 44
1.0058730840682983 2.086322069168091 -0.2796904444694519 44
0.9925633072853088 2.057797431945801 -0.19653649628162384 44
0.9888075590133667 2.0490968227386475 -0.11684243381023407 44
0.9859986305236816 2.042365074157715 -0.038530029356479645 44
0.9934073686599731 2.0567944049835205 0.6013622879981995 44
0.995943009853363 2.0611257553100586 0.5192440748214722 44
0.9950479865074158 2.0583560466766357 0.4365602433681488 44
0.9949937462806702 2.0573277473449707 0.35549619793891907 44
0.9914931654930115 2.0491771697998047 0.2748153507709503 44
0.9976059198379517 2.0608928203582764 0.19697198271751404 44
0.9960113167762756 2.056683301925659 0.11775589734315872 44
0.9888464212417603 2.040980339050293 0.038918863981962204 44
0.8964067101478577 1.8460774421691895 -0.5396379828453064 119
0.9938315153121948 2.045807123184204 -0.516262948513031 119
1.0057932138442993 2.0695111751556396 -0.4394201338291168 119
1.005751609802246 2.068507194519043 -0.3582352101802826 44
1.013149619102478 2.0827980041503906 -0.2796904444694519 44
0.9997403025627136 2.0543200969696045 -0.19653649628162384 44
0.9959542155265808 2.045632839202881 -0.11684243381023407 44
0.99531090259552 2.043405294418335 -0.03861641883850098 44
1.000580906867981 2.053314208984375 0.6013622879981995 44
1.0031315088272095 2.0576364994049072 0.5192440748214722 44
1.0022268295288086 2.054870367050171 0.4365602433681488 44
1.002169132232666 2.0538418292999268 0.35549619793891907 44
0.9986401200294495 2.045703649520874 0.2748153507709503 44
1.004793643951416 2.0573980808258057 0.19697198271751404 44
1.0053763389587402 2.057680606842041 0.11801756918430328 44
0.9981600642204285 2.0420072078704834 0.039006125181913376 44
0.9007205367088318 1.8385999202728271 -0.5383438467979431 119
1.0031108856201172 2.0467004776000977 -0.5173877477645874 119
1.0130109786987305 2.0659875869750977 -0.4394201338291168 119
1.0129659175872803 2.064984083175659 -0.3582352101802826 44
1.0204137563705444 2.0792489051818848 -0.2796904444694519 44
1.0091004371643066 2.0552892684936523 -0.19697228074073792 44
1.0052900314331055 2.0466251373291016 -0.11710324138402939 44
1.002437710762024 2.0399184226989746 -0.03861641883850098 44
1.0098730325698853 2.0541434288024902 0.6026555299758911 44
1.012458324432373 2.0584943294525146 0.5203679800033569 44
1.0093936920166016 2.051359176635742 0.4365602433681488 44
1.0115134716033936 2.0547618865966797 0.3562775254249573 44
1.0079675912857056 2.0466575622558594 0.2754247188568115 44
1.0141706466674805 2.0583460330963135 0.19740775227546692 44
1.0125529766082764 2.0541584491729736 0.11801756918430328 44
1.005281925201416 2.038510799407959 0.039006125181913376 44
0.9049931168556213 1.8311148881912231 -0.5370497703552246 119
1.010249137878418 2.0431864261627197 -0.5173877477645874 119
1.022392749786377 2.066838502883911 -0.4403733015060425 119
1.0223582983016968 2.065861463546753 -0.35901737213134766 44
1.0276654958724976 2.075674295425415 -0.2796904444694519 44
1.0162686109542847 2.0517542362213135 -0.19697228074073792 44
1.0124279260635376 2.0431036949157715 -0.11710324138402939 44
1.0117727518081665 2.0408859252929688 -0.03870280832052231 44
1.017037272453308 2.0506057739257812 0.6026555299758911 44
1.0196375846862793 2.0549476146698 0.5203679800033569 44
1.0187304019927979 2.0522196292877197 0.43751341104507446 44
1.0186797380447388 2.0512185096740723 0.3562775254249573 44
1.0151056051254272 2.0431265830993652 0.2754247188568115 44
1.021349310874939 2.054793357849121 0.19740775227546692 44
1.0197170972824097 2.0506114959716797 0.11801756918430328 44
1.0146183967590332 2.0394651889801025 0.039093390107154846 44
0.9092243909835815 1.8236225843429565 -0.5357556343078613 119
1.0195496082305908 2.0440070629119873 -0.518512487411499 119
1.0296010971069336 2.0632569789886475 -0.4403733015060425 119
1.029563307762146 2.0622801780700684 -0.35901737213134766 44
1.037122130393982 2.0765140056610107 -0.2802998125553131 44
1.0256506204605103 2.052649974822998 -0.1974080502986908 44
1.0217862129211426 2.044023275375366 -0.1173640564084053 44
1.0211267471313477 2.0418131351470947 -0.03878919780254364 44
1.0263501405715942 2.0513625144958496 0.6039488315582275 44
1.0289852619171143 2.0557327270507812 0.5214918851852417 44
1.0258877277374268 2.0486512184143066 0.43751341104507446 44
1.028045654296875 2.05206561088562 0.3570587933063507 44
1.0244548320770264 2.0440073013305664 0.27603402733802795 44
1.0307484865188599 2.055668592453003 0.197843536734581 44
1.029107689857483 2.0515027046203613 0.11827925592660904 44
1.0217311382293701 2.0359110832214355 0.039093390107154846 44
0.9112443923950195 1.8118083477020264 -0.5331674814224243 119
1.0288679599761963 2.044787883758545 -0.5196372270584106 119
1.039003849029541 2.0640347003936768 -0.4413264989852905 119
1.0367556810379028 2.058673858642578 -0.35901737213134766 44
1.0443642139434814 2.0728812217712402 -0.2802998125553131 44
1.0328094959259033 2.0490570068359375 -0.1974080502986908 44
1.0289149284362793 2.0404441356658936 -0.1173640564084053 44
1.0282477140426636 2.038236379623413 -0.03878919780254364 44
1.0335044860839844 2.0477676391601562 0.6039488315582275 44
1.036154866218567 2.052128314971924 0.5214918851852417 44
1.0352457761764526 2.049438953399658 0.4384666085243225 44
1.037429928779602 2.0528724193573 0.3578401207923889 44
1.0338226556777954 2.0448477268218994 0.27664339542388916 44
1.040165901184082 2.0565025806427 0.19827930629253387 44
1.0362625122070312 2.0478978157043457 0.11827925592660904 44
1.0310895442962646 2.036792278289795 0.03918064758181572 44
0.9153781533241272 1.8043094873428345 -0.5318734049797058 119
1.0359994173049927 2.0411839485168457 -0.5196372270584106 119
1.0462024211883545 2.0603952407836914 -0.4413264989852905 119
1.046172022819519 2.0594451427459717 -0.3597995638847351 44
1.051593542098999 2.069223165512085 -0.2802998125553131 44
1.0422132015228271 2.049879550933838 -0.19784384965896606 44
1.0382949113845825 2.041290760040283 -0.11762485653162003 44
1.037623643875122 2.039090394973755 -0.03887559100985527 44
1.0428372621536255 2.0484514236450195 0.6052420139312744 44
1.045522928237915 2.0528404712677 0.5226157903671265 44
1.0446217060089111 2.0501861572265625 0.43941983580589294 44
1.0445895195007324 2.049238681793213 0.3578401207923889 44
1.0409542322158813 2.041226625442505 0.27664339542388916 44
1.0473380088806152 2.052859306335449 0.19827930629253387 44
1.0456745624542236 2.048715353012085 0.1185409352183342 44
1.0381929874420166 2.0331807136535645 0.03918064758181572 44
0.9172704815864563 1.7925041913986206 -0.5292851328849792 119
1.0453382730484009 2.0418918132781982 -0.520762026309967 119
1.0556256771087646 2.0610995292663574 -0.4422796666622162 119
1.0533545017242432 2.0557808876037598 -0.3597995638847351 44
1.0610740184783936 2.069956064224243 -0.28090915083885193 44
1.049362301826477 2.046229124069214 -0.19784384965896606 44
1.0454139709472656 2.037654161453247 -0.11762485653162003 44
1.044735074043274 2.0354559421539307 -0.03887559100985527 44
1.0499813556671143 2.0447988510131836 0.6052420139312744 44
1.0549083948135376 2.05351185798645 0.5237396955490112 44
1.0517717599868774 2.046527147293091 0.43941983580589294 44
1.0539942979812622 2.04997181892395 0.35862141847610474 44
1.0503430366516113 2.0419936180114746 0.277252733707428 44
1.0567766427993774 2.053619861602783 0.19871509075164795 44
1.0528194904327393 2.0450527667999268 0.1185409352183342 44
1.0475728511810303 2.033989191055298 0.03926791250705719 44
0.9213069081306458 1.7849998474121094 -0.5279910564422607 119
1.052459478378296 2.0382304191589355 -0.520762026309967 119
1.0628137588500977 2.0574021339416504 -0.4422796666622162 119
1.0627914667129517 2.05647873878479 -0.36058175563812256 44
1.0682929754257202 2.066239595413208 -0.28090915083885193 44
1.0587868690490723 2.0469775199890137 -0.19827960431575775 44
1.0548151731491089 2.0384271144866943 -0.11788567155599594 44
1.0518337488174438 2.03179669380188 -0.03887559100985527 44
1.057112693786621 2.041121244430542 0.6052420139312744 44
1.0620700120925903 2.0498170852661133 0.5237396955490112 44
1.06116783618927 2.0472006797790527 0.4403730034828186 44
1.0611436367034912 2.0462801456451416 0.35862141847610474 44
1.0597500801086426 2.042720079421997 0.2778621017932892 44
1.0639386177062988 2.0499186515808105 0.19871509075164795 44
1.0622526407241821 2.0457968711853027 0.11880261451005936 44
1.0569709539413452 2.0347561836242676 0.03935517370700836 44
0.929762065410614 1.7860567569732666 -0.5292851328849792 119
1.06181800365448 2.038865327835083 -0.5218867659568787 119
1.0722569227218628 2.058032751083374 -0.4432328939437866 119
1.0699634552001953 2.0527563095092773 -0.36058175563812256 44
1.0777935981750488 2.0668983459472656 -0.28151848912239075 44
1.0659257173538208 2.043269395828247 -0.19827960431575775 44
1.0642343759536743 2.0391592979431152 -0.11814647167921066 44
1.0612332820892334 2.0325441360473633 -0.038961976766586304 44
1.06646728515625 2.0416998863220215 0.6065353155136108 44
1.0714753866195679 2.050415515899658 0.524863600730896 44
1.0683073997497559 2.0434842109680176 0.4403730034828186 44
1.0705690383911133 2.0469398498535156 0.35940274596214294 44
1.0668740272521973 2.039008617401123 0.2778621017932892 44
1.0733976364135742 2.050605058670044 0.19915086030960083 44
1.0693873167037964 2.042076349258423 0.11880261451005936 44
1.064073085784912 2.0310511589050293 0.03935517370700836 44
0.9407936930656433 1.7911888360977173 -0.5318734049797058 119
1.0692837238311768 2.0349597930908203 -0.5218867659568787 119
1.079792857170105 2.054088830947876 -0.4432328939437866 119
1.0797785520553589 2.053191661834717 -0.3613639175891876 44
1.0876725912094116 2.067326307296753 -0.28212785720825195 44
1.0757275819778442 2.0437564849853516 -0.19871540367603302 44
1.071701169013977 2.035244941711426 -0.11814647167921066 44
1.0686758756637573 2.0286407470703125 -0.038961976766586304 44
1.0739433765411377 2.0377774238586426 0.6065353155136108 44
1.0812554359436035 2.050784111022949 0.5259875059127808 44
1.0780800580978394 2.043896436691284 0.44132620096206665 44
1.080368995666504 2.047370195388794 0.36018407344818115 44
1.0766568183898926 2.039473056793213 0.2784714102745056 44
1.0809062719345093 2.046657085418701 0.19915086030960083 44
1.0768647193908691 2.0381431579589844 0.11880261451005936 44
1.0738402605056763 2.0315604209899902 0.03944243863224983 44
0.94930100440979 1.7921615839004517 -0.5331674814224243 119
1.0786617994308472 2.035519599914551 -0.5230115056037903 119
1.0892552137374878 2.054643392562866 -0.4441860616207123 119
1.0869389772415161 2.049410104751587 -0.3613639175891876 44
1.0948822498321533 2.063516855239868 -0.28212785720825195 44
1.0851904153823853 2.044388771057129 -0.1991511732339859 44
1.0811407566070557 2.0359015464782715 -0.11840728670358658 44
1.0780961513519287 2.029313087463379 -0.039048369973897934 44
1.083316683769226 2.038280963897705 0.6078285574913025 44
1.090694785118103 2.0512990951538086 0.5271114110946655 44
1.0852080583572388 2.040120840072632 0.44132620096206665 44
1.0898290872573853 2.047945976257324 0.360965371131897 44
1.08376944065094 2.0357022285461426 0.2784714102745056 44
1.0903854370117188 2.0472679138183594 0.1995866447687149 44
1.0863206386566162 2.038778305053711 0.11906429380178452 44
1.083282709121704 2.03220796585083 0.039529696106910706 44
0.9578266739845276 1.7930970191955566 -0.5344615578651428 119
1.0880566835403442 2.036038875579834 -0.5241362452507019 119
1.0964206457138062 2.050828695297241 -0.4441860616207123 119
1.0940861701965332 2.0456035137176514 -0.3613639175891876 44
1.1044199466705322 2.0640580654144287 -0.28273719549179077 44
1.0946707725524902 2.0449798107147217 -0.19958695769309998 44
1.0905981063842773 2.0365169048309326 -0.1186680942773819 44
1.087533950805664 2.0299439430236816 -0.039134759455919266 44
1.0927066802978516 2.0387442111968994 0.6091217994689941 44
1.0978485345840454 2.0474793910980225 0.5271114110946655 44
1.0946427583694458 2.0406453609466553 0.4422793686389923 44
1.0969711542129517 2.0441293716430664 0.360965371131897 44
1.0908688306808472 2.031906843185425 0.2784714102745056 44
1.099881887435913 2.047837495803833 0.20002241432666779 44
1.0957940816879272 2.039372444152832 0.11932597309350967 44
1.0927311182022095 2.0328209400177 0.039616961032152176 44
0.9617893695831299 1.78549063205719 -0.5331674814224243 119
1.097468376159668 2.0365171432495117 -0.5252610445022583 119
1.105902075767517 2.051309823989868 -0.4451392590999603 119
1.1035643815994263 2.0461184978485107 -0.3621461093425751 44
1.111618161201477 2.060190439224243 -0.28273719549179077 44
1.1018024682998657 2.0411460399627686 -0.19958695769309998 44
1.1000727415084839 2.0370912551879883 -0.11892890930175781 44
1.0969895124435425 2.030534029006958 -0.0392211489379406 44
1.1021130084991455 2.0391664505004883 0.6104150414466858 44
1.1073061227798462 2.0479204654693604 0.5282353162765503 44
1.1017593145370483 2.0368120670318604 0.4422793686389923 44
1.1064503192901611 2.0446314811706543 0.3617466986179352 44
1.0979547500610352 2.0280866622924805 0.2784714102745056 44
1.1070234775543213 2.043985605239868 0.20002241432666779 44
1.1052846908569336 2.0399250984191895 0.11958765238523483 44
1.0998202562332153 2.02899432182312 0.039616961032152176 44
0.9657108783721924 1.7778786420822144 -0.5318734049797058 119
1.1045703887939453 2.0326738357543945 -0.5252610445022583 119
1.115399956703186 2.0517489910125732 -0.446092426776886 119
1.1106998920440674 2.0422539710998535 -0.3621461093425751 44
1.121174693107605 2.060657024383545 -0.283346563577652 44
1.1113018989562988 2.0416624546051025 -0.20002272725105286 44
1.1071767807006836 2.0332388877868652 -0.11892890930175781 44
1.1064621210098267 2.0310823917388916 -0.03930753841996193 44
1.1092242002487183 2.035306930541992 0.6104150414466858 44
1.1144479513168335 2.0440428256988525 0.5282353162765503 44
1.1112128496170044 2.0372629165649414 0.44323256611824036 44
1.1135807037353516 2.0407567024230957 0.3617466986179352 44
1.107405424118042 2.028597831726074 0.2790807783603668 44
1.1165390014648438 2.044480562210083 0.20045821368694305 44
1.114792823791504 2.0404365062713623 0.11984933912754059 44
1.1092936992645264 2.029529571533203 0.03970422223210335 44
0.9719109535217285 1.7744967937469482 -0.5318734049797058 119
1.1140000820159912 2.033078193664551 -0.5263857841491699 119
1.1225550174713135 2.0478429794311523 -0.446092426776886 119
1.1201964616775513 2.042694568634033 -0.36292824149131775 44
1.1283608675003052 2.0567307472229004 -0.283346563577652 44
1.1184217929840088 2.0377707481384277 -0.20002272725105286 44
1.1166706085205078 2.033738613128662 -0.11918970942497253 44
1.1159522533416748 2.0315895080566406 -0.03939393162727356 44
1.1186480522155762 2.0356554985046387 0.6117083430290222 44
1.1239233016967773 2.0444095134735107 0.5293592214584351 44
1.1183174848556519 2.033371686935425 0.44323256611824036 44
1.1230779886245728 2.0411837100982666 0.362527996301651 44
1.1144797801971436 2.024719715118408 0.2790807783603668 44
1.1260714530944824 2.044933795928955 0.20089399814605713 44
1.1243176460266113 2.0409059524536133 0.12011101096868515 44
1.1163712739944458 2.0256447792053223 0.03970422223210335 44
0.975764274597168 1.7668654918670654 -0.5305792689323425 119
1.121090054512024 2.029177188873291 -0.5263857841491699 119
1.1320708990097046 2.048207998275757 -0.4470456540584564 119
1.1297097206115723 2.04309344291687 -0.3637104332447052 44
1.1379354000091553 2.057121992111206 -0.2839558720588684 44
1.12552809715271 2.0338544845581055 -0.20002272725105286 44
1.1237629652023315 2.0298283100128174 -0.11918970942497253 44
1.1230369806289673 2.027681827545166 -0.03939393162727356 44
1.1257470846176147 2.03173828125 0.6117083430290222 44
1.131052851676941 2.0404739379882812 0.5293592214584351 44
1.1277886629104614 2.033747911453247 0.444185733795166 44
1.130196213722229 2.0372512340545654 0.362527996301651 44
1.1239488124847412 2.0251564979553223 0.27969011664390564 44
1.1356204748153687 2.0453453063964844 0.20132976770401 44
1.1314349174499512 2.036968946456909 0.12011101096868515 44
1.125863790512085 2.0261056423187256 0.03979148343205452 44
0.9819258451461792 1.763448715209961 -0.5305792689323425 119
1.1305372714996338 2.029507637023926 -0.5275105237960815 119
1.1392135620117188 2.044243812561035 -0.4470456540584564 119
1.1392391920089722 2.0434510707855225 -0.36449259519577026 44
1.1451090574264526 2.0531373023986816 -0.2839558720588684 44
1.1350477933883667 2.0342628955841064 -0.20045851171016693 44
1.1308414936065674 2.025893211364746 -0.11918970942497253 44
1.1325454711914062 2.028114080429077 -0.03948031738400459 44
1.1351878643035889 2.032012939453125 0.6130015254020691 44
1.1381685733795166 2.036513328552246 0.5293592214584351 44
1.1348809003829956 2.029798746109009 0.444185733795166 44
1.139711618423462 2.0376038551330566 0.3633093237876892 44
1.1310111284255981 2.0212209224700928 0.27969011664390564 44
1.14275324344635 2.0413687229156494 0.20132976770401 44
1.140978217124939 2.0373637676239014 0.1203726977109909 44
1.1329292058944702 2.0221633911132812 0.03979148343205452 44
0.9904398322105408 1.7642219066619873 -0.5318734049797058 119
1.1376146078109741 2.0255489349365234 -0.5275105237960815 119
1.1487466096878052 2.0445339679718018 -0.4479987919330597 119
1.1463651657104492 2.039461851119995 -0.36449259519577026 44
1.1547014713287354 2.0534534454345703 -0.2845652401447296 44
1.1421418190002441 2.0302884578704834 -0.20045851171016693 44
1.1379063129425049 2.0219335556030273 -0.11918970942497253 44
1.139617919921875 2.0241482257843018 -0.03948031738400459 44
1.142274022102356 2.0280377864837646 0.6130015254020691 44
1.1452703475952148 2.0325279235839844 0.5293592214584351 44
1.141959309577942 2.025825023651123 0.444185733795166 44
1.1468172073364258 2.0336132049560547 0.3633093237876892 44
1.1404980421066284 2.021582841873169 0.28029948472976685 44
1.152320146560669 2.041705369949341 0.20176555216312408 44
1.148082971572876 2.0333683490753174 0.1203726977109909 44
1.142439603805542 2.0225491523742676 0.03987874463200569 44
0.9989709258079529 1.7649568319320679 -0.5331674814224243 119
1.1446782350540161 2.0215656757354736 -0.5275105237960815 119
1.1558763980865479 2.0405116081237793 -0.4479987919330597 119
1.155912160873413 2.0397443771362305 -0.3652747869491577 44
1.1618623733520508 2.049410343170166 -0.2845652401447296 44
1.1516791582107544 2.0306220054626465 -0.2008943110704422 44
1.144957184791565 2.017949104309082 -0.11918970942497253 44
1.1466766595840454 2.020158052444458 -0.03948031738400459 44
1.1493462324142456 2.024038076400757 0.6130015254020691 44
1.1523581743240356 2.028517961502075 0.5293592214584351 44
1.1490237712860107 2.0218265056610107 0.444185733795166 44
1.1563496589660645 2.033890724182129 0.36409062147140503 44
1.1500014066696167 2.0219032764434814 0.28090885281562805 44
1.159440040588379 2.037670373916626 0.20176555216312408 44
1.1576437950134277 2.0336880683898926 0.12063437700271606 44
1.149492621421814 2.0185487270355225 0.03987874463200569 44
1.0075194835662842 1.7656539678573608 -0.5344615578651428 119
1.1517277956008911 2.0175576210021973 -0.5275105237960815 119
1.165426254272461 2.040726661682129 -0.4489520192146301 119
1.1630252599716187 2.0356972217559814 -0.3652747869491577 44
1.1714715957641602 2.0496506690979004 -0.28517457842826843 44
1.1587603092193604 2.0265896320343018 -0.2008943110704422 44
1.1544734239578247 2.0182745456695557 -0.11945052444934845 44
1.1537213325500488 2.0161430835723877 -0.03948031738400459 44
1.158803939819336 2.024205446243286 0.6142948269844055 44
1.161853313446045 2.0287106037139893 0.5304831266403198 44
1.1585142612457275 2.022062301635742 0.44513896107673645 44
1.1634422540664673 2.029841899871826 0.36409062147140503 44
1.1570521593093872 2.0178768634796143 0.28090885281562805 44
1.1665457487106323 2.0336108207702637 0.20176555216312408 44
1.1647356748580933 2.029634714126587 0.12063437700271606 44
1.1590207815170288 2.018859624862671 0.03996600955724716 44
1.0160846710205078 1.7663124799728394 -0.5357556343078613 119
1.1587634086608887 2.0135250091552734 -0.5275105237960815 119
1.1725425720214844 2.0366461277008057 -0.4489520192146301 119
1.1701240539550781 2.0316250324249268 -0.3652747869491577 44
1.1786190271377563 2.045549154281616 -0.28517457842826843 44
1.1683149337768555 2.0268478393554688 -0.20133008062839508 44
1.1615114212036133 2.0142323970794678 -0.11945052444934845 44
1.1632499694824219 2.0164339542388916 -0.03956671059131622 44
1.165862798690796 2.020148277282715 0.6142948269844055 44
1.1689276695251465 2.0246427059173584 0.5304831266403198 44
1.1655656099319458 2.018005847930908 0.44513896107673645 44
1.1729915142059326 2.0300443172454834 0.36487194895744324 44
1.1640888452529907 2.0138256549835205 0.28090885281562805 44
1.1761308908462524 2.0338385105133057 0.20220132172107697 44
1.1743136644363403 2.029878616333008 0.12089605629444122 44
1.1660609245300293 2.0148017406463623 0.03996600955724716 44
1.0219364166259766 1.762933373451233 -0.5357556343078613 119
1.1675266027450562 2.014089584350586 -0.5286352634429932 119
1.1813973188400269 2.037198543548584 -0.4499051868915558 119
1.1789788007736206 2.0322105884552 -0.3660569489002228 44
1.187530755996704 2.046128749847412 -0.28578394651412964 44
1.1771776676177979 2.027475118637085 -0.20176586508750916 44
1.1703416109085083 2.0148911476135254 -0.11971132457256317 44
1.1695791482925415 2.0127694606781006 -0.03956671059131622 44
1.1746306419372559 2.02065110206604 0.6155880689620972 44
1.177731990814209 2.025172233581543 0.5316070318222046 44
1.174367904663086 2.0185768604278564 0.4460921287536621 44
1.1793632507324219 2.0263493061065674 0.36487194895744324 44
1.172906756401062 2.0144474506378174 0.2815181612968445 44
1.1825145483016968 2.0301334857940674 0.20220132172107697 44
1.180685043334961 2.026179313659668 0.12089605629444122 44
1.1749025583267212 2.0154473781585693 0.040053267031908035 44
1.0277769565582275 1.7595348358154297 -0.5357556343078613 119
1.17454993724823 2.0100018978118896 -0.5286352634429932 119
1.188501238822937 2.033062219619751 -0.4499051868915558 119
1.186065435409546 2.028082847595215 -0.3660569489002228 44
1.1946659088134766 2.04197096824646 -0.28578394651412964 44
1.1842477321624756 2.0233535766601562 -0.20176586508750916 44
1.1798906326293945 2.0151023864746094 -0.11997213959693909 44
1.1791245937347412 2.012988328933716 -0.039653100073337555 44
1.1816768646240234 2.016538381576538 0.6155880689620972 44
1.1872577667236328 2.025251865386963 0.5327309370040894 44
1.1814067363739014 2.01446533203125 0.4460921287536621 44
1.1889283657073975 2.026479959487915 0.36565321683883667 44
1.179931402206421 2.010340929031372 0.2815181612968445 44
1.1921159029006958 2.0302886962890625 0.20263710618019104 44
1.190279483795166 2.0263512134552 0.12115773558616638 44
1.1819305419921875 2.01133394241333 0.040053267031908035 44
1.0320736169815063 1.7514146566390991 -0.5344615578651428 119
1.182259202003479 2.0054771900177 -0.5286352634429932 119
1.1962989568710327 2.0284836292266846 -0.4499051868915558 119
1.1963534355163574 2.0277671813964844 -0.36683914065361023 44
1.2050199508666992 2.041642189025879 -0.28639328479766846 44
1.1945405006408691 2.023080587387085 -0.20220163464546204 44
1.1876194477081299 2.010557174682617 -0.11997213959693909 44
1.189388632774353 2.0127499103546143 -0.03973948955535889 44
1.1918692588806152 2.016144275665283 0.6168813109397888 44
1.1950253248214722 2.0206780433654785 0.5327309370040894 44
1.1916322708129883 2.0141384601593018 0.44704532623291016 44
1.1992161273956299 2.0261497497558594 0.3664345443248749 44
1.190170168876648 2.0100655555725098 0.2821275293827057 44
1.199902892112732 2.025696277618408 0.20263710618019104 44
1.1980513334274292 2.021765947341919 0.12115773558616638 44
1.1921942234039307 2.0110814571380615 0.040140531957149506 44
1.038180947303772 1.7478013038635254 -0.5344615578651428 119
1.1892523765563965 2.001338005065918 -0.5286352634429932 119
1.2058804035186768 2.0285143852233887 -0.45085838437080383 119
1.203424334526062 2.0235788822174072 -0.36683914065361023 44
1.212139368057251 2.037423610687256 -0.28639328479766846 44
1.2015950679779053 2.0188984870910645 -0.20220163464546204 44
1.1971848011016846 2.0106897354125977 -0.120232954621315 44
1.1964070796966553 2.0085859298706055 -0.03973948955535889 44
1.2013717889785767 2.016120433807373 0.6181745529174805 44
1.2045663595199585 2.020679473876953 0.5338548421859741 44
1.1986557245254517 2.0099666118621826 0.44704532623291016 44
1.2088115215301514 2.0261924266815186 0.3672158420085907 44
1.1997226476669312 2.010160446166992 0.2827368676662445 44
1.209519863128662 2.0257720947265625 0.20307287573814392 44
1.2076616287231445 2.021857976913452 0.12141941487789154 44
1.2017769813537598 2.011195659637451 0.040227796882390976 44
1.0414907932281494 1.7402046918869019 -0.5331674814224243 119
1.1955338716506958 1.9975920915603638 -0.5286352634429932 119
1.2122472524642944 2.0247161388397217 -0.45085838437080383 119
1.2123130559921265 2.024024486541748 -0.3676212728023529 44
1.2210849523544312 2.037862539291382 -0.2870026230812073 44
1.210492730140686 2.019385814666748 -0.2026374191045761 44
1.2060635089874268 2.0112009048461914 -0.12049376219511032 44
1.2052831649780273 2.0091044902801514 -0.03982588276267052 44
1.2076996564865112 2.012336254119873 0.6181745529174805 44
1.2109085321426392 2.0168850421905518 0.5338548421859741 44
1.207491397857666 2.0103983879089355 0.4479984939098358 44
1.215170979499817 2.0223848819732666 0.3672158420085907 44
1.2060319185256958 2.0063815116882324 0.2827368676662445 44
1.2158781290054321 2.0219624042510986 0.20307287573814392 44
1.2165814638137817 2.0223329067230225 0.1216811016201973 44
1.2080837488174438 2.007413625717163 0.040227796882390976 44
1.0447618961334229 1.7326056957244873 -0.5318734049797058 119
1.2024996280670166 1.9934067726135254 -0.5286352634429932 119
1.2218434810638428 2.024674415588379 -0.4518115520477295 119
1.21937096118927 2.019780397415161 -0.3676212728023529 44
1.2281908988952637 2.033587694168091 -0.2870026230812073 44
1.2175343036651611 2.0151479244232178 -0.2026374191045761 44
1.2156596183776855 2.011251926422119 -0.12075457721948624 44
1.2148758172988892 2.0091629028320312 -0.03991227224469185 44
1.2172164916992188 2.0122411251068115 0.6194678544998169 44
1.220463752746582 2.0168142318725586 0.5349787473678589 44
1.2170437574386597 2.0103704929351807 0.44895169138908386 44
1.2247815132141113 2.022355318069458 0.3679971694946289 44
1.2155998945236206 2.006404161453247 0.2833462357521057 44
1.222928524017334 2.0177056789398193 0.20307287573814392 44
1.2236332893371582 2.018073797225952 0.1216811016201973 44
1.2176761627197266 2.0074586868286133 0.04031505808234215 44
1.0460869073867798 1.7205110788345337 -0.5292851328849792 119
1.209797739982605 1.9889860153198242 -0.5286352634429932 119
1.2318075895309448 2.0243759155273438 -0.4527647793292999 119
1.226765513420105 2.0152976512908936 -0.3676212728023529 44
1.2382174730300903 2.033311128616333 -0.2876119613647461 44
1.2275032997131348 2.014925718307495 -0.203073188662529 44
1.2230229377746582 2.0067827701568604 -0.12075457721948624 44
1.2248339653015137 2.008965253829956 -0.03999866172671318 44
1.2270985841751099 2.0118894577026367 0.6207610368728638 44
1.2278475761413574 2.0123274326324463 0.5349787473678589 44
1.2244038581848145 2.0058960914611816 0.44895169138908386 44
1.2321857213974 2.017852544784546 0.3679971694946289 44
1.2255325317382812 2.0061700344085693 0.28395554423332214 44
1.2329130172729492 2.0174601078033447 0.203508660197258 44
1.233626127243042 2.0178353786468506 0.12194277346134186 44
1.227634072303772 2.00724720954895 0.04040231928229332 44
1.049562931060791 1.7127313613891602 -0.5279910564422607 119
1.2167330980300903 1.9847508668899536 -0.5286352634429932 119
