# .PCD v0.7 - Point Cloud Data file format
VERSION 0.7
FIELDS x y z intensity
SIZE 4 4 4 4
TYPE F F F F
COUNT 1 1 1 1
WIDTH 793
HEIGHT 1
VIEWPOINT 0 0 0 1 0 0 0
POINTS 793
DATA ascii
0.4656081199645996 2.13189697265625 -0.2632380723953247 44
0.4591539204120636 2.100586175918579 -0.18477044999599457 44
0.4584936201572418 2.0958120822906494 -0.1100613996386528 44
0.45940640568733215 2.0982303619384766 -0.03645666316151619 44
0.4599784314632416 2.0990893840789795 0.5651512145996094 44
0.4611634612083435 2.1027419567108154 0.48777472972869873 44
0.4596424102783203 2.094059705734253 0.40891778469085693 44
0.4627947211265564 2.1066653728485107 0.3351821303367615 44
0.4600589871406555 2.0924694538116455 0.2583629786968231 44
0.46529778838157654 2.114537000656128 0.1860775202512741 44
0.4635631740093231 2.1049036979675293 0.1109522208571434 44
0.46018216013908386 2.0878164768218994 0.036650050431489944 44
0.42293864488601685 1.9093308448791504 -0.5137560367584229 119
0.4785683751106262 2.1586835384368896 -0.5016411542892456 119
0.4686451852321625 2.112178325653076 -0.4127308130264282 119
0.46863123774528503 2.1103734970092773 -0.33633434772491455 44
0.4734187722206116 2.130176305770874 -0.2632380723953247 44
0.4668498635292053 2.098889112472534 -0.18477044999599457 44
0.46617206931114197 2.0941174030303955 -0.1100613996386528 44
0.46709373593330383 2.0965323448181152 -0.03645666316151619 44
0.46766889095306396 2.0973892211914062 0.5651512145996094 44
0.46992847323417664 2.10579252243042 0.4888986349105835 44
0.4673144221305847 2.0923609733581543 0.40891778469085693 44
0.47051292657852173 2.104954957962036 0.3351821303367615 44
0.46772515773773193 2.090769052505493 0.2583629786968231 44
0.47304481267929077 2.1128175258636475 0.1860775202512741 44
0.4712749123573303 2.1031904220581055 0.1109522208571434 44
0.4678312838077545 2.086115837097168 0.036650050431489944 44
0.43066179752349854 1.9125545024871826 -0.5150501132011414 119
0.4871717095375061 2.161752462387085 -0.5027658939361572 119
0.47601523995399475 2.110529661178589 -0.4127308130264282 119
0.47599491477012634 2.10872483253479 -0.33633434772491455 44
0.48085159063339233 2.1285107135772705 -0.2632380723953247 44
0.47417351603507996 2.0972468852996826 -0.18477044999599457 44
0.4734790623188019 2.092477321624756 -0.1100613996386528 44
0.4744091331958771 2.0948891639709473 -0.03645666316151619 44
0.47498729825019836 2.0957441329956055 0.5651512145996094 44
0.47727617621421814 2.1041393280029297 0.4888986349105835 44
0.47461527585983276 2.09071683883667 0.40891778469085693 44
0.47785770893096924 2.103299617767334 0.3351821303367615 44
0.47502046823501587 2.0891237258911133 0.2583629786968231 44
0.48041704297065735 2.1111533641815186 0.1860775202512741 44
0.47861355543136597 2.101532459259033 0.1109522208571434 44
0.4751168489456177 2.0844686031341553 0.036650050431489944 44
0.4384126365184784 1.9157474040985107 -0.5163442492485046 119
0.494714617729187 2.160038709640503 -0.5027658939361572 119
0.48337942361831665 2.1088552474975586 -0.4127308130264282 119
0.4844571053981781 2.111863851547241 -0.337116539478302 44
0.4882785677909851 2.126819372177124 -0.2632380723953247 44
0.481491357088089 2.095578908920288 -0.18477044999599457 44
0.4807802736759186 2.0908119678497314 -0.1100613996386528 44
0.4817187786102295 2.0932202339172363 -0.03645666316151619 44
0.4812159538269043 2.089366912841797 0.5638579726219177 44
0.48461809754371643 2.1024606227874756 0.4888986349105835 44
0.4819103479385376 2.089047431945801 0.40891778469085693 44
0.48519667983055115 2.101618766784668 0.3351821303367615 44
0.4823099970817566 2.0874528884887695 0.2583629786968231 44
0.48778343200683594 2.1094634532928467 0.1860775202512741 44
0.48594632744789124 2.099848985671997 0.1109522208571434 44
0.4823836088180542 2.082798957824707 0.036650050431489944 44
0.4461909830570221 1.9189095497131348 -0.5176383256912231 119
0.5022515654563904 2.1582987308502197 -0.5027658939361572 119
0.49073776602745056 2.1071550846099854 -0.4127308130264282 119
0.4918259084224701 2.1101601123809814 -0.337116539478302 44
0.49569955468177795 2.1251018047332764 -0.2632380723953247 44
0.48880335688591003 2.0938854217529297 -0.18477044999599457 44
0.4880756437778473 2.089120864868164 -0.1100613996386528 44
0.48902255296707153 2.0915262699127197 -0.03645666316151619 44
0.4885062575340271 2.087674379348755 0.5638579726219177 44
0.49195408821105957 2.1007561683654785 0.4888986349105835 44
0.48919954895973206 2.0873525142669678 0.40891778469085693 44
0.4925297498703003 2.099912405014038 0.3351821303367615 44
0.48959359526634216 2.085756540298462 0.2583629786968231 44
0.495143860578537 2.107748031616211 0.1860775202512741 44
0.49327322840690613 2.098140001296997 0.1109522208571434 44
0.48965099453926086 2.0811023712158203 0.036650050431489944 44
0.45288652181625366 1.9173403978347778 -0.5176383256912231 119
0.5097823739051819 2.1565322875976562 -0.5027658939361572 119
0.49809014797210693 2.105429172515869 -0.4127308130264282 119
0.49918872117996216 2.1084303855895996 -0.337116539478302 44
0.5031145215034485 2.1233584880828857 -0.2632380723953247 44
0.4961094260215759 2.0921664237976074 -0.18477044999599457 44
0.49651798605918884 2.0922627449035645 -0.11032220721244812 44
0.4951651990413666 2.084942579269409 -0.03637027367949486 44
0.49579063057899475 2.085956335067749 0.5638579726219177 44
0.49928411841392517 2.0990262031555176 0.4888986349105835 44
0.4976194500923157 2.090407133102417 0.4098709523677826 44
0.4998567998409271 2.0981802940368652 0.3351821303367615 44
0.49687129259109497 2.0840349197387695 0.2583629786968231 44
0.5024982690811157 2.106006622314453 0.1860775202512741 44
0.5005940794944763 2.096405267715454 0.1109522208571434 44
0.49691241979599 2.079380512237549 0.036650050431489944 44
0.4595765471458435 1.915747880935669 -0.5176383256912231 119
0.5173069834709167 2.1547396183013916 -0.5027658939361572 119
0.5054364204406738 2.103677749633789 -0.4127308130264282 119
0.5065454840660095 2.106674909591675 -0.337116539478302 44
0.5105233788490295 2.1215896606445312 -0.2632380723953247 44
0.5045756101608276 2.095264434814453 -0.18520623445510864 44
0.5038183331489563 2.090517044067383 -0.11032220721244812 44
0.5024399757385254 2.0832014083862305 -0.03637027367949486 44
0.5030689835548401 2.0842130184173584 0.5638579726219177 44
0.5066080093383789 2.0972704887390137 0.4888986349105835 44
0.5049132704734802 2.0886573791503906 0.4098709523677826 44
0.5071777701377869 2.0964226722717285 0.3351821303367615 44
0.5029751062393188 2.0774643421173096 0.2577536702156067 44
0.5098465085029602 2.1042399406433105 0.1860775202512741 44
0.5079088807106018 2.0946452617645264 0.1109522208571434 44
0.5041677951812744 2.0776333808898926 0.036650050431489944 44
0.46740391850471497 1.918824315071106 -0.5189324021339417 119
0.5248252749443054 2.152920722961426 -0.5027658939361572 119
0.5127765536308289 2.101900577545166 -0.4127308130264282 119
0.513896107673645 2.1048941612243652 -0.337116539478302 44
0.5179259777069092 2.1197946071624756 -0.2632380723953247 44
0.5118863582611084 2.0934903621673584 -0.18520623445510864 44
0.5111125111579895 2.088745594024658 -0.11032220721244812 44
0.5097086429595947 2.081434726715088 -0.03637027367949486 44
0.5103411674499512 2.082444429397583 0.5638579726219177 44
0.5139257907867432 2.095489263534546 0.4888986349105835 44
0.5122010111808777 2.0868821144104004 0.4098709523677826 44
0.5144925713539124 2.094639539718628 0.3351821303367615 44
0.5102237462997437 2.0756959915161133 0.2577536702156067 44
0.5171886086463928 2.102447271347046 0.1860775202512741 44
0.5152174234390259 2.0928595066070557 0.1109522208571434 44
0.511417031288147 2.0758607387542725 0.036650050431489944 44
0.4740990400314331 1.917181134223938 -0.5189324021339417 119
0.5323371887207031 2.151075839996338 -0.5027658939361572 119
0.5201104283332825 2.100097894668579 -0.4127308130264282 119
0.5212404131889343 2.1030874252319336 -0.337116539478302 44
0.5265170335769653 2.122790575027466 -0.2638474106788635 44
0.5191909074783325 2.091691017150879 -0.18520623445510864 44
0.5184004902839661 2.0869486331939697 -0.11032220721244812 44
0.5181771516799927 2.0844943523406982 -0.03645666316151619 44
0.518773078918457 2.085336923599243 0.5651512145996094 44
0.5212372541427612 2.0936825275421143 0.4888986349105835 44
0.519482433795929 2.0850815773010254 0.4098709523677826 44
0.5218010544776917 2.0928308963775635 0.3351821303367615 44
0.5174661874771118 2.0739023685455322 0.2577536702156067 44
0.525731086730957 2.105461835861206 0.1865132749080658 44
0.5237302780151367 2.0958926677703857 0.11121390759944916 44
0.5186600089073181 2.0740630626678467 0.036650050431489944 44
0.48078835010528564 1.9155144691467285 -0.5189324021339417 119
0.5398425459861755 2.1492044925689697 -0.5027658939361572 119
0.5274379253387451 2.098269462585449 -0.4127308130264282 119
0.5285783410072327 2.101255178451538 -0.337116539478302 44
0.5339237451553345 2.1209397315979004 -0.2638474106788635 44
0.5264890789985657 2.0898656845092773 -0.18520623445510864 44
0.5256821513175964 2.0851263999938965 -0.11032220721244812 44
0.5254502296447754 2.0826730728149414 -0.03645666316151619 44
0.5260490775108337 2.0835134983062744 0.5651512145996094 44
0.5285423994064331 2.091850519180298 0.4888986349105835 44
0.5267575979232788 2.0832555294036865 0.4098709523677826 44
0.5303146839141846 2.0957841873168945 0.3359634280204773 44
0.5247023105621338 2.0720834732055664 0.2577536702156067 44
0.5330772995948792 2.10361385345459 0.1865132749080658 44
0.5310430526733398 2.0940515995025635 0.11121390759944916 44
0.5258966684341431 2.072239875793457 0.036650050431489944 44
0.4874718189239502 1.9138245582580566 -0.5189324021339417 119
0.5473414063453674 2.1473069190979004 -0.5027658939361572 119
0.5359722375869751 2.1011714935302734 -0.4136839807033539 119
0.53590989112854 2.0993971824645996 -0.337116539478302 44
0.5413239598274231 2.119063138961792 -0.2638474106788635 44
0.5337808728218079 2.08801531791687 -0.18520623445510864 44
0.5329574346542358 2.0832786560058594 -0.11032220721244812 44
0.5327169299125671 2.0808260440826416 -0.03645666316151619 44
0.5333186984062195 2.081664562225342 0.5651512145996094 44
0.5358411073684692 2.0899927616119385 0.4888986349105835 44
0.5340263247489929 2.081403970718384 0.4098709523677826 44
0.537627100944519 2.0939202308654785 0.3359634280204773 44
0.53193199634552 2.070239305496216 0.2577536702156067 44
0.5404170155525208 2.1017403602600098 0.1865132749080658 44
0.538349449634552 2.0921852588653564 0.11121390759944916 44
0.5331268906593323 2.0703916549682617 0.036650050431489944 44
0.4941493272781372 1.9121111631393433 -0.5189324021339417 119
0.5548335909843445 2.145383358001709 -0.5027658939361572 119
0.5433034300804138 2.099287986755371 -0.4136839807033539 119
0.5432348847389221 2.0975136756896973 -0.337116539478302 44
0.5487176179885864 2.1171607971191406 -0.2638474106788635 44
0.5410661101341248 2.086139440536499 -0.18520623445510864 44
0.54022616147995 2.0814056396484375 -0.11032220721244812 44
0.5399770736694336 2.078953981399536 -0.03645666316151619 44
0.5405818223953247 2.0797901153564453 0.5651512145996094 44
0.5431333184242249 2.0881094932556152 0.4888986349105835 44
0.5412884950637817 2.0795273780822754 0.4098709523677826 44
0.544933021068573 2.0920307636260986 0.3359634280204773 44
0.5391553044319153 2.0683698654174805 0.2577536702156067 44
0.5477502346038818 2.0998411178588867 0.1865132749080658 44
0.5469103455543518 2.0951244831085205 0.11147557944059372 44
0.5403506755828857 2.0685179233551025 0.036650050431489944 44
0.49959611892700195 1.905703067779541 -0.5176383256912231 119
0.5623189806938171 2.1434333324432373 -0.5027658939361572 119
0.5506280660629272 2.097378730773926 -0.4136839807033539 119
0.5505532622337341 2.095604658126831 -0.337116539478302 44
0.5561045408248901 2.115232467651367 -0.2638474106788635 44
0.5483448505401611 2.084237813949585 -0.18520623445510864 44
0.5474883317947388 2.079507350921631 -0.11032220721244812 44
0.5472306609153748 2.077056407928467 -0.03645666316151619 44
0.5478383302688599 2.077890634536743 0.5651512145996094 44
0.5504188537597656 2.0862009525299072 0.4888986349105835 44
0.5485441088676453 2.077625274658203 0.4098709523677826 44
0.5522322058677673 2.090115785598755 0.3359634280204773 44
0.5463719367980957 2.0664751529693604 0.2577536702156067 44
0.5550766587257385 2.0979163646698 0.1865132749080658 44
0.5542203783988953 2.093202590942383 0.11147557944059372 44
0.5475679039955139 2.0666191577911377 0.036650050431489944 44
0.5062452554702759 1.9039474725723267 -0.5176383256912231 119
0.5697975158691406 2.1414575576782227 -0.5027658939361572 119
0.5592088103294373 2.100187063217163 -0.4146372079849243 119
0.5578649640083313 2.093670129776001 -0.337116539478302 44
0.5634846687316895 2.113278388977051 -0.2638474106788635 44
0.5556168556213379 2.0823111534118652 -0.18520623445510864 44
0.5547438263893127 2.0775835514068604 -0.11032220721244812 44
0.5544776320457458 2.0751335620880127 -0.03645666316151619 44
0.5563359260559082 2.080631732940674 0.5664445161819458 44
0.5576976537704468 2.0842669010162354 0.4888986349105835 44
0.5570626258850098 2.0804390907287598 0.41082414984703064 44
0.559524655342102 2.0881755352020264 0.3359634280204773 44
0.5548672080039978 2.0693488121032715 0.2583629786968231 44
0.5623964071273804 2.09596586227417 0.1865132749080658 44
0.5615236759185791 2.0912551879882812 0.11147557944059372 44
0.5547783970832825 2.064695119857788 0.036650050431489944 44
0.5116308331489563 1.897505760192871 -0.5163442492485046 119
0.5772691369056702 2.139455556869507 -0.5027658939361572 119
0.5665363669395447 2.098222017288208 -0.4146372079849243 119
0.5651698112487793 2.091710090637207 -0.337116539478302 44
0.5708579421043396 2.1112985610961914 -0.2638474106788635 44
0.562882125377655 2.0803589820861816 -0.18520623445510864 44
0.5619925856590271 2.075634479522705 -0.11032220721244812 44
0.5617178082466125 2.073185443878174 -0.03645666316151619 44
0.5635952949523926 2.078677177429199 0.5664445161819458 44
0.5649697184562683 2.0823075771331787 0.4888986349105835 44
0.5643212795257568 2.078481912612915 0.41082414984703064 44
0.5668103694915771 2.086209774017334 0.3359634280204773 44
0.5620872378349304 2.067399501800537 0.2583629786968231 44
0.5697092413902283 2.0939900875091553 0.1865132749080658 44
0.5688201189041138 2.089282274246216 0.11147557944059372 44
0.5632961988449097 2.0675694942474365 0.036737315356731415 44
0.5179203748703003 1.895798683166504 -0.5163442492485046 119
0.5852715969085693 2.14233136177063 -0.5038906931877136 119
0.5731253623962402 2.0964319705963135 -0.4146372079849243 119
0.5717383623123169 2.0899243354797363 -0.337116539478302 44
0.5774879455566406 2.109494686126709 -0.2638474106788635 44
0.570730984210968 2.0833845138549805 -0.18564200401306152 44
0.5685105919837952 2.0738584995269775 -0.11032220721244812 44
0.5682281851768494 2.0714104175567627 -0.03645666316151619 44
0.5701228380203247 2.0768961906433105 0.5664445161819458 44
0.5715087056159973 2.080522298812866 0.4888986349105835 44
0.5708482265472412 2.0766987800598145 0.41082414984703064 44
0.5733615756034851 2.084418773651123 0.3359634280204773 44
0.5698964595794678 2.070408344268799 0.2589723467826843 44
0.5762848854064941 2.0921897888183594 0.1865132749080658 44
0.5753809213638306 2.0874850749969482 0.11147557944059372 44
0.569788932800293 2.0657896995544434 0.036737315356731415 44
0.5229160189628601 1.8894160985946655 -0.5150501132011414 119
0.5927461385726929 2.140275239944458 -0.5038906931877136 119
0.5804398059844971 2.094418525695801 -0.4146372079849243 119
0.5790300369262695 2.0879158973693848 -0.337116539478302 44
0.5848479866981506 2.107465982437134 -0.2638474106788635 44
0.5779998302459717 2.0813796520233154 -0.18564200401306152 44
0.5757462382316589 2.071861505508423 -0.11032220721244812 44
0.5754553079605103 2.0694143772125244 -0.03645666316151619 44
0.5773690938949585 2.0748934745788574 0.5664445161819458 44
0.5787675976753235 2.078514814376831 0.4888986349105835 44
0.5780937671661377 2.074693441390991 0.41082414984703064 44
0.5806340575218201 2.082404613494873 0.3359634280204773 44
0.5771200060844421 2.068406343460083 0.2589723467826843 44
0.5835844278335571 2.090165615081787 0.1865132749080658 44
0.5826641321182251 2.085463762283325 0.11147557944059372 44
0.576996386051178 2.0637881755828857 0.036737315356731415 44
0.5301669836044312 1.8873943090438843 -0.5150501132011414 119
0.600959837436676 2.137983560562134 -0.5038906931877136 119
0.5884774327278137 2.0921742916107178 -0.4146372079849243 119
0.588380753993988 2.090430736541748 -0.33789870142936707 44
0.5929356813430786 2.1052050590515137 -0.2638474106788635 44
0.5859875082969666 2.0791447162628174 -0.18564200401306152 44
0.5836973786354065 2.0696356296539307 -0.11032220721244812 44
0.5833970308303833 2.0671894550323486 -0.03645666316151619 44
0.5853317975997925 2.0726613998413086 0.5664445161819458 44
0.5867442488670349 2.076277017593384 0.4888986349105835 44
0.5860556960105896 2.072458505630493 0.41082414984703064 44
0.5886256098747253 2.080159902572632 0.3359634280204773 44
0.5850578546524048 2.0661752223968506 0.2589723467826843 44
0.5916057825088501 2.087909460067749 0.1865132749080658 44
0.5906673669815063 2.0832111835479736 0.11147557944059372 44
0.5849165320396423 2.0615575313568115 0.036737315356731415 44
0.5354296565055847 1.8808871507644653 -0.5137560367584229 119
0.607084333896637 2.1311869621276855 -0.5027658939361572 119
0.5957769751548767 2.0901074409484863 -0.4146372079849243 119
0.5956740975379944 2.0883641242980957 -0.33789870142936707 44
0.6016427278518677 2.1078944206237793 -0.26445674896240234 44
0.5932415127754211 2.0770866870880127 -0.18564200401306152 44
0.5909181237220764 2.0675854682922363 -0.11032220721244812 44
0.5906092524528503 2.06514048576355 -0.03645666316151619 44
0.5925632119178772 2.070605516433716 0.5664445161819458 44
0.5939882397651672 2.074216365814209 0.4888986349105835 44
0.5946385264396667 2.0751185417175293 0.4117773175239563 44
0.5972445011138916 2.0828399658203125 0.3367447555065155 44
0.5936353206634521 2.068890333175659 0.25958168506622314 44
0.6002650260925293 2.0906190872192383 0.18694907426834106 44
0.5979355573654175 2.081136703491211 0.11147557944059372 44
0.5921155214309692 2.0595011711120605 0.036737315356731415 44
0.5419919490814209 1.8790067434310913 -0.5137560367584229 119
0.6145198941230774 2.1290550231933594 -0.5027658939361572 119
0.6030691862106323 2.088015079498291 -0.4146372079849243 119
0.6029602885246277 2.0862722396850586 -0.33789870142936707 44
0.6089969873428345 2.1057815551757812 -0.26445674896240234 44
0.6018729209899902 2.0797879695892334 -0.1860778033733368 44
0.5981317758560181 2.0655102729797363 -0.11032220721244812 44
0.5992057919502258 2.067868232727051 -0.03654305264353752 44
0.5997873544692993 2.0685245990753174 0.5664445161819458 44
0.601224958896637 2.0721302032470703 0.4888986349105835 44
0.6018784046173096 2.0730302333831787 0.4117773175239563 44
0.6045113205909729 2.080742597579956 0.3367447555065155 44
0.600853443145752 2.066805601119995 0.25958168506622314 44
0.6089502573013306 2.0932936668395996 0.18738484382629395 44
0.605196475982666 2.0790369510650635 0.11147557944059372 44
0.5992944836616516 2.0574235916137695 0.036737315356731415 44
0.5485475659370422 1.877103328704834 -0.5137560367584229 119
0.6219478845596313 2.126896858215332 -0.5027658939361572 119
0.6117324829101562 2.0906083583831787 -0.41559040546417236 119
0.6102390289306641 2.0841548442840576 -0.33789870142936707 44
0.6177391409873962 2.108405351638794 -0.26506611704826355 44
0.6105303764343262 2.082453966140747 -0.18651357293128967 44
0.6053381562232971 2.0634098052978516 -0.11032220721244812 44
0.6092366576194763 2.075357675552368 -0.03671583533287048 44
0.60972660779953 2.07568621635437 0.5690310001373291 44
0.6098284125328064 2.0746936798095703 0.49002256989479065 44
0.610495924949646 2.0756256580352783 0.41273054480552673 44
0.6145594716072083 2.088094711303711 0.33830738067626953 44
0.6108683943748474 2.074216842651367 0.2608003616333008 44
0.6176614761352539 2.095933198928833 0.18782062828540802 44
0.6152745485305786 2.0864903926849365 0.11199893802404404 44
0.6107171177864075 2.0697038173675537 0.03699909895658493 44
0.5564674139022827 1.8798080682754517 -0.5150501132011414 119
0.6293683648109436 2.1247129440307617 -0.5027658939361572 119
0.6204211711883545 2.093165874481201 -0.416543573141098 119
0.6189146637916565 2.0867466926574707 -0.3386808931827545 44
0.6265071034431458 2.1109938621520996 -0.26567548513412476 44
0.6220498085021973 2.094635009765625 -0.1878209114074707 44
0.6125370264053345 2.061284065246582 -0.11032220721244812 44
0.6207519173622131 2.0875937938690186 -0.03697500377893448 44
0.6211005449295044 2.087432861328125 0.572910726070404 44
0.6198471784591675 2.0818910598754883 0.4922703802585602 44
0.6205403804779053 2.0828897953033447 0.41463690996170044 44
0.6246663331985474 2.095402479171753 0.33987000584602356 44
0.6209421753883362 2.081583261489868 0.2620190680027008 44
0.626398503780365 2.098536968231201 0.1882563978433609 44
0.6254119277000427 2.093898296356201 0.11252229660749435 44
0.6236642599105835 2.086718797683716 0.037348147481679916 44
0.5630257725715637 1.8778542280197144 -0.5150501132011414 119
0.6367811560630798 2.1225030422210693 -0.5027658939361572 119
0.6319577693939209 2.105090618133545 -0.41940316557884216 0
0.63045734167099 2.0987625122070312 -0.3410274386405945 44
0.6367291808128357 2.1182994842529297 -0.2668941617012024 44
0.6322269439697266 2.1019904613494873 -0.18869248032569885 44
0.6283626556396484 2.0878214836120605 -0.11188706010580063 44
0.6323599815368652 2.0997750759124756 -0.03723417595028877 44
0.6325640678405762 2.099125623703003 0.5767905116081238 44
0.6299237012863159 2.0890438556671143 0.4945181906223297 44
0.6306429505348206 2.090109348297119 0.41654327511787415 44
0.6348316669464111 2.1026649475097656 0.3414326012134552 44
0.6310749053955078 2.0889041423797607 0.26323774456977844 44
0.6366026401519775 2.1058735847473145 0.18912795186042786 44
0.6356085538864136 2.1012611389160156 0.11304565519094467 44
0.6367375254631042 2.103668451309204 0.037697192281484604 44
0.5709804892539978 1.8804987668991089 -0.5163442492485046 119
0.6441861987113953 2.120267391204834 -0.5027658939361572 119
0.6421573758125305 2.1122641563415527 -0.42130953073501587 0
0.6406540870666504 2.1059982776641846 -0.3425917625427246 44
0.6484549641609192 2.1303067207336426 -0.26872220635414124 44
0.6439144611358643 2.114065647125244 -0.18999981880187988 44
0.6400137543678284 2.0999438762664795 -0.11266948282718658 44
0.645518958568573 2.116682291030884 -0.0375797376036644 44
0.6441165804862976 2.1107633113861084 0.5806702375411987 44
0.6414803862571716 2.100811243057251 0.4978898763656616 44
0.6408032774925232 2.097283124923706 0.41844967007637024 44
0.6450552940368652 2.109881639480591 0.34299522638320923 44
0.6412663459777832 2.096179962158203 0.26445645093917847 44
0.6468656063079834 2.1131644248962402 0.1899995356798172 44
0.6473265886306763 2.1133522987365723 0.11383070051670074 44
0.649936854839325 2.1205525398254395 0.03804624453186989 44
0.5789604783058167 1.883110523223877 -0.5176383256912231 119
0.6515834331512451 2.1180057525634766 -0.5027658939361572 119
0.6524147391319275 2.119391918182373 -0.42321592569351196 0
0.650908887386322 2.1131882667541504 -0.3441561162471771 44
0.6588107347488403 2.1375155448913574 -0.26994088292121887 44
0.6527578830718994 2.1165645122528076 -0.19043558835983276 44
0.6517571806907654 2.112010955810547 -0.11345191299915314 44
0.6573286056518555 2.128746271133423 -0.03783890977501869 44
0.6557580232620239 2.1223459243774414 0.5845500230789185 44
0.6516879200935364 2.1078686714172363 0.5001376867294312 44
0.6510214805603027 2.1044118404388428 0.42035603523254395 44
0.6553369164466858 2.1170523166656494 0.34455785155296326 44
0.6529844999313354 2.1081504821777344 0.2662844955921173 44
0.6571871638298035 2.1204090118408203 0.19087108969688416 44
0.6561786532402039 2.115849018096924 0.1140923872590065 44
0.655853271484375 2.1134963035583496 0.037958983331918716 44
0.5855302214622498 1.8810780048370361 -0.5176383256912231 119
0.6589726209640503 2.1157186031341553 -0.5027658939361572 119
0.6627296209335327 2.1264734268188477 -0.42512229084968567 0
0.6597515344619751 2.1156177520751953 -0.3449382781982422 44
0.6692245006561279 2.1446776390075684 -0.2711595892906189 44
0.6616266369819641 2.119027853012085 -0.19087137281894684 44
0.662103533744812 2.1192550659179688 -0.11397353559732437 44
0.6632635593414307 2.1216671466827393 -0.03775251656770706 44
0.6617204546928406 2.115434169769287 0.583256721496582 44
0.6604970693588257 2.1102306842803955 0.5012615919113159 44
0.6598302721977234 2.1068103313446045 0.421309232711792 44
0.6627227663993835 2.1147520542144775 0.34455785155296326 44
0.6618242859840393 2.110593557357788 0.2668938636779785 44
0.6660758852958679 2.122854471206665 0.19130685925483704 44
0.6650559306144714 2.118309497833252 0.11435405910015106 44
0.6617284417152405 2.106424331665039 0.037871718406677246 44
0.5935443043708801 1.8836289644241333 -0.5189324021339417 119
0.6663538813591003 2.113405466079712 -0.5027658939361572 119
0.6701483726501465 2.1241471767425537 -0.42512229084968567 0
0.6686191558837891 2.118011474609375 -0.34572046995162964 44
0.6782016158103943 2.1470611095428467 -0.2717689573764801 44
0.669019341468811 2.1167054176330566 -0.19087137281894684 44
0.6694970726966858 2.1169309616088867 -0.11397353559732437 44
0.6691573262214661 2.114572763442993 -0.03766612708568573 44
0.6676427125930786 2.1085071563720703 0.5819635391235352 44
0.6693305969238281 2.1125564575195312 0.5023854970932007 44
0.6671804189682007 2.104494094848633 0.421309232711792 44
0.6701006293296814 2.1124255657196045 0.34455785155296326 44
0.6691875457763672 2.1082706451416016 0.2668938636779785 44
0.6749897599220276 2.1252639293670654 0.1917426437139511 44
0.6724461913108826 2.1159749031066895 0.11435405910015106 44
0.6690772175788879 2.1041016578674316 0.037871718406677246 44
0.6001157760620117 1.8815456628799438 -0.5189324021339417 119
0.6737269759178162 2.1110663414001465 -0.5027658939361572 119
0.677558958530426 2.1217949390411377 -0.42512229084968567 0
0.6760082840919495 2.1156647205352783 -0.34572046995162964 44
0.6856921315193176 2.1446805000305176 -0.2717689573764801 44
0.6748862862586975 2.1096129417419434 -0.19043558835983276 44
0.6768825054168701 2.1145811080932617 -0.11397353559732437 44
0.6750094890594482 2.1074631214141846 -0.0375797376036644 44
0.6749987006187439 2.106163740158081 0.5819635391235352 44
0.6767007112503052 2.1102070808410645 0.5023854970932007 44
0.6745223999023438 2.1021525859832764 0.421309232711792 44
0.677470326423645 2.1100738048553467 0.34455785155296326 44
0.6765427589416504 2.105921745300293 0.2668938636779785 44
0.6824042201042175 2.122894763946533 0.1917426437139511 44
0.6782993674278259 2.1088616847991943 0.1140923872590065 44
0.6748862862586975 2.096994638442993 0.037784457206726074 44
0.6066799163818359 1.879439353942871 -0.5189324021339417 119
0.681091845035553 2.108701705932617 -0.5027658939361572 119
0.6849612593650818 2.1194169521331787 -0.42512229084968567 0
0.681869626045227 2.108592987060547 -0.3449382781982422 44
0.6916463971138 2.13755202293396 -0.2711595892906189 44
0.6807119250297546 2.102505683898926 -0.18999981880187988 44
0.6827207803726196 2.107455253601074 -0.11371272802352905 44
0.6808202862739563 2.1003384590148926 -0.03749334439635277 44
0.6808564066886902 2.099200487136841 0.5806702375411987 44
0.6840626001358032 2.107832193374634 0.5023854970932007 44
0.6803402304649353 2.0951168537139893 0.42035603523254395 44
0.6833056807518005 2.102999448776245 0.34377655386924744 44
0.6823552846908569 2.098827838897705 0.2662844955921173 44
0.6882694363594055 2.1157631874084473 0.19130685925483704 44
0.6841110587120056 2.1017329692840576 0.11383070051670074 44
0.6822021007537842 2.094625949859619 0.037784457206726074 44
0.6132367253303528 1.8773102760314941 -0.5189324021339417 119
0.6884484887123108 2.106311559677124 -0.5027658939361572 119
0.692355215549469 2.1170129776000977 -0.42512229084968567 0
0.6892258524894714 2.1061999797821045 -0.3449382781982422 44
0.6975594162940979 2.130408525466919 -0.2705502510070801 44
0.6880468726158142 2.100116729736328 -0.18999981880187988 44
0.6900730133056641 2.1050593852996826 -0.11371272802352905 44
0.6881476640701294 2.0979490280151367 -0.03749334439635277 44
0.6881798505783081 2.096811056137085 0.5806702375411987 44
0.6898961067199707 2.1008028984069824 0.5012615919113159 44
0.6876494288444519 2.092729330062866 0.42035603523254395 44
0.6906422972679138 2.1006014347076416 0.34377655386924744 44
0.689677357673645 2.096433162689209 0.2662844955921173 44
0.6956506371498108 2.1133477687835693 0.19130685925483704 44
0.6914433240890503 2.099332332611084 0.11383070051670074 44
0.6879447102546692 2.0874836444854736 0.037697192281484604 44
0.6182703971862793 1.8705726861953735 -0.5176383256912231 119
0.6957966685295105 2.103895664215088 -0.5027658939361572 119
0.6997407674789429 2.1145832538604736 -0.42512229084968567 0
0.6965736746788025 2.1037814617156982 -0.3449382781982422 44
0.7034309506416321 2.1232495307922363 -0.26994088292121887 44
0.6938060522079468 2.0929739475250244 -0.1895640343427658 44
0.6958448886871338 2.097898483276367 -0.11345191299915314 44
0.6938920021057129 2.090789556503296 -0.037406954914331436 44
0.6939727067947388 2.0898122787475586 0.5793769955635071 44
0.6972250938415527 2.098381996154785 0.5012615919113159 44
0.6934017539024353 2.0856587886810303 0.4194028675556183 44
0.6979706287384033 2.098177671432495 0.34377655386924744 44
0.6954237818717957 2.0893044471740723 0.2656751573085785 44
0.7014495730400085 2.1061809062957764 0.19087108969688416 44
0.6971884965896606 2.0921685695648193 0.11356901377439499 44
0.6936458945274353 2.080327033996582 0.03760993480682373 44
0.6263277530670166 1.8729833364486694 -0.5189324021339417 119
0.7031363844871521 2.101454019546509 -0.5027658939361572 119
0.7086759805679321 2.1167821884155273 -0.42607545852661133 0
0.7039130330085754 2.10133695602417 -0.3449382781982422 44
0.710838258266449 2.120781421661377 -0.26994088292121887 44
0.7011076807975769 2.0905394554138184 -0.1895640343427658 44
0.7015750408172607 2.0907225608825684 -0.11319109797477722 44
0.7011860013008118 2.0883545875549316 -0.037406954914331436 44
0.7012632489204407 2.0873773097991943 0.5793769955635071 44
0.7029931545257568 2.0913171768188477 0.5001376867294312 44
0.7006778717041016 2.083225727081299 0.4194028675556183 44
0.7052903771400452 2.095728635787964 0.34377655386924744 44
0.7027125954627991 2.0868642330169678 0.2656751573085785 44
0.7087972164154053 2.103719711303711 0.19087108969688416 44
0.7044873237609863 2.089722156524658 0.11356901377439499 44
0.699305534362793 2.0731561183929443 0.03752266988158226 44
0.6359571814537048 1.879935622215271 -0.5215205550193787 119
0.710467517375946 2.098986864089966 -0.5027658939361572 119
0.7160606384277344 2.114295721054077 -0.42607545852661133 0
0.711243748664856 2.098867177963257 -0.3449382781982422 44
0.7182367444038391 2.1182870864868164 -0.26994088292121887 44
0.7084007263183594 2.0880794525146484 -0.1895640343427658 44
0.7088688015937805 2.0882608890533447 -0.11319109797477722 44
0.708471417427063 2.0858943462371826 -0.037406954914331436 44
0.7085453271865845 2.084916591644287 0.5793769955635071 44
0.710288941860199 2.088850498199463 0.5001376867294312 44
0.7079454064369202 2.0807671546936035 0.4194028675556183 44
0.7126015424728394 2.0932540893554688 0.34377655386924744 44
0.7099928855895996 2.0843985080718994 0.2656751573085785 44
0.7161362767219543 2.1012325286865234 0.19087108969688416 44
0.7117775082588196 2.0872504711151123 0.11356901377439499 44
0.7081522941589355 2.0754337310791016 0.03760993480682373 44
0.6456426978111267 1.8868430852890015 -0.5241087675094604 119
0.7193681597709656 2.1011033058166504 -0.5038906931877136 119
0.7250272631645203 2.116426706314087 -0.4270286560058594 0
0.7201671600341797 2.101043462753296 -0.34572046995162964 44
0.7256266474723816 2.115767002105713 -0.26994088292121887 44
0.7173020243644714 2.0903053283691406 -0.18999981880187988 44
0.7161538600921631 2.0857739448547363 -0.11319109797477722 44
0.7173725366592407 2.0881364345550537 -0.03749334439635277 44
0.7158187627792358 2.082430601119995 0.5793769955635071 44
0.7175760865211487 2.0863585472106934 0.5001376867294312 44
0.7168014049530029 2.0829241275787354 0.42035603523254395 44
0.7215117812156677 2.0954229831695557 0.34455785155296326 44
0.7172644138336182 2.081907272338867 0.2656751573085785 44
0.7234665751457214 2.098720073699951 0.19087108969688416 44
0.7206871509552002 2.0894737243652344 0.11383070051670074 44
0.7170234322547913 2.0776751041412354 0.037697192281484604 44
0.6553841233253479 1.8937060832977295 -0.5266969799995422 119
0.7266980409622192 2.0985796451568604 -0.5038906931877136 119
0.7340174317359924 2.118520736694336 -0.42798182368278503 0
0.729114294052124 2.103182554244995 -0.3465026021003723 44
0.7346339821815491 2.1179099082946777 -0.2705502510070801 44
0.7262272238731384 2.092494249343872 -0.19043558835983276 44
0.7250682711601257 2.0879783630371094 -0.11345191299915314 44
0.726297914981842 2.0903420448303223 -0.0375797376036644 44
0.7230834364891052 2.0799193382263184 0.5793769955635071 44
0.7248544096946716 2.08384108543396 0.5001376867294312 44
0.7256811857223511 2.085045099258423 0.421309232711792 44
0.7288217544555664 2.0928916931152344 0.34455785155296326 44
0.7245272397994995 2.0793910026550293 0.2656751573085785 44
0.7324276566505432 2.1008851528167725 0.19130685925483704 44
0.727976381778717 2.0869452953338623 0.11383070051670074 44
0.7259190082550049 2.0798795223236084 0.037784457206726074 44
0.6635859608650208 1.8959654569625854 -0.5279910564422607 119
0.735629141330719 2.100627899169922 -0.5050153732299805 119
0.7414079904556274 2.115945816040039 -0.42798182368278503 0
0.7364513874053955 2.1006247997283936 -0.3465026021003723 44
0.7420223355293274 2.11533260345459 -0.2705502510070801 44
0.7351765632629395 2.094646453857422 -0.19087137281894684 44
0.7323522567749023 2.085434675216675 -0.11345191299915314 44
0.7335901260375977 2.087794065475464 -0.0375797376036644 44
0.7319411635398865 2.081939220428467 0.5806702375411987 44
0.7337406873703003 2.0858941078186035 0.5012615919113159 44
0.7329549789428711 2.0824990272521973 0.421309232711792 44
0.7377634048461914 2.0949933528900146 0.34533917903900146 44
0.7334305047988892 2.0815298557281494 0.2662844955921173 44
0.741412878036499 2.103013277053833 0.1917426437139511 44
0.7369178533554077 2.0891003608703613 0.1140923872590065 44
0.7331746816635132 2.0773329734802246 0.037784457206726074 44
0.6718112826347351 1.8981901407241821 -0.5292851328849792 119
0.7413311004638672 2.0934550762176514 -0.5038906931877136 119
0.7504287362098694 2.117971420288086 -0.42893505096435547 0
0.745429515838623 2.102695941925049 -0.34728479385375977 44
0.7510607242584229 2.1174068450927734 -0.2711595892906189 44
0.7424837946891785 2.0920674800872803 -0.19087137281894684 44
0.7396273612976074 2.0828654766082764 -0.11345191299915314 44
0.7425471544265747 2.0899314880371094 -0.03766612708568573 44
0.7392040491104126 2.079371452331543 0.5806702375411987 44
0.742650032043457 2.0879104137420654 0.5023854970932007 44
0.7418654561042786 2.08455228805542 0.42226240038871765 44
0.7450717687606812 2.092405319213867 0.34533917903900146 44
0.7406919002532959 2.0789570808410645 0.2662844955921173 44
0.7487492561340332 2.100412607192993 0.1917426437139511 44
0.7458829879760742 2.0912179946899414 0.11435405910015106 44
0.7421017289161682 2.0794694423675537 0.037871718406677246 44
0.6702969670295715 1.873097538948059 -0.5228146910667419 119
0.7469916939735413 2.0862677097320557 -0.5027658939361572 119
0.757817268371582 2.1153390407562256 -0.42893505096435547 0
0.7527647614479065 2.100080966949463 -0.34728479385375977 44
0.7584472894668579 2.114772319793701 -0.2711595892906189 44
0.7514642477035522 2.094151020050049 -0.19130714237689972 44
0.7468934059143066 2.080271005630493 -0.11345191299915314 44
0.7498379349708557 2.087326765060425 -0.03766612708568573 44
0.7480915784835815 2.0813236236572266 0.5819635391235352 44
0.7515825033187866 2.0898900032043457 0.5035094022750854 44
0.7491374015808105 2.0819499492645264 0.42226240038871765 44
0.752371072769165 2.089791774749756 0.34533917903900146 44
0.7496262192726135 2.0810279846191406 0.2668938636779785 44
0.7560765147209167 2.0977861881256104 0.1917426437139511 44
0.7531781792640686 2.088601589202881 0.11435405910015106 44
0.7493559122085571 2.076866388320923 0.037871718406677246 44
0.6784743070602417 1.8752877712249756 -0.5241087675094604 119
0.7542695999145508 2.0836474895477295 -0.5027658939361572 119
0.7651965618133545 2.1126809120178223 -0.42893505096435547 0
0.7617733478546143 2.102083444595337 -0.34806695580482483 44
0.765824556350708 2.112111806869507 -0.2711595892906189 44
0.7587696313858032 2.091515302658081 -0.19130714237689972 44
0.7541503310203552 2.077651262283325 -0.11345191299915314 44
0.7571194767951965 2.0846965312957764 -0.03766612708568573 44
0.7553521990776062 2.0786995887756348 0.5819635391235352 44
0.7605376839637756 2.091832399368286 0.5046333074569702 44
0.7580781579017639 2.083934783935547 0.4232156276702881 44
0.7613502740859985 2.0917932987213135 0.3461204767227173 44
0.7568857669830322 2.0783984661102295 0.2668938636779785 44
0.7650997042655945 2.099813938140869 0.192178413271904 44
0.7621743679046631 2.090651035308838 0.11461574584245682 44
0.7566009759902954 2.0742380619049072 0.037871718406677246 44
0.6684265732765198 1.8275504112243652 -0.5111678242683411 119
0.759864091873169 2.0764269828796387 -0.5016411542892456 119
0.772566556930542 2.109996795654297 -0.42893505096435547 0
0.7691063284873962 2.0994114875793457 -0.34806695580482483 44
0.7749006152153015 2.1140854358673096 -0.2717689573764801 44
0.7660657167434692 2.0888540744781494 -0.19130714237689972 44
0.7613980770111084 2.0750060081481934 -0.11345191299915314 44
0.7661147117614746 2.086733818054199 -0.03775251656770706 44
0.7642688751220703 2.0805838108062744 0.583256721496582 44
0.7695155739784241 2.093737840652466 0.505757212638855 44
0.7653477787971497 2.0812759399414062 0.4232156276702881 44
0.7669420838356018 2.0844883918762207 0.34533917903900146 44
0.7641361355781555 2.0757439136505127 0.2668938636779785 44
0.774146318435669 2.101804494857788 0.19261419773101807 44
0.7694674730300903 2.087977647781372 0.11461574584245682 44
0.7638367414474487 2.0715842247009277 0.037871718406677246 44
0.6898748278617859 1.8659756183624268 -0.5228146910667419 119
0.7671075463294983 2.0737619400024414 -0.5016411542892456 119
0.7816306948661804 2.1118903160095215 -0.42988821864128113 0
0.7781450152397156 2.1013453006744385 -0.3488491475582123 44
0.782275378704071 2.111367702484131 -0.2717689573764801 44
0.7733525633811951 2.086167097091675 -0.19130714237689972 44
0.7669001221656799 2.0676538944244385 -0.11319109797477722 44
0.7733941078186035 2.0840470790863037 -0.03775251656770706 44
0.7715268731117249 2.0779032707214355 0.583256721496582 44
0.7785161137580872 2.0956060886383057 0.5068811178207397 44
0.7743182182312012 2.0831923484802246 0.42416879534721375 44
0.7742136716842651 2.081798553466797 0.34533917903900146 44
0.7713771462440491 2.073063850402832 0.2668938636779785 44
0.7814782857894897 2.0990893840789795 0.19261419773101807 44
0.778494119644165 2.0899581909179688 0.11487741768360138 44
0.7728092074394226 2.073590040206909 0.037958983331918716 44
0.7119317650794983 1.9041486978530884 -0.5344615578651428 119
0.7764100432395935 2.0754992961883545 -0.5027658939361572 119
0.7893658876419067 2.109011173248291 -0.42988821864128113 0
0.7858415246009827 2.0984792709350586 -0.3488491475582123 44
0.7900086641311646 2.1084864139556885 -0.2717689573764801 44
0.7809935212135315 2.0833187103271484 -0.19130714237689972 44
0.7762269377708435 2.069504737854004 -0.11345191299915314 44
0.7810273170471191 2.081198215484619 -0.03775251656770706 44
0.7808354496955872 2.0795834064483643 0.5845500230789185 44
0.7827648520469666 2.0836169719696045 0.5046333074569702 44
0.7836752533912659 2.084934949874878 0.4251219928264618 44
0.7801001667976379 2.074324131011963 0.34455785155296326 44
0.7807178497314453 2.0748674869537354 0.26750320196151733 44
0.7909214496612549 2.10087251663208 0.19304996728897095 44
0.7861489653587341 2.0870909690856934 0.11487741768360138 44
0.7821671962738037 2.0754218101501465 0.03804624453186989 44
0.7219884395599365 1.9106875658035278 -0.5370497703552246 119
0.787095844745636 2.08189058303833 -0.5050153732299805 119
0.796722948551178 2.1062428951263428 -0.42988821864128113 0
0.7931618094444275 2.0957233905792236 -0.3488491475582123 44
0.797363817691803 2.105715751647949 -0.2717689573764801 44
0.7900256514549255 2.085237741470337 -0.191742941737175 44
0.7852159142494202 2.071451425552368 -0.11371272802352905 44
0.7882872819900513 2.0784592628479004 -0.03775251656770706 44
0.7880897521972656 2.076845169067383 0.5845500230789185 44
0.7986798286437988 2.1036462783813477 0.510252833366394 44
0.792691171169281 2.086775064468384 0.42607516050338745 44
nan nan nan 0
0.7879557013511658 2.072129487991333 0.26750320196151733 44
0.8000213503837585 2.1027543544769287 0.19348575174808502 44
0.7952058911323547 2.0890004634857178 0.11513910442590714 44
0.7894132733345032 2.072676420211792 0.03804624453186989 44
0.7183160185813904 1.8810844421386719 -0.5292851328849792 119
0.7960970401763916 2.083681583404541 -0.5061401724815369 119
0.804070234298706 2.1034491062164307 -0.42988821864128113 0
0.8022365570068359 2.0975544452667236 -0.34963130950927734 44
0.8047093749046326 2.102919816970825 -0.2717689573764801 44
0.7990806698799133 2.0871191024780273 -0.19217871129512787 44
0.7942280173301697 2.0733606815338135 -0.11397353559732437 44
0.7955377101898193 2.075695037841797 -0.03775251656770706 44
0.7970637083053589 2.0785911083221436 0.5858432650566101 44
0.7850757837295532 2.046260356903076 0.49676600098609924 44
0.8017296195030212 2.0885777473449707 0.4270283579826355 44
0.8034157752990723 2.091878890991211 0.3484644293785095 44
0.796964168548584 2.0739991664886475 0.26811254024505615 44
0.8073564767837524 2.0999491214752197 0.19348575174808502 44
0.8024929761886597 2.086211919784546 0.11513910442590714 44
0.7984327673912048 2.074575901031494 0.03813350573182106 44
0.7196620106697083 1.8650482892990112 -0.5254029035568237 119
0.8051201701164246 2.085434675216675 -0.5072649121284485 119
0.811407744884491 2.1006293296813965 -0.42988821864128113 0
0.8095534443855286 2.0947413444519043 -0.34963130950927734 44
0.8138347864151001 2.104726552963257 -0.27237826585769653 44
0.8081583976745605 2.0889625549316406 -0.19261449575424194 44
0.805065393447876 2.0798888206481934 -0.11449515074491501 44
0.8045838475227356 2.0775675773620605 -0.03783890977501869 44
0.8060595393180847 2.0802996158599854 0.5871365070343018 44
0.8168685436248779 2.1071043014526367 0.5125006437301636 44
0.8107900619506836 2.0903422832489014 0.42798152565956116 44
nan nan nan 0
0.8041989207267761 2.071204662322998 0.26811254024505615 44
0.8164853453636169 2.1017608642578125 0.1939215213060379 44
0.8115792274475098 2.0880517959594727 0.1154007762670517 44
0.8056694865226746 2.0717763900756836 0.03813350573182106 44
0.7121328711509705 1.8265269994735718 -0.5150501132011414 119
0.8123947978019714 2.082611560821533 -0.5072649121284485 119
0.8205199837684631 2.1023569107055664 -0.4308414161205292 0
0.8186569213867188 2.0965030193328857 -0.3504135012626648 44
0.8211766481399536 2.1018729209899902 -0.27237826585769653 44
0.8154453039169312 2.0861287117004395 -0.19261449575424194 44
0.8123206496238708 2.077065944671631 -0.11449515074491501 44
0.811830997467041 2.0747461318969727 -0.03783890977501869 44
0.8150769472122192 2.0819709300994873 0.5884297490119934 44
0.8153342604637146 2.0815577507019043 0.5068811178207397 44
0.8198728561401367 2.092069625854492 0.4289347529411316 44
0.8180001378059387 2.086219072341919 0.3484644293785095 44
0.8132361769676208 2.0730044841766357 0.26872187852859497 44
0.8238168954849243 2.098897933959961 0.1939215213060379 44
0.8188628554344177 2.0852062702178955 0.1154007762670517 44
0.8147246241569519 2.0736045837402344 0.03822077065706253 44
0.7238144874572754 1.8375107049942017 -0.5189324021339417 119
0.8214459419250488 2.0842957496643066 -0.5083897113800049 119
0.8278536200523376 2.099480152130127 -0.4308414161205292 0
0.8259701132774353 2.093632698059082 -0.3504135012626648 44
0.8303306102752686 2.103609800338745 -0.27298763394355774 44
0.8245518207550049 2.087902307510376 -0.19305026531219482 44
0.819566011428833 2.0742177963256836 -0.11449515074491501 44
0.8209061622619629 2.0765488147735596 -0.037925295531749725 44
0.8258923292160034 2.0880959033966064 0.5910162329673767 44
nan nan nan 0
0.8289773464202881 2.0937585830688477 0.42988792061805725 44
nan nan nan 0
0.8204673528671265 2.07015323638916 0.26872187852859497 44
0.8329744338989258 2.100639820098877 0.19435730576515198 44
0.8261366486549377 2.0823352336883545 0.1154007762670517 44
0.8219579458236694 2.0707478523254395 0.03822077065706253 44
0.7334738373756409 1.8440757989883423 -0.5215205550193787 119
0.8279898762702942 2.08170485496521 -0.5083897113800049 119
0.8344452381134033 2.0968689918518066 -0.4308414161205292 0
0.8325433731079102 2.0910274982452393 -0.3504135012626648 44
0.8369352221488953 2.1009910106658936 -0.27298763394355774 44
0.8311070203781128 2.085301637649536 -0.19305026531219482 44
0.8260782957077026 2.0716328620910645 -0.11449515074491501 44
0.8274257779121399 2.0739595890045166 -0.037925295531749725 44
0.8342386484146118 2.0899765491485596 0.5923095345497131 44
0.8399633169174194 2.1032519340515137 0.5136245489120483 44
0.8373721241950989 2.0957016944885254 0.4308411180973053 44
0.8446509838104248 2.1128480434417725 0.35393357276916504 44
0.8269668817520142 2.067565441131592 0.26872187852859497 44
0.8395697474479675 2.098012685775757 0.19435730576515198 44
0.8326744437217712 2.0797295570373535 0.1154007762670517 44
0.8284592628479004 2.068155527114868 0.03822077065706253 44
0.734185516834259 1.828188180923462 -0.5176383256912231 119
0.8370676040649414 2.083322286605835 -0.5095144510269165 119
0.843590259552002 2.098497152328491 -0.43179458379745483 0
0.8416799902915955 2.0926899909973145 -0.35119566321372986 44
0.8461165428161621 2.102660655975342 -0.27359697222709656 44
0.8402413129806519 2.087008476257324 -0.1934860497713089 44
0.835170328617096 2.0733680725097656 -0.11475596576929092 44
0.8346602320671082 2.071058750152588 -0.037925295531749725 44
0.8433350324630737 2.0915310382843018 0.59360271692276 44
nan nan nan 0
0.8428453207015991 2.08821439743042 0.42988792061805725 44
0.8427749276161194 2.0869903564453125 0.35002702474594116 44
0.8341789841651917 2.064666271209717 0.26872187852859497 44
0.84688800573349 2.095069169998169 0.19435730576515198 44
0.8418010473251343 2.081439256668091 0.11566246300935745 44
0.835673451423645 2.065251111984253 0.03822077065706253 44
nan nan nan 0
0.8446977734565735 2.080240488052368 -0.5095144510269165 119
0.8512759208679199 2.095391273498535 -0.43179458379745483 0
0.8493444323539734 2.0895910263061523 -0.35119566321372986 44
0.8538174629211426 2.0995452404022217 -0.27359697222709656 44
0.8478849530220032 2.0839147567749023 -0.1934860497713089 44
0.8427639007568359 2.0702931880950928 -0.11475596576929092 44
0.8441311120986938 2.0726158618927 -0.038011688739061356 44
0.8528178930282593 2.0928990840911865 0.5948960185050964 44
0.8752242922782898 2.1468141078948975 0.5259875059127808 44
0.8504933714866638 2.085111379623413 0.42988792061805725 44
0.848552405834198 2.079315185546875 0.34924569725990295 44
0.8436167240142822 2.0661895275115967 0.2693312466144562 44
