# .PCD v0.7 - Point Cloud Data file format
VERSION 0.7
FIELDS x y z intensity
SIZE 4 4 4 4
TYPE F F F F
COUNT 1 1 1 1
WIDTH 791
HEIGHT 1
VIEWPOINT 0 0 0 1 0 0 0
POINTS 791
DATA ascii
1.7404472827911377 1.9000310897827148 0.40159350633621216 44
1.7324020862579346 1.8905856609344482 0.31015744805336 44
1.7423723936080933 1.900800108909607 0.2222471386194229 44
1.7334016561508179 1.8903512954711914 0.1324099600315094 44
1.7290562391281128 1.8849518299102783 0.04398006200790405 44
1.3199366331100464 1.4364266395568848 -0.5124619007110596 119
1.5194319486618042 1.6529490947723389 -0.5095144510269165 119
1.7402031421661377 1.892457127571106 -0.4918454885482788 119
1.7410321235656738 1.8926955461502075 -0.4012547433376312 0
1.7598810195922852 1.9125163555145264 -0.31442326307296753 44
1.7497227191925049 1.9008110761642456 -0.22268325090408325 44
1.7373727560043335 1.8867337703704834 -0.1319693624973297 44
1.7397797107696533 1.888685941696167 -0.043713439255952835 44
1.7474828958511353 1.8963841199874878 0.6802506446838379 44
1.7463449239730835 1.8944857120513916 0.5855544805526733 44
1.7428438663482666 1.8900256156921387 0.49184516072273254 44
1.7504175901412964 1.8975741863250732 0.40237483382225037 44
1.7423564195632935 1.8881739377975464 0.3107668161392212 44
1.7523752450942993 1.8983663320541382 0.2226829081773758 44
1.7433770895004272 1.8879573345184326 0.13267163932323456 44
1.7390176057815552 1.8825769424438477 0.044067323207855225 44
1.3315030336380005 1.438900113105774 -0.5150501132011414 119
1.528502106666565 1.6512106657028198 -0.5106391906738281 119
1.7568031549453735 1.8971753120422363 -0.49470508098602295 119
1.7509841918945312 1.89022958278656 -0.4020369052886963 0
1.7699192762374878 1.9100017547607422 -0.31503260135650635 44
1.7597333192825317 1.898344874382019 -0.22311905026435852 44
1.7473430633544922 1.8843189477920532 -0.13223016262054443 44
1.749761700630188 1.8862667083740234 -0.04379982873797417 44
1.7573773860931396 1.8938133716583252 0.6815439462661743 44
1.756261944770813 1.8919490575790405 0.5866783857345581 44
1.7527706623077393 1.8875272274017334 0.4927983582019806 44
1.7603918313980103 1.8950709104537964 0.4031561315059662 44
1.7523150444030762 1.8857159614562988 0.31137615442276 44
1.7623822689056396 1.8958860635757446 0.22311870753765106 44
1.75335693359375 1.8855170011520386 0.13293331861495972 44
1.7489835023880005 1.8801556825637817 0.044154584407806396 44
1.3398103713989258 1.4377769231796265 -0.5163442492485046 119
1.5342566967010498 1.6458650827407837 -0.5106391906738281 119
1.7801519632339478 1.9089797735214233 -0.4994710087776184 0
1.7643089294433594 1.8913280963897705 -0.4036012589931488 0
1.7799615859985352 1.907440185546875 -0.31564193964004517 44
1.7697482109069824 1.8958319425582886 -0.2235548347234726 44
1.7573180198669434 1.8818575143814087 -0.13249097764492035 44
1.759748101234436 1.883800745010376 -0.0438862219452858 44
1.7672747373580933 1.8911962509155273 0.682837188243866 44
1.7695093154907227 1.8929251432418823 0.5889261960983276 44
1.7627009153366089 1.8849822282791138 0.49375152587890625 44
1.773743748664856 1.8961275815963745 0.4047187566757202 44
1.765668511390686 1.8868350982666016 0.31259486079216003 44
1.7757976055145264 1.8969954252243042 0.22399026155471802 44
1.763340950012207 1.8830296993255615 0.13319499790668488 44
1.7623714208602905 1.8813362121582031 0.04432911053299904 44
1.3481258153915405 1.4366132020950317 -0.5176383256912231 119
1.5433266162872314 1.644051432609558 -0.5117639303207397 119
1.7868046760559082 1.902754306793213 -0.4994710087776184 0
1.7742815017700195 1.888757586479187 -0.40438342094421387 0
1.7900075912475586 1.9048320055007935 -0.31625130772590637 44
1.77976655960083 1.893271803855896 -0.22399060428142548 44
1.7707175016403198 1.8829870223999023 -0.133012592792511 44
1.7697384357452393 1.881287693977356 -0.04397260770201683 44
1.7771754264831543 1.888533115386963 0.6841304302215576 44
1.779445767402649 1.890284538269043 0.5900501012802124 44
1.7726352214813232 1.882391333580017 0.4947047531604767 44
1.7837380170822144 1.8935192823410034 0.4055000841617584 44
1.775647521018982 1.8842718601226807 0.31320419907569885 44
1.785825252532959 1.8944096565246582 0.2244260460138321 44
1.7733289003372192 1.8804957866668701 0.13345667719841003 44
1.7723580598831177 1.8788092136383057 0.04441636800765991 44
1.3531322479248047 1.431898593902588 -0.5176383256912231 119
1.549056053161621 1.638654112815857 -0.5117639303207397 119
1.7934356927871704 1.89650559425354 -0.4994710087776184 0
1.7842572927474976 1.88614022731781 -0.40516558289527893 0
1.8000565767288208 1.9021764993667603 -0.3168606460094452 44
1.789788842201233 1.890665054321289 -0.22442638874053955 44
1.780712604522705 1.8804199695587158 -0.1332733929157257 44
1.7797327041625977 1.8787281513214111 -0.04405900090932846 44
1.787079095840454 1.8858238458633423 0.6854236721992493 44
1.7893850803375244 1.8875973224639893 0.5911740064620972 44
1.7859498262405396 1.883315086364746 0.4966111183166504 44
1.7937355041503906 1.8908640146255493 0.40628135204315186 44
1.7856303453445435 1.8816622495651245 0.31381356716156006 44
1.7958563566207886 1.8917768001556396 0.22486181557178497 44
1.7833203077316284 1.8779147863388062 0.1337183564901352 44
1.7823487520217896 1.8762356042861938 0.04450363293290138 44
1.3581223487854004 1.42716646194458 -0.5176383256912231 119
1.5581259727478027 1.636765718460083 -0.5128887295722961 119
1.8000448942184448 1.8902337551116943 -0.4994710087776184 119
1.794236660003662 1.8834762573242188 -0.4059477746486664 0
1.810109257698059 1.8994743824005127 -0.3174700140953064 44
1.799814224243164 1.8880113363265991 -0.22486215829849243 44
1.7907116413116455 1.8778061866760254 -0.13353420794010162 44
1.793181300163269 1.8797388076782227 -0.044231779873371124 44
1.800319790840149 1.886562705039978 0.6880101561546326 44
1.7993272542953491 1.8848638534545898 0.5922979116439819 44
1.7959028482437134 1.8806192874908447 0.49756428599357605 44
1.8037364482879639 1.88816237449646 0.40706270933151245 44
1.7956163883209229 1.8790055513381958 0.3144228756427765 44
1.8058909177780151 1.8890970945358276 0.22529760003089905 44
1.796766757965088 1.8788961172103882 0.1342417299747467 44
1.7923429012298584 1.8736151456832886 0.044590894132852554 44
1.363095760345459 1.4224170446395874 -0.5176383256912231 119
1.567201018333435 1.634833574295044 -0.5140134692192078 119
1.8032349348068237 1.8803964853286743 -0.49851784110069275 119
1.8076375722885132 1.8843291997909546 -0.4075121283531189 0
1.820164680480957 1.8967249393463135 -0.3180793225765228 44
1.8132927417755127 1.8889038562774658 -0.2257337123155594 44
1.800714135169983 1.875145673751831 -0.13379502296447754 44
1.8031952381134033 1.8770732879638672 -0.044318173080682755 44
1.8102407455444336 1.8837494850158691 0.689303457736969 44
1.8092721700668335 1.8820838928222656 0.5934218168258667 44
1.8058586120605469 1.8778767585754395 0.4985174834728241 44
1.8137400150299072 1.885413646697998 0.4078439772129059 44
1.8056055307388306 1.8763021230697632 0.3150322437286377 44
1.819382905960083 1.8899587392807007 0.226169154047966 44
1.806777834892273 1.8762092590332031 0.13450339436531067 44
1.8023406267166138 1.8709477186203003 0.044678159058094025 44
1.3680527210235596 1.4176503419876099 -0.5176383256912231 119
1.576282024383545 1.632858395576477 -0.5151382088661194 119
1.8097877502441406 1.874090552330017 -0.49851784110069275 119
1.8176352977752686 1.8815594911575317 -0.40829429030418396 0
1.8336716890335083 1.8974971771240234 -0.31929802894592285 44
1.823337197303772 1.8861440420150757 -0.22616951167583466 44
1.810719609260559 1.8724377155303955 -0.13405582308769226 44
1.813212275505066 1.8743606805801392 -0.044404562562704086 44
1.8201639652252197 1.8808897733688354 0.6905966401100159 44
1.8192195892333984 1.879257321357727 0.5945457220077515 44
1.8158173561096191 1.8750877380371094 0.49947065114974976 44
1.8271827697753906 1.8861653804779053 0.4094066023826599 44
1.815597653388977 1.8735517263412476 0.3156415820121765 44
1.8294358253479004 1.887172818183899 0.22660492360591888 44
1.8167921304702759 1.873475432395935 0.13476508855819702 44
1.812341570854187 1.8682334423065186 0.0447654202580452 44
1.3696269989013672 1.4094027280807495 -0.5163442492485046 119
1.5819721221923828 1.627346158027649 -0.5151382088661194 119
1.8163185119628906 1.8677618503570557 -0.49851784110069275 119
1.827635645866394 1.8787434101104736 -0.4090764820575714 0
1.843745231628418 1.894641637802124 -0.31990739703178406 44
1.8333841562271118 1.8833369016647339 -0.22660528123378754 44
1.8207283020019531 1.8696831464767456 -0.13431663811206818 44
1.8232325315475464 1.8716009855270386 -0.04449095204472542 44
1.8334600925445557 1.881442666053772 0.693183183670044 44
1.832570195198059 1.8798731565475464 0.596793532371521 44
1.8257783651351929 1.8722518682479858 0.5004238486289978 44
1.837204098701477 1.8833109140396118 0.4101879298686981 44
1.8255926370620728 1.8707547187805176 0.3162509500980377 44
1.8394917249679565 1.8843395709991455 0.22704072296619415 44
1.8268091678619385 1.870694637298584 0.13502676784992218 44
1.8258384466171265 1.8690478801727295 0.04493994638323784 44
1.3745384216308594 1.4046132564544678 -0.5163442492485046 119
1.5842347145080566 1.6183325052261353 -0.5140134692192078 119
1.8228272199630737 1.8614102602005005 -0.49851784110069275 119
1.8376383781433105 1.8758800029754639 -0.4098586142063141 0
1.85382080078125 1.8917385339736938 -0.3205167353153229 44
1.8434339761734009 1.8804826736450195 -0.2270410656929016 44
1.8307394981384277 1.8668811321258545 -0.1345774382352829 44
1.8367564678192139 1.8723629713058472 -0.04466373473405838 44
1.8433992862701416 1.8784786462783813 0.6944764256477356 44
1.842533826828003 1.876941442489624 0.597917377948761 44
1.835741400718689 1.8693692684173584 0.5013770461082458 44
1.8472278118133545 1.8804093599319458 0.41096922755241394 44
1.83558988571167 1.8679102659225464 0.31686028838157654 44
1.8495497703552246 1.8814589977264404 0.22747647762298584 44
1.840329885482788 1.8714267015457153 0.1355501264333725 44
1.8358575105667114 1.8662267923355103 0.04502720385789871 44
1.3760429620742798 1.3963665962219238 -0.5150501132011414 119
1.586454153060913 1.6093233823776245 -0.5128887295722961 119
1.8293136358261108 1.8550360202789307 -0.49851784110069275 119
1.8476436138153076 1.8729698657989502 -0.41064080595970154 0
1.8638988733291626 1.8887884616851807 -0.3211260735988617 44
1.8534860610961914 1.877581000328064 -0.2274768352508545 44
1.8442620038986206 1.8675849437713623 -0.13509906828403473 44
1.8467942476272583 1.8694965839385986 -0.04475012049078941 44
1.8533401489257812 1.8754682540893555 0.695769727230072 44
1.8524996042251587 1.8739631175994873 0.5990413427352905 44
1.8457070589065552 1.8664401769638062 0.5023302435874939 44
1.8572535514831543 1.8774609565734863 0.41175055503845215 44
1.8455897569656372 1.8650192022323608 0.31746962666511536 44
1.8596103191375732 1.8785313367843628 0.2279122769832611 44
1.8503645658493042 1.8685392141342163 0.13581180572509766 44
1.8493973016738892 1.866910457611084 0.045201729983091354 44
1.3775070905685425 1.3881267309188843 -0.5137560367584229 119
1.592061996459961 1.6037758588790894 -0.5128887295722961 119
1.8392361402511597 1.8521219491958618 -0.4994710087776184 119
1.8576502799987793 1.8700121641159058 -0.4114229679107666 0
1.8774769306182861 1.8893110752105713 -0.3223447799682617 44
1.8635406494140625 1.8746323585510254 -0.22791261970996857 44
1.8542908430099487 1.8646767139434814 -0.13535988330841064 44
1.8603601455688477 1.8701269626617432 -0.044922903180122375 44
1.863282322883606 1.872410774230957 0.6970629692077637 44
1.8624669313430786 1.8709381818771362 0.6001651883125305 44
1.8556740283966064 1.8634638786315918 0.5032833814620972 44
1.8707666397094727 1.8779641389846802 0.4133131802082062 44
1.8590947389602661 1.865596055984497 0.3186883330345154 44
1.8696726560592651 1.8755561113357544 0.228348046541214 44
1.8639273643493652 1.8691401481628418 0.13633516430854797 44
1.8594332933425903 1.8639827966690063 0.045288994908332825 44
1.3789302110671997 1.3798935413360596 -0.5124619007110596 119
1.5942060947418213 1.5947630405426025 -0.5117639303207397 119
1.845690131187439 1.8456904888153076 -0.4994710087776184 119
1.8711519241333008 1.8704993724822998 -0.4129873216152191 0
1.8875707387924194 1.886253833770752 -0.32295411825180054 44
1.8735967874526978 1.871636152267456 -0.22834838926792145 44
1.8643214702606201 1.8617208003997803 -0.13562068343162537 44
1.8704149723052979 1.8671536445617676 -0.04500929266214371 44
1.8732255697250366 1.8693069219589233 0.6983562111854553 44
1.8758848905563354 1.871307134628296 0.6024129986763 44
1.8656431436538696 1.8604410886764526 0.50423663854599 44
1.8808079957962036 1.8749089241027832 0.4140944480895996 44
1.8691108226776123 1.862598180770874 0.3192976713180542 44
1.8797372579574585 1.8725337982177734 0.22878383100032806 44
1.8739784955978394 1.8661456108093262 0.13659684360027313 44
1.8694714307785034 1.8610076904296875 0.0453762523829937 44
1.3803126811981201 1.371667504310608 -0.5111678242683411 119
1.6032196283340454 1.59262216091156 -0.5128887295722961 119
1.8556042909622192 1.8426952362060547 -0.5004242062568665 119
1.8811745643615723 1.8674356937408447 -0.41376951336860657 0
1.8976662158966064 1.8831493854522705 -0.32356348633766174 44
1.887190818786621 1.8721004724502563 -0.2292199432849884 44
1.8778996467590332 1.8622335195541382 -0.136142298579216 44
1.8804714679718018 1.8641330003738403 -0.04509568214416504 44
1.8831700086593628 1.8661564588546753 0.699649453163147 44
1.8858668804168701 1.8681766986846924 0.6035369634628296 44
1.8791011571884155 1.8608245849609375 0.5061429738998413 44
1.8908509016036987 1.8718066215515137 0.4148758053779602 44
1.8791288137435913 1.859553337097168 0.319907009601593 44
1.8898030519485474 1.8694638013839722 0.22921960055828094 44
1.8840314149856567 1.8631038665771484 0.1368585228919983 44
1.8795115947723389 1.8579853773117065 0.04546351730823517 44
1.3816547393798828 1.3634485006332397 -0.5098737478256226 119
1.6122372150421143 1.590437412261963 -0.5140134692192078 119
1.8620251417160034 1.8362066745758057 -0.5004242062568665 119
1.8911985158920288 1.864324688911438 -0.41455164551734924 0
1.9112976789474487 1.883480429649353 -0.3247821629047394 44
1.897262692451477 1.8689970970153809 -0.22965574264526367 44
1.8879464864730835 1.8591704368591309 -0.13640311360359192 44
1.890529751777649 1.8610647916793823 -0.04518207535147667 44
1.8965575695037842 1.8663469552993774 0.7022359371185303 44
1.8958498239517212 1.8649991750717163 0.6046608686447144 44
1.889084815979004 1.8576955795288086 0.5070961713790894 44
1.900895118713379 1.868657112121582 0.41565707325935364 44
1.8926875591278076 1.859939455986023 0.32112571597099304 44
1.8998706340789795 1.8663463592529297 0.22965538501739502 44
1.8940860033035278 1.86001455783844 0.13712020218372345 44
1.8931208848953247 1.8584176301956177 0.04563803970813751 44
1.3829561471939087 1.3552370071411133 -0.5085796117782593 119
1.6212594509124756 1.5882092714309692 -0.5151382088661194 119
1.868423342704773 1.829695701599121 -0.5004242062568665 119
1.9047527313232422 1.8646209239959717 -0.41611599922180176 0
1.9214074611663818 1.8802683353424072 -0.3253915011882782 44
1.9108964204788208 1.8693294525146484 -0.23052729666233063 44
1.8979946374893188 1.8560600280761719 -0.13666391372680664 44
1.9005893468856812 1.857948660850525 -0.0452684611082077 44
1.90651535987854 1.8630911111831665 0.7035292387008667 44
1.9058332443237305 1.8617744445800781 0.6057847738265991 44
1.8990694284439087 1.8545193672180176 0.5080493688583374 44
1.9109402894973755 1.8654601573944092 0.41643840074539185 44
1.9027202129364014 1.8567874431610107 0.32173505425453186 44
1.9135046005249023 1.8666595220565796 0.23052693903446198 44
1.904142141342163 1.8568776845932007 0.1373818814754486 44
1.903175950050354 1.8552875518798828 0.045725300908088684 44
1.3876782655715942 1.3504014015197754 -0.5085796117782593 119
1.6267935037612915 1.5825403928756714 -0.5151382088661194 119
1.8747988939285278 1.8231626749038696 -0.5004242062568665 119
1.9147909879684448 1.861403226852417 -0.4168981909751892 0
1.9315181970596313 1.8770084381103516 -0.3260008692741394 44
1.9209824800491333 1.8661184310913086 -0.2309630662202835 44
1.9116259813308716 1.8563807010650635 -0.13718552887439728 44
1.914237380027771 1.8582675457000732 -0.045441243797540665 44
1.919939398765564 1.863152027130127 0.70611572265625 44
1.9158174991607666 1.8585028648376465 0.6069086790084839 44
1.9125785827636719 1.8547132015228271 0.5099557638168335 44
1.920986294746399 1.8622157573699951 0.41721969842910767 44
1.912753939628601 1.8535879850387573 0.3223443925380707 44
1.923586368560791 1.8634345531463623 0.23096270859241486 44
1.914198875427246 1.8536930084228516 0.13764356076717377 44
1.913232445716858 1.8521102666854858 0.045812565833330154 44
1.3889106512069702 1.3421930074691772 -0.5072855353355408 119
1.635811448097229 1.5802369117736816 -0.516262948513031 119
1.8846821784973145 1.820016860961914 -0.5013774037361145 119
1.9248297214508057 1.8581377267837524 -0.4176803529262543 0
1.9380583763122559 1.8702547550201416 -0.3260008692741394 44
1.9346543550491333 1.8663177490234375 -0.23183462023735046 44
1.9216886758804321 1.8531626462936401 -0.1374463438987732 44
1.9243115186691284 1.855043888092041 -0.045527633279561996 44
1.9299089908599854 1.8597902059555054 0.7074089646339417 44
1.92931067943573 1.8585643768310547 0.6091564893722534 44
1.9225765466690063 1.8514301776885986 0.5109089016914368 44
1.9310327768325806 1.8589240312576294 0.4180010259151459 44
1.9263643026351929 1.8537824153900146 0.3235630989074707 44
1.9336689710617065 1.8601619005203247 0.23139849305152893 44
1.9278559684753418 1.8539220094680786 0.13816691935062408 44
1.9232898950576782 1.8488849401474 0.04589982330799103 44
1.393587350845337 1.3373366594314575 -0.5072855353355408 119
1.6413174867630005 1.5745172500610352 -0.516262948513031 119
1.8910237550735474 1.8134269714355469 -0.5013774037361145 119
1.9348691701889038 1.8548251390457153 -0.4184625446796417 0
1.9481581449508667 1.866911768913269 -0.32661017775535583 44
1.9447542428970337 1.8629990816116333 -0.23227041959762573 44
1.93175208568573 1.8498969078063965 -0.13770714402198792 44
1.9343862533569336 1.851772427558899 -0.04561402276158333 44
1.9433680772781372 1.8597208261489868 0.709995448589325 44
1.9393070936203003 1.855186104774475 0.6102803945541382 44
1.9361224174499512 1.8514926433563232 0.5128152966499329 44
1.9446494579315186 1.8589974641799927 0.4195636510848999 44
1.9364112615585327 1.8504751920700073 0.3241724371910095 44
1.9473536014556885 1.8602819442749023 0.23227006196975708 44
1.9379267692565918 1.8506296873092651 0.13842859864234924 44
1.9369642734527588 1.8490642309188843 0.04607434943318367 44
1.3982470035552979 1.3324639797210693 -0.5072855353355408 119
1.646803617477417 1.568778395652771 -0.516262948513031 119
1.8973422050476074 1.8068151473999023 -0.5013774037361145 119
1.9484854936599731 1.8548698425292969 -0.42002686858177185 0
1.958258032798767 1.8635214567184448 -0.32721954584121704 44
1.9548543691635132 1.8596322536468506 -0.23270617425441742 44
1.945434331893921 1.8500243425369263 -0.13822877407073975 44
1.944461703300476 1.8484535217285156 -0.04570041596889496 44
1.9533491134643555 1.856252908706665 0.7112887501716614 44
1.9493036270141602 1.8517611026763916 0.611404299736023 44
1.9461326599121094 1.8481029272079468 0.5137684941291809 44
1.9547085762023926 1.8555982112884521 0.4203449785709381 44
1.9500585794448853 1.8505369424819946 0.32539111375808716 44
1.9574490785598755 1.8569010496139526 0.23270581662654877 44
1.9479979276657104 1.8472894430160522 0.1386902779340744 44
1.9470350742340088 1.8457311391830444 0.04616161435842514 44
1.3993817567825317 1.3242554664611816 -0.5059914588928223 119
1.6487306356430054 1.5596725940704346 -0.5151382088661194 119
1.9072039127349854 1.8035534620285034 -0.5023306012153625 119
1.958537220954895 1.8514496088027954 -0.4208090603351593 0
1.9683581590652466 1.8600831031799316 -0.32782891392707825 44
1.968575358390808 1.8596380949020386 -0.23357774317264557 44
1.9555104970932007 1.84665048122406 -0.13848958909511566 44
1.9545376300811768 1.8450864553451538 -0.04578680172562599 44
1.9633293151855469 1.8527380228042603 0.712581992149353 44
1.962843418121338 1.8516318798065186 0.6136521100997925 44
1.9597136974334717 1.8480331897735596 0.515674889087677 44
1.9683611392974854 1.8555388450622559 0.42190760374069214 44
1.9601179361343384 1.8471221923828125 0.32600048184394836 44
1.9711700677871704 1.8568878173828125 0.23357738554477692 44
1.9617043733596802 1.8473247289657593 0.13921363651752472 44
1.9571058750152588 1.8423500061035156 0.046248871833086014 44
1.400476336479187 1.316055417060852 -0.504697322845459 119
1.650613784790039 1.5505722761154175 -0.5140134692192078 119
1.9134879112243652 1.7968851327896118 -0.5023306012153625 119
1.9721893072128296 1.8513617515563965 -0.4223734140396118 0
1.9820767641067505 1.8599927425384521 -0.32904762029647827 44
1.9786874055862427 1.8561630249023438 -0.23401352763175964 44
1.96558678150177 1.8432285785675049 -0.13875038921833038 44
1.9682607650756836 1.845090627670288 -0.045959584414958954 44
1.9768332242965698 1.8524786233901978 0.7151684761047363 44
1.9728505611419678 1.8480998277664185 0.6147760152816772 44
1.9697355031967163 1.8445364236831665 0.516628086566925 44
1.9784313440322876 1.8520315885543823 0.42268890142440796 44
1.9738010168075562 1.8470507860183716 0.327219158411026 44
1.981277346611023 1.8533985614776611 0.234013170003891 44
1.971787929534912 1.8438762426376343 0.13947531580924988 44
1.967177152633667 1.838921308517456 0.046336136758327484 44
1.4050617218017578 1.3111587762832642 -0.504697322845459 119
1.656016230583191 1.5448009967803955 -0.5140134692192078 119
1.9233382940292358 1.7935422658920288 -0.5032837390899658 119
1.9822518825531006 1.8478337526321411 -0.4231555759906769 0
1.9958186149597168 1.8598294258117676 -0.3302662968635559 44
1.9887995719909668 1.8526400327682495 -0.23444931209087372 44
1.975663185119629 1.839759111404419 -0.1390112042427063 44
1.9783486127853394 1.8416153192520142 -0.046045973896980286 44
1.986823320388794 1.848857045173645 0.716461718082428 44
1.9864239692687988 1.8478386402130127 0.6170238256454468 44
1.9833508729934692 1.844334363937378 0.5185344219207764 44
1.99211847782135 1.8518390655517578 0.4242514967918396 44
1.9838719367980957 1.8435280323028564 0.3278285264968872 44
1.9913843870162964 1.8498613834381104 0.23444895446300507 44
1.9818710088729858 1.8403798341751099 0.13973699510097504 44
1.9809120893478394 1.8388457298278809 0.04651065915822983 44
1.4096298217773438 1.3062461614608765 -0.504697322845459 119
1.6578246355056763 1.5357003211975098 -0.5128887295722961 119
1.9295871257781982 1.7868176698684692 -0.5032837390899658 119
1.9959380626678467 1.8476123809814453 -0.424719899892807 0
2.0095834732055664 1.8595925569534302 -0.33148500323295593 44
2.0025672912597656 1.8524513244628906 -0.23532088100910187 44
1.9894051551818848 1.8396315574645996 -0.13953281939029694 44
1.9921070337295532 1.8414852619171143 -0.04621875658631325 44
1.996812105178833 1.8451883792877197 0.7177549600601196 44
1.9964408874511719 1.844199538230896 0.6181477308273315 44
1.9933825731277466 1.8407297134399414 0.5194876194000244 44
2.002199411392212 1.8482239246368408 0.4250328242778778 44
1.9975892305374146 1.84332275390625 0.32904723286628723 44
2.0051519870758057 1.8496536016464233 0.23532050848007202 44
1.991953730583191 1.836835503578186 0.1399986743927002 44
1.9909945726394653 1.8353080749511719 0.046597920358181 44
1.4141809940338135 1.3013176918029785 -0.504697322845459 119
1.663175106048584 1.5299041271209717 -0.5128887295722961 119
1.9394254684448242 1.7833936214447021 -0.5042369961738586 119
2.0060112476348877 1.8439761400222778 -0.42550209164619446 0
2.0233709812164307 1.85928213596344 -0.33270367980003357 44
2.0126893520355225 1.8488191366195679 -0.23575665056705475 44
1.9994920492172241 1.8360531330108643 -0.13979361951351166 44
2.0022058486938477 1.8379007577896118 -0.04630514234304428 44
2.0103583335876465 1.8447380065917969 0.7203414440155029 44
2.0100467205047607 1.8438060283660889 0.6203955411911011 44
2.003413438796997 1.8370774984359741 0.5204408168792725 44
2.0159196853637695 1.8478978872299194 0.42659544944763184 44
2.0076704025268555 1.8396912813186646 0.32965657114982605 44
2.0152690410614014 1.846007227897644 0.2357562780380249 44
2.005718469619751 1.8366152048110962 0.1405220329761505 44
2.0010764598846436 1.8317224979400635 0.04668518528342247 44
1.422280192375183 1.2996312379837036 -0.5059914588928223 119
1.6685054302215576 1.5240892171859741 -0.5128887295722961 119
1.949263334274292 1.779922366142273 -0.5051901340484619 119
2.019730567932129 1.8436214923858643 -0.427066445350647 0
2.0335144996643066 1.8555530309677124 -0.3333130180835724 44
2.0264906883239746 1.8484959602355957 -0.2366282045841217 44
2.01326847076416 1.8357912302017212 -0.1403152495622635 44
2.015998601913452 1.8376363515853882 -0.04647792875766754 44
2.020355224609375 1.840962290763855 0.7216347455978394 44
2.0200724601745605 1.8400593996047974 0.6215193867683411 44
2.0170722007751465 1.8366824388504028 0.5223472118377686 44
2.0260095596313477 1.8441739082336426 0.42737674713134766 44
2.021420955657959 1.839352011680603 0.3308752477169037 44
2.0290699005126953 1.845664620399475 0.23662783205509186 44
2.0158114433288574 1.8329620361328125 0.14078372716903687 44
2.014857053756714 1.831451654434204 0.046859707683324814 44
1.4268079996109009 1.2946586608886719 -0.5059914588928223 119
1.6738152503967285 1.5182558298110962 -0.5128887295722961 119
1.9591008424758911 1.776404619216919 -0.50614333152771 119
2.0334715843200684 1.8431932926177979 -0.4286307990550995 0
2.0473341941833496 1.8551080226898193 -0.3345317244529724 44
2.0366225242614746 1.844754934310913 -0.23706398904323578 44
2.0233654975891113 1.832103967666626 -0.1405760496854782 44
2.0261070728302 1.8339430093765259 -0.046564314514398575 44
2.0339319705963135 1.840380072593689 0.7242212295532227 44
2.0337095260620117 1.8395330905914307 0.6237671971321106 44
2.027111768722534 1.832922101020813 0.5233003497123718 44
2.039762258529663 1.8437137603759766 0.4289393723011017 44
2.0315115451812744 1.8356120586395264 0.3314846158027649 44
2.039196252822876 1.841909408569336 0.23706363141536713 44
2.029609441757202 1.8326069116592407 0.14130708575248718 44
2.024948835372925 1.8277570009231567 0.046946972608566284 44
1.4313185214996338 1.2896703481674194 -0.5059914588928223 119
1.6827244758605957 1.5156642198562622 -0.5140134692192078 119
1.9689371585845947 1.7728393077850342 -0.507096529006958 119
2.0435636043548584 1.8393876552581787 -0.42941296100616455 119
2.0574867725372314 1.8512696027755737 -0.33514106273651123 44
2.0504560470581055 1.8442964553833008 -0.23793554306030273 44
2.0371742248535156 1.8317067623138428 -0.14109766483306885 44
2.0399327278137207 1.8335431814193726 -0.04673709720373154 44
2.0475289821624756 1.8397250175476074 0.7268077731132507 44
2.047367572784424 1.8389341831207275 0.6260150074958801 44
2.040801763534546 1.8323934078216553 0.5252067446708679 44
2.0535359382629395 1.8431800603866577 0.4305019974708557 44
2.041600227355957 1.831823706626892 0.3320939540863037 44
2.0530295372009277 1.841431736946106 0.23793518543243408 44
2.043429136276245 1.8321775197982788 0.1418304443359375 44
2.035039186477661 1.8240143060684204 0.047034233808517456 44
1.4358115196228027 1.2846661806106567 -0.5059914588928223 119
1.688004970550537 1.5097811222076416 -0.5140134692192078 119
1.9787726402282715 1.7692275047302246 -0.508049726486206 119
2.05733585357666 1.8388251066207886 -0.4309772849082947 119
2.0713376998901367 1.85068941116333 -0.33635976910591125 44
2.0568814277648926 1.8371278047561646 -0.23793554306030273 44
2.0472805500030518 1.827910304069519 -0.14135847985744476 44
2.0500502586364746 1.829740285873413 -0.04682349041104317 44
2.0611462593078613 1.838997483253479 0.729394257068634 44
2.05741024017334 1.8350193500518799 0.6271389722824097 44
2.050849437713623 1.828525185585022 0.526159942150116 44
2.067331075668335 1.842572569847107 0.43206459283828735 44
2.0553929805755615 1.8312886953353882 0.33331263065338135 44
2.063164234161377 1.8375667333602905 0.23837095499038696 44
2.053541660308838 1.8283538818359375 0.14209210872650146 44
2.045128107070923 1.8202232122421265 0.04712149500846863 44
1.4402872323989868 1.2796465158462524 -0.5059914588928223 119
1.6896222829818726 1.5006448030471802 -0.5128887295722961 119
1.9849364757537842 1.7623094320297241 -0.508049726486206 119
2.0674357414245605 1.83491051197052 -0.43175947666168213 119
2.0814974308013916 1.8467414379119873 -0.3369691073894501 44
2.063281774520874 1.8299366235733032 -0.23793554306030273 44
2.0611212253570557 1.8273779153823853 -0.1418800950050354 44
2.0601658821105957 1.825888752937317 -0.0469098761677742 44
2.0711679458618164 1.8349945545196533 0.7306875586509705 44
2.0674502849578857 1.8310567140579224 0.6282628178596497 44
2.060894250869751 1.8246086835861206 0.527113139629364 44
2.0737502574920654 1.8353450298309326 0.43206459283828735 44
2.0617728233337402 1.8241028785705566 0.33331263065338135 44
2.0770280361175537 1.8369535207748413 0.23924250900745392 44
2.067392587661743 1.8277888298034668 0.14261546730995178 44
2.055215358734131 1.816383719444275 0.0472087562084198 44
1.4447451829910278 1.2746111154556274 -0.5059914588928223 119
1.6875425577163696 1.4882928133010864 -0.5106391906738281 119
1.991075873374939 1.755370020866394 -0.508049726486206 119
2.081238031387329 1.834213137626648 -0.43332383036613464 119
2.0953783988952637 1.8460255861282349 -0.3381877839565277 44
2.0696568489074707 1.822723388671875 -0.23793554306030273 44
2.071234941482544 1.8234713077545166 -0.14214091002941132 44
2.070279836654663 1.8219892978668213 -0.04699626937508583 44
2.0775609016418457 1.8277536630630493 0.7306875586509705 44
2.081146240234375 1.830263614654541 0.6305106282234192 44
2.070937156677246 1.820644497871399 0.5280663371086121 44
2.080144166946411 1.8280951976776123 0.43206459283828735 44
2.0718557834625244 1.820170283317566 0.33392199873924255 44
2.087170362472534 1.8329790830612183 0.239678293466568 44
2.0812649726867676 1.8271496295928955 0.1431388258934021 44
2.065300703048706 1.812496304512024 0.04729602113366127 44
1.4491856098175049 1.2695603370666504 -0.5059914588928223 119
1.6853972673416138 1.4759738445281982 -0.5083897113800049 119
1.9971911907196045 1.7484091520309448 -0.508049726486206 119
2.0913443565368652 1.8301893472671509 -0.4341059923171997 119
2.1055448055267334 1.8419678211212158 -0.3387971520423889 44
2.0685079097747803 1.8089299201965332 -0.23706398904323578 44
2.0813467502593994 1.819516658782959 -0.14240172505378723 44
2.0803914070129395 1.818041205406189 -0.047082655131816864 44
2.083928108215332 1.8204904794692993 0.7306875586509705 44
2.0911922454833984 1.8261927366256714 0.6316345930099487 44
2.0846750736236572 1.8198603391647339 0.5299726724624634 44
2.090233564376831 1.8240699768066406 0.43284592032432556 44
2.0781967639923096 1.812927007675171 0.33392199873924255 44
2.1010639667510986 1.8322296142578125 0.24054984748363495 44
2.0913939476013184 1.8231545686721802 0.14340052008628845 44
2.079152822494507 1.8118449449539185 0.047470543533563614 44
1.4499645233154297 1.261324167251587 -0.504697322845459 119
1.6831865310668945 1.4636878967285156 -0.5061401724815369 119
2.003282070159912 1.7414270639419556 -0.508049726486206 119
2.101447820663452 1.8261173963546753 -0.43488818407058716 119
2.115708112716675 1.837861180305481 -0.33940649032592773 44
2.093614101409912 1.8180274963378906 -0.23924288153648376 44
2.0914559364318848 1.8155133724212646 -0.14266252517700195 44
2.090501070022583 1.8140448331832886 -0.047169048339128494 44
2.0902702808380127 1.8132051229476929 0.7306875586509705 44
2.1049156188964844 1.825265645980835 0.6338824033737183 44
2.094723701477051 1.8157873153686523 0.5309258699417114 44
2.096588134765625 1.8167626857757568 0.43284592032432556 44
2.088263511657715 1.8089110851287842 0.33453133702278137 44
2.1112122535705566 1.828144907951355 0.24098561704158783 44
2.1052956581115723 1.8223788738250732 0.14392387866973877 44
2.0968058109283447 1.814389705657959 0.04773232713341713 44
1.4543585777282715 1.2562551498413086 -0.504697322845459 119
1.6809107065200806 1.4514356851577759 -0.5038906931877136 119
2.0093486309051514 1.7344236373901367 -0.508049726486206 119
2.1152870655059814 1.8252230882644653 -0.4364525079727173 119
2.125868558883667 1.8337063789367676 -0.34001585841178894 44
2.1112639904022217 1.8204665184020996 -0.2405502200126648 44
2.105344772338867 1.814721941947937 -0.1431841403245926 44
2.108182191848755 1.8165264129638672 -0.04742821678519249 44
2.1002461910247803 1.8090496063232422 0.7319807410240173 44
2.114966630935669 1.8210862874984741 0.635006308555603 44
2.1084890365600586 1.8148682117462158 0.5328322649002075 44
2.1066606044769287 1.8126542568206787 0.4336272180080414 44
2.1020896434783936 1.8080828189849854 0.335750013589859 44
2.1251344680786133 1.8272591829299927 0.24185717105865479 44
2.1192173957824707 1.821528434753418 0.1444472372531891 44
2.1107101440429688 1.8135756254196167 0.04790685325860977 44
1.455068826675415 1.2480264902114868 -0.5034032464027405 119
1.678570032119751 1.4392169713974 -0.5016411542892456 119
2.015390634536743 1.7273991107940674 -0.508049726486206 119
2.1253955364227295 1.821041464805603 -0.43723466992378235 119
2.1397948265075684 1.8327312469482422 -0.3412345349788666 44
2.1327402591705322 1.8260438442230225 -0.2422933429479599 44
2.115460157394409 1.8106087446212769 -0.1434449553489685 44
2.1221072673797607 1.8156564235687256 -0.04760099574923515 44
2.11388897895813 1.8079860210418701 0.7345672845840454 44
2.128716468811035 1.8200244903564453 0.6372541189193726 44
2.1222739219665527 1.8138750791549683 0.5347386002540588 44
2.116729974746704 1.8084975481033325 0.4344085454940796 44
2.115935802459717 1.807180404663086 0.33696871995925903 44
2.139075994491577 1.8262983560562134 0.24272873997688293 44
2.1331586837768555 1.8206027746200562 0.1449705958366394 44
2.1284372806549072 1.815930962562561 0.048168640583753586 44
1.4594165086746216 1.2429397106170654 -0.5034032464027405 119
1.6798737049102783 1.4301906824111938 -0.5005163550376892 119
2.0214080810546875 1.720353603363037 -0.508049726486206 119
2.1392619609832764 1.8200113773345947 -0.43879902362823486 0
2.1537399291992188 1.8316810131072998 -0.3424532413482666 44
2.1504859924316406 1.8282668590545654 -0.24360066652297974 44
2.133181571960449 1.8129138946533203 -0.14422737061977386 44
2.139862298965454 1.8179482221603394 -0.047860171645879745 44
2.123868703842163 1.803722858428955 0.7358605265617371 44
2.142484664916992 1.8188892602920532 0.6395019292831421 44
2.1360769271850586 1.8128077983856201 0.5366449952125549 44
2.1380934715270996 1.8138772249221802 0.43753379583358765 44
2.1335859298706055 1.809412956237793 0.3387967646121979 44
2.1530368328094482 1.825262427330017 0.2436002939939499 44
2.1471192836761475 1.8196018934249878 0.14549395442008972 44
2.142392158508301 1.814953327178955 0.04834316298365593 44
1.4600584506988525 1.2347192764282227 -0.502109169960022 119
1.6848558187484741 1.4243180751800537 -0.5005163550376892 119
2.0274009704589844 1.713287115097046 -0.508049726486206 119
2.153146743774414 1.818906545639038 -0.440363347530365 0
2.167703866958618 1.8305556774139404 -0.34367191791534424 44
2.1644668579101562 1.8271751403808594 -0.2444722205400467 44
2.1471290588378906 1.8118971586227417 -0.1447489857673645 44
2.1538374423980713 1.8169147968292236 -0.04803295060992241 44
2.1375365257263184 1.8025254011154175 0.7384470701217651 44
2.152545690536499 1.8145394325256348 0.6406258344650269 44
2.1498987674713135 1.8116663694381714 0.538551390171051 44
2.163297653198242 1.8223116397857666 0.4414403438568115 44
2.1474812030792236 1.8083475828170776 0.3400154411792755 44
2.1670162677764893 1.8241512775421143 0.24447184801101685 44
2.1610987186431885 1.818525791168213 0.14601731300354004 44
2.1563656330108643 1.813900113105774 0.04851768910884857 44
1.4643596410751343 1.2296152114868164 -0.502109169960022 119
1.6898173093795776 1.4184281826019287 -0.5005163550376892 119
2.0333690643310547 1.7061996459960938 -0.508049726486206 119
2.1708340644836426 1.8209009170532227 -0.44270989298820496 0
2.1816861629486084 1.8293551206588745 -0.34489062428474426 44
2.178466320037842 1.8260078430175781 -0.24534378945827484 44
2.1649222373962402 1.814011812210083 -0.14553143084049225 44
2.171663761138916 1.819015622138977 -0.048292119055986404 44
2.151221752166748 1.8012542724609375 0.7410335540771484 44
2.170074939727783 1.8163959980010986 0.6439975500106812 44
2.1675026416778564 1.813599944114685 0.5414109230041504 44
2.1885862350463867 1.8305916786193848 0.4453468918800354 44
2.1613948345184326 1.8072072267532349 0.34123414754867554 44
2.181014060974121 1.8229645490646362 0.2453434020280838 44
2.1750969886779785 1.8173739910125732 0.14654067158699036 44
2.170358180999756 1.8127714395523071 0.048692211508750916 44
1.4686428308486938 1.2244961261749268 -0.502109169960022 119
1.6947582960128784 1.4125210046768188 -0.5005163550376892 119
2.0430831909179688 1.7022331953048706 -0.5090028643608093 119
2.196150302886963 1.829114556312561 -0.44662076234817505 0
2.1956863403320312 1.828079104423523 -0.3461093306541443 44
2.1924843788146973 1.8247654438018799 -0.246215358376503 44
2.1789181232452393 1.812830924987793 -0.14605304598808289 44
2.185687303543091 1.8178174495697021 -0.04846489802002907 44
2.168637752532959 1.8029972314834595 0.7449132800102234 44
2.1838958263397217 1.8150383234024048 0.6462453603744507 44
2.181370973587036 1.8122960329055786 0.5433173179626465 44
2.206360340118408 1.8324066400527954 0.44769084453582764 44
2.1753265857696533 1.8059914112091064 0.34245285391807556 44
2.1950299739837646 1.821702480316162 0.24621498584747314 44
2.189112901687622 1.816146731376648 0.14706403017044067 44
2.184368848800659 1.8115671873092651 0.04886673390865326 44
1.46918785572052 1.2162822484970093 -0.5008150935173035 119
1.6996785402297974 1.4065965414047241 -0.5005163550376892 119
2.0490126609802246 1.6950912475585938 -0.5090028643608093 119
2.2139387130737305 1.8308789730072021 -0.4489672780036926 0
2.2097039222717285 1.8267277479171753 -0.3473280072212219 44
2.206519603729248 1.8234471082687378 -0.24708691239356995 44
2.192931890487671 1.811574101448059 -0.14657466113567352 44
2.1997289657592773 1.8165435791015625 -0.04863768070936203 44
2.1823678016662598 1.8015660047531128 0.7474997639656067 44
2.201491594314575 1.8167067766189575 0.6496170163154602 44
2.199042558670044 1.8140408992767334 0.5461769104003906 44
2.208932876586914 1.8215519189834595 0.44690951704978943 44
2.1892762184143066 1.8047003746032715 0.3436715304851532 44
2.2090635299682617 1.8203645944595337 0.2470865398645401 44
2.2031471729278564 1.8148436546325684 0.147587388753891 44
2.198397397994995 1.8102868795394897 0.0490412600338459 44
1.4734245538711548 1.2111464738845825 -0.5008150935173035 119
1.704578161239624 1.400654911994934 -0.5005163550376892 119
2.0587100982666016 1.6910439729690552 -0.5099561214447021 119
2.2393994331359863 1.8388094902038574 -0.4528781473636627 0
2.2237389087677 1.8253005743026733 -0.34854671359062195 44
2.216721773147583 1.8188931941986084 -0.24752268195152283 44
2.206963300704956 1.81024169921875 -0.14709627628326416 44
2.2137885093688965 1.8151936531066895 -0.04881046339869499 44
2.1961138248443604 1.8000606298446655 0.75008624792099 44
2.219125270843506 1.818274736404419 0.6529887914657593 44
2.2205498218536377 1.8187942504882812 0.549989640712738 44
2.215277910232544 1.8138301372528076 0.44690951704978943 44
2.2070834636688232 1.806477427482605 0.34549957513809204 44
2.223114252090454 1.8189506530761719 0.24795809388160706 44
2.217198610305786 1.8134645223617554 0.1481107473373413 44
2.208573341369629 1.8057664632797241 0.049128517508506775 44
1.477643370628357 1.205995798110962 -0.5008150935173035 119
1.7094570398330688 1.3946963548660278 -0.5005163550376892 119
2.068403959274292 1.686949610710144 -0.5109092593193054 119
2.25728702545166 1.8403428792953491 -0.4552246630191803 0
2.237790584564209 1.8237977027893066 -0.3497653901576996 44
2.230780601501465 1.8174365758895874 -0.24839425086975098 44
2.2171404361724854 1.8056799173355103 -0.14735709130764008 44
2.2239878177642822 1.8106111288070679 -0.048896852880716324 44
2.20987606048584 1.7984811067581177 0.7526727914810181 44
2.2405760288238525 1.822816014289856 0.6574844121932983 44
2.238309144973755 1.8203226327896118 0.5528491735458374 44
2.217764139175415 1.8029711246490479 0.4461282193660736 44
2.221078634262085 1.805022120475769 0.34671828150749207 44
2.237182140350342 1.8174608945846558 0.248829647898674 44
2.2312674522399902 1.812009334564209 0.14863410592079163 44
2.222625970840454 1.8043479919433594 0.049303047358989716 44
1.4818439483642578 1.2008305788040161 -0.5008150935173035 119
1.7143149375915527 1.3887207508087158 -0.5005163550376892 119
2.078094482421875 1.6828081607818604 -0.5118624567985535 119
2.271373987197876 1.8386666774749756 -0.4567889869213104 0
2.251858949661255 1.8222187757492065 -0.3509840965270996 44
2.244856119155884 1.815903663635254 -0.24926580488681793 44
2.2311952114105225 1.8042091131210327 -0.1478787064552307 44
2.238070249557495 1.8091225624084473 -0.04906963184475899 44
2.223653554916382 1.7968273162841797 0.7552592754364014 44
2.2582950592041016 1.824168086051941 0.6608560681343079 44
2.2599246501922607 1.8248326778411865 0.5566619634628296 44
2.250943899154663 1.816931962966919 0.4515973627567291 44
2.2350902557373047 1.8034907579421997 0.3479369580745697 44
2.247389793395996 1.8127678632736206 0.2492654174566269 44
2.2453527450561523 1.8104779720306396 0.14915746450424194 44
2.2366952896118164 1.8028532266616821 0.04947756975889206 44
1.4897894859313965 1.1986783742904663 -0.502109169960022 119
1.7191520929336548 1.3827282190322876 -0.5005163550376892 119
2.0877811908721924 1.6786195039749146 -0.5128157138824463 119
2.2854769229888916 1.8369145393371582 -0.45835334062576294 119
2.2620749473571777 1.817455530166626 -0.3515934646129608 44
2.25894832611084 1.8142950534820557 -0.2501373589038849 44
2.2452664375305176 1.802661657333374 -0.14840032160282135 44
2.252169370651245 1.807557463645935 -0.04924241080880165 44
2.23367977142334 1.7920769453048706 0.7565525770187378 44
2.2836525440216064 1.8315151929855347 0.6664755940437317 44
2.2777693271636963 1.8261436223983765 0.5595215559005737 44
2.268833637237549 1.8183292150497437 0.45394131541252136 44
2.2452449798583984 1.798780918121338 0.3485462963581085 44
2.261479377746582 1.8111389875411987 0.25013697147369385 44
2.2594547271728516 1.808870553970337 0.14968082308769226 44
2.246877908706665 1.7981582880020142 0.04956483095884323 44
1.4939645528793335 1.1934707164764404 -0.502109169960022 119
1.7201614379882812 1.3736789226531982 -0.4993916451931 119
2.093627691268921 1.6713215112686157 -0.5128157138824463 119
2.303455114364624 1.8381664752960205 -0.4606998860836029 119
2.2761640548706055 1.8157379627227783 -0.35281214118003845 44
2.2730562686920166 1.8126096725463867 -0.25100892782211304 44
2.25935435295105 1.801038146018982 -0.14892195165157318 44
2.266284704208374 1.8059159517288208 -0.04941519349813461 44
2.247476816177368 1.7902876138687134 0.7591390609741211 44
2.3014657497406006 1.8326374292373657 0.6698473691940308 44
2.307171106338501 1.8365225791931152 0.5652406811714172 44
2.298353672027588 1.8288486003875732 0.45862916111946106 44
2.259277820587158 1.7971111536026 0.34976500272750854 44
2.2755849361419678 1.8094340562820435 0.251008540391922 44
2.2696640491485596 1.8040794134140015 0.1499425172805786 44
2.2609689235687256 1.7965244054794312 0.049739353358745575 44
1.4981215000152588 1.1882483959197998 -0.502109169960022 119
1.7249460220336914 1.3676660060882568 -0.4993916451931 119
2.0994491577148438 1.6640032529830933 -0.5128157138824463 119
2.321470022201538 1.8393152952194214 -0.4630464017391205 119
2.290269136428833 1.8139442205429077 -0.3540308475494385 44
2.2832748889923096 1.807755947113037 -0.2514446973800659 44
2.2734577655792236 1.7993381023406982 -0.14944356679916382 44
2.2804157733917236 1.8041977882385254 -0.04958797246217728 44
2.2650773525238037 1.7914198637008667 0.7630188465118408 44
2.3078489303588867 1.8245925903320312 0.6698473691940308 44
2.3097169399261475 1.8254144191741943 0.5642874836921692 44
2.3008480072021484 1.8177529573440552 0.45784783363342285 44
2.2733263969421387 1.795365333557129 0.3509836792945862 44
2.289706230163574 1.8076525926589966 0.25188007950782776 44
2.2837867736816406 1.8023325204849243 0.15046587586402893 44
2.275076150894165 1.794813871383667 0.04991387948393822 44
1.5022600889205933 1.1830118894577026 -0.502109169960022 119
1.7258814573287964 1.3586229085922241 -0.49826687574386597 119
2.1091020107269287 1.6597000360488892 -0.5137688517570496 119
2.3395204544067383 1.8403605222702026 -0.46539291739463806 119
2.304388999938965 1.812073826789856 -0.3552495241165161 44
2.29740309715271 1.8059314489364624 -0.25231626629829407 44
2.2875771522521973 1.7975616455078125 -0.14996518194675446 44
2.294562578201294 1.8024029731750488 -0.04976075142621994 44
2.278914213180542 1.7894679307937622 0.7656053304672241 44
2.310371160507202 1.8135170936584473 0.6687234044075012 44
2.312213182449341 1.814310908317566 0.5633342862129211 44
2.311065435409546 1.8127585649490356 0.45862916111946106 44
2.283485174179077 1.790481448173523 0.3515930473804474 44
2.303842782974243 1.805794596672058 0.2527516484260559 44
2.293994188308716 1.797429084777832 0.1507275402545929 44
2.289198637008667 1.7930268049240112 0.05008840188384056 44
1.5063804388046265 1.1777607202529907 -0.502109169960022 119
1.7306132316589355 1.3525900840759277 -0.49826687574386597 119
2.1110148429870605 1.6493059396743774 -0.5128157138824463 119
2.3537144660949707 1.8382623195648193 -0.4669572412967682 119
2.318524122238159 1.8101270198822021 -0.35646823048591614 44
2.3115463256835938 1.804029941558838 -0.2531878352165222 44
2.3017115592956543 1.7957082986831665 -0.1504867970943451 44
2.3087244033813477 1.800531268119812 -0.0499335341155529 44
2.2927651405334473 1.7874414920806885 0.7681918740272522 44
2.31668758392334 1.8054413795471191 0.6687234044075012 44
2.3185322284698486 1.806228756904602 0.5633342862129211 44
2.321275234222412 1.8077147006988525 0.4594104588031769 44
2.297553062438965 1.7885966300964355 0.352811723947525 44
2.3179938793182373 1.8038597106933594 0.25362321734428406 44
2.3081369400024414 1.7955422401428223 0.1512508988380432 44
2.3033363819122314 1.7911627292633057 0.0502629280090332 44
1.5104824304580688 1.1724952459335327 -0.502109169960022 119
1.7353241443634033 1.346540927886963 -0.49826687574386597 119
2.1090023517608643 1.6359103918075562 -0.5109092593193054 119
2.367922067642212 1.8360872268676758 -0.4685215950012207 119
2.3326733112335205 1.8081034421920776 -0.35768693685531616 44
2.3257038593292236 1.8020517826080322 -0.254059374332428 44
2.311913013458252 1.7907202243804932 -0.15074759721755981 44
2.3229010105133057 1.798582673072815 -0.050106313079595566 44
2.3066294193267822 1.7853398323059082 0.7707783579826355 44
2.3229756355285645 1.7973437309265137 0.6687234044075012 44
2.3248231410980225 1.7981245517730713 0.5633342862129211 44
2.3314781188964844 1.8026217222213745 0.4601917862892151 44
2.311635732650757 1.7866356372833252 0.35403043031692505 44
2.3321595191955566 1.80184805393219 0.2544947564601898 44
2.322293758392334 1.7935786247253418 0.15177425742149353 44
2.3174889087677 1.7892218828201294 0.05043745040893555 44
1.5145659446716309 1.1672155857086182 -0.502109169960022 119
1.740013837814331 1.34047532081604 -0.49826687574386597 119
