# .PCD v0.7 - Point Cloud Data file format
VERSION 0.7
FIELDS x y z intensity
SIZE 4 4 4 4
TYPE F F F F
COUNT 1 1 1 1
WIDTH 773
HEIGHT 1
VIEWPOINT 0 0 0 1 0 0 0
POINTS 773
DATA ascii
-0.61090487241745 2.233091115951538 -0.11892890930175781 44
-0.620472252368927 2.2696197032928467 -0.03999866172671318 44
-0.6108620166778564 2.2360010147094727 0.6104150414466858 44
-0.6118671894073486 2.2412188053131104 0.5271114110946655 44
-0.6094921231269836 2.234053611755371 0.4422793686389923 44
-0.611498236656189 2.2429487705230713 0.3617466986179352 44
-0.6088281869888306 2.234691858291626 0.27969011664390564 44
-0.6184886693954468 2.271713972091675 0.20263710618019104 44
-0.6143350005149841 2.258012056350708 0.12063437700271606 44
-0.606808066368103 2.231884002685547 0.03970422223210335 44
-0.5126860737800598 1.8922175168991089 -0.5150501132011414 119
-0.5829561948776245 2.1530585289001465 -0.5061401724815369 119
-0.6086576581001282 2.2495391368865967 -0.4451392590999603 119
-0.6080717444419861 2.2489309310913086 -0.36292824149131775 44
-0.614502489566803 2.274289608001709 -0.2845652401447296 44
-0.6059389710426331 2.2441513538360596 -0.20002272725105286 44
-0.6005046963691711 2.2255682945251465 -0.11840728670358658 44
-0.6229578852653503 2.310386896133423 -0.04068978503346443 44
-0.6030532121658325 2.238119602203369 0.6104150414466858 44
-0.6040401458740234 2.2433409690856934 0.5271114110946655 44
-0.6004148125648499 2.2314281463623047 0.44132620096206665 44
-0.6023827791213989 2.240300178527832 0.360965371131897 44
-0.6010239124298096 2.2368035316467285 0.27969011664390564 44
-0.6092634201049805 2.2690484523773193 0.20220132172107697 44
-0.6051552891731262 2.2553200721740723 0.1203726977109909 44
-0.5977188944816589 2.2291600704193115 0.039616961032152176 44
nan nan nan 0
-0.575437068939209 2.1550803184509277 -0.5061401724815369 119
-0.599536120891571 2.2469074726104736 -0.4441860616207123 119
-0.5989454984664917 2.2462680339813232 -0.3621461093425751 44
-0.6052821278572083 2.271625280380249 -0.2839558720588684 44
-0.5981016755104065 2.2462527751922607 -0.20002272725105286 44
-0.5914484262466431 2.222825765609741 -0.11814647167921066 44
-0.6084660887718201 2.2883899211883545 -0.040257830172777176 44
-0.5939968228340149 2.2355434894561768 0.6091217994689941 44
-0.5949554443359375 2.240726947784424 0.5259875059127808 44
-0.5926220417022705 2.2335104942321777 0.44132620096206665 44
-0.5945590138435364 2.24238920211792 0.360965371131897 44
-0.5919413566589355 2.234090566635132 0.2790807783603668 44
-0.6000644564628601 2.2663462162017822 0.20176555216312408 44
-0.5972790718078613 2.257418632507324 0.1203726977109909 44
-0.5886560678482056 2.2263994216918945 0.039529696106910706 44
-0.4991326332092285 1.8958377838134766 -0.5150501132011414 119
-0.5675343871116638 2.157175064086914 -0.5061401724815369 119
-0.5912967920303345 2.2490897178649902 -0.4441860616207123 119
-0.5894536972045898 2.2436716556549072 -0.3613639175891876 44
-0.5956920385360718 2.269028663635254 -0.283346563577652 44
-0.5886008739471436 2.243612051010132 -0.19958695769309998 44
-0.5820311903953552 2.2201485633850098 -0.11788567155599594 44
-0.5975408554077148 2.280932903289795 -0.04008505120873451 44
-0.5845759510993958 2.2330329418182373 0.6078285574913025 44
-0.5867387652397156 2.2428925037384033 0.5259875059127808 44
-0.583190381526947 2.2309186458587646 0.4403730034828186 44
-0.5850880742073059 2.2397754192352295 0.36018407344818115 44
-0.583748996257782 2.2362453937530518 0.2790807783603668 44
-0.5904965400695801 2.2637104988098145 0.20132976770401 44
-0.5877417325973511 2.254760980606079 0.12011101096868515 44
-0.5792317986488342 2.2237043380737305 0.03944243863224983 44
-0.4803786277770996 1.8508211374282837 -0.502109169960022 119
-0.5587778687477112 2.1544268131256104 -0.5050153732299805 119
-0.5822109580039978 2.246389150619507 -0.4432328939437866 119
-0.5816181898117065 2.245715618133545 -0.3613639175891876 44
-0.5877680778503418 2.2710940837860107 -0.283346563577652 44
-0.5795184373855591 2.240830659866333 -0.1991511732339859 44
-0.5730285048484802 2.217332363128662 -0.11762485653162003 44
-0.5883253216743469 2.2781643867492676 -0.03999866172671318 44
-0.5767776370048523 2.2350597381591797 0.6078285574913025 44
-0.577689528465271 2.2402093410491943 0.524863600730896 44
-0.5753995180130005 2.232940673828125 0.4403730034828186 44
-0.5760347247123718 2.2370214462280273 0.35940274596214294 44
-0.5747027397155762 2.2334630489349365 0.2784714102745056 44
-0.5813508033752441 2.2609341144561768 0.20089399814605713 44
-0.5786250233650208 2.251962900161743 0.11984933912754059 44
-0.5702164173126221 2.220872163772583 0.03935517370700836 44
-0.4667331576347351 1.8244129419326782 -0.4943445920944214 119
-0.5500475168228149 2.151644468307495 -0.5038906931877136 119
-0.5731512308120728 2.243652105331421 -0.4422796666622162 119
-0.5725541710853577 2.2429471015930176 -0.36058175563812256 44
-0.5786101818084717 2.2683229446411133 -0.28273719549179077 44
-0.5704626441001892 2.23801326751709 -0.19871540367603302 44
-0.5640526413917542 2.214480400085449 -0.1173640564084053 44
-0.577903151512146 2.270514488220215 -0.03982588276267052 44
-0.5677818059921265 2.2323787212371826 0.6065353155136108 44
-0.5686660408973694 2.237490177154541 0.5237396955490112 44
-0.5663933753967285 2.2301783561706543 0.43941983580589294 44
-0.5670076608657837 2.234231472015381 0.35862141847610474 44
-0.5656831860542297 2.230645179748535 0.2778621017932892 44
-0.5722315311431885 2.2581212520599365 0.20045821368694305 44
-0.5695348978042603 2.2491283416748047 0.11958765238523483 44
-0.5600143671035767 2.2131545543670654 0.03918064758181572 44
nan nan nan 0
-0.5413433313369751 2.148826837539673 -0.5027658939361572 119
-0.5629194378852844 2.236119508743286 -0.4403733015060425 119
-0.5635165572166443 2.240142583847046 -0.3597995638847351 44
-0.5706887245178223 2.270328998565674 -0.28273719549179077 44
-0.5626470446586609 2.2399909496307373 -0.19871540367603302 44
-0.5563191771507263 2.2164359092712402 -0.1173640564084053 44
-0.5687578916549683 2.2676689624786377 -0.03973948955535889 44
-0.5588116645812988 2.2296619415283203 0.6052420139312744 44
-0.5596687197685242 2.2347354888916016 0.5226157903671265 44
-0.5574135780334473 2.2273805141448975 0.4384666085243225 44
-0.5580072402954102 2.2314062118530273 0.3578401207923889 44
-0.5578933358192444 2.2326061725616455 0.2778621017932892 44
-0.5619323253631592 2.2504396438598633 0.1995866447687149 44
-0.560471773147583 2.24625825881958 0.11932597309350967 44
-0.5510762333869934 2.210245132446289 0.039093390107154846 44
-0.46446382999420166 1.8698115348815918 -0.5059914588928223 119
-0.5326656103134155 2.145975351333618 -0.5016411542892456 119
-0.5539289116859436 2.233306646347046 -0.4394201338291168 119
-0.5556935667991638 2.242096185684204 -0.3597995638847351 44
-0.5615673065185547 2.2674901485443115 -0.28212785720825195 44
-0.5536280274391174 2.2371060848236084 -0.19827960431575775 44
-0.5437844395637512 2.1989758014678955 -0.11632081866264343 44
-0.5596394538879395 2.264786958694458 -0.039653100073337555 44
-0.5498675107955933 2.22691011428833 0.6039488315582275 44
-0.5506975054740906 2.231945276260376 0.5214918851852417 44
-0.5484601855278015 2.2245469093322754 0.43751341104507446 44
-0.5490334033966064 2.2285451889038086 0.3570587933063507 44
-0.5489103198051453 2.2297210693359375 0.277252733707428 44
-0.5528835654258728 2.2475504875183105 0.19915086030960083 44
-0.5514355301856995 2.243352174758911 0.11906429380178452 44
-0.5433576703071594 2.212155342102051 0.039093390107154846 44
-0.4602299928665161 1.8808038234710693 -0.5085796117782593 119
-0.5240142941474915 2.1430888175964355 -0.5005163550376892 119
-0.5449649095535278 2.2304587364196777 -0.4384669363498688 119
-0.5466925501823425 2.239224672317505 -0.35901737213134766 44
-0.5536488890647888 2.2694365978240967 -0.28212785720825195 44
-0.545815646648407 2.2390248775482178 -0.19827960431575775 44
-0.5467408299446106 2.2445223331451416 -0.1186680942773819 44
-0.5505481362342834 2.261869192123413 -0.03956671059131622 44
-0.5420908331871033 2.228816032409668 0.6039488315582275 44
-0.5417526364326477 2.2291197776794434 0.5203679800033569 44
-0.5395334362983704 2.2216782569885254 0.4365602433681488 44
-0.5400863885879517 2.225648880004883 0.3562775254249573 44
-0.5387848615646362 2.221977710723877 0.27603402733802795 44
-0.5438618659973145 2.244626045227051 0.19871509075164795 44
-0.5424264669418335 2.240410327911377 0.11880261451005936 44
-0.5344569683074951 2.209179162979126 0.039006125181913376 44
-0.4581882059574127 1.9011799097061157 -0.5137560367584229 119
-0.5176710486412048 2.149641752243042 -0.5016411542892456 119
-0.5360274910926819 2.2275753021240234 -0.43751370906829834 119
-0.5377183556556702 2.2363178730010986 -0.3582352101802826 44
-0.5445643663406372 2.2665300369262695 -0.28151848912239075 44
-0.5379967093467712 2.2409164905548096 -0.19827960431575775 44
-0.5493857264518738 2.29011607170105 -0.12101537734270096 44
-0.5414840579032898 2.258915901184082 -0.03948031738400459 44
-0.5331824421882629 2.2259976863861084 0.6026555299758911 44
-0.5328342318534851 2.2262589931488037 0.5192440748214722 44
-0.5306333303451538 2.2187740802764893 0.43560701608657837 44
-0.5311662554740906 2.22271728515625 0.35549619793891907 44
-0.5298728346824646 2.21901798248291 0.2754247188568115 44
-0.5348673462867737 2.2416656017303467 0.19827930629253387 44
-0.5334447026252747 2.2374331951141357 0.1185409352183342 44
-0.5255837440490723 2.2061686515808105 0.038918863981962204 44
-0.45935511589050293 1.9356613159179688 -0.5228146910667419 119
-0.5112882852554321 2.1561756134033203 -0.5027658939361572 119
-0.5271168947219849 2.224656820297241 -0.4365605413913727 119
-0.5287710428237915 2.2333755493164062 -0.35745301842689514 44
-0.5366493463516235 2.2684171199798584 -0.28151848912239075 44
-0.5290253162384033 2.23793363571167 -0.19784384965896606 44
-0.536797046661377 2.2725818157196045 -0.11997213959693909 44
-0.5335956811904907 2.2607922554016113 -0.03948031738400459 44
-0.5254089832305908 2.2278451919555664 0.6026555299758911 44
-0.5239424109458923 2.2233633995056152 0.5181202292442322 44
-0.5228851437568665 2.2206130027770996 0.43560701608657837 44
-0.5222731828689575 2.21975040435791 0.35471490025520325 44
-0.5209879875183105 2.2160227298736572 0.2748153507709503 44
-0.52590012550354 2.2386703491210938 0.197843536734581 44
-0.525631308555603 2.239281415939331 0.1185409352183342 44
-0.5178795456886292 2.2079896926879883 0.038918863981962204 44
-0.4449044167995453 1.9043322801589966 -0.5137560367584229 119
-0.5048662424087524 2.162691831588745 -0.5038906931877136 119
-0.51934814453125 2.226483106613159 -0.4365605413913727 119
-0.5198509097099304 2.230398178100586 -0.35667088627815247 44
-0.5276021957397461 2.2654430866241455 -0.28090915083885193 44
-0.521210253238678 2.2397665977478027 -0.19784384965896606 44
-0.5265992879867554 2.2647149562835693 -0.11945052444934845 44
-0.523438036441803 2.252901792526245 -0.03930753841996193 44
-0.5165369510650635 2.224961042404175 0.6013622879981995 44
-0.5161782503128052 2.2251787185668945 0.5181202292442322 44
-0.5140223503112793 2.2176432609558105 0.4346538782119751 44
-0.5134073495864868 2.2167487144470215 0.35393357276916504 44
-0.512130618095398 2.2129931449890137 0.2742060124874115 44
-0.5180824995040894 2.240492343902588 0.197843536734581 44
-0.5166875720024109 2.2362380027770996 0.11827925592660904 44
-0.5090444684028625 2.2049129009246826 0.03883160278201103 44
-0.4360896646976471 1.896459937095642 -0.5111678242683411 119
-0.49949589371681213 2.1739373207092285 -0.5061401724815369 119
-0.5104748010635376 2.223498582839966 -0.43560734391212463 119
-0.5120622515678406 2.232199192047119 -0.35667088627815247 44
-0.518582284450531 2.2624335289001465 -0.2802998125553131 44
-0.512276828289032 2.2367169857025146 -0.1974080502986908 44
-0.5175768733024597 2.261672019958496 -0.11918970942497253 44
-0.5144563317298889 2.2498419284820557 -0.0392211489379406 44
-0.5076914429664612 2.2220418453216553 0.6000690460205078 44
-0.5073233842849731 2.222217082977295 0.5169962644577026 44
-0.5051865577697754 2.2146384716033936 0.43370065093040466 44
-0.504568874835968 2.213712453842163 0.3531522750854492 44
-0.5033006072044373 2.209928512573242 0.2735966444015503 44
-0.5091532468795776 2.2374300956726074 0.19740775227546692 44
-0.507771372795105 2.233158826828003 0.11801756918430328 44
-0.5013447999954224 2.2066762447357178 0.03883160278201103 44
-0.42626944184303284 1.8838388919830322 -0.5072855353355408 119
-0.4919044077396393 2.1756675243377686 -0.5061401724815369 119
-0.5016286373138428 2.2204792499542236 -0.434654176235199 119
-0.5031798481941223 2.2291557788848877 -0.355888694524765 44
-0.5095899105072021 2.2593886852264404 -0.2796904444694519 44
-0.5044661164283752 2.2384915351867676 -0.1974080502986908 44
-0.5085821151733398 2.2585935592651367 -0.11892890930175781 44
-0.5044050216674805 2.2418692111968994 -0.039048369973897934 44
-0.49887263774871826 2.219088315963745 0.5987758040428162 44
-0.4984954297542572 2.2192206382751465 0.5158723592758179 44
-0.4974529445171356 2.216388463973999 0.43370065093040466 44
-0.4968385100364685 2.2154603004455566 0.3531522750854492 44
-0.4944983720779419 2.206829071044922 0.27298733592033386 44
-0.500251829624176 2.2343332767486572 0.19697198271751404 44
-0.49888303875923157 2.2300450801849365 0.11775589734315872 44
-0.4936389923095703 2.2084128856658936 0.03883160278201103 44
-0.4207404553890228 1.890029788017273 -0.5085796117782593 119
-0.4821913242340088 2.167860269546509 -0.5038906931877136 119
-0.4938746690750122 2.2222166061401367 -0.434654176235199 119
-0.49539557099342346 2.23089861869812 -0.355888694524765 44
-0.5006250739097595 2.2563090324401855 -0.2790811061859131 44
-0.49557116627693176 2.2353761196136475 -0.19697228074073792 44
-0.4996151626110077 2.2554800510406494 -0.1186680942773819 44
-0.4954960346221924 2.2387349605560303 -0.038961976766586304 44
-0.4900805652141571 2.2161002159118652 0.5974825024604797 44
-0.49074587225914 2.220947265625 0.5158723592758179 44
-0.48865509033203125 2.2133185863494873 0.432747483253479 44
-0.48803815245628357 2.212358236312866 0.352370947599411 44
-0.48679208755493164 2.2085418701171875 0.27298733592033386 44
-0.4913782477378845 2.231201410293579 0.19653619825839996 44
-0.4900226294994354 2.226896286010742 0.11749421060085297 44
-0.4848536550998688 2.20524001121521 0.03874434158205986 44
-0.4141404628753662 1.8914868831634521 -0.5085796117782593 119
-0.47357994318008423 2.1647706031799316 -0.5027658939361572 119
-0.48506656289100647 2.2191319465637207 -0.43370094895362854 119
-0.48655158281326294 2.2277896404266357 -0.35510653257369995 44
-0.4927460253238678 2.258042812347412 -0.2790811061859131 44
-0.48670414090156555 2.2322256565093994 -0.19653649628162384 44
-0.4906761646270752 2.2523317337036133 -0.11840728670358658 44
-0.4855518341064453 2.2306814193725586 -0.03878919780254364 44
-0.481315553188324 2.213078022003174 0.5961893200874329 44
-0.4819558262825012 2.217885732650757 0.5147484540939331 44
-0.4809262156486511 2.21501088142395 0.432747483253479 44
-0.48031261563301086 2.214048385620117 0.352370947599411 44
-0.4780285656452179 2.2053775787353516 0.27237796783447266 44
-0.4825326204299927 2.2280352115631104 0.19610042870044708 44
-0.4811903238296509 2.2237131595611572 0.1172325387597084 44
-0.4771530330181122 2.206918954849243 0.03874434158205986 44
-0.4075354039669037 1.892920970916748 -0.5085796117782593 119
-0.4649960994720459 2.1616477966308594 -0.5016411542892456 119
-0.4773173928260803 2.2208118438720703 -0.43370094895362854 119
-0.4787721633911133 2.2294743061065674 -0.35510653257369995 44
-0.483819842338562 2.254896640777588 -0.2784717381000519 44
-0.4778651297092438 2.2290406227111816 -0.19610072672367096 44
-0.4817652702331543 2.24914813041687 -0.11814647167921066 44
-0.47671613097190857 2.2274744510650635 -0.03870280832052231 44
-0.4725775718688965 2.210021495819092 0.5948960185050964 44
-0.47319307923316956 2.214790105819702 0.5136245489120483 44
-0.4721667468547821 2.2118759155273438 0.43179428577423096 44
-0.4715511202812195 2.2108817100524902 0.3515896499156952 44
-0.46929311752319336 2.202178955078125 0.27176862955093384 44
-0.47371506690979004 2.2248339653015137 0.19566462934017181 44
-0.4723862111568451 2.2204954624176025 0.11697085201740265 44
-0.4684070944786072 2.203680992126465 0.03865707665681839 44
-0.4009253978729248 1.8943320512771606 -0.5085796117782593 119
-0.45744767785072327 2.1632578372955322 -0.5016411542892456 119
-0.4685478210449219 2.2176623344421387 -0.4327477812767029 119
-0.46996694803237915 2.2263002395629883 -0.3543243408203125 44
-0.4759458303451538 2.2565715312957764 -0.2784717381000519 44
-0.4700814187526703 2.2306950092315674 -0.19610072672367096 44
-0.47288256883621216 2.2459301948547363 -0.11788567155599594 44
-0.46790871024131775 2.2242324352264404 -0.03861641883850098 44
-0.4648602604866028 2.2116575241088867 0.5948960185050964 44
-0.4654591381549835 2.216428279876709 0.5136245489120483 44
-0.4634350836277008 2.208706855773926 0.4308411180973053 44
-0.463830828666687 2.2125141620635986 0.3515896499156952 44
-0.46160322427749634 2.203803777694702 0.27176862955093384 44
-0.4659460783004761 2.2264740467071533 0.19566462934017181 44
-0.46361038088798523 2.2172434329986572 0.11670918017625809 44
-0.46071192622184753 2.2053024768829346 0.03865707665681839 44
-0.39431050419807434 1.8957198858261108 -0.5085796117782593 119
-0.4498937427997589 2.164841413497925 -0.5016411542892456 119
-0.45980599522590637 2.2144782543182373 -0.43179458379745483 119
-0.46118974685668945 2.2230916023254395 -0.35354217886924744 44
-0.46705886721611023 2.2533600330352783 -0.27786242961883545 44
-0.4612818956375122 2.227444887161255 -0.19566494226455688 44
-0.4640282094478607 2.2426774501800537 -0.11762485653162003 44
-0.45912978053092957 2.220956563949585 -0.038530029356479645 44
-0.4561603367328644 2.2085366249084473 0.59360271692276 44
-0.456734836101532 2.2132680416107178 0.5125006437301636 44
-0.454731285572052 2.2055039405822754 0.42988792061805725 44
-0.4551084339618683 2.209282875061035 0.350808322429657 44
-0.4529072046279907 2.200540542602539 0.27115926146507263 44
-0.4571681022644043 2.223207950592041 0.19522887468338013 44
-0.4548630714416504 2.2139570713043213 0.11644749343395233 44
-0.45200595259666443 2.202000141143799 0.038569819182157516 44
-0.38769081234931946 1.8970848321914673 -0.5085796117782593 119
-0.44330883026123047 2.1711716651916504 -0.5027658939361572 119
-0.45207318663597107 2.2160696983337402 -0.43179458379745483 119
-0.4524405896663666 2.219848871231079 -0.35275998711586 44
-0.45820003747940063 2.2501134872436523 -0.27725306153297424 44
-0.45350381731987 2.229041337966919 -0.19566494226455688 44
-0.4552023410797119 2.2393903732299805 -0.1173640564084053 44
-0.4503793716430664 2.217646360397339 -0.038443636149168015 44
-0.4474879205226898 2.2053821086883545 0.5923095345497131 44
-0.4480383098125458 2.210073947906494 0.5113767385482788 44
-0.44605553150177 2.2022674083709717 0.4289347529411316 44
-0.44739383459091187 2.21085786819458 0.350808322429657 44
-0.4452231228351593 2.202108144760132 0.27115926146507263 44
-0.44940486550331116 2.224790096282959 0.19522887468338013 44
-0.4461444020271301 2.210637092590332 0.11618582159280777 44
-0.4433286786079407 2.1986641883850098 0.038482554256916046 44
-0.38106638193130493 1.8984265327453613 -0.5085796117782593 119
-0.4357273280620575 2.172706127166748 -0.5027658939361572 119
-0.44337067008018494 2.2128217220306396 -0.4308414161205292 119
-0.443719744682312 2.2165722846984863 -0.3519778251647949 44
-0.4503428637981415 2.251699447631836 -0.27725306153297424 44
-0.4447442889213562 2.22572660446167 -0.195229172706604 44
-0.4464051127433777 2.2360692024230957 -0.11710324138402939 44
-0.44165778160095215 2.2143023014068604 -0.03835725039243698 44
-0.4388430416584015 2.2021942138671875 0.5910162329673767 44
-0.43936970829963684 2.2068464756011963 0.510252833366394 44
-0.43836548924446106 2.203810930252075 0.4289347529411316 44
-0.43871116638183594 2.207562208175659 0.35002702474594116 44
-0.43656715750694275 2.1987812519073486 0.2705499529838562 44
-0.44066697359085083 2.2214596271514893 0.19479307532310486 44
-0.4374544024467468 2.2072830200195312 0.11592413485050201 44
-0.4356512129306793 2.200198173522949 0.038482554256916046 44
-0.3741057515144348 1.8998104333877563 -0.5085796117782593 119
-0.4287015199661255 2.1790688037872314 -0.5038906931877136 119
-0.434310644865036 2.209615468978882 -0.42988821864128113 119
-0.4355926513671875 2.218183755874634 -0.3519778251647949 44
-0.44113150238990784 2.248465061187744 -0.2766437232494354 44
-0.43658360838890076 2.227341651916504 -0.195229172706604 44
-0.4372469484806061 2.232790470123291 -0.11684243381023407 44
-0.43257907032966614 2.2109999656677246 -0.03827085718512535 44
-0.4307686686515808 2.2037878036499023 0.5910162329673767 44
-0.4312782287597656 2.208441972732544 0.510252833366394 44
-0.42934519052505493 2.200585126876831 0.42798152565956116 44
-0.4296722114086151 2.204308032989502 0.34924569725990295 44
-0.4285053014755249 2.200366497039795 0.2705499529838562 44
-0.43157070875167847 2.218170642852783 0.19435730576515198 44
-0.4284086227416992 2.203970193862915 0.11566246300935745 44
-0.4266311228275299 2.1968727111816406 0.038395293056964874 44
-0.3674719035625458 1.9011046886444092 -0.5085796117782593 119
-0.42109254002571106 2.1805520057678223 -0.5038906931877136 119
-0.42659497261047363 2.211118221282959 -0.42988821864128113 119
-0.4269123673439026 2.214841365814209 -0.35119566321372986 44
-0.4323418140411377 2.2451179027557373 -0.2760343551635742 44
-0.42786502838134766 2.2239608764648438 -0.19479337334632874 44
-0.42850786447525024 2.2293994426727295 -0.11658161878585815 44
-0.4239158630371094 2.207587242126465 -0.03818446770310402 44
-0.42216336727142334 2.2005345821380615 0.5897230505943298 44
-0.4226495623588562 2.205148696899414 0.5091289281845093 44
-0.4207380712032318 2.1972498893737793 0.4270283579826355 44
-0.421047180891037 2.200943946838379 0.3484644293785095 44
-0.4198903739452362 2.196974515914917 0.269940584897995 44
-0.4228910207748413 2.214771032333374 0.1939215213060379 44
-0.4207127094268799 2.2054519653320312 0.11566246300935745 44
-0.41802406311035156 2.1934375762939453 0.038308028131723404 44
-0.3608335554599762 1.9023758172988892 -0.5085796117782593 119
-0.41166436672210693 2.1724352836608887 -0.5016411542892456 119
-0.4179611802101135 2.2077713012695312 -0.42893505096435547 119
-0.4191785156726837 2.216318130493164 -0.35119566321372986 44
-0.4245022237300873 2.2466135025024414 -0.2760343551635742 44
-0.4191754460334778 2.220546245574951 -0.19435760378837585 44
-0.4197978973388672 2.2259750366210938 -0.11632081866264343 44
-0.4152817130088806 2.2041406631469727 -0.03809807822108269 44
-0.41447949409484863 2.2019946575164795 0.5897230505943298 44
-0.41494956612586975 2.206610679626465 0.5091289281845093 44
-0.41306567192077637 2.1987051963806152 0.4270283579826355 44
-0.41336190700531006 2.2024002075195312 0.3484644293785095 44
-0.41221892833709717 2.1984267234802246 0.269940584897995 44
-0.4151574373245239 2.216233491897583 0.1939215213060379 44
-0.4120931923389435 2.2019991874694824 0.1154007762670517 44
-0.4103650152683258 2.194883346557617 0.038308028131723404 44
-0.3541908264160156 1.9036238193511963 -0.5085796117782593 119
-0.4031882584095001 2.1690690517425537 -0.5005163550376892 119
-0.40935590863227844 2.2043910026550293 -0.42798182368278503 119
-0.41053882241249084 2.2129125595092773 -0.3504135012626648 44
-0.41575315594673157 2.243201971054077 -0.2754250168800354 44
-0.41051483154296875 2.2170979976654053 -0.19392181932926178 44
-0.4102087914943695 2.217607021331787 -0.1157992035150528 44
-0.40667685866355896 2.2006607055664062 -0.038011688739061356 44
-0.40591371059417725 2.198678493499756 0.5884297490119934 44
-0.4063608944416046 2.203254461288452 0.5080050230026245 44
-0.40449878573417664 2.1953063011169434 0.42607516050338745 44
-0.40477752685546875 2.198972702026367 0.3476831018924713 44
-0.4036448895931244 2.1949713230133057 0.2693312466144562 44
-0.4065188467502594 2.212770462036133 0.19348575174808502 44
-0.4035029113292694 2.1985132694244385 0.11513910442590714 44
-0.40179935097694397 2.191385269165039 0.03822077065706253 44
-0.34754377603530884 1.904848575592041 -0.5085796117782593 119
-0.3947407603263855 2.16567063331604 -0.4993916451931 119
-0.40165865421295166 2.2058064937591553 -0.42798182368278503 119
-0.4019279479980469 2.2094733715057373 -0.34963130950927734 44
-0.40792036056518555 2.2446393966674805 -0.2754250168800354 44
-0.40188348293304443 2.2136168479919434 -0.1934860497713089 44
-0.4015742838382721 2.2141122817993164 -0.11553838849067688 44
-0.3981013298034668 2.1971476078033447 -0.037925295531749725 44
-0.3982364237308502 2.2000820636749268 0.5884297490119934 44
-0.3986676335334778 2.2046597003936768 0.5080050230026245 44
-0.39683327078819275 2.196704864501953 0.42607516050338745 44
-0.39709919691085815 2.2003722190856934 0.3476831018924713 44
-0.3950999975204468 2.1914827823638916 0.26872187852859497 44
-0.39790937304496765 2.20927357673645 0.19304996728897095 44
-0.39582622051239014 2.199908494949341 0.11513910442590714 44
-0.3941475450992584 2.1927742958068848 0.03822077065706253 44
-0.340892493724823 1.9060500860214233 -0.5085796117782593 119
-0.3863218426704407 2.1622390747070312 -0.49826687574386597 119
-0.3930940628051758 2.2023632526397705 -0.4270286560058594 119
-0.3933461010456085 2.206001043319702 -0.3488491475582123 44
-0.3992122709751129 2.241163730621338 -0.2748156785964966 44
-0.3932814300060272 2.210102081298828 -0.19305026531219482 44
-0.3929692208766937 2.2105846405029297 -0.11527758091688156 44
-0.38955530524253845 2.193601608276367 -0.03783890977501869 44
-0.38971060514450073 2.1967031955718994 0.5871365070343018 44
-0.3901192843914032 2.201240301132202 0.5068811178207397 44
-0.38830727338790894 2.1932437419891357 0.4251219928264618 44
-0.38855594396591187 2.1968820095062256 0.3469018042087555 44
-0.38744789361953735 2.1928486824035645 0.26872187852859497 44
-0.38932937383651733 2.2057440280914307 0.19261419773101807 44
-0.38727766275405884 2.196359395980835 0.11487741768360138 44
-0.38562366366386414 2.189213275909424 0.03813350573182106 44
-0.33340340852737427 1.9024713039398193 -0.5072855353355408 119
-0.37877190113067627 2.163574457168579 -0.49826687574386597 119
-0.38455840945243835 2.1988871097564697 -0.42607545852661133 119
-0.38564333319664 2.2073607444763184 -0.3488491475582123 44
-0.3913867473602295 2.2425436973571777 -0.2748156785964966 44
-0.38470885157585144 2.206554651260376 -0.19261449575424194 44
-0.3843936622142792 2.2070236206054688 -0.11501676589250565 44
-0.38189584016799927 2.194948196411133 -0.03783890977501869 44
-0.3820402920246124 2.198050022125244 0.5871365070343018 44
-0.38159966468811035 2.197788715362549 0.505757212638855 44
-0.3798102140426636 2.1897497177124023 0.42416879534721375 44
-0.38004186749458313 2.1933584213256836 0.3461204767227173 44
-0.3789447247982025 2.189297914505005 0.26811254024505615 44
-0.38162752985954285 2.20708966255188 0.19261419773101807 44
-0.3796085715293884 2.197697877883911 0.11487741768360138 44
-0.3779795169830322 2.1905460357666016 0.03813350573182106 44
-0.32676050066947937 1.9036234617233276 -0.5072855353355408 119
-0.37204068899154663 2.1696853637695312 -0.4993916451931 119
-0.3760518431663513 2.195378065109253 -0.42512229084968567 119
-0.37710291147232056 2.2038254737854004 -0.34806695580482483 44
-0.38272032141685486 2.239004611968994 -0.27420634031295776 44
-0.3761657774448395 2.2029740810394287 -0.19217871129512787 44
-0.37584781646728516 2.203429937362671 -0.11475596576929092 44
-0.37339192628860474 2.1913394927978516 -0.03775251656770706 44
-0.37355488538742065 2.1946089267730713 0.5858432650566101 44
-0.37392565608024597 2.1991071701049805 0.505757212638855 44
-0.37134233117103577 2.186223268508911 0.4232156276702881 44
-0.3723832666873932 2.194671869277954 0.3461204767227173 44
-0.37047097086906433 2.1857142448425293 0.26750320196151733 44
-0.373089462518692 2.2034974098205566 0.192178413271904 44
-0.37110215425491333 2.1940863132476807 0.11461574584245682 44
-0.36949798464775085 2.186923027038574 0.03804624453186989 44
-0.3201136291027069 1.904752492904663 -0.5072855353355408 119
-0.36446481943130493 2.170970916748047 -0.4993916451931 119
-0.36838626861572266 2.1966774463653564 -0.42512229084968567 119
-0.3694078326225281 2.2051284313201904 -0.34806695580482483 44
-0.3749023973941803 2.2403268814086914 -0.27420634031295776 44
-0.36847367882728577 2.2042737007141113 -0.19217871129512787 44
-0.36733174324035645 2.199803352355957 -0.11449515074491501 44
-0.36574044823646545 2.19262957572937 -0.03775251656770706 44
-0.3658919930458069 2.195899486541748 0.5858432650566101 44
-0.36544710397720337 2.1955931186676025 0.5046333074569702 44
-0.3629036843776703 2.182664155960083 0.42226240038871765 44
-0.36391106247901917 2.191086769104004 0.34533917903900146 44
-0.3620269000530243 2.182098388671875 0.2668938636779785 44
-0.36539557576179504 2.2047860622406006 0.192178413271904 44
-0.3634411096572876 2.1953682899475098 0.11461574584245682 44
-0.3618619441986084 2.188199520111084 0.03804624453186989 44
-0.31346285343170166 1.9058582782745361 -0.5072855353355408 119
-0.3576742708683014 2.177037000656128 -0.5005163550376892 119
-0.35992127656936646 2.1931064128875732 -0.4241690933704376 119
-0.3609093427658081 2.201531171798706 -0.34728479385375977 44
-0.36627787351608276 2.2367241382598877 -0.27359697222709656 44
-0.3599729835987091 2.2006309032440186 -0.191742941737175 44
-0.3588455319404602 2.1961445808410645 -0.11423435062170029 44
-0.3572792410850525 2.1889588832855225 -0.03766612708568573 44
-0.35744747519493103 2.192396640777588 0.5845500230789185 44
-0.3577808439731598 2.196855306625366 0.5046333074569702 44
-0.3552825450897217 2.183917760848999 0.42226240038871765 44
-0.3562605381011963 2.1923434734344482 0.34533917903900146 44
-0.35440772771835327 2.1833488941192627 0.2668938636779785 44
-0.35690000653266907 2.201131582260132 0.1917426437139511 44
-0.3549773097038269 2.191694498062134 0.11435405910015106 44
-0.35342302918434143 2.184514045715332 0.037958983331918716 44
-0.3068082630634308 1.9069409370422363 -0.5072855353355408 119
-0.35007280111312866 2.178272247314453 -0.5005163550376892 119
-0.3522637188434601 2.1943492889404297 -0.4241690933704376 119
-0.3532223701477051 2.202777624130249 -0.34728479385375977 44
-0.35846802592277527 2.2379891872406006 -0.27359697222709656 44
-0.3522891700267792 2.201874017715454 -0.191742941737175 44
-0.3496014177799225 2.1875224113464355 -0.11371272802352905 44
-0.34963616728782654 2.190192699432373 -0.03766612708568573 44
-0.34903180599212646 2.188861131668091 0.583256721496582 44
-0.349343866109848 2.19327974319458 0.5035094022750854 44
-0.3468858599662781 2.1802971363067627 0.421309232711792 44
-0.34783050417900085 2.1886961460113525 0.34455785155296326 44
-0.34600621461868286 2.179671287536621 0.2662844955921173 44
-0.3484343886375427 2.197444438934326 0.19130685925483704 44
-0.3473246991634369 2.192920207977295 0.11435405910015106 44
-0.3450142741203308 2.1807963848114014 0.037871718406677246 44
-0.30014991760253906 1.9080003499984741 -0.5072855353355408 119
-0.3432233929634094 2.1842939853668213 -0.5016411542892456 119
-0.3446018695831299 2.195565700531006 -0.4241690933704376 119
-0.344766229391098 2.1991183757781982 -0.3465026021003723 44
-0.3498860001564026 2.2343239784240723 -0.27298763394355774 44
-0.34383127093315125 2.198169231414795 -0.19130714237689972 44
-0.3411926329135895 2.1837961673736572 -0.11345191299915314 44
-0.341217964887619 2.186460256576538 -0.0375797376036644 44
-0.34138914942741394 2.19006609916687 0.583256721496582 44
-0.34168580174446106 2.194485902786255 0.5035094022750854 44
-0.33851879835128784 2.176644802093506 0.42035603523254395 44
-0.3401884138584137 2.189897060394287 0.34455785155296326 44
-0.3376346826553345 2.17596173286438 0.2656751573085785 44
-0.3407617509365082 2.1986472606658936 0.19130685925483704 44
-0.3389039933681488 2.18918514251709 0.1140923872590065 44
-0.33739978075027466 2.1819875240325928 0.037871718406677246 44
-0.29348793625831604 1.9090362787246704 -0.5072855353355408 119
-0.3355966806411743 2.185478687286377 -0.5016411542892456 119
-0.33619171380996704 2.191903829574585 -0.42321592569351196 119
-0.33633992075920105 2.1954269409179688 -0.34572046995162964 44
-0.3413339853286743 2.230625867843628 -0.27237826585769653 44
-0.33615612983703613 2.1993558406829834 -0.19130714237689972 44
-0.33356767892837524 2.18497371673584 -0.11345191299915314 44
-0.33358368277549744 2.1876380443573 -0.0375797376036644 44
-0.3330150842666626 2.186469793319702 0.5819635391235352 44
-0.3332907259464264 2.1908481121063232 0.5023854970932007 44
-0.3309188187122345 2.1778132915496826 0.42035603523254395 44
-0.3318011164665222 2.1861886978149414 0.34377655386924744 44
-0.33003711700439453 2.1771271228790283 0.2656751573085785 44
-0.3323393166065216 2.1948986053466797 0.19087108969688416 44
-0.3312602639198303 2.190354824066162 0.1140923872590065 44
-0.3290345072746277 2.178208827972412 0.037784457206726074 44
-0.287539541721344 1.914825201034546 -0.5085796117782593 119
-0.3279658854007721 2.1866369247436523 -0.5016411542892456 119
-0.3285385072231293 2.193063974380493 -0.42321592569351196 119
-0.3279435634613037 2.1917033195495605 -0.3449382781982422 44
-0.3335455358028412 2.2318038940429688 -0.27237826585769653 44
-0.3277415633201599 2.195589780807495 -0.19087137281894684 44
-0.3252023160457611 2.1811859607696533 -0.11319109797477722 44
-0.3252090513706207 2.183844566345215 -0.03749334439635277 44
-0.3253808915615082 2.1876189708709717 0.5819635391235352 44
-0.3249253034591675 2.1871793270111084 0.5012615919113159 44
-0.32259446382522583 2.174100160598755 0.4194028675556183 44
-0.3241679072380066 2.187333583831787 0.34377655386924744 44
-0.3217087984085083 2.173356533050537 0.2650658190250397 44
-0.32467564940452576 2.196045398712158 0.19087108969688416 44
-0.3228830397129059 2.186558246612549 0.11383070051670074 44
-0.32142913341522217 2.1793441772460938 0.037784457206726074 44
-0.28051942586898804 1.9158662557601929 -0.5085796117782593 119
-0.31994926929473877 2.187824249267578 -0.5016411542892456 119
-0.3197888731956482 2.189396381378174 -0.42226269841194153 119
-0.31990838050842285 2.1928906440734863 -0.3449382781982422 44
-0.32464781403541565 2.228100538253784 -0.2717689573764801 44
-0.3189747929573059 2.191847085952759 -0.19043558835983276 44
-0.31720566749572754 2.182363271713257 -0.11319109797477722 44
-0.31720268726348877 2.1850216388702393 -0.03749334439635277 44
-0.3166676163673401 2.1840169429779053 0.5806702375411987 44
-0.31620845198631287 2.1835336685180664 0.5001376867294312 44
-0.3146238327026367 2.1752679347991943 0.4194028675556183 44
-0.31544265151023865 2.183619260787964 0.34299522638320923 44
-0.31374087929725647 2.174520969390869 0.2650658190250397 44
-0.3159140646457672 2.1922903060913086 0.1904352903366089 44
-0.31486672163009644 2.1877269744873047 0.11383070051670074 44
-0.3127279281616211 2.1755590438842773 0.037697192281484604 44
-0.2745131254196167 1.9216148853302002 -0.5098737478256226 119
-0.3116222321987152 2.1841044425964355 -0.5005163550376892 119
-0.31214451789855957 2.1904993057250977 -0.42226269841194153 119
-0.31155598163604736 2.1891050338745117 -0.3441561162471771 44
-0.31686830520629883 2.229220151901245 -0.2717689573764801 44
-0.31062179803848267 2.188015937805176 -0.18999981880187988 44
-0.30958589911460876 2.183457136154175 -0.11319109797477722 44
-0.30887266993522644 2.181165933609009 -0.037406954914331436 44
-0.3090420663356781 2.1851089000701904 0.5806702375411987 44
-0.3085845708847046 2.184624195098877 0.5001376867294312 44
-0.30634310841560364 2.171492338180542 0.41844967007637024 44
-0.3078184723854065 2.184706926345825 0.34299522638320923 44
-0.3054569661617279 2.1706886291503906 0.26445645093917847 44
-0.30825963616371155 2.1933796405792236 0.1904352903366089 44
-0.30653414130210876 2.1838676929473877 0.11356901377439499 44
-0.30512529611587524 2.17663836479187 0.037697192281484604 44
-0.26780375838279724 1.9225614070892334 -0.5098737478256226 119
-0.30399638414382935 2.1851789951324463 -0.5005163550376892 119
-0.3044963479042053 2.191575527191162 -0.42226269841194153 119
-0.3039126992225647 2.1901791095733643 -0.3441561162471771 44
-0.3084036707878113 2.2253968715667725 -0.2711595892906189 44
-0.3022993505001068 2.184152603149414 -0.1895640343427658 44
-0.30127862095832825 2.1795785427093506 -0.1129302978515625 44
-0.3005734384059906 2.1772782802581787 -0.037320561707019806 44
-0.30075302720069885 2.181389808654785 0.5793769955635071 44
-0.30029234290122986 2.180861473083496 0.4990138113498688 44
-0.2987613081932068 2.172548532485962 0.41844967007637024 44
-0.2995186150074005 2.180875301361084 0.3422139286994934 44
-0.2978779971599579 2.1717417240142822 0.26445645093917847 44
-0.30060145258903503 2.1944422721862793 0.1904352903366089 44
-0.29890915751457214 2.184924364089966 0.11356901377439499 44
-0.2968554198741913 2.172736167907715 0.03760993480682373 44
-0.2610911428928375 1.9234845638275146 -0.5098737478256226 119
-0.296366810798645 2.1862268447875977 -0.5005163550376892 119
-0.2961859703063965 2.1877613067626953 -0.42130953073501587 119
-0.29560399055480957 2.1863324642181396 -0.3433739244937897 44
-0.2999696433544159 2.2215416431427 -0.2705502510070801 44
-0.2946734130382538 2.185194492340088 -0.1895640343427658 44
-0.293668657541275 2.180617094039917 -0.1129302978515625 44
-0.2929714620113373 2.178314208984375 -0.037320561707019806 44
-0.29313674569129944 2.1824262142181396 0.5793769955635071 44
-0.2926778793334961 2.181896448135376 0.4990138113498688 44
-0.2905242145061493 2.1687135696411133 0.4174965023994446 44
-0.291904091835022 2.1819076538085938 0.3422139286994934 44
-0.2896381914615631 2.167849063873291 0.26384711265563965 44
-0.29293957352638245 2.1954782009124756 0.1904352903366089 44
-0.2906210422515869 2.1810052394866943 0.11330734193325043 44
-0.289269357919693 2.1737592220306396 0.03760993480682373 44
-0.25374242663383484 1.9195961952209473 -0.5085796117782593 119
-0.2893712818622589 2.1920783519744873 -0.5016411542892456 119
-0.28854748606681824 2.188781976699829 -0.42130953073501587 119
-0.2879704535007477 2.1873509883880615 -0.3433739244937897 44
-0.29156631231307983 2.2176549434661865 -0.26994088292121887 44
-0.28639546036720276 2.1812710762023926 -0.18912823498249054 44
-0.2854059338569641 2.176677703857422 -0.11266948282718658 44
-0.2847168743610382 2.1743667125701904 -0.03723417595028877 44
-0.2848905920982361 2.17864727973938 0.5780837535858154 44
-0.2844289541244507 2.1780736446380615 0.4978898763656616 44
-0.282952219247818 2.1697144508361816 0.4174965023994446 44
-0.2836482524871826 2.178016185760498 0.3414326012134552 44
-0.28206920623779297 2.16884708404541 0.26384711265563965 44
-0.2846326231956482 2.1915481090545654 0.1899995356798172 44
-0.2830061614513397 2.182006359100342 0.11330734193325043 44
-0.2810376286506653 2.169797897338867 0.03752266988158226 44
-0.24704022705554962 1.9204703569412231 -0.5085796117782593 119
-0.2817177176475525 2.193074941635132 -0.5016411542892456 119
-0.2802809178829193 2.1849074363708496 -0.4203563332557678 119
-0.2797059416770935 2.1834447383880615 -0.3425917625427246 44
-0.2831937074661255 2.2137365341186523 -0.26933157444000244 44
-0.27814847230911255 2.177316665649414 -0.18869248032569885 44
-0.2778061330318451 2.1776607036590576 -0.11266948282718658 44
-0.27712517976760864 2.175347328186035 -0.03723417595028877 44
-0.2766744792461395 2.174837350845337 0.5767905116081238 44
-0.27682435512542725 2.17905330657959 0.4978898763656616 44
-0.2753767967224121 2.1706888675689697 0.4174965023994446 44
-0.2760438323020935 2.178992986679077 0.3414326012134552 44
-0.2738739252090454 2.1648948192596436 0.26323774456977844 44
-0.2769809663295746 2.192528247833252 0.1899995356798172 44
-0.2747628390789032 2.1780271530151367 0.11304565519094467 44
-0.2734619081020355 2.1707656383514404 0.03752266988158226 44
-0.24033504724502563 1.921320915222168 -0.5085796117782593 119
-0.27406075596809387 2.194045066833496 -0.5016411542892456 119
-0.2726524770259857 2.1858723163604736 -0.4203563332557678 119
-0.2720826268196106 2.184407949447632 -0.3425917625427246 44
-0.27546462416648865 2.2147116661071777 -0.26933157444000244 44
-0.2705465257167816 2.178274393081665 -0.18869248032569885 44
-0.269588440656662 2.1736621856689453 -0.11240868270397186 44
-0.26953011751174927 2.1763014793395996 -0.03723417595028877 44
-0.2690812051296234 2.1757898330688477 0.5767905116081238 44
-0.26861923933029175 2.175171136856079 0.49676600098609924 44
-0.26719728112220764 2.1667654514312744 0.41654327511787415 44
-0.26783251762390137 2.175041913986206 0.34065133333206177 44
-0.2657097280025482 2.160912275314331 0.262628436088562 44
-0.2687188982963562 2.188537836074829 0.18956373631954193 44
-0.26655080914497375 2.1740171909332275 0.11278398334980011 44
-0.26527532935142517 2.1667449474334717 0.03743540868163109 44
-0.23362691700458527 1.9221481084823608 -0.5085796117782593 119
-0.26640045642852783 2.194988250732422 -0.5016411542892456 119
-0.2644301652908325 2.1819381713867188 -0.41940316557884216 119
-0.26386263966560364 2.180441379547119 -0.34180957078933716 44
-0.2671367824077606 2.2107326984405518 -0.26872220635414124 44
-0.2623445987701416 2.174260377883911 -0.18825668096542358 44
-0.26140204071998596 2.16963267326355 -0.11214786767959595 44
-0.261334627866745 2.1722655296325684 -0.03714778274297714 44
-0.2609085440635681 2.1719202995300293 0.5754972100257874 44
-0.2610248327255249 2.176095724105835 0.49676600098609924 44
-0.2596322298049927 2.167685031890869 0.41654327511787415 44
-0.26023855805397034 2.1759636402130127 0.34065133333206177 44
-0.2581651210784912 2.1618266105651855 0.262628436088562 44
-0.2604880630970001 2.184516668319702 0.18912795186042786 44
-0.25896045565605164 2.174934148788452 0.11278398334980011 44
-0.25771036744117737 2.1676576137542725 0.03743540868163109 44
-0.22691594064235687 1.9229519367218018 -0.5085796117782593 119
-0.25873687863349915 2.1959047317504883 -0.5016411542892456 119
-0.2568121552467346 2.182847738265991 -0.41940316557884216 119
-0.25567370653152466 2.1764445304870605 -0.3410274386405945 44
-0.259418249130249 2.2116518020629883 -0.26872220635414124 44
-0.2547534108161926 2.1751630306243896 -0.18825668096542358 44
-0.25324705243110657 2.16557240486145 -0.11188706010580063 44
-0.25375041365623474 2.1731646060943604 -0.03714778274297714 44
-0.2527662515640259 2.168020486831665 0.5742040276527405 44
-0.25286388397216797 2.172153949737549 0.4956420660018921 44
-0.2514972984790802 2.1637024879455566 0.4155901074409485 44
-0.2520720660686493 2.171952724456787 0.33987000584602356 44
-0.2500460743904114 2.1577844619750977 0.2620190680027008 44
-0.2528610825538635 2.1854124069213867 0.18912795186042786 44
-0.2513669431209564 2.1758251190185547 0.11278398334980011 44
-0.2495693862438202 2.1635775566101074 0.037348147481679916 44
-0.22020220756530762 1.9237322807312012 -0.5085796117782593 119
-0.25107017159461975 2.1967945098876953 -0.5016411542892456 119
-0.24863454699516296 2.178854465484619 -0.41844993829727173 119
-0.2480749487876892 2.177323818206787 -0.3410274386405945 44
-0.2511356770992279 2.207613229751587 -0.2681128680706024 44
-0.24659700691699982 2.1710898876190186 -0.1878209114074707 44
-0.24512359499931335 2.1614818572998047 -0.11162624508142471 44
-0.24616311490535736 2.174036979675293 -0.03714778274297714 44
-0.2451968938112259 2.1688895225524902 0.5742040276527405 44
-0.24528011679649353 2.173023223876953 0.4956420660018921 44
-0.24394305050373077 2.164567232131958 0.4155901074409485 44
-0.24448899924755096 2.1728193759918213 0.33987000584602356 44
-0.24251247942447662 2.158644199371338 0.2620190680027008 44
-0.24467583000659943 2.1813321113586426 0.18869218230247498 44
-0.24321460723876953 2.171726703643799 0.11252229660749435 44
-0.24201557040214539 2.164435625076294 0.037348147481679916 44
-0.21348577737808228 1.924489140510559 -0.5085796117782593 119
-0.24340039491653442 2.197657585144043 -0.5016411542892456 119
-0.24102739989757538 2.179708957672119 -0.41844993829727173 119
-0.23993122577667236 2.1732676029205322 -0.34024524688720703 44
-0.24288438260555267 2.203543186187744 -0.2675034999847412 44
-0.23901699483394623 2.1719374656677246 -0.1878209114074707 44
-0.2375771403312683 2.1623244285583496 -0.11162624508142471 44
-0.2380276918411255 2.1699137687683105 -0.03706139326095581 44
-0.23709872364997864 2.164931058883667 0.572910726070404 44
-0.23716381192207336 2.169023275375366 0.4945181906223297 44
-0.2358531504869461 2.1605262756347656 0.41463690996170044 44
-0.23636788129806519 2.168750047683716 0.33908867835998535 44
-0.23443910479545593 2.1545441150665283 0.261409729719162 44
-0.2370600700378418 2.1821727752685547 0.18869218230247498 44
-0.23563237488269806 2.17256236076355 0.11252229660749435 44
-0.233920618891716 2.160297155380249 0.037260886281728745 44
-0.2067667543888092 1.9252227544784546 -0.5085796117782593 119
-0.23572766780853271 2.1984939575195312 -0.5016411542892456 119
-0.2328949123620987 2.17565655708313 -0.41749680042266846 119
-0.2323436439037323 2.1740920543670654 -0.34024524688720703 44
-0.23466461896896362 2.1994428634643555 -0.2668941617012024 44
-0.23090647161006927 2.1678054332733154 -0.18738512694835663 44
-0.23002776503562927 2.163140296936035 -0.11162624508142471 44
-0.2299240380525589 2.165759801864624 -0.03697500377893448 44
-0.22954027354717255 2.165745496749878 0.572910726070404 44
-0.22959105670452118 2.1698379516601562 0.4945181906223297 44
-0.22831007838249207 2.1613364219665527 0.41463690996170044 44
-0.2287960946559906 2.1695618629455566 0.33908867835998535 44
-0.22691689431667328 2.1553492546081543 0.261409729719162 44
-0.22892074286937714 2.1780331134796143 0.1882563978433609 44
-0.2275262475013733 2.1684060096740723 0.11226062476634979 44
-0.22637836635112762 2.161100387573242 0.037260886281728745 44
-0.20004522800445557 1.925932765007019 -0.5085796117782593 119
-0.22855450212955475 2.204149007797241 -0.5027658939361572 119
-0.22529904544353485 2.1764564514160156 -0.41749680042266846 119
-0.2242455631494522 2.1699774265289307 -0.3394630551338196 44
-0.22698570787906647 2.2002487182617188 -0.2668941617012024 44
-0.22333800792694092 2.168598175048828 -0.18738512694835663 44
-0.22247560322284698 2.1639301776885986 -0.11162624508142471 44
-0.2223627269268036 2.1665492057800293 -0.03697500377893448 44
-0.22148674726486206 2.161728858947754 0.5716174840927124 44
-0.22151976823806763 2.1657793521881104 0.49339425563812256 44
-0.22026561200618744 2.1572370529174805 0.4136837124824524 44
-0.22072072327136993 2.1654343605041504 0.33830738067626953 44
-0.21939195692539215 2.156128168106079 0.261409729719162 44
-0.22131657600402832 2.178818941116333 0.1882563978433609 44
-0.21995572745800018 2.169187068939209 0.11226062476634979 44
-0.21832984685897827 2.1569035053253174 0.037173621356487274 44
-0.19380344450473785 1.9314247369766235 -0.5098737478256226 119
-0.22085918486118317 2.2049331665039062 -0.5027658939361572 119
-0.21721205115318298 2.1723453998565674 -0.416543573141098 119
-0.21617911756038666 2.1658332347869873 -0.3386808931827545 44
-0.2188119888305664 2.196089506149292 -0.2662848234176636 44
-0.2157668173313141 2.1693644523620605 -0.18738512694835663 44
-0.2144273817539215 2.1597249507904053 -0.11136544495820999 44
-0.214798703789711 2.1673121452331543 -0.03697500377893448 44
-0.21393954753875732 2.1624889373779297 0.5716174840927124 44
-0.21395844221115112 2.166539430618286 0.49339425563812256 44
-0.21225260198116302 2.1531083583831787 0.41273054480552673 44
