# .PCD v0.7 - Point Cloud Data file format
VERSION 0.7
FIELDS x y z intensity
SIZE 4 4 4 4
TYPE F F F F
COUNT 1 1 1 1
WIDTH 800
HEIGHT 1
VIEWPOINT 0 0 0 1 0 0 0
POINTS 800
DATA ascii
nan nan nan 0
28.859773635864258 -4.901991844177246 1.532135009765625 80
29.04193115234375 -4.93814754486084 0.5135370492935181 80
1.841963768005371 -0.31485265493392944 -0.4904623031616211 119
2.0977840423583984 -0.3589576780796051 -0.48252031207084656 119
2.4517836570739746 -0.41997191309928894 -0.47564128041267395 119
2.958141326904297 -0.5072386264801025 -0.46930378675460815 119
3.779463529586792 -0.6487514972686768 -0.46615076065063477 119
4.985998153686523 -0.8567512035369873 -0.439265638589859 119
7.768468379974365 -1.336262822151184 -0.4097309410572052 119
17.419265747070312 -2.9994375705718994 -0.3047846257686615 119
9.271442413330078 -1.5981234312057495 2.508909225463867 107
10.80175495147705 -1.8638455867767334 2.5197949409484863 107
12.975811004638672 -2.24131178855896 2.549778699874878 107
16.057769775390625 -2.7765445709228516 2.572073459625244 107
21.446191787719727 -3.7121105194091797 2.667719841003418 107
31.05036735534668 -5.380074501037598 2.753685712814331 107
nan nan nan 0
nan nan nan 0
1.8408535718917847 -0.3212803602218628 -0.4904623031616211 119
2.0965182781219482 -0.3662780821323395 -0.48252031207084656 119
2.4551379680633545 -0.42937329411506653 -0.4765945076942444 119
2.9514880180358887 -0.5167097449302673 -0.4685215950012207 119
3.7771756649017334 -0.661940336227417 -0.46615076065063477 119
4.982976913452148 -0.874150276184082 -0.439265638589859 119
7.763756275177002 -1.363371729850769 -0.4097309410572052 119
17.41361427307129 -3.061089515686035 -0.3048710227012634 119
9.265807151794434 -1.630476951599121 2.508909225463867 107
10.82397174835205 -1.9066104888916016 2.526538372039795 107
12.972742080688477 -2.287444591522217 2.550731897354126 107
16.057706832885742 -2.834296703338623 2.573636293411255 107
21.408666610717773 -3.7826313972473145 2.664673089981079 107
31.124589920043945 -5.504909515380859 2.76196551322937 107
nan nan nan 0
nan nan nan 0
1.8397208452224731 -0.32770419120788574 -0.4904623031616211 119
2.0952272415161133 -0.37359410524368286 -0.48252031207084656 119
2.4536240100860596 -0.43794071674346924 -0.4765945076942444 119
2.9496665000915527 -0.5270091891288757 -0.4685215950012207 119
3.7748420238494873 -0.6751210689544678 -0.46615076065063477 119
4.97989559173584 -0.8915388584136963 -0.439265638589859 119
7.7589497566223145 -1.390463948249817 -0.4097309410572052 119
17.353614807128906 -3.1130282878875732 -0.3040071129798889 119
9.260059356689453 -1.6628109216690063 2.508909225463867 107
10.860407829284668 -1.952138900756836 2.536653518676758 107
12.97433853149414 -2.334451913833618 2.552638292312622 107
16.057437896728516 -2.892082452774048 2.5751988887786865 107
21.395334243774414 -3.8573386669158936 2.664673089981079 107
31.051265716552734 -5.603790760040283 2.757172107696533 107
nan nan nan 0
41.803802490234375 -7.559359073638916 0.7408546209335327 80
1.8433176279067993 -0.3349875509738922 -0.491756409406662 119
2.0939102172851562 -0.38090550899505615 -0.48252031207084656 119
2.452080488204956 -0.44650277495384216 -0.4765945076942444 119
2.9478089809417725 -0.5373022556304932 -0.4685215950012207 119
3.7724626064300537 -0.6882935762405396 -0.46615076065063477 119
4.981653213500977 -0.9098113179206848 -0.4397014081478119 119
7.758960723876953 -1.418437123298645 -0.4099917411804199 119
17.332807540893555 -3.1717851161956787 -0.30383431911468506 119
9.249446868896484 -1.6942540407180786 2.5076160430908203 107
10.848733901977539 -1.9891581535339355 2.535529613494873 107
12.951628684997559 -2.3770687580108643 2.549778699874878 107
16.052099227905273 -2.949007749557495 2.5759799480438232 107
21.371976852416992 -3.930203437805176 2.663454294204712 107
31.01681900024414 -5.7094407081604 2.7558646202087402 107
45.66094970703125 -8.413307189941406 2.4312667846679688 106
45.744632720947266 -8.436982154846191 0.811275064945221 106
1.8468856811523438 -0.34230002760887146 -0.4930504858493805 119
2.0925679206848145 -0.38821229338645935 -0.48252031207084656 119
2.4505069255828857 -0.4550594389438629 -0.4765945076942444 119
2.945915460586548 -0.5475887656211853 -0.4685215950012207 119
3.7700366973876953 -0.7014577388763428 -0.46615076065063477 119
4.978446960449219 -0.9271950721740723 -0.4397014081478119 119
7.75396203994751 -1.4455124139785767 -0.4099917411804199 119
17.29705810546875 -3.2276833057403564 -0.3034023642539978 119
9.243476867675781 -1.7265301942825317 2.5076160430908203 107
10.841724395751953 -2.027015209197998 2.535529613494873 107
12.933603286743164 -2.4204580783843994 2.547872304916382 107
16.04170799255371 -3.0050220489501953 2.5759799480438232 107
21.35325050354004 -4.0038676261901855 2.6628451347351074 107
30.9966983795166 -5.81767463684082 2.7558646202087402 107
45.714725494384766 -8.5883150100708 2.4357151985168457 106
45.631378173828125 -8.580902099609375 0.8097915649414062 106
1.845679521560669 -0.3487447500228882 -0.4930504858493805 119
2.091200113296509 -0.3955143690109253 -0.48252031207084656 119
2.4489035606384277 -0.46361052989959717 -0.4765945076942444 119
2.939134120941162 -0.5569491386413574 -0.46773943305015564 119
3.7675652503967285 -0.7146133780479431 -0.46615076065063477 119
4.975180149078369 -0.9445674419403076 -0.4397014081478119 119
7.748868942260742 -1.4725699424743652 -0.4099917411804199 119
17.26603889465332 -3.28430438041687 -0.3030568063259125 119
9.237394332885742 -1.758785605430603 2.5076160430908203 107
10.82501220703125 -2.063023328781128 2.5332815647125244 107
12.91543197631836 -2.4637503623962402 2.5459659099578857 107
16.02627182006836 -3.0600738525390625 2.5751988887786865 107
21.33914566040039 -4.078380107879639 2.6628451347351074 107
30.97620391845703 -5.925837993621826 2.7558646202087402 107
45.66975784301758 -8.745019912719727 2.4349300861358643 106
45.64533996582031 -8.748602867126465 0.8105769753456116 106
1.8491934537887573 -0.3560985326766968 -0.4943445920944214 119
2.08980655670166 -0.40281158685684204 -0.48252031207084656 119
2.447270393371582 -0.47215598821640015 -0.4765945076942444 119
2.9371719360351562 -0.5672052502632141 -0.46773943305015564 119
3.765048027038574 -0.7277603149414062 -0.46615076065063477 119
4.971852779388428 -0.9619282484054565 -0.4397014081478119 119
7.748583793640137 -1.500558853149414 -0.41025257110595703 119
17.234840393066406 -3.3407492637634277 -0.30271127820014954 119
9.23119831085205 -1.791019320487976 2.5076160430908203 107
10.81296157836914 -2.0998682975769043 2.5321576595306396 107
12.897117614746094 -2.5069456100463867 2.5440595149993896 107
16.015491485595703 -3.115997314453125 2.5751988887786865 107
21.31990623474121 -4.151893615722656 2.662235736846924 107
30.96510887145996 -6.035834789276123 2.7567360401153564 107
45.64385223388672 -8.905340194702148 2.4351918697357178 106
nan nan nan 0
1.847939133644104 -0.3625512421131134 -0.4943445920944214 119
2.088387966156006 -0.4101039469242096 -0.48252031207084656 119
2.4456074237823486 -0.4806956946849823 -0.4765945076942444 119
2.9400196075439453 -0.5784077048301697 -0.4685215950012207 119
3.7624847888946533 -0.7408983111381531 -0.46615076065063477 119
4.9635772705078125 -0.9783141613006592 -0.439265638589859 119
7.748197555541992 -1.5285638570785522 -0.41051337122917175 119
17.208358764648438 -3.397984266281128 -0.30245208740234375 119
9.22489070892334 -1.8232313394546509 2.5076160430908203 107
10.800786018371582 -2.1366543769836426 2.531033754348755 107
12.883474349975586 -2.5509963035583496 2.5431065559387207 107
16.004518508911133 -3.1718828678131104 2.5751988887786865 107
21.310152053833008 -4.227254867553711 2.6628451347351074 107
30.9487361907959 -6.144856929779053 2.757172107696533 107
45.617393493652344 -9.065587043762207 2.4354536533355713 106
nan nan nan 0
1.8466624021530151 -0.36899954080581665 -0.4943445920944214 119
2.0917208194732666 -0.41834670305252075 -0.4836450219154358 119
2.4439144134521484 -0.4892295002937317 -0.4765945076942444 119
2.9379825592041016 -0.5886667966842651 -0.4685215950012207 119
3.759875535964966 -0.7540273070335388 -0.46615076065063477 119
4.965015888214111 -0.9966146349906921 -0.4397014081478119 119
7.747710227966309 -1.556584358215332 -0.41077420115470886 119
17.19149398803711 -3.4570467472076416 -0.3023656904697418 119
9.21373462677002 -1.8544679880142212 2.5063228607177734 107
10.783710479736328 -2.1724185943603516 2.5287861824035645 107
12.869678497314453 -2.594982385635376 2.5421533584594727 107
15.993349075317383 -3.2277297973632812 2.5751988887786865 107
21.26607894897461 -4.295719146728516 2.659188985824585 107
30.878276824951172 -6.242979526519775 2.7528140544891357 107
45.580570220947266 -9.223774909973145 2.4351918697357178 106
61.36759567260742 -12.429617881774902 1.0922588109970093 0
1.8453630208969116 -0.37544333934783936 -0.4943445920944214 119
2.090247869491577 -0.425645649433136 -0.4836450219154358 119
2.4421918392181396 -0.4977573752403259 -0.4765945076942444 119
2.940748929977417 -0.599905788898468 -0.46930378675460815 119
3.757220506668091 -0.7671471238136292 -0.46615076065063477 119
4.9615068435668945 -1.0139397382736206 -0.4397014081478119 119
7.747121334075928 -1.5846198797225952 -0.4110349714756012 119
17.169525146484375 -3.5150294303894043 -0.30219292640686035 119
9.207204818725586 -1.8866186141967773 2.5063228607177734 107
10.776061058044434 -2.210047721862793 2.5287861824035645 107
12.860542297363281 -2.639890193939209 2.5421533584594727 107
15.981985092163086 -3.2835371494293213 2.5751988887786865 107
21.236373901367188 -4.366927146911621 2.6573610305786133 107
30.802631378173828 -6.339681625366211 2.7480204105377197 107
45.54320526123047 -9.381816864013672 2.4349300861358643 106
60.37396240234375 -12.447911262512207 1.0753298997879028 0
1.844041347503662 -0.38188260793685913 -0.4943445920944214 119
2.088749408721924 -0.4329393804073334 -0.4836450219154358 119
2.440439462661743 -0.5062791705131531 -0.4765945076942444 119
2.943472146987915 -0.6111712455749512 -0.4700859487056732 119
3.7545197010040283 -0.7802576422691345 -0.46615076065063477 119
4.962813377380371 -1.032266616821289 -0.4401371479034424 119
7.741542816162109 -1.6116527318954468 -0.4110349714756012 119
17.147361755371094 -3.5729012489318848 -0.3020201325416565 119
9.200563430786133 -1.9187462329864502 2.5063228607177734 107
10.768280982971191 -2.247649669647217 2.5287861824035645 107
12.851249694824219 -2.684765577316284 2.5421533584594727 107
15.975257873535156 -3.3403148651123047 2.5759799480438232 107
21.201568603515625 -4.436963081359863 2.654923677444458 107
30.790063858032227 -6.449206352233887 2.748892068862915 107
45.51017761230469 -9.540735244750977 2.4349300861358643 106
60.33993148803711 -12.660633087158203 1.0755045413970947 0
1.8427647352218628 -0.38799554109573364 -0.4943445920944214 119
2.092146158218384 -0.44050300121307373 -0.4847698211669922 119
2.4388370513916016 -0.5139435529708862 -0.4765945076942444 119
2.9367055892944336 -0.6193962097167969 -0.46930378675460815 119
3.7520501613616943 -0.7920488715171814 -0.46615076065063477 119
4.959546089172363 -1.047852635383606 -0.4401371479034424 119
7.741325855255127 -1.6369985342025757 -0.4112958014011383 119
17.121379852294922 -3.6236484050750732 -0.3017609715461731 119
9.194490432739258 -1.9476412534713745 2.5063228607177734 107
10.7659330368042 -2.2824785709381104 2.529910087585449 107
12.842751502990723 -2.725125789642334 2.5421533584594727 107
15.96468448638916 -3.390486240386963 2.5759799480438232 107
21.177818298339844 -4.501483917236328 2.653704881668091 107
30.79401206970215 -6.55108642578125 2.751070976257324 107
45.47998046875 -9.683662414550781 2.4349300861358643 106
60.285186767578125 -12.847006797790527 1.0752426385879517 0
1.8414679765701294 -0.3941042423248291 -0.4943445920944214 119
2.085832118988037 -0.4467828869819641 -0.4836450219154358 119
2.437028169631958 -0.5224535465240479 -0.4765945076942444 119
2.934525728225708 -0.6296434998512268 -0.46930378675460815 119
3.744410514831543 -0.8040992021560669 -0.46554142236709595 119
4.960728168487549 -1.0662050247192383 -0.44057294726371765 119
7.735564708709717 -1.6640108823776245 -0.4112958014011383 119
17.089078903198242 -3.679182291030884 -0.30141541361808777 119
9.18763542175293 -1.9797241687774658 2.5063228607177734 107
10.75790023803711 -2.320044755935669 2.529910087585449 107
12.833160400390625 -2.7699387073516846 2.5421533584594727 107
15.95758056640625 -3.4472358226776123 2.576761484146118 107
21.152273178100586 -4.5732831954956055 2.6524860858917236 107
30.800167083740234 -6.664858818054199 2.753685712814331 107
45.450782775878906 -9.843415260314941 2.4351918697357178 106
54.171836853027344 -11.742058753967285 0.966863214969635 0
1.8400111198425293 -0.40085092186927795 -0.4943445920944214 119
2.0841805934906006 -0.45442482829093933 -0.4836450219154358 119
2.439892053604126 -0.5324286222457886 -0.47754764556884766 119
2.927373170852661 -0.6393410563468933 -0.4685215950012207 119
3.741438150405884 -0.817817747592926 -0.46554142236709595 119
4.956787109375 -1.08437979221344 -0.44057294726371765 119
7.7342915534973145 -1.6934200525283813 -0.411556601524353 119
17.04617691040039 -3.7353711128234863 -0.3008970320224762 119
9.1756010055542 -2.012350559234619 2.5050294399261475 107
10.749323844909668 -2.3594589233398438 2.529910087585449 107
12.827715873718262 -2.818009376525879 2.5431065559387207 107
15.949662208557129 -3.506760597229004 2.577542781829834 107
21.125675201416016 -4.648646354675293 2.6512672901153564 107
30.780393600463867 -6.778773307800293 2.7541213035583496 107
45.409523010253906 -10.008859634399414 2.4349300861358643 106
46.009891510009766 -10.149609565734863 0.8217465281486511 106
1.838600754737854 -0.40727129578590393 -0.4943445920944214 119
2.0778250694274902 -0.4606427252292633 -0.48252031207084656 119
2.438018560409546 -0.5409421324729919 -0.47754764556884766 119
2.925123691558838 -0.6495556235313416 -0.4685215950012207 119
3.738560438156128 -0.8308728933334351 -0.46554142236709595 119
4.952971458435059 -1.1016756296157837 -0.44057294726371765 119
7.733207702636719 -1.7214924097061157 -0.41181743144989014 119
17.05743408203125 -3.8002867698669434 -0.30132901668548584 119
9.168519973754883 -2.0443670749664307 2.5050294399261475 107
10.745777130126953 -2.3980276584625244 2.531033754348755 107
12.822590827941895 -2.8638389110565186 2.5440595149993896 107
15.937323570251465 -3.5624139308929443 2.577542781829834 107
21.099632263183594 -4.720193386077881 2.6500487327575684 107
30.678775787353516 -6.868763446807861 2.7471489906311035 107
45.393798828125 -10.171674728393555 2.435976982116699 106
45.34979248046875 -10.170126914978027 0.8105769753456116 106
1.8371678590774536 -0.41368672251701355 -0.4943445920944214 119
2.076204538345337 -0.46789291501045227 -0.48252031207084656 119
2.440903663635254 -0.5505290627479553 -0.4785008728504181 119
2.9228384494781494 -0.6597622632980347 -0.4685215950012207 119
3.7307968139648438 -0.8428242206573486 -0.46493205428123474 119
4.953954219818115 -1.1200565099716187 -0.4410087466239929 119
7.732021331787109 -1.7495777606964111 -0.41207820177078247 119
17.053815841674805 -3.862013339996338 -0.3015017807483673 119
9.161328315734863 -2.0763587951660156 2.5050294399261475 107
10.737340927124023 -2.4355227947235107 2.531033754348755 107
12.812516212463379 -2.908580780029297 2.5440595149993896 107
15.92479133605957 -3.6180238723754883 2.577542781829834 107
21.073348999023438 -4.7916154861450195 2.648829936981201 107
30.630329132080078 -6.970284461975098 2.7449700832366943 107
45.35801696777344 -10.330066680908203 2.435976982116699 106
45.309139251708984 -10.327253341674805 0.8104897141456604 106
1.8310047388076782 -0.4190197288990021 -0.4930504858493805 119
2.069809675216675 -0.4740496873855591 -0.48139551281929016 119
2.438966989517212 -0.5590460300445557 -0.4785008728504181 119
2.9253313541412354 -0.671065092086792 -0.46930378675460815 119
3.727832078933716 -0.8558420538902283 -0.46493205428123474 119
4.950014114379883 -1.1373422145843506 -0.4410087466239929 119
7.725866794586182 -1.7765568494796753 -0.41207820177078247 119
17.04997444152832 -3.9237613677978516 -0.3016745448112488 119
9.154024124145508 -2.108325242996216 2.5050294399261475 107
10.733521461486816 -2.4740827083587646 2.5321576595306396 107
12.807068824768066 -2.954390287399292 2.5450127124786377 107
15.90725326538086 -3.672478675842285 2.576761484146118 107
21.046825408935547 -4.862911701202393 2.647611379623413 107
30.605812072753906 -7.0771613121032715 2.7449700832366943 107
45.32168197631836 -10.488332748413086 2.435976982116699 106
41.20609664916992 -9.543482780456543 0.7376258969306946 105
1.829530954360962 -0.42540857195854187 -0.4930504858493805 119
2.0681424140930176 -0.48127180337905884 -0.48139551281929016 119
2.4417810440063477 -0.5686694979667664 -0.47945404052734375 119
2.92297101020813 -0.6812722682952881 -0.46930378675460815 119
3.7296547889709473 -0.8699766993522644 -0.46554142236709595 119
4.946013927459717 -1.154613971710205 -0.4410087466239929 119
7.724481105804443 -1.8046503067016602 -0.4123390316963196 119
17.045909881591797 -3.9855289459228516 -0.30184733867645264 119
9.151311874389648 -2.1413660049438477 2.5063228607177734 107
10.720076560974121 -2.5104236602783203 2.531033754348755 107
12.796677589416504 -2.999077320098877 2.5450127124786377 107
15.89433765411377 -3.727982997894287 2.576761484146118 107
21.02005958557129 -4.934081077575684 2.646392822265625 107
30.6148624420166 -7.1919264793396 2.7480204105377197 107
nan nan nan 0
36.077457427978516 -8.488468170166016 0.6462625861167908 105
1.8280348777770996 -0.4317922294139862 -0.4930504858493805 119
2.0664498805999756 -0.4884880483150482 -0.48139551281929016 119
2.435004711151123 -0.5760595202445984 -0.4785008728504181 119
2.9205751419067383 -0.6914712190628052 -0.46930378675460815 119
3.726595401763916 -0.8829903602600098 -0.46554142236709595 119
4.941953659057617 -1.1718717813491821 -0.4410087466239929 119
7.722992897033691 -1.8327558040618896 -0.4125998318195343 119
17.041622161865234 -4.047316551208496 -0.3020201325416565 119
9.143781661987305 -2.173297166824341 2.5063228607177734 107
10.720727920532227 -2.5500833988189697 2.5332815647125244 107
12.781355857849121 -3.042591094970703 2.5440595149993896 107
15.876421928405762 -3.782297134399414 2.5759799480438232 107
20.99305534362793 -5.005123138427734 2.645174026489258 107
30.64771270751953 -7.312621116638184 2.7532498836517334 107
nan nan nan 0
nan nan nan 0
1.8218202590942383 -0.43704405426979065 -0.491756409406662 119
2.064732074737549 -0.49569833278656006 -0.48139551281929016 119
2.432979106903076 -0.5845557451248169 -0.4785008728504181 119
2.9181435108184814 -0.7016617059707642 -0.46930378675460815 119
3.7234904766082764 -0.895993173122406 -0.46554142236709595 119
4.937832832336426 -1.189115285873413 -0.4410087466239929 119
7.716547966003418 -1.8597028255462646 -0.4125998318195343 119
17.032251358032227 -4.107950210571289 -0.30210649967193604 119
9.136138916015625 -2.2052016258239746 2.5063228607177734 107
10.659667015075684 -2.574906349182129 2.520918846130371 107
12.770657539367676 -3.0871877670288086 2.5440595149993896 107
15.863122940063477 -3.837693214416504 2.5759799480438232 107
20.960983276367188 -5.074868202209473 2.643345832824707 107
30.53486442565918 -7.398444175720215 2.745405912399292 107
nan nan nan 0
nan nan nan 0
1.8202835321426392 -0.44340071082115173 -0.491756409406662 119
2.0629892349243164 -0.5029025673866272 -0.48139551281929016 119
2.4309239387512207 -0.5930448174476624 -0.4785008728504181 119
2.910878896713257 -0.7106723189353943 -0.4685215950012207 119
3.725161075592041 -0.9101630449295044 -0.46615076065063477 119
4.928813457489014 -1.205161213874817 -0.44057294726371765 119
7.724559783935547 -1.8901877403259277 -0.41338226199150085 119
17.06636619567871 -4.179270267486572 -0.30297043919563293 119
9.128386497497559 -2.237079381942749 2.5063228607177734 107
10.645883560180664 -2.6109397411346436 2.5197949409484863 107
12.755037307739258 -3.1305770874023438 2.5431065559387207 107
15.849630355834961 -3.8930423259735107 2.5759799480438232 107
20.947961807250977 -5.1491899490356445 2.6439552307128906 107
27.49553871154785 -6.763729095458984 2.4739158153533936 107
nan nan nan 0
nan nan nan 0
1.814036250114441 -0.4485926032066345 -0.4904623031616211 119
2.061221122741699 -0.5101006627082825 -0.48139551281929016 119
2.424074411392212 -0.6003468036651611 -0.47754764556884766 119
2.9083802700042725 -0.7208288311958313 -0.4685215950012207 119
3.726778268814087 -0.9243555068969727 -0.4667600989341736 119
4.924576282501221 -1.2223587036132812 -0.44057294726371765 119
7.71306848526001 -1.9159361124038696 -0.41312146186828613 119
17.0565242767334 -4.240023136138916 -0.3030568063259125 119
9.115835189819336 -2.26776385307312 2.5050294399261475 107
10.622520446777344 -2.6445536613464355 2.516423225402832 107
12.734505653381348 -3.172708034515381 2.5411999225616455 107
15.845528602600098 -3.9507339000701904 2.577542781829834 107
20.915414810180664 -5.2186760902404785 2.642127275466919 107
nan nan nan 0
24.926589965820312 -6.228761196136475 1.3445106744766235 105
23.379648208618164 -5.846540451049805 0.4199921190738678 105
1.8124592304229736 -0.45492202043533325 -0.4904623031616211 119
2.0594279766082764 -0.5172925591468811 -0.48139551281929016 119
2.421964168548584 -0.6088047027587891 -0.47754764556884766 119
2.901057481765747 -0.7297718524932861 -0.46773943305015564 119
3.7235288619995117 -0.9373587369918823 -0.4667600989341736 119
4.9202799797058105 -1.2395411729812622 -0.44057294726371765 119
7.716017246246338 -1.9452894926071167 -0.41364309191703796 119
nan nan nan 0
9.11254596710205 -2.3007524013519287 2.5063228607177734 107
10.617948532104492 -2.6828105449676514 2.517547130584717 107
12.737628936767578 -3.220750093460083 2.5440595149993896 107
15.83164119720459 -4.006021022796631 2.577542781829834 107
20.90188217163086 -5.292870998382568 2.6427366733551025 107
nan nan nan 0
22.189489364624023 -5.627167701721191 1.1977083683013916 105
22.026548385620117 -5.589938163757324 0.39599505066871643 105
1.810860276222229 -0.46124592423439026 -0.4904623031616211 119
2.062330722808838 -0.5256814956665039 -0.48252031207084656 119
2.4150683879852295 -0.6160421371459961 -0.4765945076942444 119
2.8984923362731934 -0.7398939728736877 -0.46773943305015564 119
3.7202341556549072 -0.9503505229949951 -0.4667600989341736 119
4.920748710632324 -1.2579423189163208 -0.4410087466239929 119
nan nan nan 0
16.915117263793945 -4.330478191375732 -0.30106982588768005 119
9.099781036376953 -2.331348419189453 2.5050294399261475 107
nan nan nan 0
12.72155475616455 -3.2639734745025635 2.5431065559387207 107
nan nan nan 0
nan nan nan 0
21.615039825439453 -5.557841777801514 1.9492381811141968 105
21.57976531982422 -5.5527873039245605 1.165783405303955 105
20.617446899414062 -5.3090057373046875 0.3709508776664734 105
1.8139152526855469 -0.46877264976501465 -0.491756409406662 119
2.06048321723938 -0.5328772068023682 -0.48252031207084656 119
2.408151388168335 -0.6232386827468872 -0.47564128041267395 119
2.8958919048309326 -0.750007152557373 -0.46773943305015564 119
3.721698045730591 -0.9645758867263794 -0.4673694372177124 119
4.921149253845215 -1.2763618230819702 -0.4414445161819458 119
7.702249050140381 -1.9991097450256348 -0.41364309191703796 119
nan nan nan 0
9.091588020324707 -2.363098382949829 2.5050294399261475 107
10.580099105834961 -2.7519659996032715 2.5130512714385986 107
nan nan nan 0
6.034794807434082 -1.5719462633132935 0.9805445075035095 102
nan nan nan 0
nan nan nan 0
nan nan nan 0
nan nan nan 0
1.8169395923614502 -0.47632622718811035 -0.4930504858493805 119
2.058610677719116 -0.5400664210319519 -0.48252031207084656 119
2.4012138843536377 -0.6303946375846863 -0.4746881127357483 119
2.893256425857544 -0.7601110935211182 -0.46773943305015564 119
3.718308687210083 -0.9775611162185669 -0.4673694372177124 119
4.921481132507324 -1.2947993278503418 -0.4418802857398987 119
6.05831241607666 -1.5950205326080322 -0.32522881031036377 102
nan nan nan 0
6.028932571411133 -1.5895359516143799 1.6592426300048828 102
6.029176235198975 -1.5907256603240967 1.4296070337295532 102
6.021285533905029 -1.5897680521011353 1.2019704580307007 102
6.024496078491211 -1.5917404890060425 0.9797631502151489 102
nan nan nan 0
6.022367000579834 -1.5934271812438965 0.541672945022583 102
nan nan nan 0
nan nan nan 0
1.819933295249939 -0.48390665650367737 -0.4943445920944214 119
2.052004814147949 -0.5459962487220764 -0.48139551281929016 119
2.3942556381225586 -0.6375095844268799 -0.47373491525650024 119
2.895357131958008 -0.7714772820472717 -0.4685215950012207 119
3.7148735523223877 -0.9905345439910889 -0.4673694372177124 119
4.916931629180908 -1.311970591545105 -0.4418802857398987 119
6.033410549163818 -1.6110057830810547 -0.3241855800151825 102
6.040407657623291 -1.6140035390853882 -0.10738301277160645 102
6.018681526184082 -1.609323501586914 1.6579493284225464 102
6.018880844116211 -1.6105026006698608 1.428483247756958 102
6.020441055297852 -1.6120461225509644 1.2029236555099487 102
6.014132499694824 -1.61148202419281 0.9789818525314331 102
6.009528160095215 -1.611372470855713 0.7592459917068481 102
6.036011695861816 -1.6196027994155884 0.5434160232543945 102
6.031100749969482 -1.6194136142730713 0.3252679407596588 102
6.033302307128906 -1.621133804321289 0.10837943851947784 102
1.8182328939437866 -0.4902564585208893 -0.4943445920944214 119
2.050086498260498 -0.553155779838562 -0.48139551281929016 119
2.3920156955718994 -0.6458632349967957 -0.47373491525650024 119
2.892646551132202 -0.7815792560577393 -0.4685215950012207 119
3.711393356323242 -1.0034958124160767 -0.4673694372177124 119
4.912322044372559 -1.3291258811950684 -0.4418802857398987 119
6.03739070892334 -1.6346664428710938 -0.3247072100639343 102
6.039562225341797 -1.6363859176635742 -0.10746940225362778 102
6.017688274383545 -1.6315867900848389 1.6592426300048828 102
6.022625923156738 -1.6340539455413818 1.430730938911438 102
6.024250507354736 -1.635623574256897 1.2048299312591553 102
6.018002510070801 -1.6350551843643188 0.9805445075035095 102
6.023022651672363 -1.6375478506088257 0.7616834044456482 102
6.020709037780762 -1.6380473375320435 0.5425444841384888 102
6.03504753112793 -1.6430797576904297 0.3257913291454315 102
6.027606964111328 -1.6421841382980347 0.10837943851947784 102
1.8165106773376465 -0.49660030007362366 -0.4943445920944214 119
2.048143148422241 -0.5603085160255432 -0.48139551281929016 119
2.399214744567871 -0.6568009853363037 -0.47564128041267395 119
2.8899009227752686 -0.7916717529296875 -0.4685215950012207 119
3.7078678607940674 -1.0164448022842407 -0.4673694372177124 119
4.907652378082275 -1.3462650775909424 -0.4418802857398987 119
6.036462306976318 -1.6570526361465454 -0.32496801018714905 102
6.043455123901367 -1.6601064205169678 -0.10764218866825104 102
6.025927543640137 -1.6564228534698486 1.6631224155426025 102
6.026280879974365 -1.657651424407959 1.432978868484497 102
6.03270149230957 -1.6605499982833862 1.207689642906189 102
6.031303882598877 -1.6612976789474487 0.9836697578430176 102
6.0268378257751465 -1.6611993312835693 0.762902021408081 102
6.03416109085083 -1.6643511056900024 0.5442876219749451 102
6.034088134765625 -1.6654645204544067 0.3260529935359955 102
6.036294460296631 -1.66720712184906 0.10864122211933136 102
1.8101118803024292 -0.5016482472419739 -0.4930504858493805 119
2.0461747646331787 -0.56745445728302 -0.48139551281929016 119
2.401637554168701 -0.6664844155311584 -0.4765945076942444 119
2.887119770050049 -0.8017545938491821 -0.4685215950012207 119
3.6995158195495605 -1.0280529260635376 -0.4667600989341736 119
4.902923107147217 -1.3633877038955688 -0.4418802857398987 119
6.040262699127197 -1.6807907819747925 -0.3254896402359009 102
6.056887626647949 -1.686556100845337 -0.10798774659633636 102
6.029414653778076 -1.6800402402877808 1.6657088994979858 102
6.034536838531494 -1.6826025247573853 1.4363504648208618 102
6.0363240242004395 -1.6842362880706787 1.2095959186553955 102
6.039737224578857 -1.6863250732421875 0.986013650894165 102
6.040121555328369 -1.6875685453414917 0.7653394341468811 102
6.100269794464111 -1.7055214643478394 0.5508242845535278 102
6.0378546714782715 -1.6892075538635254 0.3265763521194458 102
6.049694538116455 -1.6936585903167725 0.10899027436971664 102
1.808349847793579 -0.5079636573791504 -0.4930504858493805 119
2.0441813468933105 -0.5745934844017029 -0.48139551281929016 119
2.4087460041046143 -0.6775215864181519 -0.4785008728504181 119
2.8890573978424072 -0.8131656050682068 -0.46930378675460815 119
3.695904493331909 -1.0409601926803589 -0.4667600989341736 119
4.898134231567383 -1.3804937601089478 -0.4418802857398987 119
6.0487751960754395 -1.7059310674667358 -0.32627204060554504 102
6.060585975646973 -1.7104039192199707 -0.10816052556037903 102
6.037457466125488 -1.7050142288208008 1.6695886850357056 102
6.042692184448242 -1.7076314687728882 1.4397221803665161 102
6.044577121734619 -1.7093034982681274 1.2124555110931396 102
6.048070430755615 -1.7114313840866089 0.9883575439453125 102
6.0437445640563965 -1.7113466262817383 0.7665581703186035 102
6.084694862365723 -1.72408926486969 0.5499527454376221 102
6.051136493682861 -1.715721607208252 0.32762306928634644 102
6.058173656463623 -1.7188591957092285 0.10925205796957016 102
1.8065656423568726 -0.5142728686332703 -0.4930504858493805 119
2.042163372039795 -0.581725537776947 -0.48139551281929016 119
2.4016458988189697 -0.6845800280570984 -0.47754764556884766 119
2.8862013816833496 -0.8232454061508179 -0.46930378675460815 119
3.68747615814209 -1.0524928569793701 -0.46615076065063477 119
4.893285751342773 -1.3975831270217896 -0.4418802857398987 119
6.057187080383301 -1.7311513423919678 -0.327054500579834 102
6.06899881362915 -1.735672950744629 -0.10841970145702362 102
6.045399188995361 -1.7300652265548706 1.6734683513641357 102
6.050745964050293 -1.7327378988265991 1.44309401512146 102
6.05272912979126 -1.7344489097595215 1.2153151035308838 102
6.056301116943359 -1.7366163730621338 0.9907014966011047 102
6.05204439163208 -1.7365388870239258 0.76838618516922 102
6.078639507293701 -1.7453182935714722 0.5499527454376221 102
6.059508323669434 -1.7409701347351074 0.3284081220626831 102
6.0665507316589355 -1.7441396713256836 0.10951384902000427 102
1.8001190423965454 -0.5192373394966125 -0.491756409406662 119
2.0401201248168945 -0.5888504385948181 -0.48139551281929016 119
2.3992416858673096 -0.692959189414978 -0.47754764556884766 119
2.883310079574585 -0.8333150744438171 -0.46930378675460815 119
3.6790122985839844 -1.0639795064926147 -0.46554142236709595 119
4.8883771896362305 -1.414655327796936 -0.4418802857398987 119
6.065495491027832 -1.7564507722854614 -0.32783690094947815 102
6.072505950927734 -1.759629726409912 -0.10859248042106628 102
6.053239345550537 -1.7551920413970947 1.6773481369018555 102
6.0586981773376465 -1.7579213380813599 1.4464656114578247 102
6.060778617858887 -1.759671926498413 1.218174695968628 102
6.064430236816406 -1.761879801750183 0.993045449256897 102
6.06024169921875 -1.7618101835250854 0.7702142000198364 102
6.077293395996094 -1.767917513847351 0.550388514995575 102
6.067776679992676 -1.766297698020935 0.3291931450366974 102
6.074824810028076 -1.769499659538269 0.10977563261985779 102
1.7982956171035767 -0.5255177617073059 -0.491756409406662 119
2.0427284240722656 -0.5973355770111084 -0.48252031207084656 119
2.3920977115631104 -0.6999515295028687 -0.4765945076942444 119
2.8803837299346924 -0.8433746695518494 -0.46930378675460815 119
3.675276041030884 -1.076815128326416 -0.46554142236709595 119
4.88340950012207 -1.4317103624343872 -0.4418802857398987 119
6.07370138168335 -1.7818294763565063 -0.3286193311214447 102
6.080717086791992 -1.7850403785705566 -0.10885164886713028 102
6.060978412628174 -1.7803949117660522 1.6812279224395752 102
6.066547393798828 -1.7831811904907227 1.449837327003479 102
6.0687255859375 -1.7849721908569336 1.2210341691970825 102
6.072455883026123 -1.78722083568573 0.9953893423080444 102
6.0683369636535645 -1.7871595621109009 0.7720422744750977 102
6.075862407684326 -1.790528416633606 0.5508242845535278 102
6.075941562652588 -1.7917042970657349 0.32997819781303406 102
6.082995414733887 -1.794938325881958 0.1100374162197113 102
1.7964502573013306 -0.5317918062210083 -0.491756409406662 119
2.04063081741333 -0.6044623851776123 -0.48252031207084656 119
2.3896398544311523 -0.7082971930503845 -0.4765945076942444 119
2.872687578201294 -0.8520196080207825 -0.4685215950012207 119
3.671494960784912 -1.0896377563476562 -0.46554142236709595 119
4.878381729125977 -1.448747992515564 -0.4418802857398987 119
6.081803798675537 -1.8072869777679443 -0.32940179109573364 102
6.08882474899292 -1.8105298280715942 -0.10911082476377487 102
6.068614482879639 -1.8056732416152954 1.685107707977295 102
6.074294567108154 -1.808517336845398 1.4532090425491333 102
6.0765700340271 -1.810349464416504 1.2238937616348267 102
6.080378532409668 -1.8126394748687744 0.9977332949638367 102
6.076328754425049 -1.812587022781372 0.7738702893257141 102
6.0838942527771 -1.81600022315979 0.5521316528320312 102
6.084003448486328 -1.817189335823059 0.33076322078704834 102
6.091062545776367 -1.82045578956604 0.11029919981956482 102
1.7900505065917969 -0.5363599061965942 -0.4904623031616211 119
2.043388605117798 -0.6122686266899109 -0.4836450219154358 119
2.3874027729034424 -0.7158010005950928 -0.4765945076942444 119
2.8699965476989746 -0.8610402345657349 -0.4685215950012207 119
3.67280650138855 -1.1025935411453247 -0.46615076065063477 119
4.873806476593018 -1.4640666246414185 -0.4418802857398987 119
6.095223426818848 -1.8321340084075928 -0.3304450213909149 102
6.097469329833984 -1.8339694738388062 -0.10936999320983887 102
6.076786518096924 -1.8289051055908203 1.688987374305725 102
6.082578182220459 -1.8318061828613281 1.4565808773040771 102
6.084951400756836 -1.83367919921875 1.2267533540725708 102
6.088839054107666 -1.8360098600387573 1.0000771284103394 102
6.08485746383667 -1.835968017578125 0.7756983041763306 102
6.092463970184326 -1.8394232988357544 0.5534389615058899 102
6.09260368347168 -1.8406258821487427 0.331548273563385 102
6.099669456481934 -1.8439223766326904 0.11056099086999893 102
1.788262128829956 -0.5422929525375366 -0.4904623031616211 119
2.041239023208618 -0.6193975806236267 -0.4836450219154358 119
2.380192756652832 -0.7227041125297546 -0.47564128041267395 119
2.866973638534546 -0.871053159236908 -0.4685215950012207 119
3.6736838817596436 -1.1168508529663086 -0.4667600989341736 119
4.868666648864746 -1.4810703992843628 -0.4418802857398987 119
6.103120803833008 -1.8577611446380615 -0.3312274217605591 102
6.105377197265625 -1.8596121072769165 -0.10962916165590286 102
6.088845729827881 -1.8557381629943848 1.6941603422164917 102
6.09478759765625 -1.858711838722229 1.4610764980316162 102
6.097292423248291 -1.8606388568878174 1.230566143989563 102
6.09656286239624 -1.8615795373916626 1.0024211406707764 102
6.092649936676025 -1.8615473508834839 0.777526319026947 102
6.1002960205078125 -1.865047574043274 0.5547462701797485 102
6.105240821838379 -1.8677246570587158 0.33259499073028564 102
6.107536792755127 -1.8695929050445557 0.11082277446985245 102
1.7908791303634644 -0.5502620935440063 -0.491756409406662 119
2.0389552116394043 -0.6268749237060547 -0.4836450219154358 119
2.377527952194214 -0.7314231395721436 -0.47564128041267395 119
2.8637619018554688 -0.8815552592277527 -0.4685215950012207 119
3.6743085384368896 -1.1317689418792725 -0.4673694372177124 119
4.863205432891846 -1.498905062675476 -0.4418802857398987 119
6.1105852127075195 -1.88453209400177 -0.33200985193252563 102
6.112851142883301 -1.886399269104004 -0.10988833010196686 102
6.0958476066589355 -1.8823175430297852 1.698040246963501 102
6.101898670196533 -1.885352611541748 1.464448094367981 102
6.104499340057373 -1.8873233795166016 1.2334256172180176 102
6.10385274887085 -1.8882906436920166 1.0047650337219238 102
6.100008487701416 -1.888267993927002 0.779354453086853 102
6.107692718505859 -1.8918150663375854 0.556053638458252 102
6.112662315368652 -1.8945233821868896 0.3333800435066223 102
6.1149678230285645 -1.8964077234268188 0.11108455806970596 102
1.7889474630355835 -0.5565100908279419 -0.491756409406662 119
2.036754608154297 -0.6339883804321289 -0.4836450219154358 119
2.374960422515869 -0.7397177815437317 -0.47564128041267395 119
2.8606669902801514 -0.8915463089942932 -0.4685215950012207 119
3.665597915649414 -1.1431103944778442 -0.4667600989341736 119
4.857943534851074 -1.5158717632293701 -0.4418802857398987 119
6.1182684898376465 -1.9103150367736816 -0.3327922821044922 102
6.120544910430908 -1.9121984243392944 -0.11014750599861145 102
6.10306978225708 -1.9079079627990723 1.7019199132919312 102
6.109230041503906 -1.9110041856765747 1.4678198099136353 102
6.111926555633545 -1.913018822669983 1.2362852096557617 102
6.111362457275391 -1.9140135049819946 1.0071090459823608 102
6.1075873374938965 -1.9140018224716187 0.7811824679374695 102
6.1153106689453125 -1.917594313621521 0.5573610067367554 102
6.120304107666016 -1.9203335046768188 0.3341650664806366 102
6.12261962890625 -1.9222338199615479 0.11134634166955948 102
1.7916003465652466 -0.5642019510269165 -0.4930504858493805 119
2.034529209136963 -0.6410942077636719 -0.4836450219154358 119
2.372363805770874 -0.7480034232139587 -0.47564128041267395 119
2.8575377464294434 -0.9015264511108398 -0.4685215950012207 119
3.6568524837493896 -1.1544047594070435 -0.46615076065063477 119
4.857372283935547 -1.5343202352523804 -0.44231605529785156 119
6.125845909118652 -1.936174750328064 -0.33357471227645874 102
6.132898807525635 -1.939581274986267 -0.11049306392669678 102
6.110186576843262 -1.9335713386535645 1.7057996988296509 102
6.116456508636475 -1.936730146408081 1.471191644668579 102
6.11924934387207 -1.9387894868850708 1.2391448020935059 102
6.118767738342285 -1.9398119449615479 1.0094529390335083 102
6.115059852600098 -1.9398112297058105 0.7830104827880859 102
6.1228227615356445 -1.9434499740600586 0.558668315410614 102
6.127840042114258 -1.9462199211120605 0.3349500894546509 102
6.130166530609131 -1.9481366872787476 0.11160813271999359 102
1.7942216396331787 -0.5719191431999207 -0.4943445920944214 119
2.0322787761688232 -0.6481920480728149 -0.4836450219154358 119
2.3697383403778076 -0.7562799453735352 -0.47564128041267395 119
2.8543732166290283 -0.9114956259727478 -0.4685215950012207 119
3.648073434829712 -1.1656520366668701 -0.46554142236709595 119
4.851986885070801 -1.5512661933898926 -0.44231605529785156 119
6.133317470550537 -1.962110161781311 -0.3343571424484253 102
6.140375137329102 -1.9655494689941406 -0.11075223237276077 102
6.117198944091797 -1.9593080282211304 1.709679365158081 102
6.12357759475708 -1.9625294208526611 1.4745632410049438 102
6.126465797424316 -1.9646340608596802 1.24200439453125 102
6.130768775939941 -1.9671941995620728 1.0125782489776611 102
6.122427463531494 -1.9656963348388672 0.7848385572433472 102
6.130228042602539 -1.9693810939788818 0.5599756240844727 102
6.135269641876221 -1.9721821546554565 0.33573514223098755 102
6.137606143951416 -1.974115252494812 0.1118699163198471 102
1.792214274406433 -0.5781786441802979 -0.4943445920944214 119
2.025367498397827 -0.6537854671478271 -0.48252031207084656 119
2.3717551231384277 -0.7660560011863708 -0.4765945076942444 119
2.8511741161346436 -0.9214537143707275 -0.4685215950012207 119
3.643982410430908 -1.1783790588378906 -0.46554142236709595 119
4.8465423583984375 -1.5681934356689453 -0.44231605529785156 119
6.140682697296143 -1.9881216287612915 -0.33513957262039185 102
6.152500152587891 -1.9931341409683228 -0.1110977903008461 102
6.119511604309082 -1.9836276769638062 1.712265968322754 102
6.1305928230285645 -1.988402009010315 1.4779349565505981 102
6.133575916290283 -1.9905527830123901 1.2448638677597046 102
6.137955665588379 -1.9931584596633911 1.0149221420288086 102
6.129687786102295 -1.9916563034057617 0.7866665720939636 102
6.1375274658203125 -1.9953877925872803 0.5612829923629761 102
6.142592906951904 -1.9982200860977173 0.3365201950073242 102
6.144938945770264 -2.000169277191162 0.11213169991970062 102
1.7901850938796997 -0.5844311118125916 -0.4943445920944214 119
2.0230729579925537 -0.6608513593673706 -0.48252031207084656 119
2.3690664768218994 -0.7743302583694458 -0.4765945076942444 119
2.847940444946289 -0.9314005374908447 -0.4685215950012207 119
3.6398468017578125 -1.1910916566848755 -0.46554142236709595 119
4.841038703918457 -1.5851013660430908 -0.44231605529785156 119
6.147940635681152 -2.0142085552215576 -0.3359220027923584 102
6.159756660461426 -2.019270181655884 -0.1113569587469101 102
6.1309075355529785 -2.010998010635376 1.7174389362335205 102
6.1375017166137695 -2.014347553253174 1.4813066720962524 102
6.140580654144287 -2.016545057296753 1.2477234601974487 102
6.149728298187256 -2.020738363265991 1.0180473327636719 102
6.136841773986816 -2.017690896987915 0.7884945869445801 102
6.149450778961182 -2.0230259895324707 0.5630261301994324 102
6.149808883666992 -2.0243332386016846 0.3373052179813385 102
6.152164459228516 -2.026298761367798 0.11239349097013474 102
1.788134217262268 -0.5906764268875122 -0.4943445920944214 119
2.020754098892212 -0.6679092049598694 -0.48252031207084656 119
2.37100887298584 -0.7841362357139587 -0.47754764556884766 119
2.849360466003418 -0.9428874850273132 -0.46930378675460815 119
3.635667085647583 -1.2037899494171143 -0.46554142236709595 119
4.84020471572876 -1.603556513786316 -0.44275185465812683 119
6.155090808868408 -2.040369749069214 -0.33670443296432495 102
6.166905879974365 -2.0454812049865723 -0.11161613464355469 102
6.13760232925415 -2.0369508266448975 1.7213187217712402 102
6.148928165435791 -2.041900873184204 1.4858022928237915 102
6.152135848999023 -2.0441582202911377 1.251536250114441 102
6.156696319580078 -2.0468668937683105 1.0203912258148193 102
6.143887996673584 -2.04379940032959 0.7903226017951965 102
6.156529426574707 -2.0491983890533447 0.564333438873291 102
6.156917095184326 -2.050520896911621 0.33809027075767517 102
6.164025783538818 -2.0540835857391357 0.11274254322052002 102
1.7814809083938599 -0.5953837633132935 -0.4930504858493805 119
2.0184102058410645 -0.6749588847160339 -0.48252031207084656 119
2.368257522583008 -0.7924078106880188 -0.47754764556884766 119
2.8460516929626465 -0.9528279304504395 -0.46930378675460815 119
3.6314430236816406 -1.2164734601974487 -0.46554142236709595 119
4.834577560424805 -1.620442271232605 -0.44275185465812683 119
6.166867256164551 -2.0681934356689453 -0.3377476632595062 102
6.173946857452393 -2.0717663764953613 -0.11187530308961868 102
6.139612197875977 -2.0614371299743652 1.7239052057266235 102
6.155618667602539 -2.068006992340088 1.4891741275787354 102
6.158919811248779 -2.0703125 1.254395842552185 102
6.1635565757751465 -2.073068380355835 1.0227352380752563 102
6.150827407836914 -2.0699820518493652 0.7921507358551025 102
6.1682209968566895 -2.0770342350006104 0.5660765767097473 102
6.168649196624756 -2.0783774852752686 0.3391369879245758 102
6.171029567718506 -2.080378532409668 0.11300432682037354 102
1.7793917655944824 -0.6015986800193787 -0.4930504858493805 119
2.0160417556762695 -0.6820003390312195 -0.48252031207084656 119
2.3701260089874268 -0.8022434711456299 -0.4785008728504181 119
2.8427083492279053 -0.9627567529678345 -0.46930378675460815 119
3.6318745613098145 -1.2307348251342773 -0.46615076065063477 119
4.828891754150391 -1.6373082399368286 -0.44275185465812683 119
6.173795700073242 -2.09451961517334 -0.3385300934314728 102
6.18561315536499 -2.0997326374053955 -0.1122208684682846 102
7.979977607727051 -2.710390567779541 2.2463791370391846 101
6.162201404571533 -2.094184637069702 1.4925457239151 102
6.1655964851379395 -2.09653902053833 1.2572553157806396 102
6.174984455108643 -2.10093355178833 1.0258605480194092 102
6.162355899810791 -2.097836971282959 0.7945880889892578 102
6.17507791519165 -2.1033709049224854 0.567383885383606 102
6.175535678863525 -2.104729413986206 0.3399220108985901 102
6.182656764984131 -2.108361005783081 0.11335337162017822 102
1.772711157798767 -0.6062434911727905 -0.491756409406662 119
2.0136489868164062 -0.6890335083007812 -0.48252031207084656 119
2.3673112392425537 -0.8105118274688721 -0.4785008728504181 119
2.8393304347991943 -0.9726737141609192 -0.46930378675460815 119
3.627556562423706 -1.2434049844741821 -0.46615076065063477 119
4.827858924865723 -1.655770182609558 -0.4431876540184021 119
6.180615425109863 -2.1209194660186768 -0.33931249380111694 102
6.1924309730529785 -2.1261820793151855 -0.1124800369143486 102
7.774052143096924 -2.6707513332366943 2.1907694339752197 101
6.173283100128174 -2.1220169067382812 1.4970413446426392 102
6.1721649169921875 -2.1228370666503906 1.2601149082183838 102
6.181621551513672 -2.1272964477539062 1.0282044410705566 102
6.16907262802124 -2.1241819858551025 0.7964161038398743 102
6.186535835266113 -2.1314027309417725 0.5691269636154175 102
6.187033176422119 -2.132782220840454 0.3409687280654907 102
6.189437389373779 -2.134819984436035 0.11361515522003174 102
1.770584225654602 -0.6124277114868164 -0.491756409406662 119
2.0112314224243164 -0.6960582137107849 -0.48252031207084656 119
2.3644678592681885 -0.8187704086303711 -0.4785008728504181 119
2.8405840396881104 -0.9841956496238708 -0.4700859487056732 119
3.6231939792633057 -1.256060004234314 -0.46615076065063477 119
4.822049617767334 -1.6726124286651611 -0.4431876540184021 119
6.192042827606201 -2.149029493331909 -0.3403557240962982 102
6.19913911819458 -2.1527047157287598 -0.1127392053604126 102
7.545690536499023 -2.621782064437866 2.128693103790283 101
6.179643630981445 -2.1483521461486816 1.5004130601882935 102
6.183260440826416 -2.1508193016052246 1.2639275789260864 102
6.19281530380249 -2.1553547382354736 1.03132963180542 102
6.1803669929504395 -2.152231454849243 0.7988535165786743 102
6.193169116973877 -2.1579017639160156 0.5704343318939209 102
6.1984100341796875 -2.1609411239624023 0.34201544523239136 102
6.200828552246094 -2.1629981994628906 0.11396420747041702 102
1.7729943990707397 -0.6201990842819214 -0.4930504858493805 119
2.01338791847229 -0.7046838998794556 -0.4836450219154358 119
2.3708600997924805 -0.8302634358406067 -0.4804072380065918 119
2.832470655441284 -0.9924721717834473 -0.46930378675460815 119
3.6281540393829346 -1.2719833850860596 -0.4673694372177124 119
4.816181659698486 -1.6894344091415405 -0.4431876540184021 119
6.198637962341309 -2.175591468811035 -0.34113818407058716 102
6.21045446395874 -2.1809563636779785 -0.11308477073907852 102
7.294985771179199 -2.563246965408325 2.0601508617401123 101
6.190492153167725 -2.1763737201690674 1.5049086809158325 102
6.189606189727783 -2.177276372909546 1.2667872905731201 102
6.199229717254639 -2.1818771362304688 1.0336735248565674 102
6.186859607696533 -2.178737163543701 0.8006815314292908 102
6.199692249298096 -2.1844727993011475 0.5717417001724243 102
6.2049560546875 -2.187544822692871 0.342800498008728 102
6.207385063171387 -2.189619302749634 0.11422599852085114 102
1.7708187103271484 -0.6263841986656189 -0.4930504858493805 119
2.0155084133148193 -0.7133331298828125 -0.4847698211669922 119
2.349440813064575 -0.8319805860519409 -0.4765945076942444 119
2.833643913269043 -1.004002571105957 -0.4700859487056732 119
3.609659433364868 -1.2796655893325806 -0.46554142236709595 119
4.81025505065918 -1.706235647201538 -0.4431876540184021 119
6.2098283767700195 -2.2038955688476562 -0.34218141436576843 102
6.21693754196167 -2.2076404094696045 -0.11334393918514252 102
7.058437347412109 -2.507845401763916 1.995488166809082 101
6.196629524230957 -2.2028653621673584 1.5082805156707764 102
6.200466632843018 -2.2054481506347656 1.2705999612808228 102
6.210186004638672 -2.2101263999938965 1.0367988348007202 102
6.1979169845581055 -2.2069790363311768 0.8031189441680908 102
