# .PCD v0.7 - Point Cloud Data file format
VERSION 0.7
FIELDS x y z intensity
SIZE 4 4 4 4
TYPE F F F F
COUNT 1 1 1 1
WIDTH 796
HEIGHT 1
VIEWPOINT 0 0 0 1 0 0 0
POINTS 796
DATA ascii
0.03835054859519005 2.1125922203063965 -0.03585193306207657 44
0.03867010399699211 2.109903335571289 0.5548052191734314 44
0.039192937314510345 2.118251323699951 0.47990742325782776 44
0.039485104382038116 2.11409330368042 0.4031986594200134 44
0.039909299463033676 2.1170153617858887 0.32893165946006775 44
0.040189001709222794 2.1122891902923584 0.2547069191932678 44
0.04089529812335968 2.129866123199463 0.18302705883979797 44
0.04117262363433838 2.1249866485595703 0.10938214510679245 44
0.04120240360498428 2.107532024383545 0.036126479506492615 44
nan nan nan 0
0.044430192559957504 2.1570472717285156 -0.48926883935928345 0
0.04452436789870262 2.143449306488037 -0.4089180827140808 0
0.04465213418006897 2.131681442260742 -0.3316413164138794 44
0.04545124992728233 2.151893138885498 -0.259581983089447 44
0.04524993151426315 2.124796152114868 -0.18259157240390778 44
0.04540913552045822 2.1149308681488037 -0.10849654674530029 44
0.04572463780641556 2.112445592880249 -0.03585193306207657 44
0.0460348017513752 2.109755516052246 0.5548052191734314 44
0.0465867780148983 2.1181015968322754 0.47990742325782776 44
0.046864427626132965 2.1139426231384277 0.4031986594200134 44
0.047298818826675415 2.1168630123138428 0.32893165946006775 44
0.047562021762132645 2.112135887145996 0.2547069191932678 44
0.0483296699821949 2.1297106742858887 0.18302705883979797 44
0.04847581312060356 2.1198384761810303 0.10912046581506729 44
0.04855881258845329 2.107375383377075 0.036126479506492615 44
nan nan nan 0
0.052076760679483414 2.161749839782715 -0.49039360880851746 0
0.052006132900714874 2.1432807445526123 -0.4089180827140808 0
0.05209282040596008 2.1315126419067383 -0.3316413164138794 44
0.05296248197555542 2.151721477508545 -0.259581983089447 44
0.052543140947818756 2.119645595550537 -0.1821557730436325 44
0.052666742354631424 2.1097679138183594 -0.10823573917150497 44
0.0530981682240963 2.1122732162475586 -0.03585193306207657 44
0.053398944437503815 2.10958194732666 0.5548052191734314 44
0.05398004874587059 2.1179261207580566 0.47990742325782776 44
0.05424318090081215 2.1137661933898926 0.4031986594200134 44
0.05468776077032089 2.116684913635254 0.32893165946006775 44
0.054934464395046234 2.11195707321167 0.2547069191932678 44
0.0556330680847168 2.1245498657226562 0.1825912892818451 44
0.055875133723020554 2.1196563243865967 0.10912046581506729 44
0.05591462552547455 2.1071929931640625 0.036126479506492615 44
nan nan nan 0
0.05999961495399475 2.1615443229675293 -0.49039360880851746 0
0.05986129865050316 2.143075704574585 -0.4089180827140808 0
0.059904854744672775 2.131307363510132 -0.3316413164138794 44
0.060848578810691833 2.151512861251831 -0.259581983089447 44
0.06031167879700661 2.119438648223877 -0.1821557730436325 44
0.060399074107408524 2.10956072807312 -0.10823573917150497 44
0.060839682817459106 2.1120643615722656 -0.03585193306207657 44
0.061130590736866 2.109372138977051 0.5548052191734314 44
0.06174226850271225 2.1177141666412354 0.47990742325782776 44
0.061990153044462204 2.113553047180176 0.4031986594200134 44
0.0625910758972168 2.1214065551757812 0.32971295714378357 44
0.06252758204936981 2.106781005859375 0.254097580909729 44
0.06341955810785294 2.1243317127227783 0.1825912892818451 44
0.0636436864733696 2.1194372177124023 0.10912046581506729 44
0.06363750249147415 2.106973886489868 0.036126479506492615 44
nan nan nan 0
0.06754444539546967 2.1613216400146484 -0.49039360880851746 0
0.06734166294336319 2.1428537368774414 -0.4089180827140808 0
0.06734414398670197 2.131085157394409 -0.3316413164138794 44
0.0683583915233612 2.151287317276001 -0.259581983089447 44
0.0677095353603363 2.119215250015259 -0.1821557730436325 44
0.06776244938373566 2.109337091445923 -0.10823573917150497 44
0.06821178644895554 2.1118390560150146 -0.03585193306207657 44
0.06865006685256958 2.1139731407165527 0.556098461151123 44
0.06897510588169098 2.1126160621643066 0.4787834882736206 44
0.06936745345592499 2.11332368850708 0.4031986594200134 44
0.06999578326940536 2.1211750507354736 0.32971295714378357 44
0.06988123804330826 2.1065499782562256 0.254097580909729 44
0.07083447277545929 2.1240973472595215 0.1825912892818451 44
0.07087422907352448 2.1142117977142334 0.10885878652334213 44
0.07099849730730057 2.106738805770874 0.036126479506492615 44
nan nan nan 0
0.07508845627307892 2.1610727310180664 -0.49039360880851746 0
0.07482121139764786 2.1426055431365967 -0.4089180827140808 0
0.0747826024889946 2.1308372020721436 -0.3316413164138794 44
0.07569245249032974 2.146076202392578 -0.2589726448059082 44
0.07510656118392944 2.1189661026000977 -0.1821557730436325 44
0.07512499392032623 2.1090877056121826 -0.10823573917150497 44
0.0755830705165863 2.1115880012512207 -0.03585193306207657 44
0.07654963433742523 2.1282007694244385 0.5599782466888428 44
0.07634909451007843 2.1123623847961426 0.4787834882736206 44
0.07674390822649002 2.1130688190460205 0.4031986594200134 44
0.07721954584121704 2.1159827709198 0.32893165946006775 44
0.07723403722047806 2.106293201446533 0.254097580909729 44
0.0782485231757164 2.1238369941711426 0.1825912892818451 44
0.07825376838445663 2.1139514446258545 0.10885878652334213 44
0.07834528386592865 2.106478214263916 0.036126479506492615 44
nan nan nan 0
0.08263155072927475 2.160797595977783 -0.49039360880851746 0
0.0821114182472229 2.1374263763427734 -0.4079648554325104 0
0.082220159471035 2.1305630207061768 -0.3316413164138794 44
0.08318319916725159 2.145798921585083 -0.2589726448059082 44
0.08250267803668976 2.1186909675598145 -0.1821557730436325 44
0.08248662203550339 2.1088125705718994 -0.10823573917150497 44
0.08295342326164246 2.111311197280884 -0.03585193306207657 44
0.08435890078544617 2.137573003768921 0.5625647306442261 44
0.08372214436531067 2.1120829582214355 0.4787834882736206 44
0.08392415940761566 2.1078834533691406 0.4022454619407654 44
0.08440789580345154 2.1107656955718994 0.32815033197402954 44
0.08458591252565384 2.106010675430298 0.254097580909729 44
0.0856616199016571 2.1235508918762207 0.1825912892818451 44
0.08543023467063904 2.1086764335632324 0.10859710723161697 44
0.08569778501987457 2.106191873550415 0.036126479506492615 44
nan nan nan 0
0.09017363935709 2.1604959964752197 -0.49039360880851746 0
0.08957193046808243 2.137126922607422 -0.4079648554325104 0
0.08965671062469482 2.130263090133667 -0.3316413164138794 44
0.09046336263418198 2.1405370235443115 -0.258363276720047 44
0.08989778161048889 2.1183900833129883 -0.1821557730436325 44
0.08984725177288055 2.1085119247436523 -0.10823573917150497 44
0.09032277017831802 2.111008882522583 -0.03585193306207657 44
0.09244183450937271 2.1517417430877686 0.5664445161819458 44
0.09109418094158173 2.1117777824401855 0.4787834882736206 44
0.09128153324127197 2.1075778007507324 0.4022454619407654 44
0.09156076610088348 2.1055243015289307 0.3273690342903137 44
0.09172026067972183 2.1007444858551025 0.2534882128238678 44
0.09307368099689484 2.123239040374756 0.1825912892818451 44
0.09279036521911621 2.108365297317505 0.10859710723161697 44
0.09304925054311752 2.10588002204895 0.036126479506492615 44
nan nan nan 0
0.0974944680929184 2.1553008556365967 -0.48926883935928345 0
0.09703134745359421 2.13680100440979 -0.4079648554325104 0
0.0970921665430069 2.129937171936035 -0.3316413164138794 44
0.09793467819690704 2.1402082443237305 -0.258363276720047 44
0.09729179739952087 2.118063449859619 -0.1821557730436325 44
0.09697678685188293 2.1031973361968994 -0.10797492414712906 44
0.09745986759662628 2.105686664581299 -0.03576553985476494 44
0.1001763865351677 2.1562304496765137 0.5677376985549927 44
0.09823816269636154 2.1065804958343506 0.4776596128940582 44
0.0984082967042923 2.1023433208465576 0.4012922942638397 44
0.0984463095664978 2.095325469970703 0.3258064091205597 44
0.09905266761779785 2.1004114151000977 0.2534882128238678 44
0.10048460215330124 2.122901201248169 0.1825912892818451 44
0.10014937072992325 2.1080284118652344 0.10859710723161697 44
0.10016147047281265 2.1005489826202393 0.03603921830654144 44
nan nan nan 0
0.10464116185903549 2.15496563911438 -0.48926883935928345 0
0.10411670058965683 2.136467695236206 -0.4079648554325104 0
0.10415476560592651 2.129603385925293 -0.3316413164138794 44
0.10478803515434265 2.1349148750305176 -0.25775396823883057 44
0.10431502014398575 2.1177291870117188 -0.1821557730436325 44
0.10395070910453796 2.1028640270233154 -0.10797492414712906 44
0.1044420450925827 2.1053519248962402 -0.03576553985476494 44
0.10708601772785187 2.1510627269744873 0.5664445161819458 44
0.10522329062223434 2.106243133544922 0.4776596128940582 44
0.1053793728351593 2.1020054817199707 0.4012922942638397 44
0.10564225167036057 2.0999200344085693 0.3265877068042755 44
0.1060173362493515 2.100071430206299 0.2534882128238678 44
0.1075238361954689 2.122556209564209 0.1825912892818451 44
0.10713928937911987 2.107684850692749 0.10859710723161697 44
0.10712658613920212 2.100205183029175 0.03603921830654144 44
nan nan nan 0
0.1121627688407898 2.1545872688293457 -0.48926883935928345 0
0.1113177165389061 2.1311895847320557 -0.4070116877555847 0
0.11132939159870148 2.124295711517334 -0.3308591842651367 44
0.11223964393138885 2.1345362663269043 -0.25775396823883057 44
0.11170663684606552 2.11735200881958 -0.1821557730436325 44
0.11102651804685593 2.0975024700164795 -0.10771412402391434 44
0.11179045587778091 2.1049745082855225 -0.03576553985476494 44
0.1153649166226387 2.165144681930542 0.5703242421150208 44
0.11257481575012207 2.105863094329834 0.4776596128940582 44
0.11271610110998154 2.1016247272491455 0.4012922942638397 44
0.1129717007279396 2.0995383262634277 0.3265877068042755 44
0.11334731429815292 2.099688768386841 0.2534882128238678 44
0.11466291546821594 2.117194175720215 0.18215550482273102 44
0.11449582874774933 2.1072981357574463 0.10859710723161697 44
0.1141849160194397 2.0948264598846436 0.03595195338129997 44
nan nan nan 0
0.11968299001455307 2.1541826725006104 -0.48926883935928345 0
0.11875627934932709 2.1307883262634277 -0.4070116877555847 0
0.1187438890337944 2.123893976211548 -0.3308591842651367 44
0.11968988180160522 2.13413143157959 -0.25775396823883057 44
0.11909689009189606 2.1169493198394775 -0.1821557730436325 44
0.11834749579429626 2.097102165222168 -0.10771412402391434 44
0.11913751065731049 2.104571580886841 -0.03576553985476494 44
0.12292198091745377 2.164728879928589 0.5703242421150208 44
0.11992495507001877 2.105457305908203 0.4776596128940582 44
0.12005145847797394 2.1012187004089355 0.4012922942638397 44
0.12029976397752762 2.0991311073303223 0.3265877068042755 44
0.12067589908838272 2.0992801189422607 0.2534882128238678 44
0.12205260246992111 2.116780996322632 0.18215550482273102 44
0.12185097485780716 2.1068856716156006 0.10859710723161697 44
0.1214965283870697 2.0944151878356934 0.03595195338129997 44
nan nan nan 0
0.12720176577568054 2.153751850128174 -0.48926883935928345 0
0.12619338929653168 2.1303606033325195 -0.4070116877555847 0
0.12615694105625153 2.1234664916992188 -0.3308591842651367 44
0.1271386593580246 2.1337006092071533 -0.25775396823883057 44
0.1264857053756714 2.116520643234253 -0.1821557730436325 44
0.1256670206785202 2.0966761112213135 -0.10771412402391434 44
0.12648309767246246 2.104142904281616 -0.03576553985476494 44
0.12873366475105286 2.1353600025177 0.5625647306442261 44
0.12727364897727966 2.1050257682800293 0.4776596128940582 44
0.12738534808158875 2.1007866859436035 0.4012922942638397 44
0.12762637436389923 2.098698616027832 0.3265877068042755 44
0.12770093977451324 2.093893051147461 0.252878874540329 44
0.1294408142566681 2.116342306137085 0.18215550482273102 44
0.1292046308517456 2.106447219848633 0.10859710723161697 44
0.12849973142147064 2.0889885425567627 0.0358646959066391 44
nan nan nan 0
0.1350948065519333 2.153271198272705 -0.48926883935928345 0
0.13369251787662506 2.1249852180480957 -0.40605849027633667 0
0.1336280256509781 2.1180613040924072 -0.33007699251174927 44
0.1349582076072693 2.1332201957702637 -0.25775396823883057 44
0.13424228131771088 2.1160428524017334 -0.1821557730436325 44
0.13335087895393372 2.0962016582489014 -0.10771412402391434 44
0.13419432938098907 2.1036651134490967 -0.03576553985476494 44
0.13563433289527893 2.1204137802124023 0.5586849451065063 44
0.13498809933662415 2.1045451164245605 0.4776596128940582 44
0.13508425652980804 2.1003057956695557 0.4012922942638397 44
0.1353176236152649 2.0982167720794678 0.3265877068042755 44
0.13537457585334778 2.0934107303619385 0.252878874540329 44
0.13687442243099213 2.1108829975128174 0.18171973526477814 44
0.13724824786186218 2.1109423637390137 0.10885878652334213 44
0.1361553966999054 2.08850359916687 0.0358646959066391 44
nan nan nan 0
0.14261029660701752 2.1527864933013916 -0.48926883935928345 0
0.14110927283763885 2.1245055198669434 -0.40605849027633667 0
0.14102062582969666 2.117581844329834 -0.33007699251174927 44
0.142403706908226 2.1327362060546875 -0.25775396823883057 44
0.14162784814834595 2.1155612468719482 -0.1821557730436325 44
0.14100156724452972 2.100705146789551 -0.10797492414712906 44
0.14120100438594818 2.098196029663086 -0.035679154098033905 44
0.14173457026481628 2.100651741027832 0.553511917591095 44
0.14200468361377716 2.0992000102996826 0.4765356779098511 44
0.1424148827791214 2.0998213291168213 0.4012922942638397 44
0.14264093339443207 2.097731590270996 0.3265877068042755 44
0.14268110692501068 2.092925548553467 0.252878874540329 44
0.14424194395542145 2.1103923320770264 0.18171973526477814 44
0.14461596310138702 2.110450267791748 0.10885878652334213 44
0.14310882985591888 2.0830276012420654 0.03577743098139763 44
nan nan nan 0
0.14978507161140442 2.1474153995513916 -0.48814404010772705 0
0.14852432906627655 2.124000072479248 -0.40605849027633667 0
0.14806616306304932 2.1121504306793213 -0.3292948305606842 44
0.14984747767448425 2.13222599029541 -0.25775396823883057 44
0.14901165664196014 2.115054130554199 -0.1821557730436325 44
0.14833351969718933 2.1002001762390137 -0.10797492414712906 44
0.148524209856987 2.0976903438568115 -0.035679154098033905 44
0.14872439205646515 2.0953266620635986 0.5522187352180481 44
0.14933139085769653 2.098691701889038 0.4765356779098511 44
0.14974375069141388 2.099311351776123 0.4012922942638397 44
0.14996252954006195 2.0972208976745605 0.3265877068042755 44
0.1499859243631363 2.0924148559570312 0.252878874540329 44
0.1512507051229477 2.104907751083374 0.18128393590450287 44
0.15198194980621338 2.1099326610565186 0.10885878652334213 44
0.15037241578102112 2.0825159549713135 0.03577743098139763 44
0.14184045791625977 1.940777063369751 -0.5111678242683411 119
0.15728002786636353 2.1468796730041504 -0.48814404010772705 0
0.15557809174060822 2.1185736656188965 -0.405105322599411 0
0.15543803572654724 2.1116206645965576 -0.3292948305606842 44
0.15728944540023804 2.13169002532959 -0.25775396823883057 44
0.15602627396583557 2.109553813934326 -0.18172000348567963 44
0.15566369891166687 2.0996694564819336 -0.10797492414712906 44
0.15584561228752136 2.0971591472625732 -0.035679154098033905 44
0.1563962996006012 2.0996110439300537 0.553511917591095 44
0.15665626525878906 2.0981576442718506 0.4765356779098511 44
0.15670448541641235 2.093881368637085 0.4003390669822693 44
0.1572822630405426 2.096684694290161 0.3265877068042755 44
0.15728889405727386 2.0918784141540527 0.252878874540329 44
0.15859727561473846 2.1043670177459717 0.18128393590450287 44
0.15934604406356812 2.109389305114746 0.10885878652334213 44
0.15801827609539032 2.086963415145874 0.0358646959066391 44
nan nan nan 0
0.16402386128902435 2.1463747024536133 -0.48814404010772705 0
0.16223300993442535 2.118074417114258 -0.405105322599411 0
0.1620711237192154 2.111121892929077 -0.3292948305606842 44
0.16398555040359497 2.131185531616211 -0.25775396823883057 44
0.1626528650522232 2.109053373336792 -0.18172000348567963 44
0.16225920617580414 2.099169969558716 -0.10797492414712906 44
0.16243325173854828 2.0966591835021973 -0.035679154098033905 44
0.16299164295196533 2.099109411239624 0.553511917591095 44
0.1636250615119934 2.1025125980377197 0.4776596128940582 44
0.16328182816505432 2.0933785438537598 0.4003390669822693 44
0.16386841237545013 2.0961802005767822 0.3265877068042755 44
0.16385993361473083 2.091373920440674 0.252878874540329 44
0.16520754992961884 2.103858232498169 0.18128393590450287 44
0.16597209870815277 2.1088783740997314 0.10885878652334213 44
0.16457387804985046 2.086456537246704 0.0358646959066391 44
0.15470896661281586 1.9397937059402466 -0.5111678242683411 119
0.17151512205600739 2.14578914642334 -0.48814404010772705 0
0.16962549090385437 2.117495059967041 -0.405105322599411 0
0.16943931579589844 2.1105432510375977 -0.3292948305606842 44
0.1714237779378891 2.1305999755859375 -0.25775396823883057 44
0.16961349546909332 2.1035077571868896 -0.18128421902656555 44
0.16918352246284485 2.093614101409912 -0.10771412402391434 44
0.16975095868110657 2.0960793495178223 -0.035679154098033905 44
0.1703179031610489 2.098527431488037 0.553511917591095 44
0.17096321284770966 2.101928472518921 0.4776596128940582 44
0.17058809101581573 2.0927960872650146 0.4003390669822693 44
0.1711844652891159 2.095595359802246 0.3265877068042755 44
0.17115919291973114 2.090789318084717 0.252878874540329 44
0.17255038022994995 2.10326886177063 0.18128393590450287 44
0.17333243787288666 2.108286142349243 0.10885878652334213 44
0.17226646840572357 2.0908515453338623 0.03595195338129997 44
0.1629609912633896 1.9488111734390259 -0.5137560367584229 119
0.1793462485074997 2.1402599811553955 -0.4870193302631378 0
0.17734408378601074 2.1119370460510254 -0.4041520953178406 0
0.17754195630550385 2.109877109527588 -0.3292948305606842 44
0.17960341274738312 2.1299259662628174 -0.25775396823883057 44
0.17768912017345428 2.1028409004211426 -0.18128421902656555 44
0.1772211641073227 2.092949151992798 -0.10771412402391434 44
0.1777980774641037 2.095412254333496 -0.035679154098033905 44
0.17837439477443695 2.097858190536499 0.553511917591095 44
0.17903275787830353 2.1012566089630127 0.4776596128940582 44
0.17862257361412048 2.092125654220581 0.4003390669822693 44
0.17922967672348022 2.0949225425720215 0.3265877068042755 44
0.17918597161769867 2.090116500854492 0.252878874540329 44
0.18105140328407288 2.107553482055664 0.18171973526477814 44
0.18142639100551605 2.10760498046875 0.10885878652334213 44
0.180293470621109 2.090174674987793 0.03595195338129997 44
0.17269736528396606 1.9819101095199585 -0.5228146910667419 119
0.1868160516023636 2.1396210193634033 -0.4870193302631378 0
0.18471503257751465 2.1113052368164062 -0.4041520953178406 0
0.18490572273731232 2.1092445850372314 -0.3292948305606842 44
0.1870371401309967 2.129286050796509 -0.25775396823883057 44
0.1850283294916153 2.102207899093628 -0.18128421902656555 44
0.18452584743499756 2.092317819595337 -0.10771412402391434 44
0.18511132895946503 2.0947787761688232 -0.035679154098033905 44
0.18569621443748474 2.0972225666046143 0.553511917591095 44
0.18636642396450043 2.100618839263916 0.4776596128940582 44
0.18592435121536255 2.091489315032959 0.4003390669822693 44
0.18610307574272156 2.089365005493164 0.3258064091205597 44
0.18648074567317963 2.0894782543182373 0.252878874540329 44
0.1884070336818695 2.1069087982177734 0.18171973526477814 44
0.188782200217247 2.1069588661193848 0.10885878652334213 44
0.18759509921073914 2.0895321369171143 0.03595195338129997 44
0.17961446940898895 1.9812953472137451 -0.5228146910667419 119
0.19428357481956482 2.13895583152771 -0.4870193302631378 0
0.19208374619483948 2.110647678375244 -0.4041520953178406 0
0.19226722419261932 2.108586311340332 -0.3292948305606842 44
0.19446860253810883 2.1286203861236572 -0.25775396823883057 44
0.19236527383327484 2.1015491485595703 -0.18128421902656555 44
0.19182828068733215 2.091660976409912 -0.10771412402391434 44
0.19242234528064728 2.0941197872161865 -0.035679154098033905 44
0.19301573932170868 2.0965616703033447 0.553511917591095 44
0.19369782507419586 2.0999555587768555 0.4776596128940582 44
0.19322389364242554 2.090827465057373 0.4003390669822693 44
0.19339519739151 2.08870267868042 0.3258064091205597 44
0.19377325475215912 2.0888147354125977 0.252878874540329 44
0.1957603543996811 2.1062381267547607 0.18171973526477814 44
0.19567275047302246 2.101315498352051 0.10859710723161697 44
0.1948811262845993 2.088865280151367 0.03595195338129997 44
0.18743504583835602 1.990272879600525 -0.5254029035568237 119
0.20174875855445862 2.1382646560668945 -0.4870193302631378 0
0.19945012032985687 2.10996413230896 -0.4041520953178406 0
0.19916078448295593 2.1029856204986572 -0.32851263880729675 44
0.20189768075942993 2.1279284954071045 -0.25775396823883057 44
0.19969986379146576 2.100864887237549 -0.18128421902656555 44
0.19912835955619812 2.0909786224365234 -0.10771412402391434 44
0.19925619661808014 2.08845853805542 -0.035592760890722275 44
0.20033292472362518 2.0958752632141113 0.553511917591095 44
0.20056240260601044 2.094416618347168 0.4765356779098511 44
0.2005210667848587 2.0901403427124023 0.4003390669822693 44
0.20068494975566864 2.088015079498291 0.3258064091205597 44
0.20106340944766998 2.088125467300415 0.252878874540329 44
0.20311130583286285 2.105541944503784 0.18171973526477814 44
0.20300650596618652 2.1006195545196533 0.10859710723161697 44
0.2021714448928833 2.088172197341919 0.03595195338129997 44
0.1953204870223999 1.9992201328277588 -0.5279910564422607 119
0.20921146869659424 2.137547254562378 -0.4870193302631378 0
0.20681405067443848 2.109255075454712 -0.4041520953178406 0
0.2065003514289856 2.1022777557373047 -0.32851263880729675 44
0.20932431519031525 2.127210855484009 -0.25775396823883057 44
0.20703203976154327 2.1001551151275635 -0.18128421902656555 44
0.2059352844953537 2.085301399230957 -0.10745330899953842 44
0.20654506981372833 2.087750196456909 -0.035592760890722275 44
0.2076476812362671 2.095163106918335 0.553511917591095 44
0.20787206292152405 2.0937039852142334 0.4765356779098511 44
0.20733000338077545 2.084543466567993 0.39938589930534363 44
0.20797225832939148 2.087301731109619 0.3258064091205597 44
0.20835109055042267 2.0874109268188477 0.252878874540329 44
0.20996420085430145 2.0998637676239014 0.18128393590450287 44
0.20984014868736267 2.0949299335479736 0.10833542048931122 44
0.2089601755142212 2.082479476928711 0.0358646959066391 44
0.2027842253446579 2.003330945968628 -0.5292851328849792 119
0.21618014574050903 2.1319570541381836 -0.4858945310115814 0
0.21417546272277832 2.1085205078125 -0.4041520953178406 0
0.2138374149799347 2.101544141769409 -0.32851263880729675 44
0.2162451297044754 2.1215298175811768 -0.25714460015296936 44
0.21385572850704193 2.0944643020629883 -0.18084844946861267 44
0.21321308612823486 2.0845699310302734 -0.10745330899953842 44
0.21332190930843353 2.0820436477661133 -0.03550637140870094 44
0.21446681022644043 2.089621067047119 0.5522187352180481 44
0.21468092501163483 2.0881190299987793 0.4754118025302887 44
0.2146051526069641 2.0838069915771484 0.39938589930534363 44
0.21525703370571136 2.0865631103515625 0.3258064091205597 44
0.2156362384557724 2.0866711139678955 0.252878874540329 44
0.21729281544685364 2.099118232727051 0.18128393590450287 44
0.21715153753757477 2.094184637069702 0.10833542048931122 44
0.21622809767723083 2.081737518310547 0.0358646959066391 44
0.2099287360906601 2.007451057434082 -0.5305792689323425 119
0.22287678718566895 2.1312673091888428 -0.4858945310115814 0
0.22028714418411255 2.1029555797576904 -0.4031989574432373 0
0.22043853998184204 2.1008620262145996 -0.32851263880729675 44
0.22290901839733124 2.120840072631836 -0.25714460015296936 44
0.22043460607528687 2.0937821865081787 -0.18084844946861267 44
0.21923725306987762 2.0789244174957275 -0.1071925088763237 44
0.21986177563667297 2.0813632011413574 -0.03550637140870094 44
0.22103047370910645 2.0889370441436768 0.5522187352180481 44
0.2212398797273636 2.0874340534210205 0.4754118025302887 44
0.22115054726600647 2.083122491836548 0.39938589930534363 44
0.22128887474536896 2.080965518951416 0.3250250816345215 44
0.22219063341617584 2.0859832763671875 0.252878874540329 44
0.2233579009771347 2.093472480773926 0.18084818124771118 44
0.22319896519184113 2.0885274410247803 0.10807374864816666 44
0.22276699542999268 2.081047773361206 0.0358646959066391 44
0.21762102842330933 2.0163474082946777 -0.5331674814224243 119
0.2303149551153183 2.130476236343384 -0.4858945310115814 0
0.2276264876127243 2.1021738052368164 -0.4031989574432373 0
0.22723808884620667 2.095170021057129 -0.3277304768562317 44
0.23031079769134521 2.120048999786377 -0.25714460015296936 44
0.22774194180965424 2.0929999351501465 -0.18084844946861267 44
0.2264927178621292 2.078146457672119 -0.1071925088763237 44
0.22712574899196625 2.080583095550537 -0.03550637140870094 44
0.2283208817243576 2.0881528854370117 0.5522187352180481 44
0.22852502763271332 2.086649179458618 0.4754118025302887 44
0.2284206598997116 2.0823378562927246 0.39938589930534363 44
0.22855144739151 2.0801804065704346 0.3250250816345215 44
0.2289278507232666 2.080261707305908 0.25226953625679016 44
0.23066411912441254 2.0926802158355713 0.18084818124771118 44
0.23048792779445648 2.087735652923584 0.10807374864816666 44
0.2300298511981964 2.0802576541900635 0.0358646959066391 44
0.22500984370708466 2.015536308288574 -0.5331674814224243 119
0.23812200129032135 2.129617929458618 -0.4858945310115814 0
0.23532982170581818 2.101325273513794 -0.4031989574432373 0
0.23491574823856354 2.09432315826416 -0.3277304768562317 44
0.23807960748672485 2.1191906929016113 -0.25714460015296936 44
0.2354116290807724 2.092151165008545 -0.18084844946861267 44
0.23410798609256744 2.0773024559020996 -0.1071925088763237 44
0.2347499281167984 2.0797367095947266 -0.03550637140870094 44
0.2359728068113327 2.0873019695281982 0.5522187352180481 44
0.2361714392900467 2.0857975482940674 0.4754118025302887 44
0.2360512763261795 2.081486701965332 0.39938589930534363 44
0.23617415130138397 2.079328775405884 0.3250250816345215 44
0.23655085265636444 2.079408884048462 0.25226953625679016 44
0.2383326292037964 2.09182071685791 0.18084818124771118 44
0.23813830316066742 2.086876630783081 0.10807374864816666 44
0.23765283823013306 2.0794005393981934 0.0358646959066391 44
0.23259660601615906 2.0195364952087402 -0.5344615578651428 119
0.24555429816246033 2.1287736892700195 -0.4858945310115814 0
0.24266336858272552 2.1004910469055176 -0.4031989574432373 0
0.24222487211227417 2.0934903621673584 -0.3277304768562317 44
0.24547551572322845 2.118346691131592 -0.25714460015296936 44
0.24213893711566925 2.0863687992095947 -0.1804126650094986 44
0.2413576990365982 2.076472520828247 -0.1071925088763237 44
0.24200814962387085 2.078904628753662 -0.03550637140870094 44
0.242698073387146 2.081667900085449 0.5509254336357117 44
0.24345079064369202 2.084960460662842 0.4754118025302887 44
0.24274547398090363 2.075774908065796 0.3984327018260956 44
0.24343092739582062 2.078491687774658 0.3250250816345215 44
0.24380789697170258 2.0785703659057617 0.25226953625679016 44
0.24563299119472504 2.0909759998321533 0.18084818124771118 44
0.2454214096069336 2.0860328674316406 0.10807374864816666 44
0.2449098527431488 2.0785582065582275 0.0358646959066391 44
0.2399970293045044 2.0186703205108643 -0.5344615578651428 119
0.2533549964427948 2.127859354019165 -0.4858945310115814 0
0.24977925419807434 2.0947136878967285 -0.40224573016166687 0
0.24989627301692963 2.092588424682617 -0.3277304768562317 44
0.2532379925251007 2.1174328327178955 -0.25714460015296936 44
0.24978423118591309 2.0854673385620117 -0.1804126650094986 44
0.24896672368049622 2.0755739212036133 -0.1071925088763237 44
0.2496260702610016 2.0780036449432373 -0.03550637140870094 44
0.25032612681388855 2.0807645320892334 0.5509254336357117 44
0.2510909140110016 2.0840542316436768 0.4754118025302887 44
0.2503519356250763 2.074871301651001 0.3984327018260956 44
0.2510473430156708 2.077585458755493 0.3250250816345215 44
0.2514246106147766 2.077662944793701 0.25226953625679016 44
0.2532951533794403 2.090061664581299 0.18084818124771118 44
0.25306546688079834 2.0851192474365234 0.10807374864816666 44
0.25252649188041687 2.0776467323303223 0.0358646959066391 44
0.24704203009605408 2.017820358276367 -0.5344615578651428 119
0.26018819212913513 2.122126579284668 -0.4847698211669922 0
0.25708964467048645 2.0938291549682617 -0.40224573016166687 0
0.2571992576122284 2.091703414916992 -0.3277304768562317 44
0.2606276869773865 2.1165359020233154 -0.25714460015296936 44
0.2570623457431793 2.084582805633545 -0.1804126650094986 44
0.2562103271484375 2.0746922492980957 -0.1071925088763237 44
0.256878137588501 2.0771195888519287 -0.03550637140870094 44
0.25758782029151917 2.0798778533935547 0.5509254336357117 44
0.25836408138275146 2.083164930343628 0.4754118025302887 44
0.2575930655002594 2.0739846229553223 0.3984327018260956 44
0.25829795002937317 2.0766966342926025 0.3250250816345215 44
0.2586754858493805 2.076772451400757 0.25226953625679016 44
0.2605893015861511 2.0891647338867188 0.18084818124771118 44
0.2603423595428467 2.0842232704162598 0.10807374864816666 44
0.25978392362594604 2.076751708984375 0.0358646959066391 44
0.254084050655365 2.0169458389282227 -0.5344615578651428 119
0.2669844329357147 2.1163718700408936 -0.4836450219154358 0
0.26439693570137024 2.092918872833252 -0.40224573016166687 0
0.26449909806251526 2.0907928943634033 -0.3277304768562317 44
0.26801416277885437 2.1156132221221924 -0.25714460015296936 44
0.26433736085891724 2.0836727619171143 -0.1804126650094986 44
0.2634507715702057 2.0737853050231934 -0.1071925088763237 44
0.26412707567214966 2.0762102603912354 -0.03550637140870094 44
0.2648463845252991 2.0789661407470703 0.5509254336357117 44
0.26563411951065063 2.0822503566741943 0.4754118025302887 44
0.2648310363292694 2.073072910308838 0.3984327018260956 44
0.2655453681945801 2.075782299041748 0.3250250816345215 44
0.2659231722354889 2.075857162475586 0.25226953625679016 44
0.26788023114204407 2.088242292404175 0.18084818124771118 44
0.26761603355407715 2.083301544189453 0.10807374864816666 44
0.2670249342918396 2.0758330821990967 0.0358646959066391 44
0.2611229419708252 2.0160465240478516 -0.5344615578651428 119
0.2731170654296875 2.105764150619507 -0.48139551281929016 119
0.2717009484767914 2.0919833183288574 -0.40224573016166687 0
0.27115878462791443 2.0849595069885254 -0.32694828510284424 44
0.2753974199295044 2.1146647930145264 -0.25714460015296936 44
0.2716090977191925 2.0827372074127197 -0.1804126650094986 44
0.27133455872535706 2.07780385017395 -0.10745330899953842 44
0.27137279510498047 2.0752756595611572 -0.03550637140870094 44
0.2721017301082611 2.078028917312622 0.5509254336357117 44
0.27290093898773193 2.081310510635376 0.4754118025302887 44
0.27206581830978394 2.0721359252929688 0.3984327018260956 44
0.2727895975112915 2.074842691421509 0.3250250816345215 44
0.2731676399707794 2.074916124343872 0.25226953625679016 44
0.27516794204711914 2.087294578552246 0.18084818124771118 44
0.27488651871681213 2.082354784011841 0.10807374864816666 44
0.27426934242248535 2.0748884677886963 0.0358646959066391 44
0.2681586742401123 2.015122890472412 -0.5344615578651428 119
0.2798224091529846 2.099968671798706 -0.4802708029747009 119
0.2790016829967499 2.09102201461792 -0.40224573016166687 0
0.27843499183654785 2.0840003490448 -0.32694828510284424 44
0.2821192443370819 2.108772039413452 -0.25653526186943054 44
0.2788775563240051 2.0817763805389404 -0.1804126650094986 44
0.2785857915878296 2.0768439769744873 -0.10745330899953842 44
0.27861523628234863 2.0743157863616943 -0.03550637140870094 44
0.2793537378311157 2.077066421508789 0.5509254336357117 44
0.2795141339302063 2.075516700744629 0.47428786754608154 44
0.27929726243019104 2.071173667907715 0.3984327018260956 44
0.2800304889678955 2.0738778114318848 0.3250250816345215 44
0.2804087996482849 2.0739498138427734 0.25226953625679016 44
0.282452255487442 2.0863213539123535 0.18084818124771118 44
0.2821536064147949 2.0813827514648438 0.10807374864816666 44
0.2815103828907013 2.073918342590332 0.0358646959066391 44
0.27519112825393677 2.014174461364746 -0.5344615578651428 119
0.28715094923973083 2.0989792346954346 -0.4802708029747009 119
0.2862990200519562 2.0900354385375977 -0.40224573016166687 0
0.28570783138275146 2.0830156803131104 -0.32694828510284424 44
0.2894785404205322 2.107774257659912 -0.25653526186943054 44
0.28614258766174316 2.0807902812957764 -0.1804126650094986 44
0.2858336567878723 2.0758590698242188 -0.10745330899953842 44
0.2858542203903198 2.0733306407928467 -0.03550637140870094 44
0.28660234808921814 2.0760786533355713 0.5509254336357117 44
0.28675732016563416 2.074528455734253 0.47428786754608154 44
0.28652530908584595 2.070185899734497 0.3984327018260956 44
0.2872679531574249 2.072887659072876 0.3250250816345215 44
0.2876465320587158 2.072958469390869 0.25226953625679016 44
0.2897332012653351 2.085322618484497 0.18084818124771118 44
0.2894172668457031 2.080385208129883 0.10807374864816666 44
0.28874799609184265 2.072923183441162 0.0358646959066391 44
0.2822202146053314 2.0132017135620117 -0.5344615578651428 119
0.2944760322570801 2.09796404838562 -0.4802708029747009 119
0.2935928404331207 2.0890233516693115 -0.40224573016166687 0
0.29297715425491333 2.082005739212036 -0.32694828510284424 44
0.296834260225296 2.106750965118408 -0.25653526186943054 44
0.29340416193008423 2.0797789096832275 -0.1804126650094986 44
0.2923796474933624 2.0699048042297363 -0.1071925088763237 44
0.29308977723121643 2.0723202228546143 -0.03550637140870094 44
0.2938474714756012 2.0750656127929688 0.5509254336357117 44
0.29399704933166504 2.073514699935913 0.47428786754608154 44
0.2930600047111511 2.0643138885498047 0.3974795341491699 44
0.2938069701194763 2.0669829845428467 0.32424381375312805 44
0.294880747795105 2.07194185256958 0.25226953625679016 44
0.29630783200263977 2.0793673992156982 0.1804123818874359 44
0.2966774106025696 2.079362154006958 0.10807374864816666 44
0.2959820628166199 2.0719025135040283 0.0358646959066391 44
0.2892459034919739 2.012204170227051 -0.5344615578651428 119
0.3011034429073334 2.0921013355255127 -0.47914600372314453 119
0.30088314414024353 2.0879857540130615 -0.40224573016166687 0
0.30024293065071106 2.080970287322998 -0.32694828510284424 44
0.3041864037513733 2.1057021617889404 -0.25653526186943054 44
0.30066218972206116 2.078742027282715 -0.1804126650094986 44
0.2996031939983368 2.06887149810791 -0.1071925088763237 44
0.3003217279911041 2.071284294128418 -0.03550637140870094 44
0.30108901858329773 2.0740272998809814 0.5509254336357117 44
0.301233172416687 2.0724759101867676 0.47428786754608154 44
0.30026403069496155 2.0632784366607666 0.3974795341491699 44
0.3010202944278717 2.0659449100494385 0.32424381375312805 44
0.30211135745048523 2.070899724960327 0.25226953625679016 44
0.3035643696784973 2.078320264816284 0.1804123818874359 44
0.30393391847610474 2.0783138275146484 0.10807374864816666 44
0.30321255326271057 2.070856809616089 0.0358646959066391 44
0.2955641448497772 2.006404161453247 -0.5331674814224243 119
0.30840441584587097 2.0910375118255615 -0.47914600372314453 119
0.30816972255706787 2.0869228839874268 -0.40224573016166687 0
0.3075050413608551 2.079909563064575 -0.32694828510284424 44
0.3115347921848297 2.1046273708343506 -0.25653526186943054 44
0.307916522026062 2.0776798725128174 -0.1804126650094986 44
0.30682310461997986 2.0678131580352783 -0.1071925088763237 44
0.30755001306533813 2.070223569869995 -0.03550637140870094 44
0.30761635303497314 2.0681865215301514 0.54963219165802 44
0.3084656298160553 2.0714118480682373 0.47428786754608154 44
0.3074643909931183 2.0622177124023438 0.3974795341491699 44
0.3082299530506134 2.0648815631866455 0.32424381375312805 44
0.30860477685928345 2.064924478530884 0.25166019797325134 44
0.3108172118663788 2.0772480964660645 0.1804123818874359 44
0.3111867308616638 2.077240228652954 0.10807374864816666 44
0.3104393482208252 2.0697855949401855 0.0358646959066391 44
0.3025660216808319 2.0053601264953613 -0.5331674814224243 119
0.3157016336917877 2.0899481773376465 -0.47914600372314453 119
0.31545257568359375 2.085834503173828 -0.40224573016166687 0
0.3147634267807007 2.0788235664367676 -0.32694828510284424 44
0.3188794255256653 2.103527069091797 -0.25653526186943054 44
0.31516706943511963 2.076592445373535 -0.1804126650094986 44
0.3140392005443573 2.0667295455932617 -0.1071925088763237 44
0.3147745728492737 2.0691373348236084 -0.03550637140870094 44
0.31483379006385803 2.0671000480651855 0.54963219165802 44
0.31569430232048035 2.0703225135803223 0.47428786754608154 44
0.3146609663963318 2.0611319541931152 0.3974795341491699 44
0.31543588638305664 2.063793182373047 0.32424381375312805 44
0.3158108592033386 2.0638346672058105 0.25166019797325134 44
0.318066269159317 2.076150417327881 0.1804123818874359 44
0.31843575835227966 2.076141357421875 0.10807374864816666 44
0.3176623582839966 2.0686895847320557 0.0358646959066391 44
0.30956417322158813 2.0042917728424072 -0.5331674814224243 119
0.32299497723579407 2.0888335704803467 -0.47914600372314453 119
0.32273155450820923 2.0847206115722656 -0.40224573016166687 0
0.32201793789863586 2.077712059020996 -0.32694828510284424 44
0.32545918226242065 2.09749698638916 -0.25592589378356934 44
0.322413831949234 2.075479507446289 -0.1804126650094986 44
0.3212515413761139 2.0656206607818604 -0.1071925088763237 44
0.3219953179359436 2.068025827407837 -0.03550637140870094 44
0.3220474123954773 2.065988540649414 0.54963219165802 44
0.32291918992996216 2.0692079067230225 0.47428786754608154 44
0.32185375690460205 2.060020923614502 0.3974795341491699 44
0.3226379156112671 2.0626795291900635 0.32424381375312805 44
0.3230130672454834 2.0627195835113525 0.25166019797325134 44
0.32531148195266724 2.0750274658203125 0.1804123818874359 44
0.3256809115409851 2.075017213821411 0.10807374864816666 44
0.32488149404525757 2.067568063735962 0.0358646959066391 44
0.3165585696697235 2.0031991004943848 -0.5331674814224243 119
0.33028438687324524 2.087693214416504 -0.47914600372314453 119
0.3300066292285919 2.0835812091827393 -0.40224573016166687 0
0.32849517464637756 2.0716984272003174 -0.3261661231517792 44
0.33277884125709534 2.0963480472564697 -0.25592589378356934 44
0.3296566307544708 2.074341297149658 -0.1804126650094986 44
0.3284599483013153 2.0644867420196533 -0.1071925088763237 44
0.3299984037876129 2.0718259811401367 -0.035592760890722275 44
0.329257071018219 2.064851760864258 0.54963219165802 44
0.330140084028244 2.068068027496338 0.47428786754608154 44
0.32904261350631714 2.058884859085083 0.3974795341491699 44
0.32983607053756714 2.0615406036376953 0.32424381375312805 44
0.3302113115787506 2.061579704284668 0.25166019797325134 44
0.3325526714324951 2.0738794803619385 0.1804123818874359 44
0.3329220712184906 2.0738677978515625 0.10807374864816666 44
0.332096666097641 2.0664212703704834 0.0358646959066391 44
0.3235491216182709 2.002081871032715 -0.5331674814224243 119
0.338347852230072 2.091336965560913 -0.4802708029747009 119
0.33727768063545227 2.0824167728424072 -0.40224573016166687 0
0.335724800825119 2.0705389976501465 -0.3261661231517792 44
0.3400944471359253 2.0951735973358154 -0.25592589378356934 44
0.3368954360485077 2.0731780529022217 -0.1804126650094986 44
0.3356643617153168 2.0633275508880615 -0.1071925088763237 44
0.3372284173965454 2.0706615447998047 -0.035592760890722275 44
0.33646276593208313 2.063689947128296 0.54963219165802 44
0.3373569846153259 2.0669031143188477 0.47428786754608154 44
0.3362274467945099 2.0577237606048584 0.3974795341491699 44
0.33703017234802246 2.0603768825531006 0.32424381375312805 44
0.33740559220314026 2.0604143142700195 0.25166019797325134 44
0.33978983759880066 2.0727059841156006 0.1804123818874359 44
0.34015917778015137 2.07269287109375 0.10807374864816666 44
0.3384973108768463 2.060316562652588 0.03577743098139763 44
0.3305357098579407 2.0009403228759766 -0.5331674814224243 119
0.345645934343338 2.0901432037353516 -0.4802708029747009 119
0.3445446193218231 2.0812268257141113 -0.40224573016166687 0
0.3429502546787262 2.06935453414917 -0.3261661231517792 44
0.34740588068962097 2.0939738750457764 -0.25592589378356934 44
0.34413009881973267 2.0719895362854004 -0.1804126650094986 44
0.3428646922111511 2.062143325805664 -0.1071925088763237 44
0.3444543182849884 2.069471836090088 -0.035592760890722275 44
0.34445813298225403 2.0672669410705566 0.5509254336357117 44
0.3453713655471802 2.0705184936523438 0.4754118025302887 44
0.3434081971645355 2.056537628173828 0.3974795341491699 44
0.34422019124031067 2.059187889099121 0.32424381375312805 44
0.34459570050239563 2.0592241287231445 0.25166019797325134 44
0.3470228612422943 2.071507215499878 0.1804123818874359 44
0.347392201423645 2.071492910385132 0.10807374864816666 44
0.3456871211528778 2.059122323989868 0.03577743098139763 44
0.3375183045864105 1.9997742176055908 -0.5331674814224243 119
0.35293978452682495 2.088923931121826 -0.4802708029747009 119
0.3518073558807373 2.0800113677978516 -0.40224573016166687 0
0.3501715362071991 2.0681447982788086 -0.3261661231517792 44
0.35471311211586 2.0927484035491943 -0.25592589378356934 44
0.35136061906814575 2.0707757472991943 -0.1804126650094986 44
0.3500607907772064 2.060933828353882 -0.1071925088763237 44
0.35167601704597473 2.0682568550109863 -0.035592760890722275 44
0.35167214274406433 2.066051959991455 0.5509254336357117 44
0.3525967001914978 2.069300413131714 0.4754118025302887 44
0.3505847454071045 2.055326223373413 0.3974795341491699 44
0.3514059782028198 2.057973623275757 0.32424381375312805 44
0.3517816364765167 2.0580086708068848 0.25166019797325134 44
0.3542516827583313 2.0702831745147705 0.1804123818874359 44
0.35462090373039246 2.070267677307129 0.10807374864816666 44
0.35287269949913025 2.0579030513763428 0.03577743098139763 44
0.3444967567920685 1.9985839128494263 -0.5331674814224243 119
0.36022934317588806 2.087679147720337 -0.4802708029747009 119
0.35906580090522766 2.078770637512207 -0.40224573016166687 0
0.35738861560821533 2.0669097900390625 -0.3261661231517792 44
0.3628624379634857 2.0963876247406006 -0.25653526186943054 44
0.358586847782135 2.0695364475250244 -0.1804126650094986 44
0.35725265741348267 2.059699535369873 -0.1071925088763237 44
0.3588934540748596 2.0670166015625 -0.035592760890722275 44
0.3588818609714508 2.0648117065429688 0.5509254336357117 44
0.359817773103714 2.068057060241699 0.4754118025302887 44
0.3577570617198944 2.0540900230407715 0.3974795341491699 44
0.35858750343322754 2.056734561920166 0.32424381375312805 44
0.358963280916214 2.0567681789398193 0.25166019797325134 44
0.36233338713645935 2.0739407539367676 0.18084818124771118 44
0.36098513007164 2.064098596572876 0.1078120619058609 44
0.3591918647289276 2.051734447479248 0.03569016605615616 44
0.3514710068702698 1.9973692893981934 -0.5331674814224243 119
0.3675145208835602 2.086409091949463 -0.4802708029747009 119
0.3663198947906494 2.0775046348571777 -0.40224573016166687 0
0.3646012842655182 2.0656497478485107 -0.3261661231517792 44
0.3701780140399933 2.0951082706451416 -0.25653526186943054 44
0.3658086657524109 2.068272113800049 -0.1804126650094986 44
0.3644402027130127 2.0584399700164795 -0.1071925088763237 44
0.36610648036003113 2.065751314163208 -0.035592760890722275 44
0.3660872280597687 2.0635464191436768 0.5509254336357117 44
0.3661825358867645 2.0619914531707764 0.47428786754608154 44
0.36492496728897095 2.052828788757324 0.3974795341491699 44
0.36576467752456665 2.0554702281951904 0.32424381375312805 44
0.36614057421684265 2.0555026531219482 0.25166019797325134 44
0.3695705831050873 2.0726633071899414 0.18084818124771118 44
0.3681879937648773 2.062826156616211 0.1078120619058609 44
0.36635157465934753 2.0504679679870605 0.03569016605615616 44
0.35844099521636963 1.9961302280426025 -0.5331674814224243 119
0.37479519844055176 2.085113525390625 -0.4802708029747009 119
0.3735694885253906 2.0762133598327637 -0.40224573016166687 0
0.37180954217910767 2.064364433288574 -0.3261661231517792 44
0.37748903036117554 2.0938034057617188 -0.25653526186943054 44
0.3730260729789734 2.0669827461242676 -0.1804126650094986 44
0.3716232478618622 2.057155132293701 -0.1071925088763237 44
0.37242555618286133 2.059541702270508 -0.03550637140870094 44
0.37242788076400757 2.0575034618377686 0.54963219165802 44
0.37337803840637207 2.0607006549835205 0.47428786754608154 44
0.3720884919166565 2.051542282104492 0.3974795341491699 44
0.3729373514652252 2.054180860519409 0.32424381375312805 44
0.37331336736679077 2.0542120933532715 0.25166019797325134 44
0.37680327892303467 2.0713605880737305 0.18084818124771118 44
0.3753863573074341 2.061528205871582 0.1078120619058609 44
0.3735067844390869 2.0491766929626465 0.03569016605615616 44
0.3662768006324768 1.999617576599121 -0.5344615578651428 119
0.382071316242218 2.0837924480438232 -0.4802708029747009 119
0.3808145523071289 2.0748965740203857 -0.40224573016166687 0
0.3790132403373718 2.063054084777832 -0.3261661231517792 44
0.3847954571247101 2.092472791671753 -0.25653526186943054 44
0.38023892045021057 2.0656678676605225 -0.1804126650094986 44
0.3788018226623535 2.0558454990386963 -0.1071925088763237 44
0.37961241602897644 2.0582289695739746 -0.03550637140870094 44
0.3796076476573944 2.0561909675598145 0.54963219165802 44
0.37968361377716064 2.054594039916992 0.47316399216651917 44
0.37924742698669434 2.0502312183380127 0.3974795341491699 44
0.38010552525520325 2.0528666973114014 0.32424381375312805 44
0.37957724928855896 2.0480167865753174 0.25105082988739014 44
0.3831228017807007 2.0651352405548096 0.1804123818874359 44
0.38258013129234314 2.0602052211761475 0.1078120619058609 44
0.38157111406326294 2.0527756214141846 0.03577743098139763 44
0.37325456738471985 1.9983267784118652 -0.5344615578651428 119
0.3893427848815918 2.0824460983276367 -0.4802708029747009 119
0.3880549669265747 2.073554515838623 -0.40224573016166687 0
0.3862123489379883 2.061718463897705 -0.3261661231517792 44
0.3911825716495514 2.0862390995025635 -0.25592589378356934 44
0.3874471187591553 2.064328193664551 -0.1804126650094986 44
0.38597571849823 2.0545105934143066 -0.1071925088763237 44
0.38679465651512146 2.056891441345215 -0.03550637140870094 44
0.38588932156562805 2.0501067638397217 0.5483389496803284 44
0.3868531882762909 2.053256034851074 0.47316399216651917 44
0.3864017724990845 2.0488948822021484 0.3974795341491699 44
0.38635292649269104 2.0466742515563965 0.32346248626708984 44
0.3867238461971283 2.0466792583465576 0.25105082988739014 44
0.39032912254333496 2.0637855529785156 0.1804123818874359 44
0.3897692859172821 2.0588572025299072 0.1078120619058609 44
0.3887343108654022 2.051431179046631 0.03577743098139763 44
0.3802277445793152 1.9970117807388306 -0.5344615578651428 119
0.39660951495170593 2.0810742378234863 -0.4802708029747009 119
0.394370973110199 2.067366361618042 -0.4012925624847412 0
0.3934067189693451 2.0603578090667725 -0.3261661231517792 44
0.39846253395080566 2.0848608016967773 -0.25592589378356934 44
0.3946506083011627 2.0629630088806152 -0.1804126650094986 44
0.39314496517181396 2.0531508922576904 -0.1071925088763237 44
0.3939721882343292 2.0555286407470703 -0.03550637140870094 44
0.3930431604385376 2.0487473011016846 0.5483389496803284 44
0.39309921860694885 2.0471086502075195 0.472040057182312 44
0.39355140924453735 2.0475335121154785 0.3974795341491699 44
0.3934948146343231 2.0453131198883057 0.32346248626708984 44
0.3938657343387604 2.0453169345855713 0.25105082988739014 44
0.3975307047367096 2.062410354614258 0.1804123818874359 44
0.39695364236831665 2.0574841499328613 0.1078120619058609 44
0.3968406617641449 2.0549702644348145 0.0358646959066391 44
0.38719630241394043 1.995672345161438 -0.5344615578651428 119
0.4038713872432709 2.0796773433685303 -0.4802708029747009 119
0.40158504247665405 2.065977096557617 -0.4012925624847412 0
