# .PCD v0.7 - Point Cloud Data file format
VERSION 0.7
FIELDS x y z intensity
SIZE 4 4 4 4
TYPE F F F F
COUNT 1 1 1 1
WIDTH 802
HEIGHT 1
VIEWPOINT 0 0 0 1 0 0 0
POINTS 802
DATA ascii
1.873688817024231 1.7025364637374878 0.48421967029571533 44
1.874403715133667 1.7025889158248901 0.3945617079734802 44
1.8580121994018555 1.6871081590652466 0.3034546673297882 44
1.8760981559753418 1.7029330730438232 0.21832512319087982 44
1.87351655960083 1.69999361038208 0.1305782049894333 44
1.861253023147583 1.6882736682891846 0.04319470375776291 44
1.4174227714538574 1.2834386825561523 -0.502109169960022 119
1.6284488439559937 1.474000334739685 -0.49826687574386597 119
1.8772505521774292 1.6986085176467896 -0.4842199981212616 119
1.8815767765045166 1.7019258737564087 -0.3957795202732086 0
1.8983522653579712 1.7164973020553589 -0.3095484673976898 44
1.8870508670806885 1.705680012702942 -0.21919701993465424 44
1.8807947635650635 1.699428915977478 -0.1304045021533966 44
1.875920057296753 1.6944297552108765 -0.04302231967449188 44
1.8781284093856812 1.6958292722702026 0.6673181653022766 44
1.8837356567382812 1.7002954483032227 0.5765632390975952 44
1.8832645416259766 1.6992738246917725 0.4851728081703186 44
1.8840025663375854 1.6993433237075806 0.39534303545951843 44
1.8675755262374878 1.6839354038238525 0.30406397581100464 44
1.8857308626174927 1.6997088193893433 0.2187609225511551 44
1.8831486701965332 1.696785807609558 0.13083988428115845 44
1.8708494901657104 1.6851122379302979 0.04328196495771408 44
1.4218940734863281 1.2784831523895264 -0.502109169960022 119
1.6335842609405518 1.4683068990707397 -0.49826687574386597 119
1.8941212892532349 1.7018866539001465 -0.48707953095436096 119
1.8948543071746826 1.701947569847107 -0.39734387397766113 0
1.9117175340652466 1.716491460800171 -0.31076717376708984 44
1.896700143814087 1.7024097442626953 -0.2196328192949295 44
1.8904316425323486 1.6961878538131714 -0.13066530227661133 44
1.885545015335083 1.6912091970443726 -0.043108709156513214 44
1.8876324892044067 1.692487359046936 0.6686114072799683 44
1.893287181854248 1.6969614028930664 0.57768714427948 44
1.8964958190917969 1.6992404460906982 0.4870792031288147 44
1.8936015367507935 1.6960514783859253 0.39612433314323425 44
1.880836844444275 1.6840269565582275 0.30528268218040466 44
1.8953639268875122 1.6964378356933594 0.21919669210910797 44
1.8927812576293945 1.6935315132141113 0.1311015635728836 44
1.8804465532302856 1.6819041967391968 0.04336922615766525 44
1.4227455854415894 1.2702956199645996 -0.5008150935173035 119
1.6423344612121582 1.4658398628234863 -0.4993916451931 119
1.907375454902649 1.7018001079559326 -0.48898595571517944 119
1.9044690132141113 1.6986100673675537 -0.3981260061264038 0
1.9214017391204834 1.7131104469299316 -0.31137651205062866 44
1.9063494205474854 1.6990927457809448 -0.2200685739517212 44
1.9000693559646606 1.6929004192352295 -0.13092611730098724 44
1.8951700925827026 1.6879421472549438 -0.043195098638534546 44
1.8971362113952637 1.6890995502471924 0.6699046492576599 44
1.9028385877609253 1.693581461906433 0.5788110494613647 44
1.9060827493667603 1.6958726644515991 0.48803240060806274 44
1.906890630722046 1.6959953308105469 0.3976869285106659 44
1.8904125690460205 1.6807488203048706 0.30589205026626587 44
1.9049972295761108 1.6931207180023193 0.21963247656822205 44
1.902414083480835 1.6902306079864502 0.13136324286460876 44
1.89004385471344 1.6786500215530396 0.04345649108290672 44
1.4271711111068726 1.2653214931488037 -0.5008150935173035 119
1.6474411487579346 1.460098147392273 -0.4993916451931 119
1.9133042097091675 1.695131778717041 -0.48898595571517944 119
1.9177805185317993 1.6985002756118774 -0.3996903598308563 0
1.9310858249664307 1.7096829414367676 -0.31198588013648987 44
1.9197287559509277 1.6990302801132202 -0.22094014286994934 44
1.9097065925598145 1.6895660161972046 -0.13118691742420197 44
1.9047954082489014 1.6846284866333008 -0.04328148812055588 44
1.9066392183303833 1.6856662034988403 0.6711979508399963 44
1.9123893976211548 1.690155267715454 0.5799349546432495 44
1.9193477630615234 1.6957083940505981 0.48993879556655884 44
1.9165010452270508 1.6925981044769287 0.3984682559967041 44
1.903708577156067 1.680708885192871 0.3071107268333435 44
1.9183647632598877 1.6930524110794067 0.220504030585289 44
1.9157907962799072 1.6901861429214478 0.13188660144805908 44
1.903390645980835 1.6786555051803589 0.04363101348280907 44
1.4279541969299316 1.2571406364440918 -0.4995209574699402 119
1.6561847925186157 1.4575570821762085 -0.5005163550376892 119
1.9155243635177612 1.685200572013855 -0.4880327582359314 119
1.9274061918258667 1.6950570344924927 -0.4004725515842438 119
1.9444961547851562 1.7094850540161133 -0.3132045567035675 44
1.929389238357544 1.69560706615448 -0.22137592732906342 44
1.9230949878692627 1.6894806623458862 -0.1317085474729538 44
1.9144207239151 1.6812680959701538 -0.04336788132786751 44
1.9161412715911865 1.6821868419647217 0.6724911332130432 44
1.9256010055541992 1.6898967027664185 0.582182765007019 44
1.9289448261260986 1.6922352313995361 0.4908919930458069 44
1.9261105060577393 1.689154028892517 0.3992495536804199 44
1.9132955074310303 1.677324891090393 0.3077200651168823 44
1.928008794784546 1.6896284818649292 0.22093980014324188 44
1.925434947013855 1.6867787837982178 0.13214828073978424 44
1.9129995107650757 1.6752947568893433 0.04371827468276024 44
1.4323337078094482 1.2521483898162842 -0.4995209574699402 119
1.6612626314163208 1.451767086982727 -0.5005163550376892 119
1.921395182609558 1.6785038709640503 -0.4880327582359314 119
1.9370311498641968 1.6915671825408936 -0.4012547433376312 119
1.9541903734207153 1.7059509754180908 -0.3138139247894287 44
1.9390490055084229 1.6921367645263672 -0.2218116968870163 44
1.9327434301376343 1.6860400438308716 -0.1319693624973297 44
1.9278132915496826 1.6811466217041016 -0.04354066029191017 44
1.929282784461975 1.6818355321884155 0.6750776767730713 44
1.9351613521575928 1.6863658428192139 0.5833066701889038 44
1.938541054725647 1.6887156963348389 0.49184516072273254 44
1.93571937084198 1.6856635808944702 0.40003088116645813 44
1.9266250133514404 1.6771528720855713 0.30893877148628235 44
1.941409945487976 1.6894278526306152 0.22181135416030884 44
1.9388453960418701 1.6866016387939453 0.13267163932323456 44
1.9263806343078613 1.6751677989959717 0.04389279708266258 44
1.4366958141326904 1.2471410036087036 -0.4995209574699402 119
1.6663202047348022 1.4459593296051025 -0.5005163550376892 119
1.923534870147705 1.6685703992843628 -0.48707953095436096 119
1.9503861665725708 1.6912661790847778 -0.40281909704208374 119
1.9676331281661987 1.7056204080581665 -0.31503260135650635 44
1.952472448348999 1.691881775856018 -0.22268325090408325 44
1.9423911571502686 1.682552456855774 -0.13223016262054443 44
1.9374490976333618 1.6776795387268066 -0.0436270497739315 44
1.938793659210205 1.67825186252594 0.6763709187507629 44
1.9484044313430786 1.6859763860702515 0.5855544805526733 44
1.9481360912322998 1.6851497888565063 0.4927983582019806 44
1.9490630626678467 1.685356855392456 0.40159350633621216 44
1.9362223148345947 1.6736629009246826 0.30954810976982117 44
1.9510642290115356 1.6858975887298584 0.2222471386194229 44
1.9484996795654297 1.6830875873565674 0.13293331861495972 44
1.936000108718872 1.6717005968093872 0.04398006200790405 44
1.4410403966903687 1.24211847782135 -0.4995209574699402 119
1.671357274055481 1.4401339292526245 -0.5005163550376892 119
1.9293473958969116 1.6618458032608032 -0.48707953095436096 119
1.9600199460983276 1.6876699924468994 -0.4036012589931488 119
1.977336049079895 1.701979160308838 -0.31564193964004517 44
1.962141990661621 1.6883047819137573 -0.22311905026435852 44
1.9558234214782715 1.6822739839553833 -0.13275177776813507 44
1.9470840692520142 1.6741658449172974 -0.043713439255952835 44
1.9483027458190918 1.6746224164962769 0.6776641607284546 44
1.9579732418060303 1.682340145111084 0.5866783857345581 44
1.9577298164367676 1.68153715133667 0.49375152587890625 44
1.9586812257766724 1.681760311126709 0.40237483382225037 44
1.9458184242248535 1.6701263189315796 0.31015744805336 44
1.964497685432434 1.6855636835098267 0.22311870753765106 44
1.9581528902053833 1.679526448249817 0.13319499790668488 44
1.9494141340255737 1.671440601348877 0.044154584407806396 44
1.445367455482483 1.237080693244934 -0.4995209574699402 119
1.676374077796936 1.434291124343872 -0.5005163550376892 119
1.9388667345046997 1.6582914590835571 -0.4880327582359314 119
1.9734063148498535 1.6872364282608032 -0.40516558289527893 119
1.9908102750778198 1.7015150785446167 -0.3168606460094452 44
1.9718106985092163 1.6846810579299927 -0.2235548347234726 44
1.965480923652649 1.6786797046661377 -0.133012592792511 44
1.9605202674865723 1.6738512516021729 -0.0438862219452858 44
1.9614837169647217 1.6740821599960327 0.6802506446838379 44
1.9675400257110596 1.6786574125289917 0.5878022909164429 44
1.9673221111297607 1.677878499031067 0.4947047531604767 44
1.9720557928085327 1.6813212633132935 0.4039374589920044 44
1.9591903686523438 1.6697620153427124 0.31137615442276 44
1.97416090965271 1.6819262504577637 0.22355449199676514 44
1.967805027961731 1.675918459892273 0.13345667719841003 44
1.959043025970459 1.6678664684295654 0.04424184560775757 44
1.4459967613220215 1.22890043258667 -0.4982268810272217 119
1.6850836277008057 1.4315850734710693 -0.5016411542892456 119
1.9446433782577515 1.6515134572982788 -0.4880327582359314 119
1.9830485582351685 1.6835339069366455 -0.4059477746486664 119
2.000521421432495 1.6977667808532715 -0.3174700140953064 44
1.9814773797988892 1.6810100078582764 -0.22399060428142548 44
1.9751365184783936 1.6750379800796509 -0.1332733929157257 44
1.9701645374298096 1.6702303886413574 -0.04397260770201683 44
1.9710004329681396 1.670347809791565 0.6815439462661743 44
1.9808225631713867 1.6780778169631958 0.5900501012802124 44
1.976912498474121 1.6741728782653809 0.49565789103507996 44
1.9816821813583374 1.677618145942688 0.4047187566757202 44
1.9687954187393188 1.6661189794540405 0.31198549270629883 44
1.9876255989074707 1.6814590692520142 0.2244260460138321 44
1.9774556159973145 1.672263503074646 0.1337183564901352 44
1.9686709642410278 1.6642454862594604 0.04432911053299904 44
1.4502776861190796 1.2238454818725586 -0.4982268810272217 119
1.6937941312789917 1.4288356304168701 -0.5027658939361572 119
1.9541488885879517 1.647879719734192 -0.48898595571517944 119
1.9926888942718506 1.6797844171524048 -0.40672993659973145 119
2.010230541229248 1.6939712762832642 -0.3180793225765228 44
1.991142749786377 1.6772923469543457 -0.22442638874053955 44
1.9886103868484497 1.6745659112930298 -0.13379502296447754 44
1.98363196849823 1.669782042503357 -0.04414539039134979 44
1.9842100143432617 1.6696770191192627 0.6841304302215576 44
1.9903963804244995 1.674289345741272 0.5911740064620972 44
1.990257978439331 1.6735798120498657 0.49756428599357605 44
1.995086669921875 1.6770460605621338 0.40628135204315186 44
1.9821981191635132 1.6656216382980347 0.31320419907569885 44
1.997296690940857 1.677714228630066 0.22486181557178497 44
1.9909287691116333 1.6717727184295654 0.1342417299747467 44
1.9782971143722534 1.6605772972106934 0.04441636800765991 44
1.4508389234542847 1.2156736850738525 -0.4969327747821808 119
1.698771357536316 1.4229145050048828 -0.5027658939361572 119
1.9598891735076904 1.6410483121871948 -0.48898595571517944 119
2.0023274421691895 1.675987958908081 -0.4075121283531189 119
2.019937515258789 1.6901286840438843 -0.31868869066238403 44
2.004626750946045 1.6767230033874512 -0.2252979427576065 44
1.9982740879058838 1.6708170175552368 -0.13405582308769226 44
1.9932842254638672 1.6660536527633667 -0.044231779873371124 44
1.9937324523925781 1.6658374071121216 0.6854236721992493 44
1.9999678134918213 1.6704546213150024 0.5922979116439819 44
1.9998552799224854 1.6697680950164795 0.4985174834728241 44
2.0047202110290527 1.67323637008667 0.40706270933151245 44
1.991810917854309 1.6618717908859253 0.31381356716156006 44
2.010791063308716 1.6771128177642822 0.22573336958885193 44
2.000587224960327 1.6680102348327637 0.13450339436531067 44
1.9879220724105835 1.656862497329712 0.04450363293290138 44
1.455073595046997 1.2106019258499146 -0.4969327747821808 119
1.7074737548828125 1.4200913906097412 -0.5038906931877136 119
1.9693795442581177 1.6373347043991089 -0.4899391233921051 119
2.011963129043579 1.672144889831543 -0.40829429030418396 119
2.033459424972534 1.6894102096557617 -0.31990739703178406 44
2.014299154281616 1.6728978157043457 -0.2257337123155594 44
2.011777639389038 1.670210361480713 -0.1345774382352829 44
2.006781578063965 1.665471076965332 -0.044404562562704086 44
2.006969451904297 1.665035605430603 0.6880101561546326 44
2.0095369815826416 1.666573405265808 0.5934218168258667 44
2.0132291316986084 1.6690424680709839 0.5004238486289978 44
2.0143508911132812 1.6693793535232544 0.4078439772129059 44
2.0052430629730225 1.661241054534912 0.3150322437286377 44
2.0204696655273438 1.6732609272003174 0.226169154047966 44
2.014089822769165 1.6673848628997803 0.13502676784992218 44
1.997544765472412 1.653100609779358 0.044590894132852554 44
1.4555671215057373 1.2024394273757935 -0.4956386983394623 119
1.7124203443527222 1.4141225814819336 -0.5038906931877136 119
1.9750831127166748 1.6304504871368408 -0.4899391233921051 119
2.021597146987915 1.6682548522949219 -0.4090764820575714 119
2.0431721210479736 1.6854597330093384 -0.3205167353153229 44
2.0278120040893555 1.672194242477417 -0.22660528123378754 44
2.0214486122131348 1.6663540601730347 -0.1348382532596588 44
2.0164411067962646 1.661635398864746 -0.04449095204472542 44
2.0202250480651855 1.6641614437103271 0.6905966401100159 44
2.0228641033172607 1.6657426357269287 0.5956695675849915 44
2.022832155227661 1.6651241779327393 0.5013770461082458 44
2.023979425430298 1.6654759645462036 0.4086253046989441 44
2.014862060546875 1.6573840379714966 0.3156415820121765 44
2.0301451683044434 1.6693613529205322 0.22660492360591888 44
2.0276122093200684 1.6666854619979858 0.1355501264333725 44
2.011028289794922 1.652465581893921 0.0447654202580452 44
1.4560213088989258 1.1942882537841797 -0.4943445920944214 119
1.713578701019287 1.4050471782684326 -0.5027658939361572 119
1.980762243270874 1.6235462427139282 -0.4899391233921051 119
2.035047769546509 1.6674480438232422 -0.41064080595970154 119
2.052882432937622 1.681462287902832 -0.3211260735988617 44
2.0374906063079834 1.668261170387268 -0.2270410656929016 44
2.0349807739257812 1.6656129360198975 -0.13535988330841064 44
2.0299675464630127 1.6609179973602295 -0.04466373473405838 44
2.0297605991363525 1.6601574420928955 0.6918899416923523 44
2.032438039779663 1.6617554426193237 0.596793532371521 44
2.0362329483032227 1.6642653942108154 0.5032833814620972 44
2.0374293327331543 1.6646502017974854 0.4101879298686981 44
2.028322458267212 1.6566191911697388 0.31686028838157654 44
2.0436763763427734 1.6685649156570435 0.22747647762298584 44
2.041154384613037 1.6659120321273804 0.13607348501682281 44
2.020657539367676 1.648595929145813 0.04485268145799637 44
1.4601812362670898 1.1891984939575195 -0.4943445920944214 119
1.7184727191925049 1.399057149887085 -0.5027658939361572 119
1.986417531967163 1.6166220903396606 -0.4899391233921051 119
2.0446865558624268 1.6634505987167358 -0.4114229679107666 119
2.066439628601074 1.6805484294891357 -0.3223447799682617 44
2.0510315895080566 1.6674230098724365 -0.22791261970996857 44
2.0446572303771973 1.6616483926773071 -0.13562068343162537 44
2.03963303565979 1.656974196434021 -0.04475012049078941 44
2.043041706085205 1.6591514348983765 0.6944764256477356 44
2.0457913875579834 1.6607921123504639 0.5990413427352905 44
2.049652576446533 1.6633332967758179 0.5051897764205933 44
2.047063112258911 1.6606394052505493 0.41096922755241394 44
2.037947416305542 1.6526548862457275 0.31746962666511536 44
2.0533576011657715 1.664557695388794 0.2279122769832611 44
2.0508363246917725 1.6619205474853516 0.13633516430854797 44
2.0302846431732178 1.644679307937622 0.04493994638323784 44
1.4643234014511108 1.1840944290161133 -0.4943445920944214 119
1.719557285308838 1.389987587928772 -0.5016411542892456 119
1.9920485019683838 1.6096782684326172 -0.4899391233921051 119
2.058164119720459 1.662509560585022 -0.4129873216152191 119
2.0761544704437256 1.6764427423477173 -0.32295411825180054 44
2.0607151985168457 1.6633819341659546 -0.22834838926792145 44
2.0582168102264404 1.6607720851898193 -0.136142298579216 44
2.0531866550445557 1.6561217308044434 -0.044922903180122375 44
2.0525808334350586 1.6550416946411133 0.695769727230072 44
2.0553693771362305 1.65669846534729 0.6001651883125305 44
2.0592682361602783 1.6592481136322021 0.5061429738998413 44
2.060539484024048 1.6596792936325073 0.41253185272216797 44
2.047569513320923 1.6486433744430542 0.3180789649486542 44
2.063035726547241 1.6605030298233032 0.228348046541214 44
2.0644054412841797 1.6610119342803955 0.1368585228919983 44
2.043804407119751 1.6438487768173218 0.04511446878314018 44
1.4684478044509888 1.1789757013320923 -0.4943445920944214 119
1.7281980514526367 1.3870259523391724 -0.5027658939361572 119
2.001483678817749 1.6057865619659424 -0.49089235067367554 119
2.071659803390503 1.6614946126937866 -0.41455164551734924 119
2.0897374153137207 1.67539381980896 -0.3241727948188782 44
2.07428240776062 1.662408471107483 -0.2292199432849884 44
2.0678982734680176 1.6566994190216064 -0.13640311360359192 44
2.0628573894500732 1.6520696878433228 -0.04500929266214371 44
2.0658860206604004 1.6539037227630615 0.6983562111854553 44
2.0687475204467773 1.6556020975112915 0.6024129986763 44
2.0727128982543945 1.658182144165039 0.5080493688583374 44
2.0701773166656494 1.6555612087249756 0.4133131802082062 44
2.057188034057617 1.6445848941802979 0.3186883330345154 44
2.07660174369812 1.6595107316970825 0.22921960055828094 44
2.074092149734497 1.6569122076034546 0.13712020218372345 44
2.053436517715454 1.6398241519927979 0.045201729983091354 44
1.4761253595352173 1.1771109104156494 -0.4956386983394623 119
1.736356258392334 1.3846274614334106 -0.5038906931877136 119
2.0103566646575928 1.6025502681732178 -0.4918454885482788 119
2.0845935344696045 1.6611331701278687 -0.41611599922180176 119
2.098872423171997 1.671912670135498 -0.3247821629047394 44
2.0833911895751953 1.6589865684509277 -0.22965574264526367 44
2.0809061527252197 1.656414270401001 -0.13692472875118256 44
2.0719492435455322 1.6486937999725342 -0.04509568214416504 44
2.0748517513275146 1.6504119634628296 0.699649453163147 44
2.077752113342285 1.6521270275115967 0.6035369634628296 44
2.081754446029663 1.6547164916992188 0.5090025067329407 44
2.0831010341644287 1.6551939249038696 0.4148758053779602 44
2.0701167583465576 1.6442872285842896 0.319907009601593 44
2.0857059955596924 1.6560760736465454 0.22965538501739502 44
2.087109088897705 1.6565964221954346 0.13764356076717377 44
2.066410541534424 1.6395795345306396 0.0453762523829937 44
1.4800207614898682 1.17220938205719 -0.4956386983394623 119
1.7449983358383179 1.3815819025039673 -0.5050153732299805 119
2.019786834716797 1.5985691547393799 -0.49279871582984924 119
2.094252347946167 1.6569106578826904 -0.4168981909751892 119
2.112480640411377 1.670733094215393 -0.3260008692741394 44
2.096984386444092 1.6578824520111084 -0.23052729666233063 44
2.090592861175537 1.6522364616394043 -0.13718552887439728 44
2.0855369567871094 1.6476494073867798 -0.0452684611082077 44
2.0881805419921875 1.6491460800170898 0.7022359371185303 44
2.0873305797576904 1.6478832960128784 0.6046608686447144 44
2.0952236652374268 1.653521180152893 0.5109089016914368 44
2.0927436351776123 1.6509711742401123 0.41565707325935364 44
2.079740047454834 1.6401240825653076 0.32051634788513184 44
2.0953853130340576 1.6518691778182983 0.2300911545753479 44
2.0968005657196045 1.6523915529251099 0.13790524005889893 44
2.0760481357574463 1.6354502439498901 0.04546351730823517 44
1.488308310508728 1.1695019006729126 -0.4969327747821808 119
1.7541217803955078 1.3778810501098633 -0.5061401724815369 119
2.029770612716675 1.5938332080841064 -0.4937518835067749 119
2.1044833660125732 1.6519063711166382 -0.4176803529262543 119
2.122784376144409 1.6656728982925415 -0.32661017775535583 44
2.111172914505005 1.6559665203094482 -0.23139885067939758 44
2.1047801971435547 1.6503589153289795 -0.13770714402198792 44
2.095782995223999 1.6427135467529297 -0.04535485431551933 44
2.098299503326416 1.6440950632095337 0.7035292387008667 44
2.101313591003418 1.6458648443222046 0.6069086790084839 44
2.105422019958496 1.6484898328781128 0.5118620991706848 44
2.1068453788757324 1.649011254310608 0.41721969842910767 44
2.093839645385742 1.6382426023483276 0.32173505425453186 44
2.1095597743988037 1.6499485969543457 0.23096270859241486 44
2.110997200012207 1.6504790782928467 0.13842859864234924 44
2.0901904106140137 1.633623719215393 0.04563803970813751 44
1.4923814535140991 1.1642996072769165 -0.4969327747821808 119
1.7589207887649536 1.3717496395111084 -0.5061401724815369 119
2.0391926765441895 1.5897562503814697 -0.49470508098602295 119
2.118027448654175 1.6506214141845703 -0.4192446768283844 119
2.136415958404541 1.6643528938293457 -0.32782891392707825 44
2.120870351791382 1.6516474485397339 -0.23183462023735046 44
2.1144683361053467 1.646069049835205 -0.13796795904636383 44
2.1093947887420654 1.6415283679962158 -0.045527633279561996 44
2.1078379154205322 1.639725923538208 0.7048224806785583 44
2.110891819000244 1.6415106058120728 0.6080325841903687 44
2.1189138889312744 1.6471552848815918 0.5137684941291809 44
2.116488218307495 1.6446772813796997 0.4180010259151459 44
2.1034646034240723 1.6339682340621948 0.3223443925380707 44
2.1192405223846436 1.6456297636032104 0.23139849305152893 44
2.120689630508423 1.6461619138717651 0.1386902779340744 44
2.103783369064331 1.632441759109497 0.045812565833330154 44
1.5002548694610596 1.1620405912399292 -0.4982268810272217 119
1.7675502300262451 1.3685839176177979 -0.5072649121284485 119
2.0563738346099854 1.5916411876678467 -0.4975646436214447 119
2.1276822090148926 1.646240234375 -0.42002686858177185 119
2.1461379528045654 1.6599212884902954 -0.32843825221061707 44
2.1345038414001465 1.6503276824951172 -0.23270617425441742 44
2.1281027793884277 1.6447851657867432 -0.13848958909511566 44
2.119067907333374 1.6372116804122925 -0.04561402276158333 44
2.1173713207244873 1.6353107690811157 0.70611572265625 44
2.1204655170440674 1.637109637260437 0.6091564893722534 44
2.1285362243652344 1.6427478790283203 0.514721691608429 44
2.126126289367676 1.6402959823608398 0.4187823235988617 44
2.1130852699279785 1.6296464204788208 0.3229537308216095 44
2.1289165019989014 1.6412632465362549 0.2318342626094818 44
2.130378007888794 1.6417973041534424 0.13895195722579956 44
2.1134250164031982 1.62814462184906 0.04589982330799103 44
1.5081303119659424 1.159740686416626 -0.4995209574699402 119
1.7723166942596436 1.362405776977539 -0.5072649121284485 119
2.0697011947631836 1.5904346704483032 -0.4994710087776184 119
2.1373322010040283 1.6418116092681885 -0.4208090603351593 119
2.1597914695739746 1.658464789390564 -0.3296569287776947 44
2.144202709197998 1.645899772644043 -0.2331419736146927 44
2.1377923488616943 1.6403862237930298 -0.13875038921833038 44
2.1327035427093506 1.635890007019043 -0.04578680172562599 44
2.126899242401123 1.6308485269546509 0.7074089646339417 44
2.1339008808135986 1.6356256008148193 0.611404299736023 44
2.138153553009033 1.6382930278778076 0.515674889087677 44
2.1357600688934326 1.6358674764633179 0.4195636510848999 44
2.1266415119171143 1.6282944679260254 0.3241724371910095 44
2.142543315887451 1.6398767232894897 0.23270581662654877 44
2.140061616897583 1.6373850107192993 0.13921363651752472 44
2.127037525177002 1.6268315315246582 0.04607434943318367 44
1.5160082578659058 1.1574000120162964 -0.5008150935173035 119
1.7770617008209229 1.3562109470367432 -0.5072649121284485 119
2.075240135192871 1.5832005739212036 -0.4994710087776184 119
2.1509037017822266 1.64033043384552 -0.4223734140396118 119
2.1695139408111572 1.6539243459701538 -0.3302662968635559 44
2.15785813331604 1.644443154335022 -0.23401352763175964 44
2.147477388381958 1.6359398365020752 -0.1390112042427063 44
2.142378330230713 1.6314646005630493 -0.04587319493293762 44
2.1364221572875977 1.6263397932052612 0.7087022662162781 44
2.1434741020202637 1.6311172246932983 0.6125282049179077 44
2.147765874862671 1.633791208267212 0.516628086566925 44
2.14538836479187 1.6313917636871338 0.4203449785709381 44
2.136263370513916 1.6238645315170288 0.32478177547454834 44
2.1522204875946045 1.6354016065597534 0.23314161598682404 44
2.149740219116211 1.6329251527786255 0.13947531580924988 44
2.1366848945617676 1.622420310974121 0.04616161435842514 44
1.5200390815734863 1.1521011590957642 -0.5008150935173035 119
1.7701356410980225 1.3411732912063599 -0.5038906931877136 119
2.080753803253174 1.5759469270706177 -0.4994710087776184 119
2.1605536937713623 1.6357933282852173 -0.4231555759906769 119
2.1792311668395996 1.6493362188339233 -0.3308756351470947 44
2.167557716369629 1.6399062871932983 -0.23444931209087372 44
2.1571571826934814 1.6314455270767212 -0.13927200436592102 44
2.152047872543335 1.6269911527633667 -0.045959584414958954 44
2.1497926712036133 1.6246966123580933 0.7112887501716614 44
2.1530423164367676 1.6265621185302734 0.6136521100997925 44
2.15737247467041 1.6292420625686646 0.5175812244415283 44
2.1550111770629883 1.6268682479858398 0.42112627625465393 44
2.14984130859375 1.6223764419555664 0.32600048184394836 44
2.1618924140930176 1.6308786869049072 0.23357738554477692 44
2.1594135761260986 1.6284173727035522 0.13973699510097504 44
2.146327018737793 1.6179611682891846 0.046248871833086014 44
1.5240514278411865 1.1467881202697754 -0.5008150935173035 119
1.7709128856658936 1.3320575952529907 -0.5027658939361572 119
2.086242198944092 1.5686742067337036 -0.4994710087776184 119
2.1701982021331787 1.6312087774276733 -0.42393776774406433 119
2.1929101943969727 1.6476813554763794 -0.33209434151649475 44
2.1772515773773193 1.6353213787078857 -0.2348850816488266 44
2.1668319702148438 1.626904010772705 -0.13953281939029694 44
2.1577141284942627 1.619469165802002 -0.045959584414958954 44
2.159313917160034 1.6200809478759766 0.712581992149353 44
2.1665022373199463 1.6248830556869507 0.615899920463562 44
2.166973829269409 1.6246460676193237 0.5185344219207764 44
2.1646292209625244 1.622298002243042 0.42190760374069214 44
2.1594629287719727 1.61783766746521 0.3266098201274872 44
2.1755459308624268 1.6292940378189087 0.23444895446300507 44
2.173079013824463 1.626854658126831 0.14026035368442535 44
2.1599667072296143 1.6164500713348389 0.046423397958278656 44
1.5241758823394775 1.1385709047317505 -0.4995209574699402 119
1.7560341358184814 1.3112932443618774 -0.49714213609695435 119
2.0877721309661865 1.5584461688995361 -0.49851784110069275 119
2.1837947368621826 1.629530429840088 -0.42550209164619446 119
2.2026264667510986 1.6429840326309204 -0.33270367980003357 44
2.1869397163391113 1.6306887865066528 -0.23532088100910187 44
2.1765010356903076 1.6223143339157104 -0.13979361951351166 44
2.167362928390503 1.6149145364761353 -0.046045973896980286 44
2.1688296794891357 1.6154189109802246 0.7138752341270447 44
2.1760685443878174 1.6202201843261719 0.6170238256454468 44
2.1765687465667725 1.620002269744873 0.5194876194000244 44
2.174240827560425 1.6176798343658447 0.42268890142440796 44
2.169079542160034 1.613251805305481 0.327219158411026 44
2.1852171421051025 1.6246618032455444 0.23488472402095795 44
2.1827521324157715 1.6222376823425293 0.1405220329761505 44
2.1696090698242188 1.611881971359253 0.04651065915822983 44
1.528140902519226 1.1332435607910156 -0.4995209574699402 119
1.7723416090011597 1.313859224319458 -0.5005163550376892 119
2.0931994915008545 1.5511491298675537 -0.49851784110069275 119
2.1934378147125244 1.624837040901184 -0.4262842535972595 119
2.212336540222168 1.6382386684417725 -0.3333130180835724 44
2.200625419616699 1.628972053527832 -0.23619243502616882 44
2.190178632736206 1.6206473112106323 -0.1403152495622635 44
2.185044050216675 1.616257905960083 -0.04630514234304428 44
2.182222366333008 1.6135815382003784 0.716461718082428 44
2.189546823501587 1.6184062957763672 0.6192715764045715 44
2.19010591506958 1.6182284355163574 0.5213940143585205 44
2.187819480895996 1.6159487962722778 0.4242514967918396 44
2.1826822757720947 1.6115659475326538 0.328437864780426 44
2.198890209197998 1.622939944267273 0.2357562780380249 44
2.196437358856201 1.6205374002456665 0.14104539155960083 44
2.1832687854766846 1.6102333068847656 0.04668518528342247 44
1.5281981229782104 1.1250392198562622 -0.4982268810272217 119
1.8004601001739502 1.3249902725219727 -0.5072649121284485 119
2.1025545597076416 1.5467414855957031 -0.4994710087776184 119
2.2070531845092773 1.6230219602584839 -0.42784860730171204 119
2.226038694381714 1.6363849639892578 -0.3345317244529724 44
2.2143259048461914 1.627179503440857 -0.23706398904323578 44
2.1998465061187744 1.6159483194351196 -0.1405760496854782 44
2.20276141166687 1.6174978017807007 -0.046564314514398575 44
2.1956286430358887 1.6116701364517212 0.719048261642456 44
2.2030389308929443 1.6165181398391724 0.6215193867683411 44
2.1996989250183105 1.6134768724441528 0.5223472118377686 44
2.2014122009277344 1.6141425371170044 0.42581412196159363 44
2.1962997913360596 1.6098048686981201 0.32965657114982605 44
2.2125775814056396 1.6211422681808472 0.23662783205509186 44
2.210137128829956 1.618761420249939 0.14156875014305115 44
2.2009775638580322 1.6114624738693237 0.046946972608566284 44
1.5321160554885864 1.11969792842865 -0.4982268810272217 119
1.8208098411560059 1.3301931619644165 -0.5117639303207397 119
2.107940912246704 1.5393928289413452 -0.4994710087776184 119
2.2206826210021973 1.6211317777633667 -0.42941296100616455 119
2.235745906829834 1.6315302848815918 -0.33514106273651123 44
2.2280402183532715 1.625311017036438 -0.23793554306030273 44
2.2135424613952637 1.6141433715820312 -0.14109766483306885 44
2.2205138206481934 1.6186333894729614 -0.04682349041104317 44
2.209047794342041 1.6096850633621216 0.7216347455978394 44
2.2165441513061523 1.6145552396774292 0.6237671971321106 44
2.2132532596588135 1.6115669012069702 0.5242535471916199 44
2.2190117835998535 1.6151673793792725 0.42815807461738586 44
2.2099316120147705 1.6079679727554321 0.3308752477169037 44
2.2262794971466064 1.619268774986267 0.23749940097332 44
2.223851442337036 1.6169092655181885 0.14209210872650146 44
2.214676856994629 1.6096481084823608 0.04712149500846863 44
1.5360151529312134 1.1143430471420288 -0.4982268810272217 119
1.8491055965423584 1.3409903049468994 -0.518512487411499 119
2.1172754764556885 1.5349061489105225 -0.5004242062568665 119
2.2303266525268555 1.6162681579589844 -0.430195152759552 119
2.249465227127075 1.629538893699646 -0.33635976910591125 44
2.2417688369750977 1.6233667135238647 -0.23880711197853088 44
2.231297731399536 1.6151905059814453 -0.1418800950050354 44
2.2383005619049072 1.6196644306182861 -0.047082655131816864 44
2.226393461227417 1.6104563474655151 0.7255144715309143 44
2.23006272315979 1.6125177145004272 0.6260150074958801 44
2.226821184158325 1.6095820665359497 0.526159942150116 44
2.23264217376709 1.6131964921951294 0.4297206997871399 44
2.2235770225524902 1.6060556173324585 0.3320939540863037 44
2.239994764328003 1.6173192262649536 0.23837095499038696 44
2.237579107284546 1.6149810552597046 0.14261546730995178 44
2.2324447631835938 1.6106828451156616 0.047383278608322144 44
1.5398955345153809 1.108974575996399 -0.4982268810272217 119
1.8300518989562988 1.3174492120742798 -0.5117639303207397 119
2.1266043186187744 1.5303730964660645 -0.5013774037361145 119
2.2439725399017334 1.6142406463623047 -0.43175947666168213 119
2.263198137283325 1.6274714469909668 -0.3375784754753113 44
2.2555105686187744 1.621346116065979 -0.23967866599559784 44
2.2450320720672607 1.6132196187973022 -0.14240172505378723 44
2.252061367034912 1.617674708366394 -0.047255437821149826 44
2.2398476600646973 1.608309030532837 0.7281009554862976 44
2.24359393119812 1.6104055643081665 0.6282628178596497 44
2.2404017448425293 1.6075220108032227 0.5280663371086121 44
2.2502987384796143 1.6140282154083252 0.43206459283828735 44
2.241269111633301 1.6069594621658325 0.33392199873924255 44
2.257772445678711 1.6181955337524414 0.239678293466568 44
2.2513208389282227 1.6129769086837769 0.1431388258934021 44
2.2461822032928467 1.6087019443511963 0.047557804733514786 44
1.5398283004760742 1.1007839441299438 -0.4969327747821808 119
1.826711893081665 1.3053879737854004 -0.5095144510269165 119
2.1319334506988525 1.5229405164718628 -0.5013774037361145 119
2.257631778717041 1.6121376752853394 -0.43332383036613464 119
2.2769436836242676 1.6253281831741333 -0.3387971520423889 44
2.2692654132843018 1.6192493438720703 -0.2405502200126648 44
2.258779525756836 1.6111723184585571 -0.14292334020137787 44
2.2617650032043457 1.612706184387207 -0.047341831028461456 44
2.253314256668091 1.606087327003479 0.7306875586509705 44
2.2571372985839844 1.6082183122634888 0.6305106282234192 44
2.24999737739563 1.6025391817092896 0.5290194749832153 44
2.263965129852295 1.6118921041488647 0.4336272180080414 44
2.2549514770507812 1.6048815250396729 0.3351406753063202 44
2.27152419090271 1.6160794496536255 0.24054984748363495 44
2.265075445175171 1.6108959913253784 0.14366218447685242 44
2.264007568359375 1.6095417737960815 0.0478195920586586 44
1.5436612367630005 1.0954021215438843 -0.4969327747821808 119
1.8233102560043335 1.2933661937713623 -0.5072649121284485 119
2.141240358352661 1.5183285474777222 -0.5023306012153625 119
2.2672743797302246 1.6071031093597412 -0.4341059923171997 119
2.2907018661499023 1.6231085062026978 -0.34001585841178894 44
2.2830333709716797 1.6170765161514282 -0.24142178893089294 44
2.2725400924682617 1.6090484857559204 -0.1434449553489685 44
2.271461009979248 1.607689380645752 -0.04742821678519249 44
2.2667925357818604 1.603791356086731 0.7332740426063538 44
2.270692825317383 1.6059561967849731 0.6327584385871887 44
2.2635931968688965 1.6003423929214478 0.5309258699417114 44
2.277643918991089 1.609679937362671 0.4351898431777954 44
2.268646240234375 1.6027275323867798 0.3363593816757202 44
2.2852890491485596 1.613887071609497 0.2414214164018631 44
2.2788431644439697 1.608738899230957 0.14418554306030273 44
2.2777812480926514 1.6073938608169556 0.047994114458560944 44
1.5474755764007568 1.0900070667266846 -0.4969327747821808 119
1.823830485343933 1.2841891050338745 -0.5061401724815369 119
2.150541067123413 1.5136699676513672 -0.5032837390899658 119
2.2809479236602783 1.6048624515533447 -0.43567031621932983 119
2.300412893295288 1.617957592010498 -0.34062519669532776 44
2.2968132495880127 1.6148269176483154 -0.2422933429479599 44
2.286313056945801 1.606848120689392 -0.14396657049655914 44
2.2852401733398438 1.6054983139038086 -0.04760099574923515 44
2.2802820205688477 1.6014206409454346 0.7358605265617371 44
2.2842600345611572 1.6036192178726196 0.635006308555603 44
2.273183584213257 1.5952508449554443 0.5318790674209595 44
2.291334867477417 1.6073921918869019 0.43675246834754944 44
2.278290271759033 1.597648024559021 0.33696871995925903 44
2.294987201690674 1.6087592840194702 0.24185717105865479 44
2.2926230430603027 1.6065051555633545 0.14470891654491425 44
2.29156756401062 1.605169415473938 0.048168640583753586 44
1.54731285572052 1.0818313360214233 -0.4956386983394623 119
1.8163222074508667 1.2694422006607056 -0.5027658939361572 119
2.1558117866516113 1.506154179573059 -0.5032837390899658 119
2.2946338653564453 1.602545976638794 -0.43723466992378235 119
2.3141846656799316 1.615599274635315 -0.3418438732624054 44
2.306520462036133 1.6096500158309937 -0.24272911250591278 44
2.300098419189453 1.6045713424682617 -0.14448818564414978 44
2.294931173324585 1.600371241569519 -0.04768738895654678 44
2.2937824726104736 1.5989753007888794 0.7384470701217651 44
2.2938408851623535 1.5984212160110474 0.6361302137374878 44
2.2867932319641113 1.5929170846939087 0.5337854623794556 44
2.305037498474121 1.6050281524658203 0.43831509351730347 44
2.291999340057373 1.595355749130249 0.33818739652633667 44
2.3087661266326904 1.6064281463623047 0.24272873997688293 44
2.30641508102417 1.6041948795318604 0.14523227512836456 44
2.305366039276123 1.6028683185577393 0.04834316298365593 44
1.5629830360412598 1.0846842527389526 -0.4995209574699402 119
1.8207423686981201 1.2630943059921265 -0.5027658939361572 119
2.1650893688201904 1.5014166831970215 -0.5042369961738586 119
2.304272413253784 1.5973399877548218 -0.4380168616771698 119
2.3279685974121094 1.6131646633148193 -0.3430625796318054 44
2.320314645767212 1.6072616577148438 -0.24360066652297974 44
2.3138957023620605 1.602217674255371 -0.14500980079174042 44
2.308724880218506 1.598041296005249 -0.047860171645879745 44
2.30729341506958 1.5964549779891968 0.7410335540771484 44
2.307420492172241 1.5959473848342896 0.6383780241012573 44
2.3004140853881836 1.5905077457427979 0.5356917977333069 44
2.318751335144043 1.602588176727295 0.4398776888847351 44
2.305720329284668 1.592987298965454 0.3394061028957367 44
2.322556495666504 1.6040202379226685 0.2436002939939499 44
2.320218563079834 1.601807713508606 0.14575563371181488 44
2.315061330795288 1.5976506471633911 0.0484304241836071 44
1.5665713548660278 1.0794953107833862 -0.4995209574699402 119
1.7928239107131958 1.2349402904510498 -0.4937678575515747 119
2.1740989685058594 1.4970122575759888 -0.5051901340484619 119
2.317692518234253 1.595289945602417 -0.4395812153816223 119
2.3373935222625732 1.6082491874694824 -0.34367191791534424 44
2.3338396549224854 1.605203628540039 -0.2444722205400467 44
2.327425241470337 1.6001936197280884 -0.14553143084049225 44
2.322251558303833 1.5960397720336914 -0.04803295060992241 44
2.3165557384490967 1.5915298461914062 0.7423267960548401 44
2.320732355117798 1.5938031673431396 0.6406258344650269 44
2.3137686252593994 1.5884265899658203 0.537598192691803 44
2.3321969509124756 1.6004788875579834 0.4414403438568115 44
2.3191750049591064 1.590947151184082 0.34062477946281433 44
2.3360788822174072 1.6019436120986938 0.24447184801101685 44
2.3296360969543457 1.5969278812408447 0.14601731300354004 44
2.32859468460083 1.5956166982650757 0.048604946583509445 44
1.5743162631988525 1.076746940612793 -0.5008150935173035 119
1.817232608795166 1.2424229383468628 -0.4993916451931 119
2.183363676071167 1.4921836853027344 -0.50614333152771 119
2.327324867248535 1.5899757146835327 -0.440363347530365 119
2.3511898517608643 1.6056779623031616 -0.34489062428474426 44
2.347656011581421 1.6026638746261597 -0.24534378945827484 44
2.33712100982666 1.5948741436004639 -0.14579223096370697 44
2.3360681533813477 1.5935580730438232 -0.04820572957396507 44
2.330077648162842 1.5888758897781372 0.7449132800102234 44
2.3343331813812256 1.5911809206008911 0.6428735852241516 44
2.327411651611328 1.585868000984192 0.5395045876502991 44
2.345932960510254 1.597888708114624 0.44300296902656555 44
2.3288166522979736 1.5856353044509888 0.34123414754867554 44
2.3498916625976562 1.5993845462799072 0.2453434020280838 44
2.3434529304504395 1.5944037437438965 0.14654067158699036 44
2.3424177169799805 1.5931015014648438 0.04877947270870209 44
nan nan nan 0
1.8255895376205444 1.2388074398040771 -0.5005163550376892 119
2.1926207542419434 1.4873085021972656 -0.507096529006958 119
2.3410356044769287 1.5873854160308838 -0.4419277310371399 119
2.3649961948394775 1.6030298471450806 -0.3461093306541443 44
2.361483573913574 1.6000474691390991 -0.246215358376503 44
2.3509421348571777 1.5923064947128296 -0.1463138461112976 44
2.3457560539245605 1.5881966352462769 -0.048292119055986404 44
2.343609571456909 1.5861468315124512 0.7474997639656067 44
2.3479437828063965 1.5884828567504883 0.6451213955879211 44
2.341064929962158 1.5832334756851196 0.5414109230041504 44
2.3596789836883545 1.5952218770980835 0.4445655941963196 44
2.3425610065460205 1.5830538272857666 0.34245285391807556 44
2.363715410232544 1.5967488288879395 0.24621498584747314 44
2.3572800159454346 1.5918023586273193 0.14706403017044067 44
2.3562514781951904 1.590509057044983 0.04895399510860443 44
1.5737844705581665 1.0603327751159668 -0.4982268810272217 119
nan nan nan 0
2.1977992057800293 1.4796457290649414 -0.507096529006958 119
2.3547563552856445 1.5847183465957642 -0.4434920847415924 119
2.378812789916992 1.6003048419952393 -0.3473280072212219 44
2.3753209114074707 1.5973535776138306 -0.24708691239356995 44
2.3606302738189697 1.5868761539459229 -0.14657466113567352 44
2.3595845699310303 1.5855754613876343 -0.04846489802002907 44
2.3571505546569824 1.5833427906036377 0.75008624792099 44
2.3615639209747314 1.5857093334197998 0.6473692059516907 44
2.3547279834747314 1.5805227756500244 0.5433173179626465 44
2.3734352588653564 1.592478632926941 0.4461282193660736 44
2.3563156127929688 1.5803956985473633 0.3436715304851532 44
2.377549171447754 1.5940356254577637 0.2470865398645401 44
2.3711178302764893 1.5891239643096924 0.147587388753891 44
2.374249219894409 1.5906221866607666 0.049215782433748245 44
nan nan nan 0
1.8260928392410278 1.220617651939392 -0.49826687574386597 119
2.2029507160186768 1.4719650745391846 -0.507096529006958 119
2.3684871196746826 1.581974983215332 -0.4450564384460449 119
2.39263916015625 1.5975030660629272 -0.34854671359062195 44
2.3850250244140625 1.5918174982070923 -0.24752268195152283 44
2.374462366104126 1.584168791770935 -0.14709627628326416 44
2.3734233379364014 1.5828770399093628 -0.04863768070936203 44
2.3707005977630615 1.5804634094238281 0.7526727914810181 44
2.3751931190490723 1.5828598737716675 0.6496170163154602 44
2.3684003353118896 1.5777361392974854 0.5452237129211426 44
2.387200355529785 1.589658498764038 0.44769084453582764 44
2.3700802326202393 1.5776609182357788 0.3448902368545532 44
2.391392230987549 1.5912452936172485 0.24795809388160706 44
2.38912296295166 1.5891337394714355 0.14837244153022766 44
2.388113021850586 1.5878608226776123 0.04939030855894089 44
nan nan nan 0
nan nan nan 0
2.2039849758148193 1.4615538120269775 -0.50614333152771 119
2.3822271823883057 1.5791550874710083 -0.44662076234817505 119
2.4064745903015137 1.5946239233016968 -0.3497653901576996 44
2.398872137069702 1.5889838933944702 -0.24839425086975098 44
2.384140968322754 1.5786272287368774 -0.14735709130764008 44
2.3831028938293457 1.577341914176941 -0.04872407019138336 44
2.38425874710083 1.577508568763733 0.7552592754364014 44
2.388831377029419 1.5799345970153809 0.6518648266792297 44
2.382081985473633 1.5748729705810547 0.5471300482749939 44
2.400975227355957 1.586761713027954 0.4492534399032593 44
2.3879952430725098 1.5775847434997559 0.34671828150749207 44
2.4094016551971436 1.5911225080490112 0.2492654174566269 44
2.402989387512207 1.5862860679626465 0.14889580011367798 44
2.4019863605499268 1.58502197265625 0.04956483095884323 44
nan nan nan 0
1.8386391401290894 1.2105185985565186 -0.4993916451931 119
2.2049732208251953 1.4511531591415405 -0.5051901340484619 119
2.3959763050079346 1.5762583017349243 -0.44818511605262756 119
2.4244656562805176 1.5943944454193115 -0.3515934646129608 44
2.4127285480499268 1.5860726833343506 -0.24926580488681793 44
2.397982597351074 1.575779676437378 -0.1478787064552307 44
2.4011294841766357 1.5772477388381958 -0.048983242362737656 44
2.3978254795074463 1.5744785070419312 0.7578457593917847 44
2.402477741241455 1.5769331455230713 0.6541126370429993 44
2.3957722187042236 1.5719337463378906 0.54903644323349 44
2.4147586822509766 1.5837881565093994 0.4508160650730133 44
2.401787757873535 1.5746816396713257 0.3479369580745697 44
2.419106960296631 1.5854328870773315 0.24970120191574097 44
2.416865348815918 1.5833609104156494 0.1494191586971283 44
2.411686897277832 1.579366683959961 0.0496520958840847 44
nan nan nan 0
nan nan nan 0
2.2100250720977783 1.443447470664978 -0.5051901340484619 119
2.409734010696411 1.57328462600708 -0.4497494697570801 119
2.438328266143799 1.5913463830947876 -0.35281214118003845 44
2.4307656288146973 1.5858060121536255 -0.25057315826416016 44
2.4118332862854004 1.5728546380996704 -0.14840032160282135 44
2.41499662399292 1.5743168592453003 -0.04915602505207062 44
2.411400079727173 1.571372628211975 0.7604323029518127 44
2.4161322116851807 1.5738557577133179 0.6563604474067688 44
2.409471273422241 1.5689178705215454 0.5509428381919861 44
2.4285504817962646 1.580737590789795 0.45237869024276733 44
2.4155893325805664 1.571701169013977 0.3491556644439697 44
2.4329774379730225 1.582410454750061 0.2505727708339691 44
2.4307498931884766 1.5803580284118652 0.1499425172805786 44
2.4255685806274414 1.5763871669769287 0.049826618283987045 44
nan nan nan 0
1.8143434524536133 1.1764487028121948 -0.49039360880851746 119
2.2191693782806396 1.4383939504623413 -0.50614333152771 119
2.4235000610351562 1.5702341794967651 -0.4513137936592102 119
2.4521989822387695 1.5882210731506348 -0.3540308475494385 44
2.444648504257202 1.582725167274475 -0.2514446973800659 44
2.4256927967071533 1.5698519945144653 -0.14892195165157318 44
2.4288723468780518 1.5713083744049072 -0.04932880401611328 44
2.429037570953369 1.5708140134811401 0.7643120884895325 44
2.4297945499420166 1.570702075958252 0.6586082577705383 44
2.423178195953369 1.5658255815505981 0.5528491735458374 44
2.442349910736084 1.577609896659851 0.45394131541252136 44
2.429399251937866 1.5686438083648682 0.35037434101104736 44
2.4468562602996826 1.5793105363845825 0.2514443099498749 44
2.4404473304748535 1.5745705366134644 0.15020418167114258 44
2.4394590854644775 1.573330044746399 0.05000114440917969 44
nan nan nan 0
nan nan nan 0
2.2241766452789307 1.4306387901306152 -0.50614333152771 119
2.43727445602417 1.5671067237854004 -0.4528781473636627 119
2.4660775661468506 1.5850180387496948 -0.3552495241165161 44
2.4585397243499756 1.5795670747756958 -0.25231626629829407 44
2.4437615871429443 1.5694698095321655 -0.14970436692237854 44
2.446962833404541 1.570922613143921 -0.04958797246217728 44
2.4426355361938477 1.567542552947998 0.7668985724449158 44
2.4434640407562256 1.5674723386764526 0.6608560681343079 44
2.436892509460449 1.5626564025878906 0.5547555685043335 44
2.4561574459075928 1.5744051933288574 0.4555039405822754 44
2.4432170391082764 1.5655087232589722 0.3515930473804474 44
2.464937210083008 1.5788192749023438 0.2527516484260559 44
2.454338788986206 1.5714268684387207 0.1507275402545929 44
2.453357696533203 1.570194959640503 0.05017566680908203 44
nan nan nan 0
nan nan nan 0
2.2539806365966797 1.438711404800415 -0.5118624567985535 119
2.4510562419891357 1.5639022588729858 -0.45444250106811523 119
2.479963541030884 1.5817376375198364 -0.35646823048591614 44
2.472438335418701 1.5763309001922607 -0.2531878352165222 44
2.461857795715332 1.5689809322357178 -0.1504867970943451 44
2.4608640670776367 1.5677437782287598 -0.04976075142621994 44
2.456240177154541 1.5641953945159912 0.7694850564002991 44
2.4571409225463867 1.5641663074493408 0.6631039381027222 44
2.4506144523620605 1.5594106912612915 0.5566619634628296 44
2.4658050537109375 1.5684725046157837 0.4562852084636688 44
2.452854633331299 1.5596336126327515 0.3522023856639862 44
2.474637031555176 1.5728774070739746 0.2531874477863312 44
2.468238115310669 1.5682053565979004 0.1512508988380432 44
2.4714834690093994 1.569662094116211 0.05043745040893555 44
nan nan nan 0
nan nan nan 0
2.2506959438323975 1.4255820512771606 -0.5099561214447021 119
2.4648449420928955 1.5606204271316528 -0.45600685477256775 119
2.493856430053711 1.5783793926239014 -0.35768693685531616 44
2.4863440990448 1.573016881942749 -0.254059374332428 44
2.475759506225586 1.5657156705856323 -0.15100841224193573 44
2.478998899459839 1.567158579826355 -0.050019923597574234 44
2.46985125541687 1.560772180557251 0.7720715999603271 44
2.4708237648010254 1.5607835054397583 0.6653517484664917 44
2.4643430709838867 1.5560880899429321 0.5585682988166809 44
2.4796175956726074 1.5651277303695679 0.45784783363342285 44
