# .PCD v0.7 - Point Cloud Data file format
VERSION 0.7
FIELDS x y z intensity
SIZE 4 4 4 4
TYPE F F F F
COUNT 1 1 1 1
WIDTH 807
HEIGHT 1
VIEWPOINT 0 0 0 1 0 0 0
POINTS 807
DATA ascii
-1.5592726469039917 1.1882773637771606 -0.5150501132011414 119
-1.7893952131271362 1.3641409873962402 -0.5106391906738281 119
-2.137962579727173 1.6304606199264526 -0.5147220492362976 119
-2.613922119140625 1.9941601753234863 -0.5146698355674744 119
-3.4231882095336914 2.6124942302703857 -0.5240387320518494 0
-3.4787516593933105 2.65585994720459 -0.3795638382434845 10
-3.470874309539795 2.6508049964904785 -0.22612141072750092 10
-3.4626691341400146 2.6454951763153076 -0.07464112341403961 10
-3.476393222808838 2.6569414138793945 1.1613404750823975 10
-3.475064992904663 2.6568875312805176 1.0002753734588623 10
-3.4651429653167725 2.6502599716186523 0.8397588729858398 10
-3.470175266265869 2.6550686359405518 0.6852091550827026 10
-3.470768690109253 2.6564834117889404 0.5319596529006958 10
-3.471085548400879 2.657686710357666 0.37912747263908386 10
-3.471101760864258 2.658660411834717 0.22713802754878998 10
-3.4629297256469727 2.65336012840271 0.07548165321350098 10
-1.5551152229309082 1.1937129497528076 -0.5150501132011414 119
-1.7962144613265991 1.3792799711227417 -0.5140134692192078 119
-2.140043258666992 1.6438935995101929 -0.5166284441947937 119
-2.606945514678955 2.003272294998169 -0.5146698355674744 119
-3.414047956466675 2.624427318572998 -0.5240387320518494 119
-3.4734089374542236 2.6710236072540283 -0.37999963760375977 10
-3.465557098388672 2.6659483909606934 -0.22638219594955444 10
-3.4613375663757324 2.6636641025543213 -0.07481390982866287 10
-3.4709248542785645 2.672006368637085 1.1626337766647339 10
-3.47348952293396 2.6749467849731445 1.0025231838226318 10
-3.45975923538208 2.665334939956665 0.8407120704650879 10
-3.468709707260132 2.6731948852539062 0.686771810054779 10
-3.465405225753784 2.6716127395629883 0.5325689911842346 10
-3.4696762561798096 2.675870656967163 0.3799990713596344 10
-3.4697072505950928 2.676860809326172 0.2276614010334015 10
-3.461562156677246 2.6715407371520996 0.07565618306398392 10
nan nan nan 0
-1.7952429056167603 1.3885223865509033 -0.5151382088661194 119
-2.1187639236450195 1.6393392086029053 -0.5128157138824463 119
-2.5999367237091064 2.012360095977783 -0.5146698355674744 119
-3.408790349960327 2.639366865158081 -0.5246480703353882 119
-3.4680018424987793 2.6861817836761475 -0.38043537735939026 10
-3.4641244411468506 2.684145927429199 -0.22690382599830627 10
-3.45596981048584 2.678792715072632 -0.0749003067612648 10
-3.469210386276245 2.6900250911712646 1.1652202606201172 10
-3.4679806232452393 2.6900410652160645 1.0036470890045166 10
-3.4581897258758545 2.68341326713562 0.842618465423584 10
-3.4671595096588135 2.691343069076538 0.6883344054222107 10
-3.4599781036376953 2.686736822128296 0.5331783890724182 10
-3.4485132694244385 2.6787989139556885 0.378691703081131 10
-3.4682278633117676 2.6950836181640625 0.228184774518013 10
-3.456162452697754 2.686675548553467 0.07574343681335449 10
nan nan nan 0
nan nan nan 0
-2.10528564453125 1.6406909227371216 -0.5109092593193054 119
-2.5928964614868164 2.02142333984375 -0.5146698355674744 119
-3.4034698009490967 2.654301881790161 -0.5252574682235718 119
-3.466458320617676 2.7043986320495605 -0.3813069760799408 10
-3.458670139312744 2.699293613433838 -0.2271646410226822 10
-3.4584193229675293 2.7000691890716553 -0.0751594752073288 10
-3.467412233352661 2.708064556121826 1.1678067445755005 10
-3.4662482738494873 2.7081291675567627 1.0058948993682861 10
-3.4565367698669434 2.7015135288238525 0.8445248007774353 10
-3.461634397506714 2.7064712047576904 0.6891157031059265 10
-3.4544875621795654 2.701854944229126 0.533787727355957 10
-3.4509105682373047 2.700028419494629 0.3799990713596344 10
-3.466662645339966 2.7133283615112305 0.22870811820030212 10
-3.4546358585357666 2.7048873901367188 0.07591796666383743 10
nan nan nan 0
-1.7970037460327148 1.4100439548492432 -0.518512487411499 119
nan nan nan 0
-2.585824489593506 2.0304620265960693 -0.5146698355674744 119
-3.394184112548828 2.666166067123413 -0.5252574682235718 119
-3.464830160140991 2.722637176513672 -0.38217851519584656 10
-3.4649288654327393 2.723693370819092 -0.22820788621902466 10
-3.4489734172821045 2.712124824523926 -0.0751594752073288 10
-3.4617342948913574 2.723137617111206 1.169100046157837 10
-3.4644315242767334 2.726238250732422 1.0081428289413452 0
-3.454798936843872 2.719634532928467 0.8464312553405762 10
-3.459926128387451 2.72464919090271 0.6906783580780029 10
-3.452831983566284 2.720038890838623 0.5350064039230347 0
nan nan nan 0
-3.4610917568206787 2.728504180908203 0.22896979749202728 10
-3.4451730251312256 2.7169299125671387 0.07591796666383743 10
nan nan nan 0
nan nan nan 0
-2.1322834491729736 1.6857893466949463 -0.5204411745071411 119
-2.578721284866333 2.039475679397583 -0.5146698355674744 119
-3.3848564624786377 2.677997589111328 -0.5252574682235718 119
-3.4396822452545166 2.722350597381592 -0.38043537735939026 10
-3.4514858722686768 2.7326724529266357 -0.22794707119464874 10
-3.4473233222961426 2.7303555011749268 -0.07533225417137146 10
-3.4597787857055664 2.7412030696868896 1.1716865301132202 0
-3.458711862564087 2.7413408756256104 1.0092666149139404 0
-3.452976703643799 2.737776517868042 0.8483375906944275 0
-3.4271788597106934 2.7182962894439697 0.6859904527664185 10
-3.451091766357422 2.7382445335388184 0.5362250804901123 0
-3.443681001663208 2.7333438396453857 0.38130638003349304 0
-3.4359045028686523 2.728149175643921 0.22792308032512665 10
-3.4278385639190674 2.7227203845977783 0.07574343681335449 10
nan nan nan 0
-1.7794926166534424 1.4164865016937256 -0.516262948513031 119
nan nan nan 0
-2.559998035430908 2.039233684539795 -0.512323260307312 119
-3.3716068267822266 2.686703681945801 -0.5246480703353882 119
-3.4067893028259277 2.715711832046509 -0.3778207302093506 0
-3.4458296298980713 2.747816562652588 -0.22820788621902466 0
-3.414323091506958 2.7236669063568115 -0.07481390982866287 0
-3.4124374389648438 2.723137617111206 1.1587539911270142 44
-3.422468662261963 2.7321205139160156 1.001399278640747 44
-3.4127156734466553 2.7253100872039795 0.8407120704650879 44
-3.4060935974121094 2.7209954261779785 0.683646559715271 44
-3.422128200531006 2.734783411026001 0.5331783890724182 44
nan nan nan 0
-3.4146618843078613 2.7307703495025635 0.22713802754878998 10
-3.3987953662872314 2.7190542221069336 0.07530713081359863 44
nan nan nan 0
-1.7783385515213013 1.4257370233535767 -0.5173877477645874 119
nan nan nan 0
-2.5451605319976807 2.0419764518737793 -0.5107589364051819 119
-3.3622078895568848 2.6984565258026123 -0.5246480703353882 119
-3.3739843368530273 2.708876609802246 -0.3752060532569885 44
nan nan nan 0
-3.377514600753784 2.7136504650115967 -0.07420918345451355 44
-3.410440683364868 2.741084098815918 1.1613404750823975 44
-3.409113883972168 2.740997552871704 1.0002753734588623 44
-3.3993568420410156 2.7341294288635254 0.8397588729858398 44
-3.4004225730895996 2.735964298248291 0.6844278573989868 44
-3.3854987621307373 2.7249302864074707 0.5289129018783569 44
nan nan nan 0
-3.389554500579834 2.73014497756958 0.22609131038188934 44
-3.3659260272979736 2.7120819091796875 0.074783556163311 44
nan nan nan 0
nan nan nan 0
nan nan nan 0
-2.52229642868042 2.0388731956481934 -0.5076302289962769 119
-3.348435640335083 2.707641124725342 -0.5240387320518494 119
-3.3407981395721436 2.7024295330047607 -0.37259137630462646 44
nan nan nan 0
-3.344231367111206 2.7071382999420166 -0.07369083911180496 44
-3.377850294113159 2.7353286743164062 1.1535810232162476 44
-3.376330614089966 2.7350738048553467 0.9935320019721985 44
-3.3549928665161133 2.7187588214874268 0.831180214881897 44
-3.359680652618408 2.723529100418091 0.6781773567199707 44
-3.356215715408325 2.721691370010376 0.5258662104606628 44
nan nan nan 0
-3.364016532897949 2.729964256286621 0.2250445932149887 44
-3.3326759338378906 2.7054953575134277 0.07425998896360397 44
-1.5172158479690552 1.2338871955871582 -0.5137560367584229 119
-1.7340779304504395 1.4107550382614136 -0.5072649121284485 119
nan nan nan 0
-2.5113346576690674 2.0445475578308105 -0.5068480968475342 119
-3.335116386413574 2.716179132461548 -0.5234294533729553 119
-3.3158981800079346 2.7014901638031006 -0.37084826827049255 44
-3.3428401947021484 2.7244107723236084 -0.22325249016284943 44
-3.3115129470825195 2.6998414993286133 -0.07317250221967697 44
-3.349567174911499 2.731839895248413 1.1471147537231445 44
-3.3403372764587402 2.725282907485962 0.9856646060943604 44
-3.3264694213867188 2.7149360179901123 0.8264142870903015 44
-3.3272006511688232 2.7165002822875977 0.673489511013031 44
-3.3236329555511475 2.7145543098449707 0.5222101211547852 44
-3.335266351699829 2.7250263690948486 0.37346234917640686 44
-3.335136651992798 2.72589111328125 0.2237362116575241 44
-3.3038556575775146 2.7012951374053955 0.07382367551326752 44
nan nan nan 0
-1.7404484748840332 1.4260627031326294 -0.5106391906738281 119
-2.087052583694458 1.7106671333312988 -0.5166284441947937 119
-2.527095317840576 2.0720884799957275 -0.5115411281585693 119
-3.32177734375 2.724656581878662 -0.5228200554847717 119
-3.2910454273223877 2.7004098892211914 -0.36910516023635864 44
-3.310152530670166 2.717055082321167 -0.2216876596212387 44
-3.282750368118286 2.695521831512451 -0.07274054735898972 44
-3.317617654800415 2.72512149810791 1.139355182647705 44
-3.308218479156494 2.7183678150177 0.9789212346076965 44
-3.2942214012145996 2.7078299522399902 0.8206951022148132 44
-3.2909958362579346 2.7061409950256348 0.6680203676223755 44
-3.2911410331726074 2.707223653793335 0.5185540318489075 44
-3.2872719764709473 2.705002784729004 0.3691045939922333 44
-3.306325674057007 2.721649646759033 0.22242781519889832 44
-3.2751145362854004 2.6969168186187744 0.07338736206293106 44
-1.4936622381210327 1.2321559190750122 -0.5085796117782593 119
-1.7392174005508423 1.435230016708374 -0.5117639303207397 119
-2.054572343826294 1.6960688829421997 -0.5099561214447021 119
-2.5465023517608643 2.1029090881347656 -0.5170162916183472 119
-3.2931160926818848 2.7204318046569824 -0.5197733044624329 119
-3.270080327987671 2.702362537384033 -0.3677977919578552 44
-3.277557373046875 2.7095043659210205 -0.2201227992773056 44
-3.254058599472046 2.6910343170166016 -0.07230859249830246 44
-3.2857558727264404 2.7182133197784424 1.1315957307815552 44
-3.276188611984253 2.711261749267578 0.9721777439117432 44
-3.2620644569396973 2.7005326747894287 0.8149760365486145 44
-3.2587082386016846 2.6987125873565674 0.663332462310791 44
-3.2625629901885986 2.7028651237487793 0.5155073404312134 44
-3.270139217376709 2.71010422706604 0.3682330250740051 44
-3.2737414836883545 2.7140533924102783 0.22085772454738617 44
-3.2425920963287354 2.6891844272613525 0.07286378741264343 44
nan nan nan 0
nan nan nan 0
-2.0637364387512207 1.7157819271087646 -0.5137688517570496 119
-2.569521427154541 2.1370480060577393 -0.5232737064361572 119
-3.2683401107788086 2.71921443939209 -0.5173359513282776 119
-3.2491421699523926 2.7042016983032227 -0.3664904534816742 44
-3.2373809814453125 2.6953699588775635 -0.21803632378578186 44
-3.225438356399536 2.686379909515381 -0.0718766450881958 44
-3.2576944828033447 2.7142083644866943 1.1251294612884521 44
-3.2479918003082275 2.707084894180298 0.9665582180023193 44
-3.233768939971924 2.6961870193481445 0.8102100491523743 44
-3.2303051948547363 2.6942548751831055 0.6594259142875671 44
-3.2302448749542236 2.6951608657836914 0.5118511915206909 44
-3.230067253112793 2.6959691047668457 0.3647467792034149 44
-3.2450835704803467 2.709463596343994 0.21954931318759918 44
-3.214000940322876 2.6844635009765625 0.07242748886346817 44
nan nan nan 0
nan nan nan 0
-2.0426814556121826 1.7103710174560547 -0.5099561214447021 119
-2.531759262084961 2.120635747909546 -0.5170162916183472 119
-3.2474167346954346 2.7210443019866943 -0.5155079364776611 119
-3.2282307147979736 2.705927610397339 -0.36518314480781555 44
-3.216474771499634 2.6970295906066895 -0.2172539085149765 44
-3.196890354156494 2.68155837059021 -0.07144469022750854 44
-3.2260007858276367 2.706935405731201 1.1173698902130127 44
-3.216132879257202 2.6996119022369385 0.9598148465156555 44
-3.205543041229248 2.6916768550872803 0.8054441213607788 44
-3.2019731998443604 2.6896321773529053 0.6555193066596985 44
-3.1980209350585938 2.6872644424438477 0.508195161819458 44
-3.205385208129883 2.6944074630737305 0.363003671169281 44
-3.216498374938965 2.704706907272339 0.21824093163013458 44
-3.1816563606262207 2.6763570308685303 0.07190390676259995 44
nan nan nan 0
nan nan nan 0
-2.044203281402588 1.7238192558288574 -0.5118624567985535 119
-2.524341344833374 2.129460096359253 -0.5170162916183472 119
-3.2113490104675293 2.709959030151367 -0.5112424492835999 119
-3.199735164642334 2.7011148929595947 -0.36300423741340637 44
-3.1879658699035645 2.6921324729919434 -0.21594984829425812 44
-3.1645967960357666 2.673344373703003 -0.07092635333538055 44
-3.198087215423584 2.7025928497314453 1.1109037399291992 44
-3.1880860328674316 2.6950950622558594 0.9541952610015869 44
-3.173640727996826 2.683833360671997 0.7997249364852905 44
-3.173713207244873 2.684844970703125 0.6516128182411194 44
-3.165891408920288 2.679175853729248 0.5045390725135803 44
-3.176952362060547 2.689488172531128 0.3608247637748718 44
-3.18798565864563 2.6997838020324707 0.2169325351715088 44
-3.1532223224639893 2.6712894439697266 0.07146760076284409 44
nan nan nan 0
nan nan nan 0
-2.0493969917297363 1.740476131439209 -0.5147220492362976 119
-2.5056021213531494 2.128666877746582 -0.5146698355674744 119
-3.1753993034362793 2.698655605316162 -0.5069770216941833 119
-3.171312093734741 2.6961357593536377 -0.3608253300189972 44
-3.1595311164855957 2.68707013130188 -0.21464580297470093 44
-3.136207342147827 2.668177366256714 -0.0704943984746933 44
-3.166565179824829 2.6949574947357178 1.1031441688537598 44
-3.1564011573791504 2.6872572898864746 0.9474518299102783 44
-3.1455698013305664 2.678983211517334 0.7949590682983398 44
-3.1455256938934326 2.6798930168151855 0.6477062702178955 44
-3.137634515762329 2.6741151809692383 0.5014923214912415 44
-3.148592948913574 2.684403419494629 0.35864585638046265 44
-3.1595468521118164 2.694694995880127 0.2156241238117218 44
-3.1210598945617676 2.662811756134033 0.07094403356313705 44
nan nan nan 0
nan nan nan 0
-2.050769567489624 1.7539998292922974 -0.5166284441947937 119
-2.4981565475463867 2.137399911880493 -0.5146698355674744 119
-3.1395680904388428 2.6871349811553955 -0.5027115941047668 119
-3.135396957397461 2.6845130920410156 -0.35777488350868225 44
-3.1311705112457275 2.6818418502807617 -0.21334175765514374 44
-3.1040961742401123 2.6595919132232666 -0.06997605413198471 44
-3.1388027667999268 2.690279006958008 1.0966778993606567 44
-3.1285083293914795 2.6824028491973877 0.9418323636054993 44
-3.1175708770751953 2.673969030380249 0.7901930809020996 44
-3.113663673400879 2.6715614795684814 0.643018364906311 44
-3.1056864261627197 2.6656579971313477 0.49783626198768616 44
-3.1203081607818604 2.6791539192199707 0.35646697878837585 44
-3.1311821937561035 2.6894400119781494 0.214315727353096 44
-3.092787027359009 2.657399892807007 0.0705077201128006 44
nan nan nan 0
-1.7050870656967163 1.4681599140167236 -0.5106391906738281 119
-2.055791139602661 1.7707574367523193 -0.5194879770278931 119
-2.49068021774292 2.1461069583892822 -0.5146698355674744 119
-3.107614517211914 2.6786365509033203 -0.49905550479888916 119
-3.1033730506896973 2.675924777984619 -0.3551601767539978 44
-3.1028852462768555 2.6764488220214844 -0.21203772723674774 44
-3.075869083404541 2.6540818214416504 -0.06954411417245865 44
-3.111111879348755 2.685439348220825 1.0902116298675537 44
-3.1006879806518555 2.6773862838745117 0.9362128376960754 44
-3.0896458625793457 2.668792963027954 0.7854271531105042 44
-3.085635185241699 2.666269063949585 0.6391118168830872 44
-3.077590227127075 2.6602556705474854 0.4947895109653473 44
-3.0920984745025635 2.6737396717071533 0.35428810119628906 44
-3.0991175174713135 2.6807544231414795 0.21274566650390625 44
-3.0645902156829834 2.6518235206604004 0.07007140666246414 44
-1.470410943031311 1.2746083736419678 -0.5111678242683411 119
-1.7073132991790771 1.480486273765564 -0.5128887295722961 119
-2.0384743213653564 1.768273949623108 -0.5166284441947937 119
-2.4831738471984863 2.154788017272949 -0.5146698355674744 119
-3.0757594108581543 2.6699488162994385 -0.49539944529533386 119
-3.0714480876922607 2.6671464443206787 -0.35254552960395813 44
-3.070906639099121 2.667616367340088 -0.21047286689281464 44
-3.0439441204071045 2.645127296447754 -0.06902576982975006 44
-3.08349347114563 2.6804394721984863 1.0837453603744507 44
-3.072941303253174 2.672208547592163 0.9305932521820068 44
-3.0617949962615967 2.663454055786133 0.7806611657142639 44
-3.0576822757720947 2.660814046859741 0.6352053284645081 44
-3.0495691299438477 2.6546897888183594 0.4917427599430084 44
-3.06396484375 2.668161392211914 0.3521091938018799 44
-3.070916175842285 2.675157308578491 0.21143725514411926 44
-3.0364699363708496 2.6460824012756348 0.06963510066270828 44
-1.4805060625076294 1.2924379110336304 -0.5163442492485046 119
-1.6984652280807495 1.4832322597503662 -0.5117639303207397 119
-2.0248966217041016 1.7689205408096313 -0.5147220492362976 119
-2.4756369590759277 2.163442850112915 -0.5146698355674744 119
-3.0440025329589844 2.6610710620880127 -0.4917433559894562 119
-3.0396225452423096 2.6581778526306152 -0.34993085265159607 44
-3.042785406112671 2.6618812084198 -0.20916880667209625 44
-3.012120008468628 2.6359827518463135 -0.06850742548704147 44
-3.055947780609131 2.6752796173095703 1.0772790908813477 44
-3.0452682971954346 2.6668694019317627 0.924973726272583 44
-3.0340194702148438 2.657953977584839 0.7758952379226685 44
-3.0298047065734863 2.6551966667175293 0.6312987804412842 44
-3.0178940296173096 2.6456897258758545 0.4880867302417755 44
-3.0359082221984863 2.662419557571411 0.3499303162097931 44
-3.0427918434143066 2.669395923614502 0.21012885868549347 44
-3.008427381515503 2.6401777267456055 0.06919878721237183 44
-1.4793857336044312 1.3010449409484863 -0.5176383256912231 119
-1.7113066911697388 1.505537509918213 -0.5173877477645874 119
-2.0147149562835693 1.773087501525879 -0.5137688517570496 119
-2.467690944671631 2.172502040863037 -0.5146698355674744 119
-3.0156073570251465 2.6558101177215576 -0.4886966049671173 119
-3.011172294616699 2.6528375148773193 -0.3477519452571869 44
-3.010532855987549 2.653207540512085 -0.20760397613048553 44
-2.9836883544921875 2.630474805831909 -0.06807547062635422 44
-3.0280098915100098 2.6704888343811035 1.0708128213882446 44
-3.0172061920166016 2.6618969440460205 0.9193542003631592 44
-3.005856990814209 2.652817487716675 0.7711293697357178 44
-3.00154185295105 2.6499409675598145 0.6273921728134155 44
-2.9895777702331543 2.6403071880340576 0.48503997921943665 44
-3.003732442855835 2.6537413597106934 0.34731563925743103 44
-3.0142807960510254 2.6639976501464844 0.20882046222686768 44
-2.980003595352173 2.6346302032470703 0.06876247376203537 44
-1.4712196588516235 1.3029990196228027 -0.5163442492485046 119
-1.695101261138916 1.5018095970153809 -0.5140134692192078 119
-2.004840135574341 1.7768539190292358 -0.5128157138824463 119
-2.460092544555664 2.181102752685547 -0.5146698355674744 119
-2.9877545833587646 2.649855852127075 -0.48564988374710083 119
-2.9795379638671875 2.6434977054595947 -0.34513726830482483 44
-2.9825806617736816 2.647127866744995 -0.20629991590976715 44
-2.955796003341675 2.6242780685424805 -0.06764352321624756 44
-3.0006136894226074 2.665005683898926 1.0643465518951416 44
-2.989685297012329 2.656233072280884 0.9137347340583801 44
-2.9782350063323975 2.6469902992248535 0.7663633823394775 44
-2.9738197326660156 2.6439950466156006 0.6234856843948364 44
-2.9618022441864014 2.6342363357543945 0.4819932281970978 44
-2.975844383239746 2.647655487060547 0.34513673186302185 44
-2.986314296722412 2.657904863357544 0.2075120508670807 44
-2.952115535736084 2.628399610519409 0.06832616776227951 44
-1.4702668190002441 1.3113412857055664 -0.5176383256912231 119
-1.68984854221344 1.507717490196228 -0.5140134692192078 119
-1.998625636100769 1.7838411331176758 -0.5128157138824463 119
-2.4524641036987305 2.1896767616271973 -0.5146698355674744 119
-2.959979772567749 2.6437394618988037 -0.48260313272476196 119
-2.951720714569092 2.637289047241211 -0.34295839071273804 44
-2.954707622528076 2.640885353088379 -0.20499587059020996 44
-2.9317104816436768 2.621251106262207 -0.06729796528816223 44
-2.9732930660247803 2.6593642234802246 1.0578802824020386 44
-2.9622409343719482 2.650409698486328 0.9081152081489563 44
-2.950690507888794 2.641002655029297 0.7615974545478821 44
-2.9461755752563477 2.637887954711914 0.6195790767669678 44
-2.934105157852173 2.6280033588409424 0.4789464771747589 44
-2.948035717010498 2.6414077281951904 0.34295785427093506 44
-2.9584271907806396 2.6516497135162354 0.2062036544084549 44
-2.92431640625 2.6219966411590576 0.06788985431194305 44
-1.4656803607940674 1.3164654970169067 -0.5176383256912231 119
-1.6809515953063965 1.5103509426116943 -0.5128887295722961 119
-1.9923865795135498 1.790806770324707 -0.5128157138824463 119
-2.4484782218933105 2.201525926589966 -0.515451967716217 119
-2.9322845935821533 2.6374616622924805 -0.4795564115047455 119
-2.923982858657837 2.630918025970459 -0.34077948331832886 44
-2.926915168762207 2.6344807147979736 -0.20369184017181396 44
-2.9039666652679443 2.6147429943084717 -0.06686601042747498 44
-2.9460487365722656 2.653564929962158 1.051414132118225 44
-2.934873580932617 2.6444270610809326 0.9024956226348877 44
-2.923224687576294 2.6348555088043213 0.7568315267562866 44
-2.9186108112335205 2.631620407104492 0.6156725287437439 44
-2.9101734161376953 2.6249337196350098 0.47650909423828125 44
-2.9240050315856934 2.6383354663848877 0.34121474623680115 44
-2.9306206703186035 2.645232677459717 0.2048952579498291 44
-2.8965938091278076 2.6154367923736572 0.0674535483121872 44
-1.4610761404037476 1.3215736150741577 -0.5176383256912231 119
-1.6756691932678223 1.516209363937378 -0.5128887295722961 119
-1.9861234426498413 1.7977505922317505 -0.5128157138824463 119
-2.444438934326172 2.213373899459839 -0.5162341594696045 119
-2.9046695232391357 2.6310229301452637 -0.4765096604824066 119
-2.8963263034820557 2.6243860721588135 -0.3386005759239197 44
-2.899203300476074 2.6279146671295166 -0.20238777995109558 44
-2.8763046264648438 2.6080732345581055 -0.06643406301736832 44
-2.9188809394836426 2.6476073265075684 1.044947862625122 44
-2.9111924171447754 2.6415600776672363 0.8980000615119934 44
-2.8994715213775635 2.631847620010376 0.7530187368392944 44
-2.894782304763794 2.6285126209259033 0.6125472784042358 44
-2.8826253414154053 2.6183922290802 0.47346237301826477 44
-2.896345615386963 2.631777286529541 0.33903583884239197 44
-2.9028947353363037 2.63865327835083 0.2035868614912033 44
-2.8726515769958496 2.612078905105591 0.06710450351238251 44
-1.4528837203979492 1.323413372039795 -0.5163442492485046 119
-1.6703665256500244 1.5220494270324707 -0.5128887295722961 119
-1.9834634065628052 1.8079791069030762 -0.5137688517570496 119
-2.440347194671631 2.2252206802368164 -0.5170162916183472 119
-2.8771350383758545 2.6244237422943115 -0.47346293926239014 119
-2.8724303245544434 2.6210505962371826 -0.33685746788978577 44
-2.8715734481811523 2.621187448501587 -0.20108374953269958 44
-2.8524162769317627 2.6046135425567627 -0.06608849763870239 44
-2.8953566551208496 2.6447503566741943 1.039774775505066 44
-2.8839707374572754 2.6352734565734863 0.8923805356025696 44
-2.8721532821655273 2.625394821166992 0.748252809047699 44
-2.8673665523529053 2.6219382286071777 0.608640730381012 44
-2.855159044265747 2.6116905212402344 0.4704156517982483 44
-2.8724424839019775 2.6284213066101074 0.33729273080825806 44
-2.875251054763794 2.631913661956787 0.20227846503257751 44
-2.845081090927124 2.6052095890045166 0.06666819006204605 44
-1.4482553005218506 1.328476905822754 -0.5163442492485046 119
-1.6650433540344238 1.527870774269104 -0.5128887295722961 119
-1.9735244512557983 1.811572551727295 -0.5128157138824463 119
-2.4325647354125977 2.2337253093719482 -0.5170162916183472 119
-2.849682569503784 2.6176645755767822 -0.47041618824005127 119
-2.8449251651763916 2.614210367202759 -0.3346785604953766 44
-2.8477020263671875 2.617678642272949 -0.20004050433635712 44
-2.828587293624878 2.6010186672210693 -0.06574293971061707 44
-2.8683340549468994 2.6384921073913574 1.033308506011963 44
-2.8604137897491455 2.6321280002593994 0.8878848552703857 44
-2.8485264778137207 2.622107744216919 0.7444400787353516 44
-2.84366512298584 2.6185498237609863 0.6055155396461487 44
-2.8314244747161865 2.608191728591919 0.46797826886177063 44
-2.844935417175293 2.6215555667877197 0.33511385321617126 44
-2.8513615131378174 2.628397226333618 0.20123174786567688 44
-2.8212692737579346 2.601569175720215 0.06631913781166077 44
-1.4400614500045776 1.3302470445632935 -0.5150501132011414 119
-1.6597000360488892 1.5336735248565674 -0.5128887295722961 119
-1.967188835144043 1.8184503316879272 -0.5128157138824463 119
-2.4283788204193115 2.245555877685547 -0.5177984833717346 119
-2.822312593460083 2.610746145248413 -0.4673694372177124 119
-2.8211591243743896 2.610592842102051 -0.3329354524612427 44
-2.8202261924743652 2.6106433868408203 -0.19873645901679993 44
-2.801150321960449 2.593893051147461 -0.0653109923005104 44
-2.84493350982666 2.635359287261963 1.0281355381011963 44
-2.833340644836426 2.6255393028259277 0.8822653889656067 44
-2.8213579654693604 2.6153509616851807 0.7396740913391113 44
-2.8200223445892334 2.615028142929077 0.6023902893066406 44
-2.8041110038757324 2.601184129714966 0.46493151783943176 44
-2.821162462234497 2.617917537689209 0.33337071537971497 44
-2.8238718509674072 2.6213490962982178 0.1999233514070511 44
-2.793853998184204 2.5943920612335205 0.06588283181190491 44
-1.4318732023239136 1.3319761753082275 -0.5137560367584229 119
-1.650769591331482 1.5361385345458984 -0.5117639303207397 119
-1.960829257965088 1.8253060579299927 -0.5128157138824463 119
-2.420525550842285 2.254019021987915 -0.5177984833717346 119
-2.798656940460205 2.607051372528076 -0.46493205428123474 119
-2.793808937072754 2.6034460067749023 -0.3307565450668335 44
-2.7964866161346436 2.6068530082702637 -0.19769322872161865 44
-2.777453899383545 2.590017318725586 -0.06496542692184448 44
-2.8180580139160156 2.628800868988037 1.0216692686080933 44
-2.8063480854034424 2.6187937259674072 0.8766458630561829 44
-2.7978596687316895 2.611786127090454 0.7358613610267639 44
-2.7964389324188232 2.6113734245300293 0.5992649793624878 44
-2.780507802963257 2.597405433654785 0.4624941349029541 44
-2.797449827194214 2.6141459941864014 0.33162760734558105 44
-2.8001139163970947 2.61755108833313 0.19887663424015045 44
-2.770174980163574 2.590470314025879 0.06553377956151962 44
-1.4272149801254272 1.3369662761688232 -0.5137560367584229 119
-1.645397424697876 1.5418914556503296 -0.5117639303207397 119
-1.9544458389282227 1.8321393728256226 -0.5128157138824463 119
-2.4162449836730957 2.2658324241638184 -0.5185806751251221 119
-2.775061845779419 2.6032230854034424 -0.4624946713447571 119
-2.766543388366699 2.596140146255493 -0.3285776674747467 44
-2.769167423248291 2.5995116233825684 -0.19638918340206146 44
-2.753818988800049 2.586007833480835 -0.06461986899375916 44
-2.7912635803222656 2.6220874786376953 1.0152029991149902 44
-2.7829880714416504 2.6152281761169434 0.8721502423286438 44
-2.7708444595336914 2.604727268218994 0.7310953736305237 44
-2.769318103790283 2.60420298576355 0.5953584909439087 44
-2.7533509731292725 2.5900936126708984 0.4594474136829376 44
-2.7701709270477295 2.606827735900879 0.3294486999511719 44
-2.7727813720703125 2.610196828842163 0.19756822288036346 44
-2.7429182529449463 2.5829877853393555 0.06509747356176376 44
-1.4225393533706665 1.3419400453567505 -0.5137560367584229 119
-1.6400052309036255 1.5476256608963013 -0.5117639303207397 119
-1.9444693326950073 1.8355811834335327 -0.5118624567985535 119
-2.4047305583953857 2.270862340927124 -0.5177984833717346 119
-2.7515275478363037 2.599262237548828 -0.4600572884082794 119
-2.742983341217041 2.592097043991089 -0.3268345594406128 44
-2.7455625534057617 2.5954413414001465 -0.195345938205719 44
-2.730246067047119 2.581865072250366 -0.06427431106567383 44
-2.768059015274048 2.6185383796691895 1.0100300312042236 44
-2.7561490535736084 2.608182907104492 0.86653071641922 44
-2.7474775314331055 2.600886344909668 0.7272826433181763 44
-2.74945330619812 2.6036665439605713 0.5930145382881165 44
-2.729881763458252 2.5860369205474854 0.45701003074645996 44
-2.7465927600860596 2.6027767658233643 0.32770559191703796 44
-2.7491586208343506 2.606119155883789 0.19652150571346283 44
-2.7193751335144043 2.578786611557007 0.06474842131137848 44
-1.417846441268921 1.3468974828720093 -0.5137560367584229 119
-1.6345930099487305 1.5533409118652344 -0.5117639303207397 119
-1.9380501508712769 1.8423575162887573 -0.5118624567985535 119
-2.396789073944092 2.279242515563965 -0.5177984833717346 119
-2.728055238723755 2.5951690673828125 -0.45761987566947937 119
-2.7158772945404053 2.584487199783325 -0.3246556520462036 44
-2.722019910812378 2.591238260269165 -0.19430270791053772 44
-2.703115463256836 2.574141502380371 -0.06384235620498657 44
-2.7414164543151855 2.611527681350708 1.0035637617111206 44
-2.732919454574585 2.6043431758880615 0.8620350360870361 44
-2.720618724822998 2.5935275554656982 0.7225167155265808 44
-2.7260518074035645 2.5996150970458984 0.5898892879486084 44
-2.706474542617798 2.581847906112671 0.4545726478099823 44
-2.719473123550415 2.5951547622680664 0.3255266845226288 44
-2.725597858428955 2.6019084453582764 0.1954747885465622 44
-2.695894718170166 2.5744528770446777 0.06439937651157379 44
-1.4131362438201904 1.35183846950531 -0.5137560367584229 119
-1.6291608810424805 1.5590370893478394 -0.5117639303207397 119
-1.928061604499817 1.845717191696167 -0.5109092593193054 119
-2.3888185024261475 2.28759503364563 -0.5177984833717346 119
-2.701061487197876 2.587510824203491 -0.4545731842517853 119
-2.6924538612365723 2.5801665782928467 -0.3229125142097473 44
-2.698540210723877 2.586902618408203 -0.19325947761535645 44
-2.679680347442627 2.569720506668091 -0.06349679827690125 44
-2.7183420658111572 2.6077070236206055 0.9983907341957092 44
-2.7097508907318115 2.6003737449645996 0.8575394153594971 44
-2.697385549545288 2.589411973953247 0.7187039852142334 44
-2.699150323867798 2.5920114517211914 0.5859827399253845 44
-2.6831300258636475 2.5775272846221924 0.45213523507118225 44
-2.6960318088531494 2.5908262729644775 0.3237835764884949 44
-2.7021002769470215 2.597565174102783 0.19442807137966156 44
-2.672478437423706 2.5699868202209473 0.06405032426118851 44
-1.4084088802337646 1.3567630052566528 -0.5137560367584229 119
-1.623708963394165 1.5647145509719849 -0.5117639303207397 119
-1.9216071367263794 1.8524360656738281 -0.5109092593193054 119
-2.384373664855957 2.2993476390838623 -0.5185806751251221 119
-2.6777257919311523 2.5831410884857178 -0.45213574171066284 119
-2.6690943241119385 2.575714111328125 -0.3211694061756134 44
-2.6715316772460938 2.5789668560028076 -0.19195541739463806 44
-2.6563093662261963 2.5651676654815674 -0.06315123289823532 44
-2.6953282356262207 2.603756904602051 0.9932177066802979 44
-2.6831400394439697 2.592888355255127 0.851919949054718 44
-2.6706855297088623 2.581754446029663 0.7139379978179932 44
-2.6758859157562256 2.5876851081848145 0.5828575491905212 44
-2.659848928451538 2.573075532913208 0.4496978521347046 44
-2.672654151916504 2.5863659381866455 0.32204046845436096 44
-2.678666830062866 2.5930898189544678 0.19338135421276093 44
-2.6491260528564453 2.5653886795043945 0.06370127946138382 44
-1.4036643505096436 1.361670970916748 -0.5137560367584229 119
-1.6182371377944946 1.5703728199005127 -0.5117639303207397 119
-1.91512930393219 1.8591325283050537 -0.5109092593193054 119
-2.3763327598571777 2.3076565265655518 -0.5185806751251221 119
-2.654454231262207 2.5786406993865967 -0.4496983587741852 119
-2.6493706703186035 2.574601173400879 -0.3198620676994324 44
-2.6481919288635254 2.574354648590088 -0.1909121870994568 44
-2.633002996444702 2.560482978820801 -0.06280567497015 44
-2.6689131259918213 2.596310615539551 0.9867514371871948 44
-2.6601064205169678 2.5886471271514893 0.847424328327179 44
-2.6475892066955566 2.577366352081299 0.7101252675056458 44
-2.652684211730957 2.5832278728485107 0.5797322392463684 44
-2.6330769062042236 2.5650296211242676 0.4466511309146881 44
-2.6493406295776367 2.5817742347717285 0.32029736042022705 44
-2.65529727935791 2.588482618331909 0.1923346370458603 44
-2.625838279724121 2.5606589317321777 0.06335222721099854 44
-1.3989026546478271 1.3665623664855957 -0.5137560367584229 119
-1.6127456426620483 1.5760118961334229 -0.5117639303207397 119
-1.9086281061172485 1.865806221961975 -0.5109092593193054 119
-2.3717939853668213 2.3193905353546143 -0.5193628668785095 119
-2.631246566772461 2.5740091800689697 -0.4472609758377075 119
-2.6261274814605713 2.5698983669281006 -0.3181189298629761 44
-2.6249172687530518 2.5696113109588623 -0.1898689568042755 44
-2.609761953353882 2.5556674003601074 -0.06246011331677437 44
-2.6460330486297607 2.5920913219451904 0.9815784096717834 44
-2.633655071258545 2.580866575241089 0.8418048024177551 44
-2.624556541442871 2.5728485584259033 0.7063125371932983 44
-2.629546880722046 2.5786404609680176 0.5766069889068604 44
-2.6099367141723633 2.5603039264678955 0.44421374797821045 44
-2.6296472549438477 2.580540418624878 0.318990021944046 44
-2.631992816925049 2.5837442874908447 0.19128791987895966 44
-2.602616310119629 2.555798053741455 0.06300318241119385 44
-1.394123911857605 1.3714371919631958 -0.5137560367584229 119
-1.6072344779968262 1.5816317796707153 -0.5117639303207397 119
-1.9021034240722656 1.8724572658538818 -0.5109092593193054 119
-2.3636834621429443 2.32765531539917 -0.5193628668785095 119
-2.6081039905548096 2.569247245788574 -0.44482359290122986 119
-2.602949619293213 2.5650651454925537 -0.31637582182884216 44
-2.601708173751831 2.5647366046905518 -0.18882571160793304 44
-2.5830273628234863 2.547210216522217 -0.06202816218137741 44
-2.623215436935425 2.5877444744110107 0.9764054417610168 44
-2.6107590198516846 2.5763559341430664 0.8373091816902161 44
-2.6015872955322266 2.5682013034820557 0.7024998068809509 44
-2.606473684310913 2.573923349380493 0.5734817981719971 44
-2.5868613719940186 2.555448055267334 0.4417763650417328 44
-2.6064517498016357 2.5756995677948 0.3172468841075897 44
-2.6087541580200195 2.5788745880126953 0.19024120271205902 44
-2.579460382461548 2.550806760787964 0.06265413761138916 44
-1.3893282413482666 1.3762952089309692 -0.5137560367584229 119
-1.6017038822174072 1.5872324705123901 -0.5117639303207397 119
-1.8955557346343994 1.8790854215621948 -0.5109092593193054 119
-2.355543851852417 2.3358919620513916 -0.5193628668785095 119
-2.585026979446411 2.5643553733825684 -0.4423862099647522 119
-2.5798377990722656 2.560101270675659 -0.31463271379470825 44
-2.5785651206970215 2.5597317218780518 -0.18778248131275177 44
-2.5599308013916016 2.5421206951141357 -0.061682600528001785 44
-2.6004602909088135 2.5832698345184326 0.9712324142456055 44
-2.5879263877868652 2.571716547012329 0.832813560962677 44
-2.5786828994750977 2.5634255409240723 0.6986870169639587 44
-2.583465576171875 2.5690765380859375 0.570356547832489 44
-2.563852071762085 2.550462484359741 0.4393389821052551 44
-2.583322286605835 2.570728063583374 0.3155037760734558 44
-2.5855815410614014 2.5738744735717773 0.1891944855451584 44
-2.5563712120056152 2.545685052871704 0.062305089086294174 44
-1.3876930475234985 1.3847894668579102 -0.5150501132011414 119
-1.5958755016326904 1.593092441558838 -0.5117639303207397 119
-1.8886557817459106 1.886020302772522 -0.5109092593193054 119
-2.346966505050659 2.3445098400115967 -0.5193628668785095 119
-2.5615692138671875 2.5597808361053467 -0.43994882702827454 119
-2.5598692893981934 2.5589752197265625 -0.3133253753185272 44
-2.5550429821014404 2.5550425052642822 -0.1867392510175705 44
-2.536458730697632 2.537343978881836 -0.06133703887462616 44
-2.573904514312744 2.575701951980591 0.9647662043571472 44
-2.5647103786468506 2.567397117614746 0.8283179402351379 44
-2.5553970336914062 2.558966875076294 0.6948742866516113 44
-2.5600759983062744 2.564547538757324 0.567231297492981 44
-2.5404648780822754 2.545790910720825 0.43690159916877747 44
-2.559811592102051 2.5660736560821533 0.3137606680393219 44
-2.5620272159576416 2.5691914558410645 0.18814775347709656 44
-2.5329058170318604 2.54087495803833 0.06195604056119919 44
-1.3828507661819458 1.3896249532699585 -0.5150501132011414 119
-1.590304970741272 1.5986533164978027 -0.5117639303207397 119
-1.8820608854293823 1.892601490020752 -0.5109092593193054 119
-2.338768482208252 2.3526878356933594 -0.5193628668785095 119
-2.538625478744507 2.554625988006592 -0.4375114440917969 119
-2.536879539489746 2.553760290145874 -0.3115822374820709 44
-2.5320351123809814 2.5497734546661377 -0.18569600582122803 44
-2.5170199871063232 2.5355384349823 -0.061077866703271866 44
-2.5512895584106445 2.5709571838378906 0.9595931172370911 44
-2.5420081615448 2.5624985694885254 0.8238223195075989 44
-2.5326247215270996 2.5539307594299316 0.6910615563392639 44
-2.537201166152954 2.559439182281494 0.5641060471534729 44
-2.517590045928955 2.5405428409576416 0.4344641864299774 44
-2.5368168354034424 2.5608389377593994 0.312017560005188 44
-2.538989782333374 2.563927173614502 0.18710103631019592 44
-2.5099480152130127 2.535494327545166 0.0616069920361042 44
-1.377991795539856 1.3944436311721802 -0.5150501132011414 119
-1.5847148895263672 1.6041947603225708 -0.5117639303207397 119
-1.8754429817199707 1.8991596698760986 -0.5109092593193054 119
-2.3270723819732666 2.3573226928710938 -0.5185806751251221 119
-2.515749454498291 2.549342393875122 -0.4350740313529968 119
-2.5139577388763428 2.5484163761138916 -0.309839129447937 44
-2.5090954303741455 2.5443756580352783 -0.18465277552604675 44
-2.4941155910491943 2.5300681591033936 -0.06073230877518654 44
-2.5287394523620605 2.566086530685425 0.9544201493263245 44
-2.519371271133423 2.5574729442596436 0.8193266987800598 44
-2.509918451309204 2.548766613006592 0.6872487664222717 44
-2.5143933296203613 2.5542023181915283 0.5609807968139648 44
-2.4982638359069824 2.538703680038452 0.4326361417770386 44
-2.513890266418457 2.5554749965667725 0.3102744519710541 44
-2.5160207748413086 2.5585336685180664 0.1860543191432953 44
-2.4870686531066895 2.529975414276123 0.061257943511009216 44
-1.3731157779693604 1.3992451429367065 -0.5150501132011414 119
-1.5791054964065552 1.6097166538238525 -0.5117639303207397 119
-1.8688024282455444 1.905694603919983 -0.5109092593193054 119
-2.3188295364379883 2.365431547164917 -0.5185806751251221 119
-2.4929416179656982 2.5439305305480957 -0.43263664841651917 119
-2.4911043643951416 2.5429434776306152 -0.3080960214138031 44
-2.489717960357666 2.5424156188964844 -0.1838703453540802 44
-2.4747774600982666 2.5280416011810303 -0.06047314032912254 44
-2.5062544345855713 2.5610899925231934 0.9492471218109131 44
-2.4968008995056152 2.552320718765259 0.8148310780525208 44
-2.4838478565216064 2.539966106414795 0.6824828386306763 44
-2.4916532039642334 2.548837900161743 0.5578556060791016 44
-2.475512981414795 2.5332112312316895 0.4301987588405609 44
-2.491032123565674 2.5499825477600098 0.30853134393692017 44
-2.4931204319000244 2.553011417388916 0.18500758707523346 44
-2.4642534255981445 2.524332284927368 0.06090889498591423 44
-1.3682231903076172 1.4040297269821167 -0.5150501132011414 119
-1.5734769105911255 1.615218997001648 -0.5117639303207397 119
-1.8621388673782349 1.9122061729431152 -0.5109092593193054 119
-2.310558557510376 2.37351131439209 -0.5185806751251221 119
-2.473662853240967 2.54194712638855 -0.4308086037635803 119
-2.468319892883301 2.5373423099517822 -0.3063529133796692 44
-2.4669039249420166 2.5367722511291504 -0.18282711505889893 44
-2.4519991874694824 2.5223262310028076 -0.06012757867574692 44
-2.483835220336914 2.5559678077697754 0.9440740942955017 44
-2.474297046661377 2.54704213142395 0.8103354573249817 44
-2.4612886905670166 2.534536123275757 0.6786700487136841 44
-2.4689812660217285 2.5433456897735596 0.5547303557395935 44
-2.4528307914733887 2.5275912284851074 0.42776137590408325 44
-2.468242883682251 2.5443615913391113 0.30678820610046387 44
-2.4702892303466797 2.547360420227051 0.18396086990833282 44
-2.4449877738952637 2.5221500396728516 0.060647107660770416 44
-1.366672396659851 1.412267804145813 -0.5163442492485046 119
-1.5678292512893677 1.620701551437378 -0.5117639303207397 119
-1.8554526567459106 1.9186947345733643 -0.5109092593193054 119
-2.3022592067718506 2.3815619945526123 -0.5185806751251221 119
-2.4509801864624023 2.5362913608551025 -0.42837122082710266 119
-2.4456050395965576 2.531613349914551 -0.3046097755432129 44
-2.444159746170044 2.531000852584839 -0.18178386986255646 44
-2.429291009902954 2.5164828300476074 -0.05978201702237129 44
-2.461482524871826 2.550720691680908 0.9389011263847351 44
-2.4552435874938965 2.5451440811157227 0.8069637417793274 44
-2.438797950744629 2.528979778289795 0.6748573184013367 44
-2.446378231048584 2.537726640701294 0.5516051054000854 44
-2.433661699295044 2.5254173278808594 0.4259333312511444 44
-2.448979139328003 2.5422000885009766 0.30548086762428284 44
-2.450991630554199 2.545177936553955 0.18317584693431854 44
-2.422300338745117 2.516263008117676 0.06029805913567543 44
-1.361734390258789 1.4170297384262085 -0.5163442492485046 119
-1.5621622800827026 1.626164436340332 -0.5117639303207397 119
-1.8487439155578613 1.9251596927642822 -0.5109092593193054 119
-2.2905120849609375 2.386021375656128 -0.5177984833717346 119
-2.4318037033081055 2.5340895652770996 -0.4265431761741638 119
-2.4264087677001953 2.529351234436035 -0.30330246686935425 44
-2.4214859008789062 2.525101661682129 -0.18074063956737518 44
-2.4101130962371826 2.514120578765869 -0.059522844851017 44
-2.4425387382507324 2.5488357543945312 0.9350214004516602 44
-2.432863235473633 2.539626359939575 0.8024681210517883 44
-2.4197709560394287 2.5268423557281494 0.6719977259635925 44
-2.4272594451904297 2.535547971725464 0.5492611527442932 44
-2.411107063293457 2.519554853439331 0.42349594831466675 44
-2.4263179302215576 2.5363361835479736 0.3037377595901489 44
-2.428288698196411 2.539283275604248 0.1821291297674179 44
-2.399684190750122 2.5102484226226807 0.05994901433587074 44
-1.35677969455719 1.4217745065689087 -0.5163442492485046 119
-1.5531138181686401 1.628082513809204 -0.5106391906738281 119
-1.838625192642212 1.9280492067337036 -0.5099561214447021 119
-2.2821693420410156 2.3940024375915527 -0.5177984833717346 119
-2.4092483520507812 2.5281918048858643 -0.42410579323768616 119
-2.403822422027588 2.5233798027038574 -0.30155932903289795 44
-2.4023265838623047 2.522691011428833 -0.17995820939540863 44
-2.3875348567962646 2.5080344676971436 -0.05917728692293167 44
-2.4203085899353027 2.543351173400879 0.9298483729362488 44
-2.4139091968536377 2.537513017654419 0.799096405506134 44
-2.3974063396453857 2.5210461616516113 0.6681849956512451 44
-2.4047837257385254 2.5296878814697266 0.5461359024047852 44
-2.388622999191284 2.513566255569458 0.4210585653781891 44
-2.407158136367798 2.533956289291382 0.3024304211139679 44
-2.409095287322998 2.536881923675537 0.18134407699108124 44
-2.3805813789367676 2.507732391357422 0.05968722328543663 44
-1.3518085479736328 1.4265018701553345 -0.5163442492485046 119
-1.5474213361740112 1.6334940195083618 -0.5106391906738281 119
-1.8318837881088257 1.9344555139541626 -0.5099561214447021 119
-2.2704038619995117 2.3983676433563232 -0.5170162916183472 119
-2.3867642879486084 2.5221681594848633 -0.4216684103012085 119
-2.384730339050293 2.520899772644043 -0.3002519905567169 44
-2.3797831535339355 2.516549587249756 -0.17891496419906616 44
-2.368462562561035 2.5054543018341064 -0.05891811475157738 44
-2.398146629333496 2.5377421379089355 0.9246753454208374 44
-2.3916542530059814 2.531757116317749 0.794600784778595 44
-2.3784821033477783 2.518693685531616 0.6653254628181458 44
-2.3857686519622803 2.5272932052612305 0.5437920093536377 44
-2.3662102222442627 2.507451295852661 0.4186211824417114 44
-2.3846261501312256 2.5278501510620117 0.300687313079834 44
-2.3865225315093994 2.530745267868042 0.1802973598241806 44
-2.3580965995788574 2.5014758110046387 0.05933817848563194 44
-1.3501306772232056 1.4347290992736816 -0.5176383256912231 119
-1.5417098999023438 1.6388856172561646 -0.5106391906738281 119
-1.8284826278686523 1.9444137811660767 -0.5109092593193054 119
-2.2620182037353516 2.406278133392334 -0.5170162916183472 119
-2.3677501678466797 2.519634246826172 -0.41984036564826965 119
-2.3622748851776123 2.5146870613098145 -0.298508882522583 44
-2.360729932785034 2.5139214992523193 -0.1781325489282608 44
-2.3460161685943604 2.49912691116333 -0.05857255309820175 44
-2.3793585300445557 2.535531997680664 0.9207956194877625 44
-2.369469165802002 2.525876760482788 0.7901051640510559 44
-2.3596031665802 2.516239643096924 0.6624658703804016 44
-2.36342191696167 2.521193742752075 0.5406667590141296 44
-2.3472626209259033 2.5048317909240723 0.4167931377887726 44
-2.365572214126587 2.5252535343170166 0.29937997460365295 44
-2.3674352169036865 2.5281264781951904 0.17951232194900513 44
-2.3391010761260986 2.4987430572509766 0.05907639488577843 44
-1.3451143503189087 1.439433217048645 -0.5176383256912231 119
-1.5359797477722168 1.6442571878433228 -0.5106391906738281 119
-1.8216842412948608 1.9507845640182495 -0.5109092593193054 119
-2.250235080718994 2.4105494022369385 -0.5162341594696045 119
-2.345397472381592 2.5133707523345947 -0.417402982711792 119
-2.343289613723755 2.511991024017334 -0.297201544046402 44
-2.341724157333374 2.5111913681030273 -0.17735011875629425 44
-2.327051877975464 2.496330499649048 -0.058313384652137756 44
-2.3573226928710938 2.5296883583068848 0.9156225919723511 44
-2.3473544120788574 2.5198726654052734 0.7856095433235168 44
-2.337425708770752 2.5100927352905273 0.6586531400680542 44
-2.3445119857788086 2.5185835361480713 0.5383228063583374 44
-2.324981689453125 2.4984776973724365 0.4143557548522949 44
-2.343172788619995 2.5189075469970703 0.29763686656951904 44
-2.3449947834014893 2.5217487812042236 0.1784656047821045 44
-2.32015323638916 2.49590802192688 0.058814603835344315 44
-1.3400815725326538 1.4441198110580444 -0.5176383256912231 119
-1.5302308797836304 1.6496087312698364 -0.5106391906738281 119
-1.814863681793213 1.9571315050125122 -0.5109092593193054 119
-2.241806983947754 2.4183895587921143 -0.5162341594696045 119
-2.3264904022216797 2.510622262954712 -0.41557490825653076 119
-2.324352264404297 2.509193181991577 -0.29589420557022095 44
-2.3227667808532715 2.508359432220459 -0.1765677034854889 44
-2.3047397136688232 2.4897637367248535 -0.05796782299876213 44
-2.3353564739227295 2.523721694946289 0.9104495644569397 44
-2.3286190032958984 2.517321825027466 0.7822378277778625 44
-2.318652391433716 2.507425546646118 0.6557935476303101 44
-2.3222970962524414 2.5122463703155518 0.5351975560188293 44
-2.3061420917510986 2.4956438541412354 0.4125277101993561 44
-2.3242263793945312 2.516094923019409 0.296329528093338 44
-2.3260161876678467 2.518914222717285 0.17768056690692902 44
-2.3012540340423584 2.492971658706665 0.0585528202354908 44
-1.3317596912384033 1.4452370405197144 -0.5163442492485046 119
-1.5244632959365845 1.6549402475357056 -0.5106391906738281 119
-1.8113456964492798 1.967065453529358 -0.5118624567985535 119
-2.2300069332122803 2.4225668907165527 -0.515451967716217 119
-2.307631492614746 2.507772207260132 -0.4137468934059143 0
-2.302090883255005 2.5026276111602783 -0.29415109753608704 44
-2.3004775047302246 2.5017502307891846 -0.17552445828914642 44
