# .PCD v0.7 - Point Cloud Data file format
VERSION 0.7
FIELDS x y z intensity
SIZE 4 4 4 4
TYPE F F F F
COUNT 1 1 1 1
WIDTH 762
HEIGHT 1
VIEWPOINT 0 0 0 1 0 0 0
POINTS 762
DATA ascii
-4.0686564445495605 -2.4157917499542236 0.24597898125648499 110
-4.052505970001221 -2.405245780944824 0.08158998936414719 110
-1.6701165437698364 -0.9892786741256714 -0.5098737478256226 119
-1.9151692390441895 -1.1339819431304932 -0.5050153732299805 119
-2.2715883255004883 -1.3444843292236328 -0.5051901340484619 119
nan nan nan 0
-4.069613933563232 -2.4067635536193848 -0.5758333206176758 110
-4.050572395324707 -2.394547939300537 -0.40832528471946716 110
-4.060847759246826 -2.3996658325195312 -0.24437803030014038 110
-4.0532426834106445 -2.3942177295684814 -0.08068844676017761 110
-4.075459957122803 -2.406381845474243 1.257041096687317 110
-4.07763147354126 -2.4067044258117676 1.083444356918335 110
-4.057425022125244 -2.3938233852386475 0.9074352383613586 110
-4.057146072387695 -2.3927040100097656 0.7391195893287659 110
-4.064420700073242 -2.396038293838501 0.5746139287948608 110
-4.071077346801758 -2.399005174636841 0.41006776690483093 110
-4.064157485961914 -2.393972158432007 0.2451939433813095 110
-4.0479536056518555 -2.3834755420684814 0.08132820576429367 110
-1.673559546470642 -0.9834428429603577 -0.5098737478256226 119
-1.9107142686843872 -1.1223547458648682 -0.5027658939361572 119
-2.2720351219177246 -1.334061622619629 -0.5042369961738586 119
-2.7715485095977783 -1.6267083883285522 -0.5029371976852417 119
-4.065149784088135 -2.385009527206421 -0.5740052461624146 110
-4.046016693115234 -2.372835159301758 -0.40701794624328613 110
-4.056276321411133 -2.3779008388519287 -0.24359561502933502 110
-4.048635482788086 -2.372472047805786 -0.08042927086353302 110
-4.071331977844238 -2.384817600250244 1.2531614303588867 110
-4.073394775390625 -2.38507080078125 1.0800726413726807 110
-4.053048133850098 -2.3722076416015625 0.9045757055282593 110
-4.052684783935547 -2.3710455894470215 0.7367756366729736 110
-4.059907913208008 -2.3743202686309814 0.5727858543395996 110
-4.066526412963867 -2.3772387504577637 0.4087604582309723 110
-4.059556007385254 -2.37221360206604 0.24440892040729523 110
-4.043298721313477 -2.3617665767669678 0.08106642216444016 110
-1.6769821643829346 -0.9775950312614441 -0.5098737478256226 119
-1.9062018394470215 -1.1107726097106934 -0.5005163550376892 119
-2.2724368572235107 -1.3236521482467651 -0.5032837390899658 119
-4.074601650238037 -2.372427463531494 -0.7407177686691284 0
-4.060582160949707 -2.3633155822753906 -0.5721771717071533 110
-4.04135799407959 -2.351182460784912 -0.4057105779647827 110
-4.051603317260742 -2.356196641921997 -0.24281316995620728 110
-4.043926239013672 -2.350787878036499 -0.08017010241746902 110
-4.067104339599609 -2.363311767578125 1.249281644821167 110
-4.069056987762451 -2.3634965419769287 1.0767009258270264 110
-4.048569679260254 -2.350651979446411 0.9017161726951599 110
-4.048122406005859 -2.349447727203369 0.7344316840171814 110
-4.055293083190918 -2.352663278579712 0.5709578394889832 110
-4.061872482299805 -2.355532646179199 0.40745308995246887 110
-4.0591721534729 -2.353020191192627 0.24388554692268372 110
-4.0428667068481445 -2.342625617980957 0.08089189976453781 110
-1.6803843975067139 -0.9717352986335754 -0.5098737478256226 119
-1.9016318321228027 -1.0992356538772583 -0.49826687574386597 119
-2.2685437202453613 -1.3108004331588745 -0.5013774037361145 119
-4.061476230621338 -2.3458402156829834 -0.7368069291114807 0
-4.055913925170898 -2.3416831493377686 -0.5703491568565369 110
-4.0365986824035645 -2.329592227935791 -0.4044032692909241 110
-4.046827793121338 -2.334554433822632 -0.24203075468540192 110
-4.039114952087402 -2.329165458679199 -0.07991093397140503 110
-4.066960334777832 -2.3442766666412354 1.2466950416564941 110
-4.064618110656738 -2.3419816493988037 1.073329210281372 110
-4.043990135192871 -2.3291561603546143 0.898856520652771 110
-4.043459892272949 -2.3279106616973877 0.7320877909660339 110
-4.050576686859131 -2.3310670852661133 0.5691298246383667 110
-4.057117938995361 -2.3338887691497803 0.40614575147628784 110
-4.054375648498535 -2.331369638442993 0.24310050904750824 110
-4.0380167961120605 -2.3210251331329346 0.0806301161646843 110
-1.68376624584198 -0.9658637642860413 -0.5098737478256226 119
-1.9223625659942627 -1.1022846698760986 -0.5027658939361572 119
-2.2773637771606445 -1.3053146600723267 -0.5023306012153625 119
-4.0567851066589355 -2.3242831230163574 -0.7344603538513184 0
-4.051143646240234 -2.3201119899749756 -0.5685211420059204 110
-4.031737804412842 -2.3080637454986572 -0.40309593081474304 110
-4.0419511795043945 -2.312974214553833 -0.24124833941459656 110
-4.034202575683594 -2.307605743408203 -0.07965176552534103 110
-4.062539577484131 -2.322873830795288 1.242815375328064 110
-4.060078144073486 -2.320526123046875 1.0699574947357178 110
-4.039310455322266 -2.3077211380004883 0.8959969878196716 110
-4.038695335388184 -2.3064348697662354 0.7297438979148865 110
-4.045759201049805 -2.309532642364502 0.5673017501831055 110
-4.0522613525390625 -2.3123068809509277 0.4048384428024292 110
-4.053813934326172 -2.3122549057006836 0.24257713556289673 110
-4.033065319061279 -2.299487352371216 0.08036833256483078 110
-1.6829297542572021 -0.9575919508934021 -0.5085796117782593 119
-1.9261986017227173 -1.0955677032470703 -0.5027658939361572 119
-2.286173105239868 -1.2997831106185913 -0.5032837390899658 119
-2.7939906120300293 -1.587852954864502 -0.5029371976852417 119
-4.0462727546691895 -2.298603057861328 -0.566693127155304 110
-4.026775360107422 -2.286597728729248 -0.4017886221408844 110
-4.036972999572754 -2.291456460952759 -0.24046590924263 110
-4.029188632965088 -2.2861082553863525 -0.07939258962869644 110
-4.058019638061523 -2.301530361175537 1.2389357089996338 110
-4.05543851852417 -2.299131393432617 1.0665857791900635 110
-4.038801193237305 -2.2887675762176514 0.8940906524658203 110
-4.033830165863037 -2.2850208282470703 0.7273998856544495 110
-4.0408406257629395 -2.288060426712036 0.565473735332489 110
-4.047303676605225 -2.2907869815826416 0.40353110432624817 110
-4.048823356628418 -2.2907145023345947 0.24179211258888245 110
-4.0323638916015625 -2.280473232269287 0.08019380271434784 110
-1.6862620115280151 -0.9517115950584412 -0.5085796117782593 119
-1.9342544078826904 -1.0912312269210815 -0.5038906931877136 119
-2.2949717044830322 -1.2942060232162476 -0.5042369961738586 119
-2.8081202507019043 -1.5829404592514038 -0.5045015811920166 119
-4.041300296783447 -2.277155876159668 -0.564864993095398 110
-4.021712779998779 -2.2651944160461426 -0.400481253862381 110
-4.031893730163574 -2.2700018882751465 -0.23968346416950226 110
-4.024073600769043 -2.264674186706543 -0.07913342118263245 110
-4.05340051651001 -2.280247449874878 1.235055923461914 110
-4.050699710845947 -2.277797222137451 1.0632140636444092 110
-4.033929347991943 -2.2674403190612793 0.8912310004234314 110
-4.028865337371826 -2.2636687755584717 0.725055992603302 110
-4.03582239151001 -2.266650915145874 0.5636457204818726 110
-4.042245388031006 -2.2693302631378174 0.40222373604774475 110
-4.043732166290283 -2.2692368030548096 0.24100707471370697 110
-4.027219772338867 -2.2590465545654297 0.07993201911449432 110
-1.6853597164154053 -0.9434605240821838 -0.5072855353355408 119
-1.9423030614852905 -1.086851716041565 -0.5050153732299805 119
-2.3080430030822754 -1.290979266166687 -0.50614333152771 119
-2.792076349258423 -1.561078429222107 -0.5005906820297241 119
-4.040560722351074 -2.258193254470825 -0.5636463761329651 110
-4.016550064086914 -2.243854522705078 -0.39917391538619995 110
-4.031074523925781 -2.2510452270507812 -0.23916186392307281 110
-4.023223876953125 -2.2457404136657715 -0.07896063476800919 110
-4.048681735992432 -2.259024143218994 1.2311761379241943 110
-4.045860767364502 -2.256524085998535 1.0598423480987549 110
-4.028958320617676 -2.246175527572632 0.888371467590332 110
-4.023801326751709 -2.242379665374756 0.7227120995521545 110
-4.030703544616699 -2.2453041076660156 0.5618177056312561 110
-4.0370869636535645 -2.247936964035034 0.4009164273738861 110
-4.038539409637451 -2.2478225231170654 0.2402220219373703 110
-4.02634334564209 -2.2401139736175537 0.07975748926401138 110
-1.6886426210403442 -0.9375718235969543 -0.5072855353355408 119
-1.94182550907135 -1.0777010917663574 -0.5038906931877136 119
-2.286782741546631 -1.2686282396316528 -0.5004242062568665 119
-2.814783811569214 -1.560902714729309 -0.5037193894386292 119
-4.039737224578857 -2.2392632961273193 -0.5624276399612427 110
-4.011288166046143 -2.222578287124634 -0.3978665769100189 110
-4.025803089141846 -2.2297027111053467 -0.23837941884994507 110
-4.017917156219482 -2.224418878555298 -0.07870146632194519 110
-4.043865203857422 -2.2378621101379395 1.2272963523864746 110
-4.040923118591309 -2.2353129386901855 1.0564706325531006 110
-4.028184413909912 -2.2273480892181396 0.8864651322364807 110
-4.018637180328369 -2.2211532592773438 0.7203681468963623 110
-4.025484561920166 -2.2240209579467773 0.5599895715713501 110
-4.0318284034729 -2.226607322692871 0.3996090888977051 110
-4.033247470855713 -2.2264726161956787 0.23943698406219482 110
-4.021007061004639 -2.2187998294830322 0.07949570566415787 110
-1.6961357593536377 -0.9340012669563293 -0.5085796117782593 119
-1.9455755949020386 -1.0709162950515747 -0.5038906931877136 119
-2.2782959938049316 -1.253539800643921 -0.4975646436214447 119
-2.8072338104248047 -1.5439281463623047 -0.5013728737831116 119
-4.03883171081543 -2.2203667163848877 -0.561208963394165 110
-4.005925178527832 -2.2013659477233887 -0.3965592086315155 110
-4.020431995391846 -2.2084245681762695 -0.2375970035791397 110
-4.012511253356934 -2.2031619548797607 -0.0784422978758812 110
-4.043183326721191 -2.2190849781036377 1.2247097492218018 110
-4.035886764526367 -2.2141637802124023 1.0530989170074463 110
-4.0230231285095215 -2.206192970275879 0.8836055397987366 110
-4.017704486846924 -2.202364206314087 0.7188054919242859 110
-4.020166873931885 -2.202801465988159 0.5581615567207336 110
-4.026469707489014 -2.2053415775299072 0.39830172061920166 110
-4.027855396270752 -2.2051868438720703 0.23865194618701935 110
-4.015571594238281 -2.1975505352020264 0.07923392206430435 110
-1.699385643005371 -0.9280749559402466 -0.5085796117782593 119
-1.9450254440307617 -1.061784029006958 -0.5027658939361572 119
-2.2783493995666504 -1.243228554725647 -0.49661147594451904 119
-2.816941738128662 -1.5364845991134644 -0.502155065536499 119
-4.037843227386475 -2.2015037536621094 -0.5599902272224426 110
-4.00046443939209 -2.1802186965942383 -0.39525189995765686 110
-4.014962673187256 -2.187211275100708 -0.23681457340717316 110
-4.0070061683654785 -2.1819698810577393 -0.0781831294298172 110
-4.03817892074585 -2.198030948638916 1.2208300828933716 110
-4.030752182006836 -2.1930768489837646 1.049727201461792 110
-4.02207612991333 -2.1874465942382812 0.8816992044448853 110
-4.012351036071777 -2.1812500953674316 0.7164615988731384 110
-4.019110202789307 -2.184015989303589 0.5569428205490112 110
-4.025389671325684 -2.186518430709839 0.3974301815032959 110
-4.022364139556885 -2.1839659214019775 0.23786692321300507 110
-4.010036468505859 -2.1763663291931152 0.07897213846445084 110
-1.7068617343902588 -0.924437403678894 -0.5098737478256226 119
-1.9487199783325195 -1.054988145828247 -0.5027658939361572 119
-2.286991596221924 -1.2376039028167725 -0.4975646436214447 119
-2.80491304397583 -1.51724374294281 -0.4990263283252716 119
-4.036772727966309 -2.1826751232147217 -0.558771550655365 110
-3.9992868900299072 -2.1615047454833984 -0.3943803608417511 110
-4.009393692016602 -2.166063070297241 -0.2360321581363678 110
-4.001400947570801 -2.1608428955078125 -0.07792395353317261 110
-4.033076286315918 -2.17703914642334 1.2169502973556519 110
-4.025519847869873 -2.1720528602600098 1.0463554859161377 110
-4.016727447509766 -2.1664037704467773 0.8788396716117859 110
-4.006899356842041 -2.160200357437134 0.7141175866127014 110
-4.013603210449219 -2.1629106998443604 0.5551148056983948 110
-4.019842147827148 -2.165367364883423 0.39612287282943726 110
-4.021170616149902 -2.165177583694458 0.23734354972839355 110
-4.004402160644531 -2.155247449874878 0.07871034741401672 110
-1.7100781202316284 -0.9184736609458923 -0.5098737478256226 119
-1.9523907899856567 -1.0481793880462646 -0.5027658939361572 119
-2.2956230640411377 -1.2319343090057373 -0.49851784110069275 119
-2.8406550884246826 -1.5237843990325928 -0.5045015811920166 119
-4.035619258880615 -2.1638803482055664 -0.5575528740882874 110
-3.9936368465423584 -2.140472412109375 -0.3930729925632477 110
-4.008127689361572 -2.147338390350342 -0.23551052808761597 110
-4.000105857849121 -2.1421422958374023 -0.07775118201971054 110
-4.027876853942871 -2.1561098098754883 1.2130706310272217 110
-4.0244855880737305 -2.153390884399414 1.0441076755523682 110
-4.011280536651611 -2.1454246044158936 0.875980019569397 110
-4.005704879760742 -2.1415436267852783 0.7125550508499146 110
-4.0123748779296875 -2.144209384918213 0.5538961887359619 110
-4.018589019775391 -2.1466286182403564 0.3952512741088867 110
-4.015490531921387 -2.1440725326538086 0.23655851185321808 110
-3.9986698627471924 -2.1341943740844727 0.07844856381416321 110
-1.7134331464767456 -0.9121997952461243 -0.5098737478256226 119
-1.9517375230789185 -1.039068579673767 -0.5016411542892456 119
-2.2999093532562256 -1.223913550376892 -0.49851784110069275 119
-2.8328769207000732 -1.5069018602371216 -0.502155065536499 119
-4.034384250640869 -2.14512038230896 -0.5563341975212097 110
-3.9922873973846436 -2.1218433380126953 -0.3922014534473419 110
-4.0023698806762695 -2.1263065338134766 -0.2347281128168106 110
-3.9943127632141113 -2.1211321353912354 -0.07749201357364655 110
-4.022579669952393 -2.1352429389953613 1.209190845489502 110
-4.019066333770752 -2.132479190826416 1.0407359600067139 110
-4.005736351013184 -2.1245105266571045 0.8731204867362976 110
-4.00006628036499 -2.1206088066101074 0.7102110981941223 110
-4.006680011749268 -2.1232192516326904 0.5520680546760559 110
-4.012852668762207 -2.1255931854248047 0.3939439654350281 110
-4.009711742401123 -2.123033285140991 0.2357734888792038 110
-3.992839813232422 -2.113208055496216 0.07818678021430969 110
-1.7164485454559326 -0.9065127968788147 -0.5098737478256226 119
-1.9553526639938354 -1.0322494506835938 -0.5016411542892456 119
-2.3085081577301025 -1.2181684970855713 -0.4994710087776184 119
-2.8381197452545166 -1.4970041513442993 -0.502155065536499 119
-4.0374579429626465 -2.1287105083465576 -0.5557248592376709 110
-3.986450433731079 -2.1009280681610107 -0.3908941149711609 110
-4.000932216644287 -2.107668161392212 -0.23420648276805878 110
-3.9928455352783203 -2.10251784324646 -0.07731922715902328 110
-4.017187118530273 -2.1144399642944336 1.2053110599517822 110
-4.013550281524658 -2.111631393432617 1.0373642444610596 110
-4.000095367431641 -2.103661060333252 0.8702609539031982 110
-3.9987008571624756 -2.102036714553833 0.7086484432220459 110
-4.000887393951416 -2.102294921875 0.5502400398254395 110
-4.00701904296875 -2.1046247482299805 0.39263662695884705 110
-4.008256435394287 -2.104381799697876 0.23525011539459229 110
-3.9913384914398193 -2.094611167907715 0.07801225036382675 110
-1.7238810062408447 -0.9027563333511353 -0.5111678242683411 119
-1.958764910697937 -1.0257595777511597 -0.5016411542892456 119
-2.3081867694854736 -1.2082303762435913 -0.49851784110069275 119
-3.980741024017334 -2.0828511714935303 -0.70551997423172 0
-4.0225067138671875 -2.1038098335266113 -0.552678108215332 110
-3.9845669269561768 -2.0830817222595215 -0.39002254605293274 110
-3.9946236610412598 -2.087451457977295 -0.23342405259609222 110
-3.9865024089813232 -2.082321882247925 -0.07706005871295929 110
-4.015613555908203 -2.0966358184814453 1.202724575996399 110
-4.011892795562744 -2.0938022136688232 1.03511643409729 110
-3.9983456134796143 -2.085844039916992 0.8683544993400574 110
-3.9925129413604736 -2.0819149017333984 0.7063045501708984 110
-3.999035596847534 -2.084428310394287 0.5490214228630066 110
-4.0007243156433105 -2.084420680999756 0.39132925868034363 110
-4.001926898956299 -2.0841593742370605 0.2344650775194168 110
-3.984959363937378 -2.0744388103485107 0.07775046676397324 110
-1.7311511039733887 -0.8992611169815063 -0.5124619007110596 119
-1.9623335599899292 -1.0189160108566284 -0.5016411542892456 119
-2.312390089035034 -1.200165867805481 -0.49851784110069275 119
-3.992371082305908 -2.0712172985076904 -0.7063021659851074 0
-4.012203216552734 -2.0806174278259277 -0.550240695476532 110
-3.9785478115081787 -2.062283515930176 -0.3887152075767517 110
-3.993018388748169 -2.0689005851745605 -0.2329024225473404 110
-3.984868049621582 -2.063795328140259 -0.07688727229833603 110
-4.010040283203125 -2.075944662094116 1.1988447904586792 110
-4.006195545196533 -2.0730676651000977 1.0317447185516357 110
-3.992523431777954 -2.0651094913482666 0.865494966506958 110
-3.9865949153900146 -2.0611612796783447 0.703960657119751 110
-3.993060827255249 -2.0636210441589355 0.5471932888031006 110
-3.999124765396118 -2.065870761871338 0.39045774936676025 110
-3.9958674907684326 -2.0633046627044678 0.23368002474308014 110
-3.9832911491394043 -2.0559301376342773 0.0775759369134903 110
-1.7344354391098022 -0.8929100632667542 -0.5124619007110596 119
-1.966054916381836 -1.0117167234420776 -0.5016411542892456 119
-2.3167734146118164 -1.1916825771331787 -0.49851784110069275 119
-3.9735844135284424 -2.0430221557617188 -0.701609194278717 0
-4.006560802459717 -2.0590927600860596 -0.5484126806259155 110
-3.972787380218506 -2.0408592224121094 -0.3874078392982483 110
-3.9872493743896484 -2.0474090576171875 -0.23212000727653503 110
-3.979062795639038 -2.042327880859375 -0.07662810385227203 110
-4.004730224609375 -2.0546188354492188 1.1949650049209595 110
-4.00076150894165 -2.0517008304595947 1.0283730030059814 110
-3.98696231842041 -2.043745517730713 0.8626354336738586 110
-3.9853322505950928 -2.042031764984131 0.7023980021476746 110
-3.9873459339141846 -2.042184829711914 0.5453652739524841 110
-3.99336838722229 -2.0443897247314453 0.38915038108825684 110
-3.990068197250366 -2.041821241378784 0.23289498686790466 110
-3.977447748184204 -2.034487247467041 0.07731415331363678 110
-1.7418434619903564 -0.8890460133552551 -0.5137560367584229 119
-1.9695744514465332 -1.004847764968872 -0.5016411542892456 119
-2.3209192752838135 -1.1835882663726807 -0.49851784110069275 119
-3.9718918800354004 -2.024653673171997 -0.7000448107719421 0
-3.965083122253418 -2.020311117172241 -0.541709840297699 110
-3.971010684967041 -2.02245831489563 -0.3865363299846649 110
-3.9854726791381836 -2.0289480686187744 -0.2315984070301056 110
-3.9772565364837646 -2.0238912105560303 -0.07645532488822937 110
-3.9989631175994873 -2.0340583324432373 1.1910853385925293 110
-3.999213218688965 -2.0333070755004883 1.026125192642212 110
-3.9853203296661377 -2.0253684520721436 0.8607290387153625 110
-3.97922682762146 -2.021397829055786 0.7000540494918823 110
-3.985600471496582 -2.0237605571746826 0.5441465377807617 110
-3.9915971755981445 -2.0259292125701904 0.3882788419723511 110
-3.9882655143737793 -2.023362874984741 0.23237164318561554 110
-3.9756078720092773 -2.016068935394287 0.07713963836431503 110
-1.744936227798462 -0.8829603791236877 -0.5137560367584229 119
-1.977417230606079 -1.000165343284607 -0.5027658939361572 119
-2.3250365257263184 -1.175479531288147 -0.49851784110069275 119
-2.8682212829589844 -1.4494714736938477 -0.5029371976852417 119
-3.8613698482513428 -1.9505186080932617 -0.5264761447906494 119
-3.964707374572754 -2.00184965133667 -0.3852289915084839 110
-3.9791576862335205 -2.0082743167877197 -0.23081596195697784 110
-3.9709064960479736 -2.0032405853271484 -0.07619615644216537 110
-3.993100643157959 -2.0135629177093506 1.18720543384552 110
-3.9932339191436768 -2.012755870819092 1.0227534770965576 110
-3.9792160987854004 -2.004819393157959 0.8578695058822632 110
-3.9774370193481445 -2.0030527114868164 0.6984913945198059 110
-3.979341983795166 -2.003141403198242 0.5423185229301453 110
-3.9852964878082275 -2.0052671432495117 0.38697150349617004 110
-3.981921672821045 -2.0026984214782715 0.23158659040927887 110
-3.9692211151123047 -1.995442509651184 0.07687783986330032 110
-1.7480076551437378 -0.8768640756607056 -0.5137560367584229 119
-1.9852516651153564 -0.9954406023025513 -0.5038906931877136 119
-2.3291256427764893 -1.1673564910888672 -0.49851784110069275 119
-2.8600172996520996 -1.432814598083496 -0.5005906820297241 119
-3.8104681968688965 -1.908140778541565 -0.5185546875 119
-3.9583077430725098 -1.981309175491333 -0.38392162322998047 110
-3.9727470874786377 -1.9876697063446045 -0.2300335317850113 110
-3.964461326599121 -1.982658863067627 -0.07593698799610138 110
-3.987144947052002 -1.9931334257125854 1.1833257675170898 110
-3.9871609210968018 -1.9922717809677124 1.0193817615509033 110
-3.9730169773101807 -1.9843379259109497 0.8550099730491638 110
-3.97114896774292 -1.9825389385223389 0.6961475014686584 110
-3.977429151535034 -1.984807014465332 0.5410999059677124 110
-3.9833569526672363 -1.9868969917297363 0.3860999345779419 110
-3.9799516201019287 -1.9843308925628662 0.23106324672698975 110
-3.9672136306762695 -1.9771156311035156 0.07670332491397858 110
-1.74673330783844 -0.8686065077781677 -0.5124619007110596 119
-1.9887142181396484 -0.9885047078132629 -0.5038906931877136 119
-2.333186149597168 -1.1592191457748413 -0.49851784110069275 119
-2.8915398120880127 -1.4360021352767944 -0.505283772945404 119
-3.785989284515381 -1.8793816566467285 -0.5142892003059387 119
-3.9518144130706787 -1.9608384370803833 -0.38261428475379944 110
-3.970715045928955 -1.9693530797958374 -0.22951193153858185 110
-3.9623992443084717 -1.964367151260376 -0.07576420158147812 110
-3.9810948371887207 -1.972770094871521 1.1794461011886597 110
-3.9809935092926025 -1.971854329109192 1.016010046005249 110
-3.9711215496063232 -1.9661015272140503 0.853103518486023 110
-3.9691927433013916 -1.964284062385559 0.694584846496582 110
-3.9709880352020264 -1.964309811592102 0.5392717719078064 110
-3.9768733978271484 -1.9663573503494263 0.38479259610176086 110
-3.9734249114990234 -1.9637892246246338 0.23027820885181427 110
-3.9606447219848633 -1.9566128253936768 0.07644154131412506 110
-1.7497546672821045 -0.8625040054321289 -0.5124619007110596 119
-1.9921528100967407 -0.98155677318573 -0.5038906931877136 119
-2.3372182846069336 -1.1510677337646484 -0.49851784110069275 119
-2.856658697128296 -1.4062697887420654 -0.49824416637420654 119
-3.8014323711395264 -1.8705369234085083 -0.5155079364776611 119
-3.9452264308929443 -1.9404370784759521 -0.3813069760799408 110
-3.9641220569610596 -1.9488717317581177 -0.2287294864654541 110
-3.9557719230651855 -1.9439094066619873 -0.07550503313541412 110
-3.9792866706848145 -1.954602599143982 1.1768594980239868 110
-3.9791054725646973 -1.9536516666412354 1.0137622356414795 110
-3.9647417068481445 -1.9457405805587769 0.8502439856529236 110
-3.9671573638916016 -1.946066975593567 0.6930222511291504 110
-3.9689090251922607 -1.9460668563842773 0.5380531549453735 110
-3.9747679233551025 -1.948079228401184 0.3839210271835327 110
-3.971287488937378 -1.9455140829086304 0.22975483536720276 110
-3.958470344543457 -1.9383783340454102 0.07626701146364212 110
-1.7527546882629395 -0.8563910126686096 -0.5124619007110596 119
-1.991188883781433 -0.9724588394165039 -0.5027658939361572 119
-2.341222047805786 -1.1429023742675781 -0.49851784110069275 119
-2.8704264163970947 -1.400620937347412 -0.49980852007865906 119
-3.7900969982147217 -1.8485541343688965 -0.5130705237388611 119
-3.943021059036255 -1.9222882986068726 -0.38043537735939026 110
-3.961923599243164 -1.9306477308273315 -0.22820788621902466 110
-3.9490504264831543 -1.9235219955444336 -0.07524586468935013 110
-3.973057508468628 -1.9343575239181519 1.172979712486267 110
-3.9727585315704346 -1.933354377746582 1.0103905200958252 110
-3.9582676887512207 -1.925447940826416 0.8473843336105347 110
-3.9606025218963623 -1.9257287979125977 0.6906783580780029 110
-3.9667508602142334 -1.9278624057769775 0.5368344187736511 110
-3.972583293914795 -1.929840087890625 0.38304948806762695 110
-3.96907114982605 -1.9272778034210205 0.22923149168491364 110
-3.9517204761505127 -1.9180002212524414 0.0760052278637886 110
-1.7557333707809448 -0.8502675294876099 -0.5124619007110596 119
-1.994571328163147 -0.9655023813247681 -0.5027658939361572 119
-2.3451974391937256 -1.1347229480743408 -0.49851784110069275 119
-2.8797435760498047 -1.3927428722381592 -0.5005906820297241 119
-3.8233344554901123 -1.848272442817688 -0.516726553440094 119
-3.9452226161956787 -1.9063459634780884 -0.37999963760375977 110
-3.9551501274108887 -1.9102915525436401 -0.2274254560470581 110
-3.9467360973358154 -1.9053783416748047 -0.07507307827472687 110
-3.971086263656616 -1.9162793159484863 1.1703933477401733 110
-3.9707062244415283 -1.9152417182922363 1.0081428289413452 110
-3.956122398376465 -1.9073562622070312 0.8454779982566833 110
-3.958402156829834 -1.9076038599014282 0.6891157031059265 110
-3.960042953491211 -1.9075430631637573 0.5350064039230347 110
-3.965831995010376 -1.909479022026062 0.3817421793937683 110
-3.9622764587402344 -1.9069151878356934 0.22844643890857697 110
-3.949380874633789 -1.8998600244522095 0.07583069801330566 110
-1.758690595626831 -0.8441336750984192 -0.5124619007110596 119
-1.9979294538497925 -0.9585341215133667 -0.5027658939361572 119
-2.3491439819335938 -1.1265298128128052 -0.49851784110069275 119
-2.8890411853790283 -1.3848168849945068 -0.5013728737831116 119
-3.8476650714874268 -1.8434925079345703 -0.519163966178894 119
-3.947360038757324 -1.8904112577438354 -0.3795638382434845 110
-3.952786445617676 -1.8921620845794678 -0.22690382599830627 110
-3.9398345947265625 -1.8851169347763062 -0.07481390982866287 110
-3.964679002761841 -1.8961540460586548 1.166513442993164 110
-3.9641804695129395 -1.8950655460357666 1.0047709941864014 110
-3.949470043182373 -1.8871864080429077 0.842618465423584 110
-3.9516680240631104 -1.8873896598815918 0.686771810054779 110
-3.9577205181121826 -1.8894321918487549 0.533787727355957 110
-3.963482141494751 -1.8913334608078003 0.3808705806732178 110
-3.959895610809326 -1.8887735605239868 0.22792308032512665 110
-3.9469637870788574 -1.8817598819732666 0.07565618306398392 110
-1.7659879922866821 -0.8400642275810242 -0.5137560367584229 119
-2.00126314163208 -0.9515541791915894 -0.5027658939361572 119
-2.3530619144439697 -1.1183228492736816 -0.49851784110069275 119
-2.898318290710449 -1.3768428564071655 -0.502155065536499 119
-3.872008800506592 -1.8385652303695679 -0.5216013789176941 119
-3.9449350833892822 -1.8723493814468384 -0.37869226932525635 110
-3.9503443241119385 -1.8740721940994263 -0.22638219594955444 110
-3.937356472015381 -1.8670687675476074 -0.07464112341403961 110
-3.962545156478882 -1.8781660795211792 1.1639270782470703 110
-3.961965799331665 -1.8770447969436646 1.0025231838226318 110
-3.9471614360809326 -1.869187355041504 0.8407120704650879 110
-3.9493045806884766 -1.8693584203720093 0.6852091550827026 110
-3.955319881439209 -1.8713608980178833 0.5325689911842346 110
-3.9565515518188477 -1.8710986375808716 0.37956327199935913 110
-3.9574360847473145 -1.8706716299057007 0.22739972174167633 110
-3.9444680213928223 -1.8636994361877441 0.07548165321350098 110
-1.7689095735549927 -0.8338947296142578 -0.5137560367584229 119
-2.0045723915100098 -0.9445626735687256 -0.5027658939361572 119
-2.3569512367248535 -1.1101022958755493 -0.49851784110069275 119
-2.903106689453125 -1.3667174577713013 -0.502155065536499 119
-3.896364450454712 -1.833490252494812 -0.5240387320518494 119
-3.94693922996521 -1.8564475774765015 -0.3782564699649811 110
-3.9433062076568604 -1.853898286819458 -0.22559978067874908 110
-3.934800863265991 -1.849061131477356 -0.07446835190057755 110
-3.960333824157715 -1.8602160215377808 1.1613404750823975 110
-3.9596734046936035 -1.8590623140335083 1.0002753734588623 110
-3.9403319358825684 -1.8491421937942505 0.8378525376319885 110
-3.942392110824585 -1.8492696285247803 0.6828652024269104 110
-3.9528415203094482 -1.8533293008804321 0.531350314617157 110
-3.954038381576538 -1.8530488014221191 0.378691703081131 110
-3.9503769874572754 -1.8504921197891235 0.22661468386650085 110
-3.94189453125 -1.845679759979248 0.07530713081359863 110
-1.7718095779418945 -0.8277149796485901 -0.5137560367584229 119
-2.007857322692871 -0.9375597238540649 -0.5027658939361572 119
-2.360811948776245 -1.1018682718276978 -0.49851784110069275 119
-2.9078598022460938 -1.3565753698349 -0.502155065536499 119
-3.907238721847534 -1.8219757080078125 -0.5246480703353882 119
-3.944366216659546 -1.83845055103302 -0.3773849606513977 110
-3.940701484680176 -1.8359051942825317 -0.22507818043231964 110
-3.932166814804077 -1.8310939073562622 -0.07429556548595428 110
-3.958045482635498 -1.8423041105270386 1.1587539911270142 110
-3.9528868198394775 -1.8390637636184692 0.996903657913208 110
-3.937861442565918 -1.8312373161315918 0.8359460830688477 110
-3.939866781234741 -1.8313336372375488 0.6813026666641235 110
-3.945784330368042 -1.8332468271255493 0.5295222401618958 110
-3.946929931640625 -1.8329415321350098 0.37738436460494995 110
-3.947754144668579 -1.832486629486084 0.22609131038188934 110
-3.9392430782318115 -1.8277003765106201 0.07513260096311569 110
-1.7746881246566772 -0.8215251564979553 -0.5137560367584229 119
-2.0155396461486816 -0.9325911402702332 -0.5038906931877136 119
-2.3646438121795654 -1.093620777130127 -0.49851784110069275 119
-2.9125773906707764 -1.3464168310165405 -0.502155065536499 119
-3.913574695587158 -1.8083256483078003 -0.5246480703353882 110
-3.9371938705444336 -1.8184056282043457 -0.3760776221752167 110
-3.938018798828125 -1.8179526329040527 -0.2245565503835678 110
-3.9294562339782715 -1.8131678104400635 -0.07412278652191162 110
-3.9556806087493896 -1.8244311809539795 1.1561675071716309 110
-3.950432777404785 -1.8211747407913208 0.9946558475494385 110
-3.9353139400482178 -1.8133721351623535 0.8340397477149963 110
-3.9327781200408936 -1.8113715648651123 0.6789586544036865 110
-3.943143606185913 -1.8153116703033447 0.5283036231994629 110
-3.944253921508789 -1.814988374710083 0.3765127956867218 110
-3.945054531097412 -1.8145225048065186 0.22556796669960022 110
-3.9319725036621094 -1.8076741695404053 0.07487081736326218 110
-1.7775449752807617 -0.8153253197669983 -0.5137560367584229 119
-2.018782615661621 -0.9255499243736267 -0.5038906931877136 119
-2.3684468269348145 -1.085360050201416 -0.49851784110069275 119
-2.917259454727173 -1.3362418413162231 -0.502155065536499 119
-3.919863224029541 -1.7946537733078003 -0.5246480703353882 110
-3.9344584941864014 -1.8005053997039795 -0.3752060532569885 110
-3.9352595806121826 -1.8000414371490479 -0.22403493523597717 110
-3.926668167114258 -1.7952829599380493 -0.07395000755786896 110
-3.9488461017608643 -1.8045896291732788 1.1522877216339111 110
-3.9434709548950195 -1.8013012409210205 0.9912841320037842 110
-3.932689905166626 -1.7955471277236938 0.8321333527565002 110
-3.930091619491577 -1.793531894683838 0.6773960590362549 110
-3.9404258728027344 -1.7974170446395874 0.5270848870277405 110
-3.9415013790130615 -1.7970768213272095 0.37564125657081604 110
-3.9377334117889404 -1.794528841972351 0.22478292882442474 110
-3.929159164428711 -1.7897932529449463 0.07469629496335983 110
-1.780380129814148 -0.8091155290603638 -0.5137560367584229 119
-2.022001028060913 -0.9184973835945129 -0.5038906931877136 119
-2.376690149307251 -1.0791150331497192 -0.4994710087776184 119
-2.926403045654297 -1.3280913829803467 -0.5029371976852417 119
-3.9261038303375244 -1.780959963798523 -0.5246480703353882 110
-3.9316468238830566 -1.7826471328735352 -0.37433451414108276 110
-3.932422637939453 -1.7821714878082275 -0.22351330518722534 110
-3.9238033294677734 -1.777439832687378 -0.0737772285938263 110
-3.946321487426758 -1.7868101596832275 1.1497012376785278 110
-3.9408576488494873 -1.7835075855255127 0.9890363812446594 110
-3.9299895763397217 -1.7777626514434814 0.8302270174026489 110
-3.92282772064209 -1.773698329925537 0.6750521063804626 110
-3.9331090450286865 -1.7775202989578247 0.525256872177124 110
-3.938671350479126 -1.7792062759399414 0.3747696876525879 110
-3.9348714351654053 -1.776662826538086 0.22425955533981323 110
-3.92626953125 -1.77195405960083 0.07452177256345749 110
-1.7831937074661255 -0.8028959631919861 -0.5137560367584229 119
-2.029637336730957 -0.9134330749511719 -0.5050153732299805 119
-2.3804423809051514 -1.0708123445510864 -0.4994710087776184 119
-2.931020975112915 -1.3178682327270508 -0.5029371976852417 119
-3.9322967529296875 -1.7672444581985474 -0.5246480703353882 110
-3.9242146015167236 -1.7627891302108765 -0.37302714586257935 110
-3.9295098781585693 -1.7643436193466187 -0.2229917049407959 110
-3.9208621978759766 -1.7596384286880493 -0.07360444217920303 110
-3.939314126968384 -1.7670936584472656 1.145821452140808 110
-3.9381680488586426 -1.765753984451294 0.9867885112762451 110
-3.9227335453033447 -1.7580114603042603 0.8273674249649048 110
-3.9199817180633545 -1.7559565305709839 0.673489511013031 110
-3.9302306175231934 -1.7597240209579468 0.5240381360054016 110
-3.935765504837036 -1.7613776922225952 0.37389814853668213 110
-3.931933879852295 -1.7588393688201904 0.2237362116575241 110
-3.9187395572662354 -1.7521164417266846 0.07425998896360397 110
-1.7861244678497314 -0.7963548302650452 -0.5137560367584229 119
-2.0329716205596924 -0.9059879183769226 -0.5050153732299805 119
-2.3888347148895264 -1.064077615737915 -0.5004242062568665 119
-2.940343141555786 -1.309125304222107 -0.5037193894386292 119
-3.9387476444244385 -1.7528200149536133 -0.5246480703353882 110
-3.9215471744537354 -1.7443456649780273 -0.3721556067466736 110
-3.922262191772461 -1.743843674659729 -0.22220925986766815 110
-3.9181482791900635 -1.7411956787109375 -0.07343167066574097 110
-3.936936616897583 -1.7487223148345947 1.1432349681854248 110
-3.9312548637390137 -1.7453770637512207 0.9834168553352356 110
-3.9201784133911133 -1.7396403551101685 0.8254610896110535 110
-3.9173617362976074 -1.7375723123550415 0.6719268560409546 110
-3.9275803565979004 -1.7412846088409424 0.522819459438324 110
-3.933087110519409 -1.742904543876648 0.3730265498161316 110
-3.92922306060791 -1.740371823310852 0.2232128381729126 110
-3.911421060562134 -1.7316702604293823 0.07399819791316986 110
-1.7888933420181274 -0.790115237236023 -0.5137560367584229 119
-2.040578842163086 -0.9008536338806152 -0.5061401724815369 119
-2.3970251083374023 -1.0577139854431152 -0.5013774037361145 119
-2.944895029067993 -1.2988536357879639 -0.5037193894386292 119
-3.9448421001434326 -1.739060640335083 -0.5246480703353882 110
-3.9184961318969727 -1.726629376411438 -0.37128400802612305 110
-3.9191861152648926 -1.7261165380477905 -0.2216876596212387 110
-3.910475492477417 -1.7214653491973877 -0.07317250221967697 110
-3.9341752529144287 -1.7310787439346313 1.1406484842300415 110
-3.92840313911438 -1.7277207374572754 0.9811689853668213 110
-3.9172403812408447 -1.72199547290802 0.8235546350479126 110
-3.914361000061035 -1.719914436340332 0.670364260673523 110
-3.924546957015991 -1.7235729694366455 0.5216007232666016 110
-3.930025100708008 -1.7251605987548828 0.3721550405025482 110
-3.9261295795440674 -1.7226336002349854 0.22268949449062347 110
-3.903709888458252 -1.7119768857955933 0.07373641431331635 110
-1.7916404008865356 -0.7838659882545471 -0.5137560367584229 119
-2.0392470359802246 -0.8917731642723083 -0.5050153732299805 119
-2.405200242996216 -1.0513062477111816 -0.5023306012153625 119
-2.9494106769561768 -1.2885661125183105 -0.5037193894386292 119
-3.9463400840759277 -1.7232937812805176 -0.5240387320518494 110
-3.9153690338134766 -1.7089555263519287 -0.3704124689102173 110
-3.91603422164917 -1.7084323167800903 -0.22116602957248688 110
-3.9072959423065186 -1.7038084268569946 -0.07299971580505371 110
-3.9313387870788574 -1.7134758234024048 1.1380620002746582 110
-3.9254772663116455 -1.7101060152053833 0.9789212346076965 110
-3.909726619720459 -1.70243239402771 0.8206951022148132 110
-3.9112839698791504 -1.702298641204834 0.6688016057014465 110
-3.921438217163086 -1.7059040069580078 0.5203821063041687 110
-3.926887273788452 -1.7074593305587769 0.3712834417819977 110
-3.922959566116333 -1.7049376964569092 0.22216612100601196 110
-3.9004886150360107 -1.6943621635437012 0.0735618844628334 110
-1.7943657636642456 -0.777607262134552 -0.5137560367584229 119
-2.037877321243286 -0.8827130794525146 -0.5038906931877136 119
-2.3998465538024902 -1.039003849029541 -0.5004242062568665 119
-2.953890562057495 -1.2782628536224365 -0.5037193894386292 119
-3.95233154296875 -1.709507942199707 -0.5240387320518494 110
-3.9121663570404053 -1.6913248300552368 -0.36954089999198914 110
-3.9082233905792236 -1.6888105869293213 -0.22038359940052032 110
-3.9040403366088867 -1.6861945390701294 -0.07282692939043045 110
-3.928427219390869 -1.6959139108657837 1.1354753971099854 110
-3.922475814819336 -1.6925325393676758 0.9766733646392822 110
-3.9066317081451416 -1.684887170791626 0.8187887668609619 110
-3.9081320762634277 -1.684725284576416 0.6672390103340149 110
-3.918253183364868 -1.6882774829864502 0.5191633701324463 110
-3.9190993309020996 -1.687831163406372 0.36997613310813904 110
-3.91971492767334 -1.687285304069519 0.22164277732372284 110
-3.8926024436950684 -1.674809217453003 0.07330010086297989 110
-1.7970691919326782 -0.7713389992713928 -0.5137560367584229 119
-2.036468744277954 -0.8736733198165894 -0.5027658939361572 119
-2.389925479888916 -1.0248173475265503 -0.4975646436214447 119
-2.9583346843719482 -1.267944097518921 -0.5037193894386292 119
-3.9537134170532227 -1.6937472820281982 -0.5234294533729553 110
-3.908888816833496 -1.6737374067306519 -0.3686693608760834 110
-3.9049131870269775 -1.6712286472320557 -0.2198619842529297 110
-3.900709867477417 -1.6686242818832397 -0.07265415787696838 110
-3.9254417419433594 -1.6783933639526367 1.1328890323638916 110
-3.9193997383117676 -1.6750010251998901 0.9744256138801575 110
-3.9034616947174072 -1.6673840284347534 0.8168823719024658 110
-3.904905080795288 -1.6671947240829468 0.6656763553619385 110
-3.91499400138855 -1.6706945896148682 0.5179446935653687 110
-3.915804147720337 -1.6702322959899902 0.3691045939922333 110
-3.9163942337036133 -1.6696761846542358 0.22111940383911133 110
-3.8892269134521484 -1.6572918891906738 0.07312557846307755 110
-1.8041952848434448 -0.766950786113739 -0.5150501132011414 119
-2.039505958557129 -0.8665593862533569 -0.5027658939361572 119
-2.3799350261688232 -1.01071298122406 -0.49470508098602295 119
-2.962742567062378 -1.2576098442077637 -0.5037193894386292 119
-3.959601402282715 -1.6799358129501343 -0.5234294533729553 110
-3.90553617477417 -1.6561932563781738 -0.3677977919578552 110
-3.90152907371521 -1.6536908149719238 -0.21934036910533905 110
-3.897304058074951 -1.6510976552963257 -0.07248137146234512 110
-3.9223806858062744 -1.6609139442443848 1.1303024291992188 110
-3.9162492752075195 -1.657511591911316 0.9721777439117432 110
-3.900217294692993 -1.6499236822128296 0.8149760365486145 110
-3.9016034603118896 -1.649707317352295 0.6641138195991516 110
-3.9116592407226562 -1.6531544923782349 0.5167259573936462 110
-3.91243314743042 -1.6526767015457153 0.3682330250740051 110
-3.912998676300049 -1.6521109342575073 0.22059603035449982 110
-3.8857762813568115 -1.6398183107376099 0.0729510560631752 110
-1.8068615198135376 -0.760648250579834 -0.5150501132011414 119
-2.042518377304077 -0.8594349026679993 -0.5027658939361572 119
-2.369875192642212 -0.9966907501220703 -0.4918454885482788 119
-2.962562084197998 -1.2453465461730957 -0.5029371976852417 119
-3.9654414653778076 -1.6661039590835571 -0.5234294533729553 110
-3.902108669281006 -1.6386932134628296 -0.36692625284194946 110
-3.898069143295288 -1.636196494102478 -0.21881873905658722 110
-3.889214038848877 -1.6316813230514526 -0.07222220301628113 110
-3.9192466735839844 -1.6434768438339233 1.1277159452438354 110
-3.91302490234375 -1.6400648355484009 0.9699299931526184 110
-3.8968985080718994 -1.6325061321258545 0.8130695819854736 110
-3.8982274532318115 -1.6322633028030396 0.6625511646270752 110
-3.908250093460083 -1.6356582641601562 0.5155073404312134 110
-3.904392957687378 -1.6332433223724365 0.3669256865978241 110
-3.9095282554626465 -1.634589672088623 0.2200726866722107 110
-3.882251262664795 -1.6223891973495483 0.07277653366327286 110
-1.809505581855774 -0.7543364763259888 -0.5150501132011414 119
-2.0455057621002197 -0.8522999286651611 -0.5027658939361572 119
-2.3642776012420654 -0.9846382141113281 -0.4899391233921051 119
-2.962331771850586 -1.2330999374389648 -0.502155065536499 119
-3.962068796157837 -1.6484390497207642 -0.5222107172012329 110
-3.898606061935425 -1.62123703956604 -0.3660546839237213 110
-3.894535779953003 -1.6187469959259033 -0.21829713881015778 110
-3.885652780532837 -1.6142596006393433 -0.07204942405223846 110
-3.9160382747650146 -1.6260817050933838 1.1251294612884521 110
-3.905225992202759 -1.6207928657531738 0.9665582180023193 110
-3.8980393409729004 -1.6170127391815186 0.8121163845062256 110
-3.8902153968811035 -1.612971305847168 0.660207211971283 110
-3.904766082763672 -1.6182059049606323 0.514288604259491 110
-3.9008665084838867 -1.615792155265808 0.36605411767959595 110
-3.9059832096099854 -1.6171128749847412 0.21954931318759918 110
-3.8786518573760986 -1.6050045490264893 0.07260200381278992 110
-1.812127709388733 -0.7480155825614929 -0.5150501132011414 119
-2.0529723167419434 -0.8470127582550049 -0.5038906931877136 119
-2.3858509063720703 -0.9838641285896301 -0.4937518835067749 119
-2.9620521068573 -1.220870018005371 -0.5013728737831116 119
-3.9632105827331543 -1.6327085494995117 -0.5216013789176941 110
-3.8950304985046387 -1.603825569152832 -0.36518314480781555 110
-3.890927314758301 -1.6013418436050415 -0.21777550876140594 110
-3.882016897201538 -1.5968825817108154 -0.0718766450881958 110
-3.9127559661865234 -1.6087288856506348 1.1225428581237793 110
-3.9018471240997314 -1.603447437286377 0.9643104672431946 110
-3.8945798873901367 -1.5996665954589844 0.8102100491523743 110
-3.8866848945617676 -1.5956311225891113 0.6586445569992065 110
-3.9012091159820557 -1.60079824924469 0.5130699276924133 110
-3.897266387939453 -1.5983856916427612 0.3651825785636902 110
-3.906984567642212 -1.6015747785568237 0.21928764879703522 110
-3.8749794960021973 -1.5876652002334595 0.07242748886346817 110
-1.814727783203125 -0.7416855096817017 -0.5150501132011414 119
-2.0559165477752686 -0.8398414254188538 -0.5038906931877136 119
-2.3983588218688965 -0.9792405962944031 -0.4956582486629486 119
-2.9708681106567383 -1.2123891115188599 -0.502155065536499 119
-3.9505045413970947 -1.6113669872283936 -0.519163966178894 110
-3.8913800716400146 -1.5864588022232056 -0.364311546087265 110
-3.8872454166412354 -1.5839818716049194 -0.2172539085149765 110
-3.878307580947876 -1.5795507431030273 -0.07170386612415314 110
-3.9094011783599854 -1.5914191007614136 1.1199564933776855 110
-3.8983945846557617 -1.5861455202102661 0.9620625972747803 110
-3.8910460472106934 -1.5823640823364258 0.8083036541938782 110
-3.8830811977386475 -1.5783352851867676 0.6570820212364197 110
-3.8975772857666016 -1.5834347009658813 0.5118511915206909 110
-3.893592119216919 -1.581023931503296 0.36431100964546204 110
-3.9032979011535645 -1.5841716527938843 0.2187642902135849 110
-3.871232271194458 -1.5703707933425903 0.07225295901298523 110
-1.8173056840896606 -0.7353463768959045 -0.5150501132011414 119
-2.058835506439209 -0.8326597809791565 -0.5038906931877136 119
-2.4108633995056152 -0.9745417833328247 -0.4975646436214447 119
-2.979660749435425 -1.2038613557815552 -0.5029371976852417 119
-3.94230055809021 -1.591992735862732 -0.5173359513282776 110
-3.892275094985962 -1.571001410484314 -0.36387577652931213 110
-3.8834893703460693 -1.566667079925537 -0.21673227846622467 110
-3.8745243549346924 -1.5622642040252686 -0.07153107970952988 110
-3.905973196029663 -1.5741522312164307 1.1173698902130127 110
-3.894869565963745 -1.5688872337341309 0.9598148465156555 110
-3.8828866481781006 -1.5632729530334473 0.8054441213607788 110
-3.879403591156006 -1.5610836744308472 0.6555193066596985 110
-3.893872022628784 -1.566116452217102 0.5106325149536133 110
-3.8898439407348633 -1.5637074708938599 0.3634394705295563 110
-3.899538040161133 -1.5668139457702637 0.21824093163013458 110
-3.8674123287200928 -1.5531221628189087 0.07207843661308289 110
-1.815378189086914 -0.7272024750709534 -0.5137560367584229 119
-2.0662519931793213 -0.8272787928581238 -0.5050153732299805 119
-2.4188077449798584 -0.9679440259933472 -0.49851784110069275 119
-2.9930155277252197 -1.197121024131775 -0.5045015811920166 119
-3.929400682449341 -1.5708529949188232 -0.5148985385894775 110
-3.8884849548339844 -1.5537090301513672 -0.36300423741340637 110
-3.8796606063842773 -1.5493979454040527 -0.21621066331863403 110
-3.8753111362457275 -1.5468767881393433 -0.07144469022750854 110
-3.9024720191955566 -1.5569287538528442 1.1147834062576294 110
-3.891270637512207 -1.5516726970672607 0.9575669765472412 110
-3.8792006969451904 -1.5460751056671143 0.8035376667976379 110
-3.8756532669067383 -1.543877363204956 0.6539567708969116 110
-3.890094041824341 -1.5488431453704834 0.5094138383865356 110
-3.8906502723693848 -1.5482780933380127 0.363003671169281 110
-3.8957040309906006 -1.549501657485962 0.21771757304668427 110
-3.863518714904785 -1.5359190702438354 0.07190390676259995 110
-1.8179056644439697 -0.7208611369132996 -0.5137560367584229 119
-2.069127321243286 -0.820061206817627 -0.5050153732299805 119
-2.4267349243164062 -0.9613024592399597 -0.4994710087776184 119
-3.001767873764038 -1.1884840726852417 -0.505283772945404 119
-3.9210166931152344 -1.5516490936279297 -0.5130705237388611 110
-3.8846206665039062 -1.5364620685577393 -0.36213263869285583 110
-3.875758409500122 -1.5321745872497559 -0.2156890332698822 110
-3.8713881969451904 -1.5296658277511597 -0.07127191126346588 110
-3.8988983631134033 -1.5397489070892334 1.112196922302246 110
-3.8876001834869385 -1.5345027446746826 0.9553192257881165 110
-3.8754427433013916 -1.528922200202942 0.8016313314437866 110
-3.8718302249908447 -1.5267162322998047 0.6523941159248352 110
-3.8816254138946533 -1.52979576587677 0.5075858235359192 110
-3.8867623805999756 -1.531036615371704 0.36213210225105286 110
-3.891796827316284 -1.5322352647781372 0.21719421446323395 110
-3.8595526218414307 -1.5187623500823975 0.0717293918132782 110
-1.8249064683914185 -0.7162756323814392 -0.5150501132011414 119
-2.071977138519287 -0.8128336071968079 -0.5050153732299805 119
-2.434645175933838 -0.9546175003051758 -0.5004242062568665 119
-3.010495901107788 -1.1798006296157837 -0.5060659050941467 119
-3.912545919418335 -1.5325225591659546 -0.5112424492835999 110
-3.885322093963623 -1.521077036857605 -0.36169689893722534 110
-3.8717832565307617 -1.5149974822998047 -0.21516743302345276 110
-3.8673923015594482 -1.5125010013580322 -0.07109913229942322 110
-3.8952524662017822 -1.5226131677627563 1.1096104383468628 110
-3.883856773376465 -1.517377257347107 0.9530713558197021 110
-3.8716113567352295 -1.5118143558502197 0.7997249364852905 110
-3.8679347038269043 -1.5096006393432617 0.6508315205574036 110
-3.877695083618164 -1.5126301050186157 0.5063670873641968 110
-3.8828020095825195 -1.5138415098190308 0.3612605631351471 110
-3.887816905975342 -1.5150150060653687 0.21667084097862244 110
-3.8601722717285156 -1.5034664869308472 0.07164212316274643 110
-1.8273955583572388 -0.7099011540412903 -0.5150501132011414 119
-2.0748019218444824 -0.8055960536003113 -0.5050153732299805 119
-2.437962770462036 -0.9461131691932678 -0.5004242062568665 119
-3.023803949356079 -1.1728565692901611 -0.5076302289962769 119
-3.9039902687072754 -1.5134745836257935 -0.5094144344329834 110
-3.8813188076019287 -1.5039061307907104 -0.3608253300189972 110
-3.8677356243133545 -1.4978666305541992 -0.21464580297470093 110
-3.8633241653442383 -1.4953829050064087 -0.07092635333538055 110
