# .PCD v0.7 - Point Cloud Data file format
VERSION 0.7
FIELDS x y z intensity
SIZE 4 4 4 4
TYPE F F F F
COUNT 1 1 1 1
WIDTH 795
HEIGHT 1
VIEWPOINT 0 0 0 1 0 0 0
POINTS 795
DATA ascii
-4.288510322570801 -7.137280464172363 0.7251357436180115 111
-2.3245832920074463 -3.867227792739868 0.2344650775194168 117
-2.160611629486084 -3.59302020072937 0.07251474261283875 115
-1.0067695379257202 -1.6709187030792236 -0.5124619007110596 119
-1.1464734077453613 -1.902031660079956 -0.5038906931877136 119
-1.3934874534606934 -2.310922622680664 -0.5166284441947937 119
-1.7058820724487305 -2.8278732299804688 -0.5170162916183472 115
-1.714671015739441 -2.8413214683532715 -0.40277862548828125 115
-1.8629871606826782 -3.0858733654022217 -0.3120180368423462 115
-1.8525605201721191 -3.0673928260803223 -0.1851743906736374 115
-2.000096082687378 -3.3103702068328857 -0.06617489457130432 115
-2.900428533554077 -4.7986226081848145 1.4911198616027832 114
-2.303764581680298 -3.8099679946899414 1.0182578563690186 117
-2.290945529937744 -3.7872750759124756 0.8521503210067749 117
-3.1928439140319824 -5.276167869567871 0.9696061611175537 114
-3.252979040145874 -5.3734235763549805 0.7665581703186035 114
-4.3133978843688965 -7.122267246246338 0.7251357436180115 111
-2.3380684852600098 -3.8590898513793945 0.2344650775194168 117
-2.1757314205169678 -3.5897316932678223 0.07260200381278992 115
-1.0125960111618042 -1.6673942804336548 -0.5124619007110596 119
-1.1556352376937866 -1.902181625366211 -0.5050153732299805 119
-1.3989964723587036 -2.3018500804901123 -0.5156752467155457 119
-1.715742826461792 -2.821901321411133 -0.5170162916183472 115
-1.724578619003296 -2.8353188037872314 -0.40277862548828125 115
-1.876336693763733 -3.083606719970703 -0.31245383620262146 115
-1.8658528327941895 -3.0651721954345703 -0.1854351907968521 115
-2.014239549636841 -3.307637929916382 -0.06626127660274506 115
-2.8920328617095947 -4.74722146987915 1.4781872034072876 114
-2.2916953563690186 -3.760300636291504 1.007018804550171 117
-2.2837111949920654 -3.7457284927368164 0.8445248007774353 117
-3.213813066482544 -5.269207000732422 0.9703874588012695 114
-3.2743005752563477 -5.36627197265625 0.7671675086021423 114
-4.346018314361572 -7.119922161102295 0.7264431118965149 111
-2.3541274070739746 -3.8551669120788574 0.23472677171230316 117
-2.1908552646636963 -3.586381435394287 0.07268927246332169 115
-1.020931601524353 -1.6679688692092896 -0.5137560367584229 119
-1.162268042564392 -1.8981362581253052 -0.5050153732299805 119
-1.4070228338241577 -2.296952486038208 -0.5156752467155457 119
-1.7281630039215088 -2.820106029510498 -0.5177984833717346 115
-1.7370589971542358 -2.833512783050537 -0.40338799357414246 115
-1.8896929025650024 -3.081284284591675 -0.31288960576057434 115
-1.8765406608581543 -3.058640718460083 -0.1854351907968521 115
-2.028388023376465 -3.3048477172851562 -0.06634767353534698 115
-2.8807873725891113 -4.691822528839111 1.4639614820480347 114
-2.276757001876831 -3.7066118717193604 0.9946558475494385 117
-2.276214599609375 -3.7042789459228516 0.8368993401527405 117
nan nan nan 0
-3.2930123805999756 -5.354809761047363 0.7671675086021423 114
nan nan nan 0
nan nan nan 0
-2.205981731414795 -3.5829694271087646 0.07277653366327286 115
-1.026747703552246 -1.6643949747085571 -0.5137560367584229 119
-1.1714454889297485 -1.8982137441635132 -0.5061401724815369 119
-1.4124536514282227 -2.2878506183624268 -0.5147220492362976 119
-1.7379964590072632 -2.814056396484375 -0.5177984833717346 115
-1.7495477199554443 -2.8316538333892822 -0.4039973020553589 115
-1.903056025505066 -3.078906297683716 -0.3133253753185272 115
-1.8898319005966187 -3.056318521499634 -0.18569600582122803 115
-2.042541742324829 -3.3019988536834717 -0.06643406301736832 115
-2.8691904544830322 -4.636560440063477 1.4497357606887817 114
-2.266601800918579 -3.6613595485687256 0.9845407605171204 117
-2.2684569358825684 -3.662928342819214 0.8292738199234009 117
-3.2557225227355957 -5.255038261413574 0.9719500541687012 114
nan nan nan 0
-2.3246891498565674 -3.7493398189544678 0.3826137185096741 117
-2.3599283695220947 -3.804692029953003 0.2326333075761795 117
-2.2211108207702637 -3.5794949531555176 0.07286378741264343 115
-1.0351011753082275 -1.6649023294448853 -0.5150501132011414 119
-1.178064227104187 -1.8941130638122559 -0.5061401724815369 119
-1.4204310178756714 -2.2829062938690186 -0.5147220492362976 119
-1.7478086948394775 -2.8079724311828613 -0.5177984833717346 115
-1.7620445489883423 -2.829742193222046 -0.4046066701412201 115
-1.916425347328186 -3.076472043991089 -0.3137611448764801 115
-1.9031298160552979 -3.053940773010254 -0.18595680594444275 115
-2.0567002296447754 -3.299091339111328 -0.06652045249938965 115
-2.8623547554016113 -4.589633464813232 1.438096523284912 114
-2.2561581134796143 -3.6162238121032715 0.9744256138801575 117
-2.2604384422302246 -3.6216766834259033 0.8216482996940613 117
-2.2042717933654785 -3.5303142070770264 0.6523941159248352 117
nan nan nan 0
nan nan nan 0
-2.3546676635742188 -3.7667934894561768 0.2308015525341034 117
-2.2388932704925537 -3.5801970958709717 0.07303831726312637 115
-1.0409064292907715 -1.6612789630889893 -0.5150501132011414 119
-1.1872559785842896 -1.894116997718811 -0.5072649121284485 119
-1.4283912181854248 -2.2779343128204346 -0.5147220492362976 119
-1.7602239847183228 -2.806037664413452 -0.5185806751251221 115
-1.7745492458343506 -2.827777862548828 -0.4052160084247589 115
-1.9271526336669922 -3.0697638988494873 -0.3137611448764801 115
-1.9164340496063232 -3.0515074729919434 -0.18621762096881866 115
-2.0708632469177246 -3.2961251735687256 -0.06660684198141098 115
-2.865507125854492 -4.559167385101318 1.431630253791809 114
-2.263580799102783 -3.6000771522521973 0.9721777439117432 117
-2.2521603107452393 -3.58052659034729 0.8140228390693665 117
-2.185019016265869 -3.4724392890930176 0.643018364906311 117
-3.370056629180908 -5.353631496429443 0.7720422744750977 114
-4.4635844230651855 -7.088052749633789 0.7294935584068298 111
-4.46769905090332 -7.091841220855713 0.43726688623428345 111
-2.2513771057128906 -3.572360038757324 0.07303831726312637 115
-1.0466991662979126 -1.6576354503631592 -0.5150501132011414 119
-1.1964625120162964 -1.8940801620483398 -0.5083897113800049 119
-1.4363341331481934 -2.2729341983795166 -0.5147220492362976 119
-1.7700080871582031 -2.7998764514923096 -0.5185806751251221 115
-1.7870620489120483 -2.825760841369629 -0.4058253765106201 115
-1.9405194520950317 -3.067227602005005 -0.31419694423675537 115
-1.9297444820404053 -3.049018621444702 -0.18647843599319458 115
-2.0823562145233154 -3.288876533508301 -0.06660684198141098 115
-2.8788199424743652 -4.5450568199157715 1.4303369522094727 114
nan nan nan 0
-2.2462501525878906 -3.543623924255371 0.8073505163192749 117
-2.218285083770752 -3.498156785964966 0.6492688655853271 117
-3.388723850250244 -5.341835021972656 0.7720422744750977 114
-4.4963059425354 -7.085045337677002 0.7308009266853333 111
-4.497779846191406 -7.084634304046631 0.43779024481773376 111
-2.269193410873413 -3.5729198455810547 0.07321283966302872 117
-1.0524789094924927 -1.6539716720581055 -0.5150501132011414 119
-1.2030668258666992 -1.889892339706421 -0.5083897113800049 119
-1.4416228532791138 -2.2637665271759033 -0.5137688517570496 119
-1.7797707319259644 -2.7936809062957764 -0.5185806751251221 115
-1.7995820045471191 -2.82369065284729 -0.40643471479415894 115
-1.9538921117782593 -3.0646350383758545 -0.31463271379470825 115
-1.9430607557296753 -3.046473741531372 -0.1867392510175705 115
-2.096512794494629 -3.285802125930786 -0.06669323146343231 115
-2.889470338821411 -4.526838302612305 1.4277504682540894 114
nan nan nan 0
-2.24010968208313 -3.5068066120147705 0.8006781339645386 117
-2.2171859741210938 -3.4695851802825928 0.645362377166748 117
-3.4126956462860107 -5.33833646774292 0.7732609510421753 114
-4.521009922027588 -7.069307327270508 0.7308009266853333 111
-4.527864456176758 -7.077303409576416 0.43831363320350647 111
-2.278956651687622 -3.5607666969299316 0.07312557846307755 117
-1.0582458972930908 -1.6502876281738281 -0.5150501132011414 119
-1.2096563577651978 -1.885681390762329 -0.5083897113800049 119
-1.4495161771774292 -2.258720636367798 -0.5137688517570496 119
-1.7868437767028809 -2.7832956314086914 -0.5177984833717346 115
-1.8121094703674316 -2.8215672969818115 -0.40704405307769775 115
-1.9672701358795166 -3.0619869232177734 -0.3150685131549835 115
-1.9563831090927124 -3.0438733100891113 -0.1870000660419464 115
-2.110673427581787 -3.2826688289642334 -0.06677962094545364 115
-2.913092851638794 -4.5289106369018555 1.431630253791809 114
-3.060429811477661 -4.7561469078063965 1.2958624362945557 114
-2.231083631515503 -3.4659485816955566 0.7930526733398438 117
-2.210566759109497 -3.4327592849731445 0.639893114566803 117
-3.4366843700408936 -5.33473539352417 0.7744796872138977 114
nan nan nan 0
-4.549835681915283 -7.057258129119873 0.4380519390106201 111
nan nan nan 0
-1.0640000104904175 -1.6465836763381958 -0.5150501132011414 119
-1.2188760042190552 -1.8855384588241577 -0.5095144510269165 119
-1.4547263383865356 -2.249525547027588 -0.5128157138824463 119
-1.7965483665466309 -2.77704119682312 -0.5177984833717346 115
-1.821947455406189 -2.8152248859405518 -0.40704405307769775 115
-1.9806532859802246 -3.059282064437866 -0.3155042827129364 115
-1.9669963121414185 -3.0370256900787354 -0.1870000660419464 115
-2.1248373985290527 -3.2794766426086426 -0.06686601042747498 115
-2.9315109252929688 -4.522767066955566 1.432923436164856 114
-3.0770134925842285 -4.7454352378845215 1.2958624362945557 114
-2.224470615386963 -3.429314613342285 0.7863803505897522 117
-2.2037177085876465 -3.3960225582122803 0.6344239711761475 117
-2.2014780044555664 -3.3912746906280518 0.4917427599430084 117
-2.2290778160095215 -3.4324791431427 0.35472384095191956 117
-2.254117250442505 -3.4697105884552 0.21483910083770752 117
-2.287414073944092 -3.5196189880371094 0.07260200381278992 117
-1.0723767280578613 -1.6469069719314575 -0.5163442492485046 119
-1.2254502773284912 -1.8812724351882935 -0.5095144510269165 119
-1.4625697135925293 -2.244433879852295 -0.5128157138824463 119
-1.8035341501235962 -2.766616106033325 -0.5170162916183472 115
-1.8344743251800537 -2.813004970550537 -0.40765342116355896 115
-1.9940416812896729 -3.056521415710449 -0.3159400522708893 115
-1.9803143739700317 -3.0343222618103027 -0.18726086616516113 115
-2.139005422592163 -3.276226043701172 -0.0669524073600769 115
-2.9525625705718994 -4.520594596862793 1.4355099201202393 114
-3.0935592651367188 -4.734665393829346 1.2958624362945557 114
-2.2176296710968018 -3.3927693367004395 0.7797079682350159 117
-2.1966395378112793 -3.3593761920928955 0.6289548277854919 117
-2.2459022998809814 -3.4334068298339844 0.4990549385547638 117
-2.2301363945007324 -3.408005952835083 0.35298073291778564 117
-2.2525410652160645 -3.4409327507019043 0.21353068947792053 117
nan nan nan 0
-1.0781188011169434 -1.6431535482406616 -0.5163442492485046 119
-1.2346831560134888 -1.881056308746338 -0.5106391906738281 119
-1.4703953266143799 -2.2393150329589844 -0.5128157138824463 119
-1.8131805658340454 -2.7603037357330322 -0.5170162916183472 115
-1.8470076322555542 -2.8107314109802246 -0.4082627594470978 115
-2.0101711750030518 -3.0578668117523193 -0.31681162118911743 115
-1.9936378002166748 -3.0315632820129395 -0.18752168118953705 115
-2.1531758308410645 -3.272915840148926 -0.06703878939151764 117
-2.970979690551758 -4.5142951011657715 1.4368032217025757 114
-3.110067367553711 -4.7238383293151855 1.2958624362945557 114
-2.2105605602264404 -3.356313943862915 0.7730357050895691 117
-2.186615228652954 -3.3186964988708496 0.6227043271064758 117
-3.500553607940674 -5.310885429382324 0.7763077020645142 114
nan nan nan 0
nan nan nan 0
-4.657861232757568 -7.058656215667725 0.14694926142692566 111
-1.0811845064163208 -1.635351538658142 -0.5150501132011414 119
-1.2412418127059937 -1.876734972000122 -0.5106391906738281 119
-1.4782029390335083 -2.234168529510498 -0.5128157138824463 119
-1.82007896900177 -2.7498397827148438 -0.5162341594696045 115
-1.85954749584198 -2.8084051609039307 -0.408872127532959 115
-2.02358341217041 -3.0549838542938232 -0.3172473907470703 115
-2.009723663330078 -3.0329103469848633 -0.18804329633712769 115
-2.1673495769500732 -3.2695467472076416 -0.06712518632411957 117
-2.989388942718506 -4.507922172546387 1.438096523284912 114
-3.131924629211426 -4.721073150634766 1.2981102466583252 114
-2.2032644748687744 -3.3199498653411865 0.7663633823394775 117
-2.179065465927124 -3.282242774963379 0.6172351241111755 117
-3.5327987670898438 -5.3193039894104 0.779354453086853 114
-4.679531097412109 -7.0432610511779785 0.7364660501480103 111
-4.686621189117432 -7.051261901855469 0.44171544909477234 111
-4.682472229003906 -7.042353630065918 0.14694926142692566 111
-1.0868862867355347 -1.6315674781799316 -0.5150501132011414 119
-1.247785210609436 -1.872390866279602 -0.5106391906738281 119
-1.4832701683044434 -2.2249112129211426 -0.5118624567985535 119
-1.8296666145324707 -2.743469715118408 -0.5162341594696045 115
-1.8720935583114624 -2.806025266647339 -0.4094814360141754 115
-2.0370001792907715 -3.052044630050659 -0.3176831901073456 115
-2.023071050643921 -3.030029058456421 -0.1883040964603424 115
-2.184302806854248 -3.270275831222534 -0.06729796528816223 117
-3.005106210708618 -4.497459888458252 1.438096523284912 114
-3.151092529296875 -4.714162349700928 1.2992340326309204 114
-2.1930129528045654 -3.279597520828247 0.7587379217147827 117
-2.17128849029541 -3.245882749557495 0.61176598072052 117
-3.5513453483581543 -5.306940078735352 0.779354453086853 114
-4.715172290802002 -7.043440818786621 0.7382091879844666 111
-4.713984489440918 -7.039008617401123 0.4419771134853363 111
-4.712591171264648 -7.03427267074585 0.1471237689256668 111
-1.092574954032898 -1.6277635097503662 -0.5150501132011414 119
-1.2543134689331055 -1.8680237531661987 -0.5106391906738281 119
-1.4910274744033813 -2.219719886779785 -0.5118624567985535 119
-1.836477518081665 -2.7329673767089844 -0.515451967716217 119
-1.8874143362045288 -2.8077104091644287 -0.41070014238357544 115
-2.0504207611083984 -3.049048900604248 -0.3181189298629761 115
-2.0392096042633057 -3.0312347412109375 -0.18882571160793304 115
-2.198496103286743 -3.2667789459228516 -0.06738435477018356 117
-3.023484230041504 -4.4909491539001465 1.4393898248672485 114
-3.170250415802002 -4.707175254821777 1.3003580570220947 114
-2.1770219802856445 -3.2312164306640625 0.749206006526947 117
-2.1632840633392334 -3.2096171379089355 0.6062968373298645 117
nan nan nan 0
-4.742514610290527 -7.031067848205566 0.7386448979377747 111
-4.744112491607666 -7.030789375305176 0.442500501871109 111
-4.742710590362549 -7.026066780090332 0.14729829132556915 111
-1.098250150680542 -1.623939871788025 -0.5150501132011414 119
-1.25809645652771 -1.8595987558364868 -0.5095144510269165 119
-1.4960155487060547 -2.2104368209838867 -0.5109092593193054 119
-1.8460063934326172 -2.7265403270721436 -0.515451967716217 119
-1.8999866247177124 -2.8052141666412354 -0.41130951046943665 115
-2.063845634460449 -3.0459964275360107 -0.31855472922325134 115
-2.052579879760742 -3.028231382369995 -0.18908652663230896 115
-2.2154970169067383 -3.267359972000122 -0.06755713373422623 117
-3.041853666305542 -4.484364986419678 1.4406828880310059 114
-3.1893978118896484 -4.7001118659973145 1.3014819622039795 114
-2.191044569015503 -3.227658748626709 0.7501592040061951 117
-2.15505313873291 -3.173447370529175 0.6008276343345642 117
nan nan nan 0
nan nan nan 0
-4.771432399749756 -7.018315315246582 0.44276219606399536 111
-4.772830963134766 -7.017736911773682 0.1474728286266327 111
-1.103912115097046 -1.6200963258743286 -0.5150501132011414 119
-1.2645800113677979 -1.8551958799362183 -0.5095144510269165 119
-1.5009570121765137 -2.201146125793457 -0.5099561214447021 119
-1.8527296781539917 -2.7160003185272217 -0.5146698355674744 119
-1.9125643968582153 -2.802664041519165 -0.41191884875297546 115
-2.0772738456726074 -3.0428876876831055 -0.3189904987812042 115
-2.0659537315368652 -3.0251715183258057 -0.18934732675552368 115
nan nan nan 0
-3.062938928604126 -4.48169469833374 1.4432694911956787 114
-3.2085347175598145 -4.692972183227539 1.3026058673858643 114
-2.1995270252227783 -3.2159392833709717 0.749206006526947 117
-2.1493852138519287 -3.1414501667022705 0.5961397886276245 117
nan nan nan 0
-4.797112941741943 -7.006007671356201 0.7395164370536804 111
-4.790258884429932 -6.993378639221191 0.44223880767822266 111
-2.1325266361236572 -3.1121459007263184 0.06518473476171494 117
-1.1095606088638306 -1.6162331104278564 -0.5150501132011414 119
-1.2682901620864868 -1.846754550933838 -0.5083897113800049 119
-1.5086313486099243 -2.1958935260772705 -0.5099561214447021 119
-1.862198829650879 -2.7095165252685547 -0.5146698355674744 119
-1.925147533416748 -2.800060272216797 -0.4125281870365143 115
-2.090705633163452 -3.039722204208374 -0.3194262981414795 115
-2.0821614265441895 -3.0261685848236084 -0.1898689568042755 115
-2.1702258586883545 -3.1529805660247803 -0.06548377126455307 117
-3.081303119659424 -4.474953651428223 1.4445627927780151 114
-3.2276604175567627 -4.685755729675293 1.3037296533584595 114
nan nan nan 0
-2.1463232040405273 -3.113597869873047 0.5922332406044006 117
-2.157259941101074 -3.1282947063446045 0.4618847966194153 117
-2.1684863567352295 -3.1434004306793213 0.3307560384273529 117
-2.177119493484497 -3.1547365188598633 0.19887663424015045 117
-2.1859803199768066 -3.166393995285034 0.06649366766214371 117
-1.114914059638977 -1.6125447750091553 -0.5150501132011414 119
-1.2713148593902588 -1.8387534618377686 -0.5072649121284485 119
-1.5183144807815552 -2.1951799392700195 -0.5109092593193054 119
-1.8707020282745361 -2.703652858734131 -0.5146698355674744 119
-1.9367589950561523 -2.798079013824463 -0.4131375253200531 115
-2.1030802726745605 -3.03723406791687 -0.3198620676994324 115
-2.094501495361328 -3.023716926574707 -0.19012977182865143 115
nan nan nan 0
-3.098098039627075 -4.4692206382751465 1.445855975151062 114
-3.2451412677764893 -4.679595947265625 1.3048535585403442 114
-2.2208073139190674 -3.2012810707092285 0.749206006526947 117
-2.1420159339904785 -3.0865530967712402 0.5883266925811768 117
-2.152926206588745 -3.101119041442871 0.4588380455970764 117
-2.186875104904175 -3.148845911026001 0.33206337690353394 117
-2.1927175521850586 -3.1560826301574707 0.19939999282360077 117
-4.869302272796631 -7.006009101867676 0.14825817942619324 111
-1.1202553510665894 -1.608838677406311 -0.5150501132011414 119
-1.2749412059783936 -1.8303072452545166 -0.5061401724815369 119
-1.5287740230560303 -2.1938936710357666 -0.5118624567985535 119
-1.880128026008606 -2.69710636138916 -0.5146698355674744 119
-1.9493533372879028 -2.795372247695923 -0.4137468934059143 115
-2.1165192127227783 -3.0339596271514893 -0.32029783725738525 115
-2.107901096343994 -3.020482063293457 -0.19039057195186615 117
-4.892565727233887 -7.008114337921143 -0.1470361202955246 111
-3.1164450645446777 -4.462338924407959 1.4471492767333984 114
-3.264246940612793 -4.672234058380127 1.3059775829315186 114
nan nan nan 0
-2.138627767562866 -3.0588202476501465 0.5844201445579529 117
-2.155205011367798 -3.0813848972320557 0.45701003074645996 117
-4.902053356170654 -7.0060625076293945 0.7447458505630493 111
-4.900890350341797 -7.001798629760742 0.4459023177623749 111
-4.905198097229004 -7.005349159240723 0.14860722422599792 111
-1.126144528388977 -1.604722023010254 -0.5150501132011414 119
-1.2816410064697266 -1.8256219625473022 -0.5061401724815369 119
-1.539625883102417 -2.1922924518585205 -0.5128157138824463 119
-1.890000820159912 -2.690197467803955 -0.5146698355674744 119
-1.9624391794204712 -2.792268753051758 -0.4143562316894531 115
-2.133354663848877 -3.0343310832977295 -0.3211694061756134 117
-2.1218299865722656 -3.016820192337036 -0.19065138697624207 117
-4.915341854095459 -6.98604679107666 -0.14694972336292267 111
-3.135559558868408 -4.454836368560791 1.4484424591064453 114
-3.284154176712036 -4.66422176361084 1.3071014881134033 114
nan nan nan 0
-2.135601282119751 -3.030776023864746 0.580513596534729 117
-2.1493289470672607 -3.0491273403167725 0.4533539414405823 117
-4.9334397315979 -6.996189594268799 0.7456173300743103 111
-4.932277202606201 -6.991949081420898 0.4464256763458252 111
-4.936605930328369 -6.9954938888549805 0.14878174662590027 111
-1.1317391395568848 -1.6007812023162842 -0.5150501132011414 119
-1.29363214969635 -1.829092264175415 -0.5083897113800049 119
-1.550103783607483 -2.1909115314483643 -0.5137688517570496 119
-1.899379849433899 -2.6835834980010986 -0.5146698355674744 119
-1.9750419855117798 -2.789451837539673 -0.41496556997299194 115
-2.1468124389648438 -3.030930280685425 -0.3216051757335663 117
-2.1352345943450928 -3.0134689807891846 -0.1909121870994568 117
-4.948370933532715 -6.981081962585449 -0.14720888435840607 111
-3.1538844108581543 -4.447803974151611 1.4497357606887817 114
-3.303234338760376 -4.656703472137451 1.3082252740859985 114
-3.473334789276123 -4.89469051361084 1.1581237316131592 114
-2.123297929763794 -2.99108624458313 0.5742630958557129 117
-2.142718553543091 -3.0173285007476807 0.4496978521347046 117
-4.960716247558594 -6.982987403869629 0.7460530996322632 111
-4.959546089172363 -6.978760242462158 0.44668737053871155 111
-4.920441627502441 -6.921175956726074 0.14756008982658386 111
-1.1373200416564941 -1.5968210697174072 -0.5150501132011414 119
-1.3028358221054077 -1.8285330533981323 -0.5095144510269165 119
-1.5634398460388184 -2.193481206893921 -0.5156752467155457 119
-1.9087356328964233 -2.6769371032714844 -0.5146698355674744 119
-1.987648606300354 -2.786580801010132 -0.41557490825653076 115
-2.16316556930542 -3.031527280807495 -0.32247674465179443 117
-2.145740270614624 -3.0059974193573 -0.1909121870994568 117
-4.914605140686035 -6.882397174835205 -0.14548109471797943 111
-3.1721980571746826 -4.440697193145752 1.4510289430618286 114
-3.3223018646240234 -4.64910888671875 1.3093491792678833 114
-3.487544536590576 -4.878543376922607 1.1571705341339111 114
-2.1164894104003906 -2.9595539569854736 0.5695752501487732 117
-2.135913133621216 -2.9856133460998535 0.4460417628288269 117
nan nan nan 0
-4.9344635009765625 -6.8923869132995605 0.44223880767822266 111
-4.906729221343994 -6.851120948791504 0.14642567932605743 111
-1.1428871154785156 -1.5928412675857544 -0.5150501132011414 119
-1.3120516538619995 -1.8279321193695068 -0.5106391906738281 119
-1.58253812789917 -2.20395827293396 -0.5194879770278931 119
-1.918068289756775 -2.670258045196533 -0.5146698355674744 119
-2.0002593994140625 -2.783655881881714 -0.41618427634239197 115
-2.1708271503448486 -3.0199134349823 -0.32204097509384155 115
-2.162050724029541 -3.006596803665161 -0.19143380224704742 117
-4.932760238647461 -6.857083797454834 -0.14530831575393677 111
-3.1905012130737305 -4.4335174560546875 1.452322244644165 114
-3.3413562774658203 -4.64143705368042 1.3104732036590576 114
-3.5045526027679443 -4.866339683532715 1.1571705341339111 114
-2.1008262634277344 -2.9160850048065186 0.5625434517860413 117
-2.1289122104644775 -2.9539828300476074 0.4423857033252716 117
-2.1167829036712646 -2.9360718727111816 0.313324898481369 117
-4.949729919433594 -6.862969875335693 0.441453754901886 111
-4.936464309692383 -6.842060565948486 0.14660020172595978 111
-1.1484402418136597 -1.5888421535491943 -0.5150501132011414 119
-1.3184243440628052 -1.8233411312103271 -0.5106391906738281 119
-1.5787150859832764 -2.1825129985809326 -0.5156752467155457 119
-1.9273775815963745 -2.663546562194824 -0.5146698355674744 119
-2.012874126434326 -2.7806766033172607 -0.4167936146259308 115
-2.172590970993042 -3.0002145767211914 -0.32073360681533813 115
-2.172532320022583 -2.9990315437316895 -0.19143380224704742 117
-4.962532997131348 -6.847919464111328 -0.14548109471797943 111
-3.208792209625244 -4.42626428604126 1.4536155462265015 114
-3.360398054122925 -4.633689880371094 1.3115971088409424 114
-3.524400472640991 -4.858050346374512 1.1581237316131592 114
-2.0993895530700684 -2.8927462100982666 0.5594182014465332 117
-2.1217169761657715 -2.922437906265259 0.4387296140193939 117
nan nan nan 0
-4.9824604988098145 -6.85776948928833 0.44223880767822266 111
nan nan nan 0
-1.1539793014526367 -1.5848236083984375 -0.5150501132011414 119
-1.321912407875061 -1.8147897720336914 -0.5095144510269165 119
-1.5805425643920898 -2.169055223464966 -0.5137688517570496 119
-1.9366633892059326 -2.6568024158477783 -0.5146698355674744 119
-2.0254924297332764 -2.7776434421539307 -0.417402982711792 115
nan nan nan 0
-2.182987689971924 -2.9914298057556152 -0.19143380224704742 117
-4.989353656768799 -6.834593296051025 -0.14556749165058136 111
-3.22707200050354 -4.4189372062683105 1.454908847808838 114
-3.3794262409210205 -4.625865459442139 1.3127208948135376 114
-3.5442330837249756 -4.8496809005737305 1.1590769290924072 114
-2.1094744205474854 -2.8854002952575684 0.5594182014465332 117
-2.1172571182250977 -2.8949849605560303 0.43568286299705505 117
-2.1136996746063232 -2.8890626430511475 0.3098386526107788 117
-5.003419399261475 -6.836306571960449 0.4419771134853363 111
nan nan nan 0
-1.1595042943954468 -1.580785870552063 -0.5150501132011414 119
-1.3253570795059204 -1.806236743927002 -0.5083897113800049 119
-1.5764868259429932 -2.147697925567627 -0.5099561214447021 119
-1.9459254741668701 -2.6500260829925537 -0.5146698355674744 119
-2.038113594055176 -2.7745556831359863 -0.4180122911930084 115
-2.102048873901367 -2.860546588897705 -0.30722445249557495 115
-2.1253955364227295 -2.8912594318389893 -0.1854351907968521 117
-2.0899503231048584 -2.8420028686523438 -0.06030035763978958 117
-3.2453389167785645 -4.411535739898682 1.4562019109725952 114
-3.4013283252716064 -4.621889114379883 1.3149688243865967 114
-3.5669593811035156 -4.845185279846191 1.1609833240509033 114
-2.1253907680511475 -2.885972738265991 0.5609807968139648 117
-2.1126317977905273 -2.8675994873046875 0.4326361417770386 117
-2.100130796432495 -2.8495895862579346 0.306352436542511 117
nan nan nan 0
-2.1235835552215576 -2.8793067932128906 0.061781514436006546 117
-1.1650152206420898 -1.5767287015914917 -0.5150501132011414 119
-1.3287580013275146 -1.7976813316345215 -0.5072649121284485 119
-1.5723012685775757 -2.1263954639434814 -0.50614333152771 119
-1.9551639556884766 -2.6432173252105713 -0.5146698355674744 119
-2.0507383346557617 -2.771414041519165 -0.41862165927886963 115
-5.001428127288818 -6.756577014923096 -0.7321093678474426 110
-2.123589038848877 -2.867771863937378 -0.18439196050167084 117
-2.1117610931396484 -2.8507587909698486 -0.06064591929316521 117
-3.263594150543213 -4.404061317443848 1.4574952125549316 114
-3.4203426837921143 -4.6139020919799805 1.3160927295684814 114
-3.5867745876312256 -4.836647033691406 1.1619365215301514 114
-2.126624345779419 -2.8666369915008545 0.5586368441581726 117
-2.1048836708068848 -2.836296558380127 0.4289800822734833 117
-2.107095956802368 -2.8382420539855957 0.3059166669845581 117
-2.1454339027404785 -2.8888297080993652 0.1865776777267456 117
-2.1097702980041504 -2.839772939682007 0.06108342111110687 117
-1.170237421989441 -1.5728567838668823 -0.5150501132011414 119
-1.3314909934997559 -1.789589524269104 -0.5061401724815369 119
-1.5760431289672852 -2.1175079345703125 -0.5051901340484619 119
-1.9634581804275513 -2.6370620727539062 -0.5146698355674744 119
-2.065363645553589 -2.7729177474975586 -0.41984036564826965 115
-4.980966091156006 -6.684913635253906 -0.7260084748268127 110
-5.015187740325928 -6.728391170501709 -0.43633344769477844 110
-4.995527267456055 -6.699573993682861 -0.1437532901763916 110
-3.280301570892334 -4.397658348083496 1.458788514137268 114
-3.4377338886260986 -4.607038497924805 1.3172165155410767 114
-3.6078238487243652 -4.833221912384033 1.1638429164886475 114
-2.1474392414093018 -2.875770092010498 0.5617621541023254 117
-2.098933458328247 -2.8097901344299316 0.4259333312511444 117
-2.0802223682403564 -2.78372859954834 0.300687313079834 117
-2.1634678840637207 -2.894073009490967 0.18736271560192108 117
-4.986897945404053 -6.668550968170166 0.1446804404258728 110
-1.1754467487335205 -1.5689674615859985 -0.5150501132011414 119
-1.3377296924591064 -1.784930944442749 -0.5061401724815369 119
-1.5893136262893677 -2.1198477745056152 -0.507096529006958 119
-1.975614309310913 -2.6341428756713867 -0.515451967716217 119
-2.0780086517333984 -2.7696609497070312 -0.42044970393180847 115
-4.968389987945557 -6.619680881500244 -0.7207790613174438 110
-4.999669551849365 -6.658935546875 -0.4329429566860199 110
-4.979852199554443 -6.630130767822266 -0.1426302194595337 110
-3.2985336780548096 -4.390042304992676 1.4600818157196045 114
-3.4567222595214844 -4.598905086517334 1.3183404207229614 114
-3.6305723190307617 -4.828444957733154 1.1657493114471436 114
-3.834761142730713 -5.098151206970215 1.0032025575637817 114
-2.0938093662261963 -2.782618999481201 0.42288661003112793 117
-2.0899267196655273 -2.7764501571655273 0.300687313079834 117
-4.996901988983154 -6.635931968688965 0.4333416819572449 110
-4.9620184898376465 -6.587213039398193 0.14328424632549286 110
-1.1814625263214111 -1.56444251537323 -0.5150501132011414 119
-1.3445734977722168 -1.7797812223434448 -0.5061401724815369 119
-1.5974414348602295 -2.11372971534729 -0.507096529006958 119
-1.985714077949524 -2.626537561416626 -0.515451967716217 119
-2.0916216373443604 -2.7656197547912598 -0.4210590422153473 115
-4.957708358764648 -6.552889347076416 -0.7155497670173645 110
-4.9800004959106445 -6.5799665451049805 -0.42903077602386475 110
-4.966042995452881 -6.559145450592041 -0.1415071338415146 110
-3.318281650543213 -4.381194591522217 1.461375117301941 114
-3.477297782897949 -4.589481830596924 1.3194644451141357 114
-3.652050256729126 -4.818380355834961 1.1667025089263916 114
-3.854308605194092 -5.0833892822265625 1.0032025575637817 114
-2.0834848880767822 -2.7468807697296143 0.4186211824417114 117
-2.0855183601379395 -2.7485649585723877 0.2985084056854248 117
-4.986119270324707 -6.568970203399658 0.43020156025886536 110
-4.954019546508789 -6.524314880371094 0.14232435822486877 110
-1.1869162321090698 -1.5603089332580566 -0.5150501132011414 119
-1.3507778644561768 -1.775076985359192 -0.5061401724815369 119
-1.6077831983566284 -2.112046480178833 -0.508049726486206 119
-1.9948703050613403 -2.6195902824401855 -0.515451967716217 119
-2.1072773933410645 -2.7661972045898438 -0.4222777485847473 115
-4.941303730010986 -6.4840407371521 -0.7098845839500427 110
-4.969639778137207 -6.518863201141357 -0.42616191506385803 110
-4.955561637878418 -6.498044490814209 -0.14055685698986053 110
-3.336484432220459 -4.373425006866455 1.4626681804656982 114
-3.4992079734802246 -4.585061550140381 1.3217121362686157 114
-3.674804449081421 -4.813405513763428 1.1686087846755981 114
-3.8690319061279297 -5.065979480743408 1.0024211406707764 114
-2.0719704627990723 -2.7119863033294678 0.4143557548522949 117
-2.0860259532928467 -2.729395866394043 0.2972010672092438 117
nan nan nan 0
-4.940323352813721 -6.459327220916748 0.1412772238254547 110
-1.1923555135726929 -1.5561563968658447 -0.5150501132011414 119
-1.3569658994674683 -1.7703511714935303 -0.5061401724815369 119
-1.6151459217071533 -2.1064212322235107 -0.508049726486206 119
-2.0009965896606445 -2.6086924076080322 -0.5146698355674744 119
-2.116920232772827 -2.758824586868286 -0.4222777485847473 117
-4.924479007720947 -6.415388107299805 -0.7042195200920105 110
-4.955872058868408 -6.453952789306641 -0.4230321943759918 110
-4.941668510437012 -6.433131217956543 -0.13952016830444336 110
-3.354673147201538 -4.365581512451172 1.4639614820480347 114
-3.5181610584259033 -4.576682090759277 1.3228360414505005 114
-3.697567939758301 -4.808330535888672 1.1705151796340942 114
-3.8897030353546143 -5.056357383728027 1.0032025575637817 114
-2.054184913635254 -2.6693406105041504 0.4088716506958008 117
-2.080348491668701 -2.7023632526397705 0.295022189617157 117
nan nan nan 0
-4.926223278045654 -6.3945231437683105 0.14023007452487946 110
-1.1977802515029907 -1.5519847869873047 -0.5150501132011414 119
-1.3631373643875122 -1.7656036615371704 -0.5061401724815369 119
-1.6224887371063232 -2.1007704734802246 -0.508049726486206 119
-2.0070712566375732 -2.5977838039398193 -0.5138876438140869 119
-2.126537799835205 -2.7514185905456543 -0.4222777485847473 117
-4.910282135009766 -6.35087251663208 -0.6989901065826416 110
-4.944766521453857 -6.393167495727539 -0.42016327381134033 110
-4.9273834228515625 -6.3683953285217285 -0.13848347961902618 110
-3.372847557067871 -4.357664585113525 1.465254783630371 114
-3.537097692489624 -4.568225383758545 1.3239600658416748 114
-3.7173354625701904 -4.799274921417236 1.1714683771133423 114
-3.913379192352295 -5.050556659698486 1.0047650337219238 114
-2.045248031616211 -2.6386194229125977 0.4052155315876007 117
-2.0775599479675293 -2.67933988571167 0.29327908158302307 117
-2.0646872520446777 -2.6617791652679443 0.1745404154062271 117
-4.911737442016602 -6.329893112182617 0.1391829401254654 110
-1.2031903266906738 -1.547794222831726 -0.5150501132011414 119
-1.369292140007019 -1.7608345746994019 -0.5061401724815369 119
-1.626798152923584 -2.091219902038574 -0.507096529006958 119
-2.013093948364258 -2.586864709854126 -0.5131054520606995 119
-2.142225980758667 -2.7518107891082764 -0.42349642515182495 117
-4.898756504058838 -6.290465354919434 -0.6941965222358704 110
-4.930229187011719 -6.3286004066467285 -0.4170336127281189 110
-4.9127068519592285 -6.30383825302124 -0.1374468058347702 110
-3.391007900238037 -4.349673748016357 1.4665480852127075 114
-3.5590150356292725 -4.563535213470459 1.3262078762054443 114
-3.7401034832000732 -4.794009208679199 1.1733747720718384 114
-3.9370617866516113 -5.044652462005615 1.006327748298645 114
-2.05444598197937 -2.6314642429351807 0.4052155315876007 117
-2.074636459350586 -2.65636944770813 0.29153597354888916 117
-2.0678176879882812 -2.646686315536499 0.1740170419216156 117
-4.903017520904541 -6.273319721221924 0.13831031322479248 110
-1.2085858583450317 -1.543584942817688 -0.5150501132011414 119
-1.3754302263259888 -1.7560441493988037 -0.5061401724815369 119
-1.637115240097046 -2.0893924236297607 -0.508049726486206 119
-2.0190649032592773 -2.575934886932373 -0.512323260307312 119
-2.1120100021362305 -2.6935465335845947 -0.41557490825653076 117
-2.02178692817688 -2.5775539875030518 -0.2832565903663635 119
-4.918384552001953 -6.268141746520996 -0.4141647219657898 110
-4.900726795196533 -6.243393898010254 -0.13649651408195496 110
-3.4091529846191406 -4.34160852432251 1.4678412675857544 114
-3.577932119369507 -4.554914474487305 1.3273316621780396 114
-3.75984787940979 -4.784784317016602 1.1743279695510864 114
-3.9576988220214844 -5.03476095199585 1.0071090459823608 114
-2.0544164180755615 -2.6125738620758057 0.40338751673698425 117
-2.068498134613037 -2.6295368671417236 0.28935706615448 117
-2.064692735671997 -2.6237564086914062 0.17297032475471497 117
-4.890871524810791 -6.212957382202148 0.1373504251241684 110
-1.2139666080474854 -1.5393567085266113 -0.5150501132011414 119
-1.3815516233444214 -1.751232385635376 -0.5061401724815369 119
-1.64439857006073 -2.083665132522583 -0.508049726486206 119
-2.0219242572784424 -2.561119318008423 -0.5107589364051819 119
-2.0752625465393066 -2.6277384757995605 -0.40643471479415894 119
-2.070913076400757 -2.6212902069091797 -0.2889217138290405 117
-4.91546630859375 -6.219595909118652 -0.41207820177078247 110
-4.90698766708374 -6.20664119720459 -0.1360645592212677 110
-3.42728328704834 -4.333470344543457 1.4691345691680908 114
-3.59985613822937 -4.550039768218994 1.3295795917510986 114
-3.782618999481201 -4.779328346252441 1.1762343645095825 114
-3.9813807010650635 -5.028659820556641 1.0086716413497925 114
-2.057361125946045 -2.5976061820983887 0.40216881036758423 117
-2.065291404724121 -2.6066842079162598 0.28761395812034607 117
-2.0645341873168945 -2.6047942638397217 0.1721852868795395 117
-2.0208895206451416 -2.548814296722412 0.056109484285116196 117
-1.216328740119934 -1.5313282012939453 -0.5137560367584229 119
-1.3876560926437378 -1.7463990449905396 -0.5061401724815369 119
-1.6547160148620605 -2.081754446029663 -0.5090028643608093 119
-2.0216312408447266 -2.542449712753296 -0.5084124207496643 119
-2.0782437324523926 -2.61271071434021 -0.4052160084247589 119
-2.1048617362976074 -2.64522647857666 -0.29240795969963074 117
-2.0575649738311768 -2.5848615169525146 -0.17056909203529358 117
-2.0760557651519775 -2.607156991958618 -0.056931138038635254 117
-3.4484081268310547 -4.329036712646484 1.4717210531234741 114
-3.618752956390381 -4.541256427764893 1.3307034969329834 114
-3.8023383617401123 -4.769933223724365 1.1771875619888306 114
-4.005067348480225 -5.022453308105469 1.0102342367172241 114
-2.0540366172790527 -2.574890375137329 0.39973142743110657 117
-2.0588436126708984 -2.5799925327301025 0.2854350507259369 117
-2.0549232959747314 -2.5741584300994873 0.17061521112918854 117
-2.064089775085449 -2.5847156047821045 0.05706936493515968 117
-1.221666693687439 -1.5270730257034302 -0.5137560367584229 119
-1.3967876434326172 -1.7453482151031494 -0.5072649121284485 119
-1.6619726419448853 -2.0759658813476562 -0.5090028643608093 119
-2.024319648742676 -2.5276682376861572 -0.5068480968475342 119
nan nan nan 0
nan nan nan 0
-2.0572054386138916 -2.56597638130188 -0.16978666186332703 117
-2.0569941997528076 -2.5647952556610107 -0.05615362897515297 117
-3.466520309448242 -4.320740222930908 1.473014235496521 114
-3.6406822204589844 -4.536196231842041 1.3329511880874634 114
-3.825110912322998 -4.764286518096924 1.1790939569473267 114
-4.028759956359863 -5.016143798828125 1.0117968320846558 114
-2.0474703311920166 -2.54836106300354 0.3966846764087677 117
-2.0553553104400635 -2.557260751724243 0.283691942691803 117
-2.048252582550049 -2.5475127696990967 0.16930681467056274 117
-2.0730998516082764 -2.5774950981140137 0.05706936493515968 117
-1.2269896268844604 -1.5227993726730347 -0.5137560367584229 119
-1.4028714895248413 -1.7404619455337524 -0.5072649121284485 119
-1.6661282777786255 -2.066331148147583 -0.508049726486206 119
-2.020728349685669 -2.505211114883423 -0.5037193894386292 119
-2.5825932025909424 -3.200643301010132 -0.5002742409706116 116
nan nan nan 0
-2.0849711894989014 -2.5820887088775635 -0.17135150730609894 117
-4.858623504638672 -6.014911651611328 -0.13295450806617737 110
-3.487652540206909 -4.316126823425293 1.4756008386611938 114
-3.6595566272735596 -4.527248859405518 1.3340752124786377 114
-3.844804525375366 -4.7547221183776855 1.1800471544265747 114
-4.052456855773926 -5.009729385375977 1.0133594274520874 114
-2.0438663959503174 -2.5257670879364014 0.39424729347229004 117
-2.0517334938049316 -2.5345845222473145 0.28194883465766907 117
-2.0445632934570312 -2.5248258113861084 0.1682600975036621 117
-4.8481221199035645 -5.984796524047852 0.13377268612384796 110
-1.2292543649673462 -1.514756679534912 -0.5124619007110596 119
-1.4120091199874878 -1.7393368482589722 -0.5083897113800049 119
-1.6733309030532837 -2.060502529144287 -0.508049726486206 119
-2.023233413696289 -2.490476131439209 -0.502155065536499 119
-2.5968799591064453 -3.195460319519043 -0.5008835792541504 116
-2.5723342895507812 -3.164128303527832 -0.3534170687198639 115
-4.860056400299072 -5.976035118103027 -0.40034180879592896 110
-4.84488582611084 -5.955257892608643 -0.13200421631336212 110
-3.505746603012085 -4.307672500610352 1.4768941402435303 114
-3.6814897060394287 -4.522003650665283 1.3363229036331177 114
-3.867577075958252 -4.748883247375488 1.1819534301757812 114
-4.076158046722412 -5.003210544586182 1.0149221420288086 114
-2.036994218826294 -2.499382734298706 0.39120060205459595 117
-2.047978401184082 -2.511965036392212 0.28020569682121277 117
-2.0375850200653076 -2.498326539993286 0.16695168614387512 117
-4.8278985023498535 -5.91748046875 0.13263827562332153 110
-1.2345343828201294 -1.5104565620422363 -0.5124619007110596 119
-1.4242393970489502 -1.7419407367706299 -0.5106391906738281 119
-1.6805132627487183 -2.0546488761901855 -0.508049726486206 119
-2.035041570663452 -2.4872207641601562 -0.5029371976852417 119
-2.589158296585083 -3.1633336544036865 -0.4972274899482727 116
-2.5644302368164062 -3.1320064067840576 -0.3508024215698242 115
-4.852411270141602 -5.92426872253418 -0.3979945182800293 110
-4.833959102630615 -5.89963960647583 -0.1311403214931488 110
-3.5238230228424072 -4.2991437911987305 1.4781872034072876 114
-3.700340986251831 -4.512892723083496 1.3374468088150024 114
-3.8872432708740234 -4.739149570465088 1.1829066276550293 114
-4.099863052368164 -4.99658727645874 1.0164847373962402 114
-2.033111572265625 -2.4769132137298584 0.3887631595134735 117
-2.044090747833252 -2.4894027709960938 0.27846258878707886 117
-2.033616304397583 -2.4757654666900635 0.1659049689769745 117
-4.823134899139404 -5.869691848754883 0.13194018602371216 110
-1.2397993803024292 -1.5061380863189697 -0.5124619007110596 119
-1.4303112030029297 -1.736958622932434 -0.5106391906738281 119
-1.6876749992370605 -2.0487704277038574 -0.508049726486206 119
-2.0437111854553223 -2.480102062225342 -0.5029371976852417 119
-2.590714454650879 -3.1427884101867676 -0.49539944529533386 116
-2.562671422958374 -3.107664108276367 -0.3490593135356903 115
-4.838109970092773 -5.864924907684326 -0.3951256275177002 110
-4.822704315185547 -5.844171524047852 -0.13027642667293549 110
-3.5418832302093506 -4.290542125701904 1.479480504989624 114
-3.7191736698150635 -4.5037055015563965 1.3385708332061768 114
-3.9100139141082764 -4.733119010925293 1.1848130226135254 114
-4.123571395874023 -4.989859104156494 1.0180473327636719 114
-2.029097080230713 -2.4545013904571533 0.38632577657699585 117
-2.0400707721710205 -2.4668986797332764 0.27671948075294495 117
-2.029515027999878 -2.4532625675201416 0.16485825181007385 117
-4.805346488952637 -5.806602954864502 0.1308930367231369 110
-1.2419668436050415 -1.498083233833313 -0.5111678242683411 119
-1.4363657236099243 -1.7319554090499878 -0.5106391906738281 119
-1.6948162317276 -2.0428667068481445 -0.508049726486206 119
-2.0555098056793213 -2.476752996444702 -0.5037193894386292 119
-2.5889892578125 -3.118452787399292 -0.4929620623588562 116
-2.5703213214874268 -3.0948679447174072 -0.34862351417541504 115
-4.823453903198242 -5.8057541847229 -0.3922567367553711 110
-4.807925224304199 -5.785008907318115 -0.12932612001895905 110
-3.5599262714385986 -4.281866550445557 1.4807738065719604 114
-3.737987518310547 -4.494441986083984 1.3396947383880615 114
-3.932790756225586 -4.726988792419434 1.1867194175720215 114
-4.147282600402832 -4.983026504516602 1.0196099281311035 114
-2.0249509811401367 -2.432147741317749 0.3838883936405182 117
-2.035918712615967 -2.444453001022339 0.27497637271881104 117
-2.0252814292907715 -2.430818557739258 0.16381153464317322 117
-4.796779632568359 -5.7552313804626465 0.13010768592357635 110
-1.2469277381896973 -1.4939563274383545 -0.5111678242683411 119
-1.4355560541152954 -1.7199537754058838 -0.5083897113800049 119
-1.701225757598877 -2.037532329559326 -0.508049726486206 119
-2.0632805824279785 -2.470283269882202 -0.5037193894386292 119
-2.573317289352417 -3.0798373222351074 -0.4880872964859009 116
-2.5480875968933105 -3.0485599040985107 -0.3442656993865967 115
-4.8064374923706055 -5.7484354972839355 -0.389387845993042 110
-4.790794372558594 -5.727694511413574 -0.1283758282661438 110
-3.576460123062134 -4.2743659019470215 1.4820671081542969 114
-3.758342742919922 -4.490148067474365 1.3419424295425415 114
-3.950772523880005 -4.718373775482178 1.1876726150512695 114
-4.169259071350098 -4.977545261383057 1.0211726427078247 114
-2.023020029067993 -2.414362668991089 0.38206037878990173 117
-2.0307891368865967 -2.4227757453918457 0.2732332646846771 117
-2.0200753211975098 -2.409139633178711 0.16276481747627258 117
-4.779495716094971 -5.698001384735107 0.12914779782295227 110
-1.2580891847610474 -1.4972084760665894 -0.5137560367584229 119
-1.4384161233901978 -1.71120285987854 -0.5072649121284485 119
-1.711486577987671 -2.0353379249572754 -0.5090028643608093 119
-2.0750699043273926 -2.4668452739715576 -0.5045015811920166 119
-2.5776612758636475 -3.0632412433624268 -0.48686856031417847 116
-2.5458827018737793 -3.024404287338257 -0.34252259135246277 115
-4.803960800170898 -5.7048869132995605 -0.38756218552589417 110
-4.78499174118042 -5.680348873138428 -0.12768471240997314 110
-3.597583293914795 -4.269242286682129 1.4846535921096802 114
-3.7771337032318115 -4.480727195739746 1.3430664539337158 114
-3.9735467433929443 -4.7120585441589355 1.1895790100097656 114
-4.192977428436279 -4.970511436462402 1.0227352380752563 114
-2.0186331272125244 -2.3921151161193848 0.3796229958534241 117
-2.026381731033325 -2.4004476070404053 0.2714901566505432 117
-2.0155863761901855 -2.3868141174316406 0.16171810030937195 117
-4.770321369171143 -5.646912097930908 0.12836244702339172 110
-1.2666887044906616 -1.496273398399353 -0.5150501132011414 119
-1.4415301084518433 -1.7022016048431396 -0.5061401724815369 119
-1.7252802848815918 -2.036541700363159 -0.5109092593193054 119
-2.077711820602417 -2.451688289642334 -0.5029371976852417 119
nan nan nan 0
nan nan nan 0
nan nan nan 0
-4.773431301116943 -5.6246562004089355 -0.12682080268859863 110
-3.6163322925567627 -4.25970983505249 1.485946774482727 114
-3.799838066101074 -4.474279880523682 1.3453141450881958 114
-3.9971463680267334 -4.704944133758545 1.1914854049682617 114
-4.214365005493164 -4.958872318267822 1.0235165357589722 114
-2.014529228210449 -2.3695766925811768 0.3771856129169464 117
-2.0222585201263428 -2.3778271675109863 0.2697470188140869 117
-2.0113790035247803 -2.3641984462738037 0.1606713831424713 117
-4.758584976196289 -5.5913190841674805 0.1274898201227188 110
-1.2781707048416138 -1.4991930723190308 -0.5176383256912231 119
-1.4474629163742065 -1.6971594095230103 -0.5061401724815369 119
-1.7387501001358032 -2.0379748344421387 -0.5128157138824463 119
-2.0413737297058105 -2.391831874847412 -0.49198681116104126 119
nan nan nan 0
-2.0142946243286133 -2.358436346054077 -0.26800432801246643 117
nan nan nan 0
-4.763803005218506 -5.573756694793701 -0.12604328989982605 110
-3.6343183517456055 -4.250731468200684 1.4872400760650635 114
-3.8186001777648926 -4.464691638946533 1.3464380502700806 114
-4.019927501678467 -4.698421955108643 1.1933916807174683 114
-4.238071918487549 -4.951635837554932 1.0250791311264038 114
-2.0131053924560547 -2.3512208461761475 0.37535756826400757 117
-2.0208258628845215 -2.3594045639038086 0.2684396803379059 117
-2.006624460220337 -2.341996192932129 0.15962466597557068 117
-4.748793125152588 -5.5405120849609375 0.12670445442199707 110
-1.2928346395492554 -1.505715012550354 -0.5215205550193787 119
-1.4565526247024536 -1.6957920789718628 -0.5072649121284485 119
-1.7586485147476196 -2.0467844009399414 -0.5166284441947937 119
-2.0207390785217285 -2.350985527038574 -0.48494723439216614 119
-2.0277318954467773 -2.358288526535034 -0.3771860599517822 119
-2.0160183906555176 -2.3438379764556885 -0.2671327590942383 117
nan nan nan 0
nan nan nan 0
-3.652284860610962 -4.2416791915893555 1.4885332584381104 114
-3.8405208587646484 -4.4587178230285645 1.3486859798431396 114
-4.0427117347717285 -4.691798210144043 1.195298194885254 114
-4.261778831481934 -4.944293022155762 1.0266417264938354 114
-2.01157808303833 -2.332904100418091 0.37352949380874634 117
-2.012782573699951 -2.33347749710083 0.2662607729434967 117
-2.001739501953125 -2.3198561668395996 0.15857794880867004 117
-1.9522905349731445 -2.2617504596710205 0.051484595984220505 117
-1.2854468822479248 -1.4865801334381104 -0.5163442492485046 119
-1.462463140487671 -1.690697431564331 -0.5072649121284485 119
-1.7529354095458984 -2.0257863998413086 -0.5128157138824463 119
-2.0386295318603516 -2.355119228363037 -0.4872937798500061 117
-2.0489461421966553 -2.3662025928497314 -0.3796234428882599 117
-2.043755292892456 -2.3593757152557373 -0.26974743604660034 117
-2.0131516456604004 -2.3232266902923584 -0.15857186913490295 117
-2.019245147705078 -2.329437017440796 -0.05261162668466568 117
