# .PCD v0.7 - Point Cloud Data file format
VERSION 0.7
FIELDS x y z intensity
SIZE 4 4 4 4
TYPE F F F F
COUNT 1 1 1 1
WIDTH 792
HEIGHT 1
VIEWPOINT 0 0 0 1 0 0 0
POINTS 792
DATA ascii
-0.06504906713962555 2.093160390853882 -0.47464698553085327 119
-0.0647040605545044 2.0938291549682617 -0.3993861973285675 44
-0.06381642073392868 2.076846122741699 -0.32303744554519653 44
-0.0640634074807167 2.0968048572540283 -0.25287917256355286 44
-0.06317109614610672 2.0794897079467773 -0.1786695420742035 44
-0.06280867010354996 2.0795176029205322 -0.10667087882757187 44
-0.06206996366381645 2.0670151710510254 -0.035074420273303986 44
-0.06196289882063866 2.075524091720581 0.5457524061203003 44
-0.06155071780085564 2.073852300643921 0.4697922468185425 44
-0.06120144575834274 2.0742928981781006 0.3955731689929962 44
-0.061062972992658615 2.081925868988037 0.32346248626708984 44
-0.06026787310838699 2.0671284198760986 0.2492227852344513 44
-0.06041181832551956 2.08455491065979 0.17910505831241608 44
-0.05976074934005737 2.0745937824249268 0.10676534473896027 44
-0.059040557593107224 2.06209659576416 0.03534111753106117 44
-0.05627306178212166 2.0272762775421143 -0.5331674814224243 119
-0.057607848197221756 2.0885045528411865 -0.47352227568626404 119
-0.05726035684347153 2.0891358852386475 -0.39843297004699707 44
-0.05643204599618912 2.07211971282959 -0.3222552537918091 44
-0.0567438006401062 2.097015857696533 -0.25287917256355286 44
-0.05591193586587906 2.079697370529175 -0.1786695420742035 44
-0.05541609972715378 2.074733018875122 -0.10641007125377655 44
-0.05485435575246811 2.0672192573547363 -0.035074420273303986 44
-0.054717592895030975 2.075727701187134 0.5457524061203003 44
-0.05431124567985535 2.074054479598999 0.4697922468185425 44
-0.05383281037211418 2.069587230682373 0.3946199417114258 44
-0.05366777256131172 2.0771896839141846 0.322681188583374 44
-0.05305188149213791 2.067326068878174 0.2492227852344513 44
-0.05313499644398689 2.0847530364990234 0.17910505831241608 44
-0.05251869931817055 2.0747897624969482 0.10676534473896027 44
-0.051842134445905685 2.0622901916503906 0.03534111753106117 44
-0.04872758314013481 2.0081474781036377 -0.5279910564422607 119
-0.05031725764274597 2.0886929035186768 -0.47352227568626404 119
-0.04996756464242935 2.089322805404663 -0.39843297004699707 44
-0.04919865354895592 2.0723040103912354 -0.3222552537918091 44
-0.04942350462079048 2.097201108932495 -0.25287917256355286 44
-0.04865209758281708 2.0798799991607666 -0.1786695420742035 44
-0.04817359149456024 2.074913740158081 -0.10641007125377655 44
-0.04752290993928909 2.0624001026153564 -0.034988027065992355 44
-0.04736120253801346 2.071077585220337 0.5444592237472534 44
-0.04707111418247223 2.0742313861846924 0.4697922468185425 44
-0.046608272939920425 2.0697624683380127 0.3946199417114258 44
-0.04641670361161232 2.077364444732666 0.322681188583374 44
-0.04583524167537689 2.0674989223480225 0.2492227852344513 44
-0.04585753008723259 2.084925889968872 0.17910505831241608 44
-0.04516708105802536 2.0699679851531982 0.10650365799665451 44
-0.04453489929437637 2.0574605464935303 0.0352538600564003 44
-0.042118750512599945 2.0276198387145996 -0.5331674814224243 119
-0.042925719171762466 2.0839850902557373 -0.47239747643470764 119
-0.04257394000887871 2.0845773220062256 -0.3974798023700714 44
-0.04196466505527496 2.072463035583496 -0.3222552537918091 44
-0.04210260510444641 2.097360849380493 -0.25287917256355286 44
-0.04139166697859764 2.0800371170043945 -0.1786695420742035 44
-0.040832020342350006 2.0700767040252686 -0.10614925622940063 44
-0.04032350331544876 2.0625534057617188 -0.034988027065992355 44
-0.040131501853466034 2.071230411529541 0.5444592237472534 44
-0.03983040899038315 2.074383020401001 0.4697922468185425 44
-0.0393831692636013 2.0699126720428467 0.3946199417114258 44
-0.03916506469249725 2.0775136947631836 0.322681188583374 44
-0.03852537274360657 2.0626842975616455 0.24861344695091248 44
-0.038487352430820465 2.0800931453704834 0.178669273853302 44
-0.03794126957654953 2.070113182067871 0.10650365799665451 44
-0.037352751940488815 2.057603359222412 0.0352538600564003 44
-0.034790437668561935 2.0132675170898438 -0.5292851328849792 119
-0.03565099462866783 2.0841221809387207 -0.47239747643470764 119
-0.03529714420437813 2.0847132205963135 -0.3974798023700714 44
-0.03473016247153282 2.072597026824951 -0.3222552537918091 44
-0.03478119149804115 2.0974950790405273 -0.25287917256355286 44
-0.03404901176691055 2.075188636779785 -0.17823375761508942 44
-0.03360585495829582 2.070206642150879 -0.10614925622940063 44
-0.033123601227998734 2.0626816749572754 -0.034988027065992355 44
-0.03282460570335388 2.0665283203125 0.543165922164917 44
-0.03251269459724426 2.069638252258301 0.4686683714389801 44
-0.032081346958875656 2.0651297569274902 0.3936667740345001 44
-0.0318371020257473 2.072699785232544 0.3218998610973358 44
-0.03132502734661102 2.0628063678741455 0.24861344695091248 44
-0.03122623637318611 2.080214738845825 0.178669273853302 44
-0.03071499615907669 2.070233106613159 0.10650365799665451 44
-0.030096853151917458 2.052722454071045 0.03516659513115883 44
nan nan nan 0
-0.02830951288342476 2.079362630844116 -0.4712727665901184 119
-0.027953963726758957 2.079915761947632 -0.39652660489082336 44
-0.027495238929986954 2.0727055072784424 -0.3222552537918091 44
-0.02739439345896244 2.0926411151885986 -0.25226983428001404 44
-0.026805046945810318 2.0752947330474854 -0.17823375761508942 44
-0.02631566859781742 2.0653188228607178 -0.10588845610618591 44
-0.025923296809196472 2.0627846717834473 -0.034988027065992355 44
-0.025610875338315964 2.0666303634643555 0.543165922164917 44
-0.025288110598921776 2.0697391033172607 0.4686683714389801 44
-0.02487250231206417 2.0652291774749756 0.3936667740345001 44
-0.024601837620139122 2.072798252105713 0.3218998610973358 44
-0.024124298244714737 2.0629031658172607 0.24861344695091248 44
-0.023964742198586464 2.0803110599517822 0.178669273853302 44
-0.023488346487283707 2.0703275203704834 0.10650365799665451 44
-0.022931333631277084 2.0528149604797363 0.03516659513115883 44
nan nan nan 0
-0.021051010116934776 2.079448699951172 -0.4712727665901184 119
-0.02069353312253952 2.080000877380371 -0.39652660489082336 44
-0.020211711525917053 2.0678508281707764 -0.321473091840744 44
-0.020089544355869293 2.092724084854126 -0.25226983428001404 44
-0.01956075243651867 2.07537579536438 -0.17823375761508942 44
-0.019106199964880943 2.0653979778289795 -0.10588845610618591 44
-0.01872267760336399 2.0628626346588135 -0.034988027065992355 44
-0.018396832048892975 2.066707134246826 0.543165922164917 44
-0.018063217401504517 2.069814682006836 0.4686683714389801 44
-0.01766335777938366 2.065303325653076 0.3936667740345001 44
-0.01732489839196205 2.0679330825805664 0.32111856341362 44
-0.01688256487250328 2.058012008666992 0.24800409376621246 44
-0.016702955588698387 2.0803821086883545 0.178669273853302 44
-0.01622219756245613 2.065404176712036 0.10624198615550995 44
-0.015765530988574028 2.052882432937622 0.03516659513115883 44
nan nan nan 0
-0.0137922503054142 2.0795094966888428 -0.4712727665901184 119
-0.013432849198579788 2.0800602436065674 -0.39652660489082336 44
-0.012993442825973034 2.067908763885498 -0.321473091840744 44
-0.012784453108906746 2.0927813053131104 -0.25226983428001404 44
-0.012286663986742496 2.0704505443573 -0.17779798805713654 44
-0.011896499432623386 2.0654523372650146 -0.10588845610618591 44
-0.011493909172713757 2.0579161643981934 -0.03490164130926132 44
-0.011182567104697227 2.066758632659912 0.543165922164917 44
-0.010812594555318356 2.064992904663086 0.46754443645477295 44
-0.010429151356220245 2.0604441165924072 0.3927135765552521 44
-0.010106358677148819 2.067981004714966 0.32111856341362 44
-0.009698660112917423 2.058058261871338 0.24800409376621246 44
-0.00944096501916647 2.080427646636963 0.178669273853302 44
-0.009012492373585701 2.06544828414917 0.10624198615550995 44
-0.008578597567975521 2.0479259490966797 0.03507933393120766 44
-0.0066934609785676 2.0183868408203125 -0.5305792689323425 119
-0.006518017966300249 2.0746731758117676 -0.470147967338562 119
-0.006172001827508211 2.080094575881958 -0.39652660489082336 44
-0.005775014869868755 2.067941665649414 -0.321473091840744 44
-0.005479204934090376 2.09281325340271 -0.25226983428001404 44
-0.005059367511421442 2.0704808235168457 -0.17779798805713654 44
-0.004686653148382902 2.065481185913086 -0.10588845610618591 44
-0.004310370422899723 2.057943820953369 -0.03490164130926132 44
-0.003958892542868853 2.061955451965332 0.5418726801872253 44
-0.003604357596486807 2.0650181770324707 0.46754443645477295 44
-0.00323679530993104 2.0604679584503174 0.3927135765552521 44
-0.0028876974247395992 2.0680036544799805 0.32111856341362 44
-0.0025146366097033024 2.058079481124878 0.24800409376621246 44
-0.0021736430935561657 2.0754668712615967 0.17823348939418793 44
-0.0017983200959861279 2.060473918914795 0.1059802994132042 44
-0.0014299501199275255 2.047943353652954 0.03507933393120766 44
0.0003503794432617724 2.0087387561798096 -0.5279910564422607 119
0.0007239826372824609 2.074683427810669 -0.470147967338562 119
0.0010889205150306225 2.0801033973693848 -0.39652660489082336 44
0.001443483168259263 2.067949056625366 -0.321473091840744 44
0.0018261095974594355 2.0928196907043457 -0.25226983428001404 44
0.002167990431189537 2.070485830307007 -0.17779798805713654 44
0.002517149318009615 2.0604913234710693 -0.10562764108181 44
0.0028732202481478453 2.0579464435577393 -0.03490164130926132 44
0.003238699398934841 2.0619566440582275 0.5418726801872253 44
0.0035954201593995094 2.0601463317871094 0.46642056107521057 44
0.0039555998519063 2.060466766357422 0.3927135765552521 44
0.004330999683588743 2.0680010318756104 0.32111856341362 44
0.004658158402889967 2.0531134605407715 0.24739475548267365 44
0.00507110171020031 2.0754618644714355 0.17823348939418793 44
0.005394086707383394 2.0604677200317383 0.1059802994132042 44
0.005718715023249388 2.047935962677002 0.03507933393120766 44
0.00737988343462348 2.013554573059082 -0.5292851328849792 119
0.007947267964482307 2.069796323776245 -0.4690232574939728 119
0.008330126293003559 2.075178623199463 -0.3955734372138977 44
0.008641277439892292 2.062992811203003 -0.32069090008735657 44
0.00913140270859003 2.0928003787994385 -0.25226983428001404 44
0.00939532183110714 2.0704658031463623 -0.17779798805713654 44
0.009709591045975685 2.0604701042175293 -0.10562764108181 44
0.010056775994598866 2.0579237937927246 -0.03490164130926132 44
0.010436251759529114 2.0619328022003174 0.5418726801872253 44
0.010786650702357292 2.0601212978363037 0.46642056107521057 44
0.011147947981953621 2.0604403018951416 0.3927135765552521 44
0.011549643240869045 2.0679733753204346 0.32111856341362 44
0.01182483322918415 2.0530846118927 0.24739475548267365 44
0.012315784581005573 2.0754315853118896 0.17823348939418793 44
0.012586427852511406 2.060436248779297 0.1059802994132042 44
0.012867310084402561 2.047903537750244 0.03507933393120766 44
nan nan nan 0
0.015533397905528545 2.069753408432007 -0.4690232574939728 119
0.015935981646180153 2.075134038925171 -0.3955734372138977 44
0.016202466562390327 2.0629472732543945 -0.32069090008735657 44
0.01680183783173561 2.0927529335021973 -0.25226983428001404 44
0.016983894631266594 2.0704174041748047 -0.17779798805713654 44
0.017261527478694916 2.0604207515716553 -0.10562764108181 44
0.017599377781152725 2.057873010635376 -0.03490164130926132 44
0.017993543297052383 2.0618808269500732 0.5418726801872253 44
0.018337300047278404 2.060067892074585 0.46642056107521057 44
0.018655220046639442 2.0554776191711426 0.3917604088783264 44
0.019129067659378052 2.0679171085357666 0.32111856341362 44
0.019349684938788414 2.053027629852295 0.24739475548267365 44
0.019874727353453636 2.070391893386841 0.17779771983623505 44
0.020138218998908997 2.0603764057159424 0.1059802994132042 44
0.020373165607452393 2.047842502593994 0.03507933393120766 44
nan nan nan 0
0.02270452305674553 2.064815044403076 -0.4678984582424164 119
0.02317945472896099 2.075065851211548 -0.3955734372138977 44
0.02340339682996273 2.062878131866455 -0.32069090008735657 44
0.02404964156448841 2.087719202041626 -0.2516604959964752 44
0.024210896342992783 2.070345401763916 -0.17779798805713654 44
0.024453632533550262 2.06034779548645 -0.10562764108181 44
0.024782586842775345 2.0577991008758545 -0.03490164130926132 44
0.02513173036277294 2.0569756031036377 0.5405794382095337 44
0.025528166443109512 2.0599913597106934 0.46642056107521057 44
0.025830060243606567 2.0553998947143555 0.3917604088783264 44
0.026284407824277878 2.062899589538574 0.3203372359275818 44
0.02651597000658512 2.052947521209717 0.24739475548267365 44
0.02710162289440632 2.07030987739563 0.17779771983623505 44
0.02739638276398182 2.065286159515381 0.10624198615550995 44
0.02752801962196827 2.0477588176727295 0.03507933393120766 44
nan nan nan 0
0.029911935329437256 2.064723253250122 -0.4678984582424164 119
0.030422642827033997 2.07497239112854 -0.3955734372138977 44
0.03060404397547245 2.06278395652771 -0.32069090008735657 44
0.03133699670433998 2.08762264251709 -0.2516604959964752 44
0.031437601894140244 2.0702483654022217 -0.17779798805713654 44
0.03164543956518173 2.0602500438690186 -0.10562764108181 44
0.03196549415588379 2.0577001571655273 -0.03490164130926132 44
0.03231176361441612 2.056875467300415 0.5405794382095337 44
0.0327187217772007 2.059889554977417 0.46642056107521057 44
0.03300458937883377 2.055297374725342 0.3917604088783264 44
0.033485110849142075 2.0627951622009277 0.3203372359275818 44
0.03368193283677101 2.052842378616333 0.24739475548267365 44
0.03432818502187729 2.070202589035034 0.17779771983623505 44
0.03460540995001793 2.0651779174804688 0.10624198615550995 44
0.034669190645217896 2.0476503372192383 0.03507933393120766 44
nan nan nan 0
0.037118978798389435 2.064606189727783 -0.4678984582424164 119
0.037665463984012604 2.0748534202575684 -0.3955734372138977 44
0.037804316729307175 2.06266450881958 -0.32069090008735657 44
0.03862397000193596 2.08750057220459 -0.2516604959964752 44
0.03866392746567726 2.0701260566711426 -0.17779798805713654 44
0.03883685916662216 2.060127019882202 -0.10562764108181 44
0.03914801403880119 2.0575759410858154 -0.03490164130926132 44
0.039491403847932816 2.0567500591278076 0.5405794382095337 44
0.03990887850522995 2.059762954711914 0.46642056107521057 44
0.04008277505636215 2.050262212753296 0.39080721139907837 44
0.040588006377220154 2.057727813720703 0.3195559084415436 44
0.04084748774766922 2.0527124404907227 0.24739475548267365 44
0.04155433550477028 2.070070266723633 0.17779771983623505 44
0.041814014315605164 2.065044641494751 0.10624198615550995 44
0.04181661084294319 2.0475168228149414 0.03507933393120766 44
nan nan nan 0
0.04422099515795708 2.0595932006835938 -0.46677374839782715 119
0.0449078232049942 2.074709415435791 -0.3955734372138977 44
0.04489639401435852 2.0575826168060303 -0.3199087083339691 44
0.04591047018766403 2.087352991104126 -0.2516604959964752 44
0.045779380947351456 2.0649986267089844 -0.17736220359802246 44
0.046027809381484985 2.05997896194458 -0.10562764108181 44
0.04621751233935356 2.052428960800171 -0.03481524810194969 44
0.04667055979371071 2.0565996170043945 0.5405794382095337 44
0.0470985509455204 2.0596110820770264 0.46642056107521057 44
0.0472392812371254 2.05010986328125 0.39080721139907837 44
0.04777057468891144 2.0575735569000244 0.3195559084415436 44
0.048012539744377136 2.0525572299957275 0.24739475548267365 44
0.04877997562289238 2.0699126720428467 0.17779771983623505 44
0.04890359938144684 2.059894323348999 0.1059802994132042 44
0.0489635244011879 2.047358512878418 0.03507933393120766 44
nan nan nan 0
0.05141004920005798 2.0594263076782227 -0.46677374839782715 119
0.05202629044651985 2.0696332454681396 -0.39462023973464966 44
0.05207842215895653 2.057413339614868 -0.3199087083339691 44
0.053196411579847336 2.0871798992156982 -0.2516604959964752 44
0.052987292408943176 2.064826250076294 -0.17736220359802246 44
0.053089238703250885 2.054814338684082 -0.10536684095859528 44
0.0533815436065197 2.052255153656006 -0.03481524810194969 44
0.053722720593214035 2.051596164703369 0.539286196231842 44
0.05428764969110489 2.059434175491333 0.46642056107521057 44
0.054265011101961136 2.0450258255004883 0.38985398411750793 44
0.054952554404735565 2.057394504547119 0.3195559084415436 44
0.05504363030195236 2.0474159717559814 0.24678540229797363 44
0.056005023419857025 2.0697295665740967 0.17779771983623505 44
0.05609367787837982 2.05971097946167 0.1059802994132042 44
0.0559728667140007 2.042177677154541 0.034992072731256485 44
nan nan nan 0
0.05895787850022316 2.0592241287231445 -0.46677374839782715 119
0.05961152911186218 2.0694286823272705 -0.39462023973464966 44
0.05961887165904045 2.05720853805542 -0.3199087083339691 44
0.06084594875574112 2.0869710445404053 -0.2516604959964752 44
0.060408879071474075 2.0596394538879395 -0.17692643404006958 44
0.060620151460170746 2.0546059608459473 -0.10536684095859528 44
0.060754772275686264 2.047048807144165 -0.03472885861992836 44
0.061241839081048965 2.0513856410980225 0.539286196231842 44
0.06168925017118454 2.054351329803467 0.4652966260910034 44
0.06176004558801651 2.0448131561279297 0.38985398411750793 44
0.06234296038746834 2.0522429943084717 0.31877461075782776 44
0.06254741549491882 2.0472004413604736 0.24678540229797363 44
0.06343759596347809 2.0645315647125244 0.17736192047595978 44
0.06348829716444016 2.0545010566711426 0.10571862757205963 44
0.0634574443101883 2.0419585704803467 0.034992072731256485 44
nan nan nan 0
0.06614555418491364 2.0590057373046875 -0.46677374839782715 119
0.06683481484651566 2.0692079067230225 -0.39462023973464966 44
0.06679950654506683 2.056988000869751 -0.3199087083339691 44
0.06796853244304657 2.0817856788635254 -0.251051127910614 44
0.06743457913398743 2.0544373989105225 -0.1764906346797943 44
0.06779170036315918 2.054381847381592 -0.10536684095859528 44
0.06773417443037033 2.041827440261841 -0.03464246913790703 44
0.06840213388204575 2.051159381866455 0.539286196231842 44
0.06885990500450134 2.0541234016418457 0.4652966260910034 44
0.06889739632606506 2.0445852279663086 0.38985398411750793 44
0.06950625032186508 2.0520129203796387 0.31877461075782776 44
0.06952423602342606 2.0420098304748535 0.24617606401443481 44
0.07064376026391983 2.064297676086426 0.17736192047595978 44
0.07048780471086502 2.049276351928711 0.10545694082975388 44
0.07041878253221512 2.0367283821105957 0.03490481153130531 44
nan nan nan 0
0.0729730948805809 2.0587751865386963 -0.46677374839782715 119
0.07352147996425629 2.064069986343384 -0.393667072057724 44
0.07362035661935806 2.0567550659179688 -0.3199087083339691 44
0.07487159967422485 2.0815489292144775 -0.251051127910614 44
0.07424696534872055 2.0542025566101074 -0.1764906346797943 44
0.07442266494035721 2.0491557121276855 -0.10510602593421936 44
0.07450474798679352 2.0415916442871094 -0.03464246913790703 44
0.07502666115760803 2.0460944175720215 0.5379928946495056 44
0.07549185305833817 2.0490150451660156 0.46417275071144104 44
0.07549553364515305 2.039440393447876 0.3889008164405823 44
0.07631058990955353 2.0517711639404297 0.31877461075782776 44
0.0762953981757164 2.0417680740356445 0.24617606401443481 44
0.0773019790649414 2.059074640274048 0.1769261658191681 44
0.07728306204080582 2.0490312576293945 0.10545694082975388 44
0.07697645574808121 2.0314884185791016 0.03481755033135414 44
nan nan nan 0
0.07996954768896103 2.0536396503448486 -0.46564894914627075 119
0.08072597533464432 2.063800811767578 -0.393667072057724 44
0.08060544729232788 2.051551103591919 -0.31912657618522644 44
0.0821371078491211 2.08127498626709 -0.251051127910614 44
0.08121974021196365 2.0489540100097656 -0.17605488002300262 44
0.08157510310411453 2.0488831996917725 -0.10510602593421936 44
0.08143102377653122 2.0363240242004395 -0.034556079655885696 44
0.08216841518878937 2.0458202362060547 0.5379928946495056 44
0.0826437920331955 2.048738956451416 0.46417275071144104 44
0.08261404931545258 2.0391645431518555 0.3889008164405823 44
0.08347214013338089 2.051492214202881 0.31877461075782776 44
0.08321940898895264 2.0365307331085205 0.2455667108297348 44
0.08448901772499084 2.0587923526763916 0.1769261658191681 44
0.08443504571914673 2.0487492084503174 0.10545694082975388 44
0.0840672105550766 2.0312070846557617 0.03481755033135414 44
nan nan nan 0
0.08677922189235687 2.053363084793091 -0.46564894914627075 119
0.08756934106349945 2.06352162361145 -0.393667072057724 44
0.08740819245576859 2.0512726306915283 -0.31912657618522644 44
0.0888262689113617 2.076032876968384 -0.2504417896270752 44
0.08801386505365372 2.048673391342163 -0.17605488002300262 44
0.08815380930900574 2.0436131954193115 -0.10484521836042404 44
0.08818326890468597 2.0360426902770996 -0.034556079655885696 44
0.08895213901996613 2.045536518096924 0.5379928946495056 44
0.0892246887087822 2.043586254119873 0.4630488157272339 44
0.08937571197748184 2.03887939453125 0.3889008164405823 44
0.09027466922998428 2.051204204559326 0.31877461075782776 44
0.08997233211994171 2.036243438720703 0.2455667108297348 44
0.09131576120853424 2.0585007667541504 0.1769261658191681 44
0.09122847020626068 2.0484578609466553 0.10545694082975388 44
0.09057918190956116 2.025923013687134 0.03473028913140297 44
nan nan nan 0
0.09394627064466476 2.0530476570129395 -0.46564894914627075 119
0.0947718471288681 2.0632033348083496 -0.393667072057724 44
0.09434047341346741 2.0460219383239746 -0.318344384431839 44
0.09607243537902832 2.0757102966308594 -0.2504417896270752 44
0.09516453742980957 2.048353672027588 -0.17605488002300262 44
0.09528681635856628 2.043292999267578 -0.10484521836042404 44
0.09528985619544983 2.035722494125366 -0.034556079655885696 44
0.0960918515920639 2.045213460922241 0.5379928946495056 44
0.09635759145021439 2.043262481689453 0.4630488157272339 44
0.09649218618869781 2.0385549068450928 0.3889008164405823 44
0.0974341630935669 2.0508766174316406 0.31877461075782776 44
0.09707959741353989 2.035917043685913 0.2455667108297348 44
0.09826259315013885 2.053194046020508 0.17649036645889282 44
0.09813881665468216 2.043139696121216 0.10519526898860931 44
0.0976504236459732 2.025594472885132 0.03473028913140297 44
nan nan nan 0
0.10122990608215332 2.047823667526245 -0.4645242393016815 119
0.102090023458004 2.0579397678375244 -0.39271384477615356 44
0.10183887928724289 2.0456624031066895 -0.318344384431839 44
0.10343202203512192 2.070387363433838 -0.24983243644237518 44
0.10267148911952972 2.0479912757873535 -0.17605488002300262 44
0.1027752235531807 2.0429301261901855 -0.10484521836042404 44
0.1027505025267601 2.0353596210479736 -0.034556079655885696 44
0.1033429279923439 2.0400238037109375 0.5366997122764587 44
0.10384587198495865 2.042895555496216 0.4630488157272339 44
0.1039632111787796 2.0381875038146973 0.3889008164405823 44
0.10469790548086166 2.0455737113952637 0.31799328327178955 44
0.10454095155000687 2.0355477333068848 0.2455667108297348 44
0.1057872623205185 2.0528202056884766 0.17649036645889282 44
0.10562664270401001 2.0427663326263428 0.10519526898860931 44
0.10507393628358841 2.0252230167388916 0.03473028913140297 44
nan nan nan 0
0.10837752372026443 2.0474579334259033 -0.4645242393016815 119
0.10927294939756393 2.057570695877075 -0.39271384477615356 44
0.10897894948720932 2.0452942848205566 -0.318344384431839 44
0.11065839231014252 2.0700137615203857 -0.24983243644237518 44
0.10955291986465454 2.0426464080810547 -0.17561908066272736 44
0.10990575700998306 2.0425589084625244 -0.10484521836042404 44
0.10985460877418518 2.0349886417388916 -0.034556079655885696 44
0.11046331375837326 2.0396506786346436 0.5366997122764587 44
0.11097627878189087 2.042520523071289 0.4630488157272339 44
0.11107718199491501 2.0378122329711914 0.3889008164405823 44
0.11183764785528183 2.0451955795288086 0.31799328327178955 44
0.11164570599794388 2.035170316696167 0.2455667108297348 44
0.11267860978841782 2.0474650859832764 0.17605459690093994 44
0.11275658011436462 2.0423851013183594 0.10519526898860931 44
0.1121426448225975 2.02484393119812 0.03473028913140297 44
nan nan nan 0
0.1155238226056099 2.047067165374756 -0.4645242393016815 119
0.11645454913377762 2.0571768283843994 -0.39271384477615356 44
0.1161177009344101 2.0449016094207764 -0.318344384431839 44
0.11788341403007507 2.069614887237549 -0.24983243644237518 44
0.11668242514133453 2.0422515869140625 -0.17561908066272736 44
0.11674924194812775 2.037177562713623 -0.10458440333604813 44
0.11667046695947647 2.029601573944092 -0.034469690173864365 44
0.11758235096931458 2.039252758026123 0.5366997122764587 44
0.11810532957315445 2.042120933532715 0.4630488157272339 44
0.11790554225444794 2.0325119495391846 0.38794761896133423 44
0.11897604167461395 2.044792652130127 0.31799328327178955 44
0.11874909698963165 2.0347681045532227 0.2455667108297348 44
0.11982490867376328 2.0470592975616455 0.17605459690093994 44
0.11988515406847 2.0419790744781494 0.10519526898860931 44
0.11920998990535736 2.024440050125122 0.03473028913140297 44
nan nan nan 0
0.12266872078180313 2.0466513633728027 -0.4645242393016815 119
0.1236347183585167 2.056757926940918 -0.39271384477615356 44
0.12325503677129745 2.0444836616516113 -0.318344384431839 44
0.12510700523853302 2.069190740585327 -0.24983243644237518 44
0.12381049245595932 2.0418317317962646 -0.17561908066272736 44
0.12385960668325424 2.036757707595825 -0.10458440333604813 44
0.12375438958406448 2.029181957244873 -0.034469690173864365 44
0.12469995766878128 2.038829803466797 0.5366997122764587 44
0.12523293495178223 2.041696071624756 0.4630488157272339 44
0.12499961256980896 2.032088041305542 0.38794761896133423 44
0.12611296772956848 2.044365167617798 0.31799328327178955 44
0.12585103511810303 2.034341335296631 0.2455667108297348 44
0.12666133046150208 2.0416572093963623 0.17561881244182587 44
0.1270122528076172 2.041548013687134 0.10519526898860931 44
0.12627588212490082 2.0240116119384766 0.03473028913140297 44
nan nan nan 0
0.12950366735458374 2.041348695755005 -0.4633994400501251 119
0.1308133900165558 2.0563137531280518 -0.39271384477615356 44
0.13039085268974304 2.0440409183502197 -0.318344384431839 44
0.132329061627388 2.0687415599823 -0.24983243644237518 44
0.13093706965446472 2.0413873195648193 -0.17561908066272736 44
0.13096846640110016 2.0363128185272217 -0.10458440333604813 44
0.13083679974079132 2.028737783432007 -0.034469690173864365 44
0.1315043568611145 2.033562421798706 0.5354064106941223 44
0.13204379379749298 2.0363848209381104 0.4619249403476715 44
0.1320921629667282 2.031639337539673 0.38794761896133423 44
0.1329270899295807 2.0389842987060547 0.31721198558807373 44
0.13295145332813263 2.0338895320892334 0.2455667108297348 44
0.13378725945949554 2.0412025451660156 0.17561881244182587 44
0.1341378092765808 2.0410923957824707 0.10519526898860931 44
0.13334022462368011 2.0235586166381836 0.03473028913140297 44
nan nan nan 0
0.13662852346897125 2.040884017944336 -0.4633994400501251 119
0.13799047470092773 2.05584454536438 -0.39271384477615356 44
0.13719351589679718 2.0386462211608887 -0.3175622224807739 44
0.13921543955802917 2.0633156299591064 -0.24922306835651398 44
0.13806204497814178 2.0409176349639893 -0.17561908066272736 44
0.13807572424411774 2.0358433723449707 -0.10458440333604813 44
0.137917622923851 2.028268575668335 -0.034469690173864365 44
0.13860200345516205 2.033090829849243 0.5354064106941223 44
0.13915130496025085 2.0359115600585938 0.4619249403476715 44
0.13884755969047546 2.0262691974639893 0.38699445128440857 44
0.14004366099834442 2.0385076999664307 0.31721198558807373 44
0.1397092491388321 2.0284621715545654 0.24495737254619598 44
0.14091157913208008 2.0407230854034424 0.17561881244182587 44
0.14091689884662628 2.035630464553833 0.10493358224630356 44
0.14040295779705048 2.023080825805664 0.03473028913140297 44
nan nan nan 0
0.14375169575214386 2.0403947830200195 -0.4633994400501251 119
0.14482007920742035 2.050454616546631 -0.3917606770992279 44
0.1443088799715042 2.0381548404693604 -0.3175622224807739 44
0.14641690254211426 2.062817096710205 -0.24922306835651398 44
0.1448318213224411 2.0354549884796143 -0.17518331110477448 44
0.14482605457305908 2.0303685665130615 -0.1043236032128334 44
0.1449967622756958 2.0277748107910156 -0.034469690173864365 44
0.14569798111915588 2.032594680786133 0.5354064106941223 44
0.14625711739063263 2.0354135036468506 0.4619249403476715 44
0.14591972529888153 2.0257720947265625 0.38699445128440857 44
0.14715851843357086 2.038006544113159 0.31721198558807373 44
0.1467890590429306 2.0279622077941895 0.24495737254619598 44
0.1483946442604065 2.045186758041382 0.17605459690093994 44
0.14802172780036926 2.035126209259033 0.10493358224630356 44
0.14746396243572235 2.022578477859497 0.03473028913140297 44
nan nan nan 0
0.1508731245994568 2.0398805141448975 -0.4633994400501251 119
0.15197663009166718 2.049936532974243 -0.3917606770992279 44
0.15142250061035156 2.0376386642456055 -0.3175622224807739 44
0.15361657738685608 2.062293529510498 -0.24922306835651398 44
0.15193599462509155 2.0349371433258057 -0.17518331110477448 44
0.15191248059272766 2.029850721359253 -0.1043236032128334 44
0.15170016884803772 2.022271156311035 -0.03438330069184303 44
0.15279217064380646 2.032073736190796 0.5354064106941223 44
0.15336112678050995 2.0348904132843018 0.4619249403476715 44
0.15299008786678314 2.0252504348754883 0.38699445128440857 44
0.15427160263061523 2.037480592727661 0.31721198558807373 44
0.15349149703979492 2.022488832473755 0.24434801936149597 44
0.15553277730941772 2.044656276702881 0.17605459690093994 44
0.1551247388124466 2.034597158432007 0.10493358224630356 44
0.15414226055145264 2.017066478729248 0.0346430242061615 44
0.152946338057518 1.97868812084198 -0.5215205550193787 119
0.15799272060394287 2.039341449737549 -0.4633994400501251 119
0.15913130342960358 2.04939341545105 -0.3917606770992279 44
0.15853425860404968 2.037097692489624 -0.3175622224807739 44
0.16081438958644867 2.061744451522827 -0.24922306835651398 44
0.15903832018375397 2.0343945026397705 -0.17518331110477448 44
0.1589970588684082 2.0293080806732178 -0.1043236032128334 44
0.15875829756259918 2.0217292308807373 -0.03438330069184303 44
0.15950556099414825 2.0267131328582764 0.5341131687164307 44
0.16046328842639923 2.0343427658081055 0.4619249403476715 44
0.16005860269069672 2.0247039794921875 0.38699445128440857 44
0.16099272668361664 2.03200626373291 0.3164306581020355 44
0.16055035591125488 2.0219407081604004 0.24434801936149597 44
0.16266900300979614 2.0441009998321533 0.17605459690093994 44
0.1622258722782135 2.034043073654175 0.10493358224630356 44
0.1611821949481964 2.0165162086486816 0.0346430242061615 44
0.15907429158687592 1.968514323234558 -0.5189324021339417 119
0.16511037945747375 2.0387775897979736 -0.4633994400501251 119
0.16628405451774597 2.04882550239563 -0.3917606770992279 44
0.1652437299489975 2.031609535217285 -0.3167800307273865 44
0.16801024973392487 2.061170816421509 -0.24922306835651398 44
0.16613872349262238 2.0338268280029297 -0.17518331110477448 44
0.16607969999313354 2.028740644454956 -0.1043236032128334 44
0.16540570557117462 2.0161802768707275 -0.0342969074845314 44
0.16657914221286774 2.026144027709961 0.5341131687164307 44
0.16756349802017212 2.0337703227996826 0.4619249403476715 44
0.1671251654624939 2.0241329669952393 0.38699445128440857 44
0.1680847853422165 2.0314319133758545 0.3164306581020355 44
0.16760727763175964 2.0213680267333984 0.24434801936149597 44
0.16980326175689697 2.04352068901062 0.17605459690093994 44
0.16932500898838043 2.0334644317626953 0.10493358224630356 44
0.1682201623916626 2.0159413814544678 0.0346430242061615 44
0.16628819704055786 1.967918038368225 -0.5189324021339417 119
0.1725817769765854 2.038158655166626 -0.4633994400501251 119
0.1737922579050064 2.0482022762298584 -0.3917606770992279 44
0.172688826918602 2.0309903621673584 -0.3167800307273865 44
0.17556367814540863 2.0605409145355225 -0.24922306835651398 44
0.17316821217536926 2.0282411575317383 -0.1747475266456604 44
0.1730886548757553 2.0231432914733887 -0.10406279563903809 44
0.17279426753520966 2.0155603885650635 -0.0342969074845314 44
0.1740042120218277 2.025519847869873 0.5341131687164307 44
0.17501650750637054 2.033142328262329 0.4619249403476715 44
0.1745428591966629 2.0235068798065186 0.38699445128440857 44
0.17552922666072845 2.0308022499084473 0.3164306581020355 44
0.17501483857631683 2.020740032196045 0.24434801936149597 44
0.17729200422763824 2.042884588241577 0.17605459690093994 44
0.17677690088748932 2.032830238342285 0.10493358224630356 44
0.175607830286026 2.0153112411499023 0.0346430242061615 44
0.1731564998626709 1.9673255681991577 -0.5189324021339417 119
0.17926722764968872 2.03269100189209 -0.4622747302055359 119
0.18094076216220856 2.0475831031799316 -0.3917606770992279 44
0.17977726459503174 2.0303750038146973 -0.3167800307273865 44
0.18231669068336487 2.0549724102020264 -0.24861374497413635 44
0.18024703860282898 2.0276243686676025 -0.1747475266456604 44
0.18014967441558838 2.022526741027832 -0.10406279563903809 44
0.17982883751392365 2.0149450302124023 -0.0342969074845314 44
0.18064334988594055 2.0200893878936768 0.532819926738739 44
0.1821124404668808 2.0325191020965576 0.4619249403476715 44
0.18160516023635864 2.022885322570801 0.38699445128440857 44
0.1826169788837433 2.030177116394043 0.3164306581020355 44
0.18206746876239777 2.0201168060302734 0.24434801936149597 44
0.18397393822669983 2.03729248046875 0.17561881244182587 44
0.18387171626091003 2.032200813293457 0.10493358224630356 44
0.18219679594039917 2.009706497192383 0.03455576300621033 44
0.18046294152736664 1.9715187549591064 -0.5202265381813049 119
0.18636155128479004 2.032052755355835 -0.4622747302055359 119
0.18808706104755402 2.0469391345977783 -0.3917606770992279 44
0.1868634968996048 2.0297350883483887 -0.3167800307273865 44
0.18948876857757568 2.054323434829712 -0.24861374497413635 44
0.1873236745595932 2.0269827842712402 -0.1747475266456604 44
0.18720853328704834 2.021885633468628 -0.10406279563903809 44
0.18686121702194214 2.0143051147460938 -0.0342969074845314 44
0.18769367039203644 2.019446611404419 0.532819926738739 44
0.18920613825321198 2.0318710803985596 0.4619249403476715 44
0.1886652261018753 2.0222392082214355 0.38699445128440857 44
0.18970251083374023 2.029527425765991 0.3164306581020355 44
0.189117893576622 2.0194690227508545 0.24434801936149597 44
0.19108429551124573 2.036637783050537 0.17561881244182587 44
0.19096431136131287 2.0315465927124023 0.10493358224630356 44
0.18920423090457916 2.009058713912964 0.03455576300621033 44
0.18734371662139893 1.9708768129348755 -0.5202265381813049 119
0.1934535950422287 2.0313899517059326 -0.4622747302055359 119
0.1947648674249649 2.041383743286133 -0.39080747961997986 44
0.1939474493265152 2.0290706157684326 -0.3167800307273865 44
0.19665852189064026 2.053649663925171 -0.24861374497413635 44
0.19439801573753357 2.0263164043426514 -0.1747475266456604 44
0.19426508247852325 2.0212199687957764 -0.10406279563903809 44
0.19389131665229797 2.0136404037475586 -0.0342969074845314 44
0.19474171102046967 2.0187790393829346 0.532819926738739 44
0.1962975412607193 2.031198263168335 0.4619249403476715 44
0.1957230269908905 2.0215682983398438 0.38699445128440857 44
0.19678571820259094 2.028852939605713 0.3164306581020355 44
0.1961659938097 2.018796682357788 0.24434801936149597 44
0.1981923133134842 2.0359585285186768 0.17561881244182587 44
0.19805455207824707 2.030867576599121 0.10493358224630356 44
0.19670210778713226 2.013361930847168 0.0346430242061615 44
0.19387835264205933 1.9702447652816772 -0.5202265381813049 119
0.1998344361782074 2.0307719707489014 -0.4622747302055359 119
0.20117709040641785 2.040761709213257 -0.39080747961997986 44
0.2003210037946701 2.0284512042999268 -0.3167800307273865 44
0.2031092792749405 2.0530216693878174 -0.24861374497413635 44
0.20076291263103485 2.02569580078125 -0.1747475266456604 44
0.20061396062374115 2.020599603652954 -0.10406279563903809 44
0.2007111757993698 2.017996072769165 -0.03438330069184303 44
0.20108292996883392 2.0181572437286377 0.532819926738739 44
0.20267775654792786 2.030571460723877 0.4619249403476715 44
0.20207297801971436 2.0209434032440186 0.38699445128440857 44
0.20315857231616974 2.0282247066497803 0.3164306581020355 44
0.20250725746154785 2.0181703567504883 0.24434801936149597 44
0.20458748936653137 2.035325765609741 0.17561881244182587 44
0.20443373918533325 2.0302352905273438 0.10493358224630356 44
0.20302627980709076 2.0127339363098145 0.0346430242061615 44
0.200410857796669 1.9695910215377808 -0.5202265381813049 119
0.20642788708209991 2.0252153873443604 -0.4611499309539795 119
0.2082994431257248 2.0400471687316895 -0.39080747961997986 44
0.2074003964662552 2.0277395248413086 -0.3167800307273865 44
0.21027442812919617 2.052300214767456 -0.24861374497413635 44
0.20834125578403473 2.029937744140625 -0.17518331110477448 44
0.20766595005989075 2.0198869705200195 -0.10406279563903809 44
0.20775407552719116 2.0172832012176514 -0.03438330069184303 44
0.2086220234632492 2.022247552871704 0.5341131687164307 44
0.2097645401954651 2.0298516750335693 0.4619249403476715 44
0.20862075686454773 2.015343189239502 0.3860412538051605 44
0.21023716032505035 2.02750301361084 0.3164306581020355 44
0.20903803408145905 2.012515068054199 0.24373868107795715 44
0.21169084310531616 2.0345993041992188 0.17561881244182587 44
0.21151933073997498 2.0295093059539795 0.10493358224630356 44
0.2100508064031601 2.0120129585266113 0.0346430242061615 44
0.20762842893600464 1.9688433408737183 -0.5202265381813049 119
0.21384930610656738 2.024445056915283 -0.4611499309539795 119
0.21525871753692627 2.034388780593872 -0.3898542523384094 44
0.21431057155132294 2.02205491065979 -0.3159978687763214 44
0.21779505908489227 2.051515579223633 -0.24861374497413635 44
0.21577994525432587 2.029160499572754 -0.17518331110477448 44
0.2150678038597107 2.0191123485565186 -0.10406279563903809 44
0.21567675471305847 2.021479368209839 -0.034469690173864365 44
0.21603253483772278 2.0214693546295166 0.5341131687164307 44
0.21668431162834167 2.0242245197296143 0.46080103516578674 44
0.21600596606731415 2.0145649909973145 0.3860412538051605 44
0.21713955700397491 2.021808624267578 0.3156493902206421 44
0.21641287207603455 2.011735439300537 0.24373868107795715 44
0.21914659440517426 2.0338096618652344 0.17561881244182587 44
0.21842065453529358 2.023756265640259 0.104671910405159 44
0.21742379665374756 2.0112295150756836 0.0346430242061615 44
0.2139764279127121 1.963305115699768 -0.5189324021339417 119
0.22091463208198547 2.023686408996582 -0.4611499309539795 119
0.22235876321792603 2.0336251258850098 -0.3898542523384094 44
0.22136753797531128 2.021294593811035 -0.3159978687763214 44
0.22495485842227936 2.0507428646087646 -0.24861374497413635 44
0.22286172211170197 2.028394937515259 -0.17518331110477448 44
0.22211451828479767 2.0183491706848145 -0.10406279563903809 44
0.22218400239944458 2.015744924545288 -0.03438330069184303 44
0.22308745980262756 2.020702838897705 0.5341131687164307 44
0.22374886274337769 2.023455858230591 0.46080103516578674 44
0.22303679585456848 2.013798952102661 0.3860412538051605 44
0.224195659160614 2.02103853225708 0.3156493902206421 44
0.22343383729457855 2.01096773147583 0.24373868107795715 44
0.22624459862709045 2.0330324172973633 0.17561881244182587 44
0.22548355162143707 2.022981643676758 0.104671910405159 44
0.2244429588317871 2.01045823097229 0.0346430242061615 44
0.2208283245563507 1.9625462293624878 -0.5189324021339417 119
0.22797727584838867 2.022902727127075 -0.4611499309539795 119
0.2294560670852661 2.032836437225342 -0.3898542523384094 44
0.22842182219028473 2.0205094814300537 -0.3159978687763214 44
0.23211193084716797 2.049945116043091 -0.24861374497413635 44
0.22994078695774078 2.027604818344116 -0.17518331110477448 44
0.22915850579738617 2.017561674118042 -0.10406279563903809 44
0.22921891510486603 2.0149571895599365 -0.03438330069184303 44
0.23013967275619507 2.019911766052246 0.5341131687164307 44
0.23081067204475403 2.02266263961792 0.46080103516578674 44
0.22950758039951324 2.008131504058838 0.38508808612823486 44
0.23068739473819733 2.015336751937866 0.3148680627346039 44
0.2304520457983017 2.0101757049560547 0.24373868107795715 44
0.2333398163318634 2.0322301387786865 0.17561881244182587 44
0.23197324573993683 2.017221689224243 0.10441023111343384 44
0.23088739812374115 2.0046961307525635 0.03455576300621033 44
0.22767753899097443 1.9617635011672974 -0.5189324021339417 119
0.23503711819648743 2.0220947265625 -0.4611499309539795 119
0.23655061423778534 2.0320231914520264 -0.3898542523384094 44
0.23547333478927612 2.019700050354004 -0.3159978687763214 44
0.23926615715026855 2.0491223335266113 -0.24861374497413635 44
0.23701703548431396 2.026789665222168 -0.17518331110477448 44
0.23619972169399261 2.016749382019043 -0.10406279563903809 44
0.2356686294078827 2.0091795921325684 -0.0342969074845314 44
0.23718906939029694 2.0190961360931396 0.5341131687164307 44
0.23730039596557617 2.017005681991577 0.4596771001815796 44
0.2365158647298813 2.0073182582855225 0.38508808612823486 44
0.23772083222866058 2.014519453048706 0.3148680627346039 44
0.23746748268604279 2.0093588829040527 0.24373868107795715 44
0.24043220281600952 2.0314033031463623 0.17561881244182587 44
0.23901325464248657 2.016399621963501 0.10441023111343384 44
0.23788368701934814 2.003878116607666 0.03455576300621033 44
0.2342918962240219 1.9561206102371216 -0.5176383256912231 119
0.2424468994140625 2.0212197303771973 -0.4611499309539795 119
0.2439967542886734 2.031142473220825 -0.3898542523384094 44
0.24228444695472717 2.013920307159424 -0.31521567702293396 44
0.24618130922317505 2.043304443359375 -0.24800437688827515 44
0.2438473254442215 2.0209619998931885 -0.1747475266456604 44
0.2429908961057663 2.0109128952026367 -0.10380198806524277 44
0.24303105473518372 2.0083022117614746 -0.0342969074845314 44
0.24400675296783447 2.013418674468994 0.532819926738739 44
0.24469150602817535 2.016122341156006 0.4596771001815796 44
0.24387146532535553 2.0064377784729004 0.38508808612823486 44
0.24510280787944794 2.013634443283081 0.3148680627346039 44
0.24423004686832428 2.0035488605499268 0.24312932789325714 44
0.24727247655391693 2.025564193725586 0.17518304288387299 44
0.24579621851444244 2.0105538368225098 0.10414855182170868 44
0.2452266663312912 2.002992630004883 0.03455576300621033 44
0.24111859500408173 1.9552909135818481 -0.5176383256912231 119
0.24950078129768372 2.0203609466552734 -0.4611499309539795 119
0.2510852813720703 2.030278444290161 -0.3898542523384094 44
0.2493128627538681 2.0130622386932373 -0.31521567702293396 44
0.25331225991249084 2.0424325466156006 -0.24800437688827515 44
0.2509002983570099 2.0200984477996826 -0.1747475266456604 44
0.25000882148742676 2.010052442550659 -0.10380198806524277 44
0.24942192435264587 2.0024805068969727 -0.03421051800251007 44
0.2510334253311157 2.012554407119751 0.532819926738739 44
0.25112372636795044 2.0104217529296875 0.4585532248020172 44
0.25087374448776245 2.0055742263793945 0.38508808612823486 44
0.2521302103996277 2.0127665996551514 0.3148680627346039 44
0.25122225284576416 2.0026841163635254 0.24312932789325714 44
0.2543415129184723 2.024688720703125 0.17518304288387299 44
0.25281286239624023 2.009683609008789 0.10414855182170868 44
0.25159206986427307 1.9971643686294556 0.03446849808096886 44
0.24794238805770874 1.954437255859375 -0.5176383256912231 119
0.2559376358985901 2.0146446228027344 -0.4600251615047455 119
0.2581707239151001 2.0293896198272705 -0.3898542523384094 44
0.2563382387161255 2.0121796131134033 -0.31521567702293396 44
0.2598121762275696 2.0366134643554688 -0.24739503860473633 44
0.25731906294822693 2.0142698287963867 -0.17431175708770752 44
0.2570236623287201 2.0091676712036133 -0.10380198806524277 44
0.2564103603363037 2.0015978813171387 -0.03421051800251007 44
0.2574424743652344 2.006875514984131 0.5315266847610474 44
0.25813984870910645 2.0095326900482178 0.4585532248020172 44
0.25787296891212463 2.0046863555908203 0.38508808612823486 44
0.2591545283794403 2.011874198913574 0.3148680627346039 44
0.2582114040851593 2.0017950534820557 0.24312932789325714 44
0.26140743494033813 2.0237884521484375 0.17518304288387299 44
0.2598264217376709 2.008788824081421 0.10414855182170868 44
0.2585619390010834 1.9962739944458008 0.03446849808096886 44
0.254763126373291 1.9535598754882812 -0.5176383256912231 119
0.262968510389328 2.0137391090393066 -0.4600251615047455 119
0.2652530372142792 2.0284759998321533 -0.3898542523384094 44
0.26336050033569336 2.011272668838501 -0.31521567702293396 44
0.26691970229148865 2.035694122314453 -0.24739503860473633 44
0.2643486261367798 2.013359308242798 -0.17431175708770752 44
0.26338455080986023 2.003307580947876 -0.10354118049144745 44
0.26274314522743225 1.9957340955734253 -0.03412412852048874 44
0.2644462287425995 2.005964517593384 0.5315266847610474 44
0.26515287160873413 2.008619546890259 0.4585532248020172 44
0.2648690938949585 2.0037741661071777 0.38508808612823486 44
0.2661757171154022 2.0109574794769287 0.3148680627346039 44
0.26519736647605896 2.0008814334869385 0.24312932789325714 44
0.2684701681137085 2.0228636264801025 0.17518304288387299 44
0.26683682203292847 2.0078697204589844 0.10414855182170868 44
0.26552867889404297 1.9953593015670776 0.03446849808096886 44
0.26158076524734497 1.9526586532592773 -0.5176383256912231 119
0.26999616622924805 2.0128087997436523 -0.4600251615047455 119
0.27233216166496277 2.0275378227233887 -0.3898542523384094 44
0.27037954330444336 2.010341167449951 -0.31521567702293396 44
0.27402397990226746 2.034749984741211 -0.24739503860473633 44
0.2713749408721924 2.0124242305755615 -0.17431175708770752 44
0.2703757584095001 2.002376079559326 -0.10354118049144745 44
0.2703777849674225 1.9997588396072388 -0.03421051800251007 44
0.27144670486450195 2.0050292015075684 0.5315266847610474 44
0.27216264605522156 2.0076818466186523 0.4585532248020172 44
0.2718619406223297 2.0028371810913086 0.38508808612823486 44
0.2731936573982239 2.0100159645080566 0.3148680627346039 44
0.2721801698207855 1.999943494796753 0.24312932789325714 44
0.2755296528339386 2.02191424369812 0.17518304288387299 44
0.2738439738750458 2.0069260597229004 0.10414855182170868 44
0.2731688916683197 1.9993735551834106 0.03455576300621033 44
0.26839521527290344 1.9517337083816528 -0.5176383256912231 119
0.27702054381370544 2.0118541717529297 -0.4600251615047455 119
0.27940791845321655 2.0265748500823975 -0.3898542523384094 44
0.2773953080177307 2.009384870529175 -0.31521567702293396 44
0.28112488985061646 2.033781051635742 -0.24739503860473633 44
0.27839794754981995 2.011464834213257 -0.17431175708770752 44
0.27736371755599976 2.001420021057129 -0.10354118049144745 44
0.2773565948009491 1.998802900314331 -0.03421051800251007 44
0.27844393253326416 2.0040695667266846 0.5315266847610474 44
0.27916911244392395 2.0067195892333984 0.4585532248020172 44
0.2788515090942383 2.00187611579895 0.38508808612823486 44
0.2802082598209381 2.009050130844116 0.3148680627346039 44
0.2784731984138489 1.9940662384033203 0.24251998960971832 44
0.2825857698917389 2.020940065383911 0.17518304288387299 44
0.28084778785705566 2.005957841873169 0.10414855182170868 44
0.28014636039733887 1.9984078407287598 0.03455576300621033 44
0.27520638704299927 1.9507849216461182 -0.5176383256912231 119
0.28404152393341064 2.0108747482299805 -0.4600251615047455 119
0.2864803075790405 2.0255870819091797 -0.3898542523384094 44
0.28440767526626587 2.008404493331909 -0.31521567702293396 44
0.28822243213653564 2.032787322998047 -0.24739503860473633 44
0.2854175865650177 2.0104806423187256 -0.17431175708770752 44
0.2843482792377472 2.0004396438598633 -0.10354118049144745 44
0.2843320369720459 1.997822642326355 -0.03421051800251007 44
0.2854377329349518 2.0030853748321533 0.5315266847610474 44
