# .PCD v0.7 - Point Cloud Data file format
VERSION 0.7
FIELDS x y z intensity
SIZE 4 4 4 4
TYPE F F F F
COUNT 1 1 1 1
WIDTH 797
HEIGHT 1
VIEWPOINT 0 0 0 1 0 0 0
POINTS 797
DATA ascii
-2.155489206314087 -3.029707193374634 -0.19221623241901398 115
-2.3267393112182617 -3.2692043781280518 -0.06868020445108414 117
-3.1820266246795654 -4.469282150268555 1.458788514137268 114
-3.331953525543213 -4.6781325340271 1.3160927295684814 114
-2.3064301013946533 -3.2370800971984863 0.7644569873809814 117
-2.2866909503936768 -3.20819091796875 0.6172351241111755 117
-3.761960983276367 -5.276022911071777 0.7909319996833801 114
-4.9885759353637695 -6.9937262535095215 0.7482320666313171 111
-4.9903364181518555 -6.993612766265869 0.4482574462890625 111
-4.9860005378723145 -6.984957695007324 0.14913080632686615 111
-1.126336693763733 -1.5749921798706055 -0.5085796117782593 119
-1.2779977321624756 -1.7864055633544922 -0.49826687574386597 119
-1.5362261533737183 -2.1465694904327393 -0.5051901340484619 119
-1.887998342514038 -2.6371285915374756 -0.5076302289962769 119
-2.036339282989502 -2.84328031539917 -0.424715131521225 115
-2.1718826293945312 -3.0314178466796875 -0.3229125142097473 115
-2.1689603328704834 -3.0262229442596436 -0.1924770325422287 115
-2.33522367477417 -3.256999969482422 -0.0685938149690628 117
-3.200423002243042 -4.462072372436523 1.4600818157196045 114
-3.3511030673980713 -4.670431137084961 1.3172165155410767 114
-2.3034050464630127 -3.2090721130371094 0.759691059589386 117
-2.280592918395996 -3.1761202812194824 0.6125472784042358 117
-2.26613712310791 -3.1548256874084473 0.47224369645118713 117
-5.015864849090576 -6.980315208435059 0.74866783618927 111
-5.020546913146973 -6.984258651733398 0.4487808048725128 111
-5.019108772277832 -6.979686737060547 0.14939258992671967 111
-1.131827473640442 -1.571051001548767 -0.5085796117782593 119
-1.284225583076477 -1.7819335460662842 -0.49826687574386597 119
-1.540839433670044 -2.1372127532958984 -0.5042369961738586 119
-1.8971922397613525 -2.6305220127105713 -0.5076302289962769 119
-2.0491554737091064 -2.840179443359375 -0.4253244996070862 115
-2.188281297683716 -3.031895875930786 -0.32378408312797546 115
-2.182433605194092 -3.022681951522827 -0.19273784756660461 115
-2.331942558288574 -3.228565216064453 -0.06816186755895615 117
-3.2188079357147217 -4.4547882080078125 1.461375117301941 114
-3.370239734649658 -4.662653923034668 1.3183404207229614 114
-2.308840751647949 -3.1930572986602783 0.7577846646308899 117
-2.27140474319458 -3.140129804611206 0.6070781350135803 117
nan nan nan 0
nan nan nan 0
nan nan nan 0
-5.063971519470215 -6.990464210510254 0.15000343322753906 111
-1.1344678401947021 -1.5631818771362305 -0.5072855353355408 119
-1.2933002710342407 -1.7813825607299805 -0.4993916451931 119
-1.5482901334762573 -2.1318211555480957 -0.5042369961738586 119
-1.903460144996643 -2.6198885440826416 -0.5068480968475342 119
-2.06197452545166 -2.8370234966278076 -0.425933837890625 115
-2.201780319213867 -3.0282673835754395 -0.32421988248825073 115
-2.195908308029175 -3.019083261489868 -0.19299866259098053 115
nan nan nan 0
-3.237180471420288 -4.44743013381958 1.4626681804656982 114
-3.3893630504608154 -4.654799938201904 1.3194644451141357 114
nan nan nan 0
-2.2649013996124268 -3.108234167098999 0.6023902893066406 117
-2.2851831912994385 -3.1349174976348877 0.4716343283653259 117
nan nan nan 0
nan nan nan 0
-2.303481101989746 -3.1565463542938232 0.06754080951213837 117
-1.1399174928665161 -1.5592122077941895 -0.5072855353355408 119
-1.2995105981826782 -1.7768572568893433 -0.4993916451931 119
-1.5557222366333008 -2.126403570175171 -0.5042369961738586 119
-1.9125937223434448 -2.6132283210754395 -0.5068480968475342 119
-2.0747969150543213 -2.833812952041626 -0.4265431761741638 115
-2.215280532836914 -3.0245816707611084 -0.3246556520462036 115
-2.2093846797943115 -3.015427589416504 -0.19325947761535645 115
-2.2923614978790283 -3.1275317668914795 -0.06634767353534698 117
-3.2555413246154785 -4.439998626708984 1.4639614820480347 114
-3.4084718227386475 -4.646868705749512 1.3205883502960205 114
-2.336883544921875 -3.1847753524780273 0.759691059589386 117
-2.2611258029937744 -3.0804033279418945 0.5984837412834167 117
-2.2755508422851562 -3.098921060562134 0.4673689007759094 117
-2.3286073207855225 -3.1700150966644287 0.3407789468765259 117
-2.3111443519592285 -3.1450915336608887 0.20254014432430267 117
-2.314485549926758 -3.148486375808716 0.06754080951213837 117
-1.1453531980514526 -1.555223822593689 -0.5072855353355408 119
-1.3085945844650269 -1.776232361793518 -0.5005163550376892 119
-1.5631352663040161 -2.120960235595703 -0.5042369961738586 119
-1.9187732934951782 -2.6025612354278564 -0.5060659050941467 119
-2.0876219272613525 -2.830547332763672 -0.42715251445770264 115
-2.2287821769714355 -3.020838499069214 -0.3250914216041565 115
-2.225827217102051 -3.0157318115234375 -0.19378109276294708 117
nan nan nan 0
-3.2738895416259766 -4.432492256164551 1.465254783630371 114
-3.43046236038208 -4.642779350280762 1.3228360414505005 114
-3.6200177669525146 -4.897534370422363 1.1752811670303345 114
-2.260119915008545 -3.056607961654663 0.5953584909439087 117
-2.2715981006622314 -3.071009874343872 0.46432217955589294 117
-2.3515098094940186 -3.1778836250305176 0.3425220549106598 117
-2.322108507156372 -3.137004852294922 0.20254014432430267 117
-5.074419975280762 -6.852681636810303 0.14817091822624207 111
-1.1507749557495117 -1.5512162446975708 -0.5072855353355408 119
-1.3147867918014526 -1.7716537714004517 -0.5005163550376892 119
-1.5705293416976929 -2.1154909133911133 -0.5042369961738586 119
-1.9278463125228882 -2.5958476066589355 -0.5060659050941467 119
-2.1004490852355957 -2.8272266387939453 -0.42776188254356384 115
-2.2422845363616943 -3.017038106918335 -0.3255271911621094 117
-2.2393200397491455 -3.011950969696045 -0.194041907787323 117
-5.0977277755737305 -6.854094505310059 -0.14694972336292267 111
-3.292224884033203 -4.424912452697754 1.4665480852127075 114
-3.449556589126587 -4.634685039520264 1.3239600658416748 114
-3.6282975673675537 -4.873058319091797 1.1724216938018799 114
-2.256025552749634 -3.0288968086242676 0.59145188331604 117
-2.2734086513519287 -3.0511231422424316 0.4624941349029541 117
-5.101202964782715 -6.843789100646973 0.7434384822845459 111
-5.102873802185059 -6.843538284301758 0.44537898898124695 111
-5.104288101196289 -6.842942237854004 0.1483454555273056 111
-1.1561827659606934 -1.5471898317337036 -0.5072855353355408 119
-1.31804621219635 -1.7631516456604004 -0.4993916451931 119
-1.577904224395752 -2.1099960803985596 -0.5042369961738586 119
-1.936895728111267 -2.589102268218994 -0.5060659050941467 119
-2.11327862739563 -2.823850393295288 -0.42837122082710266 115
-2.2557873725891113 -3.0131802558898926 -0.32596299052238464 117
-2.2528128623962402 -3.008112668991089 -0.19430270791053772 117
-5.121621608734131 -6.836258411407471 -0.14694972336292267 111
-3.310546875 -4.417257785797119 1.4678412675857544 114
-3.4715590476989746 -4.6304121017456055 1.3262078762054443 114
-3.6511754989624023 -4.868216514587402 1.1743279695510864 114
-2.251765489578247 -3.001251697540283 0.5875453948974609 117
-2.2661709785461426 -3.0193541049957275 0.4588380455970764 117
-5.13104248046875 -6.833907604217529 0.7443100810050964 111
-5.1297287940979 -6.82967472076416 0.4456406235694885 111
-5.134149551391602 -6.8330769538879395 0.14851997792720795 111
-1.1615763902664185 -1.5431445837020874 -0.5072855353355408 119
-1.3241926431655884 -1.7585400342941284 -0.4993916451931 119
-1.5823066234588623 -2.1005547046661377 -0.5032837390899658 119
-1.945921540260315 -2.5823254585266113 -0.5060659050941467 119
-2.1290974617004395 -2.8243825435638428 -0.4295898973941803 115
-2.272289514541626 -3.0132415294647217 -0.3268345594406128 117
-2.2663066387176514 -3.0042166709899902 -0.19456352293491364 117
-5.145453453063965 -6.818338871002197 -0.14694972336292267 111
-3.3288559913635254 -4.409530162811279 1.4691345691680908 114
-3.4906370639801025 -4.622153282165527 1.3273316621780396 114
-3.6651875972747803 -4.85152530670166 1.1733747720718384 114
-2.2532951831817627 -2.981553316116333 0.5852014422416687 117
-2.261732339859009 -2.9916317462921143 0.45579132437705994 117
-5.157870292663574 -6.81992769241333 0.7447458505630493 111
-5.159563064575195 -6.8196916580200195 0.44616401195526123 111
-5.127799987792969 -6.7752509117126465 0.14764735102653503 110
-1.1669559478759766 -1.5390805006027222 -0.5072855353355408 119
-1.333267092704773 -1.7577884197235107 -0.5005163550376892 119
-1.5896292924880981 -2.0950186252593994 -0.5032837390899658 119
-1.9549236297607422 -2.575517177581787 -0.5060659050941467 119
-2.1419448852539062 -2.82088565826416 -0.4301992654800415 115
-2.2737553119659424 -2.993391990661621 -0.3255271911621094 117
-2.2767796516418457 -2.9962875843048096 -0.19456352293491364 117
-5.129892826080322 -6.74859619140625 -0.14582665264606476 110
-3.347151517868042 -4.40172815322876 1.4704277515411377 114
-3.5126497745513916 -4.617696285247803 1.3295795917510986 114
-3.688045024871826 -4.846513748168945 1.1752811670303345 114
-2.2337753772735596 -2.9343740940093994 0.577388346195221 117
-2.2541210651397705 -2.960028886795044 0.45213523507118225 117
nan nan nan 0
-5.147019386291504 -6.753983020782471 0.4430238604545593 110
-5.1120171546936035 -6.705625057220459 0.1465129405260086 110
-1.1723212003707886 -1.5349977016448975 -0.5072855353355408 119
-1.3393948078155518 -1.7531236410140991 -0.5005163550376892 119
-1.5939520597457886 -2.085557222366333 -0.5023306012153625 119
-1.9669016599655151 -2.572600841522217 -0.5068480968475342 119
-2.1547932624816895 -2.817333698272705 -0.4308086037635803 115
-2.2993240356445312 -3.005216360092163 -0.32770609855651855 117
-2.287224769592285 -2.9883220195770264 -0.19456352293491364 117
-5.123026371002197 -6.69095516204834 -0.14496274292469025 110
-3.3654329776763916 -4.393852233886719 1.4717210531234741 114
-3.531710386276245 -4.609273910522461 1.3307034969329834 114
-3.7079262733459473 -4.8375067710876465 1.1762343645095825 114
-2.2319846153259277 -2.9108824729919434 0.5742630958557129 117
-2.249337911605835 -2.9324541091918945 0.44908851385116577 117
nan nan nan 0
-5.137119770050049 -6.69240665435791 0.4401453733444214 110
-5.092767238616943 -6.632229804992676 0.145291268825531 110
-1.1806169748306274 -1.534724235534668 -0.5085796117782593 119
-1.3484774827957153 -1.7522988319396973 -0.5016411542892456 119
-1.601222276687622 -2.0799806118011475 -0.5023306012153625 119
-1.9758697748184204 -2.5657193660736084 -0.5068480968475342 119
-2.1676430702209473 -2.8137261867523193 -0.43141797184944153 115
-2.2733139991760254 -2.9498281478881836 -0.32247674465179443 115
-2.3006904125213623 -2.984273910522461 -0.19482432305812836 117
-5.100555896759033 -6.613650798797607 -0.14366689324378967 110
-3.383699655532837 -4.38590145111084 1.473014235496521 114
-3.5537314414978027 -4.6046319007873535 1.3329511880874634 114
-3.7277891635894775 -4.828418731689453 1.1771875619888306 114
-2.2330756187438965 -2.891347885131836 0.5719191431999207 117
-2.2413554191589355 -2.901021718978882 0.4454324245452881 117
-2.2561089992523193 -2.9190640449523926 0.3194257915019989 117
-5.11463737487793 -6.615181922912598 0.4362201988697052 110
-5.100594997406006 -6.594640254974365 0.14485497772693634 110
-1.185966968536377 -1.530593752861023 -0.5085796117782593 119
-1.3516011238098145 -1.7437303066253662 -0.5005163550376892 119
-1.6235111951828003 -2.0937726497650146 -0.507096529006958 119
-1.9817867279052734 -2.5549044609069824 -0.5060659050941467 119
-2.1804940700531006 -2.810063362121582 -0.43202728033065796 115
-2.2591631412506104 -2.910397529602051 -0.3189904987812042 117
nan nan nan 0
nan nan nan 0
-3.4019525051116943 -4.377877235412598 1.4743075370788574 114
-3.572772979736328 -4.596045017242432 1.3340752124786377 114
-3.747633934020996 -4.819252014160156 1.1781407594680786 114
nan nan nan 0
-2.2362289428710938 -2.8735973834991455 0.4423857033252716 117
-2.235687255859375 -2.8718669414520264 0.31506800651550293 117
nan nan nan 0
-2.232515811920166 -2.8657286167144775 0.06274139881134033 117
-1.1913025379180908 -1.526444673538208 -0.5085796117782593 119
-1.3546817302703857 -1.7351619005203247 -0.4993916451931 119
-1.6277889013290405 -2.0842247009277344 -0.50614333152771 119
-1.9906929731369019 -2.54797101020813 -0.5060659050941467 119
-2.193345785140991 -2.806345224380493 -0.43263664841651917 115
-2.2539687156677246 -2.882874011993408 -0.31681162118911743 117
nan nan nan 0
-2.2477612495422363 -2.8728671073913574 -0.06237372010946274 117
-3.4201903343200684 -4.369778633117676 1.4756008386611938 114
-3.5917980670928955 -4.5873823165893555 1.3351991176605225 114
-3.7674598693847656 -4.810004711151123 1.1790939569473267 114
-2.234930992126465 -2.852363348007202 0.567231297492981 117
-2.230938673019409 -2.8462445735931396 0.4393389821052551 117
-2.2334043979644775 -2.8483664989471436 0.313324898481369 117
-2.2639567852020264 -2.886293649673462 0.19024120271205902 117
-2.245591402053833 -2.861851453781128 0.0628286600112915 117
-1.1966235637664795 -1.5222768783569336 -0.5085796117782593 119
-1.3577187061309814 -1.7265926599502563 -0.49826687574386597 119
nan nan nan 0
-1.9995750188827515 -2.541006565093994 -0.5060659050941467 119
-2.20619797706604 -2.8025710582733154 -0.433245986700058 115
-5.062148571014404 -6.428225994110107 -0.7124993205070496 110
-5.08799409866333 -6.458725929260254 -0.42746594548225403 110
-2.2577757835388184 -2.8650035858154297 -0.06237372010946274 117
-3.438413143157959 -4.361606597900391 1.4768941402435303 114
-3.6138229370117188 -4.582467555999756 1.3374468088150024 114
-3.79030704498291 -4.804531574249268 1.1810002326965332 114
-2.250992774963379 -2.8522982597351074 0.5687938928604126 117
-2.225484609603882 -2.8189640045166016 0.43629223108291626 117
-2.237159252166748 -2.832735300064087 0.31245335936546326 117
-2.2925901412963867 -2.901881217956543 0.19181127846240997 117
-5.063979625701904 -6.407511234283447 0.1418880671262741 110
-1.204927921295166 -1.5218771696090698 -0.5098737478256226 119
-1.3637374639511108 -1.721842885017395 -0.49826687574386597 119
-1.6453477144241333 -2.0766570568084717 -0.507096529006958 119
-2.0053651332855225 -2.5301413536071777 -0.505283772945404 119
-2.2221338748931885 -2.802630662918091 -0.434464693069458 115
-5.044318199157715 -6.359784126281738 -0.7068341374397278 110
-5.079472064971924 -6.401811122894287 -0.42485785484313965 110
-5.0587544441223145 -6.373414993286133 -0.13995210826396942 110
-3.456620216369629 -4.353360176086426 1.4781872034072876 114
-3.632827043533325 -4.5736403465271 1.3385708332061768 114
-3.8101084232330322 -4.795114517211914 1.1819534301757812 114
nan nan nan 0
-2.219867467880249 -2.7917561531066895 0.4332454800605774 117
-2.23153018951416 -2.8054182529449463 0.3102744519710541 117
-5.072814464569092 -6.375118732452393 0.4249679446220398 110
-5.045839309692383 -6.338947296142578 0.1407536417245865 110
-1.2102328538894653 -1.5176619291305542 -0.5098737478256226 119
-1.3727777004241943 -1.7208807468414307 -0.4993916451931 119
-1.6464636325836182 -2.063227891921997 -0.5051901340484619 119
-2.0141847133636475 -2.5231258869171143 -0.505283772945404 119
-2.2350001335144043 -2.798734664916992 -0.4350740313529968 115
-5.029180526733398 -6.295437812805176 -0.7016048431396484 110
-5.061264514923096 -6.3333330154418945 -0.4214673638343811 110
-5.046633720397949 -6.312765598297119 -0.13900183141231537 110
-3.4748117923736572 -4.3450398445129395 1.479480504989624 114
-3.651813507080078 -4.5647358894348145 1.3396947383880615 114
-3.8329570293426514 -4.789450168609619 1.183859944343567 114
nan nan nan 0
-2.214087963104248 -2.764622688293457 0.4301987588405609 117
-2.228851795196533 -2.782062292098999 0.30853134393692017 117
-5.057565689086914 -6.310616970062256 0.4218277633190155 110
-5.030411243438721 -6.274490833282471 0.13970650732517242 110
-1.21552312374115 -1.5134282112121582 -0.5098737478256226 119
-1.3818275928497314 -1.7198761701583862 -0.5005163550376892 119
-1.6352062225341797 -2.0345137119293213 -0.4994710087776184 119
-2.026074171066284 -2.519928216934204 -0.5060659050941467 119
-2.24786639213562 -2.794783115386963 -0.43568336963653564 117
-5.016777992248535 -6.2351555824279785 -0.6968112587928772 110
-5.042640686035156 -6.2650604248046875 -0.4180768132209778 110
-5.040421009063721 -6.26006555557251 -0.13822431862354279 110
-3.4929873943328857 -4.336645603179932 1.4807738065719604 114
-3.670781373977661 -4.5557541847229 1.3408185243606567 114
-3.852731943130493 -4.779862880706787 1.1848130226135254 114
-4.072482109069824 -5.050689220428467 1.0203912258148193 114
-2.2019145488739014 -2.7298378944396973 0.4259333312511444 117
-2.222910165786743 -2.754883050918579 0.306352436542511 117
-5.041929244995117 -6.24630069732666 0.418687641620636 110
-5.014594078063965 -6.21021842956543 0.13865935802459717 110
-1.2177611589431763 -1.5054210424423218 -0.5085796117782593 119
-1.3878226280212402 -1.7150421142578125 -0.5005163550376892 119
-1.6484745740890503 -2.036423444747925 -0.5013774037361145 119
-2.034857988357544 -2.512840509414673 -0.5060659050941467 119
-2.2607321739196777 -2.790775775909424 -0.43629273772239685 117
-5.010288238525391 -6.182777404785156 -0.6928892135620117 110
-5.029891490936279 -6.204753398895264 -0.41520795226097107 110
-5.024456024169922 -6.19583797454834 -0.1371876299381256 110
-3.5111467838287354 -4.328176975250244 1.4820671081542969 114
-3.6928019523620605 -4.550479412078857 1.3430664539337158 114
-3.8755807876586914 -4.774006366729736 1.1867194175720215 114
-4.09320068359375 -5.040276527404785 1.0211726427078247 114
-2.189525842666626 -2.695172071456909 0.4216679334640503 117
-2.216806173324585 -2.7277796268463135 0.3041735589504242 117
nan nan nan 0
-5.004698753356934 -6.153890609741211 0.13778674602508545 110
-1.2199580669403076 -1.4974167346954346 -0.5072855353355408 119
-1.396878719329834 -1.7139638662338257 -0.5016411542892456 119
-1.6555728912353516 -2.030656576156616 -0.5013774037361145 119
-2.046738386154175 -2.509549617767334 -0.5068480968475342 119
-2.2704598903656006 -2.782867670059204 -0.43629273772239685 117
-5.000344753265381 -6.12666130065918 -0.6885313987731934 110
-5.0199408531188965 -6.148480415344238 -0.4125998318195343 110
-5.001780033111572 -6.124054431915283 -0.13597817718982697 110
-3.5323450565338135 -4.3233747482299805 1.4846535921096802 114
-3.71174693107605 -4.5413336753845215 1.3441903591156006 114
-3.89843487739563 -4.7680487632751465 1.1886258125305176 114
-4.110769748687744 -5.0259575843811035 1.0211726427078247 114
-2.1706366539001465 -2.652944564819336 0.41618379950523376 117
-2.2136950492858887 -2.7046070098876953 0.3024304211139679 117
nan nan nan 0
-4.991303443908691 -6.093841075897217 0.13682685792446136 110
-1.2251777648925781 -1.4931492805480957 -0.5072855353355408 119
-1.3997619152069092 -1.7053115367889404 -0.5005163550376892 119
nan nan nan 0
-2.055485963821411 -2.502389907836914 -0.5068480968475342 119
-2.2959136962890625 -2.7940967082977295 -0.4393394887447357 117
-2.6779773235321045 -3.257904291152954 -0.36561888456344604 115
-5.0096588134765625 -6.092352390289307 -0.4099917411804199 110
-4.997718811035156 -6.07567024230957 -0.13528704643249512 110
-3.5504841804504395 -4.314748287200928 1.485946774482727 114
-3.730672836303711 -4.532111167907715 1.3453141450881958 114
-3.921295166015625 -4.761990070343018 1.1905322074890137 114
-4.134568214416504 -5.019201755523682 1.0227352380752563 114
-2.167259931564331 -2.6300318241119385 0.4137464165687561 117
-2.2072808742523193 -2.6776459217071533 0.3002515435218811 117
nan nan nan 0
-4.980731964111328 -6.037816524505615 0.13595424592494965 110
-1.2273057699203491 -1.4851405620574951 -0.5059914588928223 119
-1.4057060480117798 -1.7004151344299316 -0.5005163550376892 119
nan nan nan 0
-2.05476450920105 -2.4837839603424072 -0.5045015811920166 119
-2.3024888038635254 -2.7822422981262207 -0.4387301206588745 117
-2.7147443294525146 -3.279231309890747 -0.36910516023635864 116
-4.999046325683594 -6.036371231079102 -0.40738368034362793 110
-4.983813285827637 -6.015840530395508 -0.13433675467967987 110
-3.5716872215270996 -4.309765338897705 1.4885332584381104 114
-3.7526891231536865 -4.526562690734863 1.3475620746612549 114
-3.944160223007202 -4.755828857421875 1.1924384832382202 114
-4.158369541168213 -5.012340068817139 1.024297833442688 114
-2.1764273643493652 -2.622450828552246 0.4137464165687561 117
-2.2007055282592773 -2.6507630348205566 0.2980726361274719 117
-2.2096786499023438 -2.66062593460083 0.17925064265727997 117
-4.969830513000488 -5.981940746307373 0.13508161902427673 110
-1.2355719804763794 -1.4845595359802246 -0.5072855353355408 119
-1.4116331338882446 -1.6954978704452515 -0.5005163550376892 119
-1.6861703395843506 -2.0245230197906494 -0.5042369961738586 119
-2.0570998191833496 -2.469008207321167 -0.5029371976852417 119
-2.2931222915649414 -2.751314640045166 -0.4350740313529968 117
-2.193493604660034 -2.630845069885254 -0.29632997512817383 117
-4.988104820251465 -5.980539321899414 -0.40477555990219116 110
-4.979160785675049 -5.967698574066162 -0.13364563882350922 110
-3.589804172515869 -4.3009796142578125 1.4898265600204468 114
-3.771589517593384 -4.517175674438477 1.3486859798431396 114
-3.9670300483703613 -4.749566555023193 1.1943448781967163 114
-4.182174205780029 -5.005374431610107 1.0258605480194092 114
-2.1792027950286865 -2.607221841812134 0.4125277101993561 117
-2.19716477394104 -2.627779960632324 0.296329528093338 117
-2.1901206970214844 -2.618426561355591 0.17689552903175354 117
-4.968225002288818 -5.937717914581299 0.13447079062461853 110
-1.2407464981079102 -1.4802374839782715 -0.5072855353355408 119
-1.4144127368927002 -1.6868270635604858 -0.4993916451931 119
-1.6648378372192383 -1.9847800731658936 -0.4956582486629486 119
-2.0625314712524414 -2.4580295085906982 -0.502155065536499 119
-2.2388994693756104 -2.667271137237549 -0.4228871166706085 117
-2.186648368835449 -2.604099750518799 -0.29415109753608704 117
-4.98325777053833 -5.932504653930664 -0.4026890993118286 110
-4.993529319763184 -5.942626953125 -0.13347285985946655 110
-3.607903480529785 -4.292120456695557 1.4911198616027832 114
-3.7936055660247803 -4.511440277099609 1.3509336709976196 114
-3.9899044036865234 -4.7432026863098145 1.196251392364502 114
-4.205979824066162 -4.998302459716797 1.0274230241775513 114
-2.191486358642578 -2.603395938873291 0.4131370484828949 117
-2.1902825832366943 -2.601044178009033 0.2941506505012512 117
-2.189596652984619 -2.599309206008911 0.17611049115657806 117
-2.141148567199707 -2.5408952236175537 0.0573311485350132 117
-1.249021291732788 -1.4795880317687988 -0.5085796117782593 119
-1.4202922582626343 -1.6818796396255493 -0.4993916451931 119
nan nan nan 0
-2.0647237300872803 -2.4432709217071533 -0.5005906820297241 119
-2.2353806495666504 -2.644279718399048 -0.42044970393180847 117
-2.2118067741394043 -2.6154675483703613 -0.29632997512817383 117
-2.1563568115234375 -2.5489957332611084 -0.1723947525024414 117
-2.1949141025543213 -2.5936551094055176 -0.05805421248078346 117
-3.62910532951355 -4.286872863769531 1.4937063455581665 114
-3.8156278133392334 -4.5056071281433105 1.3531816005706787 114
-4.012782096862793 -4.736736297607422 1.1981576681137085 114
-4.229787826538086 -4.99112606048584 1.0289857387542725 114
-2.181305408477783 -2.5730175971984863 0.4094809591770172 117
-2.1832401752471924 -2.5743887424468994 0.29197174310684204 117
-2.1566643714904785 -2.542152166366577 0.1727086454629898 117
-2.1952919960021973 -2.586768627166748 0.0585528202354908 117
-1.2539210319519043 -1.475437879562378 -0.5085796117782593 119
-1.4255690574645996 -1.677409291267395 -0.4993916451931 119
-1.681144118309021 -1.9774346351623535 -0.49661147594451904 119
-2.0691897869110107 -2.4330103397369385 -0.49980852007865906 119
nan nan nan 0
nan nan nan 0
-2.1675913333892822 -2.546010732650757 -0.17265556752681732 117
-2.1900854110717773 -2.5715229511260986 -0.05770865082740784 117
-3.6456871032714844 -4.2791266441345215 1.4949995279312134 114
-3.8329238891601562 -4.497305870056152 1.3543055057525635 114
-4.034012317657471 -4.731576919555664 1.2000640630722046 114
-4.251855850219727 -4.98532772064209 1.030548334121704 114
-2.1732726097106934 -2.5472750663757324 0.4064342677593231 117
-2.1751492023468018 -2.5485734939575195 0.28979283571243286 117
-2.161397933959961 -2.531566619873047 0.17244696617126465 117
-2.2066545486450195 -2.58366060256958 0.05864008143544197 117
-1.2588067054748535 -1.4712716341018677 -0.5085796117782593 119
-1.4314155578613281 -1.672423005104065 -0.4993916451931 119
-1.6944209337234497 -1.979011058807373 -0.49851784110069275 119
-2.0712451934814453 -2.418271541595459 -0.49824416637420654 119
-2.7016944885253906 -3.1532349586486816 -0.5051490068435669 116
-2.6958789825439453 -3.145336151123047 -0.3590822219848633 116
-2.208966016769409 -2.5763351917266846 -0.1752636432647705 117
-2.202303409576416 -2.567656993865967 -0.05779504403471947 117
-3.6637468338012695 -4.270040512084961 1.4962928295135498 114
-3.854945182800293 -4.491292953491211 1.3565531969070435 114
-4.056898593902588 -4.72491455078125 1.2019704580307007 114
-4.275668144226074 -4.9779486656188965 1.0321109294891357 114
-2.165980100631714 -2.520853042602539 0.40338751673698425 117
-2.1710453033447266 -2.5258560180664062 0.28804972767829895 117
-2.1604557037353516 -2.512648582458496 0.17166192829608917 117
-4.91493558883667 -5.71414041519165 0.1308930367231369 110
-1.2641907930374146 -1.466647982597351 -0.5085796117782593 119
-1.4375357627868652 -1.6671652793884277 -0.4993916451931 119
-1.6824275255203247 -1.9504872560501099 -0.49279871582984924 119
-2.0768682956695557 -2.4069244861602783 -0.4974619746208191 119
-2.7099905014038086 -3.139554500579834 -0.5045396685600281 116
-2.6911120414733887 -3.116584062576294 -0.3569033145904541 115
-4.93402099609375 -5.712086200714111 -0.3922567367553711 110
-4.921365737915039 -5.695425987243652 -0.12941251695156097 110
-3.68569016456604 -4.263891696929932 1.4988794326782227 114
-3.8745675086975098 -4.480819225311279 1.3576772212982178 114
-4.077400207519531 -4.713725566864014 1.2029236555099487 114
-4.300347328186035 -4.969712734222412 1.0336735248565674 114
-2.1589648723602295 -2.494136095046997 0.4003407657146454 117
-2.167245864868164 -2.502819776535034 0.28630661964416504 117
-2.1598424911499023 -2.4933907985687256 0.1708768904209137 117
-4.903107643127441 -5.65830659866333 0.13002042472362518 110
-1.2693026065826416 -1.4622262716293335 -0.5085796117782593 119
-1.4433465003967285 -1.6621372699737549 -0.4993916451931 119
-1.7085388898849487 -1.966835618019104 -0.49851784110069275 119
-2.0820181369781494 -2.395932674407959 -0.4966798424720764 119
-2.7111656665802 -3.118839740753174 -0.5027115941047668 116
-2.688900947570801 -3.092136859893799 -0.3551601767539978 115
-4.917881011962891 -5.653388023376465 -0.389387845993042 110
-4.905117034912109 -5.636728286743164 -0.12846222519874573 110
-3.7037222385406494 -4.254642963409424 1.50017249584198 114
-3.8965840339660645 -4.474615097045898 1.3599249124526978 114
-4.100276947021484 -4.7068657875061035 1.2048299312591553 114
-4.327402114868164 -4.965840816497803 1.0360174179077148 114
-2.154613494873047 -2.471621036529541 0.3979033827781677 117
-2.162874221801758 -2.4802234172821045 0.28456348180770874 117
-2.1586859226226807 -2.47454833984375 0.17009185254573822 117
-4.889957904815674 -5.603490352630615 0.12914779782295227 110
-1.274653434753418 -1.4575642347335815 -0.5085796117782593 119
-1.4494287967681885 -1.656835913658142 -0.4993916451931 119
-1.7092713117599487 -1.9531729221343994 -0.49661147594451904 119
-2.084280252456665 -2.3808541297912598 -0.4951154887676239 119
-2.709500312805176 -3.0939478874206543 -0.5002742409706116 116
-2.683804750442505 -3.0635275840759277 -0.3529812693595886 115
-4.908950328826904 -5.601528644561768 -0.38704055547714233 110
-4.896083354949951 -5.584879398345947 -0.12768471240997314 110
-3.725660800933838 -4.248301982879639 1.5027590990066528 114
-3.919384241104126 -4.467628479003906 1.3621728420257568 114
-4.120738983154297 -4.695495128631592 1.2057831287384033 114
-4.352090835571289 -4.957370281219482 1.037580132484436 114
-2.1505589485168457 -2.448791980743408 0.39546599984169006 117
-2.1588003635406494 -2.4573111534118652 0.28282037377357483 117
-2.1545567512512207 -2.451617479324341 0.16904513537883759 117
-4.874154090881348 -5.544229507446289 0.12818790972232819 110
-1.279733419418335 -1.4531060457229614 -0.5085796117782593 119
-1.4552034139633179 -1.6517664194107056 -0.4993916451931 119
-1.719323992729187 -1.9508765935897827 -0.4975646436214447 119
-2.092578172683716 -2.3735642433166504 -0.4951154887676239 119
-2.7005882263183594 -3.062138795852661 -0.4966181218624115 116
-2.684596538543701 -3.042935371398926 -0.35167396068573 115
-4.9053449630737305 -5.55815315246582 -0.3852148950099945 110
-4.882461071014404 -5.530278205871582 -0.12682080268859863 110
-3.743664264678955 -4.2388916015625 1.5040524005889893 114
-3.938181161880493 -4.457571029663086 1.3632967472076416 114
-4.143604755401611 -4.688438415527344 1.207689642906189 114
-4.37591028213501 -4.94954776763916 1.0391427278518677 114
-2.1459426879882812 -2.4264004230499268 0.3930286169052124 117
-2.157463550567627 -2.4385690689086914 0.2815130650997162 117
-2.149864435195923 -2.4291255474090576 0.16799841821193695 117
-4.866971492767334 -5.497232913970947 0.1274898201227188 110
-1.2847980260849 -1.4486299753189087 -0.5085796117782593 119
-1.4609602689743042 -1.6466766595840454 -0.4993916451931 119
-1.726123332977295 -1.9448633193969727 -0.4975646436214447 119
-2.1008505821228027 -2.3662452697753906 -0.4951154887676239 119
-2.70466947555542 -3.0452721118927 -0.49539944529533386 116
-2.662119150161743 -2.996309757232666 -0.347316175699234 115
-2.672428846359253 -3.00685715675354 -0.20812559127807617 115
-4.871840476989746 -5.479576110839844 -0.12604328989982605 110
-3.764857769012451 -4.233015537261963 1.5066388845443726 114
-3.9601938724517822 -4.451076984405518 1.3655444383621216 114
-4.1664719581604 -4.681278705596924 1.2095959186553955 114
-4.399728775024414 -4.941619873046875 1.0407053232192993 114
-2.1411964893341064 -2.404071092605591 0.39059123396873474 117
-2.156022071838379 -2.4198663234710693 0.28020569682121277 117
-2.1450414657592773 -2.406696319580078 0.16695168614387512 117
-4.856183052062988 -5.446631908416748 0.12670445442199707 110
-1.2898467779159546 -1.444136381149292 -0.5085796117782593 119
-1.4699451923370361 -1.6451997756958008 -0.5005163550376892 119
-1.7361727952957153 -1.9424859285354614 -0.49851784110069275 119
-2.112389087677002 -2.3625786304473877 -0.49589765071868896 119
-2.715282917022705 -3.0358128547668457 -0.49539944529533386 116
-2.669240713119507 -2.9832870960235596 -0.34688040614128113 115
-2.6729183197021484 -2.9863486289978027 -0.20734316110610962 115
-4.864259243011475 -5.432740688323975 -0.1253521740436554 110
-3.7828333377838135 -4.223445892333984 1.5079320669174194 114
-3.9822092056274414 -4.444483280181885 1.3677923679351807 114
-4.1893391609191895 -4.67401647567749 1.2115023136138916 114
-4.423545837402344 -4.933586120605469 1.0422680377960205 114
-2.139634370803833 -2.3854992389678955 0.3887631595134735 117
-2.1511499881744385 -2.397495985031128 0.27846258878707886 117
-2.1400883197784424 -2.3843302726745605 0.1659049689769745 117
-4.848446369171143 -5.399888515472412 0.1260063648223877 110
-1.2948799133300781 -1.4396251440048218 -0.5085796117782593 119
-1.4756790399551392 -1.6400587558746338 -0.5005163550376892 119
-1.746226191520691 -1.9400616884231567 -0.4994710087776184 119
-2.123927593231201 -2.358860969543457 -0.4966798424720764 119
nan nan nan 0
nan nan nan 0
-2.669954299926758 -2.9621644020080566 -0.20629991590976715 115
-4.856411933898926 -5.386025905609131 -0.12466105073690414 110
-3.8040223121643066 -4.217388153076172 1.5105185508728027 114
-4.0042266845703125 -4.437790393829346 1.3700400590896606 114
-4.208917617797852 -4.663007736206055 1.2124555110931396 114
-4.447359085083008 -4.925445556640625 1.0438306331634521 114
-2.1379687786102295 -2.3669674396514893 0.38693514466285706 117
-2.146148204803467 -2.3751895427703857 0.27671948075294495 117
-2.135005474090576 -2.3620285987854004 0.16485825181007385 117
-4.8370890617370605 -5.349558353424072 0.12522099912166595 110
-1.299897313117981 -1.4350963830947876 -0.5085796117782593 119
-1.4813950061798096 -1.6348975896835327 -0.5005163550376892 119
-1.7595802545547485 -1.9412277936935425 -0.5013774037361145 119
-2.1354658603668213 -2.355090856552124 -0.4974619746208191 119
-2.7630844116210938 -3.046189308166504 -0.5002742409706116 116
nan nan nan 0
-2.6634979248046875 -2.934340238571167 -0.20499587059020996 115
-4.844937324523926 -5.335731506347656 -0.12388354539871216 110
-3.8219683170318604 -4.2076592445373535 1.5118118524551392 114
-4.022969722747803 -4.427391529083252 1.371164083480835 114
-4.231771945953369 -4.655551910400391 1.2143619060516357 114
-4.471169948577881 -4.917199611663818 1.0453932285308838 114
-2.136199951171875 -2.3484766483306885 0.3851071000099182 117
-2.14436936378479 -2.356631278991699 0.2754121422767639 117
-2.129793167114258 -2.339791774749756 0.16381153464317322 117
-4.825440883636475 -5.299373626708984 0.12443564832210541 110
-1.3046491146087646 -1.430777907371521 -0.5085796117782593 119
-1.4868083000183105 -1.6299761533737183 -0.5005163550376892 119
-1.769316554069519 -1.9390078783035278 -0.5023306012153625 119
-2.143264055252075 -2.347996711730957 -0.4974619746208191 119
-2.147397518157959 -2.3517005443573 -0.38632622361183167 117
-2.1287336349487305 -2.330444097518921 -0.2727978825569153 117
nan nan nan 0
-4.842366695404053 -5.297495365142822 -0.12336520105600357 110
-3.842419147491455 -4.202090740203857 1.514398455619812 114
-4.044205665588379 -4.4212164878845215 1.373411774635315 114
-4.253813743591309 -4.648735046386719 1.2162681818008423 114
-4.4941205978393555 -4.909631252288818 1.0469558238983154 114
-2.1339216232299805 -2.330399751663208 0.38327908515930176 117
-2.138714551925659 -2.334815740585327 0.27366903424263 117
-2.124047040939331 -2.317991018295288 0.16276481747627258 117
-4.81934118270874 -5.2575459480285645 0.12382481247186661 110
-1.3096355199813843 -1.4262151718139648 -0.5085796117782593 119
-1.492488980293274 -1.6247763633728027 -0.5005163550376892 119
-1.7926791906356812 -1.9508906602859497 -0.507096529006958 119
-2.1547889709472656 -2.3441367149353027 -0.49824416637420654 117
-2.1555933952331543 -2.3441903591156006 -0.38632622361183167 117
-2.14359974861145 -2.3303308486938477 -0.27366945147514343 117
-2.135678768157959 -2.3209068775177 -0.16274482011795044 117
nan nan nan 0
-3.860335111618042 -4.192205429077148 1.5156915187835693 114
-4.062914848327637 -4.410655975341797 1.3745356798171997 114
-4.276667594909668 -4.641077518463135 1.218174695968628 114
-4.517925262451172 -4.9011759757995605 1.0485185384750366 114
-2.1319503784179688 -2.3119914531707764 0.3814510107040405 117
-2.1333425045013428 -2.3126912117004395 0.2719259262084961 117
-2.1185810565948486 -2.295884370803833 0.16171810030937195 117
-2.135098457336426 -2.312974214553833 0.054276980459690094 117
-1.314605951309204 -1.4216350317001343 -0.5085796117782593 119
-1.498151421546936 -1.6195566654205322 -0.5005163550376892 119
-1.7894773483276367 -1.9338135719299316 -0.5042369961738586 119
-2.1629583835601807 -2.3366007804870605 -0.49824416637420654 117
-2.1738786697387695 -2.3475756645202637 -0.3881542980670929 117
nan nan nan 0
-2.150554895401001 -2.3207626342773438 -0.16326643526554108 117
-2.1501405239105225 -2.3195035457611084 -0.05399387329816818 117
-3.8815133571624756 -4.185788154602051 1.5182781219482422 114
-4.08491325378418 -4.403591156005859 1.3767836093902588 114
-4.299519062042236 -4.6333160400390625 1.2200809717178345 114
-4.545085906982422 -4.896234035491943 1.050862431526184 114
-2.1298768520355225 -2.293625831604004 0.3796229958534241 117
-2.1278421878814697 -2.290632724761963 0.2701827883720398 117
-2.1163852214813232 -2.2775020599365234 0.16093306243419647 117
-2.129544258117676 -2.290861129760742 0.05392793193459511 117
-1.316269040107727 -1.4135030508041382 -0.5072855353355408 119
-1.507116436958313 -1.617882251739502 -0.5016411542892456 119
-1.7895243167877197 -1.9203736782073975 -0.5023306012153625 119
-2.1711015701293945 -2.3290364742279053 -0.49824416637420654 117
-4.822027683258057 -5.170992374420166 -0.8634452819824219 110
-2.5777273178100586 -2.7633070945739746 -0.3272702991962433 115
nan nan nan 0
-2.17869234085083 -2.3339104652404785 -0.05451221391558647 117
-3.902693748474121 -4.17927360534668 1.5208646059036255 114
-4.1069111824035645 -4.396425724029541 1.3790313005447388 114
-4.322368621826172 -4.625452995300293 1.2219873666763306 114
-4.568893909454346 -4.887554168701172 1.0524250268936157 114
-2.1277010440826416 -2.2753028869628906 0.37779495120048523 117
-2.125617027282715 -2.2722787857055664 0.26887547969818115 117
-2.110675573348999 -2.2555174827575684 0.15988633036613464 117
-2.130695104598999 -2.2761142253875732 0.053753409534692764 117
-1.3214409351348877 -1.408669114112854 -0.5072855353355408 119
-1.509702205657959 -1.6087946891784668 -0.5005163550376892 119
-1.7931914329528809 -1.910223126411438 -0.5013774037361145 119
-2.1762425899505615 -2.3174633979797363 -0.4974619746208191 117
-4.820560455322266 -5.1315813064575195 -0.8597891926765442 110
-2.632180690765381 -2.80102801322937 -0.3329354524612427 116
-2.5843443870544434 -2.749161720275879 -0.19508513808250427 115
-4.865400314331055 -5.173882961273193 -0.122069351375103 110
-3.9212944507598877 -4.168459415435791 1.5221577882766724 114
-4.129675388336182 -4.388439655303955 1.3812792301177979 114
-4.3460211753845215 -4.616726875305176 1.2238937616348267 114
-4.593548774719238 -4.877966403961182 1.0539876222610474 114
-2.1258177757263184 -2.2566521167755127 0.3759669065475464 117
-2.1202666759490967 -2.2499725818634033 0.26713234186172485 117
-2.1086533069610596 -2.2368664741516113 0.15910130739212036 117
-4.79028844833374 -5.079777717590332 0.12120695412158966 110
-1.3263500928878784 -1.404047966003418 -0.5072855353355408 119
-1.5153087377548218 -1.6035151481628418 -0.5005163550376892 119
-1.7964766025543213 -1.9003853797912598 -0.5004242062568665 119
-2.184318780899048 -2.3098526000976562 -0.4974619746208191 117
-2.686444044113159 -2.8398423194885254 -0.4752909541130066 116
-2.6282474994659424 -2.7773516178131104 -0.33119234442710876 116
-2.624818801879883 -2.772758722305298 -0.19743241369724274 115
-2.631894826889038 -2.779261827468872 -0.06548377126455307 115
-3.9424643516540527 -4.161758899688721 1.5247443914413452 114
-4.151670932769775 -4.381070613861084 1.3835269212722778 114
-4.368863582611084 -4.608652591705322 1.2258001565933228 114
-4.6207427978515625 -4.872653007507324 1.0563315153121948 114
-2.1200199127197266 -2.234816312789917 0.37352949380874634 117
-2.11782169342041 -2.2317185401916504 0.2658250033855438 117
-2.106135606765747 -2.218628406524658 0.1583162546157837 117
-4.777013301849365 -5.030394554138184 0.12042159587144852 110
-1.3309987783432007 -1.3996418714523315 -0.5072855353355408 119
-1.5203388929367065 -1.5987467765808105 -0.5005163550376892 119
-1.7990549802780151 -1.8911758661270142 -0.4994710087776184 119
-2.184755802154541 -2.2958240509033203 -0.49589765071868896 117
-2.705617904663086 -2.8421719074249268 -0.4771190285682678 116
-2.6335248947143555 -2.7654738426208496 -0.3307565450668335 116
-2.633516788482666 -2.7644991874694824 -0.19743241369724274 115
-2.6337156295776367 -2.7637417316436768 -0.0653109923005104 115
-3.9621846675872803 -4.156344413757324 1.5273308753967285 114
-4.1721391677856445 -4.375057697296143 1.385774850845337 114
-4.393484592437744 -4.6055588722229 1.2286596298217773 114
-4.642847061157227 -4.86525821685791 1.057894229888916 114
-2.113323211669922 -2.2137861251831055 0.3710921108722687 117
-2.114502429962158 -2.214247465133667 0.2645176649093628 117
-2.102748155593872 -2.20116925239563 0.1575312316417694 117
-4.768611431121826 -4.990067005157471 0.11981076002120972 110
-1.3356328010559082 -1.395220398902893 -0.5072855353355408 119
-1.5259102582931519 -1.5934300422668457 -0.5005163550376892 119
-1.8022502660751343 -1.8813401460647583 -0.49851784110069275 119
-2.1995902061462402 -2.2953150272369385 -0.4974619746208191 117
nan nan nan 0
-2.6362671852111816 -2.7490742206573486 -0.32988497614860535 116
-2.6189544200897217 -2.7300667762756348 -0.1956067532300949 115
-2.6295008659362793 -2.740103244781494 -0.06496542692184448 115
-3.9800140857696533 -4.145972728729248 1.528624176979065 114
-4.19413423538208 -4.367495536804199 1.388022541999817 114
-4.416335105895996 -4.5972747802734375 1.230566143989563 114
-4.670067310333252 -4.859704494476318 1.0602381229400635 114
-2.110719919204712 -2.1956627368927 0.3692640960216522 117
-2.111860990524292 -2.19608211517334 0.26321035623550415 117
-2.100033760070801 -2.18302059173584 0.15674617886543274 117
-4.7582688331604 -4.944573402404785 0.11911266297101974 110
-1.3407375812530518 -1.3903156518936157 -0.5072855353355408 119
-1.5317401885986328 -1.5878264904022217 -0.5005163550376892 119
-1.809133529663086 -1.8747220039367676 -0.49851784110069275 119
-2.1942684650421143 -2.2730257511138916 -0.49433329701423645 117
-4.773643493652344 -4.943253040313721 -0.8390713334083557 110
-2.6636288166046143 -2.75730562210083 -0.3320638835430145 116
-2.6185333728790283 -2.7096774578094482 -0.19482432305812836 115
-2.6256275177001953 -2.7160699367523193 -0.06461986899375916 115
-4.001897811889648 -4.138301849365234 1.5312106609344482 114
-4.216888904571533 -4.359097957611084 1.390270471572876 114
-4.439981460571289 -4.58811092376709 1.2324724197387695 114
-4.698152542114258 -4.8531999588012695 1.062582015991211 114
-2.1049437522888184 -2.1736514568328857 0.36682671308517456 117
-2.1094987392425537 -2.1775944232940674 0.26190298795700073 117
-2.0941216945648193 -2.160966157913208 0.1556994616985321 117
-4.752002239227295 -4.901974201202393 0.11850183457136154 110
-1.3455824851989746 -1.3856271505355835 -0.5072855353355408 119
-1.533879041671753 -1.578975796699524 -0.4993916451931 119
-1.8122457265853882 -1.864875316619873 -0.4975646436214447 119
-2.1953048706054688 -2.258270263671875 -0.49276894330978394 117
-4.763190746307373 -4.898097038269043 -0.8341965675354004 110
-2.6871299743652344 -2.7622718811035156 -0.3338070213794708 116
-2.6175291538238525 -2.6897852420806885 -0.194041907787323 115
-2.6176564693450928 -2.688977003097534 -0.0641879141330719 115
-4.02305793762207 -4.131227016448975 1.5337971448898315 114
-4.2388787269592285 -4.351330757141113 1.392518162727356 114
-4.4628214836120605 -4.579615592956543 1.2343788146972656 114
-4.725406646728516 -4.847379684448242 1.064926028251648 114
-2.098659038543701 -2.152078628540039 0.3643893301486969 117
-2.1031744480133057 -2.1559557914733887 0.2601598799228668 117
-2.0911900997161865 -2.1429224014282227 0.15491442382335663 117
-4.737654685974121 -4.853160858154297 0.1177164763212204 110
-1.350411057472229 -1.380921721458435 -0.5072855353355408 119
-1.5393811464309692 -1.5736119747161865 -0.4993916451931 119
-1.8153114318847656 -1.8550301790237427 -0.49661147594451904 119
-4.773419380187988 -4.876158237457275 -1.0747056007385254 110
-4.759426116943359 -4.860166549682617 -0.8305405378341675 110
-2.689784526824951 -2.7457590103149414 -0.3329354524612427 116
-2.616417646408081 -2.6699330806732178 -0.19325947761535645 115
-2.6095283031463623 -2.661973237991333 -0.06375596672296524 115
-4.044218063354492 -4.124056339263916 1.5363837480545044 114
-4.260865211486816 -4.343463897705078 1.394766092300415 114
-4.485655784606934 -4.571015357971191 1.2362852096557617 114
-4.7388386726379395 -4.827331066131592 1.0641447305679321 0
-2.09572696685791 -2.1341171264648438 0.36256128549575806 117
-2.1002156734466553 -2.137941360473633 0.2588525712490082 117
-2.088158369064331 -2.1249256134033203 0.15412938594818115 117
-4.726529598236084 -4.8080735206604 0.11701837927103043 110
-1.3518344163894653 -1.3727585077285767 -0.5059914588928223 119
-1.5448647737503052 -1.5682289600372314 -0.4993916451931 119
-1.8217756748199463 -1.8486822843551636 -0.49661147594451904 119
-2.1971495151519775 -2.2288217544555664 -0.4896402657032013 117
-4.74151611328125 -4.808187007904053 -0.8244470357894897 110
-4.731705188751221 -4.796563148498535 -0.5861232876777649 110
-2.6151998043060303 -2.6501216888427734 -0.1924770325422287 115
-2.6082682609558105 -2.6421749591827393 -0.06349679827690125 115
-4.065375804901123 -4.116786956787109 1.5389701128005981 114
-4.282848834991455 -4.335496425628662 1.397013783454895 114
-4.50848388671875 -4.562312602996826 1.2381916046142578 114
-4.7278852462768555 -4.782662868499756 1.057894229888916 0
-2.089205741882324 -2.1126739978790283 0.3601239025592804 117
-2.0971567630767822 -2.11997389793396 0.25754523277282715 117
-2.085026502609253 -2.106976270675659 0.15334433317184448 117
-4.72218132019043 -4.770227909088135 0.1164948046207428 110
-1.356618046760559 -1.3680312633514404 -0.5059914588928223 119
-1.550329566001892 -1.5628267526626587 -0.4993916451931 119
-1.82476007938385 -1.8388276100158691 -0.4956582486629486 119
-2.1875202655792236 -2.2036147117614746 -0.4857294261455536 117
-4.7372894287109375 -4.770478248596191 -0.8207909464836121 110
-4.716825485229492 -4.748213768005371 -0.5822012424468994 110
-2.610355854034424 -2.626809597015381 -0.19143380224704742 115
-2.613950729370117 -2.6295089721679688 -0.06341040134429932 115
-4.086533069610596 -4.109421253204346 1.541556715965271 114
-4.304828643798828 -4.327428340911865 1.3992615938186646 114
-4.531306743621826 -4.5535054206848145 1.2400978803634644 114
-4.716677665710449 -4.73813009262085 1.0516437292099 110
-2.086061954498291 -2.094818592071533 0.35829582810401917 117
-2.0939979553222656 -2.1020541191101074 0.25623786449432373 117
-2.0817952156066895 -2.0890748500823975 0.1525593101978302 117
nan nan nan 0
-1.3613852262496948 -1.3632874488830566 -0.5059914588928223 119
-1.5557752847671509 -1.5574055910110474 -0.4993916451931 119
-1.8415764570236206 -1.8428627252578735 -0.49851784110069275 119
-2.2336041927337646 -2.234384298324585 -0.49433329701423645 117
nan nan nan 0
-4.7051897048950195 -4.703547954559326 -0.5787150263786316 110
-2.6089136600494385 -2.607093334197998 -0.19065138697624207 115
nan nan nan 0
-4.107687950134277 -4.101956844329834 1.5441431999206543 114
-4.326803684234619 -4.319259166717529 1.401509404182434 114
-4.554121971130371 -4.5445942878723145 1.24200439453125 114
-4.708713054656982 -4.6972222328186035 1.0461745262145996 110
-2.0828194618225098 -2.0770113468170166 0.3564678132534027 117
-2.087212324142456 -2.0806655883789062 0.2544947564601898 117
-2.07492733001709 -2.067697286605835 0.15151259303092957 117
nan nan nan 0
-1.366135597229004 -1.3585270643234253 -0.5059914588928223 119
-1.5612021684646606 -1.5519654750823975 -0.4993916451931 119
-1.8619242906570435 -1.8502622842788696 -0.5023306012153625 119
-2.223872184753418 -2.209172010421753 -0.49042245745658875 117
-4.7211785316467285 -4.688333511352539 -0.812260091304779 110
-4.703904628753662 -4.669549465179443 -0.5765361189842224 110
-2.607365608215332 -2.587419271469116 -0.1898689568042755 115
nan nan nan 0
-4.125410556793213 -4.090993881225586 1.5454363822937012 114
-4.348774433135986 -4.3109893798828125 1.4037572145462036 114
-4.576930999755859 -4.535579681396484 1.2439106702804565 114
-4.700520992279053 -4.65642786026001 1.0407053232192993 110
-2.0830042362213135 -2.062744140625 0.3552491366863251 117
-2.0838429927825928 -2.062854766845703 0.2531874477863312 117
-2.0714848041534424 -2.049905300140381 0.1507275402545929 117
nan nan nan 0
-1.3708693981170654 -1.3537501096725464 -0.5059914588928223 119
-1.5666100978851318 -1.5465062856674194 -0.4993916451931 119
-1.8823460340499878 -1.8575420379638672 -0.50614333152771 119
