# .PCD v0.7 - Point Cloud Data file format
VERSION 0.7
FIELDS x y z intensity
SIZE 4 4 4 4
TYPE F F F F
COUNT 1 1 1 1
WIDTH 805
HEIGHT 1
VIEWPOINT 0 0 0 1 0 0 0
POINTS 805
DATA ascii
-5.933028221130371 -0.033137038350105286 1.144779086112976 15
-5.920009613037109 -0.03203106299042702 0.9305406212806702 15
-5.928930282592773 -0.031044503673911095 0.7232945561408997 15
-5.935647010803223 -0.03004368208348751 0.5159620046615601 15
-5.940079689025879 -0.029029352590441704 0.30930548906326294 15
-5.9272871017456055 -0.027925627306103706 0.10279466956853867 15
-1.916961431503296 -0.0073607745580375195 -0.5034032464027405 119
-2.186721086502075 -0.008014940656721592 -0.49601736664772034 119
-2.5905511379241943 -0.009042947553098202 -0.4956582486629486 119
-3.1395740509033203 -0.010411479510366917 -0.4912046194076538 119
-4.038190841674805 -0.012686675414443016 -0.49113398790359497 119
-5.502353191375732 -0.016326244920492172 -0.47804996371269226 119
-5.925201892852783 -0.016546742990612984 -0.30749380588531494 15
-5.917352199554443 -0.015492042526602745 -0.10159486532211304 15
-5.940314769744873 -0.014515372924506664 1.5803542137145996 15
-5.9382829666137695 -0.013473977334797382 1.3610488176345825 15
-5.933107852935791 -0.012426706030964851 1.144779086112976 15
-5.915146827697754 -0.011356695555150509 0.9297592639923096 15
-5.924039363861084 -0.010339825414121151 0.7226851582527161 15
-5.925753593444824 -0.00930857565253973 0.5150904655456543 15
-5.9401445388793945 -0.008294428698718548 0.30930548906326294 15
-5.917349338531494 -0.007229825481772423 0.10262013971805573 15
-1.916975498199463 -0.0006692853639833629 -0.5034032464027405 119
-2.19160795211792 -0.0003826616157311946 -0.49714213609695435 119
-2.590566873550415 -1.8190978323673335e-07 -0.4956582486629486 119
-3.1445295810699463 0.0005486031295731664 -0.49198681116104126 119
-4.038210391998291 0.0014093178324401379 -0.49113398790359497 119
-5.587053298950195 0.0029249817598611116 -0.48545822501182556 119
-5.920229911804199 0.004132685251533985 -0.3072330057621002 15
-5.9123711585998535 0.005159103311598301 -0.1015084832906723 15
-5.935499668121338 0.006215225905179977 1.5790610313415527 15
-5.923677444458008 0.0072367251850664616 1.3576772212982178 15
-5.9282073974609375 0.008276928216218948 1.1438260078430176 15
-5.910211563110352 0.009283331222832203 0.9289779663085938 15
-5.919076442718506 0.010330332443118095 0.7220758199691772 15
-5.930730819702148 0.011385783553123474 0.5155262351036072 15
-5.935143947601318 0.012430137023329735 0.3090437948703766 15
-5.91234016418457 0.013414282351732254 0.10253288596868515 15
-1.9217957258224487 0.006037384737282991 -0.504697322845459 119
-2.2013394832611084 0.007299790624529123 -0.4993916451931 119
-2.5905511379241943 0.009042584337294102 -0.4956582486629486 119
-3.1445083618164062 0.011525056324899197 -0.49198681116104126 119
-4.038180828094482 0.015505293384194374 -0.49113398790359497 119
-5.7115325927734375 0.022927282378077507 -0.4963527023792267 119
-5.92017936706543 0.024798117578029633 -0.3072330057621002 15
-5.907317638397217 0.025775283575057983 -0.10142209380865097 15
-5.925781726837158 0.026890112087130547 1.5764744281768799 15
-5.923616409301758 0.027914175763726234 1.3576772212982178 15
-5.918325424194336 0.02892220765352249 1.1419196128845215 15
-5.915081977844238 0.02993875928223133 0.9297592639923096 15
-5.914041996002197 0.030965719372034073 0.7214664816856384 15
-5.9206929206848145 0.032033927738666534 0.5146546363830566 15
-5.9200849533081055 0.033063922077417374 0.3082587718963623 15
-5.912257671356201 0.03405211865901947 0.10253288596868515 15
-1.9217630624771118 0.012745666317641735 -0.504697322845459 119
-2.1964287757873535 0.014950692653656006 -0.49826687574386597 119
-2.590503692626953 0.018085239455103874 -0.4956582486629486 119
-3.1395108699798584 0.022466029971837997 -0.4912046194076538 119
-4.043064594268799 0.02963745780289173 -0.4917433559894562 119
-5.766207218170166 0.04327530413866043 -0.5011463165283203 119
-5.910070419311523 0.04538656026124954 -0.3067113757133484 15
-5.90219259262085 0.04635624587535858 -0.10133569687604904 15
-5.925651550292969 0.047574788331985474 1.5764744281768799 15
-5.918611526489258 0.048551321029663086 1.3565531969070435 15
-5.913280010223389 0.0495397225022316 1.1409662961959839 15
-5.905064582824707 0.05050159618258476 0.9281967282295227 15
-5.91389799118042 0.05160938948392868 0.7214664816856384 15
-5.91556453704834 0.05265647917985916 0.5142189264297485 15
-5.9249267578125 0.05377398803830147 0.30852046608924866 15
-5.902103900909424 0.05459705367684364 0.10235835611820221 15
-1.9168773889541626 0.019404904916882515 -0.5034032464027405 119
-2.1963632106781006 0.02261756919324398 -0.49826687574386597 119
-2.5904247760772705 0.027127675712108612 -0.4956582486629486 119
-3.1295368671417236 0.033319681882858276 -0.4896402657032013 119
-4.04789924621582 0.04380390793085098 -0.492352694272995 119
-5.756059169769287 0.06329332292079926 -0.5002747178077698 119
-5.9148688316345215 0.06607204675674438 -0.3069721758365631 0
-5.901994228363037 0.0669584646821022 -0.10133569687604904 15
-5.920619964599609 0.06820324808359146 1.5751811265945435 15
-5.913533687591553 0.06915386021137238 1.3554292917251587 15
-5.9130706787109375 0.07018061727285385 1.1409662961959839 15
-5.904852390289307 0.07111381739377975 0.9281967282295227 15
-5.903757095336914 0.07213117182254791 0.7202478051185608 15
-5.910363674163818 0.07324360311031342 0.5137830972671509 15
-5.914717197418213 0.07433003187179565 0.30799707770347595 15
-5.901877403259277 0.07519890367984772 0.10235835611820221 15
-1.926456332206726 0.026227429509162903 -0.5059914588928223 119
-2.196270704269409 0.03028416819870472 -0.49826687574386597 119
-2.5903143882751465 0.03616977855563164 -0.4956582486629486 119
-3.1244637966156006 0.04417378827929497 -0.48885810375213623 119
-4.05764627456665 0.05807549133896828 -0.49357137084007263 119
-5.7757248878479 0.08367393910884857 -0.5020178556442261 119
-5.9046173095703125 0.08657199889421463 -0.30645057559013367 0
-5.896726131439209 0.08748570084571838 -0.10124930739402771 15
-5.9155168533325195 0.08879716694355011 1.5738880634307861 15
-5.9035139083862305 0.089647576212883 1.3531816005706787 15
-5.9078826904296875 0.09074528515338898 1.1400132179260254 15
-5.894692420959473 0.09157174080610275 0.9266340732574463 15
-5.908431053161621 0.09281663596630096 0.7208571434020996 15
-5.910072326660156 0.09387417882680893 0.5137830972671509 15
-5.914422035217285 0.0949757993221283 0.30799707770347595 0
-5.891582012176514 0.09563756734132767 0.10218383371829987 15
-1.907037377357483 0.03262144699692726 -0.5008150935173035 119
-2.2010231018066406 0.038034576922655106 -0.4993916451931 119
-2.580357551574707 0.04504012316465378 -0.4937518835067749 119
-3.1094772815704346 0.054818786680698395 -0.48651158809661865 119
-4.062380790710449 0.07232731580734253 -0.49418073892593384 119
-5.790338516235352 0.10410308837890625 -0.5033252239227295 119
-5.909271240234375 0.10727305710315704 -0.3067113757133484 11
-5.93637228012085 0.10880146920681 -0.10194043815135956 11
-5.910342216491699 0.10935627669095993 1.5725947618484497 15
-5.908036231994629 0.11034511774778366 1.3543055057525635 15
-5.9124369621276855 0.11145959049463272 1.1409662961959839 15
-5.9930901527404785 0.11402641981840134 0.9422602653503418 11
-5.8981475830078125 0.11324980109930038 0.7196384072303772 15
-5.949548721313477 0.11527553200721741 0.5172693133354187 11
-5.934022903442383 0.11601078510284424 0.3090437948703766 11
-6.006172180175781 0.11846998333930969 0.10419085621833801 11
-1.9310548305511475 0.039775338023900986 -0.5072855353355408 119
-2.1960058212280273 0.04561616852879524 -0.49826687574386597 119
-2.589998722076416 0.05425255745649338 -0.4956582486629486 119
-3.1240792274475098 0.06598540395498276 -0.48885810375213623 119
-4.07202672958374 0.08671855181455612 -0.49539944529533386 119
-5.819818496704102 0.12495603412389755 -0.5059398412704468 119
-5.998717308044434 0.12984459102153778 -0.3114059567451477 11
-6.160869598388672 0.13443021476268768 -0.10582799464464188 11
-6.001668930053711 0.13200443983078003 1.5971664190292358 11
-6.009902000427246 0.13323496282100677 1.377907395362854 11
-6.078853130340576 0.1358250379562378 1.1733747720718384 11
-6.18027400970459 0.13917039334774017 0.9719500541687012 11
-6.021752834320068 0.13665226101875305 0.7348721027374268 11
-6.178175449371338 0.14128082990646362 0.5373151898384094 11
-6.188164710998535 0.14258988201618195 0.32238948345184326 11
-6.2406229972839355 0.14488840103149414 0.10829217731952667 11
-1.9260761737823486 0.04639942944049835 -0.5059914588928223 119
-2.2153148651123047 0.05375409871339798 -0.5027658939361572 119
-2.5897936820983887 0.06329300999641418 -0.4956582486629486 119
-3.1337037086486816 0.07713311165571213 -0.49042245745658875 119
-4.0816216468811035 0.10117800533771515 -0.4966181218624115 119
-5.794449329376221 0.1446487009525299 -0.5037609338760376 119
-6.252800464630127 0.15718266367912292 -0.3247072100639343 11
-6.3102922439575195 0.1597299575805664 -0.10841970145702362 11
-6.194303035736084 0.15787577629089355 1.64889657497406 11
-6.233441352844238 0.15996195375919342 1.4296070337295532 11
-6.235354900360107 0.16110005974769592 1.2038768529891968 11
-6.342668533325195 0.16498041152954102 0.9977332949638367 11
-6.204797267913818 0.16247788071632385 0.7574179172515869 11
-6.327022075653076 0.16678348183631897 0.550388514995575 11
-6.322397232055664 0.167765811085701 0.32945483922958374 11
-6.385005950927734 0.17054232954978943 0.11082277446985245 11
nan nan nan 0
-2.1810240745544434 0.06054041162133217 -0.4948926270008087 119
-2.589556932449341 0.07233269512653351 -0.4956582486629486 119
-3.1383519172668457 0.08821006119251251 -0.4912046194076538 119
-4.091165065765381 0.11570551991462708 -0.4978368282318115 119
-5.788930416107178 0.16473256051540375 -0.5033252239227295 119
-6.391965389251709 0.1830092966556549 -0.33200985193252563 11
-6.469605922698975 0.1863623410463333 -0.11118418723344803 11
-6.324065685272217 0.18327461183071136 1.6838144063949585 11
-6.349724769592285 0.185127392411232 1.4565808773040771 11
-6.39175271987915 0.1874692738056183 1.2343788146972656 11
-6.504955768585205 0.1919258087873459 1.0235165357589722 11
-6.35300874710083 0.18855243921279907 0.7756983041763306 11
-6.47576379776001 0.1933269500732422 0.5634618401527405 11
-6.471499919891357 0.1943301558494568 0.3373052179813385 11
-6.539276599884033 0.19750776886940002 0.11352789402008057 11
nan nan nan 0
-2.20027756690979 0.06876195222139359 -0.4993916451931 119
nan nan nan 0
-3.1478965282440186 0.09947636723518372 -0.49276894330978394 119
-4.100656509399414 0.1303008496761322 -0.49905550479888916 119
-5.778363227844238 0.18462054431438446 -0.502453625202179 119
-6.526034355163574 0.20964905619621277 -0.3390517234802246 11
-6.608821868896484 0.21346327662467957 -0.11360310763120651 11
-6.463379383087158 0.20989477634429932 1.7213187217712402 11
-6.490253448486328 0.21190145611763 1.4891741275787354 11
-6.518606662750244 0.21396610140800476 1.2591617107391357 11
-6.617772579193115 0.21837736666202545 1.0414867401123047 16
-6.5060715675354 0.21582816541194916 0.7945880889892578 11
-6.604482650756836 0.22024674713611603 0.5747920870780945 16
-6.61550235748291 0.22177015244960785 0.3448939323425293 11
-6.688440322875977 0.22538389265537262 0.11614575237035751 11
nan nan nan 0
-2.190286159515381 0.0761035829782486 -0.49714213609695435 119
nan nan nan 0
-3.152465581893921 0.11063718050718307 -0.4935511350631714 119
-4.105136394500732 0.1447889506816864 -0.49966487288475037 119
-5.772706031799316 0.20461325347423553 -0.5020178556442261 119
-6.64003324508667 0.23651598393917084 -0.34505030512809753 11
-6.73793363571167 0.2411806583404541 -0.11584925651550293 11
-6.597756385803223 0.2373161017894745 1.757529854774475 11
-6.547900676727295 0.23666714131832123 1.502660870552063 11
-6.586491107940674 0.2392130047082901 1.2725063562393188 11
-6.6367106437683105 0.24219678342342377 1.044611930847168 16
-6.57966947555542 0.24126507341861725 0.8037282824516296 16
-6.743046283721924 0.24843427538871765 0.586993932723999 16
-6.744421005249023 0.24966365098953247 0.3516975939273834 11
-6.817502975463867 0.25356048345565796 0.11841457337141037 11
nan nan nan 0
nan nan nan 0
-2.6033718585968018 0.10001127421855927 -0.49851784110069275 119
-3.14219069480896 0.12125979363918304 -0.49198681116104126 119
-4.09964656829834 0.15892542898654938 -0.49905550479888916 119
-5.771956443786621 0.22476248443126678 -0.5020178556442261 119
-6.753923416137695 0.26418131589889526 -0.35104891657829285 11
-6.866931915283203 0.2698019742965698 -0.11809540539979935 11
-6.736844539642334 0.26586848497390747 1.7950341701507568 11
-6.615189552307129 0.2622237503528595 1.5183955430984497 11
-6.6199469566345215 0.26356956362724304 1.2791787385940552 16
-6.744387149810791 0.26970309019088745 1.0618007183074951 16
-6.603580951690674 0.2652267515659332 0.8067750334739685 16
-6.831722736358643 0.2755841314792633 0.5948379635810852 16
-6.873223304748535 0.2784597873687744 0.35850128531455994 11
-6.9564385414123535 0.28304728865623474 0.12085790187120438 11
nan nan nan 0
-2.189701557159424 0.09139268845319748 -0.49714213609695435 119
-2.549062728881836 0.106837198138237 -0.4880327582359314 119
nan nan nan 0
-4.094109058380127 0.17302536964416504 -0.49844613671302795 119
-5.77113676071167 0.24490901827812195 -0.5020178556442261 119
-6.887653350830078 0.2934947907924652 -0.35809075832366943 11
-7.0008039474487305 0.2995404303073883 -0.1204279363155365 11
-6.87581205368042 0.2953947186470032 1.8325384855270386 11
-6.721319675445557 0.2899327874183655 1.5431214570999146 16
-6.834749221801758 0.29602083563804626 1.321118950843811 16
-6.999967575073242 0.30440065264701843 1.102428913116455 16
-6.840599060058594 0.29866650700569153 0.8360236287117004 16
nan nan nan 0
-7.021859169006348 0.3090363144874573 0.3663516938686371 11
-7.090256690979004 0.3132863938808441 0.1232139840722084 11
-1.8860841989517212 0.08498672395944595 -0.4956386983394623 119
-2.1699018478393555 0.09815501421689987 -0.4926431179046631 119
-2.6173198223114014 0.11885160207748413 -0.5013774037361145 119
-3.1412675380706787 0.1431932896375656 -0.49198681116104126 119
-4.088522911071777 0.18708857893943787 -0.4978368282318115 119
-5.775222301483154 0.2652811110019684 -0.502453625202179 119
-7.04121208190918 0.3246650695800781 -0.3661758601665497 11
-7.169508934020996 0.33183473348617554 -0.12336520105600357 11
-7.01465368270874 0.325894296169281 1.8700428009033203 11
-6.939270496368408 0.32360580563545227 1.593697190284729 16
-7.0003743171691895 0.3276797831058502 1.3535274267196655 16
-7.127124309539795 0.3348594605922699 1.122743010520935 16
-6.988232135772705 0.3295561373233795 0.8543040752410889 16
nan nan nan 0
-7.15540075302124 0.33994290232658386 0.3734170198440552 11
-7.258901119232178 0.3461298644542694 0.12618088722229004 11
-1.8954238891601562 0.0920383632183075 -0.4982268810272217 119
-2.2182066440582275 0.10810016840696335 -0.5038906931877136 119
-2.567864418029785 0.12558934092521667 -0.4918454885482788 119
-3.1407485008239746 0.15415748953819275 -0.49198681116104126 119
-4.082887649536133 0.20111487805843353 -0.4972274899482727 119
-5.774261474609375 0.28543877601623535 -0.502453625202179 119
-7.194634437561035 0.3569107949733734 -0.37426090240478516 11
-7.318099021911621 0.36431604623794556 -0.12595690786838531 11
-7.14854097366333 0.3571256995201111 1.9062538146972656 11
-7.098674297332764 0.35587650537490845 1.6307860612869263 16
-7.160957336425781 0.36025190353393555 1.3849825859069824 16
-7.293610095977783 0.3682016134262085 1.1493074893951416 16
-7.140686511993408 0.36173108220100403 0.8731938004493713 16
nan nan nan 0
-7.338676929473877 0.3743291199207306 0.38309916853904724 11
-7.417415618896484 0.3796433210372925 0.12897327542304993 11
nan nan nan 0
-2.1788740158081055 0.11418979614973068 -0.4948926270008087 119
-2.5869929790496826 0.1360311359167099 -0.4956582486629486 119
-3.120436191558838 0.16462716460227966 -0.48885810375213623 119
-4.072211265563965 0.2155533879995346 -0.4960087537765503 119
-5.773176193237305 0.3066006004810333 -0.502453625202179 119
-7.352834701538086 0.39177969098091125 -0.3826068043708801 11
-7.481455326080322 0.39994242787361145 -0.12880778312683105 11
-7.306340217590332 0.3918600380420685 1.948931097984314 11
-7.257867336273193 0.39053067564964294 1.667874813079834 11
-7.296821594238281 0.393903911113739 1.4116718769073486 16
-7.450014591217041 0.40347787737846375 1.174309492111206 16
-7.297886371612549 0.396516352891922 0.8926929235458374 16
nan nan nan 0
-7.491812705993652 0.40967583656311035 0.39121127128601074 11
-7.6056599617004395 0.41723278164863586 0.13228923082351685 11
nan nan nan 0
-2.227104663848877 0.12451432645320892 -0.5061401724815369 119
nan nan nan 0
-3.1642181873321533 0.17801503837108612 -0.49589765071868896 119
-4.066479682922363 0.22948713600635529 -0.49539944529533386 119
-5.77207088470459 0.32675087451934814 -0.502453625202179 119
-7.505961894989014 0.42621883749961853 -0.390691876411438 11
-7.644721984863281 0.43543675541877747 -0.1316586583852768 11
-7.473698616027832 0.4270040690898895 1.9941949844360352 11
-7.499663352966309 0.429800808429718 1.7240700721740723 11
-7.4473090171813965 0.4281044602394104 1.441220760345459 16
-7.611263751983643 0.4388621747493744 1.2000926733016968 16
-7.454999923706055 0.43115752935409546 0.9121919870376587 16
-7.566722869873047 0.43894410133361816 0.6597689390182495 16
-7.664801597595215 0.4459758996963501 0.4003700315952301 11
-7.76386022567749 0.4531059265136719 0.13508161902427673 11
nan nan nan 0
-2.212066411972046 0.1314208060503006 -0.5027658939361572 119
-2.5369842052459717 0.1511688083410263 -0.4861263632774353 119
-3.188225746154785 0.1905321329832077 -0.49980852007865906 119
-4.060700416564941 0.2433834969997406 -0.49479007720947266 119
-5.770895481109619 0.3468971848487854 -0.502453625202179 119
-7.688841819763184 0.4635346233844757 -0.40034180879592896 11
-7.802839279174805 0.47177401185035706 -0.1344231516122818 11
-7.640896797180176 0.46332111954689026 2.039458751678467 11
-7.697503566741943 0.46810197830200195 1.7701503038406372 11
-7.558450698852539 0.4609699845314026 1.463144063949585 16
-7.797001361846924 0.47688448429107666 1.2297824621200562 16
-7.621865749359131 0.4675080180168152 0.9329097867012024 16
-7.823667049407959 0.4812566637992859 0.6824294924736023 16
-7.82766056060791 0.4828736484050751 0.4090054929256439 11
-7.951840400695801 0.49192726612091064 0.13839757442474365 11
-1.9421348571777344 0.12184832245111465 -0.5111678242683411 119
nan nan nan 0
nan nan nan 0
-3.074183940887451 0.19448839128017426 -0.4818185567855835 119
-4.054872989654541 0.2572422921657562 -0.49418073892593384 119
-5.759707450866699 0.36640676856040955 -0.5015820264816284 119
-7.881515979766846 0.5027679204940796 -0.41051337122917175 119
-8.015674591064453 0.5127307176589966 -0.13813792169094086 11
-7.822391510009766 0.5017380118370056 2.088602304458618 11
-7.900026798248291 0.5081021785736084 1.8173543214797974 11
-7.747822284698486 0.49967071413993835 1.5003184080123901 16
-7.977635383605957 0.5158899426460266 1.2586908340454102 16
-7.808376312255859 0.5063130259513855 0.9560649394989014 16
-7.976024150848389 0.5185816287994385 0.6959385871887207 16
-8.015264511108398 0.5225378274917603 0.41894933581352234 11
-8.144630432128906 0.5323991179466248 0.14180079102516174 11
-1.9176024198532104 0.12703071534633636 -0.504697322845459 119
-2.1673450469970703 0.14395475387573242 -0.4926431179046631 119
-2.58484148979187 0.17213794589042664 -0.4956582486629486 119
-3.112905979156494 0.20785018801689148 -0.4880759119987488 119
-4.044046878814697 0.2707318961620331 -0.4929620623588562 119
-5.753423690795898 0.38617610931396484 -0.5011463165283203 119
-8.044116973876953 0.5413402318954468 -0.41912007331848145 119
-8.223328590393066 0.5548422932624817 -0.14176630973815918 11
-8.013345718383789 0.5420793890953064 2.1403324604034424 11
-8.08777904510498 0.5485326647758484 1.8611865043640137 11
-8.010468482971191 0.5446938276290894 1.551790475845337 16
-8.222143173217773 0.5605288743972778 1.2977564334869385 11
-7.979852199554443 0.5454103946685791 0.9773920774459839 16
-8.15803050994873 0.559019148349762 0.712062418460846 11
-8.222611427307129 0.5648862719535828 0.429939866065979 11
-8.342219352722168 0.5745661854743958 0.145291268825531 11
nan nan nan 0
nan nan nan 0
nan nan nan 0
-3.1170878410339355 0.2190612107515335 -0.48885810375213623 119
-4.0381269454956055 0.28449782729148865 -0.492352694272995 119
-5.72222900390625 0.40415138006210327 -0.49853160977363586 119
-8.251368522644043 0.5842276215553284 -0.4300740361213684 119
-8.410836219787598 0.5969938635826111 -0.14504913985729218 11
-8.237835884094238 0.5861594676971436 2.201115369796753 11
-8.280202865600586 0.59062659740448 1.9061427116394043 11
-8.2484130859375 0.5898059606552124 1.5984967947006226 11
-8.486137390136719 0.6082932949066162 1.33994722366333 11
-8.116498947143555 0.5832211971282959 0.9944537878036499 11
-8.245455741882324 0.5939340591430664 0.7199064493179321 11
-8.444696426391602 0.6097672581672668 0.44171544909477234 11
-8.55456829071045 0.61920166015625 0.14904354512691498 11
nan nan nan 0
-2.1517107486724854 0.15801161527633667 -0.48926883935928345 119
-2.593366861343384 0.19089984893798828 -0.4975646436214447 119
-3.1360044479370117 0.23139414191246033 -0.49198681116104126 119
-4.012362957000732 0.29676151275634766 -0.48930594325065613 119
-5.745620250701904 0.4259645640850067 -0.5007104873657227 119
-8.508211135864258 0.6322687268257141 -0.44363611936569214 119
-8.643016815185547 0.6438032984733582 -0.14910948276519775 11
-8.452479362487793 0.6310939788818359 2.2593116760253906 11
-8.496722221374512 0.6358884572982788 1.9567185640335083 11
-8.481242179870605 0.6362186074256897 1.6442497968673706 11
-8.631702423095703 0.6490203738212585 1.3633865118026733 16
-8.396489143371582 0.6328083276748657 1.029186487197876 11
-8.630743026733398 0.6519780158996582 0.7538971304893494 16
-8.651630401611328 0.6550744771957397 0.452705979347229 11
-8.756736755371094 0.6645699739456177 0.1526212841272354 11
nan nan nan 0
nan nan nan 0
-2.6024723052978516 0.20070604979991913 -0.4994710087776184 119
-3.1597959995269775 0.2442423701286316 -0.49589765071868896 119
-4.045938014984131 0.3134487569332123 -0.49357137084007263 119
-5.7490644454956055 0.4464035630226135 -0.5011463165283203 119
-8.720012664794922 0.6786229610443115 -0.4548509120941162 119
-8.835097312927246 0.6891307234764099 -0.15247869491577148 11
-8.657276153564453 0.6767809987068176 2.3149213790893555 32
-8.708166122436523 0.682288408279419 2.0061705112457275 11
-8.625765800476074 0.6773471236228943 1.6728453636169434 16
-8.67369556427002 0.6826339960098267 1.3704183101654053 16
-8.616861343383789 0.6796743273735046 1.0566072463989258 16
-8.648277282714844 0.683671236038208 0.7556403279304504 16
-8.848392486572266 0.7010448575019836 0.46317318081855774 11
-8.983606338500977 0.7133354544639587 0.1566353291273117 11
-1.9060134887695312 0.1530192643404007 -0.502109169960022 119
nan nan nan 0
-2.6115407943725586 0.21057815849781036 -0.5013774037361145 119
-3.1540021896362305 0.2548728883266449 -0.4951154887676239 119
-4.0497660636901855 0.32797038555145264 -0.49418073892593384 119
-5.757400035858154 0.46727466583251953 -0.5020178556442261 119
-8.946520805358887 0.7276777029037476 -0.46684810519218445 119
-9.081774711608887 0.7402744293212891 -0.15679821372032166 11
-8.885924339294434 0.7258713841438293 2.376997470855713 32
-8.933953285217285 0.7313644886016846 2.0589938163757324 11
-8.975564956665039 0.736348032951355 1.7414751052856445 11
-8.951810836791992 0.7359721660614014 1.4149529933929443 16
-8.718300819396973 0.7183061242103577 1.0694034099578857 16
-8.958575248718262 0.7396766543388367 0.7830943465232849 16
-9.079771041870117 0.7512788772583008 0.4754721522331238 11
-9.230168342590332 0.7653451561927795 0.16099843382835388 11
-1.9054677486419678 0.15967155992984772 -0.502109169960022 119
nan nan nan 0
-2.5863349437713623 0.21763499081134796 -0.49661147594451904 119
-3.14817214012146 0.2654658854007721 -0.49433329701423645 119
-4.058486461639404 0.34294044971466064 -0.49539944529533386 119
-5.755733966827393 0.4873689115047455 -0.5020178556442261 119
-9.162840843200684 0.7774776220321655 -0.47832372784614563 119
-9.32819938659668 0.7931483387947083 -0.16111771762371063 11
-8.965147972106934 0.7638552188873291 2.3989827632904053 32
-9.159502029418945 0.7820249199867249 2.1118173599243164 11
-9.22235107421875 0.7890123724937439 1.7900875806808472 11
-9.15584945678711 0.784932553768158 1.447767972946167 16
-9.091524124145508 0.7810163497924805 1.1157138347625732 16
-9.18918228149414 0.791021466255188 0.8035759925842285 16
-9.335777282714844 0.8052821159362793 0.4890795052051544 11
-9.47647476196289 0.8190845847129822 0.16536153852939606 11
-1.9193328619003296 0.1675821840763092 -0.5059914588928223 119
-2.1832683086395264 0.19101105630397797 -0.49714213609695435 119
-2.585559368133545 0.22666166722774506 -0.49661147594451904 119
-3.147226333618164 0.27645343542099 -0.49433329701423645 119
-4.06220817565918 0.35754019021987915 -0.4960087537765503 119
-5.7589592933654785 0.50789475440979 -0.502453625202179 119
-9.403787612915039 0.8309938907623291 -0.4911033511161804 119
-9.574362754821777 0.8477514386177063 -0.1654372215270996 11
-8.972049713134766 0.7959984540939331 2.401569366455078 32
-9.399361610412598 0.8355629444122314 2.1680126190185547 11
-9.459099769592285 0.8425374031066895 1.8367938995361328 11
-9.379329681396484 0.8370822072029114 1.483708381652832 16
-9.321063041687012 0.833521842956543 1.1443530321121216 16
-9.44930362701416 0.8466519713401794 0.8266721963882446 16
-9.576593399047852 0.8597419261932373 0.5019018054008484 11
-9.742431640625 0.8763442635536194 0.17007368803024292 11
-1.9283556938171387 0.17515462636947632 -0.5085796117782593 119
-2.1874399185180664 0.1990724503993988 -0.49826687574386597 119
-2.579864025115967 0.23523984849452972 -0.4956582486629486 119
-3.146242141723633 0.2874376177787781 -0.49433329701423645 119
-4.060935020446777 0.37171778082847595 -0.4960087537765503 119
-5.762111663818359 0.5284490585327148 -0.5028893947601318 119
-9.579829216003418 0.880262017250061 -0.5004924535751343 119
-9.845145225524902 0.906373918056488 -0.17018868029117584 11
-8.940360069274902 0.824650228023529 2.3938100337982178 32
-9.682619094848633 0.8948198556900024 2.234323024749756 11
-9.739570617675781 0.9017974734306335 1.8920788764953613 11
-9.720572471618652 0.9017495512962341 1.5383999347686768 16
-9.584935188293457 0.8908541798591614 1.177257776260376 16
-9.7736177444458 0.9101114869117737 0.8554335832595825 16
-9.846968650817871 0.918675422668457 0.5162941813468933 11
-10.013076782226562 0.9359354376792908 0.17487309873104095 11
-1.9133079051971436 0.18052378296852112 -0.504697322845459 119
-2.206132411956787 0.20854075253009796 -0.5027658939361572 119
-2.574141025543213 0.24378108978271484 -0.49470508098602295 119
-3.1452198028564453 0.2984182834625244 -0.49433329701423645 119
-4.05961275100708 0.38589081168174744 -0.4960087537765503 119
-5.760231971740723 0.5485593676567078 -0.5028893947601318 119
-9.611493110656738 0.9170162081718445 -0.5023181438446045 119
-10.115633964538574 0.9668968915939331 -0.17494015395641327 11
-8.932619094848633 0.8553925156593323 2.392516613006592 32
-9.936474800109863 0.9532725214958191 2.2938899993896484 11
-10.009966850280762 0.9620862603187561 1.9454573392868042 11
-10.081138610839844 0.9707024693489075 1.5962170362472534 16
-9.833697319030762 0.9486088752746582 1.2083345651626587 16
-10.097600936889648 0.9758451581001282 0.8841949701309204 16
-10.122016906738281 0.9799878597259521 0.5309482216835022 11
-10.30830192565918 0.9998396635055542 0.18010881543159485 11
-1.9078593254089355 0.18673092126846313 -0.5034032464027405 119
-2.1714510917663574 0.21291248500347137 -0.4948926270008087 119
-2.5781590938568115 0.2532448172569275 -0.4956582486629486 119
-3.139244318008423 0.3089117407798767 -0.4935511350631714 119
-4.063180446624756 0.40054604411125183 -0.4966181218624115 119
-5.758281707763672 0.5686630010604858 -0.5028893947601318 119
-9.6281099319458 0.9525272846221924 -0.5033613443374634 119
-10.425614356994629 1.0332634449005127 -0.18038272857666016 11
-8.924772262573242 0.8860907554626465 2.391223430633545 32
-10.238518714904785 1.0183298587799072 2.3646960258483887 32
-10.294711112976074 1.0257333517074585 2.001695394515991 11
-10.51504898071289 1.049540638923645 1.6657536029815674 11
-10.101922035217285 1.0100858211517334 1.2418485879898071 16
-10.307249069213867 1.032433271408081 0.9029334783554077 11
-10.476245880126953 1.0512077808380127 0.5497891902923584 11
-10.687761306762695 1.0743160247802734 0.18682800233364105 11
-1.9023908376693726 0.19290222227573395 -0.502109169960022 119
-2.1852352619171143 0.2219679355621338 -0.49826687574386597 119
-2.5821428298950195 0.2627396285533905 -0.49661147594451904 119
-3.1381468772888184 0.3198678493499756 -0.4935511350631714 119
-4.061757564544678 0.41472676396369934 -0.4966181218624115 119
-5.756261825561523 0.58875972032547 -0.5028893947601318 119
-9.619758605957031 0.98562091588974 -0.503100574016571 119
-10.75016975402832 1.1033365726470947 -0.18608447909355164 11
-8.91681957244873 0.916744589805603 2.389930009841919 32
-10.360908508300781 1.067039966583252 2.3939175605773926 32
-10.642599105834961 1.0979275703430176 2.0703248977661133 11
-10.771679878234863 1.113144040107727 1.7071630954742432 11
-10.596906661987305 1.096952199935913 1.3033925294876099 11
-10.779205322265625 1.1177247762680054 0.9447683095932007 11
-10.765531539916992 1.1182060241699219 0.5652283430099487 11
-10.783393859863281 1.1219637393951416 0.1885732263326645 11
-1.9017059803009033 0.19954164326190948 -0.502109169960022 119
-2.1796021461486816 0.22908525168895721 -0.49714213609695435 119
-2.5860908031463623 0.2722652554512024 -0.4975646436214447 119
-3.1370112895965576 0.33082008361816406 -0.4935511350631714 119
-4.060284614562988 0.42890238761901855 -0.4966181218624115 119
-5.754171371459961 0.6088492274284363 -0.5028893947601318 119
-9.616259574890137 1.0191941261291504 -0.503100574016571 119
-10.845680236816406 1.151410460472107 -0.18781228363513947 11
-8.913565635681152 0.9478644728660583 2.389930009841919 32
-10.36196517944336 1.1037156581878662 2.3950414657592773 32
-10.960822105407715 1.169438362121582 2.133235454559326 11
-10.895403861999512 1.164381980895996 1.7274770736694336 11
-10.770655632019043 1.1529515981674194 1.325329065322876 11
-10.86933708190918 1.1654337644577026 0.9530479907989502 11
-10.826101303100586 1.1627092361450195 0.5686301589012146 11
-11.708906173706055 1.259588599205017 0.20489123463630676 11
-1.905799388885498 0.20669937133789062 -0.5034032464027405 119
-2.173945665359497 0.23616589605808258 -0.49601736664772034 119
-2.5900044441223145 0.28182172775268555 -0.49851784110069275 119
-3.1358373165130615 0.3417682647705078 -0.4935511350631714 119
-4.06369686126709 0.44361141324043274 -0.4972274899482727 119
-5.752011299133301 0.6289313435554504 -0.5028893947601318 119
-9.617607116699219 1.0532985925674438 -0.5033613443374634 119
-11.721186637878418 1.2857481241226196 -0.20310336351394653 11
-8.905401229858398 0.9784454107284546 2.388636827468872 32
-10.348363876342773 1.1388130187988281 2.392793655395508 32
-11.376246452331543 1.2539386749267578 2.215209722518921 11
-11.740488052368164 1.2961610555648804 1.862643837928772 11
-11.688973426818848 1.2925388813018799 1.4392768144607544 11
-11.721674919128418 1.2982257604599 1.028437852859497 11
-11.710301399230957 1.2990349531173706 0.6154707670211792 11
-11.709406852722168 1.3010046482086182 0.20497851073741913 11
-1.9050661325454712 0.2133505940437317 -0.5034032464027405 119
-2.1779496669769287 0.24429604411125183 -0.49714213609695435 119
-2.5890049934387207 0.2908608019351959 -0.49851784110069275 119
-3.144440174102783 0.3538167178630829 -0.4951154887676239 119
-4.0670552253723145 0.45834943652153015 -0.4978368282318115 119
-5.754730701446533 0.6495644450187683 -0.5033252239227295 119
-9.613871574401855 1.0868638753890991 -0.5033613443374634 119
-11.736496925354004 1.328904628753662 -0.20344890654087067 11
-8.897132873535156 1.0089808702468872 2.387343645095825 32
-10.339484214782715 1.1743788719177246 2.391669511795044 32
-11.752193450927734 1.3369146585464478 2.289558172225952 11
-12.162786483764648 1.3857735395431519 1.9306178092956543 11
-11.709044456481934 1.3361464738845825 1.4423236846923828 11
-11.741815567016602 1.3419620990753174 1.0306166410446167 11
-11.715617179870605 1.3410394191741943 0.6159941554069519 11
-12.007763862609863 1.3766034841537476 0.2103014886379242 11
-1.9091075658798218 0.22055348753929138 -0.504697322845459 119
-2.1819231510162354 0.252456933259964 -0.49826687574386597 119
-2.5879740715026855 0.29989635944366455 -0.49851784110069275 119
-3.1480910778045654 0.36535999178886414 -0.49589765071868896 119
-4.070359706878662 0.47311627864837646 -0.49844613671302795 119
-5.752427577972412 0.6696482300758362 -0.5033252239227295 119
-9.61001968383789 1.1204159259796143 -0.5033613443374634 119
-12.37233829498291 1.444658875465393 -0.21459326148033142 11
-8.893556594848633 1.0400314331054688 2.387343645095825 32
-10.330483436584473 1.2098965644836426 2.3905458450317383 32
-12.191069602966309 1.4299635887145996 2.376298427581787 32
-12.599310874938965 1.4800779819488525 2.0009357929229736 11
-11.876814842224121 1.3973057270050049 1.4636507034301758 11
-12.385083198547363 1.4592950344085693 1.0877037048339844 11
-12.345582962036133 1.456825613975525 0.6494892239570618 11
-12.72276496887207 1.5035858154296875 0.22295448184013367 11
-1.9083260297775269 0.22721616923809052 -0.504697322845459 119
-2.185866355895996 0.26064860820770264 -0.4993916451931 119
-2.58691143989563 0.3089282512664795 -0.49851784110069275 119
-3.1664109230041504 0.3786924481391907 -0.4990263283252716 119
-4.068683624267578 0.4873216152191162 -0.49844613671302795 119
-5.750055313110352 0.6897239089012146 -0.5033252239227295 119
-9.611006736755371 1.1545498371124268 -0.5036221742630005 119
-12.95787239074707 1.5588958263397217 -0.22487367689609528 11
-8.885077476501465 1.0704917907714844 2.386050224304199 32
-10.326197624206543 1.2459492683410645 2.3905458450317383 32
-12.2590970993042 1.4813419580459595 2.390596389770508 32
-13.089251518249512 1.5839725732803345 2.079848051071167 11
-12.640427589416504 1.5318974256515503 1.558708906173706 11
-12.96833324432373 1.5739330053329468 1.1395612955093384 11
-12.90548324584961 1.5685908794403076 0.6793206930160522 11
-13.208736419677734 1.607789158821106 0.23159341514110565 11
-1.9074804782867432 0.23420901596546173 -0.504697322845459 119
-2.1897313594818115 0.2692530155181885 -0.5005163550376892 119
-2.585761785507202 0.31840765476226807 -0.49851784110069275 119
-3.160100221633911 0.38969096541404724 -0.49824416637420654 119
-4.0717949867248535 0.5028390288352966 -0.49905550479888916 119
-5.752431869506836 0.7114055156707764 -0.5037609338760376 119
-9.611665725708008 1.1903818845748901 -0.5038830041885376 119
-13.4779634475708 1.6716020107269287 -0.2340310513973236 11
-8.881093978881836 1.1030499935150146 2.386050224304199 32
-10.316726684570312 1.2831870317459106 2.3894219398498535 32
-12.263326644897461 1.5274772644042969 2.392502784729004 32
-13.593021392822266 1.695508599281311 2.161104440689087 11
-13.112401008605957 1.6378830671310425 1.6178154945373535 11
-13.47649097442627 1.685750961303711 1.1848822832107544 11
-13.449588775634766 1.6847699880599976 0.7083671689033508 11
-13.763277053833008 1.7265042066574097 0.24145403504371643 11
-1.9018597602844238 0.24026061594486237 -0.5034032464027405 119
-2.1887784004211426 0.2768949568271637 -0.5005163550376892 119
-2.58463454246521 0.32743170857429504 -0.49851784110069275 119
-3.1489224433898926 0.39947637915611267 -0.4966798424720764 119
-4.070014953613281 0.5170491337776184 -0.49905550479888916 119
-5.749913215637207 0.7314809560775757 -0.5037609338760376 119
-9.612405776977539 1.2245566844940186 -0.5041438341140747 119
-13.997706413269043 1.78569757938385 -0.24318841099739075 11
-8.87239933013916 1.133432149887085 2.3847572803497314 32
-10.31218433380127 1.3191912174224854 2.3894219398498535 32
-12.257920265197754 1.5702749490737915 2.392502784729004 32
-14.18952751159668 1.8202365636825562 2.2572054862976074 0
-13.65297794342041 1.753830075263977 1.685452938079834 11
-14.023836135864258 1.8039577007293701 1.233689546585083 11
-14.008179664611816 1.8044291734695435 0.7381986379623413 11
-14.357102394104004 1.8519288301467896 0.2520127296447754 11
-1.901009440422058 0.2468978762626648 -0.5034032464027405 119
-2.192629814147949 0.2851618528366089 -0.5016411542892456 119
-2.5834758281707764 0.33645176887512207 -0.49851784110069275 119
-3.1426117420196533 0.4098271131515503 -0.49589765071868896 119
-4.0632643699646 0.5306104421615601 -0.49844613671302795 119
-5.752264499664307 0.7521933317184448 -0.5041967630386353 119
-9.613024711608887 1.2587510347366333 -0.504404604434967 119
-14.610991477966309 1.91579008102417 -0.253987193107605 11
-8.868388175964355 1.1643956899642944 2.3847572803497314 32
-10.307517051696777 1.3551794290542603 2.3894219398498535 32
-12.232898712158203 1.6104907989501953 2.3886897563934326 32
-14.839179992675781 1.9562489986419678 2.361901044845581 0
-14.251937866210938 1.8813635110855103 1.7604025602340698 11
-14.674209594726562 1.939712405204773 1.2916481494903564 11
-14.615592956542969 1.9345595836639404 0.7706469297409058 11
-14.776758193969727 1.9585163593292236 0.25951728224754333 11
-1.9001359939575195 0.25353214144706726 -0.5034032464027405 119
-2.1916210651397705 0.29281383752822876 -0.5016411542892456 119
-2.577420473098755 0.3448168635368347 -0.4975646436214447 119
-3.1313724517822266 0.419482946395874 -0.49433329701423645 119
-4.061387538909912 0.5447906255722046 -0.49844613671302795 119
-5.749603748321533 0.7722679376602173 -0.5041967630386353 119
-9.608572006225586 1.2922990322113037 -0.504404604434967 119
-14.777624130249023 1.9901336431503296 -0.2570108473300934 119
-8.864270210266113 1.1953450441360474 2.3847572803497314 32
-10.302722930908203 1.3911511898040771 2.3894219398498535 32
-12.227201461791992 1.6531816720962524 2.3886897563934326 32
nan nan nan 0
-14.909180641174316 2.0210986137390137 1.842664361000061 11
-14.815421104431152 2.0110220909118652 1.304721474647522 11
-14.80171012878418 2.0117921829223633 0.7808524370193481 11
-15.66642951965332 2.132106304168701 0.2753117084503174 11
-1.8992395401000977 0.2601633071899414 -0.5034032464027405 119
-2.1905856132507324 0.3004622459411621 -0.5016411542892456 119
-2.5762012004852295 0.3538116216659546 -0.4975646436214447 119
-3.1298892498016357 0.4304109513759613 -0.49433329701423645 119
-4.0594611167907715 0.558964192867279 -0.49844613671302795 119
-5.732069969177246 0.7902920842170715 -0.5028893947601318 119
-9.599055290222168 1.3251484632492065 -0.5041438341140747 119
-16.19681167602539 2.238848924636841 -0.28189122676849365 119
-8.8600435256958 1.226279854774475 2.3847572803497314 32
-10.302631378173828 1.4277746677398682 2.3905458450317383 32
-12.216495513916016 1.6951779127120972 2.3877365589141846 32
-14.976800918579102 2.0808660984039307 2.3861217498779297 32
-15.604935646057129 2.170914888381958 1.9298009872436523 11
nan nan nan 0
nan nan nan 0
-16.27284049987793 2.2725179195404053 0.28613218665122986 11
-1.9031023979187012 0.26746347546577454 -0.504697322845459 119
-2.1846988201141357 0.3074280619621277 -0.5005163550376892 119
-2.5749502182006836 0.362802118062973 -0.4975646436214447 119
-3.133258104324341 0.4420235753059387 -0.4951154887676239 119
-4.057485103607178 0.5731309652328491 -0.49844613671302795 119
-5.724344730377197 0.809598445892334 -0.502453625202179 119
-9.58942699432373 1.3579472303390503 -0.5038830041885376 119
-16.292842864990234 2.310110569000244 -0.2837054133415222 119
-8.860490798950195 1.2578784227371216 2.386050224304199 32
-10.297584533691406 1.463728904724121 2.3905458450317383 32
-12.205644607543945 1.7371195554733276 2.3867833614349365 32
-14.954778671264648 2.131042003631592 2.3837778568267822 32
-16.339122772216797 2.3312196731567383 2.0218124389648438 11
nan nan nan 0
nan nan nan 0
-17.254558563232422 2.471050262451172 0.30358460545539856 11
-1.902157187461853 0.27410489320755005 -0.504697322845459 119
-2.18361234664917 0.31505224108695984 -0.5005163550376892 119
-2.5736682415008545 0.3717881441116333 -0.4975646436214447 119
-3.1365833282470703 0.4536648392677307 -0.49589765071868896 119
-4.055459976196289 0.5872907042503357 -0.49844613671302795 119
-5.696836471557617 0.8260015845298767 -0.5002747178077698 119
-9.58462905883789 1.3914122581481934 -0.5038830041885376 119
-17.734228134155273 2.577660083770752 -0.30901774764060974 119
-8.856045722961426 1.2887996435165405 2.386050224304199 32
-10.297232627868652 1.5003676414489746 2.391669511795044 32
-12.194648742675781 1.779006004333496 2.3858301639556885 32
-14.942361831665039 2.1825172901153564 2.3829965591430664 32
-17.10183334350586 2.500983476638794 2.1174798011779785 11
-17.725963592529297 2.595416784286499 1.5640097856521606 11
-17.70451545715332 2.595432758331299 0.9357668161392212 11
-18.150989532470703 2.6641204357147217 0.31955355405807495 11
-1.901188850402832 0.2807430028915405 -0.504697322845459 119
-2.182499408721924 0.3226725459098816 -0.5005163550376892 119
-2.572354793548584 0.38076967000961304 -0.4975646436214447 119
-3.1349804401397705 0.4646108150482178 -0.49589765071868896 119
-4.05829381942749 0.6021717190742493 -0.49905550479888916 119
-5.70377254486084 0.8473461270332336 -0.5011463165283203 119
-9.574773788452148 1.4241257905960083 -0.5036221742630005 119
-18.61517333984375 2.7720911502838135 -0.324567973613739 119
-8.856269836425781 1.3204174041748047 2.387343645095825 32
-10.291933059692383 1.5363025665283203 2.391669511795044 32
-12.183510780334473 1.8208369016647339 2.3848769664764404 32
-14.924884796142578 2.233201026916504 2.3814339637756348 32
-18.040237426757812 2.702568292617798 2.235083818435669 11
-18.633007049560547 2.7946953773498535 1.6450647115707397 11
-18.559459686279297 2.7869763374328613 0.9815607666969299 11
-19.209413528442383 2.888004779815674 0.33840212225914 11
-1.9001972675323486 0.2873776853084564 -0.504697322845459 119
-2.1813597679138184 0.33028891682624817 -0.5005163550376892 119
-2.5758631229400635 0.39048224687576294 -0.49851784110069275 119
-3.1382224559783936 0.4762921631336212 -0.4966798424720764 119
-4.056167125701904 0.6163341403007507 -0.49905550479888916 119
-5.715552806854248 0.8694981336593628 -0.502453625202179 119
-9.569745063781738 1.457539439201355 -0.5036221742630005 119
-19.791492462158203 3.017918109893799 -0.3453015983104706 119
-8.8563814163208 1.3520524501800537 2.388636827468872 32
-10.2913236618042 1.5729548931121826 2.392793655395508 32
-12.177080154418945 1.863354206085205 2.3848769664764404 32
-14.912116050720215 2.2845370769500732 2.380652666091919 32
nan nan nan 0
-19.908113479614258 3.0570366382598877 1.758802890777588 11
-19.8673095703125 3.0543203353881836 1.0514293909072876 11
-20.162721633911133 3.1033382415771484 0.35541823506355286 11
-1.8944097757339478 0.2932699918746948 -0.5034032464027405 119
-2.1801936626434326 0.3379012644290924 -0.5005163550376892 119
-2.574484348297119 0.39947131276130676 -0.49851784110069275 119
-3.136540651321411 0.4872436821460724 -0.4966798424720764 119
-4.058895111083984 0.6312517523765564 -0.49966487288475037 119
-5.722326278686523 0.8909764885902405 -0.5033252239227295 119
-9.55966567993164 1.490166187286377 -0.5033613443374634 119
nan nan nan 0
-8.851608276367188 1.3829586505889893 2.388636827468872 32
-10.285770416259766 1.6088687181472778 2.392793655395508 32
-12.165653228759766 1.9050894975662231 2.3839240074157715 32
-14.894292831420898 2.3350462913513184 2.379089832305908 32
-19.271120071411133 3.024667501449585 2.3904671669006348 32
-20.930644989013672 3.288878917694092 1.8503164052963257 11
nan nan nan 0
-21.934518814086914 3.454465866088867 0.3869198262691498 11
-1.8933745622634888 0.2998809218406677 -0.5034032464027405 119
-2.1838128566741943 0.3462725281715393 -0.5016411542892456 119
-2.5730743408203125 0.408455491065979 -0.49851784110069275 119
-3.1348206996917725 0.4981892704963684 -0.4966798424720764 119
-4.056666851043701 0.6454160809516907 -0.49966487288475037 119
-5.7290191650390625 0.9125127196311951 -0.5041967630386353 119
-9.549474716186523 1.522740364074707 -0.503100574016571 119
-22.164264678955078 3.538236379623413 -0.38720086216926575 119
-8.851495742797852 1.4146103858947754 2.389930009841919 32
-10.284902572631836 1.6455327272415161 2.3939175605773926 32
-12.158928871154785 1.947543978691101 2.3839240074157715 32
-14.88117504119873 2.3862407207489014 2.3783085346221924 32
-19.245746612548828 3.0895583629608154 2.388639211654663 32
-22.232105255126953 3.5729451179504395 1.9666692018508911 11
-21.827259063720703 3.5117900371551514 1.156624674797058 11
-23.180910110473633 3.733729600906372 0.4091716408729553 11
-1.892316222190857 0.3064882159233093 -0.5034032464027405 119
-2.1825907230377197 0.35389333963394165 -0.5016411542892456 119
-2.576477527618408 0.4182210862636566 -0.4994710087776184 119
-3.1330626010894775 0.5091288089752197 -0.4966798424720764 119
-4.049490928649902 0.6587756872177124 -0.49905550479888916 119
-5.725799083709717 0.9325051307678223 -0.5041967630386353 119
-9.534245491027832 1.5544579029083252 -0.5025789737701416 119
-23.705976486206055 3.8692564964294434 -0.4144137501716614 119
-8.846503257751465 1.445499300956726 2.389930009841919 32
-10.279096603393555 1.6814236640930176 2.3939175605773926 32
-12.152056694030762 1.9899747371673584 2.3839240074157715 32
-14.872754096984863 2.43817138671875 2.3783085346221924 32
-19.259328842163086 3.160738229751587 2.391685724258423 32
-23.63504409790039 3.8830933570861816 2.0921735763549805 11
-23.430910110473633 3.853754997253418 1.2424556016921997 11
-24.869558334350586 4.094832420349121 0.4392770528793335 11
-1.8912347555160522 0.3130917549133301 -0.5034032464027405 119
-2.181342124938965 0.3615098297595978 -0.5016411542892456 119
-2.5750019550323486 0.4272121489048004 -0.4994710087776184 119
-3.126394271850586 0.5192530155181885 -0.49589765071868896 119
-4.047166347503662 0.6729069948196411 -0.49905550479888916 119
-5.722509384155273 0.9524862766265869 -0.5041967630386353 119
-9.523836135864258 1.5869084596633911 -0.5023181438446045 119
-25.48725700378418 4.251384735107422 -0.44585981965065 0
-8.84140396118164 1.4763705730438232 2.389930009841919 32
-10.277969360351562 1.7180973291397095 2.3950414657592773 32
-12.145036697387695 2.032381057739258 2.3839240074157715 32
-14.869023323059082 2.4908878803253174 2.379089832305908 32
-19.243284225463867 3.227125644683838 2.3910763263702393 32
nan nan nan 0
-25.244152069091797 4.242539882659912 1.3395386934280396 11
-26.624967575073242 4.479378700256348 0.4706041216850281 11
-1.8901304006576538 0.3196914792060852 -0.5034032464027405 119
-2.1800668239593506 0.3691219389438629 -0.5016411542892456 119
-2.5734949111938477 0.436197966337204 -0.4994710087776184 119
-3.1245627403259277 0.5301629900932312 -0.49589765071868896 119
-4.044793128967285 0.6870301365852356 -0.49905550479888916 119
-5.719149589538574 0.9724556803703308 -0.5041967630386353 119
-9.51331615447998 1.6193053722381592 -0.5020573139190674 119
nan nan nan 0
-8.836196899414062 1.5072237253189087 2.389930009841919 32
-10.276711463928223 1.7547838687896729 2.396165370941162 32
-12.13786792755127 2.0747628211975098 2.3839240074157715 32
-14.865106582641602 2.5436081886291504 2.379871368408203 32
-19.236793518066406 3.2951154708862305 2.391685724258423 32
nan nan nan 0
-27.379741668701172 4.6997785568237305 1.4538928270339966 11
