# .PCD v0.7 - Point Cloud Data file format
VERSION 0.7
FIELDS x y z intensity
SIZE 4 4 4 4
TYPE F F F F
COUNT 1 1 1 1
WIDTH 782
HEIGHT 1
VIEWPOINT 0 0 0 1 0 0 0
POINTS 782
DATA ascii
-3.95559024810791 1.9421055316925049 0.8483375906944275 10
-3.9661381244659424 1.9481433629989624 0.6930222511291504 10
-3.9627552032470703 1.9473403692245483 0.5374437570571899 10
-3.9679155349731445 1.9507358074188232 0.3834852874279022 10
-3.9682271480560303 1.9517492055892944 0.22975483536720276 10
-3.9637134075164795 1.9503884315490723 0.07644154131412506 10
-1.727946400642395 0.8521286845207214 -0.5059914588928223 119
-1.987269401550293 0.9804438352584839 -0.5027658939361572 119
-2.349417209625244 1.1596237421035767 -0.5013774037361145 119
-2.885934591293335 1.425064206123352 -0.5037193894386292 119
-3.7495460510253906 1.852326512336731 -0.5088050365447998 119
-3.96828556060791 1.9612486362457275 -0.38392162322998047 10
-3.968641996383667 1.9622867107391357 -0.22925111651420593 10
-3.973074436187744 1.965341329574585 -0.07593698799610138 10
-3.9561548233032227 1.9578311443328857 1.1716865301132202 10
-3.9595069885253906 1.960350513458252 1.0103905200958252 10
-3.9531850814819336 1.9580796957015991 0.8492907881736755 10
-3.9593136310577393 1.9619759321212769 0.6930222511291504 10
-3.9603800773620605 1.9633654356002808 0.5380531549453735 10
-3.965543746948242 1.966787576675415 0.3839210271835327 10
-3.965862512588501 1.9678082466125488 0.2300165295600891 10
-3.9613590240478516 1.966435194015503 0.07652879506349564 10
-1.7249614000320435 0.8581551909446716 -0.5059914588928223 119
-1.9838348627090454 0.9873747229576111 -0.5027658939361572 119
-2.3453550338745117 1.1678177118301392 -0.5013774037361145 119
-2.8853628635406494 1.4373313188552856 -0.5045015811920166 119
-3.747499465942383 1.8676172494888306 -0.5094144344329834 119
-3.9658737182617188 1.9773112535476685 -0.38435742259025574 10
-3.9662368297576904 1.9783567190170288 -0.22951193153858185 10
-3.9706637859344482 1.9814302921295166 -0.07602337747812271 10
-3.953617811203003 1.9737861156463623 1.172979712486267 10
-3.9526398181915283 1.9741597175598145 1.0103905200958252 10
-3.950716972351074 1.9740608930587769 0.8502439856529236 10
-3.9568588733673096 1.9779930114746094 0.693803608417511 10
-3.9579415321350098 1.9793976545333862 0.5386624932289124 10
-3.963109016418457 1.982846736907959 0.384356826543808 10
-3.9589693546295166 1.9816397428512573 0.2300165295600891 10
-3.9589407444000244 1.9824893474578857 0.07661605626344681 10
-1.721955418586731 0.8641711473464966 -0.5059914588928223 119
-1.980376124382019 0.9942935705184937 -0.5027658939361572 119
-2.341264247894287 1.1759974956512451 -0.5013774037361145 119
-2.8847408294677734 1.449611783027649 -0.505283772945404 119
-3.740957498550415 1.8806871175765991 -0.5094144344329834 119
-3.963397264480591 1.9933806657791138 -0.3847931921482086 10
-3.9637668132781982 1.9944336414337158 -0.22977271676063538 10
-3.9637229442596436 1.9952784776687622 -0.07602337747812271 10
-3.9510176181793213 1.9897472858428955 1.1742730140686035 10
-3.950075626373291 1.990136981010437 1.01151442527771 10
-3.9481849670410156 1.9900486469268799 0.8511971235275269 10
-3.9543395042419434 1.9940162897109985 0.694584846496582 10
-3.951007843017578 1.9932013750076294 0.5386624932289124 10
-3.9606101512908936 1.9989128112792969 0.38479259610176086 10
-3.9564857482910156 1.9976977109909058 0.23027820885181427 10
-3.9519965648651123 1.9962966442108154 0.07661605626344681 10
-1.7189284563064575 0.8701766729354858 -0.5059914588928223 119
-1.976893424987793 1.0012003183364868 -0.5027658939361572 119
-2.3371450901031494 1.1841627359390259 -0.5013774037361145 119
-2.884068012237549 1.4619052410125732 -0.5060659050941467 119
-3.7387959957122803 1.8959786891937256 -0.5100237727165222 119
-3.9564146995544434 2.0072033405303955 -0.3847931921482086 10
-3.961233139038086 2.0105173587799072 -0.2300335317850113 10
-3.961191177368164 2.0113654136657715 -0.07610975950956345 10
-3.9440481662750244 2.0035266876220703 1.1742730140686035 10
-3.947448253631592 2.0061206817626953 1.0126384496688843 10
-3.945589542388916 2.006042718887329 0.8521503210067749 10
-3.951756715774536 2.0100464820861816 0.6953662037849426 10
-3.94844913482666 2.0092315673828125 0.5392717719078064 10
-3.953608274459839 2.012725591659546 0.38479259610176086 10
-3.95393705368042 2.0137619972229004 0.23053987324237823 10
-3.949458360671997 2.0123491287231445 0.07670332491397858 10
-1.7158803939819336 0.8761715292930603 -0.5059914588928223 119
-1.9777252674102783 1.010311245918274 -0.5038906931877136 119
-2.3373680114746094 1.194547414779663 -0.5023306012153625 119
-2.8833446502685547 1.4742118120193481 -0.5068480968475342 119
-3.7321550846099854 1.9090180397033691 -0.5100237727165222 119
-3.9538185596466064 2.023270845413208 -0.3852289915084839 10
-3.954191207885742 2.024332284927368 -0.2300335317850113 10
-3.9585957527160645 2.0274593830108643 -0.07619615644216537 10
-3.94132924079895 2.019484519958496 1.17556631565094 10
-3.9404215812683105 2.019887685775757 1.0126384496688843 10
-3.9429306983947754 2.022042989730835 0.853103518486023 10
-3.949110269546509 2.026082754135132 0.6961475014686584 10
-3.945826768875122 2.025268077850342 0.53988116979599 10
-3.9509897232055664 2.0287892818450928 0.38522839546203613 10
-3.9513251781463623 2.0298333168029785 0.2308015525341034 10
-3.9468564987182617 2.0284082889556885 0.07679058611392975 10
-1.7128114700317383 0.8821557760238647 -0.5059914588928223 119
-1.9741865396499634 1.0172086954116821 -0.5038906931877136 119
-2.3288211822509766 1.2004501819610596 -0.5013774037361145 119
-2.878180980682373 1.4842677116394043 -0.5068480968475342 119
-3.7298789024353027 1.924309253692627 -0.510633111000061 119
-3.951157808303833 2.039344310760498 -0.3856647312641144 10
-3.951537847518921 2.0404138565063477 -0.2302943468093872 10
-3.9559361934661865 2.0435595512390137 -0.0762825459241867 10
-3.9385464191436768 2.035447359085083 1.1768594980239868 10
-3.9376742839813232 2.03586745262146 1.0137622356414795 10
-3.9402081966400146 2.0380492210388184 0.854056715965271 10
-3.9464004039764404 2.0421249866485596 0.696928858757019 10
-3.9431405067443848 2.0413107872009277 0.5404905080795288 10
-3.9438836574554443 2.0425684452056885 0.38522839546203613 10
-3.9486491680145264 2.045910596847534 0.23106324672698975 10
-3.94419002532959 2.04447340965271 0.07687783986330032 10
-1.7097218036651611 0.8881291747093201 -0.5059914588928223 119
-1.9663007259368896 1.0218470096588135 -0.5027658939361572 119
-2.3246164321899414 1.2085719108581543 -0.5013774037361145 119
-2.8729825019836426 1.4943053722381592 -0.5068480968475342 119
-3.7231390476226807 1.9373172521591187 -0.510633111000061 119
-3.9484333992004395 2.0554237365722656 -0.38610053062438965 10
-3.9443912506103516 2.054194688796997 -0.2302943468093872 10
-3.9487786293029785 2.0573558807373047 -0.0762825459241867 10
-3.9357004165649414 2.05141544342041 1.1781527996063232 10
-3.934863567352295 2.0518527030944824 1.0148861408233643 10
-3.937422275543213 2.054060935974121 0.8550099730491638 10
-3.9392478466033936 2.0558881759643555 0.696928858757019 10
-3.94038987159729 2.057359218597412 0.5410999059677124 10
-3.9411444664001465 2.058628797531128 0.3856641352176666 10
-3.945909023284912 2.0619940757751465 0.2313249260187149 10
-3.9370293617248535 2.0582287311553955 0.07687783986330032 10
-1.7064552307128906 0.8943896889686584 -0.5059914588928223 119
-1.962542176246643 1.0290470123291016 -0.5027658939361572 119
-2.320171356201172 1.2170839309692383 -0.5013774037361145 119
-2.8631134033203125 1.5025303363800049 -0.5060659050941467 119
-3.7160134315490723 1.9509501457214355 -0.510633111000061 119
-3.9452829360961914 2.072197914123535 -0.3865363299846649 10
-3.941256284713745 2.070960521697998 -0.23055516183376312 10
-3.9456369876861572 2.074141502380371 -0.07636893540620804 10
-3.9324300289154053 2.0680747032165527 1.1794461011886597 10
-3.931628704071045 2.0685296058654785 1.016010046005249 10
-3.9342100620269775 2.0707643032073975 0.8559630513191223 10
-3.936056137084961 2.072613477706909 0.6977100968360901 10
-3.93721342086792 2.0741007328033447 0.5417091846466064 10
-3.937979221343994 2.0753822326660156 0.3860999345779419 10
-3.942741632461548 2.0787713527679443 0.23158659040927887 10
-3.9338815212249756 2.0749776363372803 0.07696510851383209 10
-1.7033228874206543 0.9003408551216125 -0.5059914588928223 119
-1.9589382410049438 1.0358912944793701 -0.5027658939361572 119
-2.315908670425415 1.225175380706787 -0.5013774037361145 119
-2.857851028442383 1.5125154256820679 -0.5060659050941467 119
-3.7091805934906006 1.96390962600708 -0.510633111000061 119
-3.942427396774292 2.0882885456085205 -0.3869720995426178 10
-3.9384148120880127 2.087043523788452 -0.23081596195697784 10
-3.942789316177368 2.090243101119995 -0.07645532488822937 10
-3.9294538497924805 2.0840518474578857 1.1807392835617065 10
-3.9286882877349854 2.084524631500244 1.0171339511871338 10
-3.926957607269287 2.084484815597534 0.8559630513191223 10
-3.9331588745117188 2.088656425476074 0.6984913945198059 10
-3.9343323707580566 2.0901598930358887 0.5423185229301453 10
-3.935109853744507 2.0914535522460938 0.38653573393821716 10
-3.9398701190948486 2.094865560531616 0.23184826970100403 10
-3.9310247898101807 2.091050386428833 0.07705236971378326 10
-1.7001696825027466 0.9062811136245728 -0.5059914588928223 119
-1.955310344696045 1.0427229404449463 -0.5027658939361572 119
-2.311617851257324 1.2332520484924316 -0.5013774037361145 119
-2.8438403606414795 1.5178312063217163 -0.5045015811920166 119
-3.7066802978515625 1.979182481765747 -0.5112424492835999 119
-3.939506769180298 2.104384183883667 -0.3874078392982483 10
-3.935509204864502 2.1031315326690674 -0.23107677698135376 10
-3.93987774848938 2.1063501834869385 -0.0765417143702507 10
-3.9264142513275146 2.1000335216522217 1.1820324659347534 10
-3.9256832599639893 2.1005237102508545 1.0182578563690186 10
-3.923985004425049 2.1004960536956787 0.8569162487983704 10
-3.925844192504883 2.102372884750366 0.6984913945198059 10
-3.931386947631836 2.106224298477173 0.5429279208183289 10
-3.932175636291504 2.107530117034912 0.38697150349617004 10
-3.936933994293213 2.1109650135040283 0.23210996389389038 10
-3.928110361099243 2.10711669921875 0.07713963836431503 10
-1.7012497186660767 0.9144969582557678 -0.5072855353355408 119
-1.9516586065292358 1.04954195022583 -0.5027658939361572 119
-2.3072991371154785 1.2413135766983032 -0.5013774037361145 119
-2.8341763019561768 1.5254085063934326 -0.5037193894386292 119
-3.6997487545013428 1.9921091794967651 -0.5112424492835999 119
-3.9365224838256836 2.1204848289489746 -0.38784363865852356 10
-3.932539939880371 2.119225263595581 -0.23133759200572968 10
-3.9369020462036133 2.122462511062622 -0.07662810385227203 10
-3.9233109951019287 2.1160192489624023 1.1833257675170898 10
-3.9226150512695312 2.116527795791626 1.0193817615509033 10
-3.9209485054016113 2.1165122985839844 0.8578695058822632 10
-3.9228272438049316 2.118410587310791 0.6992727518081665 10
-3.928377151489258 2.122293472290039 0.5435372591018677 10
-3.9291763305664062 2.1236112117767334 0.38740724325180054 10
-3.933933973312378 2.1270697116851807 0.23237164318561554 10
-3.9207310676574707 2.1208155155181885 0.07713963836431503 10
-1.6980470418930054 0.9204298257827759 -0.5072855353355408 119
-1.9479831457138062 1.0563480854034424 -0.5027658939361572 119
-2.3072664737701416 1.251700520515442 -0.5023306012153625 119
-2.8244941234588623 1.5329365730285645 -0.5029371976852417 119
-3.697134017944336 2.0073797702789307 -0.5118517875671387 119
-3.933473825454712 2.1365904808044434 -0.38827943801879883 10
-3.9295060634613037 2.1353235244750977 -0.2315984070301056 10
-3.933861494064331 2.138579845428467 -0.07671450078487396 10
-3.9201438426971436 2.1320090293884277 1.1846190690994263 10
-3.919482946395874 2.132535934448242 1.020505666732788 10
-3.9178476333618164 2.1325325965881348 0.8588227033615112 10
-3.919745922088623 2.1344525814056396 0.7000540494918823 10
-3.9253029823303223 2.138366937637329 0.5441465377807617 10
-3.9217395782470703 2.1373136043548584 0.38740724325180054 10
-3.926485061645508 2.1407887935638428 0.23237164318561554 10
-3.9176931381225586 2.1368823051452637 0.07722689211368561 10
-1.6990617513656616 0.9286678433418274 -0.5085796117782593 119
-1.9442839622497559 1.0631413459777832 -0.5027658939361572 119
-2.3028831481933594 1.259746789932251 -0.5023306012153625 119
-2.8191258907318115 1.5427865982055664 -0.5029371976852417 119
-3.6901044845581055 2.020272731781006 -0.5118517875671387 119
-3.930360794067383 2.152700901031494 -0.3887152075767517 10
-3.9264070987701416 2.151426315307617 -0.23185919225215912 10
-3.9263722896575928 2.1522984504699707 -0.07671450078487396 10
-3.91691255569458 2.1480021476745605 1.1859123706817627 10
-3.9162864685058594 2.148547887802124 1.0216295719146729 10
-3.914682388305664 2.14855694770813 0.8597758412361145 10
-3.916600227355957 2.150499105453491 0.7008354067802429 10
-3.9178149700164795 2.1520559787750244 0.5441465377807617 10
-3.9186205863952637 2.153388738632202 0.3878430426120758 10
-3.92336368560791 2.1568870544433594 0.2326333075761795 10
-3.914590358734131 2.152953624725342 0.07731415331363678 10
-1.6958097219467163 0.9345930218696594 -0.5085796117782593 119
-1.940561056137085 1.0699217319488525 -0.5027658939361572 119
-2.298471689224243 1.267777681350708 -0.5023306012153625 119
-2.81372332572937 1.5526177883148193 -0.5029371976852417 119
-3.683029890060425 2.0331413745880127 -0.5118517875671387 119
-3.92718243598938 2.1688151359558105 -0.3891509771347046 10
-3.923243522644043 2.1675336360931396 -0.23212000727653503 10
-3.923210859298706 2.1684091091156006 -0.0768008828163147 10
-3.9136171340942383 2.163998603820801 1.18720543384552 10
-3.9130258560180664 2.1645634174346924 1.0227534770965576 10
-3.9114532470703125 2.1645853519439697 0.8607290387153625 10
-3.9133903980255127 2.1665494441986084 0.701616644859314 10
-3.9146203994750977 2.1681230068206787 0.5447559356689453 10
-3.9154367446899414 2.169468402862549 0.3882788419723511 10
-3.920177698135376 2.1729896068573 0.23289498686790466 10
-3.911423683166504 2.169029712677002 0.07740142196416855 10
-1.6925370693206787 0.9405068159103394 -0.5085796117782593 119
-1.9410728216171265 1.0790562629699707 -0.5038906931877136 119
-2.294032335281372 1.2757930755615234 -0.5023306012153625 119
-2.8126020431518555 1.564831018447876 -0.5037193894386292 119
-3.675910472869873 2.045985221862793 -0.5118517875671387 119
-3.9195878505706787 2.1825103759765625 -0.3891509771347046 10
-3.920015811920166 2.183645009994507 -0.23238082230091095 10
-3.9199845790863037 2.1845240592956543 -0.07688727229833603 10
-3.9102580547332764 2.1799983978271484 1.1884987354278564 10
-3.909701347351074 2.1805825233459473 1.0238773822784424 10
-3.9081597328186035 2.180617094039917 0.8616822361946106 10
-3.91011643409729 2.182603597640991 0.7023980021476746 10
-3.9113609790802 2.1841938495635986 0.5453652739524841 10
-3.9121885299682617 2.185551881790161 0.38871461153030396 10
-3.9169278144836426 2.189096450805664 0.23315668106079102 10
-3.9081919193267822 2.1851093769073486 0.07748868316411972 10
-1.6892437934875488 0.9464091062545776 -0.5085796117782593 119
-1.937294363975525 1.0858253240585327 -0.5038906931877136 119
-2.2938461303710938 1.286193609237671 -0.5032837390899658 119
-2.8071227073669434 1.5746392011642456 -0.5037193894386292 119
-3.66874623298645 2.0588040351867676 -0.5118517875671387 119
-3.9162888526916504 2.198617458343506 -0.38958674669265747 10
-3.9167232513427734 2.1997601985931396 -0.23264163732528687 10
-3.916693925857544 2.2006430625915527 -0.07697366923093796 10
-3.9068355560302734 2.1960010528564453 1.1897920370101929 10
-3.9063124656677246 2.1966044902801514 1.0250012874603271 10
-3.9048023223876953 2.196652412414551 0.8626354336738586 10
-3.9067773818969727 2.1986613273620605 0.7031792998313904 10
-3.9080374240875244 2.200268507003784 0.5459746718406677 10
-3.9088752269744873 2.20163893699646 0.38915038108825684 10
-3.9136123657226562 2.205206871032715 0.23341836035251617 10
-3.904895067214966 2.201192855834961 0.0775759369134903 10
-1.6859298944473267 0.952299952507019 -0.5085796117782593 119
-1.9377336502075195 1.0949777364730835 -0.5050153732299805 119
-2.2893426418304443 1.2941926717758179 -0.5032837390899658 119
-2.8059074878692627 1.5868593454360962 -0.5045015811920166 119
-3.6615374088287354 2.0715978145599365 -0.5118517875671387 119
-3.9129252433776855 2.2147278785705566 -0.39002254605293274 10
-3.913365125656128 2.21587872505188 -0.2329024225473404 10
-3.9133381843566895 2.2167656421661377 -0.07706005871295929 10
-3.903348207473755 2.2120065689086914 1.1910853385925293 10
-3.907097816467285 2.2150323390960693 1.0272490978240967 10
-3.897110939025879 2.2102694511413574 0.8626354336738586 10
-3.903374433517456 2.2147223949432373 0.703960657119751 10
-3.904649496078491 2.2163467407226562 0.5465840101242065 10
-3.9054977893829346 2.2177295684814453 0.3895861506462097 10
-3.9102323055267334 2.221320629119873 0.23368002474308014 10
-3.9015345573425293 2.217280387878418 0.07766320556402206 10
-1.6825954914093018 0.9581791162490845 -0.5085796117782593 119
-1.9338996410369873 1.10173499584198 -0.5050153732299805 119
-2.2890753746032715 1.304606556892395 -0.5042369961738586 119
-2.80035138130188 1.5966441631317139 -0.5045015811920166 119
-3.6542837619781494 2.0843663215637207 -0.5118517875671387 119
-3.913823127746582 2.2333104610443115 -0.3908941149711609 10
-3.9099433422088623 2.2320010662078857 -0.2331632375717163 10
-3.909917116165161 2.232891082763672 -0.07714644074440002 10
-3.899796962738037 2.2280142307281494 1.1923786401748657 10
-3.903571844100952 2.231074810028076 1.0283730030059814 10
-3.893632411956787 2.2262957096099854 0.8635885715484619 10
-3.8999061584472656 2.230785846710205 0.704741895198822 10
-3.901196241378784 2.2324275970458984 0.5471932888031006 10
-3.902055501937866 2.233823537826538 0.390021950006485 10
-3.906787633895874 2.2374379634857178 0.2339417040348053 10
-3.902446746826172 2.235856533050537 0.07783772796392441 10
-1.6792405843734741 0.9640466570854187 -0.5085796117782593 119
-1.9300421476364136 1.1084789037704468 -0.5050153732299805 119
-2.2845075130462646 1.3125889301300049 -0.5042369961738586 119
-2.7947609424591064 1.6064094305038452 -0.5045015811920166 119
-3.6469860076904297 2.09710955619812 -0.5118517875671387 119
-3.91032075881958 2.2494421005249023 -0.39132988452911377 10
-3.9064559936523438 2.248126268386841 -0.23342405259609222 10
-3.9064319133758545 2.2490200996398926 -0.07723283767700195 10
-3.8961808681488037 2.2440237998962402 1.1936718225479126 10
-3.899981737136841 2.247119426727295 1.0294969081878662 10
-3.890090227127075 2.2423245906829834 0.86454176902771 10
-3.896373748779297 2.2468526363372803 0.7055232524871826 10
-3.8976786136627197 2.248511791229248 0.5478026866912842 10
-3.8985483646392822 2.24992036819458 0.39045774936676025 10
-3.90327787399292 2.2535581588745117 0.23420339822769165 10
-3.89894700050354 2.251965284347534 0.07792498916387558 10
-1.6758651733398438 0.9699023365974426 -0.5085796117782593 119
-1.9261609315872192 1.1152093410491943 -0.5050153732299805 119
-2.279911756515503 1.3205554485321045 -0.5042369961738586 119
-2.7891364097595215 1.6161551475524902 -0.5045015811920166 119
-3.639643430709839 2.1098270416259766 -0.5118517875671387 119
-3.9067537784576416 2.2655766010284424 -0.39176565408706665 10
-3.9029040336608887 2.264254570007324 -0.23368486762046814 10
-3.902881145477295 2.2651519775390625 -0.07731922715902328 10
-3.892500638961792 2.260035514831543 1.1949650049209595 10
-3.896327257156372 2.2631664276123047 1.030620813369751 10
-3.8864829540252686 2.2583558559417725 0.865494966506958 10
-3.89277720451355 2.2629220485687256 0.7063045501708984 10
-3.8940963745117188 2.2645983695983887 0.548412024974823 10
-3.8949766159057617 2.2660200595855713 0.39089351892471313 10
-3.895387649536133 2.267169237136841 0.23420339822769165 10
-3.8953826427459717 2.2680766582489014 0.07801225036382675 10
-1.6724693775177002 0.9757463932037354 -0.5085796117782593 119
-1.9222564697265625 1.121925950050354 -0.5050153732299805 119
-2.2752883434295654 1.3285057544708252 -0.5042369961738586 119
-2.7792136669158936 1.6233904361724854 -0.5037193894386292 119
-3.632256507873535 2.122519016265869 -0.5118517875671387 119
-3.9031219482421875 2.2817139625549316 -0.3922014534473419 10
-3.8992867469787598 2.2803850173950195 -0.23394568264484406 10
-3.899266004562378 2.2812862396240234 -0.07740561664104462 10
-3.88875675201416 2.2760488986968994 1.196258306503296 10
-3.8884036540985107 2.2767534255981445 1.030620813369751 10
-3.8828115463256836 2.2743892669677734 0.866448163986206 10
-3.88911509513855 2.278993606567383 0.707085907459259 10
-3.890448570251465 2.2806873321533203 0.5490214228630066 10
-3.8913393020629883 2.2821218967437744 0.39132925868034363 10
-3.891757011413574 2.2832798957824707 0.2344650775194168 10
-3.891753673553467 2.2841908931732178 0.07809951156377792 10
-1.664890170097351 0.9791300296783447 -0.5072855353355408 119
-1.9183285236358643 1.1286290884017944 -0.5050153732299805 119
-2.270637273788452 1.336439847946167 -0.5042369961738586 119
-2.7735302448272705 1.6330817937850952 -0.5037193894386292 119
-3.6248252391815186 2.1351850032806396 -0.5118517875671387 119
-3.8994247913360596 2.2978529930114746 -0.3926372528076172 10
-3.8913028240203857 2.2939820289611816 -0.23394568264484406 10
-3.895585298538208 2.2974228858947754 -0.07749201357364655 10
-3.8849480152130127 2.2920634746551514 1.1975516080856323 10
-3.8846278190612793 2.2927887439727783 1.0317447185516357 10
-3.879075050354004 2.2904245853424072 0.8674013018608093 10
-3.885387897491455 2.2950665950775146 0.7078671455383301 10
-3.8867363929748535 2.2967779636383057 0.5496307015419006 10
-3.8876373767852783 2.2982261180877686 0.3917650580406189 10
-3.888061285018921 2.2993927001953125 0.23472677171230316 10
-3.888059139251709 2.300307273864746 0.07818678021430969 10
-1.657307744026184 0.9824728965759277 -0.5059914588928223 119
-1.914377212524414 1.135318398475647 -0.5050153732299805 119
-2.2617368698120117 1.341853380203247 -0.5032837390899658 119
-2.767812967300415 1.6427533626556396 -0.5037193894386292 119
-3.6173501014709473 2.147825002670288 -0.5118517875671387 119
-3.895662546157837 2.3139944076538086 -0.3930729925632477 10
-3.887563943862915 2.3101019859313965 -0.23420648276805878 10
-3.891839027404785 2.3135616779327393 -0.07757839560508728 10
-3.8810746669769287 2.308079242706299 1.1988447904586792 10
-3.8807880878448486 2.308825731277466 1.0328686237335205 10
-3.8794920444488525 2.308971881866455 0.8693077564239502 10
-3.8858399391174316 2.3136682510375977 0.7094298005104065 10
-3.8829591274261475 2.312871217727661 0.5502400398254395 10
-3.8881494998931885 2.3168818950653076 0.39263662695884705 10
-3.8842992782592773 2.315506935119629 0.23498842120170593 10
-3.8842999935150146 2.3164260387420654 0.07827404141426086 10
-1.6538681983947754 0.9882519841194153 -0.5059914588928223 119
-1.910402536392212 1.1419938802719116 -0.5050153732299805 119
-2.2570393085479736 1.3497400283813477 -0.5032837390899658 119
-2.7662994861602783 1.6549402475357056 -0.5045015811920166 119
-3.609830856323242 2.1604387760162354 -0.5118517875671387 119
-3.8918352127075195 2.3301374912261963 -0.39350879192352295 10
-3.883760452270508 2.326223850250244 -0.2344672977924347 10
-3.8880279064178467 2.329702138900757 -0.07766478508710861 10
-3.8771369457244873 2.3240957260131836 1.2001380920410156 10
-3.8768837451934814 2.324864149093628 1.0339925289154053 10
-3.8756179809570312 2.3250248432159424 0.8702609539031982 10
-3.881974935531616 2.3297598361968994 0.7102110981941223 10
-3.879117012023926 2.328965663909912 0.550849437713623 10
-3.884307861328125 2.3330047130584717 0.3930723965167999 10
-3.8804733753204346 2.3316233158111572 0.23525011539459229 10
-3.88047456741333 2.3325459957122803 0.07836129516363144 10
-1.6462713479995728 0.9915273189544678 -0.504697322845459 119
-1.9064046144485474 1.1486555337905884 -0.5050153732299805 119
-2.2523140907287598 1.3576103448867798 -0.5032837390899658 119
-2.7605059146881104 1.6645863056182861 -0.5045015811920166 119
-3.6065170764923096 2.1755897998809814 -0.5124611854553223 119
-3.887942314147949 2.3462820053100586 -0.39394456148147583 10
-3.8798911571502686 2.3423469066619873 -0.2347281128168106 10
-3.8841516971588135 2.3458445072174072 -0.07775118201971054 10
-3.8772683143615723 2.3426108360290527 1.202724575996399 10
-3.8729143142700195 2.340902805328369 1.03511643409729 10
-3.871678113937378 2.341078281402588 0.8712140321731567 10
-3.8780441284179688 2.3458523750305176 0.7109923958778381 10
-3.8752100467681885 2.3450615406036377 0.5514587759971619 10
-3.880401372909546 2.3491287231445312 0.3935081660747528 10
-3.8765816688537598 2.347740888595581 0.23551179468631744 10
-3.876584768295288 2.3486673831939697 0.07844856381416321 10
-1.6386717557907104 0.99476158618927 -0.5034032464027405 119
-1.9023834466934204 1.1553031206130981 -0.5050153732299805 119
-2.247561454772949 1.365464210510254 -0.5032837390899658 119
-2.75467848777771 1.674212098121643 -0.5045015811920166 119
-3.59890079498291 2.1881656646728516 -0.5124611854553223 119
-3.883984327316284 2.3624274730682373 -0.3943803608417511 10
-3.8759570121765137 2.3584718704223633 -0.23498892784118652 10
-3.8802096843719482 2.361987590789795 -0.07783757150173187 10
-3.87319278717041 2.358642816543579 1.2040177583694458 10
-3.868880271911621 2.3569424152374268 1.0362404584884644 10
-3.8676741123199463 2.357133150100708 0.8721672892570496 10
-3.8740487098693848 2.361945629119873 0.711773693561554 10
-3.87123703956604 2.3611583709716797 0.5520680546760559 10
-3.876429796218872 2.3652539253234863 0.3939439654350281 10
-3.8726251125335693 2.3638598918914795 0.2357734888792038 10
-3.8726296424865723 2.364790439605713 0.07853582501411438 10
-1.639309048652649 1.0029960870742798 -0.504697322845459 119
-1.898339033126831 1.161936640739441 -0.5050153732299805 119
-2.242781162261963 1.3733012676239014 -0.5032837390899658 119
-2.7488176822662354 1.6838173866271973 -0.5045015811920166 119
-3.591240882873535 2.2007148265838623 -0.5124611854553223 119
-3.879960536956787 2.3785741329193115 -0.3948161005973816 10
-3.8719568252563477 2.3745973110198975 -0.23524971306324005 10
-3.876201868057251 2.378131866455078 -0.07792395353317261 10
-3.8690524101257324 2.3746750354766846 1.2053110599517822 10
-3.8689329624176025 2.3755311965942383 1.0384881496429443 10
-3.86360502243042 2.3731884956359863 0.8731204867362976 10
-3.869987964630127 2.378039598464966 0.7125550508499146 10
-3.867198944091797 2.377255916595459 0.5526774525642395 10
-3.8723931312561035 2.3813798427581787 0.39437976479530334 10
-3.8686025142669678 2.3799798488616943 0.23603513836860657 10
-3.8686087131500244 2.3809142112731934 0.07862309366464615 10
-1.6399089097976685 1.0112472772598267 -0.5059914588928223 119
-1.8942716121673584 1.1685559749603271 -0.5050153732299805 119
-2.237973928451538 1.3811216354370117 -0.5032837390899658 119
-2.7387213706970215 1.6908081769943237 -0.5037193894386292 119
-3.587759494781494 2.2158448696136475 -0.5130705237388611 119
-3.8758716583251953 2.394721031188965 -0.39525189995765686 10
-3.867892026901245 2.390723943710327 -0.23551052808761597 10
-3.872129440307617 2.3942770957946777 -0.07801035046577454 10
-3.864847183227539 2.390706777572632 1.2066043615341187 10
-3.864760398864746 2.3915855884552 1.039612054824829 10
-3.859470844268799 2.3892440795898438 0.8740736842155457 10
-3.8658621311187744 2.394134283065796 0.7133363485336304 10
-3.863095998764038 2.3933541774749756 0.5532867908477783 10
-3.8682901859283447 2.3975064754486084 0.39481550455093384 10
-3.8645148277282715 2.3961002826690674 0.23629683256149292 10
-3.864522695541382 2.3970391750335693 0.07871034741401672 10
-1.636368989944458 1.0169655084609985 -0.5059914588928223 119
-1.8901809453964233 1.1751611232757568 -0.5050153732299805 119
-2.237307071685791 1.3915174007415771 -0.5042369961738586 119
-2.732802391052246 1.7003577947616577 -0.5037193894386292 119
-3.5842158794403076 2.2309775352478027 -0.5136798024177551 119
-3.8717172145843506 2.4108688831329346 -0.39568769931793213 10
-3.8637614250183105 2.406850814819336 -0.23577134311199188 10
-3.8679909706115723 2.4104228019714355 -0.07809673994779587 10
-3.86057710647583 2.40673828125 1.207897663116455 10
-3.860522508621216 2.407639741897583 1.0407359600067139 10
-3.855271339416504 2.405299663543701 0.8750268220901489 10
-3.8658607006073 2.412843942642212 0.714898943901062 10
-3.8589279651641846 2.4094529151916504 0.5538961887359619 10
-3.8641226291656494 2.4136338233947754 0.3952512741088867 10
-3.8603620529174805 2.412221670150757 0.23655851185321808 10
-3.8603708744049072 2.413163900375366 0.0787976086139679 10
-1.636902093887329 1.0252348184585571 -0.5072855353355408 119
-1.881939172744751 1.1791653633117676 -0.5038906931877136 119
-2.2365949153900146 1.4019254446029663 -0.5051901340484619 119
-2.7268505096435547 1.7098866701126099 -0.5037193894386292 119
-3.5848143100738525 2.2487494945526123 -0.5148985385894775 119
-3.871715784072876 2.429663896560669 -0.3965592086315155 10
-3.859565258026123 2.422978162765503 -0.2360321581363678 10
-3.8637874126434326 2.4265689849853516 -0.0781831294298172 10
-3.8562419414520264 2.4227685928344727 1.209190845489502 10
-3.860344648361206 2.426286220550537 1.0429837703704834 10
-3.8551626205444336 2.4239680767059326 0.876933217048645 10
-3.8615949153900146 2.428953170776367 0.7156802415847778 10
-3.8588945865631104 2.428194284439087 0.5551148056983948 10
-3.859889268875122 2.4297609329223633 0.395687073469162 10
-3.8561437129974365 2.428342819213867 0.23682020604610443 10
-3.856153726577759 2.4292891025543213 0.07888487726449966 10
-1.6333134174346924 1.030942440032959 -0.5072855353355408 119
-1.8778116703033447 1.1857273578643799 -0.5038906931877136 119
-2.2316877841949463 1.4097239971160889 -0.5051901340484619 119
-2.720865488052368 1.7193946838378906 -0.5037193894386292 119
-3.5853328704833984 2.2665531635284424 -0.5161172747612 119
-3.8674206733703613 2.445826530456543 -0.39699500799179077 10
-3.8553035259246826 2.439105272293091 -0.23629294335842133 10
-3.863741874694824 2.4453883171081543 -0.07835590839385986 10
-3.851842164993286 2.438798427581787 1.2104840278625488 10
-3.8559675216674805 2.4423534870147705 1.0441076755523682 10
-3.8508236408233643 2.440037250518799 0.8778864145278931 10
-3.857264280319214 2.445061683654785 0.7164615988731384 10
-3.854586362838745 2.444307327270508 0.5557242035865784 10
-3.8597965240478516 2.4485559463500977 0.39655861258506775 10
-3.8560752868652344 2.447139263153076 0.23734354972839355 10
-3.8518712520599365 2.4454145431518555 0.07897213846445084 10
-1.6337798833847046 1.0392296314239502 -0.5085796117782593 119
-1.8695508241653442 1.1896592378616333 -0.5027658939361572 119
-2.2226128578186035 1.4148699045181274 -0.5042369961738586 119
-2.7148468494415283 1.7288819551467896 -0.5037193894386292 119
-3.589956045150757 2.2870535850524902 -0.5179452896118164 119
-3.8672611713409424 2.464665651321411 -0.3978665769100189 10
-3.8509764671325684 2.4552323818206787 -0.23655375838279724 10
-3.8593971729278564 2.4615485668182373 -0.0784422978758812 10
-3.8473777770996094 2.454827308654785 1.2117773294448853 10
-3.8515255451202393 2.4584197998046875 1.045231580734253 10
-3.8464200496673584 2.456105947494507 0.8788396716117859 10
-3.8528671264648438 2.461169481277466 0.7172428369522095 10
-3.8502120971679688 2.4604196548461914 0.5563335418701172 10
-3.8554224967956543 2.4646971225738525 0.396994411945343 10
-3.8517160415649414 2.4632747173309326 0.2376052290201187 10
-3.851733922958374 2.4642333984375 0.07914666086435318 10
-1.630142331123352 1.0449262857437134 -0.5085796117782593 119
-1.8653868436813354 1.1961780786514282 -0.5027658939361572 119
-2.213529109954834 1.4199693202972412 -0.5032837390899658 119
-2.71295166015625 1.741015076637268 -0.5045015811920166 119
-3.5903027057647705 2.3049328327178955 -0.519163966178894 119
-3.8628251552581787 2.4808411598205566 -0.3983023464679718 10
-3.846583127975464 2.4713587760925293 -0.23681457340717316 10
-3.8549866676330566 2.477708339691162 -0.07852869480848312 10
-3.846909999847412 2.473466157913208 1.2143638134002686 10
-3.847018003463745 2.47448468208313 1.0463554859161377 10
-3.8460781574249268 2.4748291969299316 0.8807460069656372 10
-3.848405361175537 2.477276563644409 0.7180241942405701 10
-3.8457725048065186 2.4765310287475586 0.5569428205490112 10
-3.850982904434204 2.48083758354187 0.3974301815032959 10
-3.8472912311553955 2.4794094562530518 0.23786692321300507 10
-3.8473103046417236 2.480372428894043 0.07923392206430435 10
-1.6264848709106445 1.050610065460205 -0.5085796117782593 119
-1.861199975013733 1.2026821374893188 -0.5027658939361572 119
-2.204437017440796 1.4250226020812988 -0.5023306012153625 119
-2.7110047340393066 1.7531561851501465 -0.505283772945404 119
-3.598902702331543 2.3282341957092285 -0.5216013789176941 119
-3.8625051975250244 2.499722480773926 -0.39917391538619995 10
-3.8421249389648438 2.4874844551086426 -0.23707538843154907 10
-3.850510358810425 2.4938671588897705 -0.07861507683992386 10
-3.842305898666382 2.4895055294036865 1.215657114982605 10
-3.8424453735351562 2.4905478954315186 1.0474793910980225 10
-3.841534376144409 2.4909098148345947 0.8816992044448853 10
-3.8438782691955566 2.4933829307556152 0.7188054919242859 10
-3.8412675857543945 2.4926416873931885 0.5575522184371948 10
-3.846477746963501 2.4969770908355713 0.39786598086357117 10
-3.8469879627227783 2.498262882232666 0.2383902668952942 10
-3.842820882797241 2.4965102672576904 0.07932118326425552 10
-1.6228077411651611 1.0562812089920044 -0.5085796117782593 119
-1.8569904565811157 1.2091715335845947 -0.5027658939361572 119
-2.199449300765991 1.432708978652954 -0.5023306012153625 119
-2.7048685550689697 1.7626086473464966 -0.505283772945404 119
-3.5741240978240967 2.329941511154175 -0.519163966178894 119
-3.8579280376434326 2.5159108638763428 -0.3996097147464752 10
-3.8376004695892334 2.5036089420318604 -0.2373361885547638 10
-3.845968008041382 2.5100252628326416 -0.07870146632194519 10
-3.841681480407715 2.508183717727661 1.2182435989379883 10
-3.8418867588043213 2.5092742443084717 1.049727201461792 10
-3.841033458709717 2.5096733570098877 0.8836055397987366 10
-3.843419075012207 2.5121891498565674 0.7203681468963623 10
-3.8366968631744385 2.508751153945923 0.5581615567207336 10
-3.8460748195648193 2.5158417224884033 0.39873751997947693 10
-3.8424222469329834 2.5144102573394775 0.23865194618701935 10
-3.8382656574249268 2.5126469135284424 0.0794084444642067 10
-1.6189253330230713 1.0622220039367676 -0.5085796117782593 119
-1.852546215057373 1.2159696817398071 -0.5027658939361572 119
-2.194183349609375 1.4407607316970825 -0.5023306012153625 119
-2.7025177478790283 1.7752219438552856 -0.5060659050941467 119
-3.5572659969329834 2.3375751972198486 -0.5179452896118164 119
-3.8528428077697754 2.5327696800231934 -0.4000454545021057 10
-3.8367421627044678 2.5231447219848633 -0.23785781860351562 10
-3.8409194946289062 2.5268523693084717 -0.07878786325454712 10
-3.8364968299865723 2.52490234375 1.2195367813110352 10
-3.836732864379883 2.526017427444458 1.0508511066436768 10
-3.8359086513519287 2.5264346599578857 0.8845587372779846 10
-3.8383092880249023 2.5289762020111084 0.7211494445800781 10
-3.8357629776000977 2.528258800506592 0.5593802332878113 10
-3.8409862518310547 2.532663345336914 0.3991732895374298 10
-3.8373491764068604 2.53122615814209 0.2389136403799057 10
-3.833203077316284 2.529451608657837 0.07949570566415787 10
-1.6152076721191406 1.067866563796997 -0.5085796117782593 119
-1.8482904434204102 1.2224289178848267 -0.5027658939361572 119
-2.1850473880767822 1.4457026720046997 -0.5013774037361145 119
-2.6963045597076416 1.7846447229385376 -0.5060659050941467 119
-3.5408084392547607 2.3444983959198 -0.516726553440094 119
-3.848130941390991 2.5489540100097656 -0.400481253862381 10
-3.832073926925659 2.539280414581299 -0.23811863362789154 10
-3.836242437362671 2.543006420135498 -0.07887425273656845 10
-3.835710287094116 2.5436172485351562 1.222123384475708 10
-3.836012363433838 2.544781446456909 1.0530989170074463 10
-3.8311564922332764 2.542523145675659 0.8855119347572327 10
-3.8335723876953125 2.545090675354004 0.721930742263794 10
-3.8310489654541016 2.5443785190582275 0.5599895715713501 10
-3.836271286010742 2.5488121509552 0.3996090888977051 10
-3.8326480388641357 2.5473690032958984 0.23917530477046967 10
-3.828510046005249 2.545590400695801 0.07958296686410904 10
-1.6114702224731445 1.073498249053955 -0.5085796117782593 119
-1.8440120220184326 1.2288731336593628 -0.5027658939361572 119
-2.179987668991089 1.453321099281311 -0.5013774037361145 119
-2.6859500408172607 1.7913057804107666 -0.505283772945404 119
-3.5243465900421143 2.3513355255126953 -0.5155079364776611 119
-3.843353271484375 2.565135955810547 -0.40091702342033386 10
-3.8273391723632812 2.5554139614105225 -0.23837941884994507 10
-3.8314995765686035 2.5591585636138916 -0.07896063476800919 10
-3.830824136734009 2.5596745014190674 1.2234166860580444 10
-3.8311562538146973 2.560863494873047 1.054222822189331 10
-3.826338529586792 2.5586092472076416 0.8864651322364807 10
-3.8328752517700195 2.563948631286621 0.7234933972358704 10
-3.830392599105835 2.563255786895752 0.5612083077430725 10
-3.8314898014068604 2.5649585723876953 0.40004482865333557 10
-3.832030773162842 2.566289186477661 0.23969867825508118 10
-3.8237578868865967 2.561715841293335 0.07967023551464081 10
-1.6037031412124634 1.0764250755310059 -0.5072855353355408 119
-1.843756079673767 1.23801851272583 -0.5038906931877136 119
-2.178975820541382 1.4636586904525757 -0.5023306012153625 119
-2.679680824279785 1.8006705045700073 -0.505283772945404 119
-3.516117572784424 2.3636233806610107 -0.5155079364776611 119
-3.8385090827941895 2.581315755844116 -0.40135282278060913 10
-3.8225386142730713 2.571545124053955 -0.23864023387432098 10
-3.826690435409546 2.575308322906494 -0.07904703170061111 10
-3.8258719444274902 2.575727939605713 1.2247097492218018 10
-3.830275774002075 2.579664468765259 1.0564706325531006 10
-3.8255248069763184 2.577435255050659 0.888371467590332 10
-3.8279967308044434 2.5800721645355225 0.7242746353149414 10
-3.8255367279052734 2.579385280609131 0.5618177056312561 10
-3.8266425132751465 2.5811026096343994 0.40048062801361084 10
-3.82718825340271 2.582442283630371 0.23996035754680634 10
-3.8189356327056885 2.5778441429138184 0.07975748926401138 10
-1.5999360084533691 1.0820165872573853 -0.5072855353355408 119
-1.8394232988357544 1.2444467544555664 -0.5038906931877136 119
-2.1738533973693848 1.4712557792663574 -0.5023306012153625 119
-2.6733791828155518 1.8100132942199707 -0.505283772945404 119
-3.5037362575531006 2.3730993270874023 -0.5148985385894775 119
-3.8335988521575928 2.5974929332733154 -0.4017886221408844 10
-3.821805715560913 2.5904760360717773 -0.23916186392307281 10
-3.825953483581543 2.594261884689331 -0.07921981066465378 10
-3.8248519897460938 2.594489812850952 1.2272963523864746 10
-3.8252789974212646 2.595754384994507 1.0575945377349854 10
-3.820565700531006 2.5935299396514893 0.8893246650695801 10
-3.8230528831481934 2.596193313598633 0.725055992603302 10
-3.8206145763397217 2.5955119132995605 0.5624269843101501 10
-3.8217291831970215 2.5972440242767334 0.4009164273738861 10
-3.822279453277588 2.5985934734344482 0.2402220219373703 10
-3.8181819915771484 2.5967819690704346 0.07993201911449432 10
-1.5961493253707886 1.0875948667526245 -0.5072855353355408 119
-1.8350682258605957 1.2508600950241089 -0.5038906931877136 119
-2.172759771347046 1.481600284576416 -0.5032837390899658 119
-2.6670446395874023 1.8193341493606567 -0.505283772945404 119
-3.4913320541381836 2.3825178146362305 -0.5142892003059387 119
-3.828622341156006 2.6136672496795654 -0.4022243618965149 10
-3.8168632984161377 2.606616735458374 -0.23942264914512634 10
-3.8210020065307617 2.6104211807250977 -0.07930620014667511 10
-3.8197600841522217 2.6105504035949707 1.228589653968811 10
-3.8202171325683594 2.6118414402008057 1.0587184429168701 10
-3.815540313720703 2.609621286392212 0.8902779221534729 10
-3.8221194744110107 2.615100145339966 0.7266186475753784 10
-3.8197221755981445 2.614438772201538 0.5636457204818726 10
-3.820859670639038 2.616196632385254 0.40178799629211426 10
-3.817304849624634 2.614741325378418 0.24048370122909546 10
-3.813218355178833 2.6129202842712402 0.0800192803144455 10
-1.5923432111740112 1.093159794807434 -0.5072855353355408 119
-1.8306907415390015 1.2572580575942993 -0.5038906931877136 119
-2.1716201305389404 1.4919549226760864 -0.5042369961738586 119
-2.664747476577759 1.8314299583435059 -0.5060659050941467 119
-3.478904962539673 2.391878843307495 -0.5136798024177551 119
-3.827683687210083 2.6326611042022705 -0.40309593081474304 10
-3.811854362487793 2.6227543354034424 -0.23968346416950226 10
-3.8159847259521484 2.626577615737915 -0.07939258962869644 10
-3.8146023750305176 2.6266071796417236 1.2298829555511475 10
-3.819101095199585 2.630687713623047 1.0609662532806396 10
-3.8104493618011475 2.625709056854248 0.8912310004234314 10
-3.817033529281616 2.631228446960449 0.7273998856544495 10
-3.8146581649780273 2.6305735111236572 0.5642550587654114 10
-3.8158037662506104 2.6323463916778564 0.40222373604774475 10
-3.816373586654663 2.6337225437164307 0.24100707471370697 10
-3.808187961578369 2.6290547847747803 0.08010653406381607 10
-1.584545612335205 1.0959641933441162 -0.5059914588928223 119
-1.8262908458709717 1.2636406421661377 -0.5038906931877136 119
-2.1663992404937744 1.4995263814926147 -0.5042369961738586 119
-2.6583385467529297 1.8407204151153564 -0.5060659050941467 119
-3.4664552211761475 2.401182174682617 -0.5130705237388611 119
-3.8225646018981934 2.64884352684021 -0.4035317301750183 10
-3.8067798614501953 2.6388888359069824 -0.23994427919387817 10
-3.815009593963623 2.6455798149108887 -0.0795653760433197 10
-3.813347339630127 2.6454129219055176 1.2324693202972412 10
-3.8138978481292725 2.6467807292938232 1.0620901584625244 10
-3.8093245029449463 2.644592046737671 0.8931374549865723 10
-3.8159382343292236 2.6501705646514893 0.7289625406265259 10
-3.80952787399292 2.6467044353485107 0.5648643374443054 10
-3.8106820583343506 2.6484928131103516 0.40265953540802 10
-3.8112566471099854 2.64987850189209 0.24126875400543213 10
-3.803091526031494 2.645186424255371 0.08019380271434784 10
-1.5805180072784424 1.101764440536499 -0.5059914588928223 119
-1.8216471672058105 1.270325779914856 -0.5038906931877136 119
-2.160888671875 1.5074565410614014 -0.5042369961738586 119
-2.651573896408081 1.8504513502120972 -0.5060659050941467 119
-3.453561782836914 2.4110302925109863 -0.5124611854553223 119
-3.8169138431549072 2.6656877994537354 -0.4039674699306488 10
-3.801175832748413 2.655683755874634 -0.2402050942182541 10
-3.809385061264038 2.6624085903167725 -0.07965176552534103 10
-3.807584047317505 2.6621391773223877 1.2337626218795776 10
-3.8121557235717773 2.6663260459899902 1.064337968826294 10
-3.8036279678344727 2.6613502502441406 0.8940906524658203 10
-3.8102450370788574 2.66697096824646 0.7297438979148865 10
-3.8079326152801514 2.6663424968719482 0.5660830736160278 10
-3.8050291538238525 2.665299415588379 0.4030953049659729 10
-3.805607795715332 2.6666948795318604 0.2415304183959961 10
-3.801558494567871 2.664846897125244 0.08036833256483078 10
-1.576662540435791 1.1072747707366943 -0.5059914588928223 119
-1.817201852798462 1.2766767740249634 -0.5038906931877136 119
-2.1596288681030273 1.5178123712539673 -0.5051901340484619 119
-2.6450984477996826 1.8596959114074707 -0.5060659050941467 119
-3.4370057582855225 2.417360544204712 -0.5112424492835999 119
-3.8157331943511963 2.684727668762207 -0.40483906865119934 10
-3.7959656715393066 2.6718099117279053 -0.24046590924263 10
-3.8041560649871826 2.67856764793396 -0.07973814755678177 10
-3.8061654567718506 2.680976152420044 1.236349105834961 10
-3.8068082332611084 2.6824233531951904 1.0654618740081787 10
-3.7983264923095703 2.677438974380493 0.8950437903404236 10
-3.8089845180511475 2.6859469413757324 0.7313064336776733 10
-3.80265736579895 2.6824791431427 0.5666924715042114 10
-3.8038418292999268 2.684309244155884 0.40396684408187866 10
-3.8044345378875732 2.6857221126556396 0.2420537918806076 10
-3.796313524246216 2.680990219116211 0.08045559376478195 10
-1.5729820728302002 1.112497091293335 -0.5059914588928223 119
-1.8131821155548096 1.282379388809204 -0.5038906931877136 119
-2.1548500061035156 1.5245895385742188 -0.5051901340484619 119
-2.6392431259155273 1.8679964542388916 -0.5060659050941467 119
-3.429394483566284 2.4281461238861084 -0.5112424492835999 119
-3.811344623565674 2.6995809078216553 -0.4052748382091522 10
-3.7916269302368164 2.6866085529327393 -0.24072670936584473 10
-3.8038790225982666 2.6962873935699463 -0.07991093397140503 10
-3.801663875579834 2.695714235305786 1.2376424074172974 10
-3.8063101768493652 2.7000069618225098 1.0677096843719482 10
-3.7979023456573486 2.6950395107269287 0.8969501852989197 10
-3.8045547008514404 2.700758695602417 0.7320877909660339 10
-3.8023035526275635 2.7001588344573975 0.5679110884666443 10
-3.799450635910034 2.6991305351257324 0.40440264344215393 10
-3.800048351287842 2.7005534172058105 0.24231547117233276 10
-3.7960243225097656 2.6986911296844482 0.0806301161646843 10
-1.569284200668335 1.1177071332931519 -0.5059914588928223 119
-1.812662124633789 1.2915277481079102 -0.5050153732299805 119
-2.1455183029174805 1.5292532444000244 -0.5042369961738586 119
-2.632706642150879 1.8771978616714478 -0.5060659050941467 119
-3.420897960662842 2.4401023387908936 -0.5112424492835999 119
-3.805952548980713 2.715761184692383 -0.4057105779647827 10
-3.7903544902801514 2.705629825592041 -0.24124833941459656 10
-3.7985129356384277 2.712454319000244 -0.07999732345342636 10
-3.79616117477417 2.711775541305542 1.2389357089996338 10
-3.80082631111145 2.7161099910736084 1.068833589553833 10
-3.7924647331237793 2.711134910583496 0.8979033827781677 10
-3.803138017654419 2.7197680473327637 0.7336503863334656 10
-3.796891212463379 2.7163023948669434 0.5685204863548279 10
-3.7981069087982178 2.718174695968628 0.4052742123603821 10
-3.7946579456329346 2.716707944869995 0.24257713556289673 10
-3.794710159301758 2.7177469730377197 0.08080463856458664 10
-1.565177083015442 1.1234514713287354 -0.5059914588928223 119
-1.807916283607483 1.2981626987457275 -0.5050153732299805 119
-2.1398987770080566 1.5371068716049194 -0.5042369961738586 119
-2.6258087158203125 1.8868346214294434 -0.5060659050941467 119
-3.415961265563965 2.4555208683013916 -0.5118517875671387 119
-3.8000171184539795 2.732600688934326 -0.406146377325058 10
-3.7844655513763428 2.722419500350952 -0.24150915443897247 10
-3.796660900115967 2.732198476791382 -0.08017010241746902 10
-3.7940361499786377 2.7313146591186523 1.2415220737457275 10
-3.798752546310425 2.7357165813446045 1.0710813999176025 10
-3.790466785430908 2.7307546138763428 0.899809718132019 10
-3.8011574745178223 2.739464282989502 0.735213041305542 10
-3.7949609756469727 2.7360050678253174 0.5697391033172607 10
-3.796198606491089 2.7379040718078613 0.40614575147628784 10
-3.7927744388580322 2.736441135406494 0.24310050904750824 10
-3.7847237586975098 2.7316370010375977 0.08080463856458664 10
-1.565159559249878 1.1317378282546997 -0.5072855353355408 119
-1.80337393283844 1.304465651512146 -0.5050153732299805 119
-2.1345202922821045 1.5445669889450073 -0.5042369961738586 119
-2.619206190109253 1.895988941192627 -0.5060659050941467 119
-3.4033493995666504 2.4645190238952637 -0.5112424492835999 119
-3.794489860534668 2.7487711906433105 -0.40658217668533325 10
-3.7830259799957275 2.741473436355591 -0.24203075468540192 10
-3.795196056365967 2.7513034343719482 -0.08034288883209229 10
