# .PCD v0.7 - Point Cloud Data file format
VERSION 0.7
FIELDS x y z intensity
SIZE 4 4 4 4
TYPE F F F F
COUNT 1 1 1 1
WIDTH 795
HEIGHT 1
VIEWPOINT 0 0 0 1 0 0 0
POINTS 795
DATA ascii
-0.04985412582755089 2.0398929119110107 0.10493358224630356 44
-0.04931480437517166 2.0323479175567627 0.03481755033135414 44
nan nan nan 0
-0.047476790845394135 2.0449013710021973 -0.4633994400501251 119
-0.04723970592021942 2.050109624862671 -0.39080747961997986 44
-0.046599891036748886 2.0377860069274902 -0.3167800307273865 44
-0.046805188059806824 2.0625131130218506 -0.24861374497413635 44
-0.04593995586037636 2.04008412361145 -0.17518331110477448 44
-0.045582082122564316 2.040011167526245 -0.10458440333604813 44
-0.04516909644007683 2.0374510288238525 -0.034556079655885696 44
-0.04481038451194763 2.0373170375823975 0.5354064106941223 44
-0.04462328553199768 2.045046329498291 0.4630488157272339 44
-0.04405851662158966 2.035452127456665 0.38794761896133423 44
-0.04375574737787247 2.0379042625427246 0.3164306581020355 44
-0.04329134523868561 2.032806873321533 0.24495737254619598 44
-0.04340696334838867 2.0550858974456787 0.17649036645889282 44
-0.04283783584833145 2.04504656791687 0.10519526898860931 44
-0.04231743514537811 2.037506103515625 0.03490481153130531 44
nan nan nan 0
-0.040338460355997086 2.0450546741485596 -0.4633994400501251 119
-0.04008319973945618 2.050261974334717 -0.39080747961997986 44
-0.03948640823364258 2.037936210632324 -0.3167800307273865 44
-0.03951011225581169 2.057701826095581 -0.24800437688827515 44
-0.038723696023225784 2.0352518558502197 -0.1747475266456604 44
-0.03836672380566597 2.035165786743164 -0.1043236032128334 44
-0.038056790828704834 2.0375959873199463 -0.034556079655885696 44
-0.037698544561862946 2.037461042404175 0.5354064106941223 44
-0.03739519417285919 2.040318727493286 0.4619249403476715 44
-0.036864109337329865 2.030686140060425 0.38699445128440857 44
-0.03664186969399452 2.0380446910858154 0.3164306581020355 44
-0.036195263266563416 2.0329456329345703 0.24495737254619598 44
-0.03623311221599579 2.055224657058716 0.17649036645889282 44
-0.0356990322470665 2.0451838970184326 0.10519526898860931 44
-0.0351252518594265 2.0326428413391113 0.03481755033135414 44
nan nan nan 0
-0.03319964185357094 2.045182943344116 -0.4633994400501251 119
-0.03284739702939987 2.0454816818237305 -0.3898542523384094 44
-0.03229400888085365 2.033123731613159 -0.3159978687763214 44
-0.03232714906334877 2.0578272342681885 -0.24800437688827515 44
-0.031619105488061905 2.035374641418457 -0.1747475266456604 44
-0.031262438744306564 2.0352871417999268 -0.1043236032128334 44
-0.030868113040924072 2.0327179431915283 -0.034469690173864365 44
-0.030513755977153778 2.0327510833740234 0.5341131687164307 44
-0.03027292527258396 2.0404367446899414 0.4619249403476715 44
-0.0297754667699337 2.0308024883270264 0.38699445128440857 44
-0.0294560045003891 2.033222198486328 0.3156493902206421 44
-0.02902771160006523 2.028097152709961 0.24434801936149597 44
-0.02898840792477131 2.050358295440674 0.17605459690093994 44
-0.02849007397890091 2.0403032302856445 0.10493358224630356 44
-0.027960864827036858 2.027754068374634 0.03473028913140297 44
nan nan nan 0
-0.026710588485002518 2.040405750274658 -0.4622747302055359 119
-0.02642117626965046 2.045574903488159 -0.3898542523384094 44
-0.02590661495923996 2.033215284347534 -0.3159978687763214 44
-0.02586214616894722 2.0579185485839844 -0.24800437688827515 44
-0.025162922218441963 2.0304834842681885 -0.17431175708770752 44
-0.024807250127196312 2.0303826332092285 -0.10406279563903809 44
-0.024421798065304756 2.027806043624878 -0.03438330069184303 44
-0.024127541109919548 2.0328369140625 0.5341131687164307 44
-0.02386256493628025 2.0405218601226807 0.4619249403476715 44
-0.023338835686445236 2.025977849960327 0.3860412538051605 44
-0.02306831255555153 2.0333046913146973 0.3156493902206421 44
-0.02265612594783306 2.0281782150268555 0.24434801936149597 44
-0.022546883672475815 2.0504393577575684 0.17605459690093994 44
-0.02208014205098152 2.0403826236724854 0.10493358224630356 44
-0.02148391120135784 2.017833948135376 0.03455576300621033 44
nan nan nan 0
-0.019588081166148186 2.0404865741729736 -0.4622747302055359 119
-0.019280625507235527 2.045654535293579 -0.3898542523384094 44
-0.018763529136776924 2.028355121612549 -0.31521567702293396 44
-0.01863347552716732 2.0530340671539307 -0.24739503860473633 44
-0.018030723556876183 2.025578022003174 -0.17387597262859344 44
-0.01767616719007492 2.025463819503784 -0.10380198806524277 44
-0.01730053313076496 2.0228798389434814 -0.0342969074845314 44
-0.016991006210446358 2.028079032897949 0.532819926738739 44
-0.01669970154762268 2.0357208251953125 0.46080103516578674 44
-0.016266711056232452 2.0260469913482666 0.3860412538051605 44
-0.015970615670084953 2.0333728790283203 0.3156493902206421 44
-0.015538212843239307 2.023282527923584 0.24373868107795715 44
-0.015351993963122368 2.045524835586548 0.17561881244182587 44
-0.014921140857040882 2.035454273223877 0.104671910405159 44
-0.014404450543224812 2.012897491455078 0.03446849808096886 44
nan nan nan 0
-0.011753049679100513 2.0405466556549072 -0.4622747302055359 119
-0.01139834150671959 2.0408053398132324 -0.38890108466148376 44
-0.010975086130201817 2.028412103652954 -0.31521567702293396 44
-0.010750271379947662 2.0530905723571777 -0.24739503860473633 44
-0.01025294791907072 2.025632381439209 -0.17387597262859344 44
-0.009874431416392326 2.0205235481262207 -0.10354118049144745 44
-0.009509563446044922 2.0179319381713867 -0.03421051800251007 44
-0.009181718342006207 2.0232996940612793 0.5315266847610474 44
-0.008882991969585419 2.0357697010040283 0.46080103516578674 44
-0.008487148210406303 2.026094675064087 0.3860412538051605 44
-0.008143099956214428 2.0284805297851562 0.3148680627346039 44
-0.007769270334392786 2.023327350616455 0.24373868107795715 44
-0.00747939245775342 2.0405874252319336 0.17518304288387299 44
-0.007088036742061377 2.030503511428833 0.10441023111343384 44
-0.006658812984824181 2.007938861846924 0.034381236881017685 44
nan nan nan 0
-0.004630140960216522 2.0405752658843994 -0.4622747302055359 119
-0.00427453126758337 2.040832757949829 -0.38890108466148376 44
-0.0038945400156080723 2.028438091278076 -0.31521567702293396 44
-0.0035835825838148594 2.0531156063079834 -0.24739503860473633 44
-0.0031742840074002743 2.02067494392395 -0.17344020307064056 44
-0.002814456121996045 2.015552520751953 -0.10328036546707153 44
-0.002465608296915889 2.0179529190063477 -0.03421051800251007 44
-0.0021190287079662085 2.0233194828033447 0.5315266847610474 44
-0.0017725230427458882 2.030916213989258 0.4596771001815796 44
-0.0014147065812721848 2.0261118412017822 0.3860412538051605 44
-0.0010623319540172815 2.028496503829956 0.3148680627346039 44
-0.0007047599647194147 2.0183794498443604 0.24312932789325714 44
-0.00035636703250929713 2.0406012535095215 0.17518304288387299 44
-2.133485139665936e-07 2.0255227088928223 0.10414855182170868 44
0.00035691773518919945 2.0079498291015625 0.034381236881017685 44
nan nan nan 0
0.0024928238708525896 2.040578842163086 -0.4622747302055359 119
0.0028493304271250963 2.040835380554199 -0.38890108466148376 44
0.003186053829267621 2.0284392833709717 -0.31521567702293396 44
0.003574488451704383 2.0481526851654053 -0.24678568542003632 44
0.003879206720739603 2.0206735134124756 -0.17344020307064056 44
0.0042211515828967094 2.015549898147583 -0.10328036546707153 44
0.004567034542560577 2.0129499435424805 -0.03412412852048874 44
0.0049318852834403515 2.018484354019165 0.5302334427833557 44
0.0053039537742733955 2.02603816986084 0.4585532248020172 44
0.005644046235829592 2.0211963653564453 0.38508808612823486 44
0.006018448621034622 2.0284879207611084 0.3148680627346039 44
0.006340703461319208 2.018369674682617 0.24312932789325714 44
0.006750145461410284 2.035609006881714 0.1747472584247589 44
0.007052751258015633 2.020517349243164 0.10388687252998352 44
0.007340969983488321 2.0029373168945312 0.03429397568106651 44
nan nan nan 0
0.009615758433938026 2.040557861328125 -0.4622747302055359 119
0.00997315812855959 2.0408129692077637 -0.38890108466148376 44
0.010241614654660225 2.023477554321289 -0.3144335448741913 44
0.01072385348379612 2.0481276512145996 -0.24678568542003632 44
0.010905701667070389 2.015666961669922 -0.1730044186115265 44
0.011228821240365505 2.0105297565460205 -0.10301955044269562 44
0.011593512259423733 2.0129218101501465 -0.03412412852048874 44
0.011977680027484894 2.0184550285339355 0.5302334427833557 44
0.012376113794744015 2.0260071754455566 0.4585532248020172 44
0.012699303217232227 2.0211641788482666 0.38508808612823486 44
0.013067265041172504 2.0235161781311035 0.31408676505088806 44
0.013386089354753494 2.0183351039886475 0.24312932789325714 44
0.013855705969035625 2.0355730056762695 0.1747472584247589 44
0.014105630107223988 2.0204803943634033 0.10388687252998352 44
0.014332480728626251 2.002899408340454 0.03429397568106651 44
nan nan nan 0
0.01669861190021038 2.035640239715576 -0.4611499309539795 119
0.01705574430525303 2.0358574390411377 -0.3879478871822357 44
0.017304807901382446 2.0234293937683105 -0.3144335448741913 44
0.017829781398177147 2.0431153774261475 -0.2461763471364975 44
0.01794162578880787 2.0156166553497314 -0.1730044186115265 44
0.018246812745928764 2.0104784965515137 -0.10301955044269562 44
0.018619850277900696 2.012868881225586 -0.03412412852048874 44
0.01902332901954651 2.0184009075164795 0.5302334427833557 44
0.01940135657787323 2.0210797786712646 0.45742928981781006 44
0.019754404202103615 2.0211076736450195 0.38508808612823486 44
0.020130576565861702 2.023458242416382 0.31408676505088806 44
0.020431313663721085 2.0182762145996094 0.24312932789325714 44
0.020909808576107025 2.030531883239746 0.17431148886680603 44
0.021158335730433464 2.020418643951416 0.10388687252998352 44
0.02132381685078144 2.0028371810913086 0.03429397568106651 44
nan nan nan 0
0.02380422130227089 2.035569429397583 -0.4611499309539795 119
0.024162108078598976 2.035785436630249 -0.3879478871822357 44
0.02430831640958786 2.018418550491333 -0.31365135312080383 44
0.024961475282907486 2.0430407524108887 -0.2461763471364975 44
0.02497733011841774 2.0155417919158936 -0.1730044186115265 44
0.02526457980275154 2.0104024410247803 -0.10301955044269562 44
0.025582266971468925 2.0077929496765137 -0.03403773531317711 44
0.026006368920207024 2.0134925842285156 0.5289401412010193 44
0.02645612321794033 2.0209999084472656 0.45742928981781006 44
0.026809267699718475 2.021026372909546 0.38508808612823486 44
0.027193639427423477 2.0233757495880127 0.31408676505088806 44
0.02747628651559353 2.0181925296783447 0.24312932789325714 44
0.027997558936476707 2.0304462909698486 0.17431148886680603 44
0.028141070157289505 2.0153398513793945 0.10362518578767776 44
0.028244219720363617 1.9977518320083618 0.03420671448111534 44
nan nan nan 0
0.03083556331694126 2.03060245513916 -0.4600251615047455 119
0.031268179416656494 2.035688638687134 -0.3879478871822357 44
0.03135376423597336 2.0183215141296387 -0.31365135312080383 44
0.0320928655564785 2.042941093444824 -0.2461763471364975 44
0.032012730836868286 2.015442132949829 -0.1730044186115265 44
0.03228204324841499 2.0103020668029785 -0.10301955044269562 44
0.03259061649441719 2.0076913833618164 -0.03403773531317711 44
0.033034611493349075 2.0133895874023438 0.5289401412010193 44
0.033510565757751465 2.020895004272461 0.45742928981781006 44
0.03386380150914192 2.020920515060425 0.38508808612823486 44
0.03425637260079384 2.023268461227417 0.31408676505088806 44
0.03443604335188866 2.013122320175171 0.24251998960971832 44
0.03508497029542923 2.030336380004883 0.17431148886680603 44
0.03517574816942215 2.0152294635772705 0.10362518578767776 44
0.03521750494837761 1.9976409673690796 0.03420671448111534 44
nan nan nan 0
0.03792349994182587 2.030482530593872 -0.4600251615047455 119
0.03837386518716812 2.035567283630371 -0.3879478871822357 44
0.038398828357458115 2.0181996822357178 -0.31365135312080383 44
0.039223868399858475 2.042816638946533 -0.2461763471364975 44
0.03895124793052673 2.010338068008423 -0.17256863415241241 44
0.03929910808801651 2.0101771354675293 -0.10301955044269562 44
0.03959856927394867 2.007565498352051 -0.03403773531317711 44
0.04006245359778404 2.0132620334625244 0.5289401412010193 44
0.040564604103565216 2.020765781402588 0.45742928981781006 44
0.040818557143211365 2.0158824920654297 0.38413485884666443 44
0.04121784493327141 2.0181987285614014 0.31330543756484985 44
0.04146294295787811 2.0129897594451904 0.24251998960971832 44
0.04217195138335228 2.0302014350891113 0.17431148886680603 44
0.04220999404788017 2.01509428024292 0.10362518578767776 44
0.04219035804271698 1.9975059032440186 0.03420671448111534 44
nan nan nan 0
0.04525651037693024 2.0254592895507812 -0.45890042185783386 119
0.04572384059429169 2.030505895614624 -0.38699471950531006 44
0.04579564556479454 2.018045425415039 -0.31365135312080383 44
0.04671090096235275 2.042659044265747 -0.2461763471364975 44
0.04631924256682396 2.0101816654205322 -0.17256863415241241 44
0.04655061662197113 2.0050277709960938 -0.1027587428689003 44
0.04695640131831169 2.007406711578369 -0.03403773531317711 44
0.047441158443689346 2.013101577758789 0.5289401412010193 44
0.04797080531716347 2.020603656768799 0.45742928981781006 44
0.048206862062215805 2.015719413757324 0.38413485884666443 44
0.04861463978886604 2.0180342197418213 0.31330543756484985 44
0.04884064197540283 2.012824296951294 0.24251998960971832 44
0.049612730741500854 2.0300333499908447 0.17431148886680603 44
0.04959540069103241 2.014925956726074 0.10362518578767776 44
0.049511298537254333 1.9973379373550415 0.03420671448111534 44
nan nan nan 0
0.05232640728354454 2.0252890586853027 -0.45890042185783386 119
0.05281135067343712 2.030333995819092 -0.38699471950531006 44
0.05283965542912483 2.0178732872009277 -0.31365135312080383 44
0.05384082719683647 2.0424835681915283 -0.2461763471364975 44
0.053335804492235184 2.010007858276367 -0.17256863415241241 44
0.053549185395240784 2.0048530101776123 -0.1027587428689003 44
0.05382891744375229 2.0022332668304443 -0.03395134583115578 44
0.054337263107299805 2.0080957412719727 0.5276468992233276 44
0.055023737251758575 2.0204238891601562 0.45742928981781006 44
0.055242739617824554 2.0155386924743652 0.38413485884666443 44
0.055522430688142776 2.01291561126709 0.31252413988113403 44
0.055866409093141556 2.012641429901123 0.24251998960971832 44
0.0565594919025898 2.0248687267303467 0.17387570440769196 44
0.056628502905368805 2.0147407054901123 0.10362518578767776 44
0.05634167417883873 1.9921555519104004 0.03411945328116417 44
nan nan nan 0
0.05939566716551781 2.0250940322875977 -0.45890042185783386 119
0.059753455221652985 2.025230884552002 -0.386041522026062 44
0.05988302826881409 2.017676591873169 -0.31365135312080383 44
0.060822002589702606 2.037322759628296 -0.24556699395179749 44
0.06035171449184418 2.0098092555999756 -0.17256863415241241 44
0.06039636209607124 1.99966299533844 -0.10249793529510498 44
0.060969483107328415 2.0070300102233887 -0.03403773531317711 44
0.061346493661403656 2.0078938007354736 0.5276468992233276 44
0.06192636489868164 2.0153496265411377 0.4563054144382477 44
0.06227794662117958 2.015333652496338 0.38413485884666443 44
0.06254847347736359 2.012709379196167 0.31252413988113403 44
0.06289149820804596 2.012434244155884 0.24251998960971832 44
0.06362725794315338 2.0246591567993164 0.17387570440769196 44
0.0635032057762146 2.00954008102417 0.1033635064959526 44
0.06329525262117386 1.991946816444397 0.03411945328116417 44
nan nan nan 0
0.06646420061588287 2.024874448776245 -0.45890042185783386 119
0.06666059046983719 2.02010440826416 -0.38508835434913635 44
0.06692566722631454 2.0174551010131836 -0.31365135312080383 44
0.06793321669101715 2.037097930908203 -0.24556699395179749 44
0.06736689805984497 2.0095863342285156 -0.17256863415241241 44
0.06737611442804337 1.99944007396698 -0.10249793529510498 44
0.06797495484352112 2.006804943084717 -0.03403773531317711 44
0.06819062680006027 2.002840280532837 0.526353657245636 44
0.06896086782217026 2.0151214599609375 0.4563054144382477 44
0.06931239366531372 2.015104055404663 0.38413485884666443 44
0.0695737674832344 2.012478828430176 0.31252413988113403 44
0.06974349170923233 2.0072429180145264 0.2419106364250183 44
0.07069424539804459 2.0244245529174805 0.17387570440769196 44
0.0703422948718071 2.0043160915374756 0.10310182720422745 44
0.07007184624671936 1.9867175817489624 0.0340321883559227 44
nan nan nan 0
0.07335510104894638 2.019761323928833 -0.45777565240859985 119
0.07371167093515396 2.0198593139648438 -0.38508835434913635 44
0.07378653436899185 2.0122742652893066 -0.31286919116973877 44
0.07504359632730484 2.036848306655884 -0.24556699395179749 44
0.07438124716281891 2.0093390941619873 -0.17256863415241241 44
0.07416947185993195 1.9942028522491455 -0.10223712772130966 44
0.07479291409254074 2.0015597343444824 -0.03395134583115578 44
0.07518142461776733 2.0025901794433594 0.526353657245636 44
0.07599453628063202 2.0148682594299316 0.4563054144382477 44
0.07634599506855011 2.014849901199341 0.38413485884666443 44
0.07659819722175598 2.012223958969116 0.31252413988113403 44
0.07674965262413025 2.0069870948791504 0.2419106364250183 44
0.07776038348674774 2.024165391921997 0.17387570440769196 44
0.07733824104070663 2.004058361053467 0.10310182720422745 44
0.07700636237859726 1.9864609241485596 0.0340321883559227 44
nan nan nan 0
0.08040493726730347 2.0194928646087646 -0.45777565240859985 119
0.08056571334600449 2.0146853923797607 -0.3841351270675659 44
0.08081023395061493 2.0120043754577637 -0.31286919116973877 44
0.08195304870605469 2.0316154956817627 -0.24495765566825867 44
0.08139469474554062 2.0090670585632324 -0.17256863415241241 44
0.08113008737564087 1.993931770324707 -0.10223712772130966 44
0.08177921175956726 2.001286506652832 -0.03395134583115578 44
0.08197327703237534 1.9974896907806396 0.5250604152679443 44
0.0828266516327858 2.0097227096557617 0.4551814794540405 44
0.08337867259979248 2.014570951461792 0.38413485884666443 44
0.08341662585735321 2.007009744644165 0.3117428421974182 44
0.0835479274392128 2.001748561859131 0.2413012832403183 44
0.08461698144674301 2.0189051628112793 0.17343993484973907 44
0.08433323353528976 2.0037763118743896 0.10310182720422745 44
0.08393993228673935 1.9861799478530884 0.0340321883559227 44
nan nan nan 0
0.0872429832816124 2.0143327713012695 -0.45665091276168823 119
0.0875977873802185 2.0143918991088867 -0.3841351270675659 44
0.08783295005559921 2.0117101669311523 -0.31286919116973877 44
0.08904421329498291 2.0313169956207275 -0.24495765566825867 44
0.08818814903497696 2.0037946701049805 -0.17213284969329834 44
0.0883101299405098 1.9986248016357422 -0.10249793529510498 44
0.0887645035982132 2.000988721847534 -0.03395134583115578 44
0.08894531428813934 1.9971914291381836 0.5250604152679443 44
0.08984138816595078 2.0094213485717773 0.4551814794540405 44
0.09019024670124054 2.009364604949951 0.38318169116973877 44
0.09019958227872849 2.001772880554199 0.31096151471138 44
0.09053482115268707 2.0014448165893555 0.2413012832403183 44
0.09166375547647476 2.018597364425659 0.17343993484973907 44
0.0910998210310936 1.9984815120697021 0.10284014791250229 44
0.09087248146533966 1.985874891281128 0.0340321883559227 44
nan nan nan 0
0.09427379071712494 2.0140159130096436 -0.45665091276168823 119
0.09462879598140717 2.0140738487243652 -0.3841351270675659 44
0.09462195634841919 2.006458282470703 -0.3120870292186737 44
0.09589964151382446 2.026036500930786 -0.24434830248355865 44
0.09494579583406448 1.9984992742538452 -0.17169708013534546 44
0.09528609365224838 1.9983043670654297 -0.10249793529510498 44
0.09550973027944565 1.9956731796264648 -0.033864956349134445 44
0.0959162712097168 1.9968687295913696 0.5250604152679443 44
0.096855029463768 2.0090954303741455 0.4551814794540405 44
0.09696648269891739 2.0041346549987793 0.3822284936904907 44
0.09718652069568634 2.001445770263672 0.31096151471138 44
0.09727905690670013 1.996159553527832 0.2406919300556183 44
0.09846609830856323 2.0132901668548584 0.173004150390625 44
0.098075270652771 1.998151421546936 0.10284014791250229 44
0.09780392795801163 1.9855456352233887 0.0340321883559227 44
nan nan nan 0
0.10130344331264496 2.013674736022949 -0.45665091276168823 119
0.1016586422920227 2.0137312412261963 -0.3841351270675659 44
0.1016252189874649 2.006115674972534 -0.3120870292186737 44
0.10297124087810516 2.0256893634796143 -0.24434830248355865 44
0.10192127525806427 1.9981557130813599 -0.17169708013534546 44
0.10226089507341385 1.9979596138000488 -0.10249793529510498 44
0.1024753525853157 1.9953277111053467 -0.033864956349134445 44
0.10288605839014053 1.9965217113494873 0.5250604152679443 44
0.10386749356985092 2.0087451934814453 0.4551814794540405 44
0.10396163165569305 2.0037841796875 0.3822284936904907 44
0.10391554236412048 1.9961625337600708 0.3101802170276642 44
0.1042463555932045 1.9958077669143677 0.2406919300556183 44
0.10549319535493851 2.0129342079162598 0.173004150390625 44
0.10531172156333923 2.0027832984924316 0.10310182720422745 44
0.10473417490720749 1.9851921796798706 0.0340321883559227 44
nan nan nan 0
0.10807009041309357 2.008443832397461 -0.4555261433124542 119
0.10868725925683975 2.01336407661438 -0.3841351270675659 44
0.10862725228071213 2.005748748779297 -0.3120870292186737 44
0.11004158854484558 2.025317668914795 -0.24434830248355865 44
0.1086244210600853 1.9928141832351685 -0.17126129567623138 44
0.10923445224761963 1.99759042263031 -0.10249793529510498 44
0.10943972319364548 1.9949578046798706 -0.033864956349134445 44
0.10985459387302399 1.9961504936218262 0.5250604152679443 44
0.11061012744903564 2.0035059452056885 0.45405760407447815 44
0.11068408936262131 1.998508334159851 0.38127532601356506 44
0.11088281124830246 1.9957876205444336 0.3101802170276642 44
0.11121239513158798 1.9954317808151245 0.2406919300556183 44
0.11251900345087051 2.0125534534454346 0.173004150390625 44
0.11230209469795227 2.002403497695923 0.10310182720422745 44
0.11138234287500381 1.979823112487793 0.03394492715597153 44
nan nan nan 0
0.11508020758628845 2.008054256439209 -0.4555261433124542 119
0.11571455001831055 2.012972354888916 -0.3841351270675659 44
0.11534368991851807 2.00042724609375 -0.31130483746528625 44
0.11711059510707855 2.024921178817749 -0.24434830248355865 44
0.11557997763156891 1.9924228191375732 -0.17126129567623138 44
0.11620668321847916 1.997196912765503 -0.10249793529510498 44
0.11611149460077286 1.9895728826522827 -0.03377856686711311 44
0.11653956025838852 1.9909331798553467 0.5237671136856079 44
0.11760299652814865 2.0031075477600098 0.45405760407447815 44
0.11765951663255692 1.9981096982955933 0.38127532601356506 44
0.11784873902797699 1.9953885078430176 0.3101802170276642 44
0.11817706376314163 1.995031476020813 0.2406919300556183 44
0.11924802511930466 2.007176160812378 0.17256836593151093 44
0.11899410933256149 1.9970147609710693 0.10284014791250229 44
0.11829254031181335 1.9794222116470337 0.03394492715597153 44
nan nan nan 0
0.12179321050643921 2.0027778148651123 -0.4544014036655426 119
0.12274042516946793 2.012556314468384 -0.3841351270675659 44
0.12232578545808792 2.0000123977661133 -0.31130483746528625 44
0.12417817860841751 2.0244998931884766 -0.24434830248355865 44
0.1225341260433197 1.9920072555541992 -0.17126129567623138 44
0.1228700503706932 1.991795539855957 -0.10223712772130966 44
0.12305569648742676 1.9891554117202759 -0.03377856686711311 44
0.12348850071430206 1.9905142784118652 0.5237671136856079 44
0.12459443509578705 2.0026848316192627 0.45405760407447815 44
0.12432786822319031 1.9927880764007568 0.380322128534317 44
0.12481322139501572 1.9949649572372437 0.3101802170276642 44
0.12514030933380127 1.9946067333221436 0.2406919300556183 44
0.1262536495923996 2.0067477226257324 0.17256836593151093 44
0.12596426904201508 1.9965872764587402 0.10284014791250229 44
0.12488564103841782 1.9740079641342163 0.033857665956020355 44
nan nan nan 0
0.1287834793329239 2.002340316772461 -0.4544014036655426 119
0.12976482510566711 2.012115478515625 -0.3841351270675659 44
0.1293063759803772 1.9995732307434082 -0.31130483746528625 44
0.1312442421913147 2.0240542888641357 -0.24434830248355865 44
0.1294867843389511 1.9915673732757568 -0.17126129567623138 44
0.12982197105884552 1.9913544654846191 -0.10223712772130966 44
0.12967230379581451 1.9837251901626587 -0.03369217738509178 44
0.13012005388736725 1.985251784324646 0.522473931312561 44
0.13158434629440308 2.0022377967834473 0.45405760407447815 44
0.131283238530159 1.9923419952392578 0.380322128534317 44
0.13177619874477386 1.9945170879364014 0.3101802170276642 44
0.13210202753543854 1.9941577911376953 0.2406919300556183 44
0.13325773179531097 2.0062947273254395 0.17256836593151093 44
0.13260111212730408 1.9911534786224365 0.10257846862077713 44
0.13144239783287048 1.9685719013214111 0.03377040475606918 44
nan nan nan 0
0.13577216863632202 2.001878499984741 -0.4544014036655426 119
0.13645464181900024 2.00675368309021 -0.38318195939064026 44
0.13594950735569 1.9941825866699219 -0.3105226755142212 44
0.13797032833099365 2.018632650375366 -0.24373896420001984 44
0.13643786311149597 1.991103172302246 -0.17126129567623138 44
0.13643008470535278 1.9859076738357544 -0.10197632014751434 44
0.1362524926662445 1.9782730340957642 -0.03360578790307045 44
0.1370490938425064 1.9847854375839233 0.522473931312561 44
0.1382361799478531 1.9969056844711304 0.452933669090271 44
0.13823701441287994 1.9918714761734009 0.380322128534317 44
0.13873755931854248 1.9940448999404907 0.3101802170276642 44
0.13906213641166687 1.9936845302581787 0.2406919300556183 44
0.13991275429725647 2.0008487701416016 0.17213258147239685 44
0.13920153677463531 1.9856973886489868 0.10231678932905197 44
0.1383131891489029 1.9681010246276855 0.03377040475606918 44
nan nan nan 0
0.14275918900966644 2.001392364501953 -0.4544014036655426 119
0.14345869421958923 2.0062649250030518 -0.38318195939064026 44
0.1429096758365631 1.9936959743499756 -0.3105226755142212 44
0.14501582086086273 2.018138885498047 -0.24373896420001984 44
0.14338728785514832 1.990614891052246 -0.17126129567623138 44
0.14336135983467102 1.9854192733764648 -0.10197632014751434 44
0.14315712451934814 1.977785348892212 -0.03360578790307045 44
0.14397644996643066 1.9842948913574219 0.522473931312561 44
0.14520584046840668 1.9964109659194946 0.452933669090271 44
0.1451890915632248 1.9913768768310547 0.380322128534317 44
0.145697221159935 1.9935485124588013 0.3101802170276642 44
0.14565794169902802 1.9882375001907349 0.24008259177207947 44
0.14689616858959198 2.0003480911254883 0.17213258147239685 44
0.14613206684589386 1.9851994514465332 0.10231678932905197 44
0.1451823115348816 1.9676063060760498 0.03377040475606918 44
0.145608052611351 1.9501845836639404 -0.5137560367584229 119
0.1493808776140213 1.9960236549377441 -0.4532766342163086 119
0.15046098828315735 2.0057520866394043 -0.38318195939064026 44
0.14986811578273773 1.9931849241256714 -0.3105226755142212 44
0.15168659389019012 2.012671709060669 -0.24312961101531982 44
0.1503349393606186 1.9901021718978882 -0.17126129567623138 44
0.14991389214992523 1.979927897453308 -0.10171551257371902 44
0.1496816873550415 1.9722886085510254 -0.03351939469575882 44
0.1505357027053833 1.97896409034729 0.5211806297302246 44
0.15180334448814392 1.9910341501235962 0.4518097937107086 44
0.15176542103290558 1.9859638214111328 0.37936896085739136 44
0.15227794647216797 1.9881035089492798 0.309398889541626 44
0.1525973081588745 1.9877170324325562 0.24008259177207947 44
0.15387777984142303 1.9998230934143066 0.17213258147239685 44
0.15306082367897034 1.9846771955490112 0.10231678932905197 44
0.1516643613576889 1.9621031284332275 0.03368314355611801 44
0.15203815698623657 1.9448493719100952 -0.5124619007110596 119
0.156347393989563 1.9954899549484253 -0.4532766342163086 119
0.15707719326019287 2.00032114982605 -0.3822287619113922 44
0.15682470798492432 1.9926496744155884 -0.3105226755142212 44
0.15871120989322662 2.01213002204895 -0.24312961101531982 44
0.15688824653625488 1.9845998287200928 -0.1708255112171173 44
0.15682421624660492 1.9793925285339355 -0.10171551257371902 44
0.1565653532743454 1.9717541933059692 -0.03351939469575882 44
0.15744265913963318 1.9784266948699951 0.5211806297302246 44
0.15875244140625 1.9904921054840088 0.4518097937107086 44
0.15869680047035217 1.9854220151901245 0.37936896085739136 44
0.15921679139137268 1.9875597953796387 0.309398889541626 44
0.15913765132427216 1.9822252988815308 0.23947323858737946 44
0.16045807301998138 1.9943089485168457 0.17169681191444397 44
0.15958639979362488 1.9791539907455444 0.10205511003732681 44
0.15851245820522308 1.9615617990493774 0.03368314355611801 44
0.16079209744930267 1.9683746099472046 -0.5189324021339417 119
0.16291451454162598 1.9900766611099243 -0.452151894569397 119
0.164058655500412 1.9997607469558716 -0.3822287619113922 44
0.16337475180625916 1.9871681928634644 -0.30974048376083374 44
0.16532638669013977 2.006617784500122 -0.242520272731781 44
0.16340497136116028 1.9790760278701782 -0.17038974165916443 44
0.1633208990097046 1.973856806755066 -0.10145469754934311 44
0.16344711184501648 1.9711956977844238 -0.03351939469575882 44
0.16394774615764618 1.973051905632019 0.519887387752533 44
0.1652952879667282 1.9850704669952393 0.45068585872650146 44
0.16562624275684357 1.9848560094833374 0.37936896085739136 44
0.1657421588897705 1.9820705652236938 0.30861756205558777 44
0.16564153134822845 1.9767124652862549 0.23886390030384064 44
0.16741853952407837 1.9937366247177124 0.17169681191444397 44
0.1664939671754837 1.9785847663879395 0.10205511003732681 44
0.16535863280296326 1.9609965085983276 0.03368314355611801 44
0.16602198779582977 1.9485527276992798 -0.5137560367584229 119
0.16986019909381866 1.989495873451233 -0.452151894569397 119
0.17103813588619232 1.999175786972046 -0.3822287619113922 44
0.17031025886535645 1.9865857362747192 -0.30974048376083374 44
0.1719050258398056 2.0010838508605957 -0.241910919547081 44
0.16988505423069 1.9735310077667236 -0.16995395720005035 44
0.17020995914936066 1.9732747077941895 -0.10145469754934311 44
0.16989636421203613 1.965632438659668 -0.03343300521373749 44
0.17041724920272827 1.9676556587219238 0.5185941457748413 44
0.17222347855567932 1.9844814538955688 0.45068585872650146 44
0.17212846875190735 1.979375958442688 0.3784157633781433 44
0.17265987396240234 1.9814798831939697 0.30861756205558777 44
0.172540545463562 1.9761221408843994 0.23886390030384064 44
0.17394281923770905 1.988178014755249 0.1712610274553299 44
0.1729634553194046 1.9730174541473389 0.10179343074560165 44
0.17220276594161987 1.9604072570800781 0.03368314355611801 44
0.17239587008953094 1.9431506395339966 -0.5124619007110596 119
0.17637239396572113 1.9840378761291504 -0.45102712512016296 119
0.1775800585746765 1.9936777353286743 -0.38127559423446655 44
0.17680470645427704 1.981060266494751 -0.3089583218097687 44
0.17844702303409576 1.9955285787582397 -0.24130156636238098 44
0.17677292227745056 1.9729260206222534 -0.16995395720005035 44
0.17665046453475952 1.9676953554153442 -0.10119388997554779 44
0.17675666511058807 1.9650273323059082 -0.03343300521373749 44
0.1772845983505249 1.9670487642288208 0.5185941457748413 44
0.17871138453483582 1.9790159463882446 0.4495619833469391 44
0.1790367215871811 1.9787631034851074 0.3784157633781433 44
0.17912960052490234 1.9759467840194702 0.30783626437187195 44
0.17943742871284485 1.9755078554153442 0.23886390030384064 44
0.1808817982673645 1.9875587224960327 0.1712610274553299 44
0.1798495054244995 1.9724016189575195 0.10179343074560165 44
0.17904482781887054 1.959794282913208 0.03368314355611801 44
0.17873409390449524 1.9377278089523315 -0.5111678242683411 119
0.18284860253334045 1.9785590171813965 -0.44990238547325134 119
0.1840856820344925 1.9881583452224731 -0.3803223967552185 44
0.18371881544589996 1.980431079864502 -0.3089583218097687 44
0.18541163206100464 1.9948935508728027 -0.24130156636238098 44
0.1836586445569992 1.972296953201294 -0.16995395720005035 44
0.1835179179906845 1.967066764831543 -0.10119388997554779 44
0.1836148202419281 1.9643985033035278 -0.03343300521373749 44
0.18369948863983154 1.9616093635559082 0.5173009037971497 44
0.1856183558702469 1.9783800840377808 0.4495619833469391 44
0.18594281375408173 1.9781261682510376 0.3784157633781433 44
0.18602584302425385 1.9753093719482422 0.30783626437187195 44
0.18586599826812744 1.9699287414550781 0.23825454711914062 44
0.18781857192516327 1.9869152307510376 0.1712610274553299 44
0.18673337996006012 1.9717618227005005 0.10179343074560165 44
0.18588469922542572 1.9591573476791382 0.03368314355611801 44
0.1850365400314331 1.9322843551635742 -0.5098737478256226 119
0.1892886906862259 1.9730591773986816 -0.44877761602401733 119
0.1905549317598343 1.982617974281311 -0.37936922907829285 44
0.1906306892633438 1.9797776937484741 -0.3089583218097687 44
0.19237397611141205 1.9942340850830078 -0.24130156636238098 44
0.19054213166236877 1.9716438055038452 -0.16995395720005035 44
0.1903831511735916 1.966414213180542 -0.10119388997554779 44
0.19047072529792786 1.9637455940246582 -0.03343300521373749 44
0.1914798766374588 1.9705705642700195 0.519887387752533 44
0.1925230473279953 1.9777201414108276 0.4495619833469391 44
0.1928466260433197 1.9774649143218994 0.3784157633781433 44
0.19291983544826508 1.9746479988098145 0.30783626437187195 44
0.19274120032787323 1.9692679643630981 0.23825454711914062 44
0.19475306570529938 1.9862475395202637 0.1712610274553299 44
0.19361497461795807 1.9710979461669922 0.10179343074560165 44
0.1932118684053421 1.9634718894958496 0.03377040475606918 44
0.19225750863552094 1.9364327192306519 -0.5111678242683411 119
0.19569262862205505 1.9675384759902954 -0.4476528763771057 119
0.19698777794837952 1.977056622505188 -0.3784160315990448 44
0.1975402534008026 1.9791001081466675 -0.3089583218097687 44
0.19933398067951202 1.993550419807434 -0.24130156636238098 44
0.1974232792854309 1.9709666967391968 -0.16995395720005035 44
0.19724605977535248 1.9657377004623413 -0.10119388997554779 44
0.19732432067394257 1.9630687236785889 -0.03343300521373749 44
0.19835728406906128 1.9698901176452637 0.519887387752533 44
0.19942541420459747 1.9770359992980957 0.4495619833469391 44
0.19974808394908905 1.9767796993255615 0.3784157633781433 44
0.19981145858764648 1.973962664604187 0.30783626437187195 44
0.1996140480041504 1.968583106994629 0.23825454711914062 44
0.20168516039848328 1.985555648803711 0.1712610274553299 44
0.2009996771812439 1.9753777980804443 0.10205511003732681 44
0.2000644952058792 1.9627854824066162 0.03377040475606918 44
0.1990157514810562 1.935749888420105 -0.5111678242683411 119
0.2025594264268875 1.9668433666229248 -0.4476528763771057 119
0.20388779044151306 1.9763569831848145 -0.3784160315990448 44
0.20444738864898682 1.9783985614776611 -0.3089583218097687 44
0.2062915563583374 1.9928425550460815 -0.24130156636238098 44
0.20481577515602112 1.9752198457717896 -0.17038974165916443 44
0.20462241768836975 1.970003604888916 -0.10145469754934311 44
0.20469285547733307 1.967340350151062 -0.03351939469575882 44
0.20573294162750244 1.973989486694336 0.5211806297302246 44
0.20632533729076385 1.976327896118164 0.4495619833469391 44
0.2066471129655838 1.976070523262024 0.3784157633781433 44
0.20721516013145447 1.978164792060852 0.30861756205558777 44
0.20648446679115295 1.9678744077682495 0.23825454711914062 44
0.20861481130123138 1.9848395586013794 0.1712610274553299 44
0.20789378881454468 1.9746640920639038 0.10205511003732681 44
0.20743897557258606 1.967046856880188 0.033857665956020355 44
0.20628227293491364 1.9398459196090698 -0.5124619007110596 119
0.20908060669898987 1.9661608934402466 -0.4476528763771057 0
0.20992061495780945 1.9707891941070557 -0.37746280431747437 44
0.21100687980651855 1.9777097702026367 -0.3089583218097687 44
0.21342629194259644 1.997082233428955 -0.241910919547081 44
0.21136470139026642 1.97452974319458 -0.17038974165916443 44
0.21115407347679138 1.9693142175674438 -0.10145469754934311 44
0.21121567487716675 1.9666507244110107 -0.03351939469575882 44
0.21279439330101013 1.9780986309051514 0.522473931312561 44
0.21287794411182404 1.975632905960083 0.4495619833469391 44
0.21319887042045593 1.9753743410110474 0.3784157633781433 44
0.21377386152744293 1.9774667024612427 0.30861756205558777 44
0.21354328095912933 1.9721126556396484 0.23886390030384064 44
0.21573272347450256 1.989088773727417 0.17169681191444397 44
0.21444088220596313 1.9739638566970825 0.10205511003732681 44
0.21396079659461975 1.9663480520248413 0.033857665956020355 44
0.21271389722824097 1.9391511678695679 -0.5124619007110596 119
0.21594250202178955 1.9654191732406616 -0.4476528763771057 0
0.21679867804050446 1.9700442552566528 -0.37746280431747437 44
0.2179090827703476 1.9769611358642578 -0.3089583218097687 44
0.22039611637592316 1.9963250160217285 -0.241910919547081 44
0.218803271651268 1.9787307977676392 -0.1708255112171173 44
0.21857662498950958 1.9735280275344849 -0.10171551257371902 44
0.21863046288490295 1.9708703756332397 -0.03360578790307045 44
0.2196979522705078 1.9773436784744263 0.522473931312561 44
0.21977289021015167 1.9748777151107788 0.4495619833469391 44
0.22009290754795074 1.9746180772781372 0.3784157633781433 44
0.22067520022392273 1.9767085313796997 0.30861756205558777 44
0.22042594850063324 1.9713551998138428 0.23886390030384064 44
0.22267462313175201 1.9883235692977905 0.17169681191444397 44
0.22132998704910278 1.973203182220459 0.10205511003732681 44
0.22082333266735077 1.9655892848968506 0.033857665956020355 44
0.22002489864826202 1.9431959390640259 -0.5137560367584229 119
0.2224588841199875 1.964692234992981 -0.4476528763771057 0
0.22333037853240967 1.9693145751953125 -0.37746280431747437 44
0.22446371614933014 1.9762276411056519 -0.3089583218097687 44
0.22757588326931 2.000514030456543 -0.242520272731781 44
0.22536377608776093 1.977994441986084 -0.1708255112171173 44
0.22511987388134003 1.9727922677993774 -0.10171551257371902 44
0.22516492009162903 1.9701344966888428 -0.03360578790307045 44
0.22625385224819183 1.9766043424606323 0.522473931312561 44
0.22632060945034027 1.9741380214691162 0.4495619833469391 44
0.2266397774219513 1.9738773107528687 0.3784157633781433 44
0.22722898423671722 1.9759658575057983 0.30861756205558777 44
0.22696197032928467 1.9706133604049683 0.23886390030384064 44
0.2292669266462326 1.9875743389129639 0.17169681191444397 44
0.22787214815616608 1.9724584817886353 0.10205511003732681 44
0.22734025120735168 1.9648462533950806 0.033857665956020355 44
0.2264675498008728 1.9424556493759155 -0.5137560367584229 119
0.22931557893753052 1.9639036655426025 -0.4476528763771057 0
0.23020321130752563 1.9685230255126953 -0.37746280431747437 44
0.23136067390441895 1.97543203830719 -0.3089583218097687 44
0.2345575988292694 1.9997074604034424 -0.242520272731781 44
0.23226690292358398 1.9771957397460938 -0.1708255112171173 44
0.23142141103744507 1.9670355319976807 -0.10145469754934311 44
0.23204059898853302 1.9693363904953003 -0.03360578790307045 44
0.232586070895195 1.971005916595459 0.5211806297302246 44
0.2332102656364441 1.9733359813690186 0.4495619833469391 44
0.2335285097360611 1.973074197769165 0.3784157633781433 44
0.23354369401931763 1.9702563285827637 0.30783626437187195 44
0.23383931815624237 1.9698091745376587 0.23886390030384064 44
0.23620344698429108 1.9867618083953857 0.17169681191444397 44
0.23475591838359833 1.9716509580612183 0.10205511003732681 44
0.2341974526643753 1.9640406370162964 0.033857665956020355 44
0.23392435908317566 1.941571831703186 -0.5137560367584229 119
0.23685471713542938 1.9630087614059448 -0.4476528763771057 0
0.23776008188724518 1.967624545097351 -0.37746280431747437 44
0.23894406855106354 1.9745292663574219 -0.3089583218097687 44
0.24223417043685913 1.9987921714782715 -0.242520272731781 44
0.2398570477962494 1.9762892723083496 -0.1708255112171173 44
0.23897254467010498 1.966132402420044 -0.10145469754934311 44
0.23960056900978088 1.968430995941162 -0.03360578790307045 44
0.24015246331691742 1.9700981378555298 0.5211806297302246 44
0.2407855987548828 1.9724260568618774 0.4495619833469391 44
0.24110282957553864 1.9721630811691284 0.3784157633781433 44
0.24110718071460724 1.9693450927734375 0.30783626437187195 44
0.24140110611915588 1.968896746635437 0.23886390030384064 44
0.24383030831813812 1.9858402013778687 0.17169681191444397 44
0.24232478439807892 1.9707350730895996 0.10205511003732681 44
0.24173708260059357 1.9631270170211792 0.033857665956020355 44
0.24010582268238068 1.9359502792358398 -0.5124619007110596 119
0.2431049644947052 1.9573352336883545 -0.4465281069278717 0
0.2446269392967224 1.9667826890945435 -0.37746280431747437 44
0.24583500623703003 1.9736829996109009 -0.3089583218097687 44
0.24920979142189026 1.997934341430664 -0.242520272731781 44
0.24675413966178894 1.9754400253295898 -0.1708255112171173 44
0.24583418667316437 1.9652862548828125 -0.10145469754934311 44
0.24584883451461792 1.9626221656799316 -0.03351939469575882 44
0.2470279335975647 1.9692480564117432 0.5211806297302246 44
0.24766917526721954 1.9715734720230103 0.4495619833469391 44
0.24798549711704254 1.9713094234466553 0.3784157633781433 44
0.2479800134897232 1.9684914350509644 0.30783626437187195 44
0.2482723593711853 1.9680421352386475 0.23886390030384064 44
0.2507607042789459 1.9849770069122314 0.17169681191444397 44
0.2492024451494217 1.9698772430419922 0.10205511003732681 44
0.24859483540058136 1.9622703790664673 0.033857665956020355 44
0.24686209857463837 1.9351003170013428 -0.5124619007110596 119
0.24993586540222168 1.956474781036377 -0.4465281069278717 0
0.25086796283721924 1.9610481262207031 -0.3765096366405487 44
0.25272294878959656 1.9728130102157593 -0.3089583218097687 44
0.25618234276771545 1.9970521926879883 -0.242520272731781 44
0.25364819169044495 1.9745665788650513 -0.1708255112171173 44
0.2526927888393402 1.9644161462783813 -0.10145469754934311 44
0.25269815325737 1.961751937866211 -0.03351939469575882 44
0.2539003789424896 1.9683736562728882 0.5211806297302246 44
0.2545497417449951 1.9706969261169434 0.4495619833469391 44
0.2548651397228241 1.9704318046569824 0.3784157633781433 44
0.2548498213291168 1.967613935470581 0.30783626437187195 44
0.25514060258865356 1.9671634435653687 0.23886390030384064 44
0.257688045501709 1.984089732170105 0.17169681191444397 44
0.2560770809650421 1.9689953327178955 0.10205511003732681 44
0.2554363012313843 1.9613914489746094 0.033857665956020355 44
0.2536153495311737 1.9342268705368042 -0.5124619007110596 119
0.2567637264728546 1.9555903673171997 -0.4465281069278717 0
0.257711797952652 1.960160493850708 -0.3765096366405487 44
0.25960779190063477 1.9719187021255493 -0.3089583218097687 44
0.2631518244743347 1.9961458444595337 -0.242520272731781 44
0.260539174079895 1.973669171333313 -0.1708255112171173 44
0.2595483660697937 1.96352219581604 -0.10145469754934311 44
0.2595444321632385 1.9608579874038696 -0.03351939469575882 44
0.26013514399528503 1.9626874923706055 0.519887387752533 44
0.2614271938800812 1.9697962999343872 0.4495619833469391 44
0.26174166798591614 1.9695301055908203 0.3784157633781433 44
0.2617165446281433 1.966712236404419 0.30783626437187195 44
0.2620057165622711 1.9662609100341797 0.23886390030384064 44
0.26461222767829895 1.9831780195236206 0.17169681191444397 44
0.262948602437973 1.9680894613265991 0.10205511003732681 44
0.26161834597587585 1.9555327892303467 0.03377040475606918 44
0.2603655159473419 1.9333298206329346 -0.5124619007110596 119
0.26358845829963684 1.9546822309494019 -0.4465281069278717 0
0.26455244421958923 1.9592490196228027 -0.3765096366405487 44
0.26582780480384827 1.9661065340042114 -0.3081761300563812 44
0.27011802792549133 1.9952151775360107 -0.242520272731781 44
0.2667578458786011 1.9678118228912354 -0.17038974165916443 44
0.2664007544517517 1.9626041650772095 -0.10145469754934311 44
0.2663875222206116 1.9599400758743286 -0.03351939469575882 44
0.26698464155197144 1.9617674350738525 0.519887387752533 44
0.26830148696899414 1.968871831893921 0.4495619833469391 44
0.2679513990879059 1.9637410640716553 0.37746256589889526 44
0.26858001947402954 1.9657868146896362 0.30783626437187195 44
0.2688676416873932 1.965334415435791 0.23886390030384064 44
0.27153322100639343 1.9822423458099365 0.17169681191444397 44
0.26981690526008606 1.9671595096588135 0.10205511003732681 44
0.268442839384079 1.954607605934143 0.03377040475606918 44
0.26777383685112 1.937193512916565 -0.5137560367584229 119
0.2697419822216034 1.94892418384552 -0.4454033374786377 0
0.2713898718357086 1.9583135843276978 -0.3765096366405487 44
0.27268919348716736 1.9651665687561035 -0.3081761300563812 44
0.2770810127258301 1.9942600727081299 -0.242520272731781 44
0.2736251950263977 1.9668687582015991 -0.17038974165916443 44
0.27324992418289185 1.9616622924804688 -0.10145469754934311 44
0.27322736382484436 1.9589983224868774 -0.03351939469575882 44
0.2738308310508728 1.960823655128479 0.519887387752533 44
0.27517247200012207 1.9679232835769653 0.4495619833469391 44
0.2748045325279236 1.9627938270568848 0.37746256589889526 44
0.2754402756690979 1.9648373126983643 0.30783626437187195 44
0.2750365138053894 1.9594694375991821 0.23825454711914062 44
0.2784508466720581 1.9812824726104736 0.17169681191444397 44
0.27668192982673645 1.9662058353424072 0.10205511003732681 44
0.27526405453681946 1.9536585807800293 0.03377040475606918 44
0.27453428506851196 1.9362468719482422 -0.5137560367584229 119
0.27654337882995605 1.9479707479476929 -0.4454033374786377 0
0.27753326296806335 1.9524948596954346 -0.37555643916130066 44
0.27954724431037903 1.964202880859375 -0.3081761300563812 44
0.28404057025909424 1.9932807683944702 -0.242520272731781 44
0.2804891765117645 1.9659016132354736 -0.17038974165916443 44
0.2793895900249481 1.9557535648345947 -0.10119388997554779 44
0.2800638973712921 1.9580326080322266 -0.03351939469575882 44
0.28067371249198914 1.9598557949066162 0.519887387752533 44
0.28204014897346497 1.96695077419281 0.4495619833469391 44
0.2816542685031891 1.9618226289749146 0.37746256589889526 44
0.28229716420173645 1.9638638496398926 0.30783626437187195 44
0.2818746566772461 1.9584972858428955 0.23825454711914062 44
0.28536513447761536 1.980298399925232 0.17169681191444397 44
0.28354358673095703 1.9652279615402222 0.10205511003732681 44
0.2820819318294525 1.9526859521865845 0.03377040475606918 44
0.2819860279560089 1.9400562047958374 -0.5150501132011414 119
0.2833413779735565 1.9469937086105347 -0.4454033374786377 0
0.2843470573425293 1.9515142440795898 -0.37555643916130066 0
0.2864018678665161 1.9632149934768677 -0.3081761300563812 44
0.2909967005252838 1.9922771453857422 -0.242520272731781 44
0.28734973073005676 1.9649105072021484 -0.17038974165916443 44
0.2862147092819214 1.9547663927078247 -0.10119388997554779 44
0.2861718535423279 1.9520965814590454 -0.03343300521373749 44
0.28751319646835327 1.9588640928268433 0.519887387752533 44
0.28819599747657776 1.9611339569091797 0.4484380781650543 44
0.28850057721138 1.9608274698257446 0.37746256589889526 44
0.289150595664978 1.9628664255142212 0.30783626437187195 44
0.2887093722820282 1.9575015306472778 0.23825454711914062 44
0.2915482819080353 1.9743626117706299 0.1712610274553299 44
0.29040178656578064 1.964226245880127 0.10205511003732681 44
0.2888963520526886 1.95168936252594 0.03377040475606918 44
0.28909480571746826 1.939009666442871 -0.5150501132011414 119
0.2911948263645172 1.9507607221603394 -0.4465281069278717 0
0.2914977967739105 1.9504588842391968 -0.37555643916130066 0
0.29359549283981323 1.962152123451233 -0.3081761300563812 44
0.29756155610084534 1.9862892627716064 -0.241910919547081 44
0.2945495545864105 1.9638440608978271 -0.17038974165916443 44
0.2933773696422577 1.9537042379379272 -0.10119388997554779 44
0.29332470893859863 1.951034665107727 -0.03343300521373749 44
0.2946908473968506 1.9577971696853638 0.519887387752533 44
