# .PCD v0.7 - Point Cloud Data file format
VERSION 0.7
FIELDS x y z intensity
SIZE 4 4 4 4
TYPE F F F F
COUNT 1 1 1 1
WIDTH 764
HEIGHT 1
VIEWPOINT 0 0 0 1 0 0 0
POINTS 764
DATA ascii
1.2166208028793335 -1.419455885887146 0.2248489260673523 101
1.2304754257202148 -1.4361275434494019 0.16210968792438507 101
1.2201783657073975 -1.4246125221252441 0.09629815071821213 101
1.2018792629241943 -1.4037433862686157 0.031588852405548096 101
1.2548984289169312 -1.4682590961456299 -0.5072855353355408 119
1.2210880517959595 -1.4292051792144775 -0.425157755613327 119
1.2297871112823486 -1.439895749092102 -0.36030542850494385 101
1.2176936864852905 -1.4262399673461914 -0.2909683585166931 101
1.2426408529281616 -1.4559742212295532 -0.23033331334590912 101
1.2113003730773926 -1.419754981994629 -0.1599310338497162 101
1.2107224464416504 -1.4195795059204102 -0.0954560935497284 101
1.211913824081421 -1.4214788675308228 -0.031618811190128326 101
1.2059112787246704 -1.4149383306503296 0.4875560998916626 101
1.215979814529419 -1.4272565841674805 0.4237121641635895 101
1.2118632793426514 -1.4229278564453125 0.3555392324924469 101
1.2061296701431274 -1.4166964292526245 0.2883034944534302 101
1.2084420919418335 -1.4199146032333374 0.22423957288265228 101
1.2189997434616089 -1.432826280593872 0.16123811900615692 101
1.2119632959365845 -1.4250595569610596 0.09603647142648697 101
1.1872576475143433 -1.3965036869049072 0.03132706880569458 101
1.252890706062317 -1.4763128757476807 -0.5085796117782593 119
1.212939977645874 -1.429743766784668 -0.424032986164093 119
1.2184041738510132 -1.4366928339004517 -0.35839906334877014 101
1.2063207626342773 -1.4229480028152466 -0.2894039750099182 101
1.2182997465133667 -1.437586784362793 -0.22667723894119263 101
1.1934584379196167 -1.408772587776184 -0.15818791091442108 101
1.1960793733596802 -1.4123660326004028 -0.09467366337776184 101
1.2004843950271606 -1.4180693626403809 -0.03144603222608566 101
1.1947247982025146 -1.411765456199646 0.4849695861339569 101
1.2015503644943237 -1.420333743095398 0.4203404486179352 101
1.2005500793457031 -1.4196535348892212 0.3536328375339508 101
1.1948004961013794 -1.4133549928665161 0.28674089908599854 101
1.19707190990448 -1.4165432453155518 0.22302088141441345 101
1.2075620889663696 -1.4294626712799072 0.16036656498908997 101
1.2005385160446167 -1.4216517210006714 0.09551311284303665 101
1.1791508197784424 -1.3968193531036377 0.03123980574309826 101
1.247729778289795 -1.4806772470474243 -0.5085796117782593 119
1.2016644477844238 -1.4265170097351074 -0.4217834770679474 119
1.2102203369140625 -1.4371826648712158 -0.3574458658695221 101
1.1949857473373413 -1.4195939302444458 -0.2878396511077881 101
1.2036882638931274 -1.4304389953613281 -0.2248491793870926 101
1.175708293914795 -1.397683024406433 -0.15644480288028717 101
1.1847147941589355 -1.4088891744613647 -0.0941520482301712 101
1.1858766078948975 -1.4107706546783447 -0.03118686005473137 101
1.1835752725601196 -1.408531904220581 0.4823831021785736 101
1.190317988395691 -1.4170582294464111 0.41809263825416565 101
1.189274549484253 -1.4163179397583008 0.3517264723777771 101
1.1835094690322876 -1.4099516868591309 0.2851782739162445 101
1.1857399940490723 -1.4131098985671997 0.22180218994617462 101
1.1961629390716553 -1.4260368347167969 0.159495010972023 101
1.1923604011535645 -1.422007441520691 0.09525143355131149 101
1.1710565090179443 -1.3970956802368164 0.031152544543147087 101
1.2456527948379517 -1.4887278079986572 -0.5098737478256226 119
1.193552017211914 -1.4269659519195557 -0.42065873742103577 119
1.198899269104004 -1.4338674545288086 -0.3555395007133484 101
1.1868561506271362 -1.4199674129486084 -0.28705745935440063 101
1.1764137744903564 -1.4079734086990356 -0.2205837517976761 101
1.1580500602722168 -1.3864868879318237 -0.15470167994499207 101
1.173389196395874 -1.4053502082824707 -0.09363043308258057 101
1.1809449195861816 -1.414901614189148 -0.03118686005473137 101
1.172462821006775 -1.4052375555038452 0.47979655861854553 101
1.1791229248046875 -1.4137215614318848 0.4158448278903961 101
1.178037166595459 -1.4129208326339722 0.3498201072216034 101
1.1754186153411865 -1.410280704498291 0.2843969464302063 101
1.1776233911514282 -1.413427472114563 0.2211928516626358 101
1.1848024129867554 -1.422548770904541 0.15862344205379486 101
1.180999755859375 -1.418486475944519 0.09472807496786118 101
1.1629743576049805 -1.3973323106765747 0.031065281480550766 101
1.2435349225997925 -1.4967817068099976 -0.5111678242683411 119
1.1823384761810303 -1.4236278533935547 -0.41840922832489014 119
1.1876163482666016 -1.4304906129837036 -0.3536331057548523 101
1.1755845546722412 -1.4165014028549194 -0.2854931354522705 101
1.174660563468933 -1.4158908128738403 -0.2211931049823761 101
1.1563830375671387 -1.3943549394607544 -0.15513746440410614 101
1.1621029376983643 -1.401749610900879 -0.09310881048440933 101
1.1728087663650513 -1.4151660203933716 -0.031100470572710037 101
1.1644691228866577 -1.4056023359298706 0.4785033166408539 101
1.1679658889770508 -1.4103240966796875 0.4135970175266266 101
1.1699678897857666 -1.4132435321807861 0.34886690974235535 101
1.1673400402069092 -1.4105703830718994 0.2836156487464905 101
1.1663557291030884 -1.409881830215454 0.21997416019439697 101
1.1734809875488281 -1.4189988374710083 0.1577518880367279 101
1.172859787940979 -1.4187519550323486 0.09446639567613602 101
1.154905080795288 -1.3975297212600708 0.030978020280599594 101
1.2167893648147583 -1.4750341176986694 -0.502109169960022 119
1.1711626052856445 -1.4202287197113037 -0.4161596894264221 119
1.1763715744018555 -1.4270528554916382 -0.3517267107963562 101
1.1643517017364502 -1.4129738807678223 -0.283928781747818 101
1.1697109937667847 -1.4199824333190918 -0.2211931049823761 101
1.154675006866455 -1.4022279977798462 -0.15557323396205902 101
1.1508561372756958 -1.398087501525879 -0.0925871953368187 101
1.1646853685379028 -1.415390968322754 -0.031014081090688705 101
1.1534191370010376 -1.402198314666748 0.4759168028831482 101
1.159941554069519 -1.4106292724609375 0.4124731123447418 101
1.1619110107421875 -1.413527250289917 0.3479137122631073 101
1.15613853931427 -1.4070053100585938 0.28205302357673645 101
1.1551271677017212 -1.4062747955322266 0.21875545382499695 101
1.165359616279602 -1.4192370176315308 0.15731611847877502 101
1.1615643501281738 -1.4151183366775513 0.0939430370926857 101
1.1468487977981567 -1.3976879119873047 0.030890757218003273 101
1.205512523651123 -1.4717999696731567 -0.4995209574699402 119
1.163111686706543 -1.4205386638641357 -0.4150349199771881 119
1.1651654243469238 -1.4235539436340332 -0.3498203456401825 101
1.1531579494476318 -1.4093854427337646 -0.2823644280433655 101
1.1616052389144897 -1.4202154874801636 -0.2205837517976761 101
1.1497732400894165 -1.40625 -0.15557323396205902 101
1.1428089141845703 -1.3982300758361816 -0.09232638776302338 101
1.1534113883972168 -1.4117050170898438 -0.030841300264000893 101
1.1454622745513916 -1.4024752378463745 0.47462356090545654 101
1.1488478183746338 -1.4071216583251953 0.4102253019809723 101
1.150762677192688 -1.4099692106246948 0.3460073471069336 101
1.148098111152649 -1.4072058200836182 0.28127172589302063 101
1.1439380645751953 -1.402606725692749 0.21753676235675812 101
1.1541036367416382 -1.4155751466751099 0.15644456446170807 101
1.1534631252288818 -1.41529381275177 0.09368135780096054 101
1.1388051509857178 -1.3978067636489868 0.0308034960180521 101
1.1881787776947021 -1.461011290550232 -0.4943445920944214 119
1.1519994735717773 -1.417029619216919 -0.4127854108810425 119
1.1570937633514404 -1.4238033294677734 -0.34886714816093445 101
1.1420035362243652 -1.4057362079620361 -0.28080010414123535 101
1.156640648841858 -1.4242615699768066 -0.2205837517976761 101
1.1417182683944702 -1.4063878059387207 -0.15513746440410614 101
1.1347748041152954 -1.3983335494995117 -0.09206558018922806 101
1.1421775817871094 -1.407957911491394 -0.03066851943731308 101
1.1344754695892334 -1.398962378501892 0.47203704714775085 101
1.1408610343933105 -1.4073386192321777 0.4091013967990875 101
1.142743706703186 -1.4101641178131104 0.34505414962768555 101
1.136961817741394 -1.4035298824310303 0.2797091007232666 101
1.132788896560669 -1.398877739906311 0.2163180708885193 101
1.1428874731063843 -1.4118521213531494 0.15557299554347992 101
1.142233967781067 -1.4115484952926636 0.09315799921751022 101
1.1276308298110962 -1.3939999341964722 0.030628971755504608 101
1.180037498474121 -1.4613922834396362 -0.4930504858493805 119
1.1409261226654053 -1.4134602546691895 -0.41053590178489685 119
1.1459522247314453 -1.4201940298080444 -0.34696078300476074 101
1.13088858127594 -1.4020262956619263 -0.27923575043678284 101
1.1485470533370972 -1.4244270324707031 -0.21997441351413727 101
1.1305503845214844 -1.4026085138320923 -0.15426591038703918 101
1.1298868656158447 -1.4022860527038574 -0.09206558018922806 101
1.1309840679168701 -1.4041494131088257 -0.030495740473270416 101
1.1235271692276 -1.3953900337219238 0.46945056319236755 101
1.1298317909240723 -1.4037216901779175 0.406853586435318 101
1.1316605806350708 -1.406496286392212 0.34314778447151184 101
1.1258653402328491 -1.3997935056686401 0.2781464755535126 101
1.1216797828674316 -1.3950880765914917 0.21509937942028046 101
1.1348317861557007 -1.4119505882263184 0.15513722598552704 101
1.1310449838638306 -1.4077422618865967 0.0926346406340599 101
1.1196274757385254 -1.3940298557281494 0.030541710555553436 101
1.1721632480621338 -1.4615298509597778 -0.491756409406662 119
1.130383849143982 -1.409436583518982 -0.4082863926887512 119
1.135344386100769 -1.416128158569336 -0.34505438804626465 101
1.120301604270935 -1.3978649377822876 -0.2776713967323303 101
1.1409634351730347 -1.4241551160812378 -0.21936506032943726 101
1.1199110746383667 -1.398377537727356 -0.15339434146881104 101
1.1223552227020264 -1.4019309282302856 -0.09180477261543274 101
1.1203198432922363 -1.3998892307281494 -0.030322959646582603 101
1.1161208152770996 -1.3951412439346313 0.4681572914123535 101
1.119330644607544 -1.3996542692184448 0.40460577607154846 101
1.1211066246032715 -1.4023768901824951 0.34124141931533813 101
1.11837899684906 -1.3994656801223755 0.27736517786979675 101
1.1141939163208008 -1.3947277069091797 0.21449004113674164 101
1.1241739988327026 -1.407724380493164 0.15426567196846008 101
1.1203866004943848 -1.4034841060638428 0.09211128205060959 101
1.1121243238449097 -1.3936327695846558 0.030454447492957115 101
1.1612918376922607 -1.4578535556793213 -0.4891682267189026 119
1.1193875074386597 -1.4057514667510986 -0.4060368835926056 119
1.124280571937561 -1.4124021530151367 -0.34314802289009094 101
1.1092654466629028 -1.3940383195877075 -0.2761070728302002 101
1.1328959465026855 -1.4242453575134277 -0.21875572204589844 101
1.1119229793548584 -1.3983796834945679 -0.15295857191085815 101
1.1143478155136108 -1.4019312858581543 -0.09154396504163742 101
1.1092064380645752 -1.395963191986084 -0.03015017881989479 101
1.1052359342575073 -1.3914648294448853 0.4655708074569702 101
1.1114084720611572 -1.3997374773025513 0.4034818708896637 101
1.113153100013733 -1.4024372100830078 0.3402882218360901 101
1.1073479652404785 -1.3956235647201538 0.2758025527000427 101
1.103150725364685 -1.3908321857452393 0.2132713496685028 101
1.1161586046218872 -1.4077367782592773 0.153829887509346 101
1.1123793125152588 -1.4034733772277832 0.09184960275888443 101
1.107252836227417 -1.3975063562393188 0.030454447492957115 101
1.1499501466751099 -1.454522967338562 -0.4865800142288208 119
1.1081860065460205 -1.4022002220153809 -0.40378737449645996 0
1.1160537004470825 -1.4126619100570679 -0.3421948254108429 101
1.1010879278182983 -1.3942190408706665 -0.27532488107681274 101
1.1245931386947632 -1.4244928359985352 -0.21814636886119843 101
1.1006187200546265 -1.3946255445480347 -0.15208700299263 101
1.106109380722046 -1.4020860195159912 -0.0912831500172615 101
1.1009868383407593 -1.3960938453674316 -0.03006378933787346 101
1.0971384048461914 -1.3917133808135986 0.4642775356769562 101
1.1002395153045654 -1.3961483240127563 0.40123406052589417 101
1.1049680709838867 -1.4026520252227783 0.33933502435684204 101
1.0991698503494263 -1.395792841911316 0.2750212550163269 101
1.0949759483337402 -1.3909666538238525 0.2126619964838028 101
1.107911229133606 -1.407904028892517 0.15339410305023193 101
1.1010535955429077 -1.3996920585632324 0.09132624417543411 101
1.0990331172943115 -1.39762544631958 0.030367186293005943 101
1.138901948928833 -1.450930118560791 -0.4839918315410614 119
1.1002771854400635 -1.4022271633148193 -0.40266263484954834 0
1.1050572395324707 -1.408825159072876 -0.3402884602546692 101
1.0931671857833862 -1.3941679000854492 -0.2745427191257477 101
1.1134908199310303 -1.4205979108810425 -0.2169276773929596 101
1.0895997285842896 -1.3906173706054688 -0.15121544897556305 101
1.0981295108795166 -1.4020075798034668 -0.09102234244346619 101
1.0930248498916626 -1.3959922790527344 -0.029977399855852127 101
1.0863200426101685 -1.3879280090332031 0.4616910517215729 101
1.0923571586608887 -1.3961431980133057 0.4001101553440094 101
1.094017505645752 -1.3987681865692139 0.33742865920066833 101
1.0912491083145142 -1.3957306146621704 0.2742399275302887 101
1.0840017795562744 -1.3869599103927612 0.21144330501556396 101
1.0999234914779663 -1.4078377485275269 0.15295833349227905 101
1.0930876731872559 -1.3995918035507202 0.09106456488370895 101
1.091071367263794 -1.3975127935409546 0.03027992509305477 101
1.1278927326202393 -1.4472779035568237 -0.481403648853302 119
1.0893877744674683 -1.3983728885650635 -0.4004131257534027 0
1.0971169471740723 -1.4088014364242554 -0.33933526277542114 101
1.0822268724441528 -1.390181541442871 -0.27297836542129517 101
1.1054774522781372 -1.4205595254898071 -0.21631832420825958 101
1.0816805362701416 -1.390480875968933 -0.15077966451644897 101
1.0901637077331543 -1.401890516281128 -0.09076153486967087 101
1.0850770473480225 -1.3958520889282227 -0.029891008511185646 101
1.078505039215088 -1.3878977298736572 0.4603978097438812 101
1.0844883918762207 -1.3961002826690674 0.39898625016212463 101
1.0861178636550903 -1.398701786994934 0.3364754617214203 101
1.08334219455719 -1.395630121231079 0.2734586298465729 101
1.0761114358901978 -1.3868145942687988 0.21083396673202515 101
1.0919495820999146 -1.4077328443527222 0.15252254903316498 101
1.085135817527771 -1.399453043937683 0.0908028855919838 101
1.0800609588623047 -1.3934102058410645 0.03010539896786213 101
1.1228339672088623 -1.4512062072753906 -0.481403648853302 119
1.081519365310669 -1.3983134031295776 -0.3992883563041687 0
1.0861881971359253 -1.4048564434051514 -0.33742889761924744 101
1.0743476152420044 -1.3900433778762817 -0.2721962034702301 101
1.0974777936935425 -1.4204825162887573 -0.21570898592472076 101
1.0707309246063232 -1.3863637447357178 -0.14990811049938202 101
1.082212209701538 -1.4017350673675537 -0.09050072729587555 101
1.0740891695022583 -1.3917157649993896 -0.029718227684497833 101
1.0707035064697266 -1.3878298997879028 0.4591045379638672 101
1.073657751083374 -1.392161250114441 0.3967384397983551 101
1.0782320499420166 -1.398597240447998 0.33552229404449463 101
1.0754493474960327 -1.395491361618042 0.27267730236053467 101
1.0682352781295776 -1.3866310119628906 0.21022459864616394 101
1.0809507369995117 -1.4036431312561035 0.15165099501609802 101
1.0741524696350098 -1.3953191041946411 0.09027951955795288 101
1.0721416473388672 -1.3932100534439087 0.030018135905265808 101
1.1207034587860107 -1.458946943283081 -0.4826977550983429 0
1.0736645460128784 -1.3982160091400146 -0.3981636166572571 0
1.0782890319824219 -1.4047458171844482 -0.3364757001399994 101
1.066482663154602 -1.3898671865463257 -0.27141401171684265 101
1.0864719152450562 -1.4164295196533203 -0.21449029445648193 101
1.062854290008545 -1.38614022731781 -0.14947232604026794 101
1.0712374448776245 -1.397578239440918 -0.08997910469770432 101
1.0661839246749878 -1.3914883136749268 -0.029631836339831352 101
1.0599788427352905 -1.383890151977539 0.4565180540084839 101
1.0658297538757324 -1.392032265663147 0.39561453461647034 101
1.067376971244812 -1.394557237625122 0.33361589908599854 101
1.0645697116851807 -1.3913925886154175 0.271114706993103 101
1.0573586225509644 -1.38246750831604 0.2090059071779251 101
1.07301926612854 -1.403450846672058 0.15121521055698395 101
1.0662434101104736 -1.3950929641723633 0.09001784026622772 101
1.061201810836792 -1.3889988660812378 0.029843611642718315 101
1.1185327768325806 -1.4666903018951416 -0.4839918315410614 0
1.0628701448440552 -1.3942065238952637 -0.39591410756111145 0
1.0674289464950562 -1.4006935358047485 -0.3345693349838257 101
1.0556392669677734 -1.385724425315857 -0.26984965801239014 101
1.0785142183303833 -1.4162650108337402 -0.21388094127178192 101
1.0549921989440918 -1.3858784437179565 -0.14903654158115387 101
1.0633286237716675 -1.3973355293273926 -0.089718297123909 101
1.0552668571472168 -1.3872437477111816 -0.02945905737578869 101
1.0522181987762451 -1.3837370872497559 0.45522478222846985 101
1.055067539215088 -1.3879868984222412 0.3933667242527008 101
1.0595329999923706 -1.3943663835525513 0.3326627314090729 101
1.0567190647125244 -1.391167402267456 0.2703333795070648 101
1.049525260925293 -1.382197618484497 0.2083965688943863 101
1.0620906352996826 -1.3992527723312378 0.150343656539917 101
1.055330753326416 -1.3908507823944092 0.0894944816827774 101
1.0503045320510864 -1.3847285509109497 0.02966908924281597 101
1.1134061813354492 -1.4705857038497925 -0.4839918315410614 0
1.0550568103790283 -1.3940234184265137 -0.39478933811187744 0
1.059571623802185 -1.4004967212677002 -0.33361613750457764 101
1.0478168725967407 -1.3854621648788452 -0.2690674960613251 101
1.0705711841583252 -1.4160624742507935 -0.2132715880870819 101
1.0471450090408325 -1.3855788707733154 -0.148600772023201 101
1.0524247884750366 -1.3930705785751343 -0.08919667452573776 101
1.0474052429199219 -1.3869295120239258 -0.029372666031122208 101
1.0444717407226562 -1.3835469484329224 0.4539315402507782 101
1.0472813844680786 -1.3877723217010498 0.39224281907081604 101
1.0487473011016846 -1.3902196884155273 0.3307563364505768 101
1.0488829612731934 -1.3909043073654175 0.2695520520210266 101
1.0387194156646729 -1.3779268264770508 0.20717787742614746 101
1.0512046813964844 -1.3949955701828003 0.14947208762168884 101
1.0474650859832764 -1.3905378580093384 0.08923280239105225 101
1.0424573421478271 -1.3843927383422852 0.02958182618021965 101
1.1024625301361084 -1.466741919517517 -0.481403648853302 0
1.047257900238037 -1.3938028812408447 -0.3936645984649658 0
1.0517288446426392 -1.4002622365951538 -0.332662969827652 101
1.0370440483093262 -1.381212830543518 -0.26750314235687256 101
1.0626426935195923 -1.4158216714859009 -0.2126622498035431 101
1.039312720298767 -1.3852413892745972 -0.14816498756408691 101
1.0445598363876343 -1.3927412033081055 -0.08893586695194244 101
1.036559820175171 -1.3825771808624268 -0.029199887067079544 101
1.0367392301559448 -1.3833194971084595 0.45263829827308655 101
1.0365883111953735 -1.3836212158203125 0.3899950385093689 101
1.0409460067749023 -1.3899433612823486 0.3298031687736511 101
1.0410617589950562 -1.39060378074646 0.2687707543373108 101
1.0309298038482666 -1.3775709867477417 0.20656852424144745 101
1.0433452129364014 -1.3946681022644043 0.14903631806373596 101
1.0366241931915283 -1.3861883878707886 0.08870944380760193 101
1.0316320657730103 -1.3800148963928223 0.029407301917672157 101
1.0915590524673462 -1.4628396034240723 -0.4788154363632202 0
1.036560297012329 -1.3896397352218628 -0.3914150893688202 0
1.0409666299819946 -1.3960552215576172 -0.3307565748691559 101
1.0292649269104004 -1.3808648586273193 -0.2667209804058075 101
1.0517637729644775 -1.4115633964538574 -0.21144355833530426 101
1.0285203456878662 -1.3808715343475342 -0.14729343354701996 101
1.0337278842926025 -1.388368844985962 -0.0884142518043518 101
1.0287425518035889 -1.3821766376495361 -0.029113495722413063 101
1.026138186454773 -1.3791800737380981 0.45005178451538086 101
1.0288447141647339 -1.3833218812942505 0.38887113332748413 101
1.0302307605743408 -1.385690450668335 0.32789677381515503 101
1.0332554578781128 -1.3902654647827148 0.2679894268512726 101
1.0231553316116333 -1.3771775960922241 0.20595917105674744 101
1.0325309038162231 -1.3903039693832397 0.148164764046669 101
1.0288028717041016 -1.385789394378662 0.08844776451587677 101
1.0238293409347534 -1.3795931339263916 0.029320040717720985 101
1.083571434020996 -1.4627602100372314 -0.4775213301181793 0
1.028804063796997 -1.3893343210220337 -0.3902903199195862 0
1.033166766166687 -1.395735263824463 -0.3298034071922302 101
1.0215011835098267 -1.3804794549942017 -0.26593878865242004 101
1.0438787937164307 -1.41123628616333 -0.21083420515060425 101
1.0207325220108032 -1.380448341369629 -0.14685764908790588 101
1.0259073972702026 -1.3879534006118774 -0.08815344423055649 101
1.0179698467254639 -1.3777178525924683 -0.0289407167583704 101
1.0184481143951416 -1.378868579864502 0.4487585425376892 101
1.021115779876709 -1.382985234260559 0.387747198343277 101
1.0224727392196655 -1.385329008102417 0.326943576335907 101
1.0225321054458618 -1.385915756225586 0.26642683148384094 101
1.015396237373352 -1.376746654510498 0.20534983277320862 101
1.024715781211853 -1.3898905515670776 0.14772897958755493 101
1.0209969282150269 -1.385352611541748 0.08818608522415161 101
1.0160422325134277 -1.3791335821151733 0.029232779517769814 101
1.072736382484436 -1.4587520360946655 -0.4749331474304199 0
1.018176794052124 -1.385066270828247 -0.38804078102111816 0
1.0224754810333252 -1.3914226293563843 -0.32789698243141174 101
1.0137524604797363 -1.3800568580627441 -0.265156626701355 101
1.0360089540481567 -1.4108712673187256 -0.21022485196590424 101
1.0100128650665283 -1.3759722709655762 -0.14598609507083893 101
1.015148401260376 -1.383474588394165 -0.08763182163238525 101
1.010197639465332 -1.3772315979003906 -0.02885432541370392 101
1.007916808128357 -1.3746249675750732 0.44617199897766113 101
1.0134018659591675 -1.382611632347107 0.3866232931613922 101
1.0147298574447632 -1.3849303722381592 0.32599037885665894 101
1.0147700309753418 -1.3854924440383911 0.26564550399780273 101
1.0076525211334229 -1.3762785196304321 0.2047404795885086 101
1.0169161558151245 -1.389439582824707 0.14729321002960205 101
1.0102583169937134 -1.3808485269546509 0.0876627191901207 101
1.0082708597183228 -1.3786367177963257 0.029145516455173492 101
1.06479012966156 -1.4585869312286377 -0.47363904118537903 0
1.010464072227478 -1.384676456451416 -0.38691604137420654 0
1.0147197246551514 -1.3910177946090698 -0.3269438147544861 101
1.0031096935272217 -1.375606656074524 -0.26359227299690247 101
1.025231122970581 -1.4064582586288452 -0.2090061455965042 101
1.002270221710205 -1.375463843345642 -0.14555031061172485 101
1.0044333934783936 -1.3789379596710205 -0.08711020648479462 101
0.999498724937439 -1.3726667165756226 -0.028681546449661255 101
0.9974276423454285 -1.3703250885009766 0.44358551502227783 101
1.0057029724121094 -1.382201075553894 0.38549938797950745 101
1.0041152238845825 -1.3805252313613892 0.32408401370048523 101
1.0070234537124634 -1.385031819343567 0.2648642063140869 101
0.9970068335533142 -1.3717585802078247 0.20352178812026978 101
1.0091320276260376 -1.3889511823654175 0.14685742557048798 101
1.002497911453247 -1.3803266286849976 0.08740103989839554 101
0.9975781440734863 -1.3740568161010742 0.028970992192626 101
1.0568581819534302 -1.4583840370178223 -0.4723449647426605 0
1.0027663707733154 -1.3842499256134033 -0.38579127192497253 0
1.00697922706604 -1.3905760049819946 -0.32599061727523804 101
0.9954059720039368 -1.3750993013381958 -0.2628101110458374 101
1.0174061059951782 -1.4060078859329224 -0.2083968073129654 101
0.9916242957115173 -1.370882511138916 -0.1446787565946579 101
0.9966880679130554 -1.3783893585205078 -0.0868493989109993 101
0.9917725324630737 -1.3720955848693848 -0.028595155104994774 101
0.9898096323013306 -1.369883418083191 0.4422922432422638 101
0.9951667189598083 -1.377804160118103 0.3832515776157379 101
0.9964169263839722 -1.3800424337387085 0.3231308162212372 101
0.9964020848274231 -1.380529522895813 0.2633015811443329 101
0.989308774471283 -1.3712059259414673 0.20291244983673096 101
0.9984503388404846 -1.3843854665756226 0.14598587155342102 101
0.9918334484100342 -1.375717043876648 0.08687768131494522 101
0.989852786064148 -1.3734750747680664 0.028883730992674828 101
1.0461204051971436 -1.4542231559753418 -0.46975675225257874 0
0.9922396540641785 -1.3798309564590454 -0.3835417628288269 0
0.9963892102241516 -1.3861117362976074 -0.32408425211906433 101
0.9848363399505615 -1.3705447912216187 -0.2612457573413849 101
1.0067014694213867 -1.401489496231079 -0.20717811584472656 101
0.9839279055595398 -1.3702895641326904 -0.14424297213554382 101
0.9860472679138184 -1.3737472295761108 -0.08632778376340866 101
0.9811480641365051 -1.3674254417419434 -0.02842237427830696 101
0.9822068214416504 -1.3694056272506714 0.44099900126457214 101
0.9875122308731079 -1.3773099184036255 0.38212767243385315 101
0.9887341856956482 -1.379522681236267 0.3221776485443115 101
0.988700807094574 -1.379984736442566 0.26252028346061707 101
0.9787371158599854 -1.3665814399719238 0.20169375836849213 101
0.9907122850418091 -1.3838121891021729 0.14555008709430695 101
0.9841193556785583 -1.3751102685928345 0.08661600202322006 101
0.9821437001228333 -1.3728559017181396 0.028796469792723656 101
1.0354245901107788 -1.4500051736831665 -0.46716856956481934 0
0.9817562103271484 -1.37535560131073 -0.3812922537326813 0
0.9886937141418457 -1.3855857849121094 -0.3231310546398163 101
0.9771784543991089 -1.3699536323547363 -0.2604635953903198 101
0.996040940284729 -1.3969135284423828 -0.20595942437648773 101
0.9762476682662964 -1.3696597814559937 -0.14380720257759094 101
0.9783484935760498 -1.3731142282485962 -0.08606696873903275 101
0.9734686613082886 -1.3667700290679932 -0.02833598479628563 101
0.9718181490898132 -1.3649566173553467 0.43841248750686646 101
0.9770485162734985 -1.3728100061416626 0.3798798620700836 101
0.9782220721244812 -1.3749668598175049 0.32027125358581543 101
0.9810155630111694 -1.379402995109558 0.26173895597457886 101
0.9710853695869446 -1.3659448623657227 0.20108440518379211 101
0.9801051020622253 -1.3791418075561523 0.14467853307724 101
0.9764217138290405 -1.3744666576385498 0.0863543227314949 101
0.9715564250946045 -1.3681238889694214 0.028621945530176163 101
1.0275639295578003 -1.449670433998108 -0.46587449312210083 0
0.9741326570510864 -1.3747990131378174 -0.38016751408576965 0
0.9781771302223206 -1.3810179233551025 -0.3212246894836426 101
0.966683030128479 -1.36529541015625 -0.2588992416858673 101
0.9882917404174805 -1.3963310718536377 -0.20535007119178772 101
0.9685837626457214 -1.3689929246902466 -0.14337141811847687 101
0.9706662893295288 -1.3724442720413208 -0.08580616116523743 101
0.9658058285713196 -1.3660775423049927 -0.028249595314264297 101
0.9642601013183594 -1.3643964529037476 0.4371192455291748 101
0.9694392681121826 -1.3722329139709473 0.37875595688819885 101
0.9705852270126343 -1.374363899230957 0.31931808590888977 101
0.9704982042312622 -1.374749779701233 0.26017633080482483 101
0.9605886340141296 -1.36121666431427 0.19986571371555328 101
0.9724138379096985 -1.3784843683242798 0.14424274861812592 101
0.9658629298210144 -1.3697054386138916 0.08583096414804459 101
0.9638946056365967 -1.3674206733703613 0.02853468246757984 101
1.0169390439987183 -1.4453486204147339 -0.46328628063201904 0
0.9665250778198242 -1.3742061853408813 -0.37904274463653564 101
0.9705275297164917 -1.3804086446762085 -0.32027149200439453 101
0.9590718150138855 -1.3646210432052612 -0.25811707973480225 101
0.9805587530136108 -1.3957116603851318 -0.2047407180070877 101
0.9609366059303284 -1.3682893514633179 -0.1429356336593628 101
0.9658696055412292 -1.375824213027954 -0.08580616116523743 101
0.9581597447395325 -1.3653484582901 -0.028163203969597816 101
0.9567179679870605 -1.3638001680374146 0.43582600355148315 101
0.959048867225647 -1.3676306009292603 0.3765081465244293 101
0.9629644751548767 -1.3737242221832275 0.3183648884296417 101
0.9628595113754272 -1.374084711074829 0.259395033121109 101
0.9501368999481201 -1.3564320802688599 0.19864702224731445 101
0.9618821144104004 -1.373710036277771 0.14337119460105896 101
0.9582126140594482 -1.3689779043197632 0.08556928485631943 101
0.9562495350837708 -1.3666809797286987 0.02844742126762867 101
1.0063570737838745 -1.440970540046692 -0.46069809794425964 0
0.9561448097229004 -1.369582176208496 -0.37679323554039 101
0.9628941416740417 -1.3797630071640015 -0.3193182945251465 101
0.9486514925956726 -1.3598600625991821 -0.25655272603034973 101
0.9728420972824097 -1.3950551748275757 -0.2041313797235489 101
0.9533060789108276 -1.367549180984497 -0.1424998641014099 101
0.9582065343856812 -1.3750905990600586 -0.08554535359144211 101
0.9505305290222168 -1.3645826578140259 -0.028076814487576485 101
0.9464316368103027 -1.3592040538787842 0.43323948979377747 101
0.951485812664032 -1.3669711351394653 0.37538424134254456 101
0.9553599953651428 -1.373048186302185 0.3174116909503937 101
0.9552372097969055 -1.3733829259872437 0.2586137354373932 101
0.9425631761550903 -1.355665683746338 0.19803768396377563 101
0.9542384743690491 -1.372969150543213 0.14293542504310608 101
0.9505792260169983 -1.3682136535644531 0.08530760556459427 101
0.9486214518547058 -1.365904450416565 0.028360160067677498 101
1.0013210773468018 -1.4444745779037476 -0.46069809794425964 0
0.9488223195075989 -1.368741512298584 -0.3756684958934784 101
0.9555177688598633 -1.3789141178131104 -0.3183651268482208 101
0.941324770450592 -1.3589386940002441 -0.25577056407928467 101
0.96256023645401 -1.3901134729385376 -0.20291268825531006 101
0.9459310173988342 -1.366607427597046 -0.14206407964229584 101
0.9508001804351807 -1.3741544485092163 -0.08528454601764679 101
0.9431563019752502 -1.36361563205719 -0.027990425005555153 101
0.9391723871231079 -1.3583621978759766 0.4319462478160858 101
0.9414073824882507 -1.36210298538208 0.373136430978775 101
0.9480116367340088 -1.3721705675125122 0.316458523273468 101
0.9450647234916687 -1.3684157133102417 0.25705111026763916 101
0.9352429509162903 -1.3546998500823975 0.19742833077907562 101
0.9440220594406128 -1.367926836013794 0.14206385612487793 101
0.9460368156433105 -1.3713583946228027 0.08530760556459427 101
0.9412485957145691 -1.364927053451538 0.028272897005081177 101
0.9965255260467529 -1.4477870464324951 -0.46069809794425964 0
0.9385155439376831 -1.3640179634094238 -0.37341898679733276 101
0.9451356530189514 -1.3741530179977417 -0.31645873188972473 101
0.9309797286987305 -1.3540774583816528 -0.25420621037483215 101
0.95489102602005 -1.3893749713897705 -0.20230333507061005 101
0.9383344054222107 -1.3657954931259155 -0.14162829518318176 101
0.943170964717865 -1.3733489513397217 -0.08502373844385147 101
0.9355611801147461 -1.3627780675888062 -0.027904033660888672 101
0.9316922426223755 -1.3576501607894897 0.43065300583839417 101
0.9338909983634949 -1.3613632917404175 0.37201252579689026 101
0.94044029712677 -1.3714234828948975 0.31550532579421997 101
0.9374901056289673 -1.3676329851150513 0.25626978278160095 101
0.9277032613754272 -1.3538624048233032 0.1968189924955368 101
0.9364265203475952 -1.367104411125183 0.14162808656692505 101
0.938423216342926 -1.3705323934555054 0.08504592627286911 101
0.93365478515625 -1.3640788793563843 0.028185635805130005 101
0.99146568775177 -1.4512568712234497 -0.46069809794425964 0
0.9312389492988586 -1.3631000518798828 -0.37229421734809875 101
0.9378054738044739 -1.373226284980774 -0.3155055344104767 101
0.9237000346183777 -1.3530786037445068 -0.2534240484237671 101
0.947481095790863 -1.388434648513794 -0.20169399678707123 101
0.9309931993484497 -1.364784836769104 -0.14119252562522888 101
0.9329854846000671 -1.3682184219360352 -0.08450211584568024 101
0.9282211065292358 -1.3617421388626099 -0.02781764417886734 101
0.9244652986526489 -1.3567408323287964 0.4293597340583801 101
0.9266286492347717 -1.3604259490966797 0.3708886206150055 101
0.933124840259552 -1.370477318763733 0.3145521283149719 101
0.9301709532737732 -1.3666515350341797 0.25548848509788513 101
0.920417070388794 -1.3528282642364502 0.1962096393108368 101
0.9290867447853088 -1.3660836219787598 0.14119230210781097 101
0.9338731169700623 -1.3736368417739868 0.08504592627286911 101
0.9263162016868591 -1.3630326986312866 0.028098372742533684 101
0.9893589019775391 -1.458533525466919 -0.46199220418930054 0
0.9237409830093384 -1.3623101711273193 -0.37116944789886475 101
0.9302524328231812 -1.3724285364151 -0.314552366733551 101
0.9189713001251221 -1.3562947511672974 -0.2534240484237671 101
0.9398457407951355 -1.3876246213912964 -0.20108464360237122 101
0.9234310388565063 -1.3639018535614014 -0.1407567411661148 101
0.9254052042961121 -1.367331624031067 -0.08424130827188492 101
0.9206608533859253 -1.3608332872390747 -0.02773125469684601 101
0.9170179963111877 -1.3559587001800537 0.4280664920806885 101
0.9191456437110901 -1.3596160411834717 0.3697647154331207 101
0.9228388071060181 -1.3655925989151 0.3126457631587982 101
0.922630250453949 -1.365797758102417 0.2547071874141693 101
0.91568922996521 -1.3560328483581543 0.1962096393108368 101
0.921525776386261 -1.365190029144287 0.1407565325498581 101
0.9234868884086609 -1.3686102628707886 0.08452256768941879 101
0.9187570810317993 -1.362113356590271 0.028011111542582512 101
0.9705238938331604 -1.4421160221099854 -0.45552173256874084 0
0.9160223007202148 -1.3616443872451782 -0.3700447082519531 101
0.9224769473075867 -1.371755838394165 -0.313599169254303 101
0.9112389087677002 -1.3555552959442139 -0.252641886472702 101
0.9319855570793152 -1.386940836906433 -0.2004752904176712 101
0.9128710627555847 -1.359007716178894 -0.13988518714904785 101
0.9176039695739746 -1.366568922996521 -0.0839805006980896 101
0.9128807187080383 -1.3600475788116455 -0.027644861489534378 101
0.909351110458374 -1.355299949645996 0.4267732501029968 101
0.9114423990249634 -1.3589295148849487 0.36864081025123596 101
0.9150941967964172 -1.364889144897461 0.31169256567955017 101
0.9148687720298767 -1.3650678396224976 0.2539258599281311 101
0.9079506993293762 -1.3552569150924683 0.19560030102729797 101
0.9165159463882446 -1.368558406829834 0.1407565325498581 101
0.915686845779419 -1.367836594581604 0.08426088839769363 101
0.9109781980514526 -1.3613166809082031 0.02792384847998619 101
0.9547540545463562 -1.4294304847717285 -0.45034533739089966 0
0.9085584878921509 -1.3607819080352783 -0.3689199388027191 101
0.9149582982063293 -1.3708851337432861 -0.31264597177505493 101
0.9037607312202454 -1.3546197414398193 -0.2518596947193146 101
0.9243850708007812 -1.386056900024414 -0.19986595213413239 101
0.9053586721420288 -1.3580414056777954 -0.13944940268993378 101
0.9100591540336609 -1.3656085729599 -0.08371969312429428 101
0.9053561091423035 -1.3590651750564575 -0.027558472007513046 101
0.9019376039505005 -1.3544458150863647 0.4254799783229828 101
0.9039936065673828 -1.3580471277236938 0.3675169050693512 101
0.9048860669136047 -1.359902262687683 0.30978620052337646 101
0.9073630571365356 -1.3641409873962402 0.2531445622444153 101
0.9004666209220886 -1.3542853593826294 0.19499093294143677 101
0.9117332100868225 -1.3717492818832397 0.1407565325498581 101
0.9081434607505798 -1.366865634918213 0.08399920910596848 101
0.9034548997879028 -1.3603239059448242 0.02783658541738987 101
0.9390847086906433 -1.4166523218154907 -0.44516894221305847 0
0.9011118412017822 -1.3598839044570923 -0.3677951991558075 101
0.9074568748474121 -1.3699785470962524 -0.3116928040981293 101
0.8963003754615784 -1.3536486625671387 -0.2510775327682495 101
0.9168021082878113 -1.3851368427276611 -0.19925659894943237 101
0.8951157331466675 -1.352885365486145 -0.13857783377170563 101
0.9025322198867798 -1.364612102508545 -0.08345887809991837 101
0.897849440574646 -1.3580468893051147 -0.027472082525491714 101
0.8918782472610474 -1.34952712059021 0.4228934943675995 101
0.8965620994567871 -1.3571292161941528 0.3663930296897888 101
0.8947241306304932 -1.3548611402511597 0.30787983536720276 101
0.8998750448226929 -1.3631784915924072 0.2523632347583771 101
0.8930004835128784 -1.3532781600952148 0.19438157975673676 101
0.9041966199874878 -1.3707655668258667 0.14032074809074402 101
0.897869348526001 -1.3616902828216553 0.08347584307193756 101
0.8959497809410095 -1.359295129776001 0.027749324217438698 101
0.9261707663536072 -1.4078172445297241 -0.4412866532802582 0
0.8936826586723328 -1.3589506149291992 -0.3666704297065735 101
0.8999730944633484 -1.369036316871643 -0.3107396066188812 101
0.8888576626777649 -1.3526419401168823 -0.25029534101486206 101
0.9092368483543396 -1.3841806650161743 -0.19864726066589355 101
0.8876538872718811 -1.3518379926681519 -0.13814206421375275 101
0.8950234055519104 -1.3635798692703247 -0.08319807052612305 101
0.8903610110282898 -1.3569928407669067 -0.027385691180825233 101
0.8818643689155579 -1.3445549011230469 0.4203069806098938 101
0.8864767551422119 -1.3521016836166382 0.3641452193260193 101
0.8872988224029541 -1.3538708686828613 0.3069266378879547 101
0.8924047946929932 -1.362180233001709 0.25158193707466125 101
0.8828335404396057 -1.348083734512329 0.19316288828849792 101
0.8966782093048096 -1.3697459697723389 0.13988497853279114 101
0.8876425623893738 -1.3564598560333252 0.08295248448848724 101
0.8857260942459106 -1.3540470600128174 0.027574799954891205 101
0.9159704446792603 -1.4029537439346313 -0.4386984705924988 0
0.8862709403038025 -1.3579819202423096 -0.36554569005966187 101
0.8898250460624695 -1.363947868347168 -0.3088332414627075 101
0.8814330697059631 -1.3515998125076294 -0.2495131641626358 101
0.8989792466163635 -1.3790314197540283 -0.19742855429649353 101
0.8774909973144531 -1.346582055091858 -0.1372704952955246 101
0.8875328302383423 -1.3625119924545288 -0.08293726295232773 101
0.8856188654899597 -1.3600926399230957 -0.027385691180825233 101
0.8745308518409729 -1.3435770273208618 0.41901373863220215 101
0.8790945410728455 -1.3511041402816772 0.3630213141441345 101
0.8772152066230774 -1.3487305641174316 0.3050202429294586 101
0.8822606205940247 -1.3570061922073364 0.25001928210258484 101
0.8727137446403503 -1.3428348302841187 0.1919441968202591 101
0.8891777992248535 -1.3686904907226562 0.13944917917251587 101
0.8801828026771545 -1.3553625345230103 0.08269080519676208 101
0.8782721757888794 -1.3529374599456787 0.027487538754940033 101
0.9058151841163635 -1.398036003112793 -0.4361102879047394 0
0.8788768649101257 -1.356978178024292 -0.36442092061042786 101
0.8823910355567932 -1.362925410270691 -0.3078800439834595 101
0.8713433742523193 -1.3463764190673828 -0.24794882535934448 101
0.8914644122123718 -1.377994179725647 -0.1968192160129547 101
0.8700803518295288 -1.345454216003418 -0.13683472573757172 101
0.8800607323646545 -1.3614084720611572 -0.08267644792795181 101
0.8781524896621704 -1.3589767217636108 -0.0272993016988039 101
0.8698355555534363 -1.3466213941574097 0.41901373863220215 101
0.8717301487922668 -1.3500715494155884 0.36189740896224976 101
0.869840145111084 -1.3476604223251343 0.30406704545021057 101
0.874841034412384 -1.3559277057647705 0.24923798441886902 101
0.86533123254776 -1.3417024612426758 0.19133485853672028 101
0.8816957473754883 -1.3675997257232666 0.139013409614563 101
0.8727414608001709 -1.3542295694351196 0.08242912590503693 101
0.8708367943763733 -1.3517920970916748 0.027400275692343712 101
0.8930937051773071 -1.3890024423599243 -0.4322279989719391 0
0.8715006113052368 -1.3559393882751465 -0.36329618096351624 101
0.8749750256538391 -1.3618677854537964 -0.3069268465042114 101
0.8639696836471558 -1.3452545404434204 -0.24716664850711823 101
0.883967936038971 -1.3769214153289795 -0.1962098628282547 101
0.862688422203064 -1.3442912101745605 -0.13639894127845764 101
0.8726070523262024 -1.36026930809021 -0.0824156403541565 101
0.8707048296928406 -1.357825517654419 -0.02721291221678257 101
0.8625232577323914 -1.345583438873291 0.4177204966545105 101
0.8643837571144104 -1.3490040302276611 0.360773503780365 101
0.8624833226203918 -1.346555471420288 0.3031138777732849 101
0.8674395680427551 -1.354814052581787 0.248456671833992 101
0.8552920818328857 -1.3363549709320068 0.19011616706848145 101
0.874232292175293 -1.3664733171463013 0.1385776251554489 101
0.8653188347816467 -1.353061318397522 0.08216744661331177 101
0.8634201288223267 -1.350611686706543 0.02731301449239254 101
0.8830441236495972 -1.383968472480774 -0.4296398162841797 0
0.8641423583030701 -1.3548657894134521 -0.3621714115142822 101
0.8675772547721863 -1.3607749938964844 -0.30597367882728577 101
0.8566144108772278 -1.3440974950790405 -0.24638447165489197 101
0.8764896392822266 -1.3758130073547363 -0.19560052454471588 101
0.8526395559310913 -1.3388915061950684 -0.13552738726139069 101
0.8624908328056335 -1.354882836341858 -0.08189402520656586 101
0.8579081892967224 -1.3482033014297485 -0.026953741908073425 101
0.8552287817001343 -1.3445106744766235 0.41642722487449646 101
0.8570553064346313 -1.3479015827178955 0.35964956879615784 101
0.8551447987556458 -1.345415472984314 0.30216068029403687 101
0.8600567579269409 -1.3536653518676758 0.24767537415027618 101
0.8479614853858948 -1.3351430892944336 0.18950681388378143 101
0.866787314414978 -1.3653115034103394 0.13814184069633484 101
0.8579150438308716 -1.3518577814102173 0.08190576732158661 101
0.8560224175453186 -1.3493958711624146 0.02722575142979622 101
0.8727999329566956 -1.3790338039398193 -0.4270516037940979 0
0.8565660715103149 -1.3539068698883057 -0.3610466718673706 101
0.8573369383811951 -1.3556488752365112 -0.3040672838687897 101
0.8464046120643616 -1.3388795852661133 -0.24482013285160065 101
0.8661389350891113 -1.3706258535385132 -0.19438181817531586 101
0.8450664281845093 -1.3377965688705444 -0.1350916028022766 101
0.8548532724380493 -1.3538129329681396 -0.08163321763277054 101
0.8476242423057556 -1.3428834676742554 -0.026780961081385612 101
0.8477178812026978 -1.343551516532898 0.4151339828968048 101
0.8495102524757385 -1.3469129800796509 0.35852566361427307 101
0.8475902080535889 -1.344388723373413 0.3012074828147888 101
0.8524565100669861 -1.3526304960250854 0.24689406156539917 101
0.8404169678688049 -1.334043025970459 0.18889747560024261 101
0.8564689755439758 -1.3600494861602783 0.13727028667926788 101
0.8476345539093018 -1.3465417623519897 0.08138240873813629 101
0.8457459211349487 -1.3440617322921753 0.027051229029893875 101
0.8628436923027039 -1.3738921880722046 -0.4244634211063385 0
0.8492444753646851 -1.3527623414993286 -0.3599218726158142 101
0.8499905467033386 -1.3544758558273315 -0.3031140863895416 101
0.8391015529632568 -1.3376424312591553 -0.2440379559993744 101
0.8587127327919006 -1.369436264038086 -0.19377246499061584 101
0.8377460241317749 -1.3365176916122437 -0.13465583324432373 101
0.8474711179733276 -1.3525574207305908 -0.08137241005897522 101
0.8349705934524536 -1.3331236839294434 -0.026521790772676468 101
0.8378968238830566 -1.3383148908615112 0.41254743933677673 101
0.842218816280365 -1.3457403182983398 0.3574017584323883 101
0.8402890563011169 -1.3431780338287354 0.30025431513786316 101
0.8451111912727356 -1.3514106273651123 0.24611274898052216 101
0.833124577999115 -1.3327604532241821 0.1882881224155426 101
0.8490767478942871 -1.358806848526001 0.136834517121315 101
0.8402838110923767 -1.3452574014663696 0.08112072944641113 101
0.8383956551551819 -1.3427687883377075 0.026963965967297554 101
0.8557279706001282 -1.3726474046707153 -0.4231693148612976 0
0.842413067817688 -1.3512893915176392 -0.3587971329689026 101
0.8431352972984314 -1.3529738187789917 -0.3021608889102936 101
0.8322840929031372 -1.3360804319381714 -0.24325579404830933 101
0.8517830967903137 -1.3679145574569702 -0.19316311180591583 101
0.8309110403060913 -1.3349143266677856 -0.13422004878520966 101
0.8405799269676208 -1.3509736061096191 -0.0811116024851799 101
0.828137993812561 -1.3314950466156006 -0.026435401290655136 101
0.8311380743980408 -1.3368388414382935 0.4112541973590851 101
0.8328434228897095 -1.3401033878326416 0.3551539480686188 101
0.8334751129150391 -1.341642141342163 0.2993011176586151 101
0.8382561206817627 -1.3498635292053223 0.24533143639564514 101
0.8289335370063782 -1.3353711366653442 0.1882881224155426 101
0.8421775102615356 -1.3572351932525635 0.13639873266220093 101
0.8307895660400391 -1.3394043445587158 0.08059737086296082 101
0.8289100527763367 -1.3368949890136719 0.02678944170475006 101
0.8460885882377625 -1.367263913154602 -0.4205811321735382 0
0.835128128528595 -1.3500784635543823 -0.3576723635196686 101
0.8358259797096252 -1.3517340421676636 -0.30120769143104553 101
0.8276152014732361 -1.3389774560928345 -0.24325579404830933 101
0.8443945646286011 -1.3666576147079468 -0.19255377352237701 101
0.8236289024353027 -1.333568811416626 -0.13378426432609558 101
0.8306129574775696 -1.3454021215438843 -0.08058997988700867 101
0.8208597898483276 -1.3301234245300293 -0.026349009945988655 101
0.8239308595657349 -1.3356213569641113 0.40996095538139343 101
0.8256033658981323 -1.338855504989624 0.354030042886734 101
0.8262113332748413 -1.340364933013916 0.29834792017936707 101
0.8309484124183655 -1.3485767841339111 0.24455012381076813 101
0.8216646313667297 -1.334031105041504 0.18767878413200378 101
0.8348233699798584 -1.3559250831604004 0.13596296310424805 101
0.8234921097755432 -1.3380439281463623 0.08033569157123566 101
0.8189992904663086 -1.3312643766403198 0.026614919304847717 101
0.8385452628135681 -1.3662395477294922 -0.4192870557308197 0
0.8276264667510986 -1.3489776849746704 -0.35654762387275696 101
0.8282999396324158 -1.3506041765213013 -0.3002545237541199 101
0.8201209306716919 -1.3377915620803833 -0.24247361719608307 101
0.8367868065834045 -1.3655117750167847 -0.191944420337677 101
0.8161337971687317 -1.3323311805725098 -0.1333484947681427 101
0.8230687975883484 -1.3441790342330933 -0.08032917231321335 101
0.8133691549301147 -1.3288590908050537 -0.026262620463967323 101
0.8139885663986206 -1.3303923606872559 0.40737444162368774 101
0.818148672580719 -1.3377161026000977 0.35290613770484924 101
0.81617271900177 -1.3350087404251099 0.29644155502319336 101
0.8234248161315918 -1.347399353981018 0.2437688261270523 101
0.8141825199127197 -1.3327986001968384 0.18706943094730377 101
0.8272521495819092 -1.3547247648239136 0.13552717864513397 101
0.815980851650238 -1.3367911577224731 0.0800740122795105 101
0.8115105628967285 -1.3299895524978638 0.026527656242251396 101
0.8337711095809937 -1.3691582679748535 -0.4192870557308197 0
0.8203795552253723 -1.3476970195770264 -0.35542285442352295 101
0.8210290670394897 -1.3492943048477173 -0.2993013262748718 101
0.8128798604011536 -1.336426854133606 -0.2416914403438568 101
0.8294369578361511 -1.364184021949768 -0.19133508205413818 101
0.8114781379699707 -1.3351718187332153 -0.1333484947681427 101
0.8157790899276733 -1.3427765369415283 -0.08006836473941803 101
0.8087255954742432 -1.3316901922225952 -0.026262620463967323 101
0.8068333864212036 -1.329097032546997 0.4060811996459961 101
0.8109466433525085 -1.3363986015319824 0.3517822325229645 101
0.8089621067047119 -1.3336529731750488 0.2954883575439453 101
0.8161559700965881 -1.346042513847351 0.2429875135421753 101
0.8069528937339783 -1.3313884735107422 0.18646009266376495 101
0.8199371695518494 -1.3533440828323364 0.1350913941860199 101
0.8087230324745178 -1.3353605270385742 0.07981233298778534 101
0.8016851544380188 -1.324260950088501 0.026353131979703903 101
0.8264892101287842 -1.3679265975952148 -0.4179929494857788 0
0.813151478767395 -1.3463821411132812 -0.35429811477661133 101
0.8137774467468262 -1.3479501008987427 -0.2983481287956238 101
0.8056582808494568 -1.335028052330017 -0.24090927839279175 101
0.8221065402030945 -1.3628214597702026 -0.19072572886943817 101
0.8042404651641846 -1.3337308168411255 -0.13291271030902863 101
0.8085092902183533 -1.3413395881652832 -0.07980755716562271 101
0.8014921545982361 -1.3302229642868042 -0.02617623098194599 101
