# .PCD v0.7 - Point Cloud Data file format
VERSION 0.7
FIELDS x y z intensity
SIZE 4 4 4 4
TYPE F F F F
COUNT 1 1 1 1
WIDTH 751
HEIGHT 1
VIEWPOINT 0 0 0 1 0 0 0
POINTS 751
DATA ascii
0.3723604381084442 -1.259488821029663 -0.11155952513217926 101
0.3701974153518677 -1.252976894378662 -0.06624548882246017 101
0.3675832748413086 -1.2449285984039307 -0.021770330145955086 101
0.3662198781967163 -1.2411086559295654 0.3362455666065216 101
0.36772796511650085 -1.2470213174819946 0.2910913825035095 101
0.36738982796669006 -1.2466765642166138 0.24496939778327942 101
0.3707655668258667 -1.2589420080184937 0.2015780657529831 101
0.3652993142604828 -1.241180419921875 0.15416471660137177 101
0.37481802701950073 -1.2743433713912964 0.11286668479442596 101
0.3684442639350891 -1.253481388092041 0.06646665930747986 101
0.36584359407424927 -1.2454370260238647 0.021990031003952026 101
0.3731031119823456 -1.274261713027954 -0.34552356600761414 101
0.365101158618927 -1.2477400302886963 -0.29131177067756653 101
0.3675331771373749 -1.2568652629852295 -0.24687594175338745 101
0.369503378868103 -1.264422059059143 -0.20258279144763947 101
0.3710462152957916 -1.2705252170562744 -0.15782096982002258 101
0.3665662705898285 -1.2559995651245117 -0.11112374067306519 101
0.3658214807510376 -1.2542614936828613 -0.06624548882246017 101
0.3632354140281677 -1.246204137802124 -0.021770330145955086 101
0.3605346381664276 -1.237742304801941 0.33495232462882996 101
0.3620111346244812 -1.243619441986084 0.28996747732162476 101
0.3630358576774597 -1.2479513883590698 0.24496939778327942 101
0.3663688004016876 -1.2602285146713257 0.2015780657529831 101
0.3609645664691925 -1.2424479722976685 0.15416471660137177 101
0.3689786493778229 -1.2708605527877808 0.11243090778589249 101
0.3626752197742462 -1.2499645948410034 0.0662049800157547 101
0.36149394512176514 -1.2467063665390015 0.021990031003952026 101
0.36731189489364624 -1.2709165811538696 -0.34422945976257324 101
0.3593916594982147 -1.2443263530731201 -0.2901870310306549 101
0.3617825210094452 -1.2534246444702148 -0.2459227442741394 101
0.36508747935295105 -1.2657041549682617 -0.20258279144763947 101
0.36660903692245483 -1.2718126773834229 -0.15782096982002258 101
0.36080098152160645 -1.2524851560592651 -0.11068796366453171 101
0.3600597083568573 -1.2507325410842896 -0.06598468124866486 101
0.35750100016593933 -1.2426601648330688 -0.021683940663933754 101
0.35621193051338196 -1.2389932870864868 0.33495232462882996 101
0.3576678931713104 -1.2448755502700806 0.28996747732162476 101
0.35732293128967285 -1.2444933652877808 0.24401620030403137 101
0.361967533826828 -1.2614997625350952 0.2015780657529831 101
0.35662540793418884 -1.2437005043029785 0.15416471660137177 101
0.3631681799888611 -1.26735258102417 0.11199513077735901 101
0.35693517327308655 -1.2464226484298706 0.06594330072402954 101
0.3557645082473755 -1.2431544065475464 0.021902769804000854 101
0.36154863238334656 -1.2675466537475586 -0.34293538331985474 101
0.35504594445228577 -1.2455732822418213 -0.2901870310306549 101
0.35740503668785095 -1.2546799182891846 -0.2459227442741394 101
0.3593149781227112 -1.262221097946167 -0.2018006294965744 101
0.3621673285961151 -1.2730846405029297 -0.15782096982002258 101
0.35642680525779724 -1.253736972808838 -0.11068796366453171 101
0.3556916117668152 -1.2519817352294922 -0.06598468124866486 101
0.35316112637519836 -1.2439004182815552 -0.021683940663933754 101
0.3518848419189453 -1.2402291297912598 0.33495232462882996 101
0.3519912660121918 -1.2414292097091675 0.28884357213974 101
0.3529766798019409 -1.2457330226898193 0.24401620030403137 101
0.3575618863105774 -1.2627555131912231 0.2015780657529831 101
0.3509306311607361 -1.2401623725891113 0.15355536341667175 101
0.3587420880794525 -1.2686125040054321 0.11199513077735901 101
0.3525821566581726 -1.2476609945297241 0.06594330072402954 101
0.35142290592193604 -1.2443886995315552 0.021902769804000854 101
0.35712185502052307 -1.2688010931015015 -0.34293538331985474 101
0.3493767976760864 -1.2421151399612427 -0.2890622615814209 101
0.3530231714248657 -1.2559198141098022 -0.2459227442741394 101
0.35490682721138 -1.26346755027771 -0.2018006294965744 101
0.35637998580932617 -1.26956307888031 -0.15721163153648376 101
0.3507028818130493 -1.2501776218414307 -0.11025218665599823 101
0.3499714434146881 -1.2484078407287598 -0.06572386622428894 101
0.3501654863357544 -1.2499395608901978 -0.021770330145955086 101
0.3462514281272888 -1.236798882484436 0.3336590826511383 101
0.347655713558197 -1.2426503896713257 0.28884357213974 101
0.34730449318885803 -1.2422305345535278 0.24306301772594452 101
0.35182294249534607 -1.2592395544052124 0.20079675316810608 101
0.3465995192527771 -1.2413798570632935 0.15355536341667175 101
0.35297295451164246 -1.265059232711792 0.11155935376882553 101
0.3482248783111572 -1.2488842010498047 0.06594330072402954 101
0.34707707166671753 -1.2456077337265015 0.021902769804000854 101
0.35139843821525574 -1.2653863430023193 -0.34164127707481384 101
0.34525588154792786 -1.2432669401168823 -0.2890622615814209 101
0.34754395484924316 -1.2523540258407593 -0.24496956169605255 101
0.35071510076522827 -1.2646375894546509 -0.2018006294965744 101
0.3521679937839508 -1.270737886428833 -0.15721163153648376 101
0.34655526280403137 -1.2513337135314941 -0.11025218665599823 101
0.34449779987335205 -1.2447491884231567 -0.06546305865049362 101
0.34601864218711853 -1.2510937452316284 -0.021770330145955086 101
0.34214815497398376 -1.2379403114318848 0.3336590826511383 101
0.3435330390930176 -1.2437963485717773 0.28884357213974 101
0.3418773114681244 -1.238644003868103 0.24210983514785767 101
0.34764522314071655 -1.2603992223739624 0.20079675316810608 101
0.3424810767173767 -1.2425223588943481 0.15355536341667175 101
0.3487759232521057 -1.2662228345870972 0.11155935376882553 101
0.34275639057159424 -1.24521803855896 0.06568162143230438 101
0.3416186571121216 -1.241931676864624 0.021815506741404533 101
0.34720033407211304 -1.2665446996688843 -0.34164127707481384 101
0.3396267592906952 -1.2397657632827759 -0.2879375219345093 101
0.34317031502723694 -1.2535595893859863 -0.24496956169605255 101
0.3462985157966614 -1.2658541202545166 -0.2018006294965744 101
0.34642142057418823 -1.2671722173690796 -0.15660227835178375 101
0.3421851396560669 -1.2525357007980347 -0.11025218665599823 101
0.34015071392059326 -1.2459441423416138 -0.06546305865049362 101
0.34033361077308655 -1.2474710941314697 -0.021683940663933754 101
0.33782485127449036 -1.2391270399093628 0.3336590826511383 101
0.3391892910003662 -1.244987964630127 0.28884357213974 101
0.33626216650009155 -1.2350940704345703 0.24115663766860962 101
0.34194695949554443 -1.2568397521972656 0.20001544058322906 101
0.3368397355079651 -1.2389214038848877 0.15294602513313293 101
0.3443538546562195 -1.2674325704574585 0.11155935376882553 101
0.3384076952934265 -1.24640691280365 0.06568162143230438 101
0.33728140592575073 -1.2431166172027588 0.021815506741404533 101
0.34277716279029846 -1.2677488327026367 -0.34164127707481384 101
0.3355136811733246 -1.2408851385116577 -0.2879375219345093 101
0.3390114903450012 -1.2546906471252441 -0.24496956169605255 101
0.3408116102218628 -1.2622278928756714 -0.20101845264434814 101
0.34221744537353516 -1.2683141231536865 -0.15660227835178375 101
0.33673298358917236 -1.248854398727417 -0.10981640964746475 101
0.3360171318054199 -1.2470653057098389 -0.06546305865049362 101
0.33749476075172424 -1.253420114517212 -0.021770330145955086 101
0.3337138891220093 -1.2402405738830566 0.3336590826511383 101
0.33505889773368835 -1.2461059093475342 0.28884357213974 101
0.33216461539268494 -1.236202359199524 0.24115663766860962 101
0.3377772569656372 -1.2579666376113892 0.20001544058322906 101
0.3327294886112213 -1.2400315999984741 0.15294602513313293 101
0.34014901518821716 -1.2685675621032715 0.11155935376882553 101
0.33298027515411377 -1.242699146270752 0.06541994214057922 101
0.3331572413444519 -1.2442282438278198 0.021815506741404533 101
0.33732613921165466 -1.2642121315002441 -0.34034717082977295 101
0.32992497086524963 -1.2373414039611816 -0.28681275248527527 101
0.33336594700813293 -1.2511235475540161 -0.2440163791179657 101
0.3364035487174988 -1.2634098529815674 -0.20101845264434814 101
0.3365120589733124 -1.2647050619125366 -0.15599294006824493 101
0.33237162232398987 -1.250022292137146 -0.10981640964746475 101
0.33037975430488586 -1.2434048652648926 -0.0652022510766983 101
0.3318345248699188 -1.2497588396072388 -0.021683940663933754 101
0.3281439542770386 -1.2367295026779175 0.33236581087112427 101
0.3307071030139923 -1.2472678422927856 0.28884357213974 101
0.32659029960632324 -1.2326096296310425 0.24020345509052277 101
0.33212006092071533 -1.2543641328811646 0.19923412799835205 101
0.3271295726299286 -1.2363879680633545 0.15233667194843292 101
0.3357187807559967 -1.2697471380233765 0.11155935376882553 101
0.3286404013633728 -1.2438539266586304 0.06541994214057922 101
0.32753586769104004 -1.2405500411987305 0.02172824554145336 101
0.3326902985572815 -1.2654401063919067 -0.34034717082977295 101
0.3253876566886902 -1.2385423183441162 -0.28681275248527527 101
0.32877811789512634 -1.2523369789123535 -0.2440163791179657 101
0.3305174708366394 -1.2598575353622437 -0.2002362757921219 101
0.33061590790748596 -1.2611294984817505 -0.15538358688354492 101
0.327787846326828 -1.2512320280075073 -0.10981640964746475 101
0.3258202373981476 -1.2446074485778809 -0.0652022510766983 101
0.32725170254707336 -1.2509666681289673 -0.021683940663933754 101
0.3236089050769806 -1.2379238605499268 0.33236581087112427 101
0.3249020278453827 -1.2437576055526733 0.2877196669578552 101
0.3220703899860382 -1.2337983846664429 0.24020345509052277 101
0.32752037048339844 -1.2555729150772095 0.19923412799835205 101
0.32134395837783813 -1.2327762842178345 0.1517273336648941 101
0.3310626745223999 -1.2709691524505615 0.11155935376882553 101
0.3240792751312256 -1.245050072669983 0.06541994214057922 101
0.3229868412017822 -1.2417422533035278 0.02172824554145336 101
0.3282710611820221 -1.2665936946868896 -0.34034717082977295 101
0.3198409080505371 -1.2349543571472168 -0.28568801283836365 101
0.3231748938560486 -1.248725414276123 -0.24306318163871765 101
0.32611775398254395 -1.2610036134719849 -0.2002362757921219 101
0.32621172070503235 -1.2622758150100708 -0.15538358688354492 101
0.3221728205680847 -1.2475459575653076 -0.10938062518835068 101
0.32147377729415894 -1.2457371950149536 -0.0652022510766983 101
0.3228830397129059 -1.2521013021469116 -0.021683940663933754 101
0.3180805444717407 -1.234368920326233 0.3310725688934326 101
0.3205585479736328 -1.2448842525482178 0.2877196669578552 101
0.3177616596221924 -1.234915018081665 0.24020345509052277 101
0.3219057619571686 -1.2519255876541138 0.19845283031463623 101
0.3170388340950012 -1.233890414237976 0.1517273336648941 101
0.3253854513168335 -1.2672924995422363 0.11112356930971146 101
0.3184903562068939 -1.2413372993469238 0.06515826284885406 101
0.31740880012512207 -1.238019347190857 0.02164098247885704 101
0.3226524591445923 -1.2630524635314941 -0.33905309438705444 101
0.31552818417549133 -1.2360633611679077 -0.28568801283836365 101
0.31881406903266907 -1.2498458623886108 -0.24306318163871765 101
0.32049426436424255 -1.257348895072937 -0.19945409893989563 101
0.32180356979370117 -1.263406753540039 -0.15538358688354492 101
0.3178160786628723 -1.2486629486083984 -0.10938062518835068 101
0.3171233832836151 -1.2468518018722534 -0.0652022510766983 101
0.31727898120880127 -1.2483755350112915 -0.021597549319267273 101
0.31258100271224976 -1.2307904958724976 0.32977932691574097 101
0.31501269340515137 -1.2412734031677246 0.28659576177597046 101
0.31344905495643616 -1.2360167503356934 0.24020345509052277 101
0.31632062792778015 -1.2482542991638184 0.19767151772975922 101
0.3115115761756897 -1.2301788330078125 0.1511179804801941 101
0.31973791122436523 -1.2635917663574219 0.11068779230117798 101
0.31415534019470215 -1.2424415349960327 0.06515826284885406 101
0.31186071038246155 -1.2342729568481445 0.02155372127890587 101
0.3182416260242462 -1.2641710042953491 -0.33905309438705444 101
0.31002306938171387 -1.23243248462677 -0.28456324338912964 101
0.3132527768611908 -1.2461909055709839 -0.2421099990606308 101
0.31610333919525146 -1.2584599256515503 -0.19945409893989563 101
0.3161833584308624 -1.2597090005874634 -0.1547742336988449 101
0.3122437298297882 -1.2449333667755127 -0.1089448481798172 101
0.31155523657798767 -1.2431076765060425 -0.06494144350290298 101
0.3117048740386963 -1.2446259260177612 -0.02151115983724594 101
0.3071102797985077 -1.2271887063980103 0.32848605513572693 101
0.3094959557056427 -1.2376388311386108 0.2854718565940857 101
0.3091326653957367 -1.2371033430099487 0.24020345509052277 101
0.31196144223213196 -1.249350905418396 0.19767151772975922 101
0.30601415038108826 -1.2264436483383179 0.15050864219665527 101
0.31532523036003113 -1.264700174331665 0.11068779230117798 101
0.30860936641693115 -1.2386853694915771 0.0648965835571289 101
0.3063426613807678 -1.2305028438568115 0.021466460078954697 101
0.3126642405986786 -1.2605866193771362 -0.33775898814201355 101
0.30571919679641724 -1.2335071563720703 -0.28456324338912964 101
0.3089008629322052 -1.2472766637802124 -0.2421099990606308 101
0.31170856952667236 -1.259555697441101 -0.19945409893989563 101
0.3117842376232147 -1.2608050107955933 -0.1547742336988449 101
0.3078961968421936 -1.2460156679153442 -0.1089448481798172 101
0.306017130613327 -1.23934006690979 -0.06468063592910767 101
0.3061608672142029 -1.2408528327941895 -0.02142477035522461 101
0.30166855454444885 -1.22356379032135 0.3271928131580353 101
0.30400845408439636 -1.2339810132980347 0.2843479514122009 101
0.3048124611377716 -1.2381749153137207 0.24020345509052277 101
0.30641883611679077 -1.2456365823745728 0.1968902051448822 101
0.3017311990261078 -1.2275043725967407 0.15050864219665527 101
0.30972054600715637 -1.2609559297561646 0.1102520152926445 101
0.30428367853164673 -1.2397551536560059 0.0648965835571289 101
0.3020455539226532 -1.2315646409988403 0.021466460078954697 101
0.30826207995414734 -1.2616703510284424 -0.33775898814201355 101
0.30141159892082214 -1.2345668077468872 -0.28456324338912964 101
0.30338186025619507 -1.2435789108276367 -0.24115681648254395 101
0.30614036321640015 -1.2558380365371704 -0.19867193698883057 101
0.3073813021183014 -1.2618857622146606 -0.1547742336988449 101
0.30354490876197815 -1.2470828294754028 -0.1089448481798172 101
0.30050912499427795 -1.235548973083496 -0.06441982835531235 101
0.30064699053764343 -1.237056016921997 -0.02133837901055813 101
0.2973956763744354 -1.224609375 0.3271928131580353 101
0.2985502779483795 -1.2303000688552856 0.28322404623031616 101
0.299331933259964 -1.2344613075256348 0.2392502725124359 101
0.3020688593387604 -1.2466986179351807 0.1968902051448822 101
0.2962767481803894 -1.2237266302108765 0.14989928901195526 101
0.304145872592926 -1.2571882009506226 0.10981623828411102 101
0.29878103733062744 -1.2359564304351807 0.06463490426540375 101
0.29657089710235596 -1.2277520895004272 0.021379197016358376 101
0.30272623896598816 -1.2580431699752808 -0.33646491169929504 101
0.2959613502025604 -1.2308746576309204 -0.283438503742218 101
0.2990390956401825 -1.2446303367614746 -0.24115681648254395 101
0.30175480246543884 -1.256899118423462 -0.19867193698883057 101
0.3018169403076172 -1.2581251859664917 -0.1541648954153061 101
0.2980288565158844 -1.2432910203933716 -0.10850907117128372 101
0.2961944341659546 -1.2365903854370117 -0.06441982835531235 101
0.2951633930206299 -1.2332359552383423 -0.021251989528536797 101
0.2919957637786865 -1.2209426164627075 0.32589957118034363 101
0.2942539155483246 -1.2313348054885864 0.28322404623031616 101
0.29502102732658386 -1.2354985475540161 0.2392502725124359 101
0.2965690791606903 -1.2429418563842773 0.1961088925600052 101
0.2920033633708954 -1.2247533798217773 0.14989928901195526 101
0.29975560307502747 -1.2582422494888306 0.10981623828411102 101
0.2933086156845093 -1.2321343421936035 0.06437322497367859 101
0.29228344559669495 -1.2287797927856445 0.021379197016358376 101
0.2983330190181732 -1.2590922117233276 -0.33646491169929504 101
0.2916629910469055 -1.2319002151489258 -0.283438503742218 101
0.29356274008750916 -1.2408901453018188 -0.2402036190032959 101
0.2962294816970825 -1.253138780593872 -0.1978897601366043 101
0.2962825894355774 -1.2543411254882812 -0.15355554223060608 101
0.2936871349811554 -1.2443238496780396 -0.10850907117128372 101
0.29072996973991394 -1.2327568531036377 -0.06415901333093643 101
0.28971007466316223 -1.2293928861618042 -0.021165600046515465 101
0.2877321243286133 -1.2219544649124146 0.32589957118034363 101
0.28883811831474304 -1.227611780166626 0.2821001410484314 101
0.2895832061767578 -1.2317428588867188 0.23829707503318787 101
0.2922285795211792 -1.243969440460205 0.1961088925600052 101
0.2865923047065735 -1.2209339141845703 0.14928995072841644 101
0.29422426223754883 -1.2544313669204712 0.10938046127557755 101
0.2878665328025818 -1.2282893657684326 0.06411154568195343 101
0.2879924178123474 -1.229792594909668 0.021379197016358376 101
0.29283902049064636 -1.255422592163086 -0.33517080545425415 101
0.2873610854148865 -1.2329107522964478 -0.283438503742218 101
0.28811609745025635 -1.2371269464492798 -0.23925043642520905 101
0.29073411226272583 -1.2493553161621094 -0.19710758328437805 101
0.2919023036956787 -1.2553677558898926 -0.15355554223060608 101
0.2882145941257477 -1.2404896020889282 -0.10807328671216965 101
0.28529590368270874 -1.22890043258667 -0.06389820575714111 101
0.28541693091392517 -1.2303966283798218 -0.021165600046515465 101
0.2823743522167206 -1.218246340751648 0.324606329202652 101
0.284551203250885 -1.2286125421524048 0.2821001410484314 101
0.28417521715164185 -1.2279642820358276 0.237343892455101 101
0.2867719233036041 -1.2401703596115112 0.19532757997512817 101
0.2812114953994751 -1.21709144115448 0.14868059754371643 101
0.28984370827674866 -1.2554508447647095 0.10938046127557755 101
0.2835772633552551 -1.2292866706848145 0.06411154568195343 101
0.28257501125335693 -1.2259187698364258 0.021291935816407204 101
0.2884550094604492 -1.2564371824264526 -0.33517080545425415 101
0.28196635842323303 -1.2291579246520996 -0.282313734292984 101
0.2837959825992584 -1.2381250858306885 -0.23925043642520905 101
0.28637129068374634 -1.250362515449524 -0.19710758328437805 101
0.2864114046096802 -1.2515413761138916 -0.15294620394706726 101
0.283882737159729 -1.2414880990982056 -0.10807328671216965 101
0.28100448846817017 -1.2298887968063354 -0.06389820575714111 101
0.28000766038894653 -1.2265115976333618 -0.021079208701848984 101
0.27812016010284424 -1.2192245721817017 0.324606329202652 101
0.27917808294296265 -1.2248480319976807 0.28097623586654663 101
0.2798871099948883 -1.228948712348938 0.237343892455101 101
0.28134533762931824 -1.236348271369934 0.19454628229141235 101
0.2758609652519226 -1.213226318359375 0.14807124435901642 101
0.28435608744621277 -1.2515977621078491 0.10894468426704407 101
0.2781791388988495 -1.2253998517990112 0.06384986639022827 101
0.27829402685165405 -1.2268977165222168 0.021291935816407204 101
0.28300321102142334 -1.25272536277771 -0.33387669920921326 101
0.2776740789413452 -1.2301346063613892 -0.282313734292984 101
0.278392493724823 -1.2343202829360962 -0.2382972538471222 101
0.28091925382614136 -1.2465368509292603 -0.196325421333313 101
0.28095078468322754 -1.2476921081542969 -0.15233685076236725 101
0.2784540355205536 -1.237612009048462 -0.10763750970363617 101
0.27561452984809875 -1.225990653038025 -0.0636373981833458 101
0.2757246494293213 -1.2274816036224365 -0.021079208701848984 101
0.2738626003265381 -1.2201879024505615 0.324606329202652 101
0.2749008536338806 -1.2258151769638062 0.28097623586654663 101
0.2745223641395569 -1.2251287698745728 0.23639070987701416 101
0.27702796459198 -1.2373228073120117 0.19454628229141235 101
0.271624356508255 -1.214181900024414 0.14807124435901642 101
0.2799854576587677 -1.2525826692581177 0.10894468426704407 101
0.27390000224113464 -1.2263634204864502 0.06384986639022827 101
0.27292078733444214 -1.222982406616211 0.021204670891165733 101
0.2786286771297455 -1.253705620765686 -0.33387669920921326 101
0.27232229709625244 -1.2263402938842773 -0.2811889946460724 101
0.274082213640213 -1.235284447669983 -0.2382972538471222 101
0.2765663266181946 -1.2475098371505737 -0.196325421333313 101
0.2755205035209656 -1.2438198328018188 -0.15172751247882843 101
0.27413228154182434 -1.2385764122009277 -0.10763750970363617 101
0.27133333683013916 -1.2269452810287476 -0.0636373981833458 101
0.2703595757484436 -1.2235548496246338 -0.020992817357182503 101
0.26856040954589844 -1.2164201736450195 0.32331305742263794 101
0.26957079768180847 -1.2220096588134766 0.27985233068466187 101
0.27024418115615845 -1.2260795831680298 0.23639070987701416 101
0.27164503931999207 -1.233459234237671 0.19376496970653534 101
0.2663179039955139 -1.2102758884429932 0.1474618911743164 101
0.27454182505607605 -1.2486876249313354 0.10850889980792999 101
0.2685461640357971 -1.2224349975585938 0.06358817964792252 101
0.2686501145362854 -1.223927617073059 0.021204670891165733 101
0.2734375596046448 -1.2499046325683594 -0.33258262276649475 101
0.26846829056739807 -1.2271897792816162 -0.2811889946460724 101
0.27020010352134705 -1.2361394166946411 -0.2382972538471222 101
0.2726458013057709 -1.2483725547790527 -0.196325421333313 101
0.27161160111427307 -1.2446792125701904 -0.15172751247882843 101
0.26917871832847595 -1.234565019607544 -0.10720173269510269 101
0.2664145529270172 -1.2229126691818237 -0.06337658315896988 101
0.2665143609046936 -1.2243982553482056 -0.020992817357182503 101
0.264737606048584 -1.2172578573226929 0.32331305742263794 101
0.2657304108142853 -1.2228505611419678 0.27985233068466187 101
0.2653495967388153 -1.2221258878707886 0.2354375123977661 101
0.2677686810493469 -1.2343065738677979 0.19376496970653534 101
0.2625144124031067 -1.211106538772583 0.1474618911743164 101
0.27061760425567627 -1.2495439052581787 0.10850889980792999 101
0.2647044360637665 -1.223272681236267 0.06358817964792252 101
0.2637472450733185 -1.219879150390625 0.02111740969121456 101
0.2692912220954895 -1.2508045434951782 -0.33258262276649475 101
0.2631584107875824 -1.2233566045761108 -0.2800642251968384 101
0.2648521363735199 -1.2322763204574585 -0.23734405636787415 101
0.26724961400032043 -1.24448823928833 -0.19554324448108673 101
0.26622405648231506 -1.240767478942871 -0.15111815929412842 101
0.2648676633834839 -1.235496997833252 -0.10720173269510269 101
0.26214417815208435 -1.2238352298736572 -0.06337658315896988 101
0.2622387707233429 -1.2253210544586182 -0.020992817357182503 101
0.25947698950767517 -1.2134515047073364 0.3220198154449463 101
0.2604422867298126 -1.219006061553955 0.2787284255027771 101
0.2610819637775421 -1.223044753074646 0.2354375123977661 101
0.2634585201740265 -1.2352336645126343 0.19376496970653534 101
0.258285254240036 -1.2120155096054077 0.1474618911743164 101
0.2662542164325714 -1.2504810094833374 0.10850889980792999 101
0.26043280959129333 -1.2241891622543335 0.06358817964792252 101
0.25948745012283325 -1.220792293548584 0.02111740969121456 101
0.26470497250556946 -1.2517831325531006 -0.33258262276649475 101
0.258672833442688 -1.2243129014968872 -0.2800642251968384 101
0.2603338658809662 -1.2332388162612915 -0.23734405636787415 101
0.26268652081489563 -1.2454594373703003 -0.19554324448108673 101
0.2616746425628662 -1.2417349815368652 -0.15111815929412842 101
0.2593112885951996 -1.2315853834152222 -0.10676595568656921 101
0.25662893056869507 -1.2199015617370605 -0.06311577558517456 101
0.25774598121643066 -1.226274013519287 -0.020992817357182503 101
0.25502774119377136 -1.2143943309783936 0.3220198154449463 101
0.25597265362739563 -1.2199524641036987 0.2787284255027771 101
0.25659751892089844 -1.2239934206008911 0.2354375123977661 101
0.25892940163612366 -1.2361910343170166 0.19376496970653534 101
0.25384125113487244 -1.212954044342041 0.1474618911743164 101
0.26064977049827576 -1.2465728521347046 0.10807312279939651 101
0.25492310523986816 -1.2202478647232056 0.06332650035619736 101
0.2539898455142975 -1.2168415784835815 0.02103014849126339 101
0.25935113430023193 -1.2479708194732666 -0.33128851652145386 101
0.25340715050697327 -1.2204382419586182 -0.27893948554992676 101
0.2560274600982666 -1.2341400384902954 -0.23734405636787415 101
0.25833746790885925 -1.2463687658309937 -0.19554324448108673 101
0.25733858346939087 -1.2426408529281616 -0.15111815929412842 101
0.2550106644630432 -1.2324830293655396 -0.10676595568656921 101
0.25236910581588745 -1.220789909362793 -0.06311577558517456 101
0.25245270133018494 -1.2222703695297241 -0.02090642601251602 101
0.2507871389389038 -1.2152771949768066 0.3220198154449463 101
0.25072887539863586 -1.2160669565200806 0.27760452032089233 101
0.251333087682724 -1.2200742959976196 0.23448432981967926 101
0.25361713767051697 -1.2322502136230469 0.19298365712165833 101
0.2496057152748108 -1.2138327360153198 0.1474618911743164 101
0.2562968134880066 -1.2474751472473145 0.10807312279939651 101
0.25066208839416504 -1.2211302518844604 0.06332650035619736 101
0.24974071979522705 -1.2177207469940186 0.02103014849126339 101
0.2549933195114136 -1.2488685846328735 -0.33128851652145386 101
0.2491454780101776 -1.2213153839111328 -0.27893948554992676 101
0.2517179548740387 -1.235026240348816 -0.23734405636787415 101
0.252999871969223 -1.2424238920211792 -0.19476106762886047 101
0.2529993951320648 -1.2435314655303955 -0.15111815929412842 101
0.2507069706916809 -1.2333656549453735 -0.10676595568656921 101
0.247112438082695 -1.2167701721191406 -0.06285496801137924 101
0.24818463623523712 -1.2231440544128418 -0.02090642601251602 101
0.2455839216709137 -1.2114115953445435 0.32072657346725464 101
0.2464824765920639 -1.2169348001480103 0.27760452032089233 101
0.2470727264881134 -1.2209441661834717 0.23448432981967926 101
0.24931423366069794 -1.2331279516220093 0.19298365712165833 101
0.2453671246767044 -1.2146966457366943 0.1474618911743164 101
0.2519407570362091 -1.2483621835708618 0.10807312279939651 101
0.24639803171157837 -1.2219977378845215 0.06332650035619736 101
0.2445012778043747 -1.213684320449829 0.02094288542866707 101
0.24968275427818298 -1.2450157403945923 -0.32999444007873535 101
0.2448807805776596 -1.2221776247024536 -0.27893948554992676 101
0.24740536510944366 -1.2358973026275635 -0.23734405636787415 101
0.24866145849227905 -1.2432994842529297 -0.19476106762886047 101
0.24865710735321045 -1.244407057762146 -0.15111815929412842 101
0.2454250305891037 -1.2293487787246704 -0.10633017122745514 101
0.24286361038684845 -1.2176252603530884 -0.06285496801137924 101
0.24391354620456696 -1.2240029573440552 -0.02090642601251602 101
0.2413538098335266 -1.2122615575790405 0.32072657346725464 101
0.24223308265209198 -1.217787742614746 0.27760452032089233 101
0.24280932545661926 -1.2217991352081299 0.23448432981967926 101
0.24404653906822205 -1.2291467189788818 0.1922023445367813 101
0.24015989899635315 -1.2106777429580688 0.1468525528907776 101
0.2475816309452057 -1.2492340803146362 0.10807312279939651 101
0.24116112291812897 -1.2179523706436157 0.0630648210644722 101
0.24026323854923248 -1.214530348777771 0.02094288542866707 101
0.24533531069755554 -1.2458796501159668 -0.32999444007873535 101
0.23967266082763672 -1.2182447910308838 -0.27781471610069275 101
0.24308976531028748 -1.2367533445358276 -0.23734405636787415 101
0.24336840212345123 -1.2393139600753784 -0.1939789056777954 101
0.2433563768863678 -1.2403976917266846 -0.1505088061094284 101
0.24113231897354126 -1.2301979064941406 -0.10633017122745514 101
0.2376522421836853 -1.213565468788147 -0.06259416043758392 101
0.2396395057439804 -1.2248469591140747 -0.02090642601251602 101
0.23712076246738434 -1.2130966186523438 0.32072657346725464 101
0.23704692721366882 -1.2138440608978271 0.27648061513900757 101
0.23854297399520874 -1.2226392030715942 0.23448432981967926 101
0.23975452780723572 -1.2299911975860596 0.1922023445367813 101
0.2359323799610138 -1.2115087509155273 0.1468525528907776 101
0.24226821959018707 -1.2452014684677124 0.10763734579086304 101
0.2369081974029541 -1.2187868356704712 0.0630648210644722 101
0.23506921529769897 -1.210453987121582 0.020855624228715897 101
0.24006833136081696 -1.241986632347107 -0.32870033383369446 101
0.23541872203350067 -1.219074010848999 -0.27781471610069275 101
0.2378413826227188 -1.2327749729156494 -0.2363908737897873 101
0.23904091119766235 -1.2401559352874756 -0.1939789056777954 101
0.23902510106563568 -1.2412395477294922 -0.1505088061094284 101
0.23589560389518738 -1.2261407375335693 -0.10589438676834106 101
0.2334146499633789 -1.2143876552581787 -0.06259416043758392 101
0.23441974818706512 -1.220766305923462 -0.02082003653049469 101
0.23197482526302338 -1.209173560142517 0.3194333016872406 101
0.23280838131904602 -1.2146642208099365 0.27648061513900757 101
0.23335061967372894 -1.2186437845230103 0.2335311472415924 101
0.23453164100646973 -1.225969910621643 0.1914210468530655 101
0.23077037930488586 -1.2074503898620605 0.14624319970607758 101
0.23792017996311188 -1.2460395097732544 0.10763734579086304 101
0.23265239596366882 -1.2196063995361328 0.0630648210644722 101
0.23084253072738647 -1.2112672328948975 0.020855624228715897 101
0.23594842851161957 -1.2427759170532227 -0.32870033383369446 101
0.23046696186065674 -1.2150614261627197 -0.27668997645378113 101
0.2337520569562912 -1.2335569858551025 -0.2363908737897873 101
0.23400850594043732 -1.2360895872116089 -0.19319672882556915 101
0.23398542404174805 -1.2371490001678467 -0.1498994678258896 101
0.23182827234268188 -1.2269161939620972 -0.10589438676834106 101
0.22846008837223053 -1.2102484703063965 -0.062333349138498306 101
0.23037026822566986 -1.2215369939804077 -0.02082003653049469 101
0.22796377539634705 -1.2099361419677734 0.3194333016872406 101
0.22787787020206451 -1.2106415033340454 0.2753567099571228 101
0.22930817306041718 -1.2194108963012695 0.2335311472415924 101
0.230464905500412 -1.2267409563064575 0.1914210468530655 101
0.22676505148410797 -1.2082090377807617 0.14624319970607758 101
0.23286888003349304 -1.241925835609436 0.10720156878232956 101
0.22768740355968475 -1.215463399887085 0.06280314177274704 101
0.2268245369195938 -1.2120260000228882 0.020855624228715897 101
0.23072461783885956 -1.2388440370559692 -0.32740622758865356 101
0.22622418403625488 -1.2158584594726562 -0.27668997645378113 101
0.2294447124004364 -1.2343653440475464 -0.2363908737897873 101
0.22969232499599457 -1.2368988990783691 -0.19319672882556915 101
0.22966553270816803 -1.2379581928253174 -0.1498994678258896 101
0.22754411399364471 -1.2277179956436157 -0.10589438676834106 101
0.22423414885997772 -1.211038589477539 -0.062333349138498306 101
0.22519558668136597 -1.2174179553985596 -0.020733647048473358 101
0.2237389236688614 -1.2107244729995728 0.3194333016872406 101
0.22365055978298187 -1.2114295959472656 0.2753567099571228 101
0.22505024075508118 -1.2202038764953613 0.2335311472415924 101
0.22528646886348724 -1.2226810455322266 0.19063973426818848 101
0.22164782881736755 -1.2041125297546387 0.14563384652137756 101
0.2285323441028595 -1.2427312135696411 0.10720156878232956 101
0.22344325482845306 -1.2162507772445679 0.06280314177274704 101
0.22258584201335907 -1.2128115892410278 0.020855624228715897 101
0.2261824756860733 -1.239681363105774 -0.32740622758865356 101
0.22176633775234222 -1.216679573059082 -0.27668997645378113 101
0.224039688706398 -1.2303690910339355 -0.23543767631053925 101
0.22515730559825897 -1.2377325296401978 -0.19319672882556915 101
0.224239319562912 -1.233909010887146 -0.14929011464118958 101
0.22304277122020721 -1.228543758392334 -0.10589438676834106 101
0.21890288591384888 -1.2069392204284668 -0.06207254156470299 101
0.22073201835155487 -1.2182351350784302 -0.020733647048473358 101
0.21843962371349335 -1.2067837715148926 0.31814005970954895 101
0.21834200620651245 -1.2074469327926636 0.27423280477523804 101
0.2205764502286911 -1.2210205793380737 0.2335311472415924 101
0.22080360352993011 -1.2234985828399658 0.19063973426818848 101
0.21723303198814392 -1.2049168348312378 0.14563384652137756 101
0.22397595643997192 -1.2435604333877563 0.10720156878232956 101
0.2189839780330658 -1.2170615196228027 0.06280314177274704 101
0.2181457281112671 -1.2136180400848389 0.020855624228715897 101
0.2218538075685501 -1.2404632568359375 -0.32740622758865356 101
0.21666111052036285 -1.2126502990722656 -0.2755652070045471 101
0.219743549823761 -1.231143593788147 -0.23543767631053925 101
0.22083546221256256 -1.2385108470916748 -0.19319672882556915 101
0.21993079781532288 -1.2346842288970947 -0.14929011464118958 101
0.21875299513339996 -1.2293148040771484 -0.10589438676834106 101
0.21468855440616608 -1.2076959609985352 -0.06207254156470299 101
0.21647824347019196 -1.2189981937408447 -0.020733647048473358 101
0.21422582864761353 -1.2075389623641968 0.31814005970954895 101
0.21412590146064758 -1.2082017660140991 0.27423280477523804 101
0.2154572755098343 -1.2169499397277832 0.23257794976234436 101
0.21653145551681519 -1.2242618799209595 0.19063973426818848 101
0.21216228604316711 -1.2007806301116943 0.14502450823783875 101
0.21876798570156097 -1.2394297122955322 0.10676579177379608 101
0.2147343009710312 -1.2178184986114502 0.06280314177274704 101
0.2130342721939087 -1.2094500064849854 0.020768361166119576 101
0.217739075422287 -1.2411922216415405 -0.32740622758865356 101
0.2128503918647766 -1.2133249044418335 -0.2755652070045471 101
0.21502745151519775 -1.226993203163147 -0.2344844937324524 101
0.21609185636043549 -1.2343339920043945 -0.1924145519733429 101
0.215195894241333 -1.230480432510376 -0.14868077635765076 101
0.21403270959854126 -1.225089430809021 -0.10545860230922699 101
0.2108934223651886 -1.208364486694336 -0.06207254156470299 101
0.21178890764713287 -1.2147473096847534 -0.020647255703806877 101
0.21043117344379425 -1.208206057548523 0.31814005970954895 101
0.20949400961399078 -1.2040684223175049 0.27310889959335327 101
0.21163305640220642 -1.2176209688186646 0.23257794976234436 101
0.21183939278125763 -1.2200701236724854 0.18985840678215027 101
0.20838887989521027 -1.2014412879943848 0.14502450823783875 101
0.21487312018871307 -1.2401108741760254 0.10676579177379608 101
0.21005576848983765 -1.2135671377182007 0.06254146248102188 101
0.20924021303653717 -1.2101120948791504 0.020768361166119576 101
0.2128031849861145 -1.2371476888656616 -0.32611215114593506 101
0.20778875052928925 -1.2092591524124146 -0.2744404673576355 101
0.21074312925338745 -1.2277363538742065 -0.2344844937324524 101
0.21178190410137177 -1.2350808382034302 -0.1924145519733429 101
0.21089939773082733 -1.2312240600585938 -0.14868077635765076 101
0.2097550481557846 -1.225829005241394 -0.10545860230922699 101
0.20667414367198944 -1.2090933322906494 -0.06207254156470299 101
0.2075473815202713 -1.2154791355133057 -0.020647255703806877 101
0.20540034770965576 -1.204172134399414 0.3168468177318573 101
0.20528976619243622 -1.2047923803329468 0.27310889959335327 101
0.20655782520771027 -1.2135133743286133 0.23162473738193512 101
0.20757925510406494 -1.2208021879196167 0.18985840678215027 101
0.20336276292800903 -1.1972688436508179 0.14441515505313873 101
0.2097097635269165 -1.2359423637390137 0.106330007314682 101
0.20581835508346558 -1.2142930030822754 0.06254146248102188 101
0.20501485466957092 -1.2108350992202759 0.020768361166119576 101
0.20826740562915802 -1.2379193305969238 -0.32611215114593506 101
0.20335520803928375 -1.2100125551223755 -0.2744404673576355 101
0.20542921125888824 -1.2236599922180176 -0.23353131115436554 101
0.20725369453430176 -1.2358487844467163 -0.1924145519733429 101
0.20556536316871643 -1.227094292640686 -0.14807140827178955 101
0.2052607387304306 -1.226589560508728 -0.10545860230922699 101
0.2022412121295929 -1.2098426818847656 -0.06207254156470299 101
0.2022676318883896 -1.2113007307052612 -0.020560866221785545 101
0.20098546147346497 -1.2049168348312378 0.3168468177318573 101
0.20087258517742157 -1.2055367231369019 0.27310889959335327 101
0.202108696103096 -1.2142623662948608 0.23162473738193512 101
0.20310340821743011 -1.2215547561645508 0.18985840678215027 101
0.19897319376468658 -1.1980061531066895 0.14441515505313873 101
0.2051783949136734 -1.236702799797058 0.106330007314682 101
0.20054997503757477 -1.2101131677627563 0.06227978318929672 101
0.19975903630256653 -1.206646203994751 0.020681099966168404 101
0.20394498109817505 -1.2386387586593628 -0.32611215114593506 101
0.19913022220134735 -1.2107150554656982 -0.2744404673576355 101
0.2011566013097763 -1.224369764328003 -0.23353131115436554 101
0.2021387368440628 -1.2316913604736328 -0.19163239002227783 101
0.20128075778484344 -1.2278043031692505 -0.14807140827178955 101
0.20017296075820923 -1.2223831415176392 -0.10502282530069351 101
0.19721077382564545 -1.2056134939193726 -0.06181173026561737 101
0.19803816080093384 -1.2119994163513184 -0.020560866221785545 101
0.19600027799606323 -1.200844407081604 0.31555354595184326 101
0.1966632604598999 -1.2062304019927979 0.27310889959335327 101
0.19707992672920227 -1.210115909576416 0.23067155480384827 101
0.19883812963962555 -1.2222563028335571 0.18985840678215027 101
0.19399414956569672 -1.1937949657440186 0.14380581676959991 101
0.20006215572357178 -1.2324947118759155 0.10589422285556793 101
0.1963246762752533 -1.210805892944336 0.06227978318929672 101
0.19554583728313446 -1.207336187362671 0.020681099966168404 101
0.1996200829744339 -1.2393431663513184 -0.32611215114593506 101
0.19412894546985626 -1.2065926790237427 -0.2733156681060791 101
0.19610269367694855 -1.220218300819397 -0.2325781136751175 101
0.19783809781074524 -1.2323894500732422 -0.19163239002227783 101
0.1962079405784607 -1.2235993146896362 -0.14746206998825073 101
0.19590482115745544 -1.2230744361877441 -0.10502282530069351 101
0.19300119578838348 -1.2062945365905762 -0.06181173026561737 101
0.19301733374595642 -1.2077466249465942 -0.020474476739764214 101
0.191807359457016 -1.2015212774276733 0.31555354595184326 101
0.19245153665542603 -1.2069096565246582 0.27310889959335327 101
0.1928546279668808 -1.2107964754104614 0.23067155480384827 101
0.19379451870918274 -1.2180657386779785 0.18907709419727325 101
0.18982583284378052 -1.1944648027420044 0.14380581676959991 101
0.19575874507427216 -1.2331855297088623 0.10589422285556793 101
0.19209697842597961 -1.2114838361740112 0.06227978318929672 101
0.19054821133613586 -1.2030738592147827 0.020593838766217232 101
0.19454139471054077 -1.2352615594863892 -0.32481804490089417 101
0.1899159699678421 -1.2072629928588867 -0.2733156681060791 101
0.19184213876724243 -1.2208954095840454 -0.2325781136751175 101
0.19276933372020721 -1.2281938791275024 -0.19085021317005157 101
0.19193559885025024 -1.2242767810821533 -0.14746206998825073 101
0.1908636838197708 -1.2188297510147095 -0.10458704829216003 101
0.1887892782688141 -1.2069610357284546 -0.06181173026561737 101
0.18880033493041992 -1.208413004875183 -0.020474476739764214 101
0.18761210143566132 -1.202183485031128 0.31555354595184326 101
0.18823745846748352 -1.2075740098953247 0.27310889959335327 101
0.18787185847759247 -1.2066123485565186 0.2297183722257614 101
0.18954148888587952 -1.218734860420227 0.18907709419727325 101
0.1848934292793274 -1.1902161836624146 0.1431964635848999 101
0.19145292043685913 -1.2338613271713257 0.10589422285556793 101
0.1878669261932373 -1.2121469974517822 0.06227978318929672 101
0.18634754419326782 -1.203731656074524 0.020593838766217232 101
0.19022834300994873 -1.2359330654144287 -0.32481804490089417 101
0.18496038019657135 -1.2031033039093018 -0.2721909284591675 101
0.18683424592018127 -1.2167059183120728 -0.23162490129470825 101
0.18848095834255219 -1.228859305381775 -0.19085021317005157 101
0.18766090273857117 -1.2249393463134766 -0.14746206998825073 101
0.18660801649093628 -1.2194886207580566 -0.10458704829216003 101
0.18382063508033752 -1.202676773071289 -0.06155092269182205 101
0.18458102643489838 -1.2090647220611572 -0.020474476739764214 101
0.1826864629983902 -1.1980562210083008 0.3142602741718292 101
0.18328750133514404 -1.2034071683883667 0.2719849944114685 101
0.18365883827209473 -1.2072608470916748 0.2297183722257614 101
0.18528614938259125 -1.2193890810012817 0.18907709419727325 101
0.1807376742362976 -1.1908543109893799 0.1431964635848999 101
0.18714478611946106 -1.2345222234725952 0.10589422285556793 101
0.18363460898399353 -1.212795376777649 0.06227978318929672 101
0.18214459717273712 -1.2043747901916504 0.020593838766217232 101
0.1851949244737625 -1.2318135499954224 -0.32352393865585327 101
0.18075965344905853 -1.2037415504455566 -0.2721909284591675 101
0.18258602917194366 -1.217350721359253 -0.23162490129470825 101
0.1841902881860733 -1.229509711265564 -0.19085021317005157 101
0.18338392674922943 -1.2255868911743164 -0.14746206998825073 101
0.1823500692844391 -1.22013258934021 -0.10458704829216003 101
0.1796213835477829 -1.2033110857009888 -0.06155092269182205 101
0.18035948276519775 -1.209701657295227 -0.020474476739764214 101
0.1785033494234085 -1.1986865997314453 0.3142602741718292 101
0.17908570170402527 -1.2040396928787231 0.2719849944114685 101
0.1794435977935791 -1.2078945636749268 0.2297183722257614 101
0.18030370771884918 -1.2151432037353516 0.18829578161239624 101
0.17657969892024994 -1.1914780139923096 0.1431964635848999 101
0.18283435702323914 -1.2351678609848022 0.10589422285556793 101
0.17940004169940948 -1.2134289741516113 0.06227978318929672 101
0.17793942987918854 -1.205003261566162 0.020593838766217232 101
0.18089397251605988 -1.2324525117874146 -0.32352393865585327 101
0.17655670642852783 -1.2043651342391968 -0.2721909284591675 101
0.17833557724952698 -1.2179806232452393 -0.23162490129470825 101
0.17989736795425415 -1.2301452159881592 -0.19085021317005157 101
0.17838744819164276 -1.2213088274002075 -0.14685271680355072 101
0.178089901804924 -1.2207616567611694 -0.10458704829216003 101
0.17541995644569397 -1.2039307355880737 -0.06155092269182205 101
0.17613573372364044 -1.2103238105773926 -0.020474476739764214 101
0.17362333834171295 -1.194522738456726 0.3129670321941376 101
0.17418180406093597 -1.199836015701294 0.27086108922958374 101
0.17522616684436798 -1.208513617515564 0.2297183722257614 101
0.17606095969676971 -1.2157652378082275 0.18829578161239624 101
0.17241959273815155 -1.1920870542526245 0.1431964635848999 101
0.17780955135822296 -1.2308688163757324 0.10545844584703445 101
0.17516329884529114 -1.2140477895736694 0.06227978318929672 101
0.17301906645298004 -1.2006689310073853 0.02050657570362091 101
0.17590612173080444 -1.2282955646514893 -0.32222986221313477 101
0.17235161364078522 -1.2049740552902222 -0.2721909284591675 101
0.1733887940645218 -1.2137367725372314 -0.2306717187166214 101
0.1749047189950943 -1.2258765697479248 -0.19006802141666412 101
0.17412318289279938 -1.2219241857528687 -0.14685271680355072 101
0.17382757365703583 -1.221375823020935 -0.10458704829216003 101
0.17121638357639313 -1.204535722732544 -0.06155092269182205 101
0.17120718955993652 -1.2059818506240845 -0.020388085395097733 101
0.16945262253284454 -1.1951215267181396 0.3129670321941376 101
0.16999253630638123 -1.2004367113113403 0.27086108922958374 101
0.17100660502910614 -1.2091178894042969 0.2297183722257614 101
0.17181606590747833 -1.2163723707199097 0.18829578161239624 101
0.16825738549232483 -1.1926816701889038 0.1431964635848999 101
0.17351193726062775 -1.2314820289611816 0.10545844584703445 101
0.17092441022396088 -1.2146518230438232 0.06227978318929672 101
0.1688268929719925 -1.2012654542922974 0.02050657570362091 101
0.1716175079345703 -1.2289022207260132 -0.32222986221313477 101
0.16814440488815308 -1.2055684328079224 -0.2721909284591675 101
0.16915100812911987 -1.2143346071243286 -0.2306717187166214 101
0.1706245392560959 -1.2264796495437622 -0.19006802141666412 101
0.16985681653022766 -1.2225244045257568 -0.14685271680355072 101
0.1688784956932068 -1.2170414924621582 -0.10415127128362656 101
0.16632531583309174 -1.200180172920227 -0.06129011511802673 101
0.16699649393558502 -1.2065720558166504 -0.020388085395097733 101
0.16527985036373138 -1.1957056522369385 0.3129670321941376 101
0.16580119729042053 -1.2010228633880615 0.27086108922958374 101
0.16678494215011597 -1.2097073793411255 0.2297183722257614 101
0.167569100856781 -1.2169647216796875 0.18829578161239624 101
0.16409312188625336 -1.193261742591858 0.1431964635848999 101
0.1692121922969818 -1.2320802211761475 0.10545844584703445 101
0.166004940867424 -1.2102943658828735 0.062018103897571564 101
0.16395418345928192 -1.1968944072723389 0.02041931450366974 101
0.16732679307460785 -1.2294937372207642 -0.32222986221313477 101
0.16327904164791107 -1.2013205289840698 -0.27106615900993347 101
0.1649111658334732 -1.2149176597595215 -0.2306717187166214 101
0.16567890346050262 -1.2221741676330566 -0.18928584456443787 101
0.16558837890625 -1.2231099605560303 -0.14685271680355072 101
0.16462920606136322 -1.2176235914230347 -0.10415127128362656 101
0.16213488578796387 -1.2007534503936768 -0.06129011511802673 101
0.16278374195098877 -1.2071475982666016 -0.020388085395097733 101
0.16110503673553467 -1.1962753534317017 0.3129670321941376 101
0.16160783171653748 -1.2015942335128784 0.27086108922958374 101
0.1619078665971756 -1.205417513847351 0.22876517474651337 101
0.16266348958015442 -1.2126474380493164 0.18751446902751923 101
0.1599268615245819 -1.1938272714614868 0.1431964635848999 101
0.16424989700317383 -1.2277263402938843 0.10502266883850098 101
0.1617792248725891 -1.2108664512634277 0.062018103897571564 101
0.1597752422094345 -1.1974594593048096 0.02041931450366974 101
0.16303405165672302 -1.2300703525543213 -0.32222986221313477 101
0.15908464789390564 -1.2018831968307495 -0.27106615900993347 101
0.16002610325813293 -1.2106200456619263 -0.22971853613853455 101
0.16141171753406525 -1.2227450609207153 -0.18928584456443787 101
0.16066929697990417 -1.218760371208191 -0.1462433636188507 101
0.16037791967391968 -1.2181909084320068 -0.10415127128362656 101
0.1579424887895584 -1.2013120651245117 -0.06129011511802673 101
0.15791821479797363 -1.2027517557144165 -0.0203016959130764 101
0.15692828595638275 -1.19683039188385 0.3129670321941376 101
0.15741248428821564 -1.2021510601043701 0.27086108922958374 101
0.15769918262958527 -1.2059754133224487 0.22876517474651337 101
0.1584295779466629 -1.2132079601287842 0.18751446902751923 101
0.15575866401195526 -1.1943782567977905 0.1431964635848999 101
0.15996333956718445 -1.2282921075820923 0.10502266883850098 101
0.15690754354000092 -1.2064722776412964 0.061756424605846405 101
0.15495048463344574 -1.1930524110794067 0.020332051441073418 101
0.15812145173549652 -1.2258421182632446 -0.32093575596809387 101
0.1548883318901062 -1.2024312019348145 -0.27106615900993347 101
0.1557992845773697 -1.211171269416809 -0.22971853613853455 101
0.15651334822177887 -1.2184027433395386 -0.1885036826133728 101
0.15641404688358307 -1.2193138599395752 -0.1462433636188507 101
0.15549173951148987 -1.2138025760650635 -0.10371548682451248 101
0.15374816954135895 -1.2018561363220215 -0.06129011511802673 101
0.15371887385845184 -1.2032955884933472 -0.0203016959130764 101
0.15213841199874878 -1.192579984664917 0.31167376041412354 101
0.15259955823421478 -1.1978601217269897 0.269737184047699 101
0.15286917984485626 -1.20164954662323 0.2278119921684265 101
0.154193714261055 -1.213753581047058 0.18751446902751923 101
0.15096397697925568 -1.1899913549423218 0.14258712530136108 101
0.15504881739616394 -1.223901629447937 0.1045868843793869 101
0.15206855535507202 -1.202059030532837 0.061494745314121246 101
0.15078501403331757 -1.193585991859436 0.020332051441073418 101
0.1538415104150772 -1.226386547088623 -0.32093575596809387 101
0.15008458495140076 -1.1981303691864014 -0.26994141936302185 101
0.15157054364681244 -1.2117077112197876 -0.22971853613853455 101
0.15225936472415924 -1.2189416885375977 -0.1885036826133728 101
