# .PCD v0.7 - Point Cloud Data file format
VERSION 0.7
FIELDS x y z intensity
SIZE 4 4 4 4
TYPE F F F F
COUNT 1 1 1 1
WIDTH 790
HEIGHT 1
VIEWPOINT 0 0 0 1 0 0 0
POINTS 790
DATA ascii
-0.10070864856243134 2.0158655643463135 -0.24312961101531982 44
-0.09948042035102844 1.9982787370681763 -0.17169708013534546 44
-0.09862800687551498 1.9881435632705688 -0.10197632014751434 44
-0.09864483028650284 1.9955207109451294 -0.033864956349134445 44
-0.09811863303184509 1.9919260740280151 0.5237671136856079 44
-0.09813098609447479 1.9992778301239014 0.452933669090271 44
-0.09753672033548355 1.994278907775879 0.380322128534317 44
-0.09729587286710739 1.9964962005615234 0.3101802170276642 44
-0.09669037908315659 1.9912196397781372 0.24008259177207947 44
-0.0974123552441597 2.0133414268493652 0.173004150390625 44
-0.0965723767876625 2.0032236576080322 0.10310182720422745 44
-0.09537847340106964 1.985663652420044 0.0340321883559227 44
-0.09303220361471176 1.9727387428283691 -0.5189324021339417 119
-0.09531166404485703 2.0285987854003906 -0.4600251615047455 0
-0.09496621042490005 2.028799295425415 -0.38699471950531006 44
-0.09288163483142853 1.9917082786560059 -0.30974048376083374 44
-0.09367135167121887 2.016204833984375 -0.24312961101531982 44
-0.09227421879768372 1.993638038635254 -0.17126129567623138 44
-0.09168749302625656 1.9884757995605469 -0.10197632014751434 44
-0.09144916385412216 1.990858793258667 -0.03377856686711311 44
-0.09116491675376892 1.9922564029693604 0.5237671136856079 44
-0.09115161001682281 1.9996082782745361 0.452933669090271 44
-0.09057478606700897 1.9946072101593018 0.380322128534317 44
-0.09010303765535355 1.9918899536132812 0.309398889541626 44
-0.089739128947258 1.9915450811386108 0.24008259177207947 44
-0.09038388729095459 2.013669013977051 0.173004150390625 44
-0.08957923203706741 2.0035483837127686 0.10310182720422745 44
-0.08822420984506607 1.9809901714324951 0.03394492715597153 44
-0.0859348326921463 1.9682265520095825 -0.5176383256912231 119
-0.0882299542427063 2.028918981552124 -0.4600251615047455 0
-0.0874590277671814 2.01931095123291 -0.38508835434913635 44
-0.08592870831489563 1.9920203685760498 -0.30974048376083374 44
-0.08663291484117508 2.016519546508789 -0.24312961101531982 44
-0.0853145644068718 1.9939481019973755 -0.17126129567623138 44
-0.08453327417373657 1.9837950468063354 -0.10171551257371902 44
-0.08449921756982803 1.9911658763885498 -0.03377856686711311 44
-0.08400615304708481 1.9877370595932007 0.522473931312561 44
-0.08396624773740768 1.995046615600586 0.4518097937107086 44
-0.08340621739625931 1.9900071620941162 0.37936896085739136 44
-0.0831494927406311 1.9921923875808716 0.309398889541626 44
-0.08278679847717285 1.9918462038040161 0.24008259177207947 44
-0.08314833045005798 2.008995532989502 0.17256836593151093 44
-0.08237939327955246 1.9988600015640259 0.10284014791250229 44
-0.08130872249603271 1.9812860488891602 0.03394492715597153 44
-0.0794515609741211 1.9781659841537476 -0.5202265381813049 119
-0.08114716410636902 2.02921462059021 -0.4600251615047455 0
-0.08021450787782669 2.0146994590759277 -0.3841351270675659 44
-0.07897473871707916 1.9923081398010254 -0.30974048376083374 44
-0.07939771562814713 2.011850595474243 -0.242520272731781 44
-0.07815831899642944 1.9892566204071045 -0.1708255112171173 44
-0.07760802656412125 1.984078049659729 -0.10171551257371902 44
-0.07735371589660645 1.9864534139633179 -0.03369217738509178 44
-0.07706714421510696 1.9880181550979614 0.522473931312561 44
-0.07700172811746597 1.9953274726867676 0.4518097937107086 44
-0.07645928859710693 1.9902862310409546 0.37936896085739136 44
-0.076006218791008 1.9875354766845703 0.30861756205558777 44
-0.07564467936754227 1.987163782119751 0.23947323858737946 44
-0.07613512873649597 2.0092735290527344 0.17256836593151093 44
-0.07540155947208405 1.9991353750228882 0.10284014791250229 44
-0.0742047056555748 1.9765620231628418 0.033857665956020355 44
-0.07201506197452545 1.9639520645141602 -0.5163442492485046 119
-0.0738857164978981 2.0246171951293945 -0.45890042185783386 0
-0.07300326228141785 2.0100622177124023 -0.38318195939064026 44
-0.07184141874313354 1.9876364469528198 -0.3089583218097687 44
-0.07237456738948822 2.012115478515625 -0.242520272731781 44
-0.07121403515338898 1.989517331123352 -0.1708255112171173 44
-0.07068182528018951 1.9843368530273438 -0.10171551257371902 44
-0.07041922211647034 1.9867113828659058 -0.03369217738509178 44
-0.0699569433927536 1.9834480285644531 0.5211806297302246 44
-0.069865383207798 1.9907150268554688 0.45068585872650146 44
-0.06934013217687607 1.985635757446289 0.3784157633781433 44
-0.06906796246767044 1.9877886772155762 0.30861756205558777 44
-0.06870771944522858 1.9874156713485718 0.23947323858737946 44
-0.06912098824977875 2.0095269680023193 0.17256836593151093 44
-0.06825204938650131 1.9943962097167969 0.10257846862077713 44
-0.06730475276708603 1.976809024810791 0.033857665956020355 44
-0.06531926989555359 1.9690184593200684 -0.5176383256912231 119
-0.06681803613901138 2.024862766265869 -0.45890042185783386 0
-0.06582537293434143 2.005398988723755 -0.3822287619113922 44
-0.06490284204483032 1.9878751039505005 -0.3089583218097687 44
-0.06518945097923279 2.0073957443237305 -0.241910919547081 44
-0.06410808861255646 1.9847753047943115 -0.17038974165916443 44
-0.06359444558620453 1.9795807600021362 -0.10145469754934311 44
-0.06348387151956558 1.9869450330734253 -0.03369217738509178 44
-0.06303299218416214 1.9836801290512085 0.5211806297302246 44
-0.06291606277227402 1.9909467697143555 0.45068585872650146 44
-0.062408555299043655 1.9858657121658325 0.3784157633781433 44
-0.06197459623217583 1.9830814599990845 0.30783626437187195 44
-0.06161577254533768 1.9826830625534058 0.23886390030384064 44
-0.06195215880870819 2.004777431488037 0.17213258147239685 44
-0.06128988787531853 1.9946223497390747 0.10257846862077713 44
-0.060251329094171524 1.9720350503921509 0.03377040475606918 44
nan nan nan 0
-0.059605855494737625 2.0202138423919678 -0.45777565240859985 0
-0.05868092179298401 2.0007104873657227 -0.38127559423446655 44
-0.05796346440911293 1.9880895614624023 -0.3089583218097687 44
-0.05818193778395653 2.0076112747192383 -0.241910919547081 44
-0.057179540395736694 1.9849871397018433 -0.17038974165916443 44
-0.05668403208255768 1.9797908067703247 -0.10145469754934311 44
-0.056405551731586456 1.9821572303771973 -0.03360578790307045 44
-0.05597173422574997 1.9790602922439575 0.519887387752533 44
-0.055965978652238846 1.9911543130874634 0.45068585872650146 44
-0.055339157581329346 1.9811649322509766 0.37746256589889526 44
-0.05505197495222092 1.983285665512085 0.30783626437187195 44
-0.05469454452395439 1.9828860759735107 0.23886390030384064 44
-0.05495380237698555 2.004981517791748 0.17213258147239685 44
-0.05419104918837547 1.989832878112793 0.10231678932905197 44
-0.05336727574467659 1.9722332954406738 0.03377040475606918 44
nan nan nan 0
-0.052553631365299225 2.02040958404541 -0.45777565240859985 0
-0.05157000944018364 1.9959964752197266 -0.3803223967552185 44
-0.05102338641881943 1.9882797002792358 -0.3089583218097687 44
-0.05117371305823326 2.0078020095825195 -0.241910919547081 44
-0.05012425035238266 1.9801952838897705 -0.16995395720005035 44
-0.04964744299650192 1.9749850034713745 -0.10119388997554779 44
-0.0494861900806427 1.9823421239852905 -0.03360578790307045 44
-0.04906318709254265 1.9792436361312866 0.519887387752533 44
-0.048895325511693954 1.9864670038223267 0.4495619833469391 44
-0.04842326045036316 1.9813460111618042 0.37746256589889526 44
-0.048128679394721985 1.9834657907485962 0.30783626437187195 44
-0.04777264595031738 1.9830650091171265 0.23886390030384064 44
-0.047954779118299484 2.0051610469818115 0.17213258147239685 44
-0.047244906425476074 1.9900099039077759 0.10231678932905197 44
-0.046482570469379425 1.972407579421997 0.03377040475606918 44
nan nan nan 0
-0.04539108648896217 2.0157101154327393 -0.45665091276168823 0
-0.044492725282907486 1.9912573099136353 -0.37936922907829285 44
-0.043973226100206375 1.9835084676742554 -0.3081761300563812 44
-0.04405573382973671 2.003006935119629 -0.24130156636238098 44
-0.04321177303791046 1.9803581237792969 -0.16995395720005035 44
-0.04275315999984741 1.9751461744308472 -0.10119388997554779 44
-0.04256622493267059 1.9825026988983154 -0.03360578790307045 44
-0.042154036462306976 1.9794028997421265 0.519887387752533 44
-0.04196096584200859 1.9866255521774292 0.4495619833469391 44
-0.041506778448820114 1.981502890586853 0.37746256589889526 44
-0.041204798966646194 1.9836217164993286 0.30783626437187195 44
-0.040850162506103516 1.9832196235656738 0.23886390030384064 44
-0.04085346311330795 2.0003364086151123 0.17169681191444397 44
-0.040298186242580414 1.9901626110076904 0.10231678932905197 44
-0.039597298949956894 1.9725579023361206 0.03377040475606918 44
nan nan nan 0
-0.03826198726892471 2.0109853744506836 -0.4555261433124542 0
-0.03754166513681412 1.9914004802703857 -0.37936922907829285 44
-0.037049222737550735 1.9836498498916626 -0.3081761300563812 44
-0.03706366941332817 2.0031485557556152 -0.24130156636238098 44
-0.03629877418279648 1.980496883392334 -0.16995395720005035 44
-0.03585835173726082 1.9752833843231201 -0.10119388997554779 44
-0.0356457382440567 1.982639193534851 -0.03360578790307045 44
-0.035244375467300415 1.979537844657898 0.519887387752533 44
-0.0349402129650116 1.9818885326385498 0.4484380781650543 44
-0.03458978980779648 1.9816358089447021 0.37746256589889526 44
-0.03428041934967041 1.9837534427642822 0.30783626437187195 44
-0.0338423065841198 1.9783881902694702 0.23825454711914062 44
-0.03387073427438736 2.000466823577881 0.17169681191444397 44
-0.033267322927713394 1.985298752784729 0.10205511003732681 44
-0.03271154314279556 1.9726840257644653 0.03377040475606918 44
nan nan nan 0
-0.03124210797250271 2.011106491088867 -0.4555261433124542 0
-0.030514772981405258 1.9866116046905518 -0.3784160315990448 44
-0.030049782246351242 1.978829264640808 -0.30739396810531616 44
-0.03007114678621292 2.003265619277954 -0.24130156636238098 44
-0.02938532643020153 1.9806115627288818 -0.16995395720005035 44
-0.028889905661344528 1.9704039096832275 -0.10093308240175247 44
-0.02865239977836609 1.977752923965454 -0.03351939469575882 44
-0.02826516143977642 1.974819540977478 0.5185941457748413 44
-0.0280219204723835 1.9819984436035156 0.4484380781650543 44
-0.027672380208969116 1.9817445278167725 0.37746256589889526 44
-0.02735561691224575 1.983860969543457 0.30783626437187195 44
-0.026936238631606102 1.9784942865371704 0.23825454711914062 44
-0.026820659637451172 1.9955922365188599 0.1712610274553299 44
-0.02633713372051716 1.9854028224945068 0.10205511003732681 44
-0.025825394317507744 1.9727863073349 0.03377040475606918 44
nan nan nan 0
-0.024163177236914635 2.0063319206237793 -0.4544014036655426 0
-0.023580018430948257 1.986706018447876 -0.3784160315990448 44
-0.023142196238040924 1.9789221286773682 -0.30739396810531616 44
-0.02307826280593872 2.0033583641052246 -0.24130156636238098 44
-0.02241501770913601 1.9757213592529297 -0.16951817274093628 44
-0.022011738270521164 1.9704927206039429 -0.10093308240175247 44
-0.021748580038547516 1.977840781211853 -0.03351939469575882 44
-0.02137158252298832 1.9749062061309814 0.5185941457748413 44
-0.02105141244828701 1.9772125482559204 0.44731417298316956 44
-0.020754631608724594 1.981829047203064 0.37746256589889526 44
-0.020379630848765373 1.9790061712265015 0.30705496668815613 44
-0.019979603588581085 1.9736137390136719 0.2376452088356018 44
-0.019854579120874405 1.9956737756729126 0.1712610274553299 44
-0.019406624138355255 1.9854826927185059 0.10205511003732681 44
-0.01889093779027462 1.9678653478622437 0.03368314355611801 44
nan nan nan 0
-0.01715962588787079 2.006404161453247 -0.4544014036655426 0
-0.016603855416178703 1.981868028640747 -0.37746280431747437 44
-0.016234327107667923 1.978990912437439 -0.30739396810531616 44
-0.016045251861214638 1.9984641075134277 -0.24069221317768097 44
-0.015518327243626118 1.9757877588272095 -0.16951817274093628 44
-0.015133299864828587 1.9705575704574585 -0.10093308240175247 44
-0.014844493940472603 1.9779046773910522 -0.03351939469575882 44
-0.014442339539527893 1.9701390266418457 0.5173009037971497 44
-0.014149525202810764 1.977273941040039 0.44731417298316956 44
-0.013802364468574524 1.9769811630249023 0.3765093684196472 44
-0.013471486046910286 1.979065179824829 0.30705496668815613 44
-0.0130902836099267 1.9736714363098145 0.2376452088356018 44
-0.012888257391750813 1.9957308769226074 0.1712610274553299 44
-0.012444504536688328 1.980545163154602 0.10179343074560165 44
-0.012021690607070923 1.9679192304611206 0.03368314355611801 44
nan nan nan 0
-0.010131203569471836 2.001579999923706 -0.4532766342163086 0
-0.009685743600130081 1.9819139242172241 -0.37746280431747437 44
-0.009302989579737186 1.9740971326828003 -0.3066118061542511 44
-0.009069213643670082 1.9985078573226929 -0.24069221317768097 44
-0.00862144585698843 1.9758297204971313 -0.16951817274093628 44
-0.008254678919911385 1.9705983400344849 -0.10093308240175247 44
-0.007920159958302975 1.972945213317871 -0.03343300521373749 44
-0.007565183099359274 1.970177412033081 0.5173009037971497 44
-0.007247465196996927 1.977311372756958 0.44731417298316956 44
-0.006901328451931477 1.9770172834396362 0.3765093684196472 44
-0.006546799559146166 1.9741616249084473 0.3062736392021179 44
-0.006200805772095919 1.9737050533294678 0.2376452088356018 44
-0.00590699864551425 1.9907828569412231 0.17082525789737701 44
-0.0055310362949967384 1.9805766344070435 0.10179343074560165 44
-0.005152297671884298 1.9679492712020874 0.03368314355611801 44
nan nan nan 0
-0.003144324291497469 2.001603126525879 -0.4532766342163086 0
-0.002767514670267701 1.9819356203079224 -0.37746280431747437 44
-0.0024120486341416836 1.974117398262024 -0.3066118061542511 44
-0.00209306413307786 1.9985274076461792 -0.24069221317768097 44
-0.0017244609771296382 1.975847840309143 -0.16951817274093628 44
-0.0013759566936641932 1.9706151485443115 -0.10093308240175247 44
-0.0010332476813346148 1.9729608297348022 -0.03343300521373749 44
-0.0006862477748654783 1.9653619527816772 0.516007661819458 44
-0.00034446566132828593 1.9724525213241577 0.4461902678012848 44
-2.0824070645630854e-07 1.9770293235778809 0.3765093684196472 44
0.00034435014822520316 1.9741724729537964 0.3062736392021179 44
0.0006870167562738061 1.9687520265579224 0.2370358556509018 44
0.0010421662591397762 1.9907913208007812 0.17082525789737701 44
0.001382499816827476 1.9805837869644165 0.10179343074560165 44
0.0017127959290519357 1.9629560708999634 0.03359587863087654 44
nan nan nan 0
0.003833240829408169 1.996730089187622 -0.452151894569397 0
0.004150748252868652 1.9819332361221313 -0.37746280431747437 44
0.004478922113776207 1.974113941192627 -0.3066118061542511 44
0.004883110988885164 1.9985225200653076 -0.24069221317768097 44
0.005159505642950535 1.9708608388900757 -0.1690824031829834 44
0.005488839000463486 1.9656147956848145 -0.10067227482795715 44
0.005853676702827215 1.9729523658752441 -0.03343300521373749 44
0.006174149923026562 1.9653524160385132 0.516007661819458 44
0.006540680304169655 1.9724417924880981 0.4461902678012848 44
0.0069009121507406235 1.9770172834396362 0.3765093684196472 44
0.007235495839267969 1.9741592407226562 0.3062736392021179 44
0.007559239398688078 1.9687376022338867 0.2370358556509018 44
0.00799131765961647 1.9907755851745605 0.17082525789737701 44
0.008275104686617851 1.9755738973617554 0.1015317514538765 44
0.008564780466258526 1.9629380702972412 0.03359587863087654 44
nan nan nan 0
0.010776747949421406 1.9918326139450073 -0.45102712512016296 0
0.011068960651755333 1.9819066524505615 -0.37746280431747437 44
0.011341395787894726 1.96914803981781 -0.30582961440086365 44
0.011829777620732784 1.9935307502746582 -0.24008287489414215 44
0.01203906163573265 1.9708307981491089 -0.1690824031829834 44
0.012350081466138363 1.9655836820602417 -0.10067227482795715 44
0.012708247639238834 1.9679208993911743 -0.033346615731716156 44
0.013034472241997719 1.9653189182281494 0.516007661819458 44
0.01342574693262577 1.9724068641662598 0.4461902678012848 44
0.013767682015895844 1.972072958946228 0.37555617094039917 44
0.014091214165091515 1.9691834449768066 0.3054923415184021 44
0.014394992962479591 1.963736653327942 0.23642651736736298 44
0.014902991242706776 1.9857547283172607 0.17038947343826294 44
0.015171093866229057 1.97553288936615 0.1015317514538765 44
0.015377398580312729 1.9578971862792969 0.03350861743092537 44
nan nan nan 0
0.017686111852526665 1.986911416053772 -0.44990238547325134 0
0.01798703894019127 1.981855869293213 -0.37746280431747437 44
0.018214935436844826 1.969096302986145 -0.30582961440086365 44
0.018788427114486694 1.9934773445129395 -0.24008287489414215 44
0.018870659172534943 1.9657959938049316 -0.16864661872386932 44
0.019211173057556152 1.9655286073684692 -0.10067227482795715 44
0.019577497616410255 1.9678646326065063 -0.033346615731716156 44
0.019894637167453766 1.9652613401412964 0.516007661819458 44
0.020260479301214218 1.9674761295318604 0.44506633281707764 44
0.02065141685307026 1.9720128774642944 0.37555617094039917 44
0.020964860916137695 1.969122290611267 0.3054923415184021 44
0.021249625831842422 1.963674545288086 0.23642651736736298 44
0.02183447778224945 1.9856904745101929 0.17038947343826294 44
0.02206689864397049 1.9754679203033447 0.1015317514538765 44
0.02221164107322693 1.9578315019607544 0.03350861743092537 44
nan nan nan 0
0.024907168000936508 1.981961727142334 -0.44877761602401733 0
0.025188246741890907 1.976868748664856 -0.3765096366405487 44
0.025431910529732704 1.969016432762146 -0.30582961440086365 44
0.02609476074576378 1.9933950901031494 -0.24008287489414215 44
0.026075536385178566 1.965713620185852 -0.16864661872386932 44
0.026415066793560982 1.9654449224472046 -0.10067227482795715 44
0.0267899502068758 1.967779517173767 -0.033346615731716156 44
0.027097543701529503 1.9651752710342407 0.516007661819458 44
0.027471505105495453 1.96738862991333 0.44506633281707764 44
0.02787906676530838 1.971924066543579 0.37555617094039917 44
0.02818191424012184 1.9690322875976562 0.3054923415184021 44
0.028446709737181664 1.9635834693908691 0.23642651736736298 44
0.029112249612808228 1.9855971336364746 0.17038947343826294 44
0.029307201504707336 1.9753738641738892 0.1015317514538765 44
0.029312267899513245 1.9527384042739868 0.0334213562309742 44
nan nan nan 0
0.031747132539749146 1.9769915342330933 -0.4476528763771057 0
0.03208865597844124 1.9767688512802124 -0.3765096366405487 44
0.032304905354976654 1.968915581703186 -0.30582961440086365 44
0.03297056630253792 1.9883296489715576 -0.23947352170944214 44
0.03293699771165848 1.9656106233596802 -0.16864661872386932 44
0.03327558934688568 1.9653408527374268 -0.10067227482795715 44
0.03365861624479294 1.9676741361618042 -0.033346615731716156 44
0.033873673528432846 1.9602397680282593 0.5147144198417664 44
0.034338805824518204 1.9672807455062866 0.44506633281707764 44
0.034675680100917816 1.9669071435928345 0.3746030032634735 44
0.035054948180913925 1.9689218997955322 0.3054923415184021 44
0.03530072048306465 1.9634721279144287 0.23642651736736298 44
0.035952694714069366 1.9805033206939697 0.16995368897914886 44
0.03611086681485176 1.9702671766281128 0.10127007216215134 44
0.03613509610295296 1.9526240825653076 0.0334213562309742 44
nan nan nan 0
0.038552697747945786 1.971997857093811 -0.4465281069278717 0
0.03889187052845955 1.9717373847961426 -0.37555643916130066 44
0.039177510887384415 1.9687907695770264 -0.30582961440086365 44
0.0399109311401844 1.9882025718688965 -0.23947352170944214 44
0.039798058569431305 1.9654837846755981 -0.16864661872386932 44
0.04003375023603439 1.9602205753326416 -0.10041146725416183 44
0.0404239222407341 1.9625463485717773 -0.033260226249694824 44
0.040715981274843216 1.9601095914840698 0.5147144198417664 44
0.04120568558573723 1.9671489000320435 0.44506633281707764 44
0.04154125601053238 1.9667742252349854 0.3746030032634735 44
0.0418224036693573 1.9638500213623047 0.3047110140323639 44
0.042154304683208466 1.9633369445800781 0.23642651736736298 44
0.04286572337150574 1.9803657531738281 0.16995368897914886 44
0.04298815876245499 1.970129132270813 0.10127007216215134 44
0.042944129556417465 1.9524861574172974 0.0334213562309742 44
nan nan nan 0
0.04543602094054222 1.9718512296676636 -0.4465281069278717 0
0.04577428475022316 1.9715895652770996 -0.37555643916130066 44
0.046049632132053375 1.9686421155929565 -0.30582961440086365 44
0.04673388972878456 1.9830896854400635 -0.23886416852474213 44
0.04665863513946533 1.9653328657150269 -0.16864661872386932 44
0.046875953674316406 1.960068941116333 -0.10041146725416183 44
0.04727424308657646 1.9623932838439941 -0.033260226249694824 44
0.04755778983235359 1.9599554538726807 0.5147144198417664 44
0.04807206615805626 1.966992974281311 0.44506633281707764 44
0.04828554764389992 1.9617103338241577 0.37364980578422546 44
0.04867726191878319 1.96369206905365 0.3047110140323639 44
0.04900737106800079 1.9631779193878174 0.23642651736736298 44
0.049778226763010025 1.9802041053771973 0.16995368897914886 44
0.049864932894706726 1.969967007637024 0.10127007216215134 44
0.04975931718945503 1.9523242712020874 0.0334213562309742 44
nan nan nan 0
0.052189555019140244 1.9668103456497192 -0.4454033374786377 0
0.05252508819103241 1.9665113687515259 -0.3746032416820526 44
0.052921194583177567 1.9684693813323975 -0.30582961440086365 44
0.05365588143467903 1.9829144477844238 -0.23886416852474213 44
0.05338304489850998 1.9601789712905884 -0.16821083426475525 44
0.053717587143182755 1.9598933458328247 -0.10041146725416183 44
0.05412398651242256 1.9622162580490112 -0.033260226249694824 44
0.05426500737667084 1.9549493789672852 0.5134211778640747 44
0.0548018254339695 1.9619431495666504 0.44394242763519287 44
0.0551329031586647 1.9615298509597778 0.37364980578422546 44
0.05553153157234192 1.9635101556777954 0.3047110140323639 44
0.05571867525577545 1.9580340385437012 0.23581716418266296 44
0.05669012665748596 1.9800182580947876 0.16995368897914886 44
0.056741099804639816 1.9697810411453247 0.10127007216215134 44
0.05657389760017395 1.9521387815475464 0.0334213562309742 44
nan nan nan 0
0.05905468389391899 1.966616153717041 -0.4454033374786377 0
0.05938917398452759 1.9663161039352417 -0.3746032416820526 44
0.059642158448696136 1.96333646774292 -0.3050474524497986 44
0.06057721748948097 1.982715129852295 -0.23886416852474213 44
0.06022501736879349 1.9599806070327759 -0.16821083426475525 44
0.060558561235666275 1.9596939086914062 -0.10041146725416183 44
0.06081778183579445 1.957018494606018 -0.03317383676767349 44
0.061088722199201584 1.9547481536865234 0.5134211778640747 44
0.061649952083826065 1.9617400169372559 0.44394242763519287 44
0.06197958439588547 1.9613254070281982 0.37364980578422546 44
0.062228281050920486 1.9583684206008911 0.30392971634864807 44
0.06255315244197845 1.9578275680541992 0.23581716418266296 44
0.06360133737325668 1.9798083305358887 0.16995368897914886 44
0.06345537304878235 1.9645804166793823 0.10100839287042618 44
0.06338778883218765 1.9519293308258057 0.0334213562309742 44
nan nan nan 0
0.06591910123825073 1.966398000717163 -0.4454033374786377 0
0.06625253707170486 1.9660967588424683 -0.3746032416820526 44
0.06649512052536011 1.9631162881851196 -0.3050474524497986 44
0.06749781221151352 1.9824916124343872 -0.23886416852474213 44
0.0670662596821785 1.9597585201263428 -0.16821083426475525 44
0.06722715497016907 1.9544802904129028 -0.10015065968036652 44
0.06764868646860123 1.9567943811416626 -0.03317383676767349 44
0.06791169196367264 1.954522967338562 0.5134211778640747 44
0.06849732995033264 1.961512804031372 0.44394242763519287 44
0.06882550567388535 1.9610971212387085 0.37364980578422546 44
0.06906388700008392 1.958139181137085 0.30392971634864807 44
0.06938686221837997 1.9575973749160767 0.23581716418266296 44
0.07033446431159973 1.9745965003967285 0.16951791942119598 44
0.07031265646219254 1.9643468856811523 0.10100839287042618 44
0.07002119719982147 1.946700096130371 0.033334095031023026 44
nan nan nan 0
0.07260248064994812 1.961287498474121 -0.4442785978317261 0
0.0729326605796814 1.9609485864639282 -0.37365007400512695 44
0.07334727048873901 1.9628721475601196 -0.3050474524497986 44
0.0744175910949707 1.9822440147399902 -0.23886416852474213 44
0.07390668988227844 1.9595123529434204 -0.16821083426475525 44
0.07404915243387222 1.9542337656021118 -0.10015065968036652 44
0.07447875291109085 1.9565463066101074 -0.03317383676767349 44
0.07454927265644073 1.949447512626648 0.5121278762817383 44
0.07515684515237808 1.9563932418823242 0.4428185224533081 44
0.07567059993743896 1.960844874382019 0.37364980578422546 44
0.075707346200943 1.9529513120651245 0.30314841866493225 44
0.07621973007917404 1.9573432207107544 0.23581716418266296 44
0.0772266611456871 1.9743388891220093 0.16951791942119598 44
0.07716907560825348 1.9640895128250122 0.10100839287042618 44
0.07681602984666824 1.9464439153671265 0.033334095031023026 44
nan nan nan 0
0.07944821566343307 1.9610220193862915 -0.4442785978317261 0
0.07977720350027084 1.9606820344924927 -0.37365007400512695 44
0.08019852638244629 1.9626041650772095 -0.3050474524497986 44
0.08133646100759506 1.981972098350525 -0.23886416852474213 44
0.08054110407829285 1.9542657136917114 -0.16777506470680237 44
0.08087025582790375 1.9539633989334106 -0.10015065968036652 44
0.08130792528390884 1.956274390220642 -0.03317383676767349 44
0.08135365694761276 1.949175477027893 0.5121278762817383 44
0.0819854661822319 1.9561189413070679 0.4428185224533081 44
0.08251475542783737 1.960568904876709 0.37364980578422546 44
0.08252394944429398 1.9526751041412354 0.30314841866493225 44
0.0830516666173935 1.957065224647522 0.23581716418266296 44
0.08411791920661926 1.9740573167800903 0.16951791942119598 44
0.08381111174821854 1.9588195085525513 0.10074671357870102 44
0.0836099162697792 1.9461640119552612 0.033334095031023026 44
nan nan nan 0
0.08629297465085983 1.9607326984405518 -0.4442785978317261 0
0.08662077784538269 1.9603915214538574 -0.37365007400512695 44
0.08682994544506073 1.9573787450790405 -0.3042652904987335 44
0.08803354203701019 1.9767183065414429 -0.2382548302412033 44
0.08736227452754974 1.953972578048706 -0.16777506470680237 44
0.08746647089719772 1.9486809968948364 -0.0998898446559906 44
0.08813609927892685 1.9559787511825562 -0.03317383676767349 44
0.0881570503115654 1.948879599571228 0.5121278762817383 44
0.08881309628486633 1.9558207988739014 0.4428185224533081 44
0.08935791999101639 1.9602688550949097 0.37364980578422546 44
0.08933955430984497 1.9523751735687256 0.30314841866493225 44
0.08965487778186798 1.9518059492111206 0.23520782589912415 44
0.09077872335910797 1.968775987625122 0.1690821349620819 44
0.09064815938472748 1.9585151672363281 0.10074671357870102 44
0.09040278941392899 1.9458602666854858 0.033334095031023026 44
nan nan nan 0
0.09313668310642242 1.9604195356369019 -0.4442785978317261 0
0.0932295173406601 1.9551745653152466 -0.3726968765258789 44
0.09366194158792496 1.9570636749267578 -0.3042652904987335 44
0.09493304044008255 1.9763989448547363 -0.2382548302412033 44
0.09418237954378128 1.95365571975708 -0.16777506470680237 44
0.09426810592412949 1.9483637809753418 -0.0998898446559906 44
0.0947207361459732 1.9506657123565674 -0.03308744728565216 44
0.09495937824249268 1.9485599994659424 0.5121278762817383 44
0.09563964605331421 1.9554989337921143 0.4428185224533081 44
0.09619998931884766 1.9599449634552002 0.37364980578422546 44
0.09615407139062881 1.9520514011383057 0.30314841866493225 44
0.09646740555763245 1.9514811038970947 0.23520782589912415 44
0.09765048325061798 1.968446969985962 0.1690821349620819 44
0.09748409688472748 1.9581867456436157 0.10074671357870102 44
0.09719455987215042 1.9455327987670898 0.033334095031023026 44
nan nan nan 0
0.09997925162315369 1.9600825309753418 -0.4442785978317261 0
0.10005377978086472 1.9548372030258179 -0.3726968765258789 44
0.10049279779195786 1.9567248821258545 -0.3042652904987335 44
0.10157597064971924 1.9710992574691772 -0.2376454770565033 44
0.10074412822723389 1.9483407735824585 -0.1673392802476883 44
0.10106858611106873 1.9480228424072266 -0.0998898446559906 44
0.10152925550937653 1.950323224067688 -0.03308744728565216 44
0.10176054388284683 1.9482165575027466 0.5121278762817383 44
0.10246502608060837 1.955153226852417 0.4428185224533081 44
0.10278315097093582 1.954695701599121 0.3726966083049774 44
0.10296741873025894 1.9517039060592651 0.30314841866493225 44
0.1030164361000061 1.9461767673492432 0.23459847271442413 44
0.10452105104923248 1.9680941104888916 0.1690821349620819 44
0.10431884974241257 1.9578344821929932 0.10074671357870102 44
0.10398514568805695 1.9451817274093628 0.033334095031023026 44
nan nan nan 0
0.10682061314582825 1.9597216844558716 -0.4442785978317261 0
0.10687682032585144 1.954475998878479 -0.3726968765258789 44
0.10705193132162094 1.951431155204773 -0.30348309874534607 44
0.10845577716827393 1.9707326889038086 -0.2376454770565033 44
0.10754448920488358 1.9479773044586182 -0.1673392802476883 44
0.10759172588586807 1.9426727294921875 -0.09962903708219528 44
0.10833653062582016 1.9499568939208984 -0.03308744728565216 44
0.10829170048236847 1.9430272579193115 0.5108346343040466 44
0.10901719331741333 1.9499189853668213 0.44169461727142334 44
0.10960568487644196 1.9543250799179077 0.3726966083049774 44
0.10977950692176819 1.951332688331604 0.30314841866493225 44
0.10980923473834991 1.945805311203003 0.23459847271442413 44
0.11139034479856491 1.9677174091339111 0.1690821349620819 44
0.11115233600139618 1.95745849609375 0.10074671357870102 44
0.1107744574546814 1.9448069334030151 0.033334095031023026 44
nan nan nan 0
0.11337853223085403 1.9544731378555298 -0.44315382838249207 0
0.1136985719203949 1.9540910720825195 -0.3726968765258789 44
0.11386304348707199 1.9510455131530762 -0.30348309874534607 44
0.1150442585349083 1.9653879404067993 -0.23703613877296448 44
0.1143435463309288 1.9475901126861572 -0.1673392802476883 44
0.11437226831912994 1.9422852993011475 -0.09962903708219528 44
0.11514248698949814 1.9495669603347778 -0.03308744728565216 44
0.11507346481084824 1.942637324333191 0.5108346343040466 44
0.11582301557064056 1.9495266675949097 0.44169461727142334 44
0.11642688512802124 1.9539304971694946 0.3726966083049774 44
0.11659026145935059 1.9509375095367432 0.30314841866493225 44
0.11660069227218628 1.945410132408142 0.23459847271442413 44
0.1182582750916481 1.9673166275024414 0.1690821349620819 44
0.11768399924039841 1.9520745277404785 0.10048503428697586 44
0.1175624206662178 1.9444082975387573 0.033334095031023026 44
0.11884071677923203 1.937482476234436 -0.5098737478256226 119
0.12020022422075272 1.9540655612945557 -0.44315382838249207 0
0.12051892280578613 1.95368230342865 -0.3726968765258789 44
0.12067276984453201 1.9506362676620483 -0.30348309874534607 44
0.12190404534339905 1.9649744033813477 -0.23703613877296448 44
0.1211412101984024 1.9471789598464966 -0.1673392802476883 44
0.1211514100432396 1.9418741464614868 -0.09962903708219528 44
0.1219470426440239 1.9491530656814575 -0.03308744728565216 44
0.12185383588075638 1.9422237873077393 0.5108346343040466 44
0.12262743711471558 1.949110507965088 0.44169461727142334 44
0.12293761968612671 1.9486136436462402 0.37174344062805176 44
0.12339958548545837 1.9505186080932617 0.30314841866493225 44
0.12339073419570923 1.9449912309646606 0.23459847271442413 44
0.1251247674226761 1.9668917655944824 0.1690821349620819 44
0.12449727952480316 1.951651692390442 0.10048503428697586 44
0.1243489608168602 1.943986177444458 0.033334095031023026 44
0.12529055774211884 1.9322363138198853 -0.5085796117782593 119
0.1267043650150299 1.9487724304199219 -0.44202908873558044 0
0.12733781337738037 1.9532496929168701 -0.3726968765258789 44
0.12748102843761444 1.9502031803131104 -0.30348309874534607 44
0.12876233458518982 1.9645369052886963 -0.23703613877296448 44
0.12793739140033722 1.9467443227767944 -0.1673392802476883 44
0.12792907655239105 1.9414395093917847 -0.09962903708219528 44
0.12842054665088654 1.9437272548675537 -0.03300105407834053 44
0.12863272428512573 1.9417866468429565 0.5108346343040466 44
0.12943035364151 1.9486706256866455 0.44169461727142334 44
0.12973880767822266 1.948172688484192 0.37174344062805176 44
0.12987840175628662 1.9451484680175781 0.30236709117889404 44
0.1301792711019516 1.9445487260818481 0.23459847271442413 44
0.13165618479251862 1.9614733457565308 0.16864636540412903 44
0.13130906224250793 1.9512052536010742 0.10048503428697586 44
0.13079744577407837 1.9385522603988647 0.033246833831071854 44
0.13170523941516876 1.9269686937332153 -0.5072855353355408 119
0.13317301869392395 1.9434577226638794 -0.44090431928634644 0
0.13415515422821045 1.9527933597564697 -0.3726968765258789 44
0.1342877298593521 1.9497462511062622 -0.30348309874534607 44
0.13561907410621643 1.9640755653381348 -0.23703613877296448 44
0.13473200798034668 1.9462859630584717 -0.1673392802476883 44
0.13470518589019775 1.9409810304641724 -0.09962903708219528 44
0.13520464301109314 1.9432671070098877 -0.03300105407834053 44
0.1350739747285843 1.9365078210830688 0.509541392326355 44
0.1358918398618698 1.9433468580245972 0.4405707120895386 44
0.13653840124607086 1.9477078914642334 0.37174344062805176 44
0.13666744530200958 1.9446831941604614 0.30236709117889404 44
0.13696621358394623 1.944082498550415 0.23459847271442413 44
0.13850218057632446 1.9610017538070679 0.16864636540412903 44
0.13811923563480377 1.950735092163086 0.10048503428697586 44
0.13756345212459564 1.9380838871002197 0.033246833831071854 44
0.13946925103664398 1.9409489631652832 -0.5111678242683411 119
0.13995614647865295 1.9429811239242554 -0.44090431928634644 0
0.1409708559513092 1.9523130655288696 -0.3726968765258789 44
0.14073626697063446 1.9443399906158447 -0.302700936794281 44
0.14247414469718933 1.963590145111084 -0.23703613877296448 44
0.1411636769771576 1.9408358335494995 -0.1669035106897354 44
0.14147964119911194 1.9404990673065186 -0.09962903708219528 44
0.14198707044124603 1.942783236503601 -0.03300105407834053 44
0.14183281362056732 1.9360244274139404 0.509541392326355 44
0.1426745504140854 1.942860722541809 0.4405707120895386 44
0.14333632588386536 1.9472194910049438 0.37174344062805176 44
0.14345483481884003 1.9441943168640137 0.30236709117889404 44
0.14375148713588715 1.9435925483703613 0.23459847271442413 44
0.1453465223312378 1.9605063199996948 0.16864636540412903 44
0.1449277400970459 1.9502410888671875 0.10048503428697586 44
0.1443277895450592 1.9375919103622437 0.033246833831071854 44
0.14624357223510742 1.9404503107070923 -0.5111678242683411 119
0.14637057483196259 1.9376226663589478 -0.4397795498371124 0
0.14778484404087067 1.9518091678619385 -0.3726968765258789 44
0.14752241969108582 1.9438369274139404 -0.302700936794281 44
0.14932750165462494 1.9630807638168335 -0.23703613877296448 44
0.1479375809431076 1.940331220626831 -0.1669035106897354 44
0.14825239777565002 1.9399933815002441 -0.09962903708219528 44
0.14876779913902283 1.942275881767273 -0.03300105407834053 44
0.14858993887901306 1.9355175495147705 0.509541392326355 44
0.14945553243160248 1.9423508644104004 0.4405707120895386 44
0.14975512027740479 1.9418134689331055 0.3707902431488037 44
0.14985984563827515 1.9387577772140503 0.3015857934951782 44
0.15015168488025665 1.9381308555603027 0.23398913443088531 44
0.15180346369743347 1.9550209045410156 0.16821058094501495 44
0.15173445641994476 1.9497233629226685 0.10048503428697586 44
0.1507016122341156 1.9320921897888184 0.03315956890583038 44
0.1530161201953888 1.9399280548095703 -0.5111678242683411 119
0.15313325822353363 1.9371000528335571 -0.4397795498371124 0
0.15420936048030853 1.9463883638381958 -0.37174367904663086 44
0.15430676937103271 1.9433101415634155 -0.302700936794281 44
0.1561790108680725 1.9625476598739624 -0.23703613877296448 44
0.15470971167087555 1.9398030042648315 -0.1669035106897354 44
0.15502333641052246 1.9394640922546387 -0.09962903708219528 44
0.15554670989513397 1.9417446851730347 -0.03300105407834053 44
0.15534526109695435 1.9349870681762695 0.509541392326355 44
0.15623469650745392 1.941817283630371 0.4405707120895386 44
0.1565323919057846 1.9412789344787598 0.3707902431488037 44
0.15662646293640137 1.938222885131836 0.3015857934951782 44
0.15691611170768738 1.937595009803772 0.23398913443088531 44
0.15862683951854706 1.9544790983200073 0.16821058094501495 44
0.15853935480117798 1.9491817951202393 0.10048503428697586 44
0.15744495391845703 1.9315545558929443 0.03315956890583038 44
0.15978680551052094 1.9393820762634277 -0.5111678242683411 119
0.15989406406879425 1.936553716659546 -0.4397795498371124 0
0.16100259125232697 1.9458383321762085 -0.37174367904663086 44
0.16108925640583038 1.94275963306427 -0.302700936794281 44
0.16261768341064453 1.9570448398590088 -0.23642678558826447 44
0.16147993505001068 1.939251184463501 -0.1669035106897354 44
0.1613771617412567 1.9339351654052734 -0.09936822950839996 44
0.1623236984014511 1.9411898851394653 -0.03300105407834053 44
0.16209867596626282 1.934433102607727 0.509541392326355 44
0.16301195323467255 1.9412599802017212 0.4405707120895386 44
0.1633077710866928 1.9407206773757935 0.3707902431488037 44
0.16339117288589478 1.937664270401001 0.3015857934951782 44
0.16326077282428741 1.932090401649475 0.2333797812461853 44
0.16544827818870544 1.9539135694503784 0.16821058094501495 44
0.1649201363325119 1.943641185760498 0.1002233549952507 44
0.16418638825416565 1.9309930801391602 0.03315956890583038 44
0.1669689118862152 1.9436243772506714 -0.5124619007110596 0
0.16665291786193848 1.9359837770462036 -0.4397795498371124 0
0.1677938550710678 1.945264458656311 -0.37174367904663086 44
0.16786976158618927 1.9421855211257935 -0.302700936794281 44
0.16944804787635803 1.956465244293213 -0.23642678558826447 44
0.16824820637702942 1.9386757612228394 -0.1669035106897354 44
0.1681268811225891 1.9333600997924805 -0.09936822950839996 44
0.16866475343704224 1.9356310367584229 -0.0329146645963192 44
0.1688501238822937 1.933855414390564 0.509541392326355 44
0.1697872132062912 1.9406791925430298 0.4405707120895386 44
0.17008115351200104 1.9401386976242065 0.3707902431488037 44
0.1701538860797882 1.9370821714401245 0.3015857934951782 44
0.17000404000282288 1.9315087795257568 0.2333797812461853 44
0.17183013260364532 1.9483624696731567 0.16777479648590088 44
0.17170369625091553 1.9430536031723022 0.1002233549952507 44
0.1709258109331131 1.9304081201553345 0.03315956890583038 44
0.17375241219997406 1.943029761314392 -0.5124619007110596 0
0.17297497391700745 1.9305378198623657 -0.4386548101902008 0
0.1745830774307251 1.944666862487793 -0.37174367904663086 44
0.1746482402086258 1.9415876865386963 -0.302700936794281 44
0.17627635598182678 1.9558618068695068 -0.23642678558826447 44
0.1750144213438034 1.9380764961242676 -0.1669035106897354 44
0.17487454414367676 1.9327614307403564 -0.09936822950839996 44
0.175420343875885 1.9350305795669556 -0.0329146645963192 44
0.17516259849071503 1.9284441471099854 0.5082480907440186 44
0.1765604168176651 1.9400746822357178 0.4405707120895386 44
0.17685246467590332 1.9395332336425781 0.3707902431488037 44
0.1764652281999588 1.93155837059021 0.30080446600914 44
0.1767452210187912 1.930903434753418 0.2333797812461853 44
0.17863012850284576 1.9477506875991821 0.16777479648590088 44
0.17848517000675201 1.942442536354065 0.1002233549952507 44
0.17720483243465424 1.9248214960098267 0.03307230770587921 44
0.1805337816476822 1.9424114227294922 -0.5124619007110596 0
0.17971275746822357 1.929922342300415 -0.4386548101902008 0
0.18137015402317047 1.9440456628799438 -0.37174367904663086 44
0.1814245879650116 1.940966248512268 -0.302700936794281 44
0.18310251832008362 1.9552346467971802 -0.23642678558826447 44
0.18177850544452667 1.9374537467956543 -0.1669035106897354 44
0.18115277588367462 1.9271680116653442 -0.09910742193460464 44
0.18217378854751587 1.9344063997268677 -0.0329146645963192 44
0.18189305067062378 1.9278210401535034 0.5082480907440186 44
0.1828729659318924 1.934596061706543 0.4394468069076538 44
0.18315887451171875 1.9340176582336426 0.36983704566955566 44
0.18320655822753906 1.9309306144714355 0.30080446600914 44
0.1834842562675476 1.9302747249603271 0.2333797812461853 44
0.1854279488325119 1.947115421295166 0.16777479648590088 44
0.1852644830942154 1.9418076276779175 0.1002233549952507 44
0.1839226335287094 1.9241913557052612 0.03307230770587921 44
0.18731296062469482 1.9417693614959717 -0.5124619007110596 0
0.1864483505487442 1.9292832612991333 -0.4386548101902008 0
0.18815504014492035 1.9434006214141846 -0.37174367904663086 44
0.18772195279598236 1.9354057312011719 -0.30191877484321594 44
0.18992644548416138 1.9545836448669434 -0.23642678558826447 44
0.1880577802658081 1.9318499565124512 -0.16646772623062134 44
0.18787874281406403 1.9265239238739014 -0.09910742193460464 44
0.18892502784729004 1.9337587356567383 -0.0329146645963192 44
0.18862129747867584 1.9271743297576904 0.5082480907440186 44
0.1896248608827591 1.933945894241333 0.4394468069076538 44
0.1899087280035019 1.9333666563034058 0.36983704566955566 44
0.18994563817977905 1.9302794933319092 0.30080446600914 44
0.19022105634212494 1.9296226501464844 0.2333797812461853 44
0.19222353398799896 1.9464561939239502 0.16777479648590088 44
0.19154995679855347 1.9361802339553833 0.09996167570352554 44
0.1906381994485855 1.9235376119613647 0.03307230770587921 44
0.1940898597240448 1.9411036968231201 -0.5124619007110596 0
0.19318166375160217 1.92862069606781 -0.4386548101902008 0
0.19493763148784637 1.9427320957183838 -0.37174367904663086 44
0.1944766342639923 1.9347386360168457 -0.30191877484321594 44
0.1967480629682541 1.9539088010787964 -0.23642678558826447 44
0.19480004906654358 1.931181788444519 -0.16646772623062134 44
0.19460241496562958 1.925856351852417 -0.09910742193460464 44
0.19567394256591797 1.9330875873565674 -0.0329146645963192 44
0.19534724950790405 1.926504135131836 0.5082480907440186 44
0.19637441635131836 1.933272361755371 0.4394468069076538 44
0.19665628671646118 1.932692050933838 0.36983704566955566 44
0.196682408452034 1.9296046495437622 0.30080446600914 44
0.19645142555236816 1.9240096807479858 0.23277044296264648 44
0.1990167647600174 1.9457733631134033 0.16777479648590088 44
0.1983073204755783 1.9354997873306274 0.09996167570352554 44
0.19735144078731537 1.9228603839874268 0.03307230770587921 44
0.20036710798740387 1.9356104135513306 -0.5111678242683411 119
0.19991262257099152 1.9279345273971558 -0.4386548101902008 0
0.2017178237438202 1.9420397281646729 -0.37174367904663086 44
0.20122894644737244 1.9340479373931885 -0.30191877484321594 44
0.2035672664642334 1.9532101154327393 -0.23642678558826447 44
0.20153994858264923 1.9304900169372559 -0.16646772623062134 44
0.2013237178325653 1.9251652956008911 -0.09910742193460464 44
0.20189964771270752 1.9274206161499023 -0.03282827511429787 44
0.20207080245018005 1.9258105754852295 0.5082480907440186 44
0.2031216025352478 1.932574987411499 0.4394468069076538 44
0.20340143144130707 1.9319937229156494 0.36983704566955566 44
0.20341679453849792 1.9289063215255737 0.30080446600914 44
0.20316627621650696 1.9233121871948242 0.23277044296264648 44
0.20580756664276123 1.9450668096542358 0.16777479648590088 44
0.20506227016448975 1.9347957372665405 0.09996167570352554 44
0.20406226813793182 1.9221597909927368 0.03307230770587921 44
0.20712243020534515 1.9348992109298706 -0.5111678242683411 119
0.20664116740226746 1.92722487449646 -0.4386548101902008 0
0.207971453666687 1.936443567276001 -0.3707905113697052 44
0.20745059847831726 1.9284237623214722 -0.3011365830898285 44
0.20985232293605804 1.9475533962249756 -0.23581744730472565 44
0.2082773894071579 1.9297748804092407 -0.16646772623062134 44
0.20804257690906525 1.9244507551193237 -0.09910742193460464 44
0.2086263746023178 1.9267040491104126 -0.03282827511429787 44
0.20879191160202026 1.9250935316085815 0.5082480907440186 44
0.20986631512641907 1.931854248046875 0.4394468069076538 44
0.20961317420005798 1.9263924360275269 0.36888387799263 44
0.21014869213104248 1.9281845092773438 0.30080446600914 44
0.20987865328788757 1.9225913286209106 0.23277044296264648 44
0.2125958651304245 1.9443366527557373 0.16777479648590088 44
0.21181470155715942 1.934068202972412 0.09996167570352554 44
0.2107706069946289 1.9214357137680054 0.03307230770587921 44
0.21387521922588348 1.9341644048690796 -0.5111678242683411 119
0.21336717903614044 1.9264918565750122 -0.4386548101902008 0
0.21472963690757751 1.9357057809829712 -0.3707905113697052 44
0.2141808122396469 1.9276878833770752 -0.3011365830898285 44
0.21664927899837494 1.946808934211731 -0.23581744730472565 44
0.21501228213310242 1.929036021232605 -0.16646772623062134 44
0.21475890278816223 1.9237128496170044 -0.09910742193460464 44
0.21535056829452515 1.925964117050171 -0.03282827511429787 44
0.21551047265529633 1.9243528842926025 0.5082480907440186 44
0.216608464717865 1.93110990524292 0.4394468069076538 44
0.21633626520633698 1.9256490468978882 0.36888387799263 44
0.2163258194923401 1.9225314855575562 0.3000231683254242 44
0.21658846735954285 1.9218469858169556 0.23277044296264648 44
0.21938155591487885 1.9435826539993286 0.16777479648590088 44
0.21856456995010376 1.9333170652389526 0.09996167570352554 44
0.21747639775276184 1.9206883907318115 0.03307230770587921 44
0.22062541544437408 1.933406114578247 -0.5111678242683411 119
0.2200905829668045 1.925735354423523 -0.4386548101902008 0
0.2214851975440979 1.9349443912506104 -0.3707905113697052 44
0.22090837359428406 1.9269285202026367 -0.3011365830898285 44
0.22344359755516052 1.9460408687591553 -0.23581744730472565 44
0.22117552161216736 1.9233254194259644 -0.16603194177150726 44
0.2214725911617279 1.922951579093933 -0.09910742193460464 44
0.22207212448120117 1.9252007007598877 -0.03282827511429787 44
0.22222639620304108 1.9235888719558716 0.5082480907440186 44
0.2233479768037796 1.9303420782089233 0.4394468069076538 44
0.22305671870708466 1.924882173538208 0.36888387799263 44
0.22303538024425507 1.921764850616455 0.3000231683254242 44
0.2232956439256668 1.9210792779922485 0.23277044296264648 44
0.22616460919380188 1.9428049325942993 0.16777479648590088 44
0.2253117859363556 1.9325424432754517 0.09996167570352554 44
0.22417952120304108 1.9199174642562866 0.03307230770587921 44
0.2273729145526886 1.9326242208480835 -0.5111678242683411 119
0.22681131958961487 1.9249553680419922 -0.4386548101902008 0
0.2282380759716034 1.934159517288208 -0.3707905113697052 44
0.2276332825422287 1.9261456727981567 -0.3011365830898285 44
0.23023517429828644 1.9452489614486694 -0.23581744730472565 44
0.2278878539800644 1.9225417375564575 -0.16603194177150726 44
0.2281835973262787 1.9221667051315308 -0.09910742193460464 44
0.22879096865653992 1.9244136810302734 -0.03282827511429787 44
0.22893962264060974 1.9228013753890991 0.5082480907440186 44
0.2295079082250595 1.924712896347046 0.43832293152809143 44
0.22977444529533386 1.9240918159484863 0.36888387799263 44
0.22974224388599396 1.9209744930267334 0.3000231683254242 44
0.2300001084804535 1.9202880859375 0.23277044296264648 44
0.23294487595558167 1.9420037269592285 0.16777479648590088 44
0.23205623030662537 1.93174409866333 0.09996167570352554 44
0.23087991774082184 1.9191232919692993 0.03307230770587921 44
0.23411765694618225 1.9318187236785889 -0.5111678242683411 0
0.23352928459644318 1.92415189743042 -0.4386548101902008 0
0.23498815298080444 1.9333510398864746 -0.3707905113697052 44
0.2343553900718689 1.9253393411636353 -0.3011365830898285 44
0.2370239645242691 1.9444334506988525 -0.23581744730472565 44
0.23459738492965698 1.9217344522476196 -0.16603194177150726 44
0.23489181697368622 1.921358585357666 -0.09910742193460464 44
0.2355070263147354 1.9236034154891968 -0.03282827511429787 44
0.23565006256103516 1.9219906330108643 0.5082480907440186 44
0.23622500896453857 1.9239000082015991 0.43832293152809143 44
