# .PCD v0.7 - Point Cloud Data file format
VERSION 0.7
FIELDS x y z intensity
SIZE 4 4 4 4
TYPE F F F F
COUNT 1 1 1 1
WIDTH 784
HEIGHT 1
VIEWPOINT 0 0 0 1 0 0 0
POINTS 784
DATA ascii
-4.316910743713379 -0.6436263918876648 0.9980276226997375 40
-4.300319194793701 -0.6403855085372925 0.8368993401527405 40
-4.297414779663086 -0.6391863822937012 0.6813026666641235 40
-4.308540344238281 -0.6400725841522217 0.5301316380500793 40
-4.309570789337158 -0.6394569277763367 0.3778201639652252 40
-4.310244560241699 -0.6387880444526672 0.2263529896736145 40
-4.295786380767822 -0.6358791589736938 0.07513260096311569 40
-1.929955005645752 -0.2843027710914612 -0.5124619007110596 119
-2.192307710647583 -0.3229500651359558 -0.5027658939361572 119
-2.6163902282714844 -0.38495540618896484 -0.50614333152771 119
-3.184405565261841 -0.4679609537124634 -0.5037193894386292 119
-4.240909576416016 -0.622462272644043 -0.5216013789176941 119
-4.290966987609863 -0.6290444135665894 -0.3760776221752167 40
-4.296570301055908 -0.6290999054908752 -0.22481736540794373 40
-4.291955947875977 -0.6276591420173645 -0.07429556548595428 40
-4.3199615478515625 -0.6309845447540283 1.1587539911270142 40
-4.314090728759766 -0.6293580532073975 0.996903657913208 40
-4.297452926635742 -0.6261648535728455 0.8359460830688477 40
-4.294514179229736 -0.6249712109565735 0.6805213093757629 40
-4.305619716644287 -0.6258200407028198 0.5295222401618958 40
-4.306629180908203 -0.6251993179321289 0.37738436460494995 40
-4.307288646697998 -0.6245273947715759 0.22609131038188934 40
-4.292815685272217 -0.6216639876365662 0.07504533976316452 40
-1.930887222290039 -0.27790123224258423 -0.5124619007110596 119
-2.207888603210449 -0.317375123500824 -0.5061401724815369 119
-2.6225764751434326 -0.3765176236629486 -0.507096529006958 119
-3.1860196590423584 -0.45684245228767395 -0.5037193894386292 119
-4.238144397735596 -0.6069514155387878 -0.5209920406341553 119
-4.288206100463867 -0.6133570075035095 -0.3756418228149414 40
-4.293797016143799 -0.6133920550346375 -0.2245565503835678 40
-4.289172172546387 -0.6119675040245056 -0.07420918345451355 40
-4.317356109619141 -0.6152198910713196 1.1574606895446777 40
-4.311437606811523 -0.613608717918396 0.9957797527313232 40
-4.294753074645996 -0.610469400882721 0.8349930047988892 40
-4.2917799949646 -0.6092826724052429 0.6797400116920471 40
-4.302864074707031 -0.6100900769233704 0.5289129018783569 40
-4.3038530349731445 -0.6094640493392944 0.3769485652446747 40
-4.304498672485352 -0.6087891459465027 0.22582964599132538 40
-4.290009498596191 -0.6059762239456177 0.07495808601379395 40
-1.931939959526062 -0.27048513293266296 -0.5124619007110596 119
-2.2139155864715576 -0.30956974625587463 -0.5072649121284485 119
-2.624002695083618 -0.3664449155330658 -0.507096529006958 119
-3.192641258239746 -0.4452878534793854 -0.5045015811920166 119
-4.240443706512451 -0.5906736850738525 -0.5209920406341553 119
-4.285595417022705 -0.5962005853652954 -0.3752060532569885 40
-4.291175365447998 -0.5962134599685669 -0.2242957353591919 40
-4.286538124084473 -0.5948066115379333 -0.07412278652191162 40
-4.314902305603027 -0.5979748964309692 1.1561675071716309 40
-4.308935165405273 -0.5963814854621887 0.9946558475494385 40
-4.292202949523926 -0.5933021903038025 0.8340397477149963 40
-4.289195537567139 -0.5921235680580139 0.6789586544036865 40
-4.300258636474609 -0.5928860902786255 0.5283036231994629 40
-4.30122709274292 -0.5922545790672302 0.3765127956867218 40
-4.301857948303223 -0.5915763974189758 0.22556796669960022 40
-4.287352085113525 -0.588819146156311 0.07487081736326218 40
-1.9328724145889282 -0.26373976469039917 -0.5124619007110596 119
-2.224637269973755 -0.30315548181533813 -0.5095144510269165 119
-2.6252660751342773 -0.35728320479393005 -0.507096529006958 119
-3.194176197052002 -0.43414071202278137 -0.5045015811920166 119
-4.2375617027282715 -0.575200617313385 -0.5203827023506165 119
-4.2777791023254395 -0.5798993110656738 -0.37433451414108276 40
-4.28828239440918 -0.5805609822273254 -0.22403493523597717 40
-4.283634185791016 -0.5791703462600708 -0.07403639703989029 40
-4.307391166687012 -0.5816169381141663 1.1535810232162476 40
-4.306163311004639 -0.5806858539581299 0.9935320019721985 40
-4.289383888244629 -0.5776609182357788 0.8330865502357483 40
-4.286341667175293 -0.5764896273612976 0.6781773567199707 40
-4.2973833084106445 -0.5772110223770142 0.5276942253112793 40
-4.2983317375183105 -0.5765747427940369 0.3760770559310913 40
-4.298947811126709 -0.5758935213088989 0.22530627250671387 40
-4.284426689147949 -0.5731803774833679 0.074783556163311 40
-1.9385689496994019 -0.2576274275779724 -0.5137560367584229 119
-2.2305116653442383 -0.2960291802883148 -0.5106391906738281 119
-2.6313631534576416 -0.34876206517219543 -0.508049726486206 119
-3.200568199157715 -0.42363637685775757 -0.505283772945404 119
-4.239543914794922 -0.5604052543640137 -0.5203827023506165 119
-4.274838924407959 -0.5643116235733032 -0.3738987147808075 40
-4.285332202911377 -0.5649358630180359 -0.22377412021160126 40
-4.280673027038574 -0.5635615587234497 -0.07395000755786896 40
-4.304605960845947 -0.5659480690956116 1.1522877216339111 40
-4.303333282470703 -0.5650166869163513 0.9924080967903137 40
-4.2865071296691895 -0.562046468257904 0.8321333527565002 40
-4.283431529998779 -0.5608828663825989 0.6773960590362549 40
-4.2944512367248535 -0.5615633726119995 0.5270848870277405 40
-4.295379161834717 -0.5609222650527954 0.37564125657081604 40
-4.295979976654053 -0.5602381825447083 0.2250445932149887 40
-4.281443119049072 -0.5575823783874512 0.07469629496335983 40
-1.9394563436508179 -0.25085899233818054 -0.5137560367584229 119
-2.2315313816070557 -0.288241446018219 -0.5106391906738281 119
-2.6325645446777344 -0.33957481384277344 -0.508049726486206 119
-3.206925392150879 -0.41309261322021484 -0.5060659050941467 119
-4.236551761627197 -0.5449698567390442 -0.5197733044624329 119
-4.2718424797058105 -0.5487515926361084 -0.3734629154205322 40
-4.282325267791748 -0.5493385195732117 -0.22351330518722534 40
-4.277656078338623 -0.5479806661605835 -0.07386362552642822 40
-4.301764488220215 -0.5503059029579163 1.1509944200515747 40
-4.300446033477783 -0.5493744611740112 0.9912841320037842 40
-4.283574104309082 -0.5464593172073364 0.831180214881897 40
-4.280463695526123 -0.5453032851219177 0.6766147613525391 40
-4.291461944580078 -0.5459432005882263 0.5264754891395569 40
-4.292369842529297 -0.5452974438667297 0.37520545721054077 40
-4.292956829071045 -0.5446106791496277 0.22478292882442474 40
-4.2784037590026855 -0.5420057773590088 0.07460903376340866 40
-1.9403202533721924 -0.24408748745918274 -0.5137560367584229 119
-2.227689743041992 -0.27984294295310974 -0.5095144510269165 119
-2.6337337493896484 -0.3303833603858948 -0.508049726486206 119
-3.2083475589752197 -0.4018958508968353 -0.5060659050941467 119
-4.238428115844727 -0.5301782488822937 -0.5197733044624329 119
-4.268789291381836 -0.5332193970680237 -0.37302714586257935 40
-4.279262065887451 -0.5337690711021423 -0.22325249016284943 40
-4.274581432342529 -0.5324275493621826 -0.0737772285938263 40
-4.298866271972656 -0.5346904397010803 1.1497012376785278 40
-4.2975029945373535 -0.5337592363357544 0.9901602268218994 40
-4.280584812164307 -0.5308993458747864 0.8302270174026489 40
-4.277440071105957 -0.5297513604164124 0.6758334040641785 40
-4.283491611480713 -0.5297417044639587 0.525256872177124 40
-4.289303779602051 -0.5297004580497742 0.3747696876525879 40
-4.2898759841918945 -0.5290110111236572 0.22452124953269958 40
-4.275307655334473 -0.5264570116996765 0.07452177256345749 40
-1.9459543228149414 -0.23789909482002258 -0.5150501132011414 119
-2.2189812660217285 -0.2708844244480133 -0.5072649121284485 119
-2.634871006011963 -0.3211878836154938 -0.508049726486206 119
-3.2146334648132324 -0.39129090309143066 -0.5068480968475342 119
-4.235326766967773 -0.5147813558578491 -0.519163966178894 119
-4.265680313110352 -0.5177152156829834 -0.37259137630462646 40
-4.276142597198486 -0.5182276964187622 -0.2229917049407959 40
-4.271450996398926 -0.5169026851654053 -0.07369083911180496 40
-4.29591178894043 -0.5191020369529724 1.148408055305481 40
-4.294503211975098 -0.5181713104248047 0.9890363812446594 40
-4.277538776397705 -0.5153669714927673 0.8292738199234009 40
-4.274360179901123 -0.5142272114753723 0.6750521063804626 40
-4.2803874015808105 -0.5141944289207458 0.5246474742889404 40
-4.286181449890137 -0.5141316056251526 0.374333918094635 40
-4.286738395690918 -0.5134394764900208 0.22425955533981323 40
-4.27215576171875 -0.5109365582466125 0.07443451136350632 40
-1.9467729330062866 -0.2311049997806549 -0.5150501132011414 119
-2.2150754928588867 -0.26256364583969116 -0.5061401724815369 119
-2.6359760761260986 -0.31198850274086 -0.508049726486206 119
-3.215979814529419 -0.3800673484802246 -0.5068480968475342 119
-4.23709774017334 -0.4999941289424896 -0.519163966178894 119
-4.262514591217041 -0.5022391676902771 -0.3721556067466736 40
-4.272966384887695 -0.5027145147323608 -0.22273088991641998 40
-4.268264293670654 -0.5014060735702515 -0.07360444217920303 40
-4.292900562286377 -0.5035406351089478 1.1471147537231445 40
-4.291446685791016 -0.5026107430458069 0.9879124760627747 40
-4.2744364738464355 -0.49986231327056885 0.8283206224441528 40
-4.271224498748779 -0.4987310469150543 0.6742708683013916 40
-4.277226448059082 -0.4986751973628998 0.5240381360054016 40
-4.2830023765563965 -0.4985909163951874 0.37389814853668213 40
-4.283544540405273 -0.49789637327194214 0.22399787604808807 40
-4.268946647644043 -0.49544447660446167 0.07434724271297455 40
-1.9475677013397217 -0.2243080735206604 -0.5150501132011414 119
-2.2111382484436035 -0.254273384809494 -0.5050153732299805 119
-2.64192533493042 -0.3033452332019806 -0.5090028643608093 119
-3.2221930027008057 -0.36940163373947144 -0.5076302289962769 119
-4.243747711181641 -0.485765278339386 -0.5197733044624329 119
-4.254344463348389 -0.486225962638855 -0.37128400802612305 40
-4.269733905792236 -0.4872299134731293 -0.22247007489204407 40
-4.265021324157715 -0.48593810200691223 -0.0735180601477623 40
-4.289833068847656 -0.4880065619945526 1.145821452140808 40
-4.288333892822266 -0.4870779812335968 0.9867885112762451 40
-4.271277904510498 -0.48438560962677 0.8273674249649048 40
-4.268031597137451 -0.4832630157470703 0.673489511013031 40
-4.2789411544799805 -0.4837418496608734 0.5240381360054016 40
-4.279767036437988 -0.4830787479877472 0.37346234917640686 40
-4.280294895172119 -0.48238182067871094 0.2237362116575241 40
-4.265682697296143 -0.47998109459877014 0.07425998896360397 40
-1.9435391426086426 -0.21697260439395905 -0.5137560367584229 119
-2.2168545722961426 -0.24709324538707733 -0.5061401724815369 119
-2.633211612701416 -0.2930355966091156 -0.507096529006958 119
-3.2283709049224854 -0.35869717597961426 -0.5084124207496643 119
-4.245417594909668 -0.47094887495040894 -0.5197733044624329 119
-4.251065254211426 -0.47082430124282837 -0.37084826827049255 40
-4.266445636749268 -0.47177404165267944 -0.22220925986766815 40
-4.261722564697266 -0.47049885988235474 -0.07343167066574097 40
-4.286709308624268 -0.47250014543533325 1.1445281505584717 40
-4.285164833068848 -0.4715729355812073 0.9856646060943604 40
-4.263185024261475 -0.4684010446071625 0.8254610896110535 40
-4.26478385925293 -0.4678233563899994 0.6727082133293152 40
-4.275670528411865 -0.4682624042034149 0.5234287977218628 40
-4.276475429534912 -0.4675952196121216 0.3730265498161316 40
-4.276988983154297 -0.4668959677219391 0.22347453236579895 40
-4.262362480163574 -0.4645465016365051 0.0741727277636528 40
-1.9442846775054932 -0.21018706262111664 -0.5137560367584229 119
-2.2225470542907715 -0.23987621068954468 -0.5072649121284485 119
-2.629338502883911 -0.28331637382507324 -0.50614333152771 119
-3.2394237518310547 -0.34848231077194214 -0.5099768042564392 119
-4.247035503387451 -0.45612674951553345 -0.5197733044624329 119
-4.247729778289795 -0.4554513692855835 -0.3704124689102173 40
-4.263102054595947 -0.4563470482826233 -0.22194847464561462 40
-4.258367538452148 -0.4550884962081909 -0.07334527373313904 40
-4.283530235290527 -0.45702147483825684 1.1432349681854248 40
-4.281940460205078 -0.4560960531234741 0.9845407605171204 40
-4.259913444519043 -0.4529978334903717 0.8245078325271606 40
-4.266390800476074 -0.4529336392879486 0.6727082133293152 40
-4.272343635559082 -0.4528115689754486 0.522819459438324 40
-4.273128509521484 -0.45214056968688965 0.3725908100605011 40
-4.273627281188965 -0.45143914222717285 0.2232128381729126 40
-4.258985996246338 -0.44914090633392334 0.07408545911312103 40
-1.9450064897537231 -0.2033989578485489 -0.5137560367584229 119
-2.2330620288848877 -0.23312833905220032 -0.5095144510269165 119
-2.625429391860962 -0.27362769842147827 -0.5051901340484619 119
-3.260268211364746 -0.3392167389392853 -0.5131054520606995 119
-4.248601913452148 -0.4412990212440491 -0.5197733044624329 119
-4.2443389892578125 -0.440107524394989 -0.3699766993522644 40
-4.259702205657959 -0.44094911217689514 -0.2216876596212387 40
-4.254957675933838 -0.4397073984146118 -0.0732588842511177 40
-4.280295372009277 -0.4415707588195801 1.141941785812378 40
-4.278660297393799 -0.4406473934650421 0.9834168553352356 40
-4.256586074829102 -0.4376232624053955 0.8235546350479126 40
-4.258120059967041 -0.4370299279689789 0.6711456179618835 40
-4.268961429595947 -0.43738970160484314 0.5222101211547852 40
-4.269725322723389 -0.4367149770259857 0.3721550405025482 40
-4.270209312438965 -0.436011403799057 0.22295115888118744 40
-4.260528087615967 -0.43427154421806335 0.07408545911312103 40
-1.94089937210083 -0.19612281024456024 -0.5124619007110596 119
-2.2387094497680664 -0.22582104802131653 -0.5106391906738281 119
-2.626368522644043 -0.26446157693862915 -0.5051901340484619 119
-3.236863851547241 -0.3253645896911621 -0.5091946125030518 119
-4.250116348266602 -0.4264659583568573 -0.5197733044624329 119
-4.240893363952637 -0.4247928857803345 -0.36954089999198914 40
-4.256247043609619 -0.42558053135871887 -0.2214268445968628 40
-4.251492023468018 -0.4243556261062622 -0.07317250221967697 40
-4.277004241943359 -0.4261481761932373 1.1406484842300415 40
-4.275323867797852 -0.42522716522216797 0.982292890548706 40
-4.258087635040283 -0.42276233434677124 0.8235546350479126 40
-4.25470495223999 -0.4216766059398651 0.670364260673523 40
-4.265523910522461 -0.4219970107078552 0.5216007232666016 40
-4.266266822814941 -0.4213186502456665 0.37171924114227295 40
-4.26673698425293 -0.420613169670105 0.22268949449062347 40
-4.25704288482666 -0.4189073443412781 0.07399819791316986 40
-1.9415721893310547 -0.18934662640094757 -0.5124619007110596 119
-2.2588798999786377 -0.219893217086792 -0.5151382088661194 119
-2.6321611404418945 -0.25576695799827576 -0.50614333152771 119
-3.2330644130706787 -0.31358709931373596 -0.5084124207496643 119
-4.251579284667969 -0.4116276800632477 -0.5197733044624329 119
-4.242350101470947 -0.40998682379722595 -0.36954089999198914 40
-4.252736568450928 -0.41024139523506165 -0.22116602957248688 40
-4.247971534729004 -0.4090334177017212 -0.07308610528707504 40
-4.273658275604248 -0.4107539653778076 1.139355182647705 40
-4.271932125091553 -0.4098356068134308 0.9811689853668213 40
-4.25465202331543 -0.40742841362953186 0.8226014971733093 40
-4.25615119934082 -0.4068223536014557 0.670364260673523 40
-4.262030601501465 -0.4066337049007416 0.5209914445877075 40
-4.262753009796143 -0.4059518575668335 0.3712834417819977 40
-4.263208389282227 -0.4052444100379944 0.22242781519889832 40
-4.253502368927002 -0.4035727083683014 0.07391094416379929 40
-1.9422211647033691 -0.18256811797618866 -0.5124619007110596 119
-2.2353806495666504 -0.20973141491413116 -0.5095144510269165 119
-2.633037805557251 -0.2465774565935135 -0.50614333152771 119
-3.2243056297302246 -0.3013805150985718 -0.5068480968475342 119
-4.252990245819092 -0.39678439497947693 -0.5197733044624329 119
-4.238796234130859 -0.3947139382362366 -0.36910516023635864 40
-4.244199275970459 -0.39446988701820374 -0.22064441442489624 40
-4.2443952560424805 -0.3937409520149231 -0.07299971580505371 40
-4.275065898895264 -0.3958336114883423 1.139355182647705 40
-4.268486022949219 -0.39447301626205444 0.9800451397895813 40
-4.256048202514648 -0.39257439970970154 0.8226014971733093 40
-4.252627372741699 -0.39151036739349365 0.6695829629898071 40
-4.258481979370117 -0.3912998139858246 0.5203821063041687 40
-4.264143943786621 -0.39106956124305725 0.3712834417819977 40
-4.264596939086914 -0.3903605341911316 0.22242781519889832 40
-4.254885196685791 -0.3887227475643158 0.07391094416379929 40
-1.9476567506790161 -0.17622259259223938 -0.5137560367584229 119
-2.221543073654175 -0.20061273872852325 -0.5061401724815369 119
-2.638770818710327 -0.23782548308372498 -0.507096529006958 119
-3.2302563190460205 -0.2905661463737488 -0.5076302289962769 119
-4.254349231719971 -0.38193628191947937 -0.5197733044624329 119
-4.240148067474365 -0.37991535663604736 -0.36910516023635864 40
-4.24057674407959 -0.3792077302932739 -0.22038359940052032 40
-4.245744228363037 -0.37892287969589233 -0.07299971580505371 40
-4.271610736846924 -0.38047993183135986 1.1380620002746582 40
-4.264984130859375 -0.37913939356803894 0.9789212346076965 40
-4.257392406463623 -0.3777156472206116 0.8226014971733093 40
-4.249048709869385 -0.3762279450893402 0.6688016057014465 40
-4.254878520965576 -0.3759957253932953 0.5197727084159851 40
-4.26052188873291 -0.3757449984550476 0.3708477020263672 40
-4.255985736846924 -0.37459635734558105 0.2219044417142868 40
-4.2512359619140625 -0.37343063950538635 0.07382367551326752 40
-1.9482600688934326 -0.1694229245185852 -0.5137560367584229 119
-2.1979615688323975 -0.19075076282024384 -0.5005163550376892 119
-2.639585018157959 -0.228613018989563 -0.507096529006958 119
-3.2312510013580322 -0.2792886793613434 -0.5076302289962769 119
-4.260601043701172 -0.36750999093055725 -0.5203827023506165 119
-4.236485958099365 -0.36468496918678284 -0.3686693608760834 50
-4.251824855804443 -0.36525779962539673 -0.22090522944927216 50
-4.242059707641602 -0.36367306113243103 -0.07291332632303238 50
-4.268100738525391 -0.3651552200317383 1.1367686986923218 40
-4.256572246551514 -0.3634205758571625 0.9766733646392822 40
-4.248903274536133 -0.3620188534259796 0.8206951022148132 40
-4.2552571296691895 -0.36181214451789856 0.6695829629898071 40
-4.256165027618408 -0.3611411154270172 0.5197727084159851 50
-4.261807441711426 -0.36087071895599365 0.3708477020263672 50
-4.257266998291016 -0.35973790287971497 0.2219044417142868 50
-4.2375688552856445 -0.3573285639286041 0.0735618844628334 40
-1.948867917060852 -0.1622810661792755 -0.5137560367584229 119
-2.1986141204833984 -0.18307727575302124 -0.5005163550376892 119
-2.645258665084839 -0.21980422735214233 -0.508049726486206 119
-3.2371277809143066 -0.2684158980846405 -0.5084124207496643 119
-4.261857986450195 -0.3526354730129242 -0.5203827023506165 119
-4.252624988555908 -0.35112422704696655 -0.3699766993522644 50
-4.2431206703186035 -0.3495939075946808 -0.22038359940052032 50
-4.253268241882324 -0.34968259930610657 -0.07308610528707504 50
-4.264535427093506 -0.3498596251010895 1.1354753971099854 50
-4.267526626586914 -0.34935519099235535 0.9789212346076965 50
-4.250141143798828 -0.3471851944923401 0.8206951022148132 40
-4.2712602615356445 -0.34815993905067444 0.6719268560409546 50
-4.252453327178955 -0.34587979316711426 0.5191633701324463 50
-4.26800537109375 -0.34639495611190796 0.3712834417819977 50
-4.268450736999512 -0.34568122029304504 0.22242781519889832 50
-4.2786545753479 -0.345755934715271 0.07425998896360397 50
-1.9493954181671143 -0.15581749379634857 -0.5137560367584229 119
-2.2089526653289795 -0.17617622017860413 -0.5027658939361572 119
-2.646009683609009 -0.21056921780109406 -0.508049726486206 119
-3.2429678440093994 -0.25750550627708435 -0.5091946125030518 119
-4.263062953948975 -0.3377566933631897 -0.5203827023506165 119
-4.293549060821533 -0.339417964220047 -0.3734629154205322 50
-4.279159069061279 -0.33752894401550293 -0.22220925986766815 50
-4.299317836761475 -0.3383639454841614 -0.07386362552642822 50
-4.270545959472656 -0.33534955978393555 1.1367686986923218 50
-4.288149356842041 -0.3359788954257965 0.9834168553352356 50
-4.2904744148254395 -0.33540764451026917 0.8283206224441528 50
-4.341380596160889 -0.33862489461898804 0.6828652024269104 50
-4.293216705322266 -0.33411431312561035 0.5240381360054016 50
-4.2940192222595215 -0.3334227502346039 0.37346234917640686 50
-4.309457302093506 -0.33386483788490295 0.22452124953269958 50
-4.329679012298584 -0.3346712589263916 0.07513260096311569 50
-1.9499274492263794 -0.14901188015937805 -0.5137560367584229 119
-2.2143826484680176 -0.16922134160995483 -0.5038906931877136 119
-2.646693468093872 -0.20179356634616852 -0.508049726486206 119
-3.238879680633545 -0.2463754415512085 -0.5084124207496643 119
-4.264159679412842 -0.32361799478530884 -0.5203827023506165 119
-4.339351654052734 -0.32856282591819763 -0.3773849606513977 50
-4.325066089630127 -0.3267219662666321 -0.2245565503835678 50
-4.345281600952148 -0.3274863660335541 -0.07464112341403961 50
-4.314980983734131 -0.32444536685943604 1.148408055305481 50
-4.323247909545898 -0.3243081569671631 0.9912841320037842 50
-4.3649821281433105 -0.3266727328300476 0.842618465423584 50
-4.39172887802124 -0.3279036581516266 0.6906783580780029 50
-4.333893299102783 -0.3228248059749603 0.5289129018783569 50
-4.394446849822998 -0.32656407356262207 0.3821779191493988 50
-4.350376129150391 -0.32252565026283264 0.22661468386650085 50
-4.365664482116699 -0.3228929042816162 0.07574343681335449 50
-1.9455938339233398 -0.14219284057617188 -0.5124619007110596 119
-2.219818353652954 -0.16184492409229279 -0.5050153732299805 119
-2.6522769927978516 -0.19290968775749207 -0.5090028643608093 119
-3.2347943782806396 -0.23471073806285858 -0.5076302289962769 119
-4.260313510894775 -0.30837303400039673 -0.5197733044624329 119
-4.390152931213379 -0.31700095534324646 -0.3817427456378937 50
-4.395904541015625 -0.3166450262069702 -0.22820788621902466 50
-4.3962626457214355 -0.3158995509147644 -0.07550503313541412 50
-4.397984504699707 -0.31525176763534546 1.1703933477401733 50
-4.4021077156066895 -0.3147750794887543 1.0092666149139404 50
-4.4150543212890625 -0.31492629647254944 0.8521503210067749 50
-4.45196008682251 -0.3167778253555298 0.7000540494918823 50
-4.389447212219238 -0.311559796333313 0.5356157422065735 50
-4.435307502746582 -0.31403693556785583 0.3856641352176666 50
-4.421206474304199 -0.31226301193237305 0.23027820885181427 50
-4.446554660797119 -0.3132733702659607 0.07713963836431503 50
-1.9461255073547363 -0.13472126424312592 -0.5124619007110596 119
-2.2252840995788574 -0.15365587174892426 -0.5061401724815369 119
-2.6578948497772217 -0.18306154012680054 -0.5099561214447021 119
-3.225818395614624 -0.2216113954782486 -0.5060659050941467 119
-4.256514549255371 -0.29167309403419495 -0.519163966178894 119
-4.45097017288208 -0.30421745777130127 -0.3869720995426178 50
-4.456867694854736 -0.3038390576839447 -0.23133759200572968 50
-4.4572954177856445 -0.30308669805526733 -0.0765417143702507 50
-4.452168941497803 -0.30195745825767517 1.1846190690994263 50
-4.4518938064575195 -0.30115821957588196 1.020505666732788 50
-4.465202808380127 -0.30127567052841187 0.8616822361946106 50
-4.512272357940674 -0.30366042256355286 0.7094298005104065 50
-4.445077896118164 -0.2983591556549072 0.5423185229301453 50
-4.501089096069336 -0.3013295531272888 0.39132925868034363 50
-4.482157230377197 -0.2992763817310333 0.23341836035251617 50
-4.51755952835083 -0.30084821581840515 0.07836129516363144 50
-1.9465839862823486 -0.12792719900608063 -0.5124619007110596 119
-2.225806951522827 -0.14588725566864014 -0.5061401724815369 119
-2.658517599105835 -0.17378264665603638 -0.5099561214447021 119
-3.2167162895202637 -0.20970730483531952 -0.5045015811920166 119
-4.2624592781066895 -0.27713531255722046 -0.5197733044624329 119
-4.511651039123535 -0.29254642128944397 -0.3922014534473419 0
-4.512711524963379 -0.29182425141334534 -0.23420648276805878 50
-4.51819372177124 -0.2913869023323059 -0.07757839560508728 50
-4.5110344886779785 -0.29013463854789734 1.2001380920410156 50
-4.5112624168396 -0.2893587052822113 1.0339925289154053 50
-4.520108699798584 -0.2891339361667633 0.8721672892570496 50
-4.572447776794434 -0.29168060421943665 0.7188054919242859 50
-4.5055251121521 -0.28662195801734924 0.5496307015419006 50
-4.5567946434021 -0.2890849709510803 0.39612287282943726 50
-4.547956466674805 -0.28772732615470886 0.23682020604610443 50
-4.56847620010376 -0.28821828961372375 0.07923392206430435 50
-1.9421982765197754 -0.1208316832780838 -0.5111678242683411 119
-2.2263026237487793 -0.13811683654785156 -0.5061401724815369 119
-2.6591081619262695 -0.1645016372203827 -0.5099561214447021 119
-3.2322158813476562 -0.19938980042934418 -0.5068480968475342 119
-4.288167476654053 -0.26377835869789124 -0.5228200554847717 119
-4.5723042488098145 -0.28045544028282166 -0.39743080735206604 0
-4.563541412353516 -0.27911844849586487 -0.23681457340717316 50
-4.57407283782959 -0.27896130084991455 -0.07852869480848312 50
-4.5795135498046875 -0.2784908711910248 1.2182435989379883 50
-4.570601940155029 -0.2771482765674591 1.0474793910980225 50
-4.589681625366211 -0.2775011956691742 0.8855119347572327 50
-4.617804527282715 -0.2783927023410797 0.7258372902870178 50
-4.560989856719971 -0.27416858077049255 0.5563335418701172 50
-4.60749626159668 -0.27615711092948914 0.40048062801361084 50
-4.608743667602539 -0.27542462944984436 0.23996035754680634 50
-4.619357109069824 -0.27524980902671814 0.08010653406381607 50
-1.94260835647583 -0.11405140906572342 -0.5111678242683411 119
-2.226771116256714 -0.13034474849700928 -0.5061401724815369 119
-2.659666061401367 -0.15521861612796783 -0.5099561214447021 119
-3.2427523136138916 -0.1886797547340393 -0.5084124207496643 119
-4.318788051605225 -0.2505326569080353 -0.5264761447906494 119
-4.618009090423584 -0.26708173751831055 -0.40135282278060913 0
-4.614336967468262 -0.26606130599975586 -0.23942264914512634 50
-4.62992000579834 -0.2661490738391876 -0.07947897911071777 50
-4.628676414489746 -0.2652670741081238 1.2311761379241943 50
-4.625047206878662 -0.26424920558929443 1.0598423480987549 50
-4.620023727416992 -0.2631532549858093 0.8912310004234314 50
-4.603956699371338 -0.2614319324493408 0.7234933972358704 50
-4.616422176361084 -0.2613314688205719 0.563036322593689 50
-4.613405227661133 -0.2603529095649719 0.4009164273738861 50
-4.634603500366211 -0.26073774695396423 0.24126875400543213 50
-4.6003241539001465 -0.2580038011074066 0.07975748926401138 50
-1.9478168487548828 -0.10753597319126129 -0.5124619007110596 119
-2.232076644897461 -0.12283877283334732 -0.5072649121284485 119
-2.660191774368286 -0.14593370258808136 -0.5099561214447021 119
-3.2483222484588623 -0.17762891948223114 -0.5091946125030518 119
-4.324592113494873 -0.23572586476802826 -0.5270854830741882 119
-4.60896635055542 -0.2504197657108307 -0.400481253862381 0
-4.600279808044434 -0.24914255738258362 -0.23864023387432098 50
-4.6108527183532715 -0.24890807271003723 -0.07913342118263245 50
-4.610283374786377 -0.2480703443288803 1.2260030508041382 50
-4.611346244812012 -0.24732041358947754 1.0564706325531006 50
-4.616013526916504 -0.24676275253295898 0.8902779221534729 50
-4.604841232299805 -0.24535952508449554 0.7234933972358704 50
-4.607394695281982 -0.2446891814470291 0.5618177056312561 50
-4.614285945892334 -0.24424754083156586 0.4009164273738861 50
-4.615540504455566 -0.24350611865520477 0.2402220219373703 50
-4.606189727783203 -0.2422066330909729 0.07984475046396255 50
-1.9481803178787231 -0.10073617100715637 -0.5124619007110596 119
-2.2373576164245605 -0.1152973622083664 -0.5083897113800049 119
-2.655783176422119 -0.13639526069164276 -0.5090028643608093 119
-3.258786678314209 -0.16679395735263824 -0.5107589364051819 119
-4.320432186126709 -0.22037595510482788 -0.5264761447906494 119
-4.604837417602539 -0.2340770959854126 -0.4000454545021057 0
-4.601121425628662 -0.2330830693244934 -0.23864023387432098 50
-4.606700420379639 -0.23255962133407593 -0.07904703170061111 50
-4.615944862365723 -0.23221862316131592 1.2272963523864746 50
-4.617047309875488 -0.23146621882915497 1.0575945377349854 50
-4.611944675445557 -0.23040346801280975 0.8893246650695801 50
-4.620466709136963 -0.23002077639102936 0.7258372902870178 50
-4.613177299499512 -0.22885075211524963 0.5624269843101501 50
-4.610135555267334 -0.22789326310157776 0.40048062801361084 50
-4.611375331878662 -0.22714774310588837 0.23996035754680634 50
-4.611999988555908 -0.226371631026268 0.07993201911449432 50
-1.9485200643539429 -0.09393513947725296 -0.5124619007110596 119
-2.242612361907959 -0.10772055387496948 -0.5095144510269165 119
-2.656242847442627 -0.12712401151657104 -0.5090028643608093 119
-3.2593488693237305 -0.15541765093803406 -0.5107589364051819 119
-4.3211750984191895 -0.20529349148273468 -0.5264761447906494 119
-4.620553016662598 -0.21870830655097961 -0.40135282278060913 0
-4.601906776428223 -0.21702073514461517 -0.23864023387432098 50
-4.627459526062012 -0.21741633117198944 -0.07939258962869644 50
-4.621551990509033 -0.2163303941488266 1.228589653968811 50
-4.632427215576172 -0.21602918207645416 1.0609662532806396 50
-4.637235641479492 -0.21544231474399567 0.8940906524658203 50
-4.685374736785889 -0.21685929596424103 0.7359943389892578 50
-4.628820896148682 -0.21343211829662323 0.5642550587654114 50
-4.66563606262207 -0.21431362628936768 0.4052742123603821 50
-4.61214017868042 -0.2110496461391449 0.23996035754680634 50
-4.682679176330566 -0.21345850825309753 0.08115369081497192 50
-1.9536610841751099 -0.08734868466854095 -0.5137560367584229 119
-2.2478420734405518 -0.10010848194360733 -0.5106391906738281 119
-2.661574125289917 -0.11806874722242355 -0.5099561214447021 119
-3.259871482849121 -0.14403945207595825 -0.5107589364051819 119
-4.272286415100098 -0.1880265176296234 -0.5203827023506165 119
-4.730764865875244 -0.20737722516059875 -0.41093993186950684 119
-4.637556076049805 -0.20248039066791534 -0.24046590924263 50
-4.703108310699463 -0.20452004671096802 -0.08068844676017761 50
-4.6850080490112305 -0.20291373133659363 1.2454019784927368 50
-4.711033821105957 -0.20321714878082275 1.078948736190796 50
-4.740939140319824 -0.2036781907081604 0.914107620716095 50
-4.809454917907715 -0.2057807892560959 0.755527138710022 50
-4.703910827636719 -0.20044241845607758 0.5733952522277832 50
-4.770862102508545 -0.2024611532688141 0.4144255816936493 50
-4.752532005310059 -0.20085233449935913 0.24728737771511078 50
-4.788287162780762 -0.2015261948108673 0.08298619091510773 50
-1.9539541006088257 -0.08052860200405121 -0.5137560367584229 119
-2.2530453205108643 -0.09246119856834412 -0.5117639303207397 119
-2.6619699001312256 -0.10877739638090134 -0.5099561214447021 119
-3.255420207977295 -0.13245871663093567 -0.5099768042564392 119
-4.248123645782471 -0.17210784554481506 -0.5173359513282776 119
-4.826021194458008 -0.19467703998088837 -0.4192197620868683 119
-4.752985000610352 -0.19089993834495544 -0.24646450579166412 50
-4.793707847595215 -0.19169752299785614 -0.08224346488714218 50
-4.791860103607178 -0.1907859742641449 1.2738534212112427 50
-4.794473648071289 -0.19005192816257477 1.098055124282837 50
-4.824997425079346 -0.19041843712329865 0.9303117990493774 50
-4.86936092376709 -0.19131805002689362 0.7649028301239014 50
-4.783924579620361 -0.18712499737739563 0.5831447839736938 50
-4.856151580810547 -0.18910135328769684 0.4218337833881378 50
-4.843013286590576 -0.1877432018518448 0.25199761986732483 50
-4.858898162841797 -0.187509685754776 0.08420785516500473 50
-1.9542232751846313 -0.07370754331350327 -0.5137560367584229 119
-2.258222818374634 -0.0847788155078888 -0.5128887295722961 119
-2.667238235473633 -0.0996680036187172 -0.5109092593193054 119
-3.2558627128601074 -0.12109438329935074 -0.5099768042564392 119
-4.223901271820068 -0.15636013448238373 -0.5142892003059387 119
-4.916268348693848 -0.18113091588020325 -0.42706382274627686 119
-4.833460330963135 -0.17723527550697327 -0.2506374418735504 50
-4.9042582511901855 -0.1789742410182953 -0.08414404839277267 50
-4.860070705413818 -0.17651230096817017 1.2919589281082153 50
-4.873010158538818 -0.17613062262535095 1.1160376071929932 50
-4.899209499359131 -0.17622138559818268 0.9446095824241638 50
-5.008190631866455 -0.17926615476608276 0.786779522895813 50
-4.85894250869751 -0.17307475209236145 0.5922849774360657 50
-4.926472187042236 -0.17461924254894257 0.4279347062110901 50
-4.918489933013916 -0.17347678542137146 0.2559228241443634 50
-5.014404773712158 -0.1759834736585617 0.08691298216581345 50
-1.9544686079025269 -0.0668855831027031 -0.5137560367584229 119
-2.263373851776123 -0.07706139981746674 -0.5140134692192078 119
-2.667570114135742 -0.09035700559616089 -0.5109092593193054 119
-3.2513298988342285 -0.10956224054098129 -0.5091946125030518 119
-4.239301681518555 -0.14211386442184448 -0.5161172747612 119
-5.1159987449646 -0.17060941457748413 -0.44449496269226074 119
-4.913896083831787 -0.1630110740661621 -0.2548103928565979 50
-5.089725017547607 -0.16795462369918823 -0.08734048902988434 50
-4.947547912597656 -0.16239850223064423 1.3152375221252441 50
-5.0148091316223145 -0.16373011469841003 1.1486307382583618 50
-5.061683177947998 -0.1643761545419693 0.9760648012161255 50
-5.1420578956604 -0.16608788073062897 0.8078749179840088 50
-5.00336217880249 -0.1607338786125183 0.6099560856819153 50
-5.141124248504639 -0.16426129639148712 0.446673184633255 50
-5.1037187576293945 -0.16217449307441711 0.26560497283935547 50
-5.169887065887451 -0.16337382793426514 0.08961810171604156 50
-1.959517478942871 -0.06021112948656082 -0.5150501132011414 119
-2.2733683586120605 -0.06945784389972687 -0.516262948513031 119
-2.6678690910339355 -0.08104489743709564 -0.5109092593193054 119
-3.251692533493042 -0.09821231663227081 -0.5091946125030518 119
-4.24473237991333 -0.12746401131153107 -0.516726553440094 119
-5.201202392578125 -0.15527701377868652 -0.45190322399139404 119
-5.154003620147705 -0.15296761691570282 -0.26732924580574036 50
-5.210209846496582 -0.15372563898563385 -0.0894138514995575 50
-5.155678749084473 -0.15121610462665558 1.3708473443984985 50
-5.151710033416748 -0.1501997709274292 1.1801002025604248 50
-5.189788341522217 -0.15040341019630432 1.0008476972579956 50
-5.226527690887451 -0.15055517852306366 0.8211572170257568 50
-5.142792701721191 -0.14724478125572205 0.6270177364349365 50
-5.226308822631836 -0.1487230509519577 0.4540814459323883 50
-5.214059352874756 -0.14746370911598206 0.27136191725730896 50
-5.24538516998291 -0.14743344485759735 0.09092703461647034 50
-1.959715723991394 -0.053370773792266846 -0.5150501132011414 119
-2.283337116241455 -0.06178545206785202 -0.518512487411499 119
-2.668135643005371 -0.071731798350811 -0.5109092593193054 119
-3.2520155906677246 -0.08686119318008423 -0.5091946125030518 119
-4.250112533569336 -0.11277800798416138 -0.5173359513282776 119
-5.2863593101501465 -0.13935184478759766 -0.45931148529052734 119
-5.244352340698242 -0.13732856512069702 -0.2720237672328949 50
-5.290676116943359 -0.1376175731420517 -0.09079609811306 50
-5.238255500793457 -0.1353391855955124 1.392832636833191 50
-5.239870548248291 -0.1344657689332962 1.200330376625061 50
-5.258975505828857 -0.134037584066391 1.0141923427581787 50
-5.315886974334717 -0.13455970585346222 0.8352207541465759 50
-5.237536907196045 -0.13166175782680511 0.6385953426361084 50
-5.311446666717529 -0.1325920820236206 0.4614896774291992 50
-5.284424781799316 -0.13099466264247894 0.27502545714378357 50
-5.335826396942139 -0.1313370019197464 0.09249774366617203 50
-1.9598901271820068 -0.04652976244688034 -0.5150501132011414 119
-2.268927574157715 -0.05347039923071861 -0.5151382088661194 119
-2.668370008468628 -0.062417831271886826 -0.5109092593193054 119
-3.2522988319396973 -0.07550901174545288 -0.5091946125030518 119
-4.2504801750183105 -0.09794165939092636 -0.5173359513282776 119
-5.386406898498535 -0.12317563593387604 -0.4680270552635193 0
-5.329662799835205 -0.12094733864068985 -0.2764575481414795 50
-5.371092319488525 -0.12094958871603012 -0.0921783447265625 50
-5.311126232147217 -0.11867181211709976 1.4122314453125 50
-5.308500289916992 -0.11768616735935211 1.2160651683807373 50
-5.3330183029174805 -0.11729848384857178 1.0284901857376099 50
-5.380510330200195 -0.1174035370349884 0.8453778028488159 50
-5.307426929473877 -0.11488207429647446 0.6471261978149414 50
-5.3716349601745605 -0.1153339296579361 0.46671900153160095 50
-5.36472225189209 -0.11424876004457474 0.2792123258113861 50
-5.386233806610107 -0.1137663722038269 0.09337037056684494 50
-1.9648692607879639 -0.0397859588265419 -0.5163442492485046 119
-2.2593586444854736 -0.04535448178648949 -0.5128887295722961 119
-2.6636641025543213 -0.05300544947385788 -0.5099561214447021 119
-3.252542495727539 -0.06415591388940811 -0.5091946125030518 119
-4.250796318054199 -0.08310411870479584 -0.5173359513282776 119
-5.406724452972412 -0.10475879162549973 -0.4697701632976532 119
-5.384966850280762 -0.10339702665805817 -0.2793264389038086 50
-5.396472930908203 -0.10267573595046997 -0.09261028468608856 50
-5.393601417541504 -0.10167939960956573 1.4342167377471924 50
-5.381946086883545 -0.10052002966403961 1.2329236268997192 50
-5.3873772621154785 -0.09968087077140808 1.0389752388000488 50
-5.395700931549072 -0.09889283031225204 0.8477216958999634 50
-5.382223606109619 -0.0977061316370964 0.6562663912773132 50
-5.411846160888672 -0.09729903191328049 0.47020524740219116 50
-5.390049457550049 -0.09596610814332962 0.2805207073688507 50
-5.386597633361816 -0.09496422111988068 0.09337037056684494 50
-1.9553383588790894 -0.032765209674835205 -0.5137560367584229 119
-2.244889497756958 -0.03722524270415306 -0.5095144510269165 119
-2.663832902908325 -0.04370720684528351 -0.5099561214447021 119
-3.252746820449829 -0.05280202254652977 -0.5091946125030518 119
-4.251060485839844 -0.06826556473970413 -0.5173359513282776 119
-5.42697811126709 -0.08620158582925797 -0.4715133011341095 119
-5.390287399291992 -0.08467777818441391 -0.2795872390270233 50
-5.396798610687256 -0.08383791148662567 -0.09261028468608856 50
-5.4132399559021 -0.08314831554889679 1.4393898248672485 50
-5.406621932983398 -0.08210280537605286 1.238543152809143 50
-5.3926005363464355 -0.08094847947359085 1.0399284362792969 50
-5.410827159881592 -0.08027750253677368 0.8500656485557556 50
-5.3874945640563965 -0.07899082452058792 0.656875729560852 50
-5.407171726226807 -0.07833540439605713 0.4697694480419159 50
-5.385359287261963 -0.07707928866147995 0.28025904297828674 50
-5.431885242462158 -0.07679697126150131 0.09415572881698608 50
-1.9554407596588135 -0.02593960613012314 -0.5137560367584229 119
-2.2401344776153564 -0.029325123876333237 -0.5083897113800049 119
-2.6590614318847656 -0.03434503450989723 -0.5090028643608093 119
-3.2578494548797607 -0.04151041805744171 -0.5099768042564392 119
-4.251272678375244 -0.05342618003487587 -0.5173359513282776 119
-5.5368194580078125 -0.06861526519060135 -0.4811004400253296 119
nan nan nan 0
nan nan nan 0
-5.399008274078369 -0.06408010423183441 1.4355099201202393 50
-5.416618824005127 -0.06334361433982849 1.2407910823822021 50
nan nan nan 0
nan nan nan 0
nan nan nan 0
nan nan nan 0
nan nan nan 0
nan nan nan 0
-1.9506899118423462 -0.019066480919718742 -0.5124619007110596 119
-2.2256081104278564 -0.02136511541903019 -0.5050153732299805 119
-2.659165143966675 -0.02506296895444393 -0.5090028643608093 119
-3.25797438621521 -0.030138151720166206 -0.5099768042564392 119
-4.251433372497559 -0.03858613967895508 -0.5173359513282776 119
-5.571890354156494 -0.0495980940759182 -0.48415088653564453 119
nan nan nan 0
-6.342076778411865 -0.05423992872238159 -0.10893803834915161 15
-5.539259910583496 -0.0464070700109005 1.473014235496521 0
nan nan nan 0
nan nan nan 0
nan nan nan 0
nan nan nan 0
nan nan nan 0
-6.349417686462402 -0.04654494300484657 0.33076322078704834 15
-6.362123489379883 -0.0455276258289814 0.11038646101951599 15
-1.9507445096969604 -0.012257186695933342 -0.5124619007110596 119
-2.2402846813201904 -0.013685447163879871 -0.5083897113800049 119
-2.659236431121826 -0.015780597925186157 -0.5090028643608093 119
-3.2580599784851074 -0.018765512853860855 -0.5099768042564392 119
-4.246579170227051 -0.023717915639281273 -0.516726553440094 119
-5.726437568664551 -0.030983714386820793 -0.4976600706577301 119
nan nan nan 0
nan nan nan 0
-5.9740705490112305 -0.02919546701014042 1.589406967163086 10
nan nan nan 0
nan nan nan 0
nan nan nan 0
-6.360713005065918 -0.02664429508149624 0.7763077020645142 15
-6.364035129547119 -0.025547455996274948 0.5534389615058899 15
-6.359527587890625 -0.024419400840997696 0.33128657937049866 15
-6.347246170043945 -0.02326442301273346 0.11012467741966248 15
-1.9507755041122437 -0.00544774392619729 -0.5124619007110596 119
-2.2500624656677246 -0.005890821106731892 -0.5106391906738281 119
-2.6592752933502197 -0.006498035043478012 -0.5090028643608093 119
-3.258105516433716 -0.007392648607492447 -0.5099768042564392 119
-4.256561756134033 -0.008915234357118607 -0.5179452896118164 119
-5.816168308258057 -0.011166662909090519 -0.5055040717124939 119
nan nan nan 0
-6.342300891876221 -0.009962916374206543 -0.10893803834915161 15
-6.11903190612793 -0.008544215001165867 1.628204584121704 10
nan nan nan 0
nan nan nan 0
-6.3596272468566895 -0.00555026950314641 1.0000771284103394 15
nan nan nan 0
-6.3640851974487305 -0.0033326742704957724 0.5534389615058899 15
-6.364567279815674 -0.0022221002727746964 0.331548273563385 15
-6.347289085388184 -0.0011082565179094672 0.11012467741966248 15
-1.9507825374603271 0.0013617663644254208 -0.5124619007110596 119
-2.254940986633301 0.001967649208381772 -0.5117639303207397 119
-2.6641900539398193 0.002789746969938278 -0.5099561214447021 119
-3.263049840927124 0.003986340016126633 -0.5107589364051819 119
-4.261529922485352 0.005949922371655703 -0.5185546875 119
-5.9357147216796875 0.009323390200734138 -0.5159627795219421 119
-6.3446431159973145 0.011073057539761066 -0.32940179109573364 15
-6.342297077178955 0.01217590644955635 -0.10893803834915161 15
-6.148003101348877 0.0128759341314435 1.635964035987854 10
-6.367022514343262 0.014445893466472626 1.459952473640442 15
-6.360124588012695 0.015540300868451595 1.2277065515518188 15
-6.349730968475342 0.01662314683198929 0.9985145926475525 15
-6.360743999481201 0.01776214689016342 0.7763077020645142 15
-6.359076976776123 0.0188673697412014 0.553003191947937 15
-6.349556922912598 0.019947342574596405 0.33076322078704834 15
-6.337255477905273 0.02101476676762104 0.10995015501976013 15
-1.9555957317352295 0.008191490545868874 -0.5137560367584229 119
-2.2646639347076416 0.00988136325031519 -0.5140134692192078 119
-2.6641640663146973 0.012089488096535206 -0.5099561214447021 119
-3.2630159854888916 0.015376484952867031 -0.5107589364051819 119
-4.261483192443848 0.020825399085879326 -0.5185546875 119
-6.035264492034912 0.03054705448448658 -0.5246784090995789 119
-6.3345794677734375 0.03316763788461685 -0.3288801610469818 15
-6.332217693328857 0.03426048532128334 -0.10876525938510895 15
-6.138260841369629 0.034282442182302475 1.6333776712417603 10
-6.362061023712158 0.03664279729127884 1.4588285684585571 15
-6.355123519897461 0.03771205618977547 1.2267533540725708 15
-6.349634170532227 0.03878774121403694 0.9985145926475525 15
-6.350717544555664 0.039902813732624054 0.7750889658927917 15
-6.353991508483887 0.04103241115808487 0.5525673627853394 15
-6.3494486808776855 0.04211130738258362 0.33076322078704834 15
-6.332144737243652 0.043108440935611725 0.10986289381980896 15
-1.955552577972412 0.01535905059427023 -0.5137560367584229 119
-2.2646124362945557 0.018181705847382545 -0.5140134692192078 119
-2.6690101623535156 0.021894318982958794 -0.5109092593193054 119
-3.2629377841949463 0.027335934340953827 -0.5107589364051819 119
nan nan nan 0
-6.1546502113342285 0.053710389882326126 -0.5351370573043823 119
-6.3394083976745605 0.05642925947904587 -0.32914096117019653 15
-6.337048530578613 0.057514358311891556 -0.10885164886713028 15
-6.109116077423096 0.056512001901865005 1.6256181001663208 10
-6.357011795043945 0.05991475284099579 1.4577046632766724 15
-6.354942321777344 0.06100449711084366 1.2267533540725708 15
-6.344511032104492 0.06201178580522537 0.9977332949638367 15
-6.350528717041016 0.06317909061908722 0.7750889658927917 15
-6.348818302154541 0.0642702579498291 0.5521316528320312 15
-6.339266300201416 0.06528008729219437 0.330239862203598 15
-6.326944828033447 0.06625758856534958 0.10977563261985779 15
-1.9506574869155884 0.022130319848656654 -0.5124619007110596 119
-2.2645351886749268 0.02608656696975231 -0.5140134692192078 119
-2.668917417526245 0.031210768967866898 -0.5109092593193054 119
-3.262822389602661 0.03872554749250412 -0.5107589364051819 119
nan nan nan 0
-6.219173908233643 0.0759848803281784 -0.5408022403717041 119
-6.32419490814209 0.07837195694446564 -0.32835853099823 15
-6.336808681488037 0.07963443547487259 -0.10885164886713028 15
-6.113710880279541 0.07789798825979233 1.6269112825393677 10
-6.35676383972168 0.08210449665784836 1.4577046632766724 15
-6.344874858856201 0.08305851370096207 1.2248469591140747 15
-6.33437967300415 0.08402688056230545 0.996170699596405 15
-6.345307350158691 0.08527949452400208 0.7744796872138977 15
-6.343574523925781 0.08636356890201569 0.5516958832740784 15
-6.343992233276367 0.0874767079949379 0.3305015563964844 15
-6.321676731109619 0.08827921748161316 0.10968836396932602 15
-1.950568437576294 0.028939250856637955 -0.5124619007110596 119
-2.264430284500122 0.03399110957980156 -0.5140134692192078 119
-2.663884401321411 0.04045231267809868 -0.5099561214447021 119
-3.2676050662994385 0.050190526992082596 -0.5115411281585693 119
-4.265981674194336 0.06627035140991211 -0.519163966178894 119
-6.233811378479004 0.09792809933423996 -0.5421095490455627 119
-6.3288750648498535 0.1005263403058052 -0.3286193311214447 0
-6.316497802734375 0.10143246501684189 -0.10850608348846436 15
-6.219644546508789 0.10096297413110733 1.655362844467163 10
-6.35156774520874 0.10421332716941833 1.4565808773040771 15
-6.339638710021973 0.10512437671422958 1.2238937616348267 15
-6.338985443115234 0.10622021555900574 0.9969519376754761 15
-6.340009689331055 0.10734422504901886 0.7738702893257141 15
-6.338254451751709 0.10842105746269226 0.5512600541114807 15
-6.323678493499756 0.10927575081586838 0.32945483922958374 15
-6.311333179473877 0.11016427725553513 0.10951384902000427 15
-1.9456266164779663 0.03565932437777519 -0.5111678242683411 119
-2.259427070617676 0.041805118322372437 -0.5128887295722961 119
-2.663727045059204 0.04975075647234917 -0.5099561214447021 119
-3.2674100399017334 0.06159629300236702 -0.5115411281585693 119
nan nan nan 0
-6.2384114265441895 0.1197831779718399 -0.5425453186035156 119
-6.323493480682373 0.12252090126276016 -0.32835853099823 0
-6.331100940704346 0.12377370893955231 -0.10876525938510895 0
-6.330319881439209 0.12486369907855988 1.685107707977295 0
-6.346293926239014 0.12628686428070068 1.4554568529129028 15
-6.329418659210205 0.12705618143081665 1.2219873666763306 15
-6.338576316833496 0.1283467561006546 0.9969519376754761 15
-6.334634304046631 0.1293729990720749 0.7732609510421753 15
-6.357756614685059 0.13095532357692719 0.553003191947937 11
-6.328250408172607 0.1314525306224823 0.3297165036201477 0
-6.385882377624512 0.13376471400260925 0.11082277446985245 11
-1.9503188133239746 0.04255596920847893 -0.5124619007110596 119
-2.2592673301696777 0.049691732972860336 -0.5128887295722961 119
-2.658629894256592 0.05893980711698532 -0.5090028643608093 119
-3.2671751976013184 0.07300131022930145 -0.5115411281585693 119
-4.275338172912598 0.09627413004636765 -0.5203827023506165 119
-6.247914791107178 0.14178457856178284 -0.5434168577194214 119
-6.372945785522461 0.1457347869873047 -0.33096662163734436 11
-6.440584182739258 0.14840620756149292 -0.11066584289073944 11
-6.440901756286621 0.14953827857971191 1.7148524522781372 11
