# .PCD v0.7 - Point Cloud Data file format
VERSION 0.7
FIELDS x y z intensity
SIZE 4 4 4 4
TYPE F F F F
COUNT 1 1 1 1
WIDTH 778
HEIGHT 1
VIEWPOINT 0 0 0 1 0 0 0
POINTS 778
DATA ascii
-4.837556838989258 -2.3022167682647705 0.09284679591655731 110
-1.7578483819961548 -0.8346878886222839 -0.5111678242683411 119
-1.9931244850158691 -0.9459789395332336 -0.5005163550376892 119
-2.344973087310791 -1.1124722957611084 -0.49661147594451904 119
-2.8769679069519043 -1.3642394542694092 -0.49824416637420654 119
-4.87333345413208 -2.309861421585083 -0.657485842704773 110
-4.8285064697265625 -2.2875821590423584 -0.4641050398349762 110
-4.840667247772217 -2.292309045791626 -0.2777615785598755 110
-4.833345890045166 -2.287809371948242 -0.09174638986587524 110
-4.867589473724365 -2.302978515625 1.431630253791809 110
-4.861766338348389 -2.299185037612915 1.231799840927124 110
-4.85371732711792 -2.294342041015625 1.0351624488830566 110
-4.834728240966797 -2.2843334674835205 0.8399085998535156 110
-4.854116916656494 -2.2924582958221436 0.654438316822052 110
-4.849713325500488 -2.2893433570861816 0.4658474326133728 110
-4.848335266113281 -2.287658214569092 0.27895063161849976 110
-4.8319993019104 -2.278919219970703 0.0925850123167038 110
-1.7607511281967163 -0.8285467624664307 -0.5111678242683411 119
-1.9964144229888916 -0.9390158653259277 -0.5005163550376892 119
-2.348841905593872 -1.1042799949645996 -0.49661147594451904 119
-2.8772428035736084 -1.352088212966919 -0.4974619746208191 119
-4.858907699584961 -2.2822868824005127 -0.6544390916824341 110
-4.822935581207275 -2.2643630504608154 -0.46279770135879517 110
-4.835079193115234 -2.2690343856811523 -0.2769791781902313 110
-4.832249641418457 -2.2666776180267334 -0.09157360345125198 110
-4.862480163574219 -2.279822587966919 1.4277504682540894 110
-4.856527328491211 -2.2759978771209717 1.2284280061721802 110
-4.848362445831299 -2.271139144897461 1.032302975654602 110
-4.829254150390625 -2.2611606121063232 0.8375646471977234 110
-4.848604679107666 -2.2691893577575684 0.6526103019714355 110
-4.844139575958252 -2.266069173812866 0.46454012393951416 110
-4.842721939086914 -2.264375686645508 0.2781656086444855 110
-4.830866813659668 -2.2578048706054688 0.09241048991680145 110
-1.7636326551437378 -0.8223955631256104 -0.5111678242683411 119
-1.9996799230575562 -0.9320414066314697 -0.5005163550376892 119
-2.357131242752075 -1.098146915435791 -0.4975646436214447 119
-2.8864216804504395 -1.3441213369369507 -0.49824416637420654 119
-4.848847389221191 -2.2569351196289062 -0.6520017385482788 110
-4.817262172698975 -2.241210699081421 -0.4614903926849365 110
-4.829387664794922 -2.2458267211914062 -0.27619674801826477 110
-4.826532363891602 -2.2434744834899902 -0.09131443500518799 110
-4.8572678565979 -2.256730079650879 1.4238708019256592 110
-4.851186275482178 -2.252875328063965 1.2250564098358154 110
-4.842904567718506 -2.2480015754699707 1.029443383216858 110
-4.823678493499756 -2.238054037094116 0.8352207541465759 110
-4.842989921569824 -2.2459869384765625 0.6507822275161743 110
-4.842981815338135 -2.2449564933776855 0.4636685252189636 110
-4.837004661560059 -2.2411599159240723 0.2773805558681488 110
-4.825109004974365 -2.2346255779266357 0.09214869886636734 110
-1.7664926052093506 -0.816234290599823 -0.5111678242683411 119
-2.0073442459106445 -0.9270983338356018 -0.5016411542892456 119
-2.360950231552124 -1.0899124145507812 -0.4975646436214447 119
-2.8910961151123047 -1.3340375423431396 -0.49824416637420654 119
-4.838670253753662 -2.231682062149048 -0.6495643258094788 0
-4.811485767364502 -2.218125581741333 -0.4601830244064331 110
-4.823592185974121 -2.222686290740967 -0.27541428804397583 110
-4.820711612701416 -2.220338821411133 -0.09105526655912399 110
-4.851953983306885 -2.2337019443511963 1.41999089717865 110
-4.845743179321289 -2.2298178672790527 1.2216846942901611 110
-4.841803550720215 -2.2269811630249023 1.0275369882583618 110
-4.8224873542785645 -2.2170770168304443 0.8336581587791443 110
-4.8372721672058105 -2.222851514816284 0.6489542126655579 110
-4.837210178375244 -2.2218005657196045 0.462361216545105 110
-4.835722923278809 -2.220095634460449 0.2768571972846985 110
-4.819249153137207 -2.2115139961242676 0.09188691526651382 110
-1.7737222909927368 -0.8120735883712769 -0.5124619007110596 119
-2.0061380863189697 -0.9180583357810974 -0.5005163550376892 119
-2.3647401332855225 -1.0816644430160522 -0.4975646436214447 119
-2.895735263824463 -1.3239376544952393 -0.49824416637420654 119
-4.828375816345215 -2.2065274715423584 -0.6471269726753235 0
-4.805606842041016 -2.19510817527771 -0.4588756859302521 110
-4.817694664001465 -2.199613571166992 -0.27463188767433167 110
-4.814788818359375 -2.1972713470458984 -0.09079609811306 110
-4.846538543701172 -2.2107386589050293 1.4161112308502197 110
-4.840198040008545 -2.2068259716033936 1.2183129787445068 110
-4.836148262023926 -2.2039599418640137 1.0246773958206177 110
-4.816713809967041 -2.1940882205963135 0.8313141465187073 110
-4.831452369689941 -2.1997835636138916 0.6471261978149414 110
-4.831335067749023 -2.1987123489379883 0.46105387806892395 110
-4.829808235168457 -2.1969997882843018 0.2760721743106842 110
-4.813286304473877 -2.1884706020355225 0.09162513166666031 110
-1.7765462398529053 -0.8058772087097168 -0.5124619007110596 119
-2.0093305110931396 -0.9110500812530518 -0.5005163550376892 119
-2.372972249984741 -1.0754295587539673 -0.49851784110069275 119
-2.900338888168335 -1.3138216733932495 -0.49824416637420654 119
-4.817965030670166 -2.181471824645996 -0.6446895599365234 0
-4.804164409637451 -2.17421293258667 -0.4580041468143463 110
-4.8116960525512695 -2.176609516143799 -0.2738494575023651 110
-4.80876350402832 -2.174272298812866 -0.0905369222164154 110
-4.841022491455078 -2.187840461730957 1.4122314453125 110
-4.838991641998291 -2.185905694961548 1.2160651683807373 110
-4.8303914070129395 -2.1810057163238525 1.0218178033828735 110
-4.8108391761779785 -2.1711668968200684 0.8289702534675598 110
-4.825530052185059 -2.176783323287964 0.645298182964325 110
-4.825358867645264 -2.175692319869995 0.4597465693950653 110
-4.823790550231934 -2.1739723682403564 0.27528712153434753 110
-4.80722188949585 -2.1654958724975586 0.0913633406162262 110
-1.779348373413086 -0.7996709942817688 -0.5124619007110596 119
-2.012498378753662 -0.9040306806564331 -0.5005163550376892 119
-2.3767120838165283 -1.0671398639678955 -0.49851784110069275 119
-2.904907464981079 -1.3036894798278809 -0.49824416637420654 119
-4.811966419219971 -2.1585471630096436 -0.642861545085907 0
-4.798089504241943 -2.1513164043426514 -0.4566967785358429 110
-4.805594444274902 -2.1536741256713867 -0.27306702733039856 110
-4.807199478149414 -2.153385877609253 -0.09036415070295334 110
-4.835404872894287 -2.1650073528289795 1.4083516597747803 110
-4.833251476287842 -2.1630306243896484 1.212693452835083 110
-4.824533939361572 -2.158118724822998 1.0189582109451294 110
-4.8093719482421875 -2.150329113006592 0.8274076581001282 110
-4.8195061683654785 -2.15385103225708 0.6434701085090637 110
-4.81928014755249 -2.152740955352783 0.4584392011165619 110
-4.817672252655029 -2.1510140895843506 0.27450206875801086 110
-4.805621147155762 -2.144627809524536 0.09118881821632385 110
-1.782128930091858 -0.7934550642967224 -0.5124619007110596 119
-2.015641927719116 -0.8970001935958862 -0.5005163550376892 119
-2.380422353744507 -1.0588370561599731 -0.49851784110069275 119
-2.909440279006958 -1.2935415506362915 -0.49824416637420654 119
-4.805866241455078 -2.135690927505493 -0.6410334706306458 0
-4.7964653968811035 -2.1305108070373535 -0.45582523941993713 110
-4.803956031799316 -2.1328341960906982 -0.27254539728164673 110
-4.800978183746338 -2.1305088996887207 -0.09010497480630875 110
-4.829687595367432 -2.142240524291992 1.4044718742370605 110
-4.831864356994629 -2.1421968936920166 1.2104456424713135 110
-4.818575859069824 -2.1352992057800293 1.0160987377166748 110
-4.80330228805542 -2.127527952194214 0.8250637054443359 110
-4.813381671905518 -2.1309876441955566 0.6416420340538025 110
-4.813100814819336 -2.1298587322235107 0.45713186264038086 110
-4.8114519119262695 -2.128124952316284 0.2737170457839966 110
-4.799361228942871 -2.1217758655548096 0.09092703461647034 110
-1.7848877906799316 -0.7872294187545776 -0.5124619007110596 119
-2.0187606811523438 -0.8899588584899902 -0.5005163550376892 119
-2.3885953426361084 -1.0525004863739014 -0.4994710087776184 119
-2.91393780708313 -1.2833778858184814 -0.49824416637420654 119
-4.799665927886963 -2.1129038333892822 -0.6392053961753845 0
-4.790195465087891 -2.107736587524414 -0.4545178711414337 110
-4.797659397125244 -2.1100215911865234 -0.27176299691200256 110
-4.794655799865723 -2.1077020168304443 -0.08984580636024475 110
-4.82387113571167 -2.119540214538574 1.4005922079086304 110
-4.825930118560791 -2.1194403171539307 1.2070739269256592 110
-4.812517166137695 -2.1125476360321045 1.0132391452789307 110
-4.801654815673828 -2.1067800521850586 0.8235011100769043 110
-4.81170129776001 -2.1101865768432617 0.6404234170913696 110
-4.811381816864014 -2.1090452671051025 0.4562602937221527 110
-4.809704303741455 -2.107309341430664 0.27319368720054626 110
-4.793000221252441 -2.0989935398101807 0.09066524356603622 110
-1.7876248359680176 -0.780994176864624 -0.5124619007110596 119
-2.026319742202759 -0.8848564028739929 -0.5016411542892456 119
-2.3922548294067383 -1.0441561937332153 -0.4994710087776184 119
-2.922926425933838 -1.2751731872558594 -0.4990263283252716 119
-4.793365001678467 -2.09018611907959 -0.6373773813247681 0
-4.783825397491455 -2.0850324630737305 -0.4532105624675751 110
-4.795840263366699 -2.089273452758789 -0.27124136686325073 110
-4.792817115783691 -2.086961030960083 -0.08967302739620209 110
-4.822382926940918 -2.0988340377807617 1.3980056047439575 110
-4.819896697998047 -2.0967512130737305 1.2037022113800049 110
-4.810859203338623 -2.0918214321136475 1.0113327503204346 110
-4.79539155960083 -2.0841009616851807 0.8211572170257568 110
-4.805382251739502 -2.0874457359313965 0.6385953426361084 110
-4.805007457733154 -2.0862863063812256 0.4549529552459717 110
-4.803289413452148 -2.0845441818237305 0.2724086344242096 110
-4.791125297546387 -2.0782711505889893 0.09049072116613388 110
-1.7903400659561157 -0.7747495174407959 -0.5124619007110596 119
-2.0293962955474854 -0.8777778148651123 -0.5016411542892456 119
-2.3958849906921387 -1.0357993841171265 -0.4994710087776184 119
-2.9273598194122314 -1.2649625539779663 -0.4990263283252716 119
-4.782408237457275 -2.06557035446167 -0.6349400281906128 0
-4.777355670928955 -2.062398672103882 -0.45190322399139404 110
-4.7893500328063965 -2.0665853023529053 -0.2704589366912842 110
-4.7863006591796875 -2.0642786026000977 -0.0894138514995575 110
-4.816373825073242 -2.076251983642578 1.3941259384155273 110
-4.818236827850342 -2.0760579109191895 1.2014544010162354 110
-4.80460786819458 -2.0691914558410645 1.00847327709198 110
-4.793564796447754 -2.063443899154663 0.8195945620536804 110
-4.7989630699157715 -2.064774990081787 0.6367672681808472 110
-4.803109645843506 -2.065565347671509 0.4540814459323883 110
-4.801362037658691 -2.0638210773468018 0.2718852758407593 110
-4.784570693969727 -2.0556142330169678 0.09022893756628036 110
-1.7930335998535156 -0.7684953212738037 -0.5124619007110596 119
-2.036925792694092 -0.8726068735122681 -0.5027658939361572 119
-2.3994860649108887 -1.0274299383163452 -0.4994710087776184 119
-2.9317574501037598 -1.2547364234924316 -0.4990263283252716 119
-4.775900363922119 -2.043008327484131 -0.6331118941307068 0
-4.775365829467773 -2.0417935848236084 -0.4510316550731659 110
-4.787351131439209 -2.0459301471710205 -0.26993730664253235 110
-4.784282684326172 -2.0436313152313232 -0.08924107253551483 110
-4.810266017913818 -2.0537376403808594 1.3902461528778076 110
-4.812010765075684 -2.053489923477173 1.198082685470581 110
-4.798257350921631 -2.046630620956421 1.0056136846542358 110
-4.787109375 -2.0408880710601807 0.8172506093978882 110
-4.79701042175293 -2.0441200733184814 0.6355485916137695 110
-4.796542644500732 -2.042931318283081 0.4527740776538849 110
-4.794754505157471 -2.0411813259124756 0.271100252866745 110
-4.782516956329346 -2.0349855422973633 0.09005440771579742 110
-1.7957051992416382 -0.7622317671775818 -0.5124619007110596 119
-2.03995943069458 -0.8654913902282715 -0.5027658939361572 119
-2.407576560974121 -1.0209641456604004 -0.5004242062568665 119
-2.940666437149048 -1.246422290802002 -0.49980852007865906 119
-4.751016139984131 -2.0127737522125244 -0.6288465261459351 119
-4.768703460693359 -2.0192854404449463 -0.44972431659698486 110
-4.780669212341309 -2.0233683586120605 -0.2691548764705658 110
-4.77757453918457 -2.021075487136841 -0.08898190408945084 110
-4.808508396148682 -2.033172130584717 1.3876596689224243 110
-4.8056864738464355 -2.0309903621673584 1.1947109699249268 110
-4.791807174682617 -2.024138927459717 1.0027540922164917 110
-4.785104751586914 -2.0203237533569336 0.8156879544258118 110
-4.790399551391602 -2.0215742588043213 0.6337205767631531 110
-4.7944655418396 -2.0223042964935303 0.4519025385379791 110
-4.792648792266846 -2.020552635192871 0.2705768942832947 110
-4.77577018737793 -2.0124552249908447 0.08979262411594391 110
-1.798354983329773 -0.7559589147567749 -0.5124619007110596 119
-2.047459840774536 -0.8602524995803833 -0.5038906931877136 119
-2.411125659942627 -1.0125539302825928 -0.5004242062568665 119
-2.9449992179870605 -1.236149787902832 -0.49980852007865906 119
-4.7580132484436035 -1.9961774349212646 -0.6288465261459351 0
-4.766536235809326 -1.9987750053405762 -0.4488527774810791 110
-4.778493404388428 -2.0028083324432373 -0.26863327622413635 110
-4.7753777503967285 -2.0005228519439697 -0.08880912512540817 110
-4.802211284637451 -2.0107789039611816 1.3837798833847046 110
-4.7992634773254395 -2.0085599422454834 1.191339135169983 110
-4.789787769317627 -2.0036120414733887 1.0008476972579956 110
-4.778458595275879 -1.9978930950164795 0.8133440613746643 110
-4.788269519805908 -2.0010135173797607 0.6325019001960754 110
-4.787707328796387 -1.9997968673706055 0.4505952000617981 110
-4.785849094390869 -1.998039722442627 0.269791841506958 110
-4.768925666809082 -1.9899967908859253 0.0895308405160904 110
-1.8009828329086304 -0.7496768832206726 -0.5124619007110596 119
-2.054948091506958 -0.8549716472625732 -0.5050153732299805 119
-2.4146454334259033 -1.0041313171386719 -0.5004242062568665 119
-2.9447362422943115 -1.2239668369293213 -0.4990263283252716 119
-4.746620178222656 -1.9719406366348267 -0.626409113407135 119
-4.768884181976318 -1.980214238166809 -0.4484170079231262 110
-4.77161979675293 -1.9803738594055176 -0.2678508460521698 110
-4.768478870391846 -1.9780948162078857 -0.08854995667934418 110
-4.795816421508789 -1.988453984260559 1.3799002170562744 110
-4.79274320602417 -1.9861996173858643 1.1879675388336182 110
-4.783148288726807 -1.9812451601028442 0.9979881048202515 110
-4.776277542114258 -1.9774227142333984 0.8117814064025879 110
-4.781467914581299 -1.9785940647125244 0.6306738257408142 110
-4.785452842712402 -1.9792649745941162 0.44972363114356995 110
-4.783565998077393 -1.9775068759918213 0.2692684829235077 110
-4.7666015625 -1.9695197343826294 0.08935631811618805 110
-1.808053970336914 -0.7452262043952942 -0.5137560367584229 119
-2.057919979095459 -0.8477933406829834 -0.5050153732299805 119
-2.41813588142395 -0.995696485042572 -0.5004242062568665 119
-2.9489905834198 -1.213680386543274 -0.4990263283252716 119
-4.7626543045043945 -1.9591360092163086 -0.6276278495788574 0
-4.7665534019470215 -1.959767460823059 -0.4475454092025757 110
-4.769266605377197 -1.9599097967147827 -0.26732924580574036 110
-4.766105651855469 -1.9576387405395508 -0.08837717026472092 110
-4.7893242835998535 -1.9661985635757446 1.3760203123092651 110
-4.790632724761963 -1.9657589197158813 1.1857197284698486 110
-4.776411533355713 -1.9589494466781616 0.9951285719871521 110
-4.769443035125732 -1.955119013786316 0.8094375133514404 110
-4.779160976409912 -1.958128571510315 0.6294551491737366 110
-4.778504848480225 -1.9568856954574585 0.4484162926673889 110
-4.776576519012451 -1.9551225900650024 0.2684834599494934 110
-4.759566783905029 -1.947190523147583 0.08909453451633453 110
-1.810644268989563 -0.7389103770256042 -0.5137560367584229 119
-2.0608668327331543 -0.8406046628952026 -0.5050153732299805 119
-2.4215967655181885 -0.9872496128082275 -0.5004242062568665 119
-2.953209161758423 -1.2033790349960327 -0.4990263283252716 119
nan nan nan 0
-4.764138698577881 -1.9393612146377563 -0.4466738700866699 110
-4.762203693389893 -1.9376046657562256 -0.2665467858314514 110
-4.759017467498779 -1.935340404510498 -0.08811800181865692 110
-4.787209510803223 -1.9458314180374146 1.3734338283538818 110
-4.783923625946045 -1.9435229301452637 1.1823480129241943 110
-4.769577503204346 -1.9367247819900513 0.9922690391540527 110
-4.767086029052734 -1.9347442388534546 0.8078749179840088 110
-4.776769638061523 -1.937703251838684 0.6282364130020142 110
-4.776073455810547 -1.9364502429962158 0.44754472374916077 110
-4.774116039276123 -1.934686541557312 0.2679600715637207 110
-4.7570672035217285 -1.92681086063385 0.08892000466585159 110
-1.817690372467041 -0.7343947291374207 -0.5150501132011414 119
-2.063788414001465 -0.8334057927131653 -0.5050153732299805 119
-2.429579734802246 -0.980627715587616 -0.5013774037361145 119
-2.9528119564056396 -1.1912156343460083 -0.49824416637420654 119
nan nan nan 0
-4.76163911819458 -1.9189954996109009 -0.4458023011684418 110
-4.759675025939941 -1.917238473892212 -0.266025185585022 110
-4.756468772888184 -1.9149821996688843 -0.08794521540403366 110
-4.78053092956543 -1.9237000942230225 1.3695541620254517 110
-4.7816386222839355 -1.9231764078140259 1.1801002025604248 110
-4.767199993133545 -1.9164024591445923 0.9903625845909119 110
-4.760063171386719 -1.91256844997406 0.8055309057235718 110
-4.769688606262207 -1.9154691696166992 0.6264083981513977 110
-4.768936634063721 -1.914200782775879 0.4462374150753021 110
-4.76693868637085 -1.9124327898025513 0.2671750485897064 110
-4.749844074249268 -1.9046123027801514 0.08865822106599808 110
-1.8202428817749023 -0.7280453443527222 -0.5150501132011414 119
-2.0666849613189697 -0.8261967897415161 -0.5050153732299805 119
-2.432987928390503 -0.972140908241272 -0.5013774037361145 119
-2.9569520950317383 -1.180901050567627 -0.49824416637420654 119
-3.9117865562438965 -1.5614362955093384 -0.5124611854553223 119
-4.759056091308594 -1.898671269416809 -0.444930762052536 110
-4.752424240112305 -1.895064115524292 -0.2652427554130554 110
-4.749192714691162 -1.8928148746490479 -0.08768604695796967 110
-4.778242111206055 -1.903426170349121 1.3669675588607788 110
-4.77474308013916 -1.901066780090332 1.176728367805481 110
-4.760179042816162 -1.89430570602417 0.9875030517578125 110
-4.757532119750977 -1.8922905921936035 0.8039683699607849 110
-4.767122745513916 -1.8951414823532104 0.6251897215843201 110
-4.766331672668457 -1.8938639163970947 0.4453658163547516 110
-4.759663105010986 -1.8902523517608643 0.26638999581336975 110
-4.7471699714660645 -1.8843315839767456 0.08848369121551514 110
-1.8227732181549072 -0.7216870784759521 -0.5150501132011414 119
-2.06955623626709 -0.8189776539802551 -0.5050153732299805 119
-2.436366558074951 -0.9636422395706177 -0.5013774037361145 119
-2.9610562324523926 -1.1705721616744995 -0.49824416637420654 119
-3.917212963104248 -1.5477720499038696 -0.5124611854553223 119
-4.756389141082764 -1.8783882856369019 -0.44405919313430786 110
-4.749721527099609 -1.8747968673706055 -0.2647211253643036 110
-4.7464704513549805 -1.872556209564209 -0.0875132754445076 110
-4.771378040313721 -1.881420373916626 1.3630878925323486 110
-4.772284507751465 -1.8808153867721558 1.174480676651001 110
-4.75762939453125 -1.8740804195404053 0.9855967164039612 110
-4.750323295593262 -1.8702447414398193 0.8016244173049927 110
-4.759854793548584 -1.8730379343032837 0.6233616471290588 110
-4.759007930755615 -1.8717454671859741 0.44405850768089294 110
-4.756938457489014 -1.8699729442596436 0.26586663722991943 110
-4.744412899017334 -1.8640930652618408 0.08830916881561279 110
-1.820784568786621 -0.7135578393936157 -0.5137560367584229 119
-2.067866325378418 -0.809971809387207 -0.5038906931877136 119
-2.4397153854370117 -0.9551318883895874 -0.5013774037361145 119
-2.9651241302490234 -1.1602290868759155 -0.49824416637420654 119
-3.8902390003204346 -1.5214362144470215 -0.5081957578659058 119
-4.74899959564209 -1.8563339710235596 -0.44275185465812683 110
-4.742284297943115 -1.852754831314087 -0.2639387249946594 110
-4.743663787841797 -1.8523396253585815 -0.08734048902988434 110
-4.768917083740234 -1.8612415790557861 1.3605012893676758 110
-4.765203952789307 -1.858833909034729 1.1711089611053467 110
-4.750422954559326 -1.852112889289856 0.982737123966217 110
-4.747619152069092 -1.8500651121139526 0.8000617623329163 110
-4.757114887237549 -1.8528093099594116 0.6221429705619812 110
-4.756228923797607 -1.8515081405639648 0.4431869685649872 110
-4.749477386474609 -1.8479253053665161 0.26508161425590515 110
-4.74157190322876 -1.843896746635437 0.08813464641571045 110
-1.8142585754394531 -0.7037046551704407 -0.5111678242683411 119
-2.070681095123291 -0.8027487397193909 -0.5038906931877136 119
-2.4430346488952637 -0.9466098546981812 -0.5013774037361145 119
-2.96915602684021 -1.149871826171875 -0.49824416637420654 119
-3.9279229640960693 -1.5203872919082642 -0.5124611854553223 119
-4.746159553527832 -1.8361510038375854 -0.4418802857398987 110
-4.739408016204834 -1.8325880765914917 -0.2634170949459076 110
-4.740775108337402 -1.8321655988693237 -0.08716771006584167 110
-4.766374588012695 -1.8411030769348145 1.357914924621582 110
-4.7625732421875 -1.8386794328689575 1.1688611507415771 110
-4.7477006912231445 -1.8319854736328125 0.9808307886123657 110
-4.740224838256836 -1.8281505107879639 0.7977178692817688 110
-4.749661445617676 -1.830837607383728 0.62031489610672 110
-4.753366947174072 -1.831313133239746 0.44231539964675903 110
-4.746578693389893 -1.8277467489242554 0.26455825567245483 110
-4.738647937774658 -1.8237431049346924 0.0879601240158081 110
-1.8031773567199707 -0.6921750903129578 -0.5072855353355408 119
-2.0734705924987793 -0.795515775680542 -0.5038906931877136 119
-2.446324110031128 -0.9380763173103333 -0.5013774037361145 119
-2.9777631759643555 -1.1412677764892578 -0.4990263283252716 119
-3.9193031787872314 -1.5013412237167358 -0.510633111000061 119
-4.743236541748047 -1.816010594367981 -0.4410087466239929 110
-4.736449718475342 -1.8124644756317139 -0.26289546489715576 110
-4.733133316040039 -1.8102482557296753 -0.08690853416919708 110
-4.763749599456787 -1.821004867553711 1.3553283214569092 110
-4.759860515594482 -1.8185663223266602 1.1666133403778076 110
-4.744895935058594 -1.8118997812271118 0.9789243340492249 110
-4.7327351570129395 -1.8063099384307861 0.7953738570213318 110
-4.7467498779296875 -1.8107095956802368 0.6190962195396423 110
-4.750422477722168 -1.811160683631897 0.44144386053085327 110
-4.743598461151123 -1.8076109886169434 0.2640348970890045 110
-4.7309699058532715 -1.801853060722351 0.08769834041595459 110
-1.7965528964996338 -0.6824465394020081 -0.504697322845459 119
-2.08078932762146 -0.7900023460388184 -0.5050153732299805 119
-2.4495835304260254 -0.9295313358306885 -0.5013774037361145 119
-2.9863460063934326 -1.1326178312301636 -0.49980852007865906 119
-3.938441276550293 -1.492928385734558 -0.5124611854553223 119
-4.740231037139893 -1.7959131002426147 -0.4401371479034424 110
-4.733407974243164 -1.7923835515975952 -0.26237383484840393 110
-4.730072021484375 -1.790176510810852 -0.08673576265573502 110
-4.756524562835693 -1.799238681793213 1.3514485359191895 110
-4.75250768661499 -1.7967712879180908 1.1632416248321533 110
-4.737417221069336 -1.7901211977005005 0.9760648012161255 110
-4.729772090911865 -1.7862889766693115 0.7938113212585449 110
-4.739112854003906 -1.7888716459274292 0.6172682046890259 110
-4.747394561767578 -1.7910511493682861 0.44057226181030273 110
-4.735863208770752 -1.7857565879821777 0.26324984431266785 110
-4.727874279022217 -1.7818018198013306 0.08752381056547165 110
-1.8079657554626465 -0.6795697808265686 -0.5072855353355408 119
-2.0835342407226562 -0.782734215259552 -0.5050153732299805 119
-2.4528133869171143 -0.9209750294685364 -0.5013774037361145 119
-2.990281581878662 -1.122186541557312 -0.49980852007865906 119
-3.957568407058716 -1.4843999147415161 -0.5142892003059387 119
-4.732479095458984 -1.7741105556488037 -0.43882983922958374 110
-4.730284690856934 -1.7723462581634521 -0.2618522346019745 110
-4.7269287109375 -1.7701481580734253 -0.08656297624111176 110
-4.753728866577148 -1.7792383432388306 1.3488620519638062 110
-4.749623775482178 -1.7767568826675415 1.1609938144683838 110
-4.734442234039307 -1.770135760307312 0.9741584062576294 110
-4.722100257873535 -1.7645819187164307 0.7914673686027527 110
-4.736030101776123 -1.7688453197479248 0.6160494685173035 110
-4.73961877822876 -1.7692431211471558 0.4392649531364441 110
-4.7327117919921875 -1.7657238245010376 0.26272648572921753 110
-4.724697589874268 -1.7617944478988647 0.0873492956161499 110
-1.814853549003601 -0.6749381422996521 -0.5085796117782593 119
-2.090820550918579 -0.7771540284156799 -0.5061401724815369 119
-2.4560132026672363 -0.9124075174331665 -0.5013774037361145 119
-2.99418044090271 -1.1117416620254517 -0.49980852007865906 119
-3.948767900466919 -1.465396761894226 -0.5124611854553223 119
-4.729302883148193 -1.7541160583496094 -0.437958300113678 110
-4.727077960968018 -1.752352237701416 -0.26133060455322266 110
-4.719015598297119 -1.7484266757965088 -0.08630380779504776 110
-4.7463226318359375 -1.7576022148132324 1.3449822664260864 110
-4.742089748382568 -1.7550935745239258 1.1576220989227295 110
-4.731385231018066 -1.7501929998397827 0.9722520709037781 110
-4.718966484069824 -1.7446627616882324 0.7899047136306763 110
-4.72821044921875 -1.7471424341201782 0.614221453666687 110
-4.736419677734375 -1.7492364645004272 0.43839338421821594 110
-4.729477882385254 -1.7457345724105835 0.2622031271457672 110
-4.716747283935547 -1.7401001453399658 0.08708749711513519 110
-1.826263666152954 -0.6719343066215515 -0.5111678242683411 119
-2.0935206413269043 -0.7698509693145752 -0.5061401724815369 119
-2.4591832160949707 -0.9038289189338684 -0.5013774037361145 119
-2.9934074878692627 -1.0995805263519287 -0.4990263283252716 119
nan nan nan 0
-4.721368312835693 -1.7324492931365967 -0.43665093183517456 110
-4.723791122436523 -1.7324028015136719 -0.2608090043067932 110
-4.715702056884766 -1.7285023927688599 -0.0861310213804245 110
-4.743359088897705 -1.7377009391784668 1.3423959016799927 110
-4.739037036895752 -1.7351795434951782 1.15537428855896 110
-4.72363805770874 -1.7286063432693481 0.9693925380706787 110
-4.715751647949219 -1.7247871160507202 0.7883421778678894 110
-4.7249579429626465 -1.7272194623947144 0.6130027770996094 110
-4.733139991760254 -1.729274034500122 0.4375218451023102 110
-4.726162433624268 -1.7257896661758423 0.2616797685623169 110
-4.713400363922119 -1.7201974391937256 0.08691298216581345 110
-1.8285980224609375 -0.6655554175376892 -0.5111678242683411 119
-2.0961952209472656 -0.762538492679596 -0.5061401724815369 119
-2.4623231887817383 -0.8952392935752869 -0.5013774037361145 119
-2.997227430343628 -1.0891249179840088 -0.4990263283252716 119
-4.0102128982543945 -1.4564285278320312 -0.519163966178894 119
-4.718023300170898 -1.7125591039657593 -0.4357793927192688 110
-4.71572732925415 -1.710794448852539 -0.26002657413482666 110
-4.712306976318359 -1.708622932434082 -0.08595824986696243 110
-4.735773086547852 -1.7161961793899536 1.3385159969329834 110
-4.731322765350342 -1.7136492729187012 1.1520025730133057 110
-4.720412731170654 -1.7087657451629639 0.9674860835075378 110
-4.7124552726745605 -1.7049552202224731 0.786779522895813 110
-4.721624374389648 -1.7073405981063843 0.6117841005325317 110
-4.725094795227051 -1.7076630592346191 0.43621450662612915 110
-4.7227654457092285 -1.7058892250061035 0.2611564099788666 110
-4.709971904754639 -1.7003389596939087 0.0867384523153305 110
-1.8354542255401611 -0.660804271697998 -0.5124619007110596 119
-2.098844289779663 -0.7552167773246765 -0.5061401724815369 119
-2.46543288230896 -0.8866387009620667 -0.5013774037361145 119
-2.996363639831543 -1.0769855976104736 -0.49824416637420654 119
-3.9825785160064697 -1.430676817893982 -0.5148985385894775 119
-4.714596271514893 -1.6927134990692139 -0.43490782380104065 110
-4.712271213531494 -1.6909500360488892 -0.25950494408607483 110
-4.708830833435059 -1.6887880563735962 -0.08578546345233917 110
-4.732641696929932 -1.6963953971862793 1.3359296321868896 110
-4.728102207183838 -1.69383704662323 1.1497547626495361 110
-4.7124857902526855 -1.687314510345459 0.9646265506744385 110
-4.709078788757324 -1.6851674318313599 0.7852169275283813 110
-4.718209743499756 -1.6875059604644775 0.6105653643608093 110
-4.721645832061768 -1.6878057718276978 0.435342937707901 110
-4.719287395477295 -1.6860337257385254 0.26063305139541626 110
-4.706462383270264 -1.680525541305542 0.08656392991542816 110
-1.8331998586654663 -0.6527732610702515 -0.5111678242683411 119
-2.1014676094055176 -0.7478858828544617 -0.5061401724815369 119
-2.468513011932373 -0.8780272603034973 -0.5013774037361145 119
-3.0001049041748047 -1.0665197372436523 -0.49824416637420654 119
nan nan nan 0
-4.71108865737915 -1.67291259765625 -0.4340362846851349 110
-4.708733558654785 -1.6711509227752686 -0.258983314037323 110
-4.7052741050720215 -1.66899836063385 -0.08561268448829651 110
-4.729430198669434 -1.6766375303268433 1.3333430290222168 110
-4.724801540374756 -1.6740684509277344 1.1475069522857666 110
-4.70909309387207 -1.6675776243209839 0.9627201557159424 110
-4.705620765686035 -1.66542387008667 0.7836542725563049 110
-4.714714050292969 -1.667716383934021 0.6093466877937317 110
-4.718116283416748 -1.667993187904358 0.43447136878967285 110
-4.715727806091309 -1.6662230491638184 0.26010969281196594 110
-4.698157787322998 -1.6590925455093384 0.08630213886499405 110
-1.8354673385620117 -0.6463701725006104 -0.5111678242683411 119
-2.104065418243408 -0.7405458092689514 -0.5061401724815369 119
-2.4715628623962402 -0.8694052696228027 -0.5013774037361145 119
-3.0038094520568848 -1.0560410022735596 -0.49824416637420654 119
nan nan nan 0
-4.707500457763672 -1.6531568765640259 -0.43316468596458435 110
-4.700404167175293 -1.6497433185577393 -0.25820091366767883 110
-4.701635837554932 -1.6492540836334229 -0.08543989807367325 110
-4.726138114929199 -1.6569225788116455 1.3307565450668335 110
-4.7214202880859375 -1.6543433666229248 1.145259141921997 110
-4.705620288848877 -1.6478852033615112 0.9608138203620911 110
-4.702083587646484 -1.6457252502441406 0.7820916771888733 110
-4.7111382484436035 -1.647971510887146 0.6081279516220093 110
-4.709804058074951 -1.6465822458267212 0.4331640303134918 110
-4.712087631225586 -1.6464577913284302 0.2595863342285156 110
-4.694480895996094 -1.6393864154815674 0.0861276239156723 110
-1.8377124071121216 -0.6399593353271484 -0.5111678242683411 119
-2.106637716293335 -0.7331967353820801 -0.5061401724815369 119
-2.4745826721191406 -0.8607726097106934 -0.5013774037361145 119
-3.007477283477783 -1.0455492734909058 -0.49824416637420654 119
nan nan nan 0
-4.703831672668457 -1.633446455001831 -0.4322931468486786 110
-4.696700096130371 -1.6300514936447144 -0.2576793134212494 110
-4.69791841506958 -1.6295557022094727 -0.08526712656021118 110
-4.722765922546387 -1.6372511386871338 1.3281700611114502 110
-4.717959403991699 -1.6346626281738281 1.1430113315582275 110
-4.7020673751831055 -1.6282371282577515 0.9589073657989502 110
-4.698465347290039 -1.626071572303772 0.7805290222167969 110
-4.707481861114502 -1.6282719373703003 0.6069093346595764 110
-4.706108093261719 -1.6268773078918457 0.43229249119758606 110
-4.703647613525391 -1.625107765197754 0.25880128145217896 110
-4.690723896026611 -1.6197261810302734 0.08595309406518936 110
-1.839935064315796 -0.6335405707359314 -0.5111678242683411 119
-2.1091840267181396 -0.7258387207984924 -0.5061401724815369 119
-2.477572202682495 -0.8521293997764587 -0.5013774037361145 119
-3.011108636856079 -1.03504478931427 -0.49824416637420654 119
nan nan nan 0
-4.700082778930664 -1.6137820482254028 -0.43142157793045044 110
-4.692915439605713 -1.610405683517456 -0.25715768337249756 110
-4.689391613006592 -1.6082814931869507 -0.08500795811414719 110
-4.719315052032471 -1.6176236867904663 1.325583577156067 110
-4.714417934417725 -1.6150256395339966 1.140763521194458 110
-4.698435306549072 -1.608634352684021 0.9570010900497437 110
-4.694766998291016 -1.6064629554748535 0.7789663672447205 110
-4.703745365142822 -1.608618140220642 0.605690598487854 110
-4.70233154296875 -1.6072181463241577 0.4314209222793579 110
-4.6998419761657715 -1.6054511070251465 0.25827792286872864 110
-4.686886787414551 -1.6001123189926147 0.08577857166528702 110
-1.8421353101730347 -0.6271141171455383 -0.5111678242683411 119
-2.1117048263549805 -0.718471884727478 -0.5061401724815369 119
-2.4805314540863037 -0.843475878238678 -0.5013774037361145 119
-3.0147032737731934 -1.0245277881622314 -0.49824416637420654 119
nan nan nan 0
-4.696254253387451 -1.5941638946533203 -0.4305500388145447 110
-4.689051151275635 -1.5908061265945435 -0.2566360533237457 110
-4.685507297515869 -1.58869206905365 -0.08483517169952393 110
-4.715783596038818 -1.598039984703064 1.322996973991394 110
-4.710798263549805 -1.5954339504241943 1.1385157108306885 110
-4.694723606109619 -1.5890766382217407 0.9550946354866028 110
-4.690990447998047 -1.5869003534317017 0.7774037718772888 110
-4.699929237365723 -1.5890103578567505 0.6044719219207764 110
-4.6984758377075195 -1.5876052379608154 0.43054938316345215 110
-4.695955753326416 -1.5858405828475952 0.2577545642852783 110
-4.68297004699707 -1.5805448293685913 0.08560404926538467 110
-1.844313144683838 -0.620680034160614 -0.5111678242683411 119
-2.1141998767852783 -0.7110962867736816 -0.5061401724815369 119
-2.4788081645965576 -0.8332481384277344 -0.5004242062568665 119
-3.018261194229126 -1.01399827003479 -0.49824416637420654 119
nan nan nan 0
-4.69234561920166 -1.574591875076294 -0.42967846989631653 110
-4.685107707977295 -1.5712532997131348 -0.2561144232749939 110
-4.681544780731201 -1.569149374961853 -0.08466240018606186 110
-4.712173938751221 -1.5785008668899536 1.3204106092453003 110
-4.707098484039307 -1.5758869647979736 1.136267900466919 110
-4.690932273864746 -1.5695644617080688 0.9531883001327515 110
-4.682449817657471 -1.5658175945281982 0.7750598788261414 110
-4.696033477783203 -1.569448471069336 0.603253185749054 110
-4.694539546966553 -1.5680385828018188 0.429677814245224 110
-4.691990852355957 -1.566277027130127 0.257231205701828 110
-4.678974628448486 -1.5610244274139404 0.08542952686548233 110
-1.846468448638916 -0.614238440990448 -0.5111678242683411 119
-2.1166694164276123 -0.703711986541748 -0.5061401724815369 119
-2.481701612472534 -0.8245904445648193 -0.5004242062568665 119
-3.021782398223877 -1.003456473350525 -0.49824416637420654 119
-4.054025173187256 -1.3454523086547852 -0.5197733044624329 119
-4.688358306884766 -1.555066704750061 -0.42880693078041077 110
-4.681084632873535 -1.551747441291809 -0.25559282302856445 110
-4.677502155303955 -1.5496537685394287 -0.0844896137714386 110
-4.703899383544922 -1.5574880838394165 1.316530704498291 110
-4.703319549560547 -1.5563853979110718 1.1340200901031494 110
-4.687062740325928 -1.5500980615615845 0.9512819051742554 110
-4.678508758544922 -1.546363353729248 0.7734972238540649 110
-4.687346458435059 -1.5483771562576294 0.6014251708984375 110
-4.690525054931641 -1.5485191345214844 0.42880627512931824 110
-4.68794584274292 -1.5467602014541626 0.2567078471183777 110
-4.674899578094482 -1.5415509939193726 0.08525499701499939 110
-1.8486013412475586 -0.6077893376350403 -0.5111678242683411 119
-2.1237409114837646 -0.6978399157524109 -0.5072649121284485 119
-2.4892282485961914 -0.8174540400505066 -0.5013774037361145 119
-3.025266647338867 -0.9929022789001465 -0.49824416637420654 119
-4.053981304168701 -1.329746127128601 -0.519163966178894 119
-4.684291362762451 -1.5355885028839111 -0.4279353618621826 110
-4.676982879638672 -1.532288670539856 -0.2550711929798126 110
-4.673381328582764 -1.5302056074142456 -0.08431683480739594 110
-4.700127124786377 -1.5380549430847168 1.3139442205429077 110
-4.699462413787842 -1.5369293689727783 1.1317722797393799 110
-4.6831135749816895 -1.5306779146194458 0.949375569820404 110
-4.674489498138428 -1.5269559621810913 0.7719346284866333 110
-4.683287143707275 -1.5289252996444702 0.6002064943313599 110
-4.686430931091309 -1.529046654701233 0.4279347062110901 110
-4.683822154998779 -1.527290940284729 0.25618448853492737 110
-4.670745849609375 -1.5221251249313354 0.08508047461509705 110
-1.8507115840911865 -0.6013327836990356 -0.5111678242683411 119
-2.130797863006592 -0.6919271945953369 -0.5083897113800049 119
-2.4920663833618164 -0.8087600469589233 -0.5013774037361145 119
-3.0334115028381348 -0.983859658241272 -0.4990263283252716 119
-4.04915714263916 -1.3125265836715698 -0.5179452896118164 119
-4.680145740509033 -1.516157865524292 -0.42706382274627686 110
-4.672802448272705 -1.5128778219223022 -0.2545495927333832 110
-4.669180870056152 -1.5108050107955933 -0.08414404839277267 110
-4.696276664733887 -1.5186667442321777 1.3113577365875244 110
-4.695527076721191 -1.5175193548202515 1.1295244693756104 110
-4.679087162017822 -1.511304259300232 0.947469174861908 110
-4.670391082763672 -1.5075955390930176 0.7703719735145569 110
-4.679149627685547 -1.5095208883285522 0.5989878177642822 110
-4.682258605957031 -1.5096218585968018 0.4270631670951843 110
-4.679620265960693 -1.5078693628311157 0.25566112995147705 110
-4.666512966156006 -1.5027470588684082 0.0849059522151947 110
-1.852799415588379 -0.5948688983917236 -0.5111678242683411 119
-2.137838840484619 -0.6859735250473022 -0.5095144510269165 119
-2.4995481967926025 -0.8015550374984741 -0.5023306012153625 119
-3.036827325820923 -0.9732651114463806 -0.4990263283252716 119
-4.10097599029541 -1.3135221004486084 -0.5240387320518494 11
-4.675922393798828 -1.496774673461914 -0.4261922240257263 110
-4.668542861938477 -1.4935144186019897 -0.25402796268463135 110
-4.664902210235596 -1.4914524555206299 -0.08397126942873001 110
-4.692347526550293 -1.4993243217468262 1.3087712526321411 110
-4.6915130615234375 -1.4981553554534912 1.1272766590118408 110
-4.67498254776001 -1.491977572441101 0.9455628395080566 110
-4.666215419769287 -1.488282322883606 0.7688093781471252 110
-4.674933910369873 -1.4901641607284546 0.5977690815925598 110
-4.678008079528809 -1.4902446269989014 0.4261915683746338 110
-4.675339221954346 -1.488495945930481 0.25513777136802673 110
-4.66220235824585 -1.483417272567749 0.08473142981529236 110
-1.854864478111267 -0.5883978605270386 -0.5111678242683411 119
-2.1402204036712646 -0.6785069108009338 -0.5095144510269165 119
-2.507009983062744 -0.7943075895309448 -0.5032837390899658 119
-3.04020619392395 -0.962658703327179 -0.4990263283252716 119
-4.077147006988525 -1.2902154922485352 -0.5203827023506165 119
-4.6716203689575195 -1.4774398803710938 -0.42532068490982056 110
-4.664205551147461 -1.4741994142532349 -0.2535063326358795 110
-4.66054630279541 -1.4721481800079346 -0.08379849046468735 110
-4.688340663909912 -1.4800279140472412 1.3061846494674683 110
-4.687421798706055 -1.4788380861282349 1.1250288486480713 110
-4.670799255371094 -1.4726976156234741 0.9436563849449158 110
-4.661961078643799 -1.4690165519714355 0.7672467231750488 110
-4.670639991760254 -1.4708551168441772 0.5965504050254822 110
-4.673678874969482 -1.4709155559539795 0.425320029258728 110
-4.670979976654053 -1.4691704511642456 0.2546144127845764 110
-4.657814025878906 -1.4641358852386475 0.08455689996480942 110
-1.8522984981536865 -0.5804753303527832 -0.5098737478256226 119
-2.1472249031066895 -0.6724880933761597 -0.5106391906738281 119
-2.514451742172241 -0.787017822265625 -0.5042369961738586 119
-3.043548107147217 -0.9520404934883118 -0.4990263283252716 119
-4.0579423904418945 -1.2685719728469849 -0.5173359513282776 119
-4.667240142822266 -1.4581530094146729 -0.4244491159915924 110
-4.659790515899658 -1.4549329280853271 -0.2529847323894501 110
-4.656111717224121 -1.452892541885376 -0.08362570405006409 110
-4.684256553649902 -1.460777759552002 1.3035982847213745 110
-4.683252334594727 -1.459567666053772 1.1227810382843018 110
-4.666539192199707 -1.453465461730957 0.9417500495910645 110
-4.65762996673584 -1.449798822402954 0.765684187412262 110
-4.6662678718566895 -1.451594352722168 0.5953316688537598 110
-4.669271945953369 -1.4516348838806152 0.4244484603404999 110
-4.666543960571289 -1.4498937129974365 0.2540910542011261 110
-4.653347969055176 -1.4449031352996826 0.08438238501548767 110
-1.8543134927749634 -0.5740060806274414 -0.5098737478256226 119
-2.149559497833252 -0.6649888157844543 -0.5106391906738281 119
-2.517183542251587 -0.778235912322998 -0.5042369961738586 119
-3.0468528270721436 -0.9414107799530029 -0.4990263283252716 119
-4.0576043128967285 -1.2529350519180298 -0.516726553440094 119
-4.662782192230225 -1.4389148950576782 -0.42357754707336426 110
-4.655298233032227 -1.4357154369354248 -0.25246310234069824 110
-4.651599884033203 -1.4336857795715332 -0.08345293253660202 110
-4.680095672607422 -1.4415740966796875 1.3010116815567017 110
-4.6790056228637695 -1.4403443336486816 1.1205331087112427 110
-4.662201881408691 -1.4342808723449707 0.9398436546325684 110
-4.657941818237305 -1.432080626487732 0.7649028301239014 110
-4.6618194580078125 -1.4323821067810059 0.5941130518913269 110
-4.669548988342285 -1.4338651895523071 0.424012690782547 110
-4.66202974319458 -1.4306658506393433 0.2535676956176758 110
-4.6488037109375 -1.4257194995880127 0.08420785516500473 110
-1.8516871929168701 -0.5661177635192871 -0.5085796117782593 119
-2.151867389678955 -0.6574814319610596 -0.5106391906738281 119
-2.524578809738159 -0.7708778977394104 -0.5051901340484619 119
-3.0501201152801514 -0.9307695627212524 -0.4990263283252716 119
-4.137903213500977 -1.2619260549545288 -0.5264761447906494 11
-4.658247947692871 -1.419725775718689 -0.4227060079574585 110
-4.650728225708008 -1.4165468215942383 -0.2519415020942688 110
-4.647010803222656 -1.4145283699035645 -0.08328014612197876 110
-4.6758575439453125 -1.4224175214767456 1.298425316810608 110
-4.674682140350342 -1.421168565750122 1.1182854175567627 110
-4.657787322998047 -1.4151443243026733 0.937937319278717 110
-4.65346097946167 -1.41294264793396 0.763340175151825 110
-4.657292366027832 -1.4132184982299805 0.5928943157196045 110
-4.664992332458496 -1.4146658182144165 0.42314115166664124 110
-4.657438278198242 -1.411487340927124 0.25304433703422546 110
-4.644183158874512 -1.4065852165222168 0.08403333276510239 110
-1.8491259813308716 -0.5579320192337036 -0.5072855353355408 119
-2.1542627811431885 -0.6495899558067322 -0.5106391906738281 119
-2.5320870876312256 -0.7630359530448914 -0.50614333152771 119
-3.053511142730713 -0.9195840358734131 -0.4990263283252716 119
-4.132996559143066 -1.2438911199569702 -0.5252574682235718 11
-4.6538801193237305 -1.3997734785079956 -0.42183440923690796 110
-4.64632511138916 -1.3966169357299805 -0.25141987204551697 110
-4.6425886154174805 -1.3946101665496826 -0.0831073671579361 110
-4.671787738800049 -1.4024925231933594 1.295838713645935 110
-4.670526504516602 -1.4012254476547241 1.1160376071929932 110
-4.653539657592773 -1.3952438831329346 0.936030924320221 110
-4.649147033691406 -1.3930425643920898 0.7617775797843933 110
-4.652932643890381 -1.39329195022583 0.5916756391525269 110
-4.66060209274292 -1.3947021961212158 0.4222695529460907 110
-4.653012275695801 -1.3915461301803589 0.25252097845077515 110
-4.644517421722412 -1.38812255859375 0.08394607156515121 110
-1.8695766925811768 -0.556989848613739 -0.5124619007110596 119
-2.156517267227173 -0.6420662999153137 -0.5106391906738281 119
-2.5347352027893066 -0.7541927099227905 -0.50614333152771 119
-3.0567026138305664 -0.9089196920394897 -0.4990263283252716 119
nan nan nan 0
-4.653963565826416 -1.3821020126342773 -0.42139866948127747 110
-4.641598224639893 -1.377548336982727 -0.2508982717990875 110
-4.637842655181885 -1.375553011894226 -0.08293458819389343 110
-4.667393684387207 -1.3834314346313477 1.2932522296905518 110
-4.666046619415283 -1.3821463584899902 1.1137897968292236 110
-4.648968696594238 -1.3762049674987793 0.9341245889663696 110
-4.644510269165039 -1.3740036487579346 0.7602149248123169 110
-4.648249626159668 -1.37422776222229 0.5904569029808044 110
-4.655888557434082 -1.3756024837493896 0.42139801383018494 110
-4.648264408111572 -1.3724677562713623 0.25199761986732483 110
-4.63974666595459 -1.3690654039382935 0.08377154171466827 110
-1.880776286125183 -0.5531859993934631 -0.5150501132011414 119
-2.16809344291687 -0.6372825503349304 -0.5128887295722961 119
-2.5373523235321045 -0.7453402280807495 -0.50614333152771 119
-3.059856653213501 -0.8982442617416382 -0.4990263283252716 119
nan nan nan 0
-4.649199485778809 -1.363045573234558 -0.4205271005630493 110
-4.641587257385254 -1.3599339723587036 -0.2506374418735504 110
-4.633020401000977 -1.3565459251403809 -0.08276180922985077 110
-4.662923336029053 -1.3644180297851562 1.2906657457351685 110
-4.661489963531494 -1.3631153106689453 1.111541986465454 110
-4.644321441650391 -1.357215166091919 0.9322181344032288 110
-4.639796733856201 -1.3550139665603638 0.7586523294448853 110
-4.64825439453125 -1.3566035032272339 0.5898475646972656 110
-4.651098251342773 -1.3565527200698853 0.4205264449119568 110
-4.643438816070557 -1.353439450263977 0.2514742612838745 110
-4.6348958015441895 -1.350071668624878 0.08359701931476593 110
nan nan nan 0
-2.170304775238037 -0.6297105550765991 -0.5128887295722961 119
-2.5399386882781982 -0.7364786267280579 -0.50614333152771 119
-3.0629734992980957 -0.8875579237937927 -0.4990263283252716 119
-4.088593482971191 -1.1839783191680908 -0.5179452896118164 119
-4.644360065460205 -1.3440390825271606 -0.41965556144714355 0
-4.636712551116943 -1.3409489393234253 -0.25011584162712097 110
-4.632924556732178 -1.3389772176742554 -0.08267541974782944 110
-4.658377170562744 -1.3454525470733643 1.2880792617797852 110
-4.656857967376709 -1.3441333770751953 1.1092941761016846 110
-4.639599323272705 -1.3382747173309326 0.9303117990493774 110
-4.6397528648376465 -1.3374419212341309 0.7578710317611694 110
-4.643424034118652 -1.3376222848892212 0.588628888130188 110
-4.646232604980469 -1.3375532627105713 0.419654905796051 110
-4.643336296081543 -1.3358420133590698 0.25121256709098816 110
-4.629970550537109 -1.3311219215393066 0.08342249691486359 110
nan nan nan 0
nan nan nan 0
-2.542494058609009 -0.7276080846786499 -0.50614333152771 119
-3.061304807662964 -0.8755028247833252 -0.49824416637420654 119
-4.097472667694092 -1.1710628271102905 -0.5185546875 119
-4.639444351196289 -1.3250832557678223 -0.4187839925289154 0
-4.6317620277404785 -1.3220149278640747 -0.24959421157836914 110
-4.627955436706543 -1.3200547695159912 -0.08250264078378677 110
-4.6537556648254395 -1.3265355825424194 1.2854926586151123 110
-4.6521501541137695 -1.3252002000808716 1.107046365737915 110
-4.634800434112549 -1.3193835020065308 0.9284054040908813 110
-4.63489294052124 -1.318535327911377 0.756308376789093 110
-4.643290996551514 -1.320048451423645 0.5880195498466492 110
-4.646081447601318 -1.3199654817581177 0.41921913623809814 110
-4.638364791870117 -1.316898226737976 0.25068923830986023 110
-4.629780292510986 -1.3135876655578613 0.08333523571491241 110
nan nan nan 0
nan nan nan 0
-2.545018196105957 -0.71872878074646 -0.50614333152771 119
-3.0643422603607178 -0.8648115992546082 -0.49824416637420654 119
-4.13974666595459 -1.167529582977295 -0.5234294533729553 119
-4.634453296661377 -1.3061782121658325 -0.41791245341300964 119
-4.626736164093018 -1.3031315803527832 -0.2490726113319397 110
-4.622910499572754 -1.3011833429336548 -0.08232985436916351 110
-4.649058818817139 -1.3076674938201904 1.2829062938690186 110
