# .PCD v0.7 - Point Cloud Data file format
VERSION 0.7
FIELDS x y z intensity
SIZE 4 4 4 4
TYPE F F F F
COUNT 1 1 1 1
WIDTH 869
HEIGHT 1
VIEWPOINT 0 0 0 1 0 0 0
POINTS 869
DATA ascii
6.0063323974609375 0.37999218702316284 0.7342627644538879 48
6.053192615509033 0.38189613819122314 0.5272922515869141 48
6.018127918243408 0.37862932682037354 0.3140157461166382 48
6.030478000640869 0.3783496916294098 0.10480169206857681 48
1.8795750141143799 0.11627715826034546 -0.4943445920944214 119
2.1388235092163086 0.13194046914577484 -0.4858945310115814 119
2.4974968433380127 0.153628870844841 -0.4785008728504181 119
3.0252599716186523 0.18556323647499084 -0.4739968180656433 119
3.862260580062866 0.23622652888298035 -0.47041618824005127 119
5.164038181304932 0.3149421811103821 -0.4492885172367096 119
nan nan nan 0
nan nan nan 0
7.009419918060303 0.4238038659095764 1.8700428009033203 51
7.021759986877441 0.4233199656009674 1.6139274835586548 51
nan nan nan 0
nan nan nan 0
6.086884498596191 0.36376067996025085 0.7440123558044434 48
6.1290717124938965 0.36520832777023315 0.5338289141654968 48
6.089193820953369 0.36176562309265137 0.317679226398468 48
6.12658166885376 0.3629138171672821 0.10645967721939087 48
1.875148057937622 0.10943412035703659 -0.4930504858493805 119
2.148998260498047 0.125039741396904 -0.48814404010772705 119
2.4980180263519287 0.1449100375175476 -0.4785008728504181 119
3.0308191776275635 0.17528711259365082 -0.4747789800167084 119
3.858107089996338 0.22245760262012482 -0.46980684995651245 119
5.165105819702148 0.29691439867019653 -0.4492885172367096 119
nan nan nan 0
6.132338047027588 0.35036778450012207 -0.10548243671655655 48
7.092831134796143 0.4040030837059021 1.8920280933380127 51
7.110751152038574 0.40377870202064514 1.6341577768325806 51
6.227465629577637 0.3525316119194031 1.2038768529891968 48
nan nan nan 0
6.152530670166016 0.34613510966300964 0.7519338130950928 48
6.214853286743164 0.3485531806945801 0.5412371754646301 48
6.160214900970459 0.34441033005714417 0.3213427662849426 48
6.192700386047363 0.3451423645019531 0.1075940802693367 48
1.875518560409546 0.10288797318935394 -0.4930504858493805 119
2.1542863845825195 0.11780359596014023 -0.48926883935928345 119
2.4985086917877197 0.13618946075439453 -0.4785008728504181 119
3.036343812942505 0.1649744212627411 -0.4755611717700958 119
3.8588602542877197 0.20898893475532532 -0.46980684995651245 119
5.161137580871582 0.2786145508289337 -0.4488527774810791 119
nan nan nan 0
6.263317108154297 0.3359209895133972 -0.10772857069969177 48
7.185834884643555 0.3841407299041748 1.9165997505187988 51
7.1996893882751465 0.3836211860179901 1.6543880701065063 51
6.2923760414123535 0.3341754674911499 1.2162681818008423 48
6.316216945648193 0.33433613181114197 0.9946080446243286 48
6.2528181076049805 0.329885870218277 0.7641207575798035 48
6.285668849945068 0.330518901348114 0.54733806848526 48
6.221214771270752 0.32604092359542847 0.32448291778564453 48
6.263761520385742 0.32717448472976685 0.1088157445192337 48
1.875866413116455 0.09634055942296982 -0.4930504858493805 119
2.1790120601654053 0.111528180539608 -0.4948926270008087 119
2.4989688396453857 0.12746720016002655 -0.4785008728504181 119
3.0418331623077393 0.1546253114938736 -0.4763433039188385 119
3.849653482437134 0.1950155645608902 -0.4685881733894348 119
5.162078857421875 0.2605971097946167 -0.4488527774810791 119
nan nan nan 0
6.3942694664001465 0.3205640912055969 -0.10997471958398819 48
7.278784275054932 0.363633930683136 1.9411715269088745 51
7.288573265075684 0.3628476858139038 1.6746183633804321 51
7.36710262298584 0.3654681444168091 1.4250165224075317 51
7.412373065948486 0.3664170205593109 1.16805899143219 51
6.343152046203613 0.3124523162841797 0.7750889658927917 48
7.411130428314209 0.36376237869262695 0.6458240747451782 51
6.3619561195373535 0.31115245819091797 0.331809937953949 48
7.43829345703125 0.36249297857284546 0.12932232022285461 0
1.8761911392211914 0.08979197591543198 -0.4930504858493805 119
2.1453235149383545 0.10229700803756714 -0.4870193302631378 119
2.4993984699249268 0.118743397295475 -0.4785008728504181 119
3.037421464920044 0.1437729001045227 -0.4755611717700958 119
3.8701398372650146 0.18251170217990875 -0.4710255563259125 119
5.162957191467285 0.2425764948129654 -0.4488527774810791 119
6.542210102081299 0.30623501539230347 -0.3400949537754059 48
6.590109348297119 0.3073244094848633 -0.11334393918514252 48
7.371678352355957 0.34248286485671997 1.9657434225082397 51
7.377398490905762 0.341458261013031 1.694848656654358 51
7.427170276641846 0.3424628674983978 1.4364547729492188 51
7.462940216064453 0.3428069055080414 1.1758719682693481 51
7.400160789489746 0.338628888130188 0.9048798084259033 51
7.462113380432129 0.34015870094299316 0.6501818299293518 51
7.470341682434082 0.3392272889614105 0.38990285992622375 51
7.469478607177734 0.33788174390792847 0.12984590232372284 0
1.876493215560913 0.08324230462312698 -0.4930504858493805 119
2.1408004760742188 0.09459275007247925 -0.4858945310115814 119
2.5047013759613037 0.11023395508527756 -0.47945404052734375 119
3.0329713821411133 0.13295318186283112 -0.4747789800167084 119
3.8112568855285645 0.1664036065340042 -0.4637133479118347 119
5.168748378753662 0.22476930916309357 -0.4492885172367096 119
6.598113059997559 0.28577321767807007 -0.342963844537735 48
6.596136093139648 0.284534215927124 -0.11343033611774445 48
7.4741621017456055 0.3211022615432739 1.9929016828536987 51
7.485632419586182 0.3202861547470093 1.7195744514465332 51
7.4675517082214355 0.3182068467140198 1.4440802335739136 51
7.523301124572754 0.31926700472831726 1.185247778892517 51
7.450881481170654 0.31489095091819763 0.910973310470581 51
7.493114948272705 0.3153657019138336 0.6527965068817139 51
7.486446380615234 0.3137761354446411 0.39068788290023804 51
7.515566349029541 0.3136826157569885 0.1306312531232834 0
1.8767722845077515 0.07669161260128021 -0.4930504858493805 119
2.1313819885253906 0.08672325313091278 -0.4836450219154358 119
2.505070924758911 0.10149024426937103 -0.47945404052734375 119
3.033416748046875 0.1223653182387352 -0.4747789800167084 119
3.871319532394409 0.1554887890815735 -0.4710255563259125 119
5.169501304626465 0.20672564208507538 -0.4492885172367096 119
6.60405969619751 0.2629384398460388 -0.3432246446609497 48
6.612074851989746 0.2621017098426819 -0.11368949711322784 48
7.591063499450684 0.29958173632621765 2.023939847946167 51
7.593806743621826 0.2983625531196594 1.7443004846572876 51
7.547089576721191 0.29520776867866516 1.4593312740325928 51
7.6576104164123535 0.2981922924518585 1.206343173980713 51
7.53127908706665 0.29195642471313477 0.9207228422164917 51
7.573806285858154 0.29228121042251587 0.6597689390182495 51
7.572317123413086 0.2909001111984253 0.39513644576072693 51
7.656492710113525 0.2927955687046051 0.1330745965242386 51
1.8770285844802856 0.07013998180627823 -0.4930504858493805 119
2.131671667098999 0.07928281277418137 -0.4836450219154358 119
2.5054099559783936 0.09274529665708542 -0.47945404052734375 119
3.0239553451538086 0.11141231656074524 -0.47321462631225586 119
3.86191987991333 0.14161071181297302 -0.46980684995651245 119
5.170191287994385 0.18867947161197662 -0.4492885172367096 119
6.724695205688477 0.24423383176326752 -0.34948405623435974 48
6.817785263061523 0.24642327427864075 -0.11723149567842484 48
7.703078269958496 0.27707526087760925 2.053684711456299 51
7.701919078826904 0.27568763494491577 1.7690263986587524 51
7.709945201873779 0.27462756633758545 1.4907864332199097 51
7.762249946594238 0.2751341462135315 1.2227506637573242 51
7.666162967681885 0.2703886926174164 0.9371752142906189 51
7.654426574707031 0.26863712072372437 0.6667414307594299 51
7.7679009437561035 0.27126216888427734 0.4053419530391693 51
7.757392406463623 0.26953962445259094 0.13481983542442322 51
1.877261996269226 0.0635875016450882 -0.4930504858493805 119
2.1319355964660645 0.07184141129255295 -0.4836450219154358 119
2.505718231201172 0.08399921655654907 -0.47945404052734375 119
3.019390106201172 0.10069147497415543 -0.4724324643611908 119
nan nan nan 0
5.17081880569458 0.17063097655773163 -0.4492885172367096 119
6.890192985534668 0.22616444528102875 -0.35809075832366943 48
6.933525085449219 0.22637535631656647 -0.11921846866607666 48
7.81985330581665 0.2539471685886383 2.0847225189208984 51
7.809963226318359 0.2522614598274231 1.7937523126602173 51
7.8236894607543945 0.2513379454612732 1.5127098560333252 51
7.89643669128418 0.2522953450679779 1.24384605884552 51
7.76626443862915 0.2467794418334961 0.9493621587753296 51
7.819608211517334 0.2471083253622055 0.6811221241950989 51
7.8736042976379395 0.24743908643722534 0.41083723306655884 51
7.888202667236328 0.24651974439620972 0.13708864152431488 51
1.8774725198745728 0.05703425034880638 -0.4930504858493805 119
2.1321732997894287 0.06439913064241409 -0.4836450219154358 119
2.5010902881622314 0.07510479539632797 -0.4785008728504181 119
3.0197231769561768 0.09015122801065445 -0.4724324643611908 119
3.857853889465332 0.11449897289276123 -0.46919748187065125 119
5.1664042472839355 0.15243352949619293 -0.4488527774810791 119
7.005734920501709 0.2054787427186966 -0.36408936977386475 48
7.029219150543213 0.20493966341018677 -0.12085988372564316 48
7.936560153961182 0.23000718653202057 2.115760564804077 51
7.922807693481445 0.22822467982769012 1.819602131843567 51
7.942270278930664 0.22739797830581665 1.5355862379074097 51
8.025620460510254 0.22838254272937775 1.26416015625 51
7.891097545623779 0.22317610681056976 0.9645958542823792 51
8.009625434875488 0.22512926161289215 0.697681725025177 51
7.989217758178711 0.22316017746925354 0.4168558716773987 51
8.008950233459473 0.22231245040893555 0.1391829401254654 51
1.8776601552963257 0.050480302423238754 -0.4930504858493805 119
2.13238525390625 0.05695606395602226 -0.4836450219154358 119
2.5013370513916016 0.06637389957904816 -0.4785008728504181 119
3.015082597732544 0.07947973161935806 -0.47165027260780334 119
3.8483078479766846 0.10077202320098877 -0.4679788053035736 119
5.166904926300049 0.1343984752893448 -0.4488527774810791 119
7.136188983917236 0.18437598645687103 -0.3708703815937042 48
8.049403190612793 0.20656469464302063 -0.13848347961902618 51
8.048365592956543 0.20513243973255157 2.145505428314209 51
8.040448188781738 0.20352639257907867 1.8465758562088013 51
8.055871963500977 0.20250989496707916 1.5575097799301147 51
8.144857406616211 0.20332440733909607 1.2829116582870483 51
8.010897636413574 0.1985812485218048 0.9792201519012451 51
8.124890327453613 0.19998808205127716 0.7077046632766724 51
8.109747886657715 0.1981991082429886 0.4231362044811249 51
8.134621620178223 0.19738641381263733 0.1413644701242447 51
1.8778249025344849 0.04392573982477188 -0.4930504858493805 119
2.137441396713257 0.04962538182735443 -0.4847698211669922 119
2.501553535461426 0.05764220654964447 -0.4785008728504181 119
3.0104048252105713 0.06884175539016724 -0.47086814045906067 119
nan nan nan 0
5.162363052368164 0.11624965816736221 -0.4484170079231262 119
nan nan nan 0
8.22000789642334 0.182233065366745 -0.14142075181007385 51
8.164920806884766 0.17958609759807587 2.1765434741973877 51
8.158010482788086 0.17800955474376678 1.8735495805740356 51
8.179207801818848 0.1770438849925995 1.5813394784927368 51
8.259078979492188 0.17733058333396912 1.3008817434310913 51
8.135581970214844 0.17325840890407562 0.9944537878036499 51
8.225135803222656 0.17372938990592957 0.7164202332496643 51
8.225207328796387 0.17229467630386353 0.42915481328964233 51
8.255216598510742 0.1714818775653839 0.1434587836265564 51
1.8779667615890503 0.03737063705921173 -0.4930504858493805 119
2.137601613998413 0.042164016515016556 -0.4847698211669922 119
2.4968321323394775 0.04881386458873749 -0.47754764556884766 119
3.010626792907715 0.058333057910203934 -0.47086814045906067 119
nan nan nan 0
5.157756805419922 0.09813418984413147 -0.44798120856285095 119
7.9909868240356445 0.15064550936222076 -0.4154687225818634 119
8.315563201904297 0.15531255304813385 -0.14306215941905975 51
8.281394958496094 0.1532285064458847 2.2075815200805664 51
8.285233497619629 0.15185299515724182 1.9027711153030396 51
8.297554969787598 0.1506301611661911 1.6042159795761108 51
8.388030052185059 0.15080811083316803 1.3211958408355713 51
8.255223274230957 0.14697913825511932 1.0090781450271606 51
8.330276489257812 0.1468610316514969 0.7255715727806091 51
8.340583801269531 0.14558660984039307 0.4351734519004822 51
8.385725975036621 0.1449105441570282 0.14572757482528687 51
1.8780858516693115 0.030815081670880318 -0.4930504858493805 119
2.1426069736480713 0.034781213849782944 -0.4858945310115814 119
2.501894950866699 0.04017680510878563 -0.4785008728504181 119
3.01574969291687 0.04790208116173744 -0.47165027260780334 119
nan nan nan 0
5.153087615966797 0.08005229383707047 -0.4475454092025757 119
8.001448631286621 0.1229042187333107 -0.41599035263061523 119
8.416029930114746 0.12780305743217468 -0.14478997886180878 51
8.388123512268066 0.12591494619846344 2.2360329627990723 51
8.407501220703125 0.12473811954259872 1.9308687448501587 51
8.415818214416504 0.12339235097169876 1.6270924806594849 51
8.457637786865234 0.1225290521979332 1.3321341276168823 51
8.36485481262207 0.11972463876008987 1.0224837064743042 51
8.4403076171875 0.11933117359876633 0.7351586818695068 51
8.44089412689209 0.11786595731973648 0.44040706753730774 51
8.471158981323242 0.11680979281663895 0.14721103012561798 51
1.8781819343566895 0.02425915189087391 -0.4930504858493805 119
2.1427152156829834 0.027301907539367676 -0.4858945310115814 119
2.5020198822021484 0.031443316489458084 -0.4785008728504181 119
3.020836591720581 0.03743605688214302 -0.4724324643611908 119
nan nan nan 0
5.1533355712890625 0.062064170837402344 -0.4475454092025757 119
8.011815071105957 0.09509172290563583 -0.41651198267936707 119
8.526399612426758 0.09971094876527786 -0.14669054746627808 51
8.514080047607422 0.09808068722486496 2.269657611846924 107
8.539422035217285 0.09688202291727066 1.9612140655517578 51
8.499632835388184 0.094946950674057 1.6432965993881226 51
8.630853652954102 0.09490622580051422 1.3594800233840942 51
8.459508895874023 0.09154544770717621 1.034061312675476 51
8.580133438110352 0.09135311841964722 0.7473604679107666 51
8.556090354919434 0.08960364013910294 0.4464256763458252 51
8.656476974487305 0.08914394676685333 0.15043973922729492 51
1.873425841331482 0.017657408490777016 -0.491756409406662 119
2.1427974700927734 0.019822269678115845 -0.4858945310115814 119
2.5021145343780518 0.022709444165229797 -0.4785008728504181 119
3.0258870124816895 0.026935100555419922 -0.47321462631225586 119
nan nan nan 0
5.148540496826172 0.04403269663453102 -0.4471096694469452 119
7.987133026123047 0.06691553443670273 -0.41520795226097107 119
8.711662292480469 0.07146500051021576 -0.14988699555397034 51
8.664091110229492 0.06956249475479126 2.309748411178589 107
8.676121711730957 0.06814470887184143 1.9926834106445312 51
8.691329956054688 0.06674715876579285 1.6804709434509277 51
8.774347305297852 0.06585320830345154 1.3821380138397217 51
8.63843059539795 0.06332534551620483 1.0559978485107422 51
8.739786148071289 0.06254289299249649 0.7613053917884827 51
8.736100196838379 0.06099170073866844 0.4558461606502533 51
8.791712760925293 0.0598454512655735 0.15279582142829895 51
1.8734761476516724 0.011117824353277683 -0.491756409406662 119
2.1428537368774414 0.012342388741672039 -0.4858945310115814 119
2.502178430557251 0.013975297100841999 -0.4785008728504181 119
3.0309011936187744 0.016399338841438293 -0.4739968180656433 119
3.824760913848877 0.020027121528983116 -0.46493205428123474 119
5.14866304397583 0.026060668751597404 -0.4471096694469452 119
7.972338676452637 0.03896162286400795 -0.41442549228668213 119
8.85683536529541 0.04173840582370758 -0.15239231288433075 51
8.809175491333008 0.03997628390789032 2.348546028137207 107
8.827338218688965 0.03851801156997681 2.027524471282959 51
8.838759422302246 0.03702516481280327 1.70906662940979 51
8.922679901123047 0.03581937402486801 1.405577301979065 51
8.77755355834961 0.03370478376746178 1.0730594396591187 51
8.8843994140625 0.032564420253038406 0.7739430069923401 51
8.881059646606445 0.031002121046185493 0.4634348452091217 51
8.92184829711914 0.029587330296635628 0.1550646275281906 51
1.8735034465789795 0.004578104708343744 -0.491756409406662 119
2.142883777618408 0.0048623583279550076 -0.4858945310115814 119
2.5022120475769043 0.005240979604423046 -0.4785008728504181 119
3.0358784198760986 0.005828901194036007 -0.4747789800167084 119
nan nan nan 0
5.1487226486206055 0.008088324218988419 -0.4471096694469452 119
7.957446575164795 0.011111815460026264 -0.41364309191703796 119
8.986907005310059 0.010980845429003239 -0.15463845431804657 51
8.954156875610352 0.009378031827509403 2.387343645095825 107
8.968708992004395 0.007827935740351677 2.060117721557617 51
8.986083030700684 0.006274732295423746 1.7376621961593628 51
9.026460647583008 0.004727511666715145 1.4219847917556763 51
8.911611557006836 0.0031119908671826124 1.0895118713378906 51
8.994040489196777 0.0015710192965343595 0.7835301160812378 51
8.975983619689941 -0.0 0.4684067964553833 51
nan nan nan 0
1.8783376216888428 -0.001966991228982806 -0.4930504858493805 119
2.142887592315674 -0.0026180325075984 -0.4858945310115814 119
2.4973068237304688 -0.003486900357529521 -0.47754764556884766 119
3.040818452835083 -0.004776510410010815 -0.4755611717700958 119
3.849621057510376 -0.006718863267451525 -0.4679788053035736 119
5.148719310760498 -0.009884843602776527 -0.4471096694469452 119
7.947449684143066 -0.016645124182105064 -0.41312146186828613 119
9.221855163574219 -0.020923761650919914 -0.15869878232479095 51
9.10869026184082 -0.022256771102547646 2.428727626800537 107
9.11971378326416 -0.023875407874584198 2.094958782196045 51
9.133298873901367 -0.02550504542887211 1.766257882118225 51
10.172167778015137 -0.0301815178245306 1.6032488346099854 51
9.124964714050293 -0.028667014092206955 1.1157138347625732 51
nan nan nan 0
nan nan nan 0
10.241626739501953 -0.03753769025206566 0.1781017929315567 51
1.878319263458252 -0.008523601107299328 -0.4930504858493805 119
2.137993812561035 -0.010075132362544537 -0.4847698211669922 119
2.4923715591430664 -0.01218012161552906 -0.4765945076942444 119
3.0358450412750244 -0.015365923754870892 -0.4747789800167084 119
3.864462375640869 -0.02023446187376976 -0.46980684995651245 119
5.148653507232666 -0.027857167646288872 -0.4471096694469452 119
7.947343349456787 -0.04438680037856102 -0.41312146186828613 119
10.226558685302734 -0.05890139937400818 -0.17606322467327118 51
9.267939567565918 -0.054997701197862625 2.471404790878296 107
9.275477409362793 -0.056661367416381836 2.1309237480163574 51
9.285308837890625 -0.05834208428859711 1.7958067655563354 51
10.20656967163086 -0.06591206789016724 1.6087180376052856 51
10.147109031677246 -0.06729915738105774 1.2412391901016235 51
10.239046096801758 -0.06969605386257172 0.8924748301506042 51
nan nan nan 0
10.236433982849121 -0.0732516348361969 0.17801453173160553 51
1.8782780170440674 -0.015080106444656849 -0.4930504858493805 119
2.1379456520080566 -0.01753806136548519 -0.4847698211669922 119
2.4923136234283447 -0.020880045369267464 -0.4765945076942444 119
3.030834674835205 -0.025920674204826355 -0.4739968180656433 119
3.864368200302124 -0.03372383117675781 -0.46980684995651245 119
5.143543720245361 -0.04578481614589691 -0.4466738700866699 119
7.942147731781006 -0.07208262383937836 -0.4128606617450714 119
10.116312026977539 -0.09358103573322296 -0.17416264116764069 51
9.359454154968262 -0.08821338415145874 2.495976686477661 107
9.435992240905762 -0.09058180451393127 2.1680126190185547 51
9.437198638916016 -0.09224063903093338 1.8253555297851562 51
9.361821174621582 -0.09313800185918808 1.475113868713379 51
10.216287612915039 -0.10342209041118622 1.2497700452804565 51
10.06939697265625 -0.1036926880478859 0.8776583075523376 51
nan nan nan 0
9.351301193237305 -0.09956246614456177 0.16256915032863617 51
1.8733848333358765 -0.02158079668879509 -0.491756409406662 119
2.137871265411377 -0.02500077709555626 -0.4847698211669922 119
2.4922256469726562 -0.02957971766591072 -0.4765945076942444 119
3.025787353515625 -0.03644062951207161 -0.47321462631225586 119
3.859264612197876 -0.04715215414762497 -0.46919748187065125 119
5.128410339355469 -0.06355368345975876 -0.4453665018081665 119
7.936854362487793 -0.09974270313978195 -0.4125998318195343 119
9.376094818115234 -0.1194663867354393 -0.16137689352035522 51
9.36391830444336 -0.12094581127166748 2.497270107269287 107
9.596383094787598 -0.12562353909015656 2.205101490020752 51
9.598777770996094 -0.127330482006073 1.8568108081817627 51
9.415759086608887 -0.12654633820056915 1.483708381652832 51
9.332579612731934 -0.12705756723880768 1.1413064002990723 51
9.3717041015625 -0.1292261779308319 0.816649317741394 51
nan nan nan 0
nan nan nan 0
1.8732980489730835 -0.028119998052716255 -0.491756409406662 119
2.132899761199951 -0.032389212399721146 -0.4836450219154358 119
2.4921071529388428 -0.03827902674674988 -0.4765945076942444 119
3.025641918182373 -0.04700237885117531 -0.47321462631225586 119
3.9086973667144775 -0.06140272691845894 -0.4752909541130066 119
5.118196964263916 -0.08129658550024033 -0.44449496269226074 119
7.931465148925781 -0.12736670672893524 -0.4123390316963196 119
nan nan nan 0
9.368268966674805 -0.1537104994058609 2.498563289642334 107
9.761512756347656 -0.16186684370040894 2.243314266204834 51
9.765134811401367 -0.16363169252872467 1.8892191648483276 51
nan nan nan 0
9.451167106628418 -0.16167066991329193 1.1559306383132935 51
nan nan nan 0
nan nan nan 0
9.83522891998291 -0.173391655087471 0.171033576130867 51
1.8635308742523193 -0.03448016569018364 -0.4891682267189026 119
2.1376447677612305 -0.03992520645260811 -0.4847698211669922 119
2.4919583797454834 -0.046977873891592026 -0.4765945076942444 119
3.020521879196167 -0.05746961012482643 -0.4724324643611908 119
3.868764877319336 -0.07428407669067383 -0.47041618824005127 119
5.097962379455566 -0.0987759605050087 -0.44275185465812683 119
7.925980567932129 -0.15495431423187256 -0.41207820177078247 119
10.169759750366211 -0.20059624314308167 -0.17511293292045593 51
9.362845420837402 -0.18631482124328613 2.497270107269287 107
9.92163372039795 -0.1991667002439499 2.2804031372070312 107
9.931352615356445 -0.2010958343744278 1.9216276407241821 51
10.155278205871582 -0.20740319788455963 1.600904941558838 51
9.87228775024414 -0.20334738492965698 1.207725167274475 51
10.067758560180664 -0.20913155376911163 0.8776583075523376 51
9.448260307312012 -0.19791285693645477 0.49326637387275696 51
10.179433822631836 -0.21500618755817413 0.17705464363098145 51
1.8778843879699707 -0.041303493082523346 -0.4930504858493805 119
2.127750873565674 -0.04717077314853668 -0.48252031207084656 119
2.491779327392578 -0.055676139891147614 -0.4765945076942444 119
3.0153656005859375 -0.06790166348218918 -0.47165027260780334 119
3.873443841934204 -0.08790072798728943 -0.4710255563259125 119
5.137423038482666 -0.11748155951499939 -0.44623810052871704 119
7.9203996658325195 -0.18250520527362823 -0.41181743144989014 119
10.213977813720703 -0.23713842034339905 -0.17589043080806732 51
9.362138748168945 -0.2189961075782776 2.497270107269287 107
10.076739311218262 -0.23747152090072632 2.3163678646087646 107
10.092517852783203 -0.2396058291196823 1.953082799911499 51
10.253235816955566 -0.24521195888519287 1.6165310144424438 51
10.124544143676758 -0.2439022958278656 1.2388018369674683 51
10.246230125427246 -0.2486231029033661 0.89334636926651 51
10.236193656921387 -0.2501671612262726 0.5346117615699768 51
10.273578643798828 -0.2528750002384186 0.1787126362323761 51
1.8825567960739136 -0.04798133671283722 -0.4943445920944214 119
2.142184019088745 -0.05497266352176666 -0.4858945310115814 119
2.496476173400879 -0.06450050324201584 -0.47754764556884766 119
3.0151100158691406 -0.07842684537172318 -0.47165027260780334 119
3.8433468341827393 -0.10064157843589783 -0.4673694372177124 119
5.136981964111328 -0.13541379570960999 -0.44623810052871704 119
7.914722919464111 -0.21001897752285004 -0.411556601524353 119
10.3030424118042 -0.27519306540489197 -0.1774454563856125 51
9.361316680908203 -0.25167474150657654 2.497270107269287 107
10.280400276184082 -0.27817946672439575 2.363571882247925 107
10.28297233581543 -0.2800450921058655 1.9902571439743042 51
10.420166015625 -0.285601407289505 1.64309561252594 51
10.292299270629883 -0.28389447927474976 1.2595196962356567 51
10.389692306518555 -0.28839561343193054 0.9059839248657227 51
10.389986038208008 -0.2902185618877411 0.5427238345146179 51
10.447538375854492 -0.2936510145664215 0.1817668080329895 51
1.8823779821395874 -0.05455239489674568 -0.4943445920944214 119
2.141979217529297 -0.062449946999549866 -0.4858945310115814 119
2.4962356090545654 -0.07321443408727646 -0.47754764556884766 119
3.0098819732666016 -0.0888054296374321 -0.47086814045906067 119
3.8727357387542725 -0.1149401068687439 -0.4710255563259125 119
5.1414570808410645 -0.1534930318593979 -0.4466738700866699 119
7.913941383361816 -0.2376452386379242 -0.411556601524353 119
10.506895065307617 -0.31734368205070496 -0.18098746240139008 51
9.360381126403809 -0.28435030579566956 2.497270107269287 107
10.4644193649292 -0.3197169005870819 2.406280517578125 107
10.517419815063477 -0.3231735825538635 2.0360100269317627 51
10.636299133300781 -0.32868459820747375 1.6774733066558838 51
10.445015907287598 -0.3245983123779297 1.2784093618392944 51
10.572827339172363 -0.33041736483573914 0.9221077561378479 51
10.558591842651367 -0.3318171203136444 0.5516209602355957 51
10.656311988830566 -0.3367498219013214 0.1854318082332611 51
nan nan nan 0
nan nan nan 0
2.495965003967285 -0.08192748576402664 -0.47754764556884766 119
3.01448917388916 -0.09947419911623001 -0.47165027260780334 119
3.8623907566070557 -0.12812869250774384 -0.46980684995651245 119
nan nan nan 0
7.903082847595215 -0.2649340331554413 -0.4110349714756012 119
10.720569610595703 -0.3612574338912964 -0.18470223248004913 51
9.359332084655762 -0.3170223832130432 2.497270107269287 107
10.662877082824707 -0.36303970217704773 2.4523606300354004 107
10.727160453796387 -0.36710280179977417 2.0769972801208496 51
10.862127304077148 -0.37361961603164673 1.7134135961532593 51
10.647170066833496 -0.3680863380432129 1.3033925294876099 51
10.785663604736328 -0.3747589588165283 0.9408462643623352 51
10.771944046020508 -0.3761645555496216 0.5628731846809387 51
10.864911079406738 -0.3813096582889557 0.1890968233346939 51
1.8771246671676636 -0.06751883029937744 -0.4930504858493805 119
2.141490936279297 -0.07740213721990585 -0.4858945310115814 119
2.5005688667297363 -0.09081766754388809 -0.4785008728504181 119
3.0141234397888184 -0.10999612510204315 -0.47165027260780334 119
nan nan nan 0
5.140260219573975 -0.1893831491470337 -0.4466738700866699 119
7.917079448699951 -0.29307347536087036 -0.41181743144989014 119
10.924070358276367 -0.4062950909137726 -0.18824423849582672 51
9.358168601989746 -0.34969061613082886 2.497270107269287 107
10.85628890991211 -0.4075689911842346 2.497316837310791 107
10.941625595092773 -0.4126850962638855 2.1189374923706055 51
11.058158874511719 -0.4190131425857544 1.7446659803390503 51
10.844185829162598 -0.41280069947242737 1.3277664184570312 51
10.988360404968262 -0.4202095568180084 0.958713173866272 51
10.99010181427002 -0.4221971035003662 0.5743870735168457 51
11.098302841186523 -0.4282936751842499 0.19319812953472137 51
nan nan nan 0
nan nan nan 0
2.5198543071746826 -0.10032680630683899 -0.4823136329650879 119
3.013721227645874 -0.12051671743392944 -0.47165027260780334 119
nan nan nan 0
nan nan nan 0
7.891062259674072 -0.3196967840194702 -0.41051337122917175 119
11.157356262207031 -0.4539772868156433 -0.1923045814037323 51
9.356890678405762 -0.38235458731651306 2.497270107269287 107
10.913216590881348 -0.4478593170642853 2.510803699493408 107
11.150997161865234 -0.4595669209957123 2.1599247455596924 51
11.283609390258789 -0.4670049846172333 1.7806061506271362 51
11.045974731445312 -0.45910102128982544 1.3527495861053467 51
11.210774421691895 -0.4679105877876282 0.9783231616020203 51
11.218045234680176 -0.4701753854751587 0.5864243507385254 51
11.326502799987793 -0.4767014682292938 0.19721218943595886 51
nan nan nan 0
nan nan nan 0
2.5391037464141846 -0.10997167229652405 -0.4861263632774353 119
nan nan nan 0
nan nan nan 0
nan nan nan 0
nan nan nan 0
11.385444641113281 -0.5030721426010132 -0.19627852737903595 51
9.355499267578125 -0.4150139093399048 2.497270107269287 107
10.916454315185547 -0.4861676096916199 2.511927604675293 107
11.399398803710938 -0.5096692442893982 2.2085373401641846 51
11.528590202331543 -0.5174615383148193 1.8196717500686646 51
11.267402648925781 -0.5077086091041565 1.380170226097107 51
11.447916030883789 -0.5178446769714355 0.9992406368255615 51
11.440794944763184 -0.5195234417915344 0.5981999635696411 51
11.549501419067383 -0.5264797210693359 0.20113897323608398 51
nan nan nan 0
nan nan nan 0
nan nan nan 0
nan nan nan 0
nan nan nan 0
nan nan nan 0
nan nan nan 0
11.618317604064941 -0.5540029406547546 -0.20033885538578033 51
9.35399341583252 -0.4476681649684906 2.497270107269287 107
10.914690971374512 -0.5242701768875122 2.511927604675293 107
11.637778282165527 -0.5610384345054626 2.2552435398101807 51
11.778287887573242 -0.5698726177215576 1.8595185279846191 51
11.508448600769043 -0.5588302612304688 1.4100282192230225 51
11.669916152954102 -0.5687124729156494 1.018850564956665 51
11.658348083496094 -0.5701883435249329 0.6097138524055481 51
11.79226016998291 -0.5788008570671082 0.2054148018360138 51
nan nan nan 0
nan nan nan 0
2.5039594173431396 -0.1259688287973404 -0.47945404052734375 119
nan nan nan 0
nan nan nan 0
5.147063732147217 -0.26163962483406067 -0.4475454092025757 119
nan nan nan 0
11.865948677062988 -0.6073321104049683 -0.2046583741903305 51
9.352374076843262 -0.48031699657440186 2.497270107269287 107
10.907928466796875 -0.5621156096458435 2.510803699493408 107
11.875933647155762 -0.6140778660774231 2.3019497394561768 107
12.008028030395508 -0.6230095624923706 1.8962401151657104 51
11.759185791015625 -0.612156867980957 1.4411048889160156 51
11.906620979309082 -0.6219157576560974 1.0397679805755615 51
11.92554759979248 -0.6249914765357971 0.623844563961029 51
12.04977035522461 -0.6336105465888977 0.2099524438381195 51
nan nan nan 0
2.134948968887329 -0.11450360715389252 -0.4847698211669922 119
nan nan nan 0
nan nan nan 0
nan nan nan 0
5.126224517822266 -0.278523713350296 -0.4458023011684418 119
nan nan nan 0
12.12832260131836 -0.6632156372070312 -0.20923705399036407 51
9.355463027954102 -0.5132244825363159 2.498563289642334 107
10.901034355163574 -0.5999202132225037 2.5096797943115234 107
12.133462905883789 -0.6698690056800842 2.352468729019165 107
12.272054672241211 -0.6796688437461853 1.938430905342102 51
12.03446102142334 -0.6686169505119324 1.4752283096313477 51
12.192827224731445 -0.6795501708984375 1.0650430917739868 51
12.197487831115723 -0.6819454431533813 0.638236939907074 51
12.327003479003906 -0.691344678401947 0.21483910083770752 51
1.899407982826233 -0.10818878561258316 -0.4995209574699402 119
2.1296725273132324 -0.12167736887931824 -0.4836450219154358 119
2.4834177494049072 -0.14232321083545685 -0.47564128041267395 119
nan nan nan 0
nan nan nan 0
nan nan nan 0
7.864341735839844 -0.4562094509601593 -0.4094701409339905 119
12.385455131530762 -0.7206476330757141 -0.2137293517589569 51
9.353614807128906 -0.5458780527114868 2.498563289642334 107
10.898874282836914 -0.6379683017730713 2.5096797943115234 107
12.376045227050781 -0.72660231590271 2.400128126144409 107
12.550620079040527 -0.7390497326850891 1.9829655885696411 51
12.284713745117188 -0.725543200969696 1.5063049793243408 51
12.468827247619629 -0.7386009097099304 1.089446783065796 51
12.474157333374023 -0.7411015033721924 0.6528910398483276 51
12.593996047973633 -0.7504270672798157 0.21955126523971558 51
1.8797355890274048 -0.11365239322185516 -0.4943445920944214 119
2.1340975761413574 -0.1294054538011551 -0.4847698211669922 119
2.512301445007324 -0.1527787148952484 -0.48136040568351746 119
nan nan nan 0
nan nan nan 0
5.134099006652832 -0.314914345741272 -0.4466738700866699 119
7.867685794830322 -0.4839649200439453 -0.4097309410572052 119
12.647322654724121 -0.7801904678344727 -0.21830801665782928 51
9.35647201538086 -0.5788230895996094 2.49985671043396 107
10.896580696105957 -0.6760085821151733 2.5096797943115234 107
12.652666091918945 -0.7871704697608948 2.4544599056243896 107
12.863418579101562 -0.8025360107421875 2.0329694747924805 51
12.559476852416992 -0.7857739329338074 1.5404284000396729 51
12.749531745910645 -0.7998984456062317 1.114286184310913 51
12.745575904846191 -0.8018836379051208 0.6672834157943726 51
12.905627250671387 -0.8142146468162537 0.22504876554012299 51
1.78775155544281 -0.11435545235872269 -0.46975675225257874 119
2.1482183933258057 -0.13778959214687347 -0.48814404010772705 119
nan nan nan 0
nan nan nan 0
nan nan nan 0
nan nan nan 0
7.81113862991333 -0.5078617334365845 -0.4068620502948761 119
12.958807945251465 -0.8448222875595093 -0.22375060617923737 51
9.354394912719727 -0.6114797592163086 2.49985671043396 107
10.89415454864502 -0.7140405774116516 2.5096797943115234 107
12.968194007873535 -0.8522533774375916 2.5164170265197754 107
13.175925254821777 -0.8682148456573486 2.0829734802246094 51
12.863677024841309 -0.8498945236206055 1.5782079696655273 51
13.049837112426758 -0.864481508731842 1.1408686637878418 51
13.046610832214355 -0.8665549159049988 0.683245837688446 51
13.206985473632812 -0.8795222640037537 0.23037175834178925 51
nan nan nan 0
2.1234707832336426 -0.14290212094783783 -0.48252031207084656 119
nan nan nan 0
nan nan nan 0
nan nan nan 0
5.077232837677002 -0.3452407121658325 -0.4418802857398987 119
nan nan nan 0
13.290260314941406 -0.9083694815635681 -0.22953875362873077 51
9.35242748260498 -0.640864372253418 2.49985671043396 107
10.891858100891113 -0.7482620477676392 2.5096797943115234 107
13.063385963439941 -0.8997350931167603 2.5354807376861572 107
13.488450050354004 -0.931376576423645 2.132977247238159 51
13.177800178527832 -0.9122371673583984 1.61720609664917 51
13.370041847229004 -0.927889883518219 1.1691943407058716 51
13.337709426879883 -0.9279850721359253 0.6986849904060364 51
13.503385543823242 -0.9418804049491882 0.23560747504234314 51
nan nan nan 0
2.1521170139312744 -0.15237805247306824 -0.48926883935928345 119
nan nan nan 0
nan nan nan 0
nan nan nan 0
nan nan nan 0
nan nan nan 0
13.611124038696289 -0.9780453443527222 -0.23515412211418152 51
9.350133895874023 -0.6735065579414368 2.49985671043396 107
10.894039154052734 -0.786628007888794 2.510803699493408 107
13.065061569213867 -0.9456837177276611 2.5364339351654053 107
13.810208320617676 -1.0020424127578735 2.1845436096191406 51
13.481414794921875 -0.9805511236190796 1.6549856662750244 51
13.669755935668945 -0.9966483116149902 1.1957767009735107 51
13.682979583740234 -1.0000133514404297 0.7170025706291199 51
13.829083442687988 -1.013117790222168 0.24136677384376526 51
nan nan nan 0
2.1272523403167725 -0.1584554761648178 -0.4836450219154358 119
2.5246403217315674 -0.188499316573143 -0.4842199981212616 119
nan nan nan 0
nan nan nan 0
nan nan nan 0
nan nan nan 0
13.891594886779785 -1.0493909120559692 -0.24007835984230042 51
9.347601890563965 -0.7077719569206238 2.49985671043396 107
10.891082763671875 -0.8265514373779297 2.510803699493408 107
13.046825408935547 -0.9924463629722595 2.5335745811462402 107
14.165915489196777 -1.0800600051879883 2.241579294204712 51
13.829058647155762 -1.0568046569824219 1.6982492208480835 51
14.023595809936523 -1.0741328001022339 1.2271528244018555 51
14.02273941040039 -1.0765290260314941 0.7350584864616394 51
14.169206619262695 -1.0902609825134277 0.2473878413438797 51
nan nan nan 0
nan nan nan 0
2.4554595947265625 -0.19195526838302612 -0.4708753526210785 119
3.0069146156311035 -0.23559322953224182 -0.47165027260780334 119
nan nan nan 0
nan nan nan 0
nan nan nan 0
12.233258247375488 -0.9670750498771667 -0.21139681339263916 119
9.34026050567627 -0.74001544713974 2.498563289642334 107
10.892988204956055 -0.8649490475654602 2.511927604675293 107
13.0383882522583 -1.0375927686691284 2.532621383666992 107
14.555895805358887 -1.1609123945236206 2.304084300994873 51
14.181467056274414 -1.1335405111312866 1.7421221733093262 51
14.37724494934082 -1.15171480178833 1.2585289478302002 51
14.347386360168457 -1.1518430709838867 0.7523293495178223 51
14.549016952514648 -1.1705859899520874 0.2541070282459259 51
nan nan nan 0
nan nan nan 0
nan nan nan 0
3.001152515411377 -0.24568498134613037 -0.47086814045906067 119
nan nan nan 0
nan nan nan 0
nan nan nan 0
nan nan nan 0
9.337620735168457 -0.772614598274231 2.498563289642334 107
10.894757270812988 -0.9033699035644531 2.5130512714385986 107
13.034687042236328 -1.0830988883972168 2.532621383666992 107
14.940556526184082 -1.2440900802612305 2.36580753326416 51
14.538447380065918 -1.213161826133728 1.7866045236587524 51
14.795047760009766 -1.237174153327942 1.2955701351165771 51
14.75626277923584 -1.2365243434906006 0.7740488052368164 51
14.993195533752441 -1.2590137720108032 0.26196059584617615 51
nan nan nan 0
nan nan nan 0
nan nan nan 0
nan nan nan 0
nan nan nan 0
nan nan nan 0
nan nan nan 0
nan nan nan 0
9.33005428314209 -0.804789125919342 2.497270107269287 107
10.896391868591309 -0.9418137669563293 2.5141751766204834 107
13.030826568603516 -1.1285918951034546 2.532621383666992 107
15.324809074401855 -1.3299671411514282 2.4275312423706055 51
14.939538955688477 -1.2991583347320557 1.8365709781646729 51
15.167764663696289 -1.3216724395751953 1.3286893367767334 51
15.129898071289062 -1.3210337162017822 0.7939364314079285 51
15.21281909942627 -1.3309491872787476 0.26588740944862366 51
nan nan nan 0
2.129685401916504 -0.1885707974433899 -0.4847698211669922 119
2.497316837310791 -0.22156162559986115 -0.47945404052734375 119
nan nan nan 0
3.8097305297851562 -0.33933916687965393 -0.46493205428123474 119
5.103538990020752 -0.4554786682128906 -0.444930762052536 119
7.836307525634766 -0.7007504105567932 -0.40894851088523865 119
nan nan nan 0
9.327188491821289 -0.8373522162437439 2.497270107269287 107
10.897890090942383 -0.9802799820899963 2.5152993202209473 107
13.02680778503418 -1.1740710735321045 2.532621383666992 107
15.797174453735352 -1.4265363216400146 2.5033185482025146 107
15.34514331817627 -1.3884165287017822 1.8871467113494873 51
16.165103912353516 -1.4654505252838135 1.4167165756225586 51
16.194318771362305 -1.470948576927185 0.8501975536346436 51
16.163984298706055 -1.471037745475769 0.2826417088508606 51
1.8704588413238525 -0.17187102138996124 -0.4930504858493805 119
2.1193113327026367 -0.19511038064956665 -0.48252031207084656 119
2.472090482711792 -0.2280234396457672 -0.4746881127357483 119
nan nan nan 0
3.828289270401001 -0.3544657528400421 -0.4673694372177124 119
5.101917743682861 -0.4732905924320221 -0.444930762052536 119
7.8238701820373535 -0.7271757125854492 -0.4084269106388092 119
nan nan nan 0
9.32420825958252 -0.8699049949645996 2.497270107269287 107
10.889551162719727 -1.0178613662719727 2.5141751766204834 107
13.032404899597168 -1.2204513549804688 2.5345277786254883 107
nan nan nan 0
15.88864803314209 -1.4935262203216553 1.9547841548919678 51
16.20452117919922 -1.5260714292526245 1.4206385612487793 51
16.189083099365234 -1.5274683237075806 0.8501975536346436 51
16.163726806640625 -1.5279221534729004 0.2827289402484894 51
1.8698475360870361 -0.17839908599853516 -0.4930504858493805 119
2.12831711769104 -0.2034340798854828 -0.4847698211669922 119
2.4859371185302734 -0.23805487155914307 -0.47754764556884766 119
2.9630181789398193 -0.28426235914230347 -0.46539291739463806 119
3.817148447036743 -0.3668771982192993 -0.46615076065063477 119
5.100234508514404 -0.49109673500061035 -0.444930762052536 119
7.826254367828369 -0.7549611926078796 -0.4086877107620239 119
12.692220687866211 -1.2265933752059937 -0.21969027817249298 119
9.31630802154541 -0.9019818902015686 2.495976686477661 107
10.881082534790039 -1.0553964376449585 2.5130512714385986 107
13.037835121154785 -1.2668848037719727 2.5364339351654053 107
16.125988006591797 -1.5698014497756958 2.5572288036346436 107
16.33775520324707 -1.593294620513916 2.0108442306518555 51
16.650218963623047 -1.6267004013061523 1.4602943658828735 51
16.38243293762207 -1.6034247875213623 0.8606647849082947 51
nan nan nan 0
1.8644073009490967 -0.18444952368736267 -0.491756409406662 119
2.108201503753662 -0.20894011855125427 -0.4802708029747009 119
2.494859457015991 -0.24770084023475647 -0.47945404052734375 119
2.9669222831726074 -0.29509228467941284 -0.4661751091480255 119
3.7960915565490723 -0.3782311677932739 -0.4637133479118347 119
5.103445053100586 -0.5093915462493896 -0.4453665018081665 119
7.808665752410889 -0.7807849049568176 -0.4079052805900574 119
12.677912712097168 -1.2698935270309448 -0.21951749920845032 119
9.313102722167969 -0.9344964027404785 2.495976686477661 107
10.872485160827637 -1.09288489818573 2.511927604675293 107
13.04310131072998 -1.3133713006973267 2.5383403301239014 107
16.120410919189453 -1.6260820627212524 2.5572288036346436 107
16.899913787841797 -1.707690954208374 2.080918788909912 51
17.135047912597656 -1.7344717979431152 1.50343656539917 51
17.116918563842773 -1.7356549501419067 0.8996551036834717 51
nan nan nan 0
1.8733609914779663 -0.19194090366363525 -0.4943445920944214 119
2.1219985485076904 -0.21779006719589233 -0.4836450219154358 119
2.4842145442962646 -0.2554040551185608 -0.47754764556884766 119
2.990436315536499 -0.30797654390335083 -0.4700859487056732 119
3.8046212196350098 -0.392498254776001 -0.46493205428123474 119
5.096682071685791 -0.5266907811164856 -0.444930762052536 119
7.810859680175781 -0.8085516691207886 -0.4081660807132721 119
nan nan nan 0
9.309783935546875 -0.9669995307922363 2.495976686477661 107
10.868603706359863 -1.13083016872406 2.511927604675293 107
13.057965278625488 -1.3609273433685303 2.5421533584594727 107
16.085163116455078 -1.679266095161438 2.5525407791137695 107
nan nan nan 0
17.32209014892578 -1.8145118951797485 1.5204318761825562 60
nan nan nan 0
nan nan nan 0
1.8678768873214722 -0.1979699581861496 -0.4930504858493805 119
2.121225357055664 -0.22519588470458984 -0.4836450219154358 119
2.4833080768585205 -0.26407402753829956 -0.47754764556884766 119
2.969700574874878 -0.3163209855556488 -0.4669572412967682 119
3.798293113708496 -0.4052499532699585 -0.4643227159976959 119
5.094812393188477 -0.5444783568382263 -0.444930762052536 119
7.803024768829346 -0.835280179977417 -0.4079052805900574 119
nan nan nan 0
9.306351661682129 -0.9994907975196838 2.495976686477661 107
10.859745979309082 -1.1682407855987549 2.510803699493408 107
13.058014869689941 -1.407025694847107 2.5431065559387207 107
16.084115982055664 -1.7359336614608765 2.5533223152160645 107
17.440189361572266 -1.8853718042373657 2.1491658687591553 60
17.46916389465332 -1.891588807106018 1.5339411497116089 60
17.471723556518555 -1.8949512243270874 0.919019341468811 60
17.4727783203125 -1.898151159286499 0.30611518025398254 60
1.871975302696228 -0.20501463115215302 -0.4943445920944214 119
2.1252691745758057 -0.23313020169734955 -0.4847698211669922 119
2.477492332458496 -0.27220475673675537 -0.4765945076942444 119
2.978395700454712 -0.32776564359664917 -0.4685215950012207 119
3.7919225692749023 -0.4179622530937195 -0.4637133479118347 119
5.092880725860596 -0.5622592568397522 -0.444930762052536 119
7.790135383605957 -0.8614151477813721 -0.40738368034362793 119
11.893743515014648 -1.3172839879989624 -0.20612700283527374 119
9.307605743408203 -1.0325024127960205 2.497270107269287 107
10.855602264404297 -1.2061412334442139 2.510803699493408 107
13.057902336120605 -1.4531409740447998 2.5440595149993896 107
16.08777618408203 -1.7931612730026245 2.554884910583496 107
17.44829559326172 -1.9478895664215088 2.150993824005127 60
17.472352981567383 -1.9536628723144531 1.534812569618225 60
17.474925994873047 -1.9570386409759521 0.9195427298545837 60
17.47101402282715 -1.9596881866455078 0.3062024712562561 60
1.8712483644485474 -0.21154780685901642 -0.4943445920944214 119
2.1244423389434814 -0.24054735898971558 -0.4847698211669922 119
2.4814038276672363 -0.28140419721603394 -0.47754764556884766 119
2.9723267555236816 -0.3376028537750244 -0.46773943305015564 119
3.7855098247528076 -0.43063509464263916 -0.4631040394306183 119
5.090887069702148 -0.5800333023071289 -0.444930762052536 119
7.782120227813721 -0.8880364894866943 -0.4071228504180908 119
11.864238739013672 -1.355954647064209 -0.20569506287574768 119
9.303945541381836 -1.064985752105713 2.497270107269287 107
10.851325988769531 -1.2440268993377686 2.510803699493408 107
13.038121223449707 -1.4970329999923706 2.5411999225616455 107
16.07651138305664 -1.8487427234649658 2.554103374481201 107
17.441390991210938 -2.0087835788726807 2.150993824005127 60
17.460479736328125 -2.0140702724456787 1.534376859664917 60
17.463029861450195 -2.0174527168273926 0.9192810654640198 60
17.449167251586914 -2.018937587738037 0.3059406578540802 60
1.8704984188079834 -0.2180783897638321 -0.4943445920944214 119
2.1284286975860596 -0.24852660298347473 -0.4858945310115814 119
2.4804065227508545 -0.2900641858577728 -0.47754764556884766 119
2.971130132675171 -0.3479761481285095 -0.46773943305015564 119
3.7790544033050537 -0.44326817989349365 -0.4624946713447571 119
5.083884239196777 -0.5972191095352173 -0.44449496269226074 119
7.764096736907959 -0.9134454727172852 -0.40634042024612427 119
11.849502563476562 -1.3961901664733887 -0.20552226901054382 119
9.3001708984375 -1.0974560976028442 2.497270107269287 107
10.846917152404785 -1.2818976640701294 2.510803699493408 107
13.018193244934082 -1.5408046245574951 2.5383403301239014 107
16.074865341186523 -1.905430555343628 2.554884910583496 107
17.429346084594727 -2.069068431854248 2.1503846645355225 60
17.448396682739258 -2.074418544769287 1.5339411497116089 60
17.4509220123291 -2.0778074264526367 0.919019341468811 60
17.43705177307129 -2.079242467880249 0.30585339665412903 60
1.874521017074585 -0.22518235445022583 -0.4956386983394623 119
2.1275482177734375 -0.25595468282699585 -0.4858945310115814 119
2.4793787002563477 -0.29872068762779236 -0.47754764556884766 119
2.9698972702026367 -0.35834524035453796 -0.46773943305015564 119
3.772557258605957 -0.45586150884628296 -0.46188533306121826 119
5.076823711395264 -0.6143631339073181 -0.44405919313430786 119
7.760860443115234 -0.940541684627533 -0.40634042024612427 119
nan nan nan 0
9.301078796386719 -1.1304957866668701 2.498563289642334 107
10.847212791442871 -1.3203413486480713 2.511927604675293 107
13.00299072265625 -1.5850493907928467 2.5364339351654053 107
16.10243034362793 -1.9657195806503296 2.560353994369507 107
17.422016143798828 -2.1298954486846924 2.1503846645355225 60
17.436105728149414 -2.134706497192383 1.5335053205490112 60
17.43860626220703 -2.1381020545959473 0.9187577366828918 60
17.419763565063477 -2.1388778686523438 0.3056788742542267 60
1.8737236261367798 -0.23172427713871002 -0.4956386983394623 119
2.121807098388672 -0.2627808749675751 -0.4847698211669922 119
2.478321075439453 -0.3073734939098358 -0.47754764556884766 119
2.968628168106079 -0.36870989203453064 -0.46773943305015564 119
3.7660183906555176 -0.46841490268707275 -0.46127596497535706 119
5.074647903442383 -0.6320808529853821 -0.44405919313430786 119
7.757530212402344 -0.9676264524459839 -0.40634042024612427 119
nan nan nan 0
9.301867485046387 -1.1635552644729614 2.49985671043396 107
10.847372055053711 -1.3588025569915771 2.5130512714385986 107
12.982768058776855 -1.6285959482192993 2.5335745811462402 107
16.115070343017578 -2.0243778228759766 2.56347918510437 107
17.409549713134766 -2.190077066421509 2.1497750282287598 60
17.42854881286621 -2.195557117462158 1.5335053205490112 60
17.426082611083984 -2.198336124420166 0.9184959530830383 60
17.392351150512695 -2.19716477394104 0.305329829454422 60
1.8729032278060913 -0.23826336860656738 -0.4956386983394623 119
