# .PCD v0.7 - Point Cloud Data file format
VERSION 0.7
FIELDS x y z intensity
SIZE 4 4 4 4
TYPE F F F F
COUNT 1 1 1 1
WIDTH 803
HEIGHT 1
VIEWPOINT 0 0 0 1 0 0 0
POINTS 803
DATA ascii
nan nan nan 0
nan nan nan 0
-2.1198840141296387 1.6856276988983154 -0.5185348391532898 119
-2.66190767288208 2.1173765659332275 -0.5326597690582275 119
-3.2297983169555664 2.5700175762176514 -0.502102255821228 119
-3.2216248512268066 2.564432144165039 -0.3569033145904541 44
-3.2172884941101074 2.5618979930877686 -0.2128201425075531 44
-3.189426898956299 2.540621757507324 -0.06980328261852264 44
-3.23302960395813 2.5762767791748047 1.0966778993606567 44
-3.230079412460327 2.574847936630249 0.944080114364624 44
-3.207390308380127 2.5576772689819336 0.7892398834228516 44
-3.1995160579681396 2.552311420440674 0.6414558291435242 44
-3.2106902599334717 2.5621426105499268 0.4996642768383026 44
-3.2219343185424805 2.572036027908325 0.357338547706604 44
-3.2331879138946533 2.5819435119628906 0.21483910083770752 44
-3.1858670711517334 2.54506516456604 0.0705077201128006 44
nan nan nan 0
nan nan nan 0
-2.1331427097320557 1.7083581686019897 -0.5233007073402405 119
-2.6545002460479736 2.1266555786132812 -0.5326597690582275 119
-3.201444387435913 2.5657577514648438 -0.49905550479888916 119
-3.193222761154175 2.5600838661193848 -0.3547244071960449 44
-3.1849544048309326 2.554368495941162 -0.21125528216362 44
-3.1610422134399414 2.5360970497131348 -0.06937132775783539 44
-3.2014167308807373 2.5694081783294678 1.0889184474945068 44
-3.198277235031128 2.5678064823150635 0.9373367428779602 44
-3.1793084144592285 2.5534896850585938 0.7844739556312561 44
-3.167487621307373 2.544905185699463 0.6367679238319397 44
-3.178518056869507 2.554680347442627 0.4960081875324249 44
-3.1896450519561768 2.564539909362793 0.35472384095191956 44
-3.200810194015503 2.574436902999878 0.21326901018619537 44
-3.1535892486572266 2.537371873855591 0.06998414546251297 44
nan nan nan 0
nan nan nan 0
-2.1115872859954834 1.7038359642028809 -0.5194879770278931 119
-2.6466879844665527 2.1363704204559326 -0.5326597690582275 119
-3.1727135181427 2.5618858337402344 -0.4960087537765503 119
-3.160569429397583 2.5529911518096924 -0.35210976004600525 44
-3.152268886566162 2.5471956729888916 -0.20969043672084808 44
-3.1283981800079346 2.5288095474243164 -0.0688529834151268 44
-3.1694436073303223 2.5629029273986816 1.0811588764190674 44
-3.166116952896118 2.561126708984375 0.9305932521820068 44
-3.1470351219177246 2.546599864959717 0.7787548899650574 44
-3.138946056365967 2.5409610271453857 0.632861316204071 44
-3.1459929943084717 2.547574520111084 0.49235212802886963 44
-3.1608726978302 2.560537099838257 0.35254499316215515 44
-3.1719563007354736 2.5704331398010254 0.2119605988264084 44
-3.1248550415039062 2.533167600631714 0.06954783201217651 44
nan nan nan 0
nan nan nan 0
nan nan nan 0
-2.639214515686035 2.1455960273742676 -0.5326597690582275 119
-3.140650510787964 2.5541577339172363 -0.492352694272995 119
-3.132319688796997 2.5482912063598633 -0.34993085265159607 44
-3.1239945888519287 2.542424440383911 -0.2083863914012909 44
-3.1001675128936768 2.523932695388794 -0.06842103600502014 44
-3.134263515472412 2.552600860595703 1.072106122970581 44
-3.1344945430755615 2.553699254989624 0.923849880695343 44
-3.11529803276062 2.53896427154541 0.7730357050895691 44
-3.1070914268493652 2.5331788063049316 0.6281735301017761 44
-3.117851972579956 2.5428574085235596 0.48930537700653076 44
-3.128758668899536 2.5526623725891113 0.3499303162097931 44
-3.1397550106048584 2.562546730041504 0.21039053797721863 44
-3.0966269969940186 2.52825665473938 0.06911152601242065 44
nan nan nan 0
nan nan nan 0
-2.0578603744506836 1.6843390464782715 -0.5090028643608093 119
-2.631708860397339 2.1547954082489014 -0.5326597690582275 119
-3.1125192642211914 2.549381971359253 -0.48930594325065613 119
-3.1002883911132812 2.5402681827545166 -0.347316175699234 44
-3.095792055130005 2.537487268447876 -0.2070823609828949 44
-3.072009325027466 2.518890142440796 -0.06798908859491348 44
-3.1029279232025146 2.54514741897583 1.0643465518951416 44
-3.10672926902771 2.5491726398468018 0.9182303547859192 44
-3.083653211593628 2.5311386585235596 0.7673166394233704 44
-3.079146385192871 2.528339147567749 0.6242669224739075 44
-3.089782476425171 2.537975549697876 0.4862586557865143 44
-3.1005871295928955 2.5477569103240967 0.3477514088153839 44
-3.111504554748535 2.5576376914978027 0.20908214151859283 44
-3.0684800148010254 2.5231692790985107 0.0686752125620842 44
nan nan nan 0
-1.7815766334533691 1.4680960178375244 -0.5241362452507019 119
-2.116353750228882 1.7445871829986572 -0.5252071022987366 119
-2.624171257019043 2.163968801498413 -0.5326597690582275 119
-3.0844602584838867 2.5444412231445312 -0.48625922203063965 119
-3.0721933841705322 2.5352230072021484 -0.34513726830482483 44
-3.063811779022217 2.529205560684204 -0.2055174857378006 44
-3.04392409324646 2.513681650161743 -0.06755713373422623 44
-3.067959785461426 2.534430742263794 1.0552937984466553 44
-3.0752782821655273 2.5413801670074463 0.9114868640899658 44
-3.0558838844299316 2.5262503623962402 0.7625506520271301 44
-3.0474672317504883 2.5201878547668457 0.6195790767669678 44
-3.0579612255096436 2.5297651290893555 0.4826025664806366 44
-3.0724880695343018 2.5426862239837646 0.3455725312232971 44
-3.0794804096221924 2.5493786334991455 0.2075120508670807 44
-3.0404021739959717 2.5179216861724854 0.06823890656232834 44
nan nan nan 0
-1.7277048826217651 1.4338585138320923 -0.5095144510269165 119
nan nan nan 0
-2.6166017055511475 2.1731157302856445 -0.5326597690582275 119
-3.05647349357605 2.5393354892730713 -0.48321250081062317 119
-3.0441715717315674 2.5300133228302 -0.34295839071273804 44
-3.035767078399658 2.5239241123199463 -0.2042134553194046 44
-3.0120692253112793 2.5051112174987793 -0.06703878939151764 44
-3.0368170738220215 2.526590347290039 1.0475342273712158 44
-3.0476646423339844 2.536515712738037 0.905867338180542 44
-3.0244147777557373 2.518059015274048 0.7568315267562866 44
-3.0196776390075684 2.515007495880127 0.6156725287437439 44
-3.030048370361328 2.524540662765503 0.4795558452606201 44
-3.0444624423980713 2.5374503135681152 0.34339362382888794 44
-3.0513875484466553 2.5441248416900635 0.2062036544084549 44
-3.0123989582061768 2.5125088691711426 0.06780259311199188 44
nan nan nan 0
nan nan nan 0
-2.0965917110443115 1.75302255153656 -0.5233007073402405 119
-2.6090002059936523 2.1822361946105957 -0.5326597690582275 119
-3.028560161590576 2.5340657234191895 -0.4801657497882843 119
-3.016223907470703 2.5246386528015137 -0.34077948331832886 44
-3.007796287536621 2.51847767829895 -0.20290939509868622 44
-2.984144449234009 2.4995596408843994 -0.06660684198141098 44
-3.0094690322875977 2.521665573120117 1.0410680770874023 44
-3.02012300491333 2.5314900875091553 0.9002478718757629 44
-2.9968013763427734 2.5128324031829834 0.7520655393600464 44
-2.991961717605591 2.5096638202667236 0.61176598072052 44
-2.9984073638916016 2.5159621238708496 0.4758997857570648 44
-3.0165114402770996 2.532050371170044 0.34121474623680115 44
-3.023369312286377 2.5387065410614014 0.2048952579498291 44
-2.9844703674316406 2.5069315433502197 0.06736628711223602 44
nan nan nan 0
-1.754923939704895 1.4772595167160034 -0.520762026309967 119
-2.0679328441619873 1.7413609027862549 -0.517581582069397 119
-2.6051437854766846 2.194511651992798 -0.533441960811615 119
-3.0007212162017822 2.528632164001465 -0.4771190285682678 119
-2.9883508682250977 2.5191001892089844 -0.3386005759239197 44
-2.9799013137817383 2.5128672122955322 -0.20160536468029022 44
-2.9524736404418945 2.4906198978424072 -0.06608849763870239 44
-2.978501081466675 2.5134658813476562 1.033308506011963 44
-2.9889304637908936 2.523160219192505 0.8935044407844543 44
-2.9655110836029053 2.504276752471924 0.7463464140892029 44
-2.964320182800293 2.504157543182373 0.6078594326972961 44
-2.970654249191284 2.510396957397461 0.47285303473472595 44
-2.9886350631713867 2.5264861583709717 0.33903583884239197 44
-2.9954257011413574 2.53312349319458 0.2035868614912033 44
-2.956617593765259 2.501189947128296 0.06692997366189957 44
nan nan nan 0
-1.7163113355636597 1.4550226926803589 -0.5106391906738281 119
-2.0730721950531006 1.7580928802490234 -0.5204411745071411 119
-2.5974674224853516 2.203591823577881 -0.533441960811615 119
-2.9729576110839844 2.5230355262756348 -0.47407227754592896 119
-2.9605538845062256 2.5133981704711914 -0.3364216685295105 44
-2.9520819187164307 2.5070924758911133 -0.20030131936073303 44
-2.9247121810913086 2.484727144241333 -0.06565655022859573 44
-2.951307773590088 2.508208751678467 1.0268423557281494 44
-2.96154522895813 2.5177996158599854 0.8878848552703857 44
-2.938056468963623 2.498713970184326 0.7415804862976074 44
-2.936753511428833 2.4984889030456543 0.6039528846740723 44
-2.942976713180542 2.504668951034546 0.4698063135147095 44
-2.960834503173828 2.5207583904266357 0.3368569612503052 44
-2.971359968185425 2.530614137649536 0.20254014432430267 44
-2.9288418292999268 2.4952850341796875 0.06649366766214371 44
nan nan nan 0
nan nan nan 0
nan nan nan 0
-2.5897598266601562 2.2126452922821045 -0.533441960811615 119
-2.9414970874786377 2.514051675796509 -0.47041618824005127 119
-2.932832956314087 2.5075325965881348 -0.3342427909374237 44
-2.924339532852173 2.5011544227600098 -0.19899725914001465 44
-2.8970279693603516 2.478670597076416 -0.06522459536790848 44
-2.924187660217285 2.5027925968170166 1.0203759670257568 44
-2.934234380722046 2.5122785568237305 0.8822653889656067 44
-2.910677433013916 2.492990016937256 0.736814558506012 44
-2.9092628955841064 2.4926586151123047 0.6000463366508484 44
-2.9153757095336914 2.498778820037842 0.4667595624923706 44
-2.936892032623291 2.5181097984313965 0.33511385321617126 44
-2.94355845451355 2.524717092514038 0.20123174786567688 44
-2.9011433124542236 2.4892163276672363 0.06605735421180725 44
nan nan nan 0
nan nan nan 0
nan nan nan 0
-2.578277111053467 2.2184505462646484 -0.5326597690582275 119
-2.9138970375061035 2.5081164836883545 -0.4673694372177124 119
-2.9051895141601562 2.50150465965271 -0.3320638835430145 44
-2.8966751098632812 2.495053768157959 -0.19769322872161865 44
-2.87320876121521 2.475714683532715 -0.06487903743982315 44
-2.897141456604004 2.4972174167633057 1.0139096975326538 44
-2.9069981575012207 2.5065979957580566 0.8766458630561829 44
-2.883373975753784 2.48710560798645 0.7320486307144165 44
-2.8818488121032715 2.4866671562194824 0.5961397886276245 44
-2.8878514766693115 2.4927260875701904 0.46371281147003174 44
-2.909234046936035 2.5120692253112793 0.3329349458217621 44
-2.912055492401123 2.515392780303955 0.19966165721416473 44
-2.873523473739624 2.482985258102417 0.06562104821205139 44
-1.5114679336547852 1.3083512783050537 -0.5254029035568237 119
-1.7193951606750488 1.4888614416122437 -0.516262948513031 119
nan nan nan 0
-2.5705173015594482 2.2274370193481445 -0.5326597690582275 119
-2.8863744735717773 2.5020196437835693 -0.4643227159976959 119
-2.877624273300171 2.495314121246338 -0.32988497614860535 44
-2.869088888168335 2.488790273666382 -0.19638918340206146 44
-2.845670461654663 2.469346523284912 -0.06444709002971649 44
-2.8738176822662354 2.4946508407592773 1.0087367296218872 44
-2.8798375129699707 2.500757932662964 0.871026337146759 44
-2.856147527694702 2.481060743331909 0.7272826433181763 44
-2.8582401275634766 2.4837541580200195 0.5930145382881165 44
-2.860405683517456 2.4865121841430664 0.46066609025001526 44
-2.8816545009613037 2.505866765975952 0.3307560384273529 44
-2.8806540966033936 2.5058798789978027 0.19809158146381378 44
-2.845982551574707 2.4765915870666504 0.06518473476171494 44
-1.5068918466567993 1.3136192560195923 -0.5254029035568237 119
nan nan nan 0
-2.0631182193756104 1.7997722625732422 -0.5242539644241333 119
-2.5590057373046875 2.233149290084839 -0.5318775773048401 119
-2.862668752670288 2.4990248680114746 -0.46188533306121826 119
-2.85013747215271 2.488962411880493 -0.32770609855651855 44
-2.8453423976898193 2.485650062561035 -0.195345938205719 44
-2.8219757080078125 2.4661059379577637 -0.06410152465105057 44
-2.8505468368530273 2.4919517040252686 1.0035637617111206 44
-2.852753162384033 2.4947588443756104 0.8654068112373352 44
-2.832692861557007 2.478088617324829 0.7234699130058289 44
-2.8309707641601562 2.477454662322998 0.5891079902648926 44
-2.8367724418640137 2.4834060668945312 0.4582287073135376 44
-2.857900857925415 2.502784013748169 0.329012930393219 44
-2.8531105518341064 2.4994688034057617 0.196783185005188 44
-2.8222808837890625 2.4733312129974365 0.06483568251132965 44
-1.4984380006790161 1.315946340560913 -0.5241087675094604 119
-1.716017484664917 1.50755774974823 -0.518512487411499 119
-2.052820920944214 1.8040817975997925 -0.5233007073402405 119
-2.5508036613464355 2.2425131797790527 -0.5318775773048401 119
-2.8385839462280273 2.4963908195495605 -0.4594479501247406 119
-2.8222970962524414 2.4829413890838623 -0.3255271911621094 44
-2.8174712657928467 2.4795682430267334 -0.194041907787323 44
-2.7979087829589844 2.4632186889648438 -0.06375596672296524 44
-2.8268959522247314 2.489614248275757 0.9983907341957092 44
-2.828967571258545 2.4923152923583984 0.8609111905097961 44
-2.8051795959472656 2.4722280502319336 0.7187039852142334 44
-2.8033487796783447 2.4714841842651367 0.5852014422416687 44
-2.8090412616729736 2.4773738384246826 0.4551819860935211 44
-2.833768129348755 2.500060796737671 0.3272698223590851 44
-2.8214683532714844 2.4900853633880615 0.19521310925483704 44
-2.7944586277008057 2.4671154022216797 0.06439937651157379 44
-1.497453212738037 1.3243685960769653 -0.5254029035568237 119
-1.7143933773040771 1.516766905784607 -0.5196372270584106 119
-2.0428354740142822 1.8079835176467896 -0.5223475694656372 119
-2.5429601669311523 2.251403570175171 -0.5318775773048401 119
-2.81127667427063 2.4898324012756348 -0.45640119910240173 119
-2.7987000942230225 2.479565382003784 -0.32378408312797546 44
-2.793851613998413 2.4761404991149902 -0.19299866259098053 44
-2.770589828491211 2.456387758255005 -0.06332401186227798 44
-2.80373477935791 2.486647605895996 0.9932177066802979 44
-2.802027940750122 2.4860079288482666 0.8552916049957275 44
-2.781848669052124 2.4689724445343018 0.714891254901886 44
-2.7762396335601807 2.464860439300537 0.5812948942184448 44
-2.7818236351013184 2.470686435699463 0.45213523507118225 44
-2.806406021118164 2.4933958053588867 0.3250909149646759 44
-2.794098377227783 2.4833335876464844 0.19390471279621124 44
-2.7671449184417725 2.4602513313293457 0.06396306306123734 44
-1.489214539527893 1.3263753652572632 -0.5241087675094604 119
-1.7090884447097778 1.5227419137954712 -0.5196372270584106 119
-2.0365118980407715 1.81510329246521 -0.5223475694656372 119
-2.535085678100586 2.2602665424346924 -0.5318775773048401 119
-2.7877540588378906 2.486417531967163 -0.4539638161659241 119
-2.771444082260132 2.4727392196655273 -0.3216051757335663 44
-2.7665653228759766 2.4692533016204834 -0.19169461727142334 44
-2.747082233428955 2.452725648880005 -0.06297845393419266 44
-2.7806286811828613 2.4835498332977295 0.9880447387695312 44
-2.775167942047119 2.479543447494507 0.8496721386909485 44
-2.754915475845337 2.462313175201416 0.7101252675056458 44
-2.752892017364502 2.461369037628174 0.5781696438789368 44
-2.7583863735198975 2.4671480655670166 0.4496978521347046 44
-2.782837390899658 2.489891767501831 0.323347806930542 44
-2.766810178756714 2.476421356201172 0.19259630143642426 44
-2.7436466217041016 2.4565515518188477 0.06361401826143265 44
-1.4845755100250244 1.3315656185150146 -0.5241087675094604 119
-1.692884087562561 1.5189377069473267 -0.516262948513031 119
-2.0301637649536133 1.8222010135650635 -0.5223475694656372 119
-2.5271806716918945 2.269101858139038 -0.5318775773048401 119
-2.7605972290039062 2.4795520305633545 -0.4509170651435852 119
-2.7479753494262695 2.4690821170806885 -0.3198620676994324 44
-2.743074655532837 2.4655439853668213 -0.19065138697624207 44
-2.719916343688965 2.445586919784546 -0.0625464990735054 44
-2.7575788497924805 2.4803214073181152 0.9828717112541199 44
-2.7520084381103516 2.4761803150177 0.8451765179634094 44
-2.731710910797119 2.45878005027771 0.7063125371932983 44
-2.725933074951172 2.4544410705566406 0.5742630958557129 44
-2.731320381164551 2.4601547718048096 0.4466511309146881 44
-2.755626916885376 2.482919454574585 0.3211688995361328 44
-2.7396047115325928 2.4693493843078613 0.19128791987895966 44
-2.7164907455444336 2.4493749141693115 0.06317770481109619 44
-1.4799184799194336 1.3367395401000977 -0.5241087675094604 119
-1.691186547279358 1.5281040668487549 -0.5173877477645874 119
-2.0237905979156494 1.8292765617370605 -0.5223475694656372 119
-2.519244432449341 2.277909517288208 -0.5318775773048401 119
-2.7372031211853027 2.4758567810058594 -0.44847968220710754 119
-2.7245662212371826 2.4652915000915527 -0.3181189298629761 44
-2.715942144393921 2.45835018157959 -0.18934732675552368 44
-2.6965396404266357 2.4416441917419434 -0.062200941145420074 44
-2.7310054302215576 2.473719596862793 0.9764054417610168 44
-2.7252964973449707 2.469414472579956 0.8395569920539856 44
-2.704928159713745 2.4518187046051025 0.7015465497970581 44
-2.7027151584625244 2.450671911239624 0.5711378455162048 44
-2.7080130577087402 2.4563369750976562 0.44421374797821045 44
-2.7321879863739014 2.4791347980499268 0.3194257915019989 44
-2.716179609298706 2.4654734134674072 0.19024120271205902 44
-2.693119764328003 2.445399522781372 0.0628286600112915 44
-1.475243330001831 1.3418973684310913 -0.5241087675094604 119
-1.6858422756195068 1.5339980125427246 -0.5173877477645874 119
-2.0210227966308594 1.839633822441101 -0.5233007073402405 119
-2.511277675628662 2.286689519882202 -0.5318775773048401 119
-2.7138688564300537 2.472028970718384 -0.4460422992706299 119
-2.7012174129486084 2.461367607116699 -0.31637582182884216 44
-2.6925835609436035 2.4543607234954834 -0.1883040964603424 44
-2.669529914855957 2.434199810028076 -0.06176899001002312 44
-2.708080530166626 2.4702179431915283 0.9712324142456055 44
-2.7022640705108643 2.4657764434814453 0.8350613713264465 44
-2.6818528175354004 2.448009490966797 0.6977338194847107 44
-2.6759095191955566 2.4434406757354736 0.567231297492981 44
-2.684765577316284 2.4523868560791016 0.4417763650417328 44
-2.705132246017456 2.4718570709228516 0.3172468841075897 44
-2.6891298294067383 2.4580955505371094 0.18893279135227203 44
-2.6661202907562256 2.437917470932007 0.06239234656095505 44
-1.470550298690796 1.347038745880127 -0.5241087675094604 119
-1.680477261543274 1.539873480796814 -0.5173877477645874 119
-2.0145888328552246 1.8466771841049194 -0.5233007073402405 119
-2.499640941619873 2.2921042442321777 -0.5310954451560974 119
-2.6905949115753174 2.4680683612823486 -0.44360488653182983 0
-2.6742591857910156 2.4539434909820557 -0.31419694423675537 44
-2.6656079292297363 2.446861982345581 -0.1870000660419464 44
-2.646287679672241 2.429978370666504 -0.06142342835664749 44
-2.685213565826416 2.4665863513946533 0.9660593867301941 44
-2.679290533065796 2.462008237838745 0.8305657505989075 44
-2.6552236080169678 2.4407477378845215 0.6929678916931152 44
-2.652822971343994 2.4393951892852783 0.5641060471534729 44
-2.657926559448242 2.4449446201324463 0.4387296140193939 44
-2.678161144256592 2.464420795440674 0.31506800651550293 44
-2.6658382415771484 2.4539408683776855 0.1878860741853714 44
-2.6428840160369873 2.4336633682250977 0.06204329803586006 44
-1.4658392667770386 1.3521636724472046 -0.5241087675094604 119
-1.6750918626785278 1.5457299947738647 -0.5173877477645874 119
-2.0081305503845215 1.8536982536315918 -0.5233007073402405 119
-2.4916248321533203 2.3008153438568115 -0.5310954451560974 119
-2.663736343383789 2.4606082439422607 -0.44055816531181335 0
-2.6510441303253174 2.4497416019439697 -0.31245383620262146 44
-2.6423838138580322 2.442594051361084 -0.18595680594444275 44
-2.623107433319092 2.425624132156372 -0.061077866703271866 44
-2.6588594913482666 2.459545612335205 0.9595931172370911 44
-2.6528007984161377 2.454800605773926 0.8249462246894836 44
-2.632279872894287 2.436664342880249 0.6891551613807678 44
-2.6297972202301025 2.435218572616577 0.5609807968139648 44
-2.634812831878662 2.4407174587249756 0.43629223108291626 44
-2.654928207397461 2.460212230682373 0.313324898481369 44
-2.638946771621704 2.446258783340454 0.1865776777267456 44
-2.6197099685668945 2.429277181625366 0.061694253236055374 44
-1.4611104726791382 1.3572722673416138 -0.5241087675094604 119
-1.669685959815979 1.551567792892456 -0.5173877477645874 119
-1.998052716255188 1.857354760169983 -0.5223475694656372 119
-2.4835782051086426 2.3094987869262695 -0.5310954451560974 119
-2.640596389770508 2.4563708305358887 -0.4381207823753357 0
-2.6278908252716064 2.4454076290130615 -0.31071069836616516 44
-2.619222402572632 2.4381942749023438 -0.18491357564926147 44
-2.599989891052246 2.421138048171997 -0.06073230877518654 44
-2.6361217498779297 2.455643653869629 0.9544201493263245 44
-2.629958152770996 2.4507596492767334 0.8204506039619446 44
-2.605806827545166 2.4291036128997803 0.6843891739845276 44
-2.6068334579467773 2.4309113025665283 0.5578556060791016 44
-2.6117615699768066 2.43635892868042 0.4338548481464386 44
-2.6281158924102783 2.4524729251861572 0.31114599108695984 44
-2.6157917976379395 2.441826820373535 0.18553094565868378 44
-2.5965991020202637 2.4247586727142334 0.06134520471096039 44
-1.4598908424377441 1.3656635284423828 -0.5254029035568237 119
-1.664259910583496 1.5573866367340088 -0.5173877477645874 119
-1.9915571212768555 1.8643178939819336 -0.5223475694656372 119
-2.4718966484069824 2.3147785663604736 -0.53031325340271 119
-2.617518186569214 2.4520018100738525 -0.43568336963653564 0
-2.601166248321533 2.4375364780426025 -0.30853182077407837 44
-2.5961241722106934 2.4336624145507812 -0.1838703453540802 44
-2.573289394378662 2.4131007194519043 -0.06030035763978958 44
-2.613443613052368 2.451612710952759 0.9492471218109131 44
-2.603623867034912 2.443255662918091 0.8148310780525208 44
-2.5829973220825195 2.4247472286224365 0.6805764436721802 44
-2.5839316844940186 2.4264731407165527 0.5547303557395935 44
-2.585155487060547 2.428471565246582 0.43080809712409973 44
-2.6050198078155518 2.4479880332946777 0.3094028830528259 44
-2.5927000045776367 2.437263011932373 0.18448422849178314 44
-2.573551654815674 2.4201087951660156 0.0609961561858654 44
-1.4548757076263428 1.3710052967071533 -0.5254029035568237 119
-1.6585406064987183 1.5634758472442627 -0.5173877477645874 119
-1.984710693359375 1.8716048002243042 -0.5223475694656372 119
-2.463395833969116 2.3238227367401123 -0.53031325340271 119
-2.594076156616211 2.4479548931121826 -0.433245986700058 0
-2.5777266025543213 2.4333767890930176 -0.30678868293762207 44
-2.569035291671753 2.426020383834839 -0.182566300034523 44
-2.5498909950256348 2.4087839126586914 -0.059954799711704254 44
-2.586888551712036 2.4445886611938477 0.9427809119224548 44
-2.58048939704895 2.439394235610962 0.8103354573249817 44
-2.5598278045654297 2.420708656311035 0.6767637133598328 44
-2.5606703758239746 2.4223520755767822 0.5516051054000854 44
-2.561819076538086 2.424285888671875 0.42837071418762207 44
-2.5815610885620117 2.4438223838806152 0.307659775018692 44
-2.5692477226257324 2.433016300201416 0.1834375113248825 44
-2.5501468181610107 2.4157726764678955 0.060647107660770416 44
-1.4500811100006104 1.376075267791748 -0.5254029035568237 119
-1.6530729532241821 1.5692558288574219 -0.5173877477645874 119
-1.981724739074707 1.8819013833999634 -0.5233007073402405 119
-2.4552693367004395 2.3324077129364014 -0.53031325340271 119
-2.5711257457733154 2.4433207511901855 -0.4308086037635803 0
-2.554776668548584 2.4286327362060547 -0.30504557490348816 44
-2.5460779666900635 2.4212095737457275 -0.18152306973934174 44
-2.5269787311553955 2.4038870334625244 -0.05960923433303833 44
-2.5643444061279297 2.4402854442596436 0.9376078844070435 44
-2.5578436851501465 2.4349498748779297 0.8058398365974426 44
-2.537144660949707 2.4160897731781006 0.6729509234428406 44
-2.537895917892456 2.417649984359741 0.5484798550605774 44
-2.5389702320098877 2.4195189476013184 0.4259333312511444 44
-2.558593988418579 2.4390714168548584 0.3059166669845581 44
-2.5462851524353027 2.4281861782073975 0.18239079415798187 44
-2.5272295475006104 2.4108567237854004 0.06029805913567543 44
-1.4452688694000244 1.3811285495758057 -0.5254029035568237 119
-1.647585153579712 1.5750164985656738 -0.5173877477645874 119
-1.9751434326171875 1.8888074159622192 -0.5233007073402405 119
-2.447112560272217 2.340963840484619 -0.53031325340271 119
-2.5482394695281982 2.4385557174682617 -0.42837122082710266 0
-2.535489320755005 2.4272024631500244 -0.30373823642730713 44
-2.5231854915618896 2.4162683486938477 -0.18047983944416046 44
-2.507742166519165 2.4023187160491943 -0.059350065886974335 44
-2.5418620109558105 2.435854911804199 0.9324348568916321 44
-2.5352602005004883 2.43037748336792 0.8013442158699036 44
-2.5145249366760254 2.4113423824310303 0.6691381931304932 44
-2.515185832977295 2.4128189086914062 0.5453546047210693 44
-2.516186237335205 2.4146220684051514 0.42349594831466675 44
-2.535691261291504 2.434190034866333 0.3041735589504242 44
-2.526989698410034 2.4266843795776367 0.1816057711839676 44
-2.504377841949463 2.4058103561401367 0.05994901433587074 44
-1.440438985824585 1.3861651420593262 -0.5254029035568237 119
-1.6420773267745972 1.5807580947875977 -0.5173877477645874 119
-1.9685382843017578 1.8956903219223022 -0.5233007073402405 119
-2.4353697299957275 2.3460655212402344 -0.5295311212539673 119
-2.528991222381592 2.437105178833008 -0.4265431761741638 0
-2.5126571655273438 2.422210454940796 -0.30199509859085083 44
-2.500359058380127 2.4111969470977783 -0.179436594247818 44
-2.4849491119384766 2.3971738815307617 -0.05900450423359871 44
-2.519441843032837 2.4312973022460938 0.9272618889808655 44
-2.512740135192871 2.4256770610809326 0.7968485951423645 44
-2.491969585418701 2.406466484069824 0.6653254628181458 44
-2.4925405979156494 2.4078590869903564 0.542229413986206 44
-2.4970364570617676 2.4130446910858154 0.4216679334640503 44
-2.509272813796997 2.4257166385650635 0.301994651556015 44
-2.504146099090576 2.4216060638427734 0.18055903911590576 44
-2.485185146331787 2.4041097164154053 0.05968722328543663 44
-1.4321231842041016 1.3878237009048462 -0.5241087675094604 119
-1.6365493535995483 1.5864803791046143 -0.5173877477645874 119
-1.9619091749191284 1.902550220489502 -0.5233007073402405 119
-2.4271655082702637 2.3545522689819336 -0.5295311212539673 119
-2.50622296333313 2.432093620300293 -0.42410579323768616 0
-2.4898910522460938 2.417088747024536 -0.3002519905567169 44
-2.4775986671447754 2.405996084213257 -0.17839334905147552 44
-2.4622230529785156 2.391899824142456 -0.05865894630551338 44
-2.497084617614746 2.4266128540039062 0.9220888018608093 44
-2.486790657043457 2.4174535274505615 0.7912290692329407 44
-2.4694788455963135 2.4014627933502197 0.6615126729011536 44
-2.4699606895446777 2.4027702808380127 0.5391041040420532 44
-2.4743716716766357 2.4079017639160156 0.41923052072525024 44
-2.48651385307312 2.420563220977783 0.3002515435218811 44
-2.4813690185546875 2.416398286819458 0.17951232194900513 44
-2.462454319000244 2.3988163471221924 0.05933817848563194 44
-1.4272701740264893 1.3928142786026 -0.5241087675094604 119
-1.631001591682434 1.5921833515167236 -0.5173877477645874 119
-1.9552561044692993 1.9093871116638184 -0.5233007073402405 119
-2.4189319610595703 2.3630101680755615 -0.5295311212539673 119
-2.479971170425415 2.4234845638275146 -0.4210590422153473 44
-2.4707531929016113 2.4153196811676025 -0.2989446520805359 44
-2.4549055099487305 2.400665521621704 -0.17735011875629425 44
-2.4395639896392822 2.386496067047119 -0.058313384652137756 44
-2.4747908115386963 2.421802282333374 0.9169158339500427 44
-2.4644110202789307 2.4124867916107178 0.7867334485054016 44
-2.4470536708831787 2.396331787109375 0.6576998829841614 44
-2.450974941253662 2.4010095596313477 0.5367602109909058 44
-2.451773166656494 2.40263032913208 0.4167931377887726 44
-2.4602646827697754 2.4117934703826904 0.2980726361274719 44
-2.4586589336395264 2.4110608100891113 0.1784656047821045 44
-2.439790725708008 2.3933937549591064 0.05898912996053696 44
-1.4223995208740234 1.3977879285812378 -0.5241087675094604 119
-1.6254338026046753 1.5978668928146362 -0.5173877477645874 119
-1.9450794458389282 1.9127589464187622 -0.5223475694656372 119
-2.4106686115264893 2.3714394569396973 -0.5295311212539673 119
-2.4608848094940186 2.4216837882995605 -0.41923099756240845 44
-2.448108434677124 2.409952163696289 -0.297201544046402 44
-2.435837507247925 2.398709774017334 -0.1765677034854889 44
-2.420534372329712 2.384472131729126 -0.05805421248078346 44
-2.452561616897583 2.416865825653076 0.9117428064346313 44
-2.44209623336792 2.407392978668213 0.7822378277778625 44
-2.428189754486084 2.394519805908203 0.654840350151062 44
-2.428515672683716 2.3956775665283203 0.5336349606513977 44
-2.429241895675659 2.397230863571167 0.4143557548522949 44
-2.4376518726348877 2.406369686126709 0.296329528093338 44
-2.4395694732666016 2.4091033935546875 0.17768056690692902 44
-2.4207520484924316 2.3913559913635254 0.05872734636068344 44
-1.4140788316726685 1.3993474245071411 -0.5228146910667419 119
-1.6198463439941406 1.603531002998352 -0.5173877477645874 119
-1.9383907318115234 1.9195369482040405 -0.5223475694656372 119
-2.398867607116699 2.376364231109619 -0.5287489295005798 119
-2.4383163452148438 2.4162862300872803 -0.4167936146259308 44
-2.4290690422058105 2.4079630374908447 -0.29589420557022095 44
-2.4132676124572754 2.3931338787078857 -0.17552445828914642 44
-2.3979997634887695 2.3788235187530518 -0.05770865082740784 44
-2.4338252544403076 2.415205955505371 0.9078630805015564 44
-2.423305034637451 2.4056053161621094 0.7788661122322083 44
-2.4058854579925537 2.3891470432281494 0.6510276198387146 44
-2.406123638153076 2.3902180194854736 0.5305097103118896 44
-2.4102988243103027 2.3952014446258545 0.4125277101993561 44
-2.415107250213623 2.400817632675171 0.2945864200592041 44
-2.416983127593994 2.4035212993621826 0.17663384974002838 44
-2.3982129096984863 2.385688304901123 0.058378297835588455 44
-1.409185528755188 1.4042749404907227 -0.5228146910667419 119
-1.6142390966415405 1.6091755628585815 -0.5173877477645874 119
-1.9282031059265137 1.922825574874878 -0.5213943719863892 119
-2.3905577659606934 2.384723424911499 -0.5287489295005798 119
-2.415815591812134 2.4107606410980225 -0.4143562316894531 44
-2.406548261642456 2.4023513793945312 -0.29415109753608704 44
-2.3942997455596924 2.390958547592163 -0.17474202811717987 44
-2.37907075881958 2.3765804767608643 -0.05744947865605354 44
-2.4117143154144287 2.4100306034088135 0.902690052986145 44
-2.4011104106903076 2.4002718925476074 0.7743704915046692 44
-2.383648157119751 2.383647918701172 0.6472148895263672 44
-2.3837997913360596 2.384631633758545 0.5273844599723816 44
-2.3878912925720215 2.389558792114258 0.4100903272628784 44
-2.396151542663574 2.3986616134643555 0.29327908158302307 44
-2.397993803024292 2.401343822479248 0.1758487969636917 44
-2.3757429122924805 2.379892587661743 0.05802924558520317 44
-1.4042751789093018 1.4091852903366089 -0.5228146910667419 119
-1.608612298965454 1.6148004531860352 -0.5173877477645874 119
-1.9214794635772705 1.9295446872711182 -0.5213943719863892 119
-2.382219076156616 2.3930535316467285 -0.5287489295005798 119
-2.393383264541626 2.4051079750061035 -0.41191884875297546 44
-2.3876094818115234 2.4001431465148926 -0.2928437292575836 44
-2.3718557357788086 2.385139226913452 -0.1736987978219986 44
-2.3566625118255615 2.3706884384155273 -0.05710391700267792 44
-2.389669179916382 2.404730796813965 0.8975170850753784 44
-2.3789830207824707 2.394813060760498 0.7698748707771301 44
-2.361478805541992 2.3780224323272705 0.643402099609375 44
-2.365023374557495 2.3824234008789062 0.5250405669212341 44
-2.365553140640259 2.3837890625 0.40765294432640076 44
-2.373732328414917 2.392866373062134 0.29153597354888916 44
-2.3755335807800293 2.3955180644989014 0.17480207979679108 44
-2.3568625450134277 2.3775198459625244 0.057767461985349655 44
-1.3993476629257202 1.4140785932540894 -0.5228146910667419 119
-1.5995392799377441 1.616942048072815 -0.516262948513031 119
-1.9147322177886963 1.9362400770187378 -0.5213943719863892 119
-2.3738512992858887 2.4013545513153076 -0.5287489295005798 119
-2.3745086193084717 2.402857780456543 -0.4100908041000366 44
-2.3652148246765137 2.3942887783050537 -0.2911006212234497 44
-2.352989912033081 2.3827455043792725 -0.17291636765003204 44
-2.334324598312378 2.3646693229675293 -0.05675835907459259 44
-2.367690324783325 2.399306297302246 0.8923439979553223 44
-2.3569226264953613 2.3892288208007812 0.7653792500495911 44
-2.3393781185150146 2.372271776199341 0.6395893692970276 44
-2.3428244590759277 2.376596450805664 0.5219153165817261 44
-2.3467676639556885 2.38142728805542 0.4058248996734619 44
-2.3513827323913574 2.386943817138672 0.28979283571243286 44
-2.3566465377807617 2.393122434616089 0.1740170419216156 44
-2.3345205783843994 2.3714818954467773 0.05741841346025467 44
-1.394403100013733 1.418954610824585 -0.5228146910667419 119
-1.5938853025436401 1.6225156784057617 -0.516262948513031 119
-1.9114009141921997 1.9464139938354492 -0.5223475694656372 119
-2.361994981765747 2.406101942062378 -0.5279667377471924 119
-2.352202892303467 2.396963596343994 -0.40765342116355896 44
-2.3463783264160156 2.3918631076812744 -0.2897932827472687 44
-2.330674409866333 2.3766844272613525 -0.17187312245368958 44
-2.3120572566986084 2.35852313041687 -0.056412797421216965 44
-2.3491594791412354 2.397207498550415 0.8884642720222473 44
-2.3383400440216064 2.387000560760498 0.7620075345039368 44
-2.3207805156707764 2.3699026107788086 0.6367297768592834 44
-2.320695638656616 2.3706436157226562 0.518790066242218 44
-2.324556589126587 2.3754167556762695 0.40338751673698425 44
-2.332587242126465 2.384455442428589 0.28848549723625183 44
-2.33780574798584 2.3906242847442627 0.17323200404644012 44
-2.315744400024414 2.368891716003418 0.057156626135110855 44
-1.3894414901733398 1.4238134622573853 -0.5228146910667419 119
-1.588212013244629 1.6280694007873535 -0.516262948513031 119
-1.9045950174331665 1.9530742168426514 -0.5223475694656372 119
-2.3501346111297607 2.4107959270477295 -0.5271845459938049 119
-2.333430767059326 2.3944969177246094 -0.4058253765106201 44
-2.3241121768951416 2.3857674598693848 -0.28805017471313477 44
-2.311913251876831 2.3740735054016113 -0.17109070718288422 44
-2.293349266052246 2.355833053588867 -0.05615362897515297 44
-2.327303647994995 2.391547679901123 0.8832913041114807 44
-2.3164048194885254 2.381179094314575 0.7575119137763977 44
-2.298806667327881 2.3639142513275146 0.632917046546936 44
-2.302079200744629 2.3681063652038574 0.5164461135864258 44
-2.3024160861968994 2.3692803382873535 0.4009501338005066 44
-2.3103668689727783 2.3782923221588135 0.2867423892021179 44
-2.3155324459075928 2.384442090988159 0.1721852868795395 44
-2.293532609939575 2.362612724304199 0.05680757761001587 44
-1.3844629526138306 1.4286547899246216 -0.5228146910667419 119
-1.5859092473983765 1.6371028423309326 -0.5173877477645874 119
-1.8977659940719604 1.9597105979919434 -0.5223475694656372 119
-2.314225912094116 2.390599012374878 -0.5209271907806396 119
-2.311253547668457 2.388362407684326 -0.40338799357414246 44
-2.3053805828094482 2.3831257820129395 -0.28674283623695374 44
-2.2897276878356934 2.367771863937378 -0.17004747688770294 44
-2.2712130546569824 2.3494462966918945 -0.055808067321777344 44
-2.305516242980957 2.3857641220092773 0.8781182765960693 44
-2.297924041748047 2.3787384033203125 0.7541402578353882 44
-2.2803120613098145 2.3613317012786865 0.6300574541091919 44
-2.280078887939453 2.361915111541748 0.5133208632469177 44
-2.2837934494018555 2.3665895462036133 0.39912205934524536 44
-2.2916762828826904 2.3755879402160645 0.2854350507259369 44
-2.2967967987060547 2.381727695465088 0.171400249004364 44
-2.274862766265869 2.359806537628174 0.056545794010162354 44
-1.3794676065444946 1.433478832244873 -0.5228146910667419 119
-1.580185055732727 1.6426286697387695 -0.5173877477645874 119
-1.890913724899292 1.9663231372833252 -0.5223475694656372 119
-2.28875470161438 2.380861520767212 -0.5170162916183472 119
-2.2925865650177 2.385680675506592 -0.4015599191188812 44
-2.286695718765259 2.3803822994232178 -0.2854354977607727 44
-2.271073341369629 2.364945411682129 -0.1692650467157364 44
-2.2526116371154785 2.346540689468384 -0.05554889515042305 44
-2.2837975025177 2.3798582553863525 0.872945249080658 44
-2.276115655899048 2.3726818561553955 0.7496446371078491 44
-2.261863946914673 2.358649253845215 0.6271979212760925 44
-2.2615678310394287 2.3591647148132324 0.5109769701957703 44
-2.2617838382720947 2.3602147102355957 0.3966846764087677 44
-2.269587516784668 2.369185447692871 0.283691942691803 44
-2.2746551036834717 2.375305414199829 0.17035353183746338 44
-2.2562406063079834 2.3568990230560303 0.05628400668501854 44
-1.3711187839508057 1.4347935914993286 -0.5215205550193787 119
-1.577806830406189 1.6516573429107666 -0.518512487411499 119
-1.8840384483337402 1.9729115962982178 -0.5223475694656372 119
-2.25996994972229 2.367403507232666 -0.512323260307312 119
-2.2739665508270264 2.3828980922698975 -0.39973190426826477 44
-2.264620304107666 2.3739333152770996 -0.2836923599243164 44
-2.2524664402008057 2.36201810836792 -0.16848261654376984 44
-2.2340586185455322 2.343533992767334 -0.055289722979068756 44
-2.2654802799224854 2.377326011657715 0.8690654635429382 44
-2.257737874984741 2.3700294494628906 0.74627286195755 44
-2.243462085723877 2.3558669090270996 0.6243383288383484 44
-2.243103504180908 2.356313705444336 0.508633017539978 44
-2.2432680130004883 2.3573102951049805 0.39485666155815125 44
-2.251004457473755 2.3662667274475098 0.28238460421562195 44
-2.2560276985168457 2.3723762035369873 0.1695684939622879 44
-2.234221935272217 2.3502674102783203 0.05593495815992355 44
-1.3661019802093506 1.4395709037780762 -0.5215205550193787 119
-1.5686789751052856 1.6536203622817993 -0.5173877477645874 119
-1.8771402835845947 1.9794760942459106 -0.5223475694656372 119
-2.24150013923645 2.3645260334014893 -0.5099768042564392 119
-2.2553939819335938 2.380014419555664 -0.39790382981300354 44
-2.2460434436798096 2.370975971221924 -0.28238505125045776 44
-2.233907699584961 2.358989715576172 -0.16770018637180328 44
-2.2155542373657227 2.340426445007324 -0.05503055453300476 44
-2.243889093399048 2.371187210083008 0.8638924956321716 44
-2.2360587120056152 2.363738775253296 0.741777241230011 44
-2.2217354774475098 2.349418878555298 0.620525598526001 44
-2.221294403076172 2.34977388381958 0.50550776720047 44
-2.2248001098632812 2.3543052673339844 0.3930286169052124 44
-2.232469320297241 2.3632471561431885 0.2810772657394409 44
-2.237448215484619 2.3693459033966064 0.16878345608711243 44
-2.2157092094421387 2.3471457958221436 0.05567317083477974 44
-1.357756495475769 1.4408159255981445 -0.5202265381813049 119
-1.559556484222412 1.655539631843567 -0.516262948513031 119
-1.870219111442566 1.9860163927078247 -0.5223475694656372 119
-2.2230775356292725 2.36154842376709 -0.5076302289962769 119
-2.2368695735931396 2.377030611038208 -0.3960758149623871 44
-2.2275149822235107 2.367917537689209 -0.28107771277427673 44
-2.211977243423462 2.3522231578826904 -0.166656956076622 44
-2.1936745643615723 2.333575963973999 -0.054684996604919434 44
-2.2256758213043213 2.3684463500976562 0.8600127100944519 44
-2.2177867889404297 2.3608765602111816 0.7384055256843567 44
-2.2034409046173096 2.346425771713257 0.6176660060882568 44
-2.2029385566711426 2.3467113971710205 0.5031638741493225 44
-2.206380605697632 2.3512003421783447 0.39120060205459595 44
-2.2139832973480225 2.3601274490356445 0.2797699570655823 44
-2.2189176082611084 2.3662149906158447 0.16799841821193695 44
-2.1972455978393555 2.343924045562744 0.055411387234926224 44
-1.359318733215332 1.4525994062423706 -0.5228146910667419 119
-1.5537681579589844 1.6609734296798706 -0.516262948513031 119
-1.8632752895355225 1.992532730102539 -0.5223475694656372 119
-2.2047035694122314 2.358471155166626 -0.505283772945404 119
-2.218393325805664 2.373946189880371 -0.39424777030944824 44
-2.205634832382202 2.361119031906128 -0.27933457493782043 44
-2.1935291290283203 2.3489818572998047 -0.16587452590465546 44
-2.175281047821045 2.3302555084228516 -0.05442582443356514 44
-2.2075092792510986 2.365607500076294 0.856132984161377 44
-2.1962387561798096 2.354353427886963 0.7339099049568176 44
-2.181847333908081 2.3397443294525146 0.6138532757759094 44
-2.184631109237671 2.3435494899749756 0.5008199214935303 44
-2.1880099773406982 2.3479957580566406 0.3893725275993347 44
-2.1955459117889404 2.3569071292877197 0.27846258878707886 44
-2.2004358768463135 2.362983465194702 0.16721338033676147 44
-2.1754252910614014 2.3369429111480713 0.05506233870983124 44
-1.357527494430542 1.4608732461929321 -0.5241087675094604 119
-1.5479607582092285 1.6663869619369507 -0.516262948513031 119
-1.859648585319519 2.0026211738586426 -0.5233007073402405 119
-2.186378240585327 2.355294704437256 -0.5029371976852417 119
-2.1999661922454834 2.370762348175049 -0.3924197256565094 44
-2.1872172355651855 2.3578484058380127 -0.2780272364616394 44
-2.1717357635498047 2.3419790267944336 -0.164831280708313 44
-2.156938076019287 2.3268356323242188 -0.054166655987501144 44
-2.189389944076538 2.3626708984375 0.8522531986236572 44
-2.178074598312378 2.351282835006714 0.7305382490158081 44
-2.1603269577026367 2.3329403400421143 0.6100404858589172 44
-2.166372776031494 2.3402884006500244 0.49847596883773804 44
-2.1696887016296387 2.344691514968872 0.3875444829463959 44
-2.1771583557128906 2.3535873889923096 0.2771552503108978 44
-2.1786141395568848 2.3559861183166504 0.16616664826869965 44
-2.157073974609375 2.3335089683532715 0.054800551384687424 44
-1.358970284461975 1.4727017879486084 -0.5266969799995422 119
-1.538831353187561 1.6681993007659912 -0.5151382088661194 119
-1.8559741973876953 2.012708902359009 -0.5242539644241333 119
-2.164754629135132 2.3483877182006836 -0.49980852007865906 119
-2.1815884113311768 2.367478370666504 -0.39059168100357056 44
-2.1654744148254395 2.3508148193359375 -0.2762841284275055 44
-2.1534006595611572 2.338526487350464 -0.16404886543750763 44
-2.1386451721191406 2.3233160972595215 -0.05390748381614685 44
-2.1680476665496826 2.3560824394226074 0.8470801711082458 44
-2.156660318374634 2.3445286750793457 0.726042628288269 44
-2.1422033309936523 2.3296282291412354 0.6071809530258179 44
-2.1448216438293457 2.3332927227020264 0.49535074830055237 44
-2.148059606552124 2.3376340866088867 0.3851071000099182 44
-2.158820867538452 2.350167989730835 0.2758479416370392 44
-2.160245418548584 2.3525431156158447 0.16538161039352417 44
-2.1387734413146973 2.3299758434295654 0.05453876778483391 44
-1.3472956418991089 1.470314860343933 -0.5241087675094604 119
-1.5362894535064697 1.6771529912948608 -0.516262948513031 119
-1.8489371538162231 2.0191750526428223 -0.5242539644241333 119
-2.146540641784668 2.345001459121704 -0.4974619746208191 119
-2.159910202026367 2.360434055328369 -0.3881542980670929 44
-2.147170066833496 2.3473336696624756 -0.27497678995132446 44
-2.1351161003112793 2.3349742889404297 -0.16326643526554108 44
-2.120403528213501 2.319697380065918 -0.053648315370082855 44
-2.150036096572876 2.3529396057128906 0.8432004451751709 44
-2.1386055946350098 2.3412506580352783 0.72267085313797 44
-2.124129295349121 2.3262181282043457 0.6043213605880737 44
-2.1266753673553467 2.3298230171203613 0.4930068254470825 44
-2.1298515796661377 2.334120273590088 0.38327908515930176 44
-2.140533447265625 2.346649169921875 0.27454057335853577 44
-2.141927480697632 2.349000930786133 0.1645965725183487 44
-2.1205239295959473 2.326343297958374 0.054276980459690094 44
-1.3353980779647827 1.4680978059768677 -0.5215205550193787 119
-1.5301320552825928 1.6827725172042847 -0.516262948513031 119
-1.8448257446289062 2.0295703411102295 -0.5252071022987366 119
-2.1279683113098145 2.341888427734375 -0.4951154887676239 119
-2.1412336826324463 2.357314109802246 -0.38632622361183167 44
-2.1251585483551025 2.340437412261963 -0.27323368191719055 44
-2.116475820541382 2.3316924571990967 -0.16248400509357452 44
-2.101809024810791 2.3163466453552246 -0.05338914319872856 44
-2.1316628456115723 2.350071907043457 0.8393206596374512 44
-2.120192050933838 2.3382456302642822 0.7192991375923157 44
-2.1057000160217285 2.32307767868042 0.6014618277549744 44
-2.1081736087799072 2.32662296295166 0.4906628727912903 44
-2.1079554557800293 2.3271982669830322 0.3808417022228241 44
-2.1185455322265625 2.339709997177124 0.27279746532440186 44
-2.12325119972229 2.3457300662994385 0.16381153464317322 44
-2.1019206047058105 2.322978973388672 0.05401519685983658 44
-1.3205535411834717 1.4619982242584229 -0.5176383256912231 119
-1.524248719215393 1.688103437423706 -0.516262948513031 119
-1.8410186767578125 2.0396413803100586 -0.5261602997779846 119
-2.1065471172332764 2.3346359729766846 -0.49198681116104126 119
-2.1230204105377197 2.3537187576293945 -0.3844982087612152 44
-2.1036338806152344 2.3330442905426025 -0.27149057388305664 44
-2.098294496536255 2.327939510345459 -0.16170157492160797 44
-2.0836713314056396 2.3125271797180176 -0.053129974752664566 44
-2.1137495040893555 2.3467323780059814 0.835440993309021 44
-2.1022369861602783 2.334770441055298 0.7159274220466614 44
-2.0877273082733154 2.319469451904297 0.5986022353172302 44
-2.090129852294922 2.322953939437866 0.4883189797401428 44
-2.089862823486328 2.3234729766845703 0.37901362776756287 44
-2.100374460220337 2.335979461669922 0.2714901566505432 44
-2.105036735534668 2.3419864177703857 0.16302649676799774 44
-2.083770275115967 2.319150447845459 0.053753409534692764 44
-1.3122174739837646 1.4630035161972046 -0.5163442492485046 119
-1.5183470249176025 1.6934138536453247 -0.516262948513031 119
-1.8371635675430298 2.0497100353240967 -0.5271134972572327 119
-2.088498592376709 2.3309409618377686 -0.4896402657032013 119
-2.1048583984375 2.350024938583374 -0.38267016410827637 44
-2.0821869373321533 2.3255295753479004 -0.26974743604660034 44
-2.0801656246185303 2.3240880966186523 -0.1609191596508026 44
-2.0655858516693115 2.3086094856262207 -0.05287080258131027 44
-2.0958850383758545 2.3432962894439697 0.8315612077713013 44
-2.0875794887542725 2.3348302841186523 0.7136796116828918 44
-2.069805145263672 2.3157639503479004 0.5957427024841309 44
-2.0721371173858643 2.319187641143799 0.4859750270843506 44
-2.071822166442871 2.3196496963500977 0.3771856129169464 44
-2.0822553634643555 2.3321502208709717 0.2701827883720398 44
-2.08687424659729 2.338144540786743 0.16224145889282227 44
-2.0690107345581055 2.3189449310302734 0.05357888340950012 44
-1.3135268688201904 1.4747881889343262 -0.5189324021339417 119
-1.5156663656234741 1.7023422718048096 -0.5173877477645874 119
-1.8299975395202637 2.056110382080078 -0.5271134972572327 119
-2.0705015659332275 2.327148675918579 -0.4872937798500061 119
-2.0867481231689453 2.346233367919922 -0.3808421194553375 44
-2.0641279220581055 2.3216161727905273 -0.2684400975704193 44
-2.062088966369629 2.320138454437256 -0.16013672947883606 44
-2.047553300857544 2.304593801498413 -0.05261162668466568 44
-2.078070640563965 2.339764356613159 0.8276814222335815 44
-2.0697126388549805 2.3311729431152344 0.7103078961372375 44
-2.0519347190856934 2.3119618892669678 0.5928831100463867 44
-2.054196357727051 2.315324068069458 0.48363110423088074 44
-2.053833484649658 2.3157291412353516 0.37535756826400757 44
-2.0641889572143555 2.32822322845459 0.26887547969818115 44
-2.0687646865844727 2.334204912185669 0.1614564210176468 44
-2.0509579181671143 2.314927339553833 0.05331709608435631 44
-1.3147701025009155 1.4865996837615967 -0.5215205550193787 119
-1.5097148418426514 1.7076226472854614 -0.5173877477645874 119
-1.8228092193603516 2.062485694885254 -0.5271134972572327 119
