# .PCD v0.7 - Point Cloud Data file format
VERSION 0.7
FIELDS x y z intensity
SIZE 4 4 4 4
TYPE F F F F
COUNT 1 1 1 1
WIDTH 778
HEIGHT 1
VIEWPOINT 0 0 0 1 0 0 0
POINTS 778
DATA ascii
2.9426634311676025 -1.8898814916610718 0.4247146248817444 101
2.9656031131744385 -1.9053453207015991 0.30504509806632996 101
2.964038610458374 -1.9050711393356323 0.18265248835086823 101
2.929436683654785 -1.8835543394088745 0.06012353673577309 101
1.566866159439087 -1.0093892812728882 -0.4891682267189026 119
1.7848608493804932 -1.1502641439437866 -0.48139551281929016 119
2.086542844772339 -1.3452006578445435 -0.4746881127357483 119
2.5263874530792236 -1.6293940544128418 -0.4700859487056732 119
2.9470388889312744 -1.9014215469360352 -0.425933837890625 0
2.911386013031006 -1.8791383504867554 -0.29981622099876404 101
2.9265105724334717 -1.889623999595642 -0.17995820939540863 101
2.912896156311035 -1.8815534114837646 -0.059263672679662704 101
2.887983560562134 -1.866175889968872 0.9104495644569397 101
2.8880531787872314 -1.8669354915618896 0.7844856381416321 101
2.9130988121032715 -1.8838468790054321 0.666278600692749 101
2.897366523742676 -1.8743903636932373 0.5398854613304138 101
2.906883955001831 -1.8812673091888428 0.4204491972923279 101
2.9296658039093018 -1.8967366218566895 0.301994651556015 101
2.9280338287353516 -1.8964054584503174 0.18082071840763092 101
2.8976705074310303 -1.877458095550537 0.05959996581077576 101
1.5633331537246704 -1.014852523803711 -0.4891682267189026 119
1.780834674835205 -1.1564875841140747 -0.48139551281929016 119
2.081834554672241 -1.3524757623672485 -0.4746881127357483 119
2.5206844806671143 -1.6382029056549072 -0.4700859487056732 119
2.915419578552246 -1.895466685295105 -0.4222777485847473 0
2.8839316368103027 -1.8757107257843018 -0.29763731360435486 101
2.894785165786743 -1.8834890127182007 -0.17839334905147552 101
2.876981496810913 -1.8726197481155396 -0.05865894630551338 101
2.8571670055389404 -1.8604326248168945 0.902690052986145 101
2.857024669647217 -1.8610501289367676 0.7777422666549683 101
2.902393102645874 -1.8913244009017944 0.6653254628181458 101
2.865983247756958 -1.868310809135437 0.5351975560188293 101
2.8753581047058105 -1.875137448310852 0.4167931377887726 101
2.8979969024658203 -1.8906221389770508 0.29937997460365295 101
2.8963077068328857 -1.8902409076690674 0.17925064265727997 101
2.865983247756958 -1.871163249015808 0.05907639488577843 101
1.5597810745239258 -1.0203033685684204 -0.4891682267189026 119
1.7727104425430298 -1.1600290536880493 -0.4802708029747009 119
2.0771007537841797 -1.3597344160079956 -0.4746881127357483 119
2.514950752258301 -1.6469916105270386 -0.4700859487056732 119
2.883878231048584 -1.8893144130706787 -0.41862165927886963 0
2.8523707389831543 -1.8693844079971313 -0.2950226366519928 101
2.863138437271118 -1.8771557807922363 -0.1768285036087036 101
2.8453452587127686 -1.8662000894546509 -0.05814060568809509 101
2.822388172149658 -1.8518476486206055 0.8936372995376587 101
2.8219997882843018 -1.8522975444793701 0.7698748707771301 101
2.8752591609954834 -1.8879739046096802 0.6605594754219055 101
2.8346779346466064 -1.8620351552963257 0.5305097103118896 101
2.8397634029388428 -1.8660852909088135 0.4125277101993561 101
2.8622443675994873 -1.8815734386444092 0.296329528093338 101
2.8604886531829834 -1.8811345100402832 0.17741888761520386 101
2.8343753814697266 -1.8646703958511353 0.0585528202354908 101
1.5562101602554321 -1.025741696357727 -0.4891682267189026 119
1.7686502933502197 -1.1662099361419678 -0.4802708029747009 119
2.0723419189453125 -1.3669767379760742 -0.4746881127357483 119
2.509186267852783 -1.6557605266571045 -0.4700859487056732 119
2.8524155616760254 -1.8829652070999146 -0.41496556997299194 0
2.825045585632324 -1.865605354309082 -0.2928437292575836 101
2.831571340560913 -1.8706246614456177 -0.1752636432647705 101
2.813789129257202 -1.859582781791687 -0.057622265070676804 101
2.7917330265045166 -1.8457063436508179 0.885877788066864 101
2.791134834289551 -1.8460110425949097 0.7631314396858215 101
2.8359038829803467 -1.8763320446014404 0.6529340147972107 101
2.799333333969116 -1.8528382778167725 0.5250405669212341 101
2.8084049224853516 -1.85954749584198 0.4088716506958008 101
2.8307433128356934 -1.8750494718551636 0.29371485114097595 101
2.8289313316345215 -1.874559760093689 0.1758487969636917 101
2.8028476238250732 -1.857979655265808 0.05802924558520317 101
1.5526200532913208 -1.03116774559021 -0.4891682267189026 119
1.7605109214782715 -1.1696804761886597 -0.47914600372314453 119
2.0675575733184814 -1.3742021322250366 -0.4746881127357483 119
2.5033912658691406 -1.6645091772079468 -0.4700859487056732 119
2.821032762527466 -1.8764195442199707 -0.41130951046943665 0
2.793635368347168 -1.8588993549346924 -0.29022908210754395 101
2.8000855445861816 -1.8638966083526611 -0.1736987978219986 101
2.786475419998169 -1.8555388450622559 -0.05719031020998955 101
2.761155366897583 -1.8393737077713013 0.8781182765960693 101
2.7603485584259033 -1.8395317792892456 0.7563880681991577 101
2.8007493019104004 -1.8671611547470093 0.6462616324424744 101
2.7681965827941895 -1.8461576700210571 0.5203526616096497 101
2.7771270275115967 -1.8528138399124146 0.4052155315876007 101
2.799323081970215 -1.8683284521102905 0.2911001741886139 101
2.797454833984375 -1.867787480354309 0.17427872121334076 101
2.771401882171631 -1.8510918617248535 0.05750567466020584 101
1.5491920709609985 -1.0363106727600098 -0.4891682267189026 119
1.752778172492981 -1.1724967956542969 -0.4780212938785553 119
2.0673091411590576 -1.3834203481674194 -0.47564128041267395 119
2.498149871826172 -1.6723655462265015 -0.4700859487056732 119
2.7903831005096436 -1.868704080581665 -0.40765342116355896 0
2.7670907974243164 -1.8538048267364502 -0.28805017471313477 101
2.769329071044922 -1.8560048341751099 -0.1721339374780655 101
2.755718231201172 -1.847579836845398 -0.05667196959257126 101
2.7312963008880615 -1.8318970203399658 0.8703587651252747 101
2.7343270778656006 -1.834621787071228 0.7507684826850891 101
2.7663419246673584 -1.8568027019500732 0.6395893692970276 101
2.7377829551696777 -1.8383269309997559 0.51566481590271 101
2.746574878692627 -1.844925880432129 0.4015594720840454 101
2.76863431930542 -1.8604450225830078 0.28848549723625183 101
2.766710042953491 -1.859852910041809 0.1727086454629898 101
2.7406818866729736 -1.8430507183074951 0.05698210373520851 101
1.5457470417022705 -1.0414423942565918 -0.4891682267189026 119
1.748674750328064 -1.1786079406738281 -0.4780212938785553 119
2.062467575073242 -1.3906282186508179 -0.47564128041267395 119
2.4922969341278076 -1.6810754537582397 -0.4700859487056732 119
2.7632739543914795 -1.864553451538086 -0.4046066701412201 0
2.735832452774048 -1.8467321395874023 -0.2854354977607727 101
2.7380051612854004 -1.8488942384719849 -0.17056909203529358 101
2.728538990020752 -1.8431955575942993 -0.0562400184571743 101
2.7008745670318604 -1.8251941204071045 0.86259925365448 101
2.703688621520996 -1.8277833461761475 0.7440250515937805 101
2.7313828468322754 -1.8472002744674683 0.632917046546936 101
2.7068068981170654 -1.831268310546875 0.5109769701957703 101
2.715458631515503 -1.8378124237060547 0.3979033827781677 101
2.7415003776550293 -1.8561352491378784 0.28630661964416504 101
2.739530324935913 -1.8554987907409668 0.171400249004364 101
2.713538408279419 -1.838585376739502 0.056545794010162354 101
1.541919469833374 -1.0471007823944092 -0.4891682267189026 119
1.7443430423736572 -1.1850093603134155 -0.4780212938785553 119
2.0614166259765625 -1.4009371995925903 -0.4765945076942444 119
2.4861185550689697 -1.6901988983154297 -0.4700859487056732 119
2.731799840927124 -1.8579235076904297 -0.4009505808353424 0
2.704336166381836 -1.839935541152954 -0.28282082080841064 101
2.7064435482025146 -1.8420604467391968 -0.16900423169136047 101
2.6969711780548096 -1.8363022804260254 -0.05572167783975601 101
2.6742074489593506 -1.8214861154556274 0.856132984161377 101
2.672814130783081 -1.8212201595306396 0.7372816205024719 101
2.7002599239349365 -1.8406115770339966 0.6271979212760925 101
2.67559552192688 -1.8244831562042236 0.5062891244888306 101
2.6882059574127197 -1.833769679069519 0.39485666155815125 101
2.7099931240081787 -1.849325180053711 0.283691942691803 101
2.712092161178589 -1.8514511585235596 0.17009185254573822 101
2.682011365890503 -1.831602692604065 0.056022223085165024 101
1.5382550954818726 -1.0524767637252808 -0.4891682267189026 119
1.7401961088180542 -1.1910909414291382 -0.4780212938785553 119
2.056514024734497 -1.408124327659607 -0.4765945076942444 119
2.480203628540039 -1.6988667249679565 -0.4700859487056732 119
2.7048287391662598 -1.853421926498413 -0.39790382981300354 0
2.6732468605041504 -1.8324668407440186 -0.2802061438560486 101
2.6794068813323975 -1.8373769521713257 -0.16770018637180328 101
2.6699323654174805 -1.8315651416778564 -0.055289722979068756 101
2.6439390182495117 -1.8144125938415527 0.8483734726905823 101
2.642340898513794 -1.8139941692352295 0.7305382490158081 101
2.673588275909424 -1.8361326456069946 0.6224319338798523 101
2.648858070373535 -1.8198288679122925 0.5023825168609619 101
2.6572489738464355 -1.8262767791748047 0.39120060205459595 101
2.6829991340637207 -1.8446638584136963 0.2815130650997162 101
2.680928945541382 -1.8439295291900635 0.16852177679538727 101
2.6550090312957764 -1.826784610748291 0.05558590963482857 101
1.534571886062622 -1.0578398704528809 -0.4891682267189026 119
1.736027717590332 -1.1971582174301147 -0.4780212938785553 119
2.051586151123047 -1.4152944087982178 -0.4765945076942444 119
2.4742584228515625 -1.7075139284133911 -0.4700859487056732 119
2.677922248840332 -1.8487548828125 -0.39485710859298706 0
2.646341323852539 -1.827634334564209 -0.2780272364616394 101
2.6524362564086914 -1.8325276374816895 -0.1663961410522461 101
2.6429598331451416 -1.8266618251800537 -0.0548577755689621 101
2.613753080368042 -1.807149887084961 0.8406139612197876 101
2.615957736968994 -1.8093492984771729 0.7249186635017395 101
2.642944812774658 -1.8286972045898438 0.6167128086090088 101
2.622185707092285 -1.81501042842865 0.49847596883773804 101
2.630457639694214 -1.8214150667190552 0.3881538510322571 101
2.6560707092285156 -1.839836597442627 0.279334157705307 101
2.6539554595947266 -1.8390568494796753 0.16721338033676147 101
2.62807297706604 -1.8218004703521729 0.05514959990978241 101
1.530869960784912 -1.06318998336792 -0.4891682267189026 119
1.7358393669128418 -1.2059904336929321 -0.47914600372314453 119
2.046633243560791 -1.4224472045898438 -0.4765945076942444 119
2.46828293800354 -1.7161403894424438 -0.4700859487056732 119
2.6510820388793945 -1.8439226150512695 -0.3918103873729706 0
2.6154136657714844 -1.819791555404663 -0.27541255950927734 101
2.6214346885681152 -1.824659824371338 -0.164831280708313 101
2.6119515895843506 -1.818735957145691 -0.05433943495154381 101
2.587613105773926 -1.802459478378296 0.8341476917266846 101
2.5856423377990723 -1.8017572164535522 0.7181752324104309 101
2.616412878036499 -1.8238774538040161 0.6119468808174133 101
2.5955798625946045 -1.810028076171875 0.49456945061683655 101
2.5996625423431396 -1.8135497570037842 0.3844977617263794 101
2.629209041595459 -1.8348438739776611 0.2771552503108978 101
2.627048969268799 -1.8340182304382324 0.1659049689769745 101
2.5971057415008545 -1.8137884140014648 0.05462602898478508 101
1.5311065912246704 -1.0712960958480835 -0.4904623031616211 119
1.7356102466583252 -1.2148360013961792 -0.4802708029747009 119
2.0416555404663086 -1.4295825958251953 -0.4765945076942444 119
2.4582326412200928 -1.7219125032424927 -0.46930378675460815 119
2.620244026184082 -1.8360779285430908 -0.3881542980670929 0
2.5886521339416504 -1.8146144151687622 -0.27323368191719055 101
2.5946085453033447 -1.8194652795791626 -0.163527250289917 101
2.5851237773895264 -1.8134872913360596 -0.05390748381614685 101
2.557584762573242 -1.7948344945907593 0.8263881802558899 101
2.5593996047973633 -1.7967748641967773 0.7125557065010071 101
2.585930109024048 -1.8160738945007324 0.6062277555465698 101
2.565000057220459 -1.8020433187484741 0.48988157510757446 101
2.573014736175537 -1.8083449602127075 0.3814510107040405 101
2.5983400344848633 -1.8268215656280518 0.27454057335853577 101
2.596126079559326 -1.8259421586990356 0.16433489322662354 101
2.5703158378601074 -1.8084595203399658 0.05418971925973892 101
1.527357816696167 -1.0766340494155884 -0.4904623031616211 119
1.7313591241836548 -1.2208869457244873 -0.4802708029747009 119
2.040663480758667 -1.4395296573638916 -0.47754764556884766 119
2.448172092437744 -1.727635383605957 -0.4685215950012207 119
2.5935475826263428 -1.8309025764465332 -0.38510754704475403 0
2.5619587898254395 -1.8092727661132812 -0.27105477452278137 101
2.5678508281707764 -1.8141056299209595 -0.1622232049703598 101
2.5583651065826416 -1.8080735206604004 -0.05347553268074989 101
2.531585216522217 -1.7898099422454834 0.8199219107627869 101
2.5332233905792236 -1.7916314601898193 0.706936240196228 101
2.5595409870147705 -1.8109149932861328 0.6014618277549744 101
2.538538694381714 -1.7967203855514526 0.4859750270843506 101
2.5423853397369385 -1.8001090288162231 0.37779495120048523 101
2.5716240406036377 -1.8214854001998901 0.272361695766449 101
2.569366455078125 -1.8205596208572388 0.16302649676799774 101
2.5435945987701416 -1.802965521812439 0.053753409534692764 101
1.523590326309204 -1.0819590091705322 -0.4904623031616211 119
1.7270869016647339 -1.2269231081008911 -0.4802708029747009 119
2.035626173019409 -1.4466441869735718 -0.47754764556884766 119
2.442126750946045 -1.7361706495285034 -0.4685215950012207 119
2.5669193267822266 -1.8255634307861328 -0.38206082582473755 0
2.535334825515747 -1.8037670850753784 -0.2688758969306946 101
2.5370943546295166 -1.805686116218567 -0.1606583446264267 101
2.531675338745117 -1.8024952411651611 -0.053043581545352936 101
2.5017178058624268 -1.7818242311477661 0.8121623992919922 101
2.5071146488189697 -1.786327600479126 0.7013166546821594 101
2.533219575881958 -1.8055939674377441 0.5966958403587341 101
2.512146234512329 -1.7912349700927734 0.4820684790611267 101
2.5158851146698 -1.7945634126663208 0.37474822998046875 101
2.5449771881103516 -1.815984845161438 0.2701827883720398 101
2.542675733566284 -1.8150124549865723 0.16171810030937195 101
2.5169432163238525 -1.7973072528839111 0.05331709608435631 101
1.5198043584823608 -1.087270736694336 -0.4904623031616211 119
1.7267554998397827 -1.2357796430587769 -0.48139551281929016 119
2.034554958343506 -1.4565984010696411 -0.4785008728504181 119
2.4320363998413086 -1.7418091297149658 -0.46773943305015564 119
2.540360450744629 -1.8200609683990479 -0.3790140748023987 0
2.5087802410125732 -1.798097848892212 -0.2666969895362854 101
2.510486125946045 -1.7999838590621948 -0.1593542993068695 101
2.505056381225586 -1.796752691268921 -0.05261162668466568 101
2.471937656402588 -1.7736519575119019 0.8044028878211975 101
2.4771158695220947 -1.7780224084854126 0.6945732235908508 101
2.5029795169830322 -1.7972486019134521 0.5909767150878906 101
2.481812000274658 -1.7827060222625732 0.4773806035518646 101
2.489454984664917 -1.7888548374176025 0.3717014789581299 101
2.5184006690979004 -1.8103210926055908 0.268003910779953 101
2.5160555839538574 -1.8093013763427734 0.16040968894958496 101
2.4903628826141357 -1.7914851903915405 0.05288079008460045 101
1.5159997940063477 -1.0925692319869995 -0.4904623031616211 119
1.7224313020706177 -1.2417995929718018 -0.48139551281929016 119
2.0334391593933105 -1.4665625095367432 -0.47945404052734375 119
2.4259417057037354 -1.7502880096435547 -0.46773943305015564 119
2.513871192932129 -1.8143953084945679 -0.3759673535823822 0
2.486335039138794 -1.795181155204773 -0.2649538815021515 101
2.4839489459991455 -1.7941179275512695 -0.15805025398731232 101
2.478508472442627 -1.790846586227417 -0.05217967927455902 101
2.446159839630127 -1.7681230306625366 0.7979366779327393 101
2.4511539936065674 -1.7723842859268188 0.688953697681427 101
2.476806163787842 -1.7915912866592407 0.5862108469009399 101
2.4555695056915283 -1.776882529258728 0.47347405552864075 101
2.463095188140869 -1.782983422279358 0.368654727935791 101
2.491894483566284 -1.8044936656951904 0.2658250033855438 101
2.489506483078003 -1.803426742553711 0.15910130739212036 101
2.4638540744781494 -1.7854995727539062 0.05244447663426399 101
1.512176752090454 -1.0978543758392334 -0.4904623031616211 119
1.7180861234664917 -1.2478045225143433 -0.48139551281929016 119
2.0283074378967285 -1.473651647567749 -0.47945404052734375 119
2.4198172092437744 -1.7587454319000244 -0.46773943305015564 119
2.487452983856201 -1.8085672855377197 -0.37292060256004333 0
2.4599125385284424 -1.7891995906829834 -0.2627749741077423 101
2.4574835300445557 -1.7880887985229492 -0.15674620866775513 101
2.4520325660705566 -1.784777283668518 -0.051747728139162064 101
2.4204506874084473 -1.762435793876648 0.7914703488349915 101
2.425262212753296 -1.7665871381759644 0.683334231376648 101
2.454669713973999 -1.7886637449264526 0.5823980569839478 101
2.4293975830078125 -1.7708977460861206 0.46956750750541687 101
2.43680739402771 -1.7769503593444824 0.3656080365180969 101
2.4654600620269775 -1.7985036373138428 0.26364612579345703 101
2.463029146194458 -1.797389030456543 0.15779289603233337 101
2.437417507171631 -1.7793511152267456 0.05200817063450813 101
1.5046290159225464 -1.1000126600265503 -0.4891682267189026 119
1.7178711891174316 -1.2563709020614624 -0.48252031207084656 119
2.0273709297180176 -1.483267903327942 -0.4804072380065918 119
2.409986734390259 -1.7638436555862427 -0.4669572412967682 119
2.4654250144958496 -1.8050791025161743 -0.3704832196235657 0
2.4338738918304443 -1.7826313972473145 -0.26059606671333313 101
2.435429573059082 -1.7844239473342896 -0.15570297837257385 101
2.4259400367736816 -1.778121829032898 -0.051315777003765106 101
2.39511775970459 -1.7561731338500977 0.7850040793418884 101
2.399747848510742 -1.7602119445800781 0.6777146458625793 101
2.428938627243042 -1.7822754383087158 0.5776321291923523 101
2.4075870513916016 -1.7672548294067383 0.4664422571659088 101
2.410900592803955 -1.7703348398208618 0.36256128549575806 101
2.439411163330078 -1.7919256687164307 0.26146721839904785 101
2.4369373321533203 -1.7907633781433105 0.15648449957370758 101
2.415391445159912 -1.775579810142517 0.05165912210941315 101
1.5007799863815308 -1.1052579879760742 -0.4891682267189026 119
1.7134751081466675 -1.2623597383499146 -0.48252031207084656 119
2.0182297229766846 -1.4874236583709717 -0.47945404052734375 119
2.4038150310516357 -1.7722452878952026 -0.4669572412967682 119
2.4391391277313232 -1.798945665359497 -0.3674364686012268 0
2.4075958728790283 -1.7763302326202393 -0.25841715931892395 101
2.4090986251831055 -1.7780884504318237 -0.15439893305301666 101
2.4036309719085693 -1.7747012376785278 -0.05097021907567978 101
2.3734328746795654 -1.753044605255127 0.779831051826477 101
2.377915143966675 -1.756996750831604 0.6732190251350403 101
2.4029669761657715 -1.7761554718017578 0.5728661417961121 101
2.3815488815307617 -1.7609672546386719 0.4625357389450073 101
2.3847572803497314 -1.7639834880828857 0.3595145642757416 101
2.4171254634857178 -1.788578748703003 0.25972411036491394 101
2.410604953765869 -1.7844051122665405 0.1551761031150818 101
2.3890867233276367 -1.7691302299499512 0.05122280865907669 101
1.500597357749939 -1.1136293411254883 -0.4904623031616211 119
1.7127485275268555 -1.2715355157852173 -0.4836450219154358 119
2.0127644538879395 -1.494810700416565 -0.47945404052734375 119
2.393339157104492 -1.778098702430725 -0.4661751091480255 119
2.4165968894958496 -1.7960323095321655 -0.36499908566474915 0
2.385080099105835 -1.7732551097869873 -0.25667405128479004 101
2.382532835006714 -1.7720069885253906 -0.15309488773345947 101
2.3770558834075928 -1.7685779333114624 -0.05053826421499252 101
2.3476195335388184 -1.747313380241394 0.7733648419380188 101
2.355828046798706 -1.7540619373321533 0.6687234044075012 101
2.3767590522766113 -1.7702913284301758 0.5681002140045166 101
2.3592379093170166 -1.7578812837600708 0.4594104588031769 101
2.3623597621917725 -1.7608486413955688 0.35707715153694153 101
2.3905882835388184 -1.7825387716293335 0.25754523277282715 101
2.3840370178222656 -1.7783012390136719 0.1538676917552948 101
2.3665637969970703 -1.7659105062484741 0.050873763859272 101
1.4967010021209717 -1.1188607215881348 -0.4904623031616211 119
1.7082996368408203 -1.2775063514709473 -0.4836450219154358 119
2.0075342655181885 -1.5018274784088135 -0.47945404052734375 119
2.3831639289855957 -1.7834831476211548 -0.46539291739463806 119
2.390449047088623 -1.7895861864089966 -0.36195236444473267 0
2.3589413166046143 -1.7666407823562622 -0.25449514389038086 101
2.3603482246398926 -1.768337368965149 -0.152051642537117 101
2.3548660278320312 -1.7648720741271973 -0.050192706286907196 101
2.3260486125946045 -1.7439085245132446 0.7681918740272522 101
2.337998151779175 -1.753504991531372 0.6653517484664917 101
2.354860544204712 -1.766794204711914 0.5642874836921692 101
2.333338499069214 -1.7512832880020142 0.4555039405822754 101
2.3363559246063232 -1.754185676574707 0.35403043031692505 101
2.3684206008911133 -1.7789069414138794 0.25580209493637085 101
2.361847400665283 -1.774614691734314 0.15282097458839417 101
2.3443961143493652 -1.7621510028839111 0.05052471533417702 101
1.4929823875427246 -1.1238176822662354 -0.4904623031616211 119
1.704277753829956 -1.2828668355941772 -0.4836450219154358 119
2.0028061866760254 -1.508126974105835 -0.47945404052734375 119
2.377549171447754 -1.7909612655639648 -0.46539291739463806 119
2.3689615726470947 -1.7851403951644897 -0.359514981508255 0
2.3374698162078857 -1.7620495557785034 -0.25275203585624695 101
2.3348476886749268 -1.7607121467590332 -0.15074759721755981 101
2.329355001449585 -1.7572078704833984 -0.04976075142621994 101
2.3012819290161133 -1.7366604804992676 0.7617255449295044 101
2.3247010707855225 -1.7549705505371094 0.6631039381027222 101
2.329714059829712 -1.7593934535980225 0.5595215559005737 101
2.312063217163086 -1.7466974258422852 0.45237869024276733 101
2.3149964809417725 -1.749548077583313 0.3515930473804474 101
2.3469274044036865 -1.7743233442306519 0.25405898690223694 101
2.336348533630371 -1.7669665813446045 0.15151259303092957 101
2.318918466567993 -1.7544207572937012 0.05008840188384056 101
1.489247441291809 -1.1287624835968018 -0.4904623031616211 119
1.7036714553833008 -1.291751503944397 -0.4847698211669922 119
1.9975298643112183 -1.5151088237762451 -0.47945404052734375 119
2.3437440395355225 -1.7783536911010742 -0.45991769433021545 119
2.3429510593414307 -1.7783966064453125 -0.35646823048591614 101
2.3114702701568604 -1.755137324333191 -0.25057315826416016 101
2.3127827644348145 -1.756770372390747 -0.14970436692237854 101
2.30330491065979 -1.7502049207687378 -0.04932880401611328 101
2.2798256874084473 -1.7329916954040527 0.7565525770187378 101
2.3108043670654297 -1.7571765184402466 0.6608560681343079 101
2.3079326152801514 -1.7556283473968506 0.5557087659835815 101
2.290231704711914 -1.7427946329116821 0.4492534399032593 101
2.2930803298950195 -1.7455943822860718 0.3491556644439697 101
2.3248684406280518 -1.7704339027404785 0.252315878868103 101
2.314279079437256 -1.7630079984664917 0.15046587586402893 101
2.2968757152557373 -1.7503838539123535 0.049739353358745575 101
1.4851003885269165 -1.1342133283615112 -0.4904623031616211 119
1.698925495147705 -1.2979871034622192 -0.4847698211669922 119
1.9919631481170654 -1.522420048713684 -0.47945404052734375 119
2.313671350479126 -1.768935203552246 -0.4552246630191803 119
2.3206493854522705 -1.7749121189117432 -0.3540308475494385 101
2.289198160171509 -1.751490592956543 -0.24883003532886505 101
2.290468215942383 -1.7530962228775024 -0.14866113662719727 101
2.2809970378875732 -1.7464784383773804 -0.048983242362737656 101
2.254286527633667 -1.7266515493392944 0.75008624792099 101
2.3004813194274902 -1.7626711130142212 0.6597322225570679 101
2.2820043563842773 -1.7491458654403687 0.5509428381919861 101
2.2681524753570557 -1.73915696144104 0.4461282193660736 101
2.270916223526001 -1.741905689239502 0.34671828150749207 101
2.298605442047119 -1.7637819051742554 0.25013697147369385 101
2.2919585704803467 -1.75931715965271 0.1494191586971283 101
2.2706193923950195 -1.7435669898986816 0.049303047358989716 101
1.48878812789917 -1.145279884338379 -0.4930504858493805 119
1.6982452869415283 -1.3068807125091553 -0.4858945310115814 119
1.9905261993408203 -1.532358169555664 -0.4804072380065918 119
2.287919044494629 -1.7619348764419556 -0.4513137936592102 119
2.2947824001312256 -1.7678585052490234 -0.3509840965270996 101
2.267289161682129 -1.7473087310791016 -0.24708691239356995 101
2.2645626068115234 -1.7458374500274658 -0.14735709130764008 101
2.25905179977417 -1.7422176599502563 -0.04863768070936203 101
2.229125499725342 -1.7197587490081787 0.7436200380325317 101
2.2943146228790283 -1.7706904411315918 0.6597322225570679 101
2.2603440284729004 -1.7451027631759644 0.5471300482749939 101
2.2464334964752197 -1.734988808631897 0.44300296902656555 101
2.2451860904693604 -1.73465096950531 0.3436715304851532 101
2.276670455932617 -1.759610891342163 0.24839386343955994 101
2.26605224609375 -1.7520360946655273 0.1481107473373413 101
2.2487010955810547 -1.7392479181289673 0.04895399510860443 101
1.469510555267334 -1.1386371850967407 -0.4878741204738617 119
1.6936731338500977 -1.3128008842468262 -0.4858945310115814 119
1.9851651191711426 -1.5392969846725464 -0.4804072380065918 119
2.266146183013916 -1.7578033208847046 -0.44818511605262756 119
2.272914409637451 -1.7636884450912476 -0.34854671359062195 101
2.2454371452331543 -1.7429953813552856 -0.24534378945827484 101
2.2426793575286865 -1.741481900215149 -0.1463138461112976 101
2.237164258956909 -1.7378252744674683 -0.048292119055986404 101
2.2078540325164795 -1.7156749963760376 0.7384470701217651 101
2.2611937522888184 -1.757757306098938 0.6518648266792297 101
2.2387404441833496 -1.7409299612045288 0.5433173179626465 101
2.2286694049835205 -1.7337228059768677 0.4406590163707733 101
2.2234511375427246 -1.7302863597869873 0.34123414754867554 101
2.2547926902770996 -1.7553082704544067 0.24665075540542603 101
2.2441647052764893 -1.7476637363433838 0.14706403017044067 101
2.22289776802063 -1.7317252159118652 0.04851768910884857 101
1.4845637083053589 -1.1586170196533203 -0.4943445920944214 119
1.6890803575515747 -1.3187048435211182 -0.4858945310115814 119
1.979779839515686 -1.5462172031402588 -0.4804072380065918 119
2.2405388355255127 -1.7505006790161133 -0.44427424669265747 119
2.251103639602661 -1.7593876123428345 -0.3461093306541443 101
2.219719648361206 -1.735483169555664 -0.24316489696502686 101
2.2208545207977295 -1.736994981765747 -0.14527061581611633 101
2.2153351306915283 -1.7333016395568848 -0.04794655740261078 101
2.1828346252441406 -1.7084871530532837 0.7319807410240173 101
2.232027769088745 -1.747618317604065 0.6451213955879211 101
2.217193365097046 -1.7366276979446411 0.5395045876502991 101
2.207054376602173 -1.7293078899383545 0.43753379583358765 101
2.2017743587493896 -1.725791096687317 0.3387967646121979 101
2.232973098754883 -1.7508745193481445 0.24490763247013092 101
2.2223358154296875 -1.7431601285934448 0.14601731300354004 101
2.2011075019836426 -1.7271296977996826 0.048168640583753586 101
1.4767134189605713 -1.1608072519302368 -0.4930504858493805 119
1.68446683883667 -1.3245928287506104 -0.4858945310115814 119
1.970512866973877 -1.5500837564468384 -0.47945404052734375 119
2.2188913822174072 -1.7460951805114746 -0.44114553928375244 119
2.2293505668640137 -1.7549558877944946 -0.34367191791534424 101
2.197995185852051 -1.7308943271636963 -0.24142178893089294 101
2.1990883350372314 -1.7323771715164185 -0.14422737061977386 101
2.1935653686523438 -1.7286466360092163 -0.04760099574923515 101
2.1616857051849365 -1.704135537147522 0.7268077731132507 101
2.2067861557006836 -1.7403143644332886 0.6395019292831421 101
2.1957037448883057 -1.7321964502334595 0.5356917977333069 101
2.185497760772705 -1.7247636318206787 0.4344085454940796 101
2.1801559925079346 -1.7211655378341675 0.3363593816757202 101
2.211211919784546 -1.7463098764419556 0.243164524435997 101
2.2005655765533447 -1.738525629043579 0.1449705958366394 101
2.1793763637542725 -1.7224034070968628 0.0478195920586586 101
nan nan nan 0
1.6798328161239624 -1.3304646015167236 -0.4858945310115814 119
1.9650899171829224 -1.5569525957107544 -0.47945404052734375 119
2.1934316158294678 -1.7384923696517944 -0.43723466992378235 119
2.2076563835144043 -1.7503942251205444 -0.3412345349788666 101
2.1763298511505127 -1.7261749505996704 -0.23967866599559784 101
2.177381753921509 -1.727628469467163 -0.1431841403245926 101
2.1718549728393555 -1.7238610982894897 -0.047255437821149826 101
2.140594005584717 -1.6996574401855469 0.7216347455978394 101
2.1816225051879883 -1.7328554391860962 0.6338824033737183 101
2.1742725372314453 -1.7276363372802734 0.5318790674209595 101
2.163999557495117 -1.7200897932052612 0.4312833249568939 101
2.158596992492676 -1.7164106369018555 0.33392199873924255 101
2.1895101070404053 -1.741614818572998 0.2414214164018631 101
2.1788549423217773 -1.7337605953216553 0.14392387866973877 101
2.161616563796997 -1.7206597328186035 0.047557804733514786 101
nan nan nan 0
1.6751784086227417 -1.336320161819458 -0.4858945310115814 119
1.9596432447433472 -1.563802719116211 -0.47945404052734375 119
2.1719117164611816 -1.7338144779205322 -0.4341059923171997 119
2.186021089553833 -1.7457023859024048 -0.3387971520423889 101
2.154724359512329 -1.7213257551193237 -0.23793554306030273 101
2.155735492706299 -1.7227495908737183 -0.14214091002941132 101
2.1541097164154053 -1.722066879272461 -0.04699626937508583 101
2.115787982940674 -1.692036509513855 0.7151684761047363 101
2.1603429317474365 -1.7282860279083252 0.6293867826461792 101
2.1567320823669434 -1.7260148525238037 0.5290194749832153 101
2.142561197280884 -1.715287446975708 0.42815807461738586 101
2.1409716606140137 -1.7146283388137817 0.3320939540863037 101
2.1678683757781982 -1.7367900609970093 0.239678293466568 101
2.1572048664093018 -1.728865146636963 0.14287716150283813 101
2.1399953365325928 -1.7156864404678345 0.0472087562084198 101
1.4305872917175293 -1.148988962173462 -0.481403648853302 119
1.6667057275772095 -1.3391082286834717 -0.4847698211669922 119
1.9541724920272827 -1.5706335306167603 -0.47945404052734375 119
2.1466031074523926 -1.7259130477905273 -0.430195152759552 119
2.1683127880096436 -1.7439912557601929 -0.3369691073894501 101
2.1331796646118164 -1.7163467407226562 -0.23619243502616882 101
2.1341495513916016 -1.7177410125732422 -0.14109766483306885 101
2.13250994682312 -1.7170345783233643 -0.046650707721710205 101
2.091061592102051 -1.6842631101608276 0.7087022662162781 101
2.1391220092773438 -1.7235894203186035 0.6248911619186401 101
2.1354079246520996 -1.7212117910385132 0.5252067446708679 101
2.121182441711426 -1.7103561162948608 0.4250328242778778 101
2.1195225715637207 -1.7096283435821533 0.32965657114982605 101
2.150163412094116 -1.734963059425354 0.23837095499038696 101
2.135615587234497 -1.7238398790359497 0.1418304443359375 101
2.1223251819610596 -1.7137240171432495 0.046946972608566284 101
nan nan nan 0
1.662021279335022 -1.344917893409729 -0.4847698211669922 119
1.9448630809783936 -1.574357032775879 -0.4785008728504181 119
2.125213861465454 -1.7209641933441162 -0.427066445350647 119
2.14678692817688 -1.7390540838241577 -0.3345317244529724 101
2.111696243286133 -1.7112387418746948 -0.23444931209087372 101
2.1126255989074707 -1.7126027345657349 -0.14005443453788757 101
2.110971450805664 -1.7118724584579468 -0.04630514234304428 101
2.062664747238159 -1.6732953786849976 0.7009427547454834 101
2.117959976196289 -1.7187654972076416 0.6203955411911011 101
2.1141443252563477 -1.7162810564041138 0.5213940143585205 101
2.0998647212982178 -1.7052969932556152 0.42190760374069214 101
2.0981345176696777 -1.7044994831085205 0.327219158411026 101
2.128632068634033 -1.7298922538757324 0.23662783205509186 101
2.1140875816345215 -1.7186851501464844 0.14078372716903687 101
2.100815773010254 -1.7085046768188477 0.046597920358181 101
1.4674625396728516 -1.195554256439209 -0.4969327747821808 119
1.6573164463043213 -1.3507112264633179 -0.4847698211669922 119
1.939355731010437 -1.5811363458633423 -0.4785008728504181 119
2.1038854122161865 -1.7158870697021484 -0.42393776774406433 119
2.125322103500366 -1.7339881658554077 -0.33209434151649475 101
2.094133138656616 -1.709151029586792 -0.2331419736146927 101
2.091163396835327 -1.707335352897644 -0.1390112042427063 101
2.0894951820373535 -1.7065812349319458 -0.045959584414958954 101
2.0231494903564453 -1.6529823541641235 0.689303457736969 101
2.096858024597168 -1.7138152122497559 0.615899920463562 101
2.0929410457611084 -1.7112230062484741 0.5175812244415283 101
2.0786080360412598 -1.700109601020813 0.4187823235988617 101
2.0806491374969482 -1.7023850679397583 0.32539111375808716 101
2.1071627140045166 -1.724692702293396 0.23488472402095795 101
2.0964853763580322 -1.716564416885376 0.1399986743927002 101
2.0832366943359375 -1.7063242197036743 0.046336136758327484 101
nan nan nan 0
1.6563572883605957 -1.359579086303711 -0.4858945310115814 119
1.9338247776031494 -1.5878963470458984 -0.4785008728504181 119
2.0826187133789062 -1.7106822729110718 -0.4208090603351593 119
2.103919267654419 -1.728793740272522 -0.3296569287776947 101
2.072762966156006 -1.7037986516952515 -0.23139885067939758 101
2.0736207962036133 -1.7051103115081787 -0.13822877407073975 101
2.068082094192505 -1.7011609077453613 -0.04561402276158333 101
2.0248260498046875 -1.6661721467971802 0.6918899416923523 101
2.079578399658203 -1.7118350267410278 0.6125282049179077 101
2.071798801422119 -1.7060381174087524 0.5137684941291809 101
2.061225652694702 -1.6979351043701172 0.41643840074539185 101
2.0593743324279785 -1.6970134973526 0.3229537308216095 101
2.0857558250427246 -1.7193644046783447 0.23314161598682404 101
2.0789239406585693 -1.7143419981002808 0.13921363651752472 101
2.061842203140259 -1.7008607387542725 0.0459870882332325 101
nan nan nan 0
1.6516011953353882 -1.3653526306152344 -0.4858945310115814 119
1.932052731513977 -1.5977649688720703 -0.47945404052734375 119
2.0614137649536133 -1.7053499221801758 -0.4176803529262543 119
2.082578659057617 -1.7234711647033691 -0.32721954584121704 101
2.0552926063537598 -1.7014946937561035 -0.23009151220321655 101
2.0522735118865967 -1.699599027633667 -0.13718552887439728 101
2.05058217048645 -1.6988017559051514 -0.04535485431551933 101
2.0152788162231445 -1.6701480150222778 0.6905966401100159 101
2.0585873126983643 -1.7066457271575928 0.6080325841903687 101
2.0507187843322754 -1.7007263898849487 0.5099557638168335 101
2.0438835620880127 -1.695659875869751 0.4140944480895996 101
2.0419814586639404 -1.6946836709976196 0.32112571597099304 101
2.068244457244873 -1.7170894145965576 0.2318342626094818 101
2.061403512954712 -1.7120180130004883 0.13842859864234924 101
2.0405113697052 -1.6952687501907349 0.04563803970813751 101
nan nan nan 0
1.6468253135681152 -1.3711093664169312 -0.4858945310115814 119
1.9264636039733887 -1.6044994592666626 -0.47945404052734375 119
2.0402722358703613 -1.6998904943466187 -0.41455164551734924 119
2.0613009929656982 -1.7180207967758179 -0.3247821629047394 101
2.0340380668640137 -1.6958997249603271 -0.22834838926792145 101
2.034824848175049 -1.697157859802246 -0.13640311360359192 101
2.029285192489624 -1.6931382417678833 -0.04500929266214371 101
2.0057287216186523 -1.6740776300430298 0.689303457736969 101
2.041398048400879 -1.7044535875320435 0.6046608686447144 101
2.029700994491577 -1.6952884197235107 0.5061429738998413 101
2.0227928161621094 -1.6901179552078247 0.41096922755241394 101
2.024630069732666 -1.6922531127929688 0.3192976713180542 101
2.0469532012939453 -1.711518406867981 0.2300911545753479 101
2.0400948524475098 -1.7063891887664795 0.1373818814754486 101
2.0230789184570312 -1.6927566528320312 0.0453762523829937 101
nan nan nan 0
1.6420291662216187 -1.3768495321273804 -0.4858945310115814 119
1.9246115684509277 -1.6143685579299927 -0.4804072380065918 119
2.0229766368865967 -1.697479009628296 -0.41220515966415405 119
2.0438880920410156 -1.715633511543274 -0.32295411825180054 101
2.016662359237671 -1.6933804750442505 -0.2270410656929016 101
2.0135951042175293 -1.6914042234420776 -0.13535988330841064 101
2.0080530643463135 -1.6873469352722168 -0.04466373473405838 101
1.988781213760376 -1.6717453002929688 0.6854236721992493 101
2.0205202102661133 -1.6990264654159546 0.6001651883125305 101
2.012502670288086 -1.6928843259811401 0.5032833814620972 101
2.005544662475586 -1.6876293420791626 0.4086253046989441 101
2.0035240650177 -1.6865261793136597 0.31686028838157654 101
2.025726079940796 -1.7058196067810059 0.228348046541214 101
2.018850803375244 -1.7006325721740723 0.13633516430854797 101
2.001866102218628 -1.6869224309921265 0.04502720385789871 101
nan nan nan 0
1.633490800857544 -1.3794296979904175 -0.4847698211669922 119
1.915215253829956 -1.6179094314575195 -0.47945404052734375 119
2.005723237991333 -1.69496750831604 -0.4098586142063141 119
2.0227270126342773 -1.7099419832229614 -0.3205167353153229 101
1.9993289709091187 -1.690760612487793 -0.2257337123155594 101
1.9962421655654907 -1.6887478828430176 -0.1345774382352829 101
1.9907023906707764 -1.6846574544906616 -0.044404562562704086 101
1.9718749523162842 -1.669315218925476 0.6815439462661743 101
2.0034234523773193 -1.6966233253479004 0.596793532371521 101
1.9916008710861206 -1.6872082948684692 0.49947065114974976 101
1.9845713376998901 -1.6818482875823975 0.4055000841617584 101
1.9862682819366455 -1.6838821172714233 0.3150322437286377 101
2.004564046859741 -1.6999939680099487 0.22660492360591888 101
1.9976720809936523 -1.6947486400604248 0.13528844714164734 101
1.9807190895080566 -1.680960774421692 0.044678159058094025 101
nan nan nan 0
1.628665804862976 -1.3851232528686523 -0.4847698211669922 119
1.9058175086975098 -1.6214042901992798 -0.4785008728504181 119
1.9847513437271118 -1.6891556978225708 -0.40672993659973145 119
2.0054097175598145 -1.7073410749435425 -0.31868869066238403 101
1.9820387363433838 -1.6880406141281128 -0.22442638874053955 101
1.9789329767227173 -1.6859914064407349 -0.13379502296447754 101
1.9733949899673462 -1.6818677186965942 -0.04414539039134979 101
1.9513343572616577 -1.663654088973999 0.6763709187507629 101
1.9826610088348389 -1.6909600496292114 0.5922979116439819 101
1.9744974374771118 -1.684592843055725 0.4966111183166504 101
1.9674190282821655 -1.6791472434997559 0.4031561315059662 101
1.965281367301941 -1.6779156923294067 0.31259486079216003 101
1.98346745967865 -1.6940412521362305 0.22486181557178497 101
1.9803552627563477 -1.6919809579849243 0.13450339436531067 101
1.9634381532669067 -1.6781202554702759 0.04441636800765991 101
nan nan nan 0
1.62752103805542 -1.3939690589904785 -0.4858945310115814 119
1.896418809890747 -1.624853491783142 -0.47754764556884766 119
1.9675941467285156 -1.6864320039749146 -0.40438342094421387 119
1.9843679666519165 -1.701409935951233 -0.31625130772590637 101
1.9647918939590454 -1.6852202415466309 -0.22311905026435852 101
1.957877516746521 -1.6798830032348633 -0.13275177776813507 101
1.9561316967010498 -1.6789779663085938 -0.0438862219452858 101
1.9381864070892334 -1.6641628742218018 0.6737844347953796 101
1.9656585454940796 -1.6883469820022583 0.5889261960983276 101
1.957436442375183 -1.6818785667419434 0.49375152587890625 101
1.950310230255127 -1.676347255706787 0.40081220865249634 101
1.9481233358383179 -1.6750588417053223 0.3107668161392212 101
1.9662134647369385 -1.691210389137268 0.22355449199676514 101
1.95929753780365 -1.6858566999435425 0.13345667719841003 101
1.9424127340316772 -1.671918511390686 0.044067323207855225 101
nan nan nan 0
1.622645378112793 -1.399641752243042 -0.4858945310115814 119
1.8870196342468262 -1.628256916999817 -0.4765945076942444 119
1.950480341911316 -1.6836092472076416 -0.4020369052886963 119
1.9633920192718506 -1.695352554321289 -0.3138139247894287 101
1.9475890398025513 -1.6823004484176636 -0.2218116968870163 101
1.9406675100326538 -1.6769132614135742 -0.1319693624973297 101
1.9389125108718872 -1.675987958908081 -0.0436270497739315 101
1.9250587224960327 -1.664599895477295 0.6711979508399963 101
1.945014238357544 -1.6824487447738647 0.5844305753707886 101
1.9367072582244873 -1.6758543252944946 0.48993879556655884 101
1.9295107126235962 -1.6702159643173218 0.3976869285106659 101
1.9272578954696655 -1.6688543558120728 0.30832943320274353 101
1.945238471031189 -1.6850184202194214 0.22181135416030884 101
1.9420801401138306 -1.6828759908676147 0.13267163932323456 101
1.9252322912216187 -1.6688652038574219 0.04380553960800171 101
nan nan nan 0
1.6179949045181274 -1.4050148725509644 -0.4858945310115814 119
1.8816096782684326 -1.6345055103302002 -0.4765945076942444 119
1.9337034225463867 -1.6803501844406128 -0.3996903598308563 119
1.942777395248413 -1.6888304948806763 -0.31137651205062866 101
1.9269652366638184 -1.675675868988037 -0.2200685739517212 101
1.9200270175933838 -1.6702309846878052 -0.13092611730098724 101
1.9220305681228638 -1.6725631952285767 -0.04336788132786751 101
1.9122422933578491 -1.6646320819854736 0.6686114072799683 101
1.9284018278121948 -1.679290771484375 0.5810588598251343 101
1.9200364351272583 -1.6725952625274658 0.4870792031288147 101
1.9127918481826782 -1.6668716669082642 0.39534303545951843 101
1.9104905128479004 -1.6654529571533203 0.3065013885498047 101
1.9283779859542847 -1.6816387176513672 0.220504030585289 101
1.9252009391784668 -1.6794596910476685 0.13188660144805908 101
1.9083874225616455 -1.6653790473937988 0.043543748557567596 101
1.4177895784378052 -1.2394336462020874 -0.4943445920944214 119
1.6130807399749756 -1.4106541872024536 -0.4858945310115814 119
1.8721983432769775 -1.637831687927246 -0.47564128041267395 119
1.9166772365570068 -1.6773332357406616 -0.39734387397766113 119
1.925668478012085 -1.6857951879501343 -0.3095484673976898 101
1.909862995147705 -1.6725473403930664 -0.21876125037670135 101
1.9029176235198975 -1.6670520305633545 -0.1301436871290207 101
1.9049010276794434 -1.6693772077560425 -0.043108709156513214 101
1.8991563320159912 -1.664928913116455 0.666024923324585 101
1.9078762531280518 -1.673162579536438 0.5765632390975952 101
1.903117060661316 -1.6695765256881714 0.48421967029571533 101
1.895825982093811 -1.663765788078308 0.3929990828037262 101
1.8897475004196167 -1.6590152978897095 0.30406397581100464 101
1.9112681150436401 -1.6784991025924683 0.21919669210910797 101
1.9080734252929688 -1.6762832403182983 0.1311015635728836 101
1.8912971019744873 -1.6621299982070923 0.04328196495771408 101
nan nan nan 0
1.6044906377792358 -1.4130563735961914 -0.4847698211669922 119
1.8664698600769043 -1.6443568468093872 -0.47564128041267395 119
1.8959908485412598 -1.6709526777267456 -0.3942151665687561 119
1.9048817157745361 -1.6793791055679321 -0.30711108446121216 101
1.8890701532363892 -1.6660252809524536 -0.21701814234256744 101
1.8858540058135986 -1.6637742519378662 -0.12936127185821533 101
1.887817621231079 -1.6660926342010498 -0.04284954071044922 101
1.886091709136963 -1.6651551723480225 0.6634384393692017 101
1.891068935394287 -1.6701366901397705 0.5731915235519409 101
1.886242389678955 -1.6664600372314453 0.4813600778579712 101
1.8789054155349731 -1.6605621576309204 0.39065515995025635 101
1.872791051864624 -1.65574049949646 0.3022359609603882 101
1.8942043781280518 -1.67526113986969 0.21788936853408813 101
1.8909915685653687 -1.673007845878601 0.13031652569770813 101
1.8742526769638062 -1.6587817668914795 0.04302017763257027 101
1.4163298606872559 -1.2557092905044556 -0.4969327747821808 119
1.5995484590530396 -1.4186484813690186 -0.4847698211669922 119
1.8607186079025269 -1.6508620977401733 -0.47564128041267395 119
1.879065752029419 -1.6677261590957642 -0.3918686509132385 0
1.8878744840621948 -1.676133394241333 -0.3052830398082733 101
1.8720704317092896 -1.6626862287521362 -0.21571078896522522 101
1.865103840827942 -1.6570812463760376 -0.12831802666187286 101
1.867043375968933 -1.6593877077102661 -0.04250397905707359 101
1.8694391250610352 -1.6621010303497314 0.6595586538314819 101
1.8743059635162354 -1.6670137643814087 0.5698198080062866 101
1.8694130182266235 -1.663246512413025 0.4785005450248718 101
1.8583412170410156 -1.6539770364761353 0.3875299394130707 101
1.8558802604675293 -1.652367353439331 0.30040791630744934 101
1.8771862983703613 -1.671924352645874 0.2165820151567459 101
1.8739557266235352 -1.6696336269378662 0.12953148782253265 101
1.857254981994629 -1.6553353071212769 0.04275839403271675 101
1.4227458238601685 -1.2702953815460205 -0.5008150935173035 119
1.5909532308578491 -1.4209779500961304 -0.4836450219154358 119
1.8549447059631348 -1.6573472023010254 -0.47564128041267395 119
1.8621869087219238 -1.6644024848937988 -0.38952213525772095 0
1.8746131658554077 -1.6760975122451782 -0.3040643334388733 101
1.8551174402236938 -1.659249186515808 -0.21440346539020538 101
1.848144769668579 -1.6535933017730713 -0.1275355964899063 101
1.8500643968582153 -1.655892252922058 -0.0422448068857193 101
1.8528310060501099 -1.6589511632919312 0.6556788682937622 101
1.857588291168213 -1.6637946367263794 0.5664480924606323 101
1.8526289463043213 -1.659935712814331 0.4756409525871277 101
1.8452013731002808 -1.6538612842559814 0.38596731424331665 101
1.8390164375305176 -1.64889657497406 0.2985799014568329 101
1.8602149486541748 -1.6684894561767578 0.21527469158172607 101
1.853250503540039 -1.6628265380859375 0.12848477065563202 101
1.8403042554855347 -1.6517903804779053 0.04249660670757294 101
1.414711594581604 -1.2720247507095337 -0.4995209574699402 119
1.5859832763671875 -1.4265227317810059 -0.4836450219154358 119
1.852797031402588 -1.6670953035354614 -0.4765945076942444 119
1.8453538417816162 -1.6609808206558228 -0.38717561960220337 0
1.857686996459961 -1.6726689338684082 -0.30223631858825684 101
1.838211178779602 -1.655713677406311 -0.21309611201286316 101
1.8312329053878784 -1.6500072479248047 -0.12675316631793976 101
1.8331327438354492 -1.6522988080978394 -0.041985634714365005 101
1.8362677097320557 -1.6557055711746216 0.6517991423606873 101
1.8409156799316406 -1.660479187965393 0.563076376914978 101
1.8358912467956543 -1.6565282344818115 0.4727814197540283 101
1.8284189701080322 -1.6503651142120361 0.3836233615875244 101
1.8221993446350098 -1.6453282833099365 0.29675182700157166 101
1.8432903289794922 -1.6649563312530518 0.21396735310554504 101
1.8363205194473267 -1.659242868423462 0.12769973278045654 101
1.8234009742736816 -1.6481472253799438 0.04223481938242912 101
1.4031027555465698 -1.2704720497131348 -0.4969327747821808 119
1.5809941291809082 -1.4320502281188965 -0.4836450219154358 119
1.8469665050506592 -1.6735525131225586 -0.4765945076942444 119
1.8285678625106812 -1.6574625968933105 -0.3848291039466858 0
1.8408077955245972 -1.669142484664917 -0.300408273935318 101
1.821352243423462 -1.6520806550979614 -0.21178877353668213 101
1.8180664777755737 -1.6496788263320923 -0.12623155117034912 101
1.8162487745285034 -1.6486074924468994 -0.04172646626830101 101
1.8197498321533203 -1.652364730834961 0.6479193568229675 101
1.824289321899414 -1.6570676565170288 0.5597046613693237 101
1.8191996812820435 -1.6530240774154663 0.4699218273162842 101
1.8116836547851562 -1.646772027015686 0.38127946853637695 101
1.805429458618164 -1.641662836074829 0.2949237823486328 101
1.8264132738113403 -1.6613255739212036 0.212660014629364 101
1.819438099861145 -1.6555612087249756 0.12691469490528107 101
1.8065458536148071 -1.6444066762924194 0.04197303578257561 101
1.4022281169891357 -1.278616189956665 -0.4982268810272217 119
1.5759857892990112 -1.4375602006912231 -0.4836450219154358 119
1.8411134481430054 -1.6799894571304321 -0.4765945076942444 119
1.811828851699829 -1.6538472175598145 -0.3824825882911682 0
1.823975920677185 -1.665518879890442 -0.29858022928237915 101
1.808219075202942 -1.651709794998169 -0.21091720461845398 101
